# .PCD v0.7 - Point Cloud Data file format
VERSION 0.7
FIELDS x y z
SIZE 4 4 4
TYPE F F F
COUNT 1 1 1
WIDTH 1562
HEIGHT 1
VIEWPOINT 0 0 0 1 0 0 0
POINTS 1562
DATA ascii
1.7029001 1.1102959 0.14421394
1.7040734 1.1114677 0.14445469
1.7054801 1.1126429 0.14446218
1.7054801 1.1133024 0.14446218
1.706654 1.1144819 0.14470261
1.706654 1.1154729 0.14470261
1.706654 1.1164639 0.14470261
1.7003341 1.0874701 0.14536566
1.69987 1.0917358 0.1458298
1.6986996 1.0928928 0.14558589
1.6995165 1.0926424 0.14547616
1.7003341 1.0923921 0.14536566
1.6986996 1.0935481 0.14558589
1.699163 1.0935481 0.14512253
1.6986996 1.0942032 0.14558589
1.699163 1.0942032 0.14512253
1.6958971 1.09552 0.14556
1.6963589 1.09552 0.14509818
1.6947274 1.0966632 0.14531538
1.6947274 1.0976411 0.14531538
1.6947274 1.098619 0.14531538
1.6947274 1.0995969 0.14531538
1.6970665 1.1005863 0.14580464
1.6970665 1.1015674 0.14580464
1.6970665 1.1025485 0.14580464
1.6975292 1.1035297 0.14534205
1.6986996 1.1046861 0.14558589
1.699163 1.1046861 0.14512253
1.6986996 1.1053413 0.14558589
1.699163 1.1053413 0.14512253
1.7015053 1.1063516 0.14560875
1.7015053 1.1073377 0.14560875
1.703142 1.1085045 0.1453861
1.703142 1.109163 0.1453861
1.7045472 1.1103343 0.14539514
1.7057195 1.111509 0.14563714
1.7057195 1.1121696 0.14563714
1.7071258 1.1133485 0.14564502
1.7071258 1.1143413 0.14564502
1.7071258 1.115003 0.14564502
1.7082984 1.1158565 0.14588657
1.7082984 1.1165195 0.14588657
1.7082984 1.1171823 0.14588657
1.7045513 1.0893764 0.14680526
1.7045513 1.0903674 0.14680526
1.6994058 1.0917358 0.14629397
1.6982362 1.0928928 0.14604926
1.6994058 1.0923921 0.14629397
1.6982362 1.0935481 0.14604926
1.6982362 1.0942032 0.14604926
1.6989417 1.0956736 0.14675811
1.7005755 1.0951761 0.14653859
1.6975412 1.0968239 0.14674433
1.6989417 1.0963298 0.14675811
1.6975412 1.0974791 0.14674433
1.6963727 1.098624 0.14649856
1.6975412 1.0981343 0.14674433
1.6963727 1.0996051 0.14649856
1.6963727 1.1005863 0.14649856
1.6963726 1.1015674 0.14649856
1.6963727 1.1025485 0.14649856
1.6975412 1.1033758 0.14674433
1.6982362 1.1033758 0.14604926
1.6975412 1.104031 0.14674433
1.6982362 1.104031 0.14604926
1.7005755 1.1053655 0.14653859
1.7005755 1.1063516 0.14653859
1.7010404 1.1063516 0.14607367
1.7005755 1.1073377 0.14653859
1.7010404 1.1073377 0.14607367
1.7036142 1.1086854 0.14632809
1.7036142 1.109345 0.14632809
1.7061898 1.1103706 0.14658108
1.7061898 1.1113632 0.14658108
1.7061898 1.1123559 0.14658108
1.7066578 1.1133485 0.14611304
1.707361 1.1135366 0.14682415
1.7066578 1.1143413 0.14611304
1.707361 1.1145308 0.14682415
1.7066578 1.115003 0.14611304
1.7075173 1.1156355 0.14666788
1.7078297 1.1165195 0.14635536
1.7078297 1.1171823 0.14635536
1.7054877 1.0878705 0.14728312
1.7054877 1.0885322 0.14728312
1.704084 1.0893764 0.1472725
1.704084 1.0903674 0.1472725
1.7064233 1.0916619 0.14776179
1.7036169 1.0923495 0.14773977
1.7008135 1.0933596 0.14771461
1.7012793 1.0933596 0.14724889
1.7036169 1.0930102 0.14773977
1.6996456 1.0945188 0.14746842
1.7004621 1.0942684 0.14735906
1.7012793 1.0940181 0.14724889
1.6984775 1.0956736 0.14722225
1.6994131 1.0955048 0.14770089
1.7001106 1.0951761 0.1470035
1.6984775 1.0963298 0.14722225
1.6991806 1.0964909 0.14793336
1.6991806 1.097477 0.14793336
1.6980133 1.0989549 0.14768642
1.6991806 1.0984631 0.14793336
1.6980133 1.0996113 0.14768642
1.6980133 1.1005957 0.14768642
1.6980133 1.10158 0.14768642
1.6980133 1.1025646 0.14768642
1.6991806 1.1037221 0.14793336
1.6991806 1.1043794 0.14793336
1.6996456 1.1053655 0.14746842
1.7001106 1.1053655 0.1470035
1.7019815 1.1067066 0.14796078
1.702448 1.1067066 0.14749429
1.7019815 1.1073662 0.14796078
1.702448 1.1073662 0.14749429
1.7019815 1.1080258 0.14796078
1.7026813 1.1083555 0.14726105
1.7036169 1.1088662 0.14773977
1.7029145 1.109345 0.14702782
1.7036169 1.1095269 0.14773977
1.7047856 1.1103706 0.14798516
1.7054877 1.1103706 0.14728312
1.7047856 1.1110324 0.14798516
1.7054877 1.1113632 0.14728312
1.7054877 1.1123559 0.14728312
1.7066576 1.1135366 0.14752738
1.7066576 1.1145308 0.14752738
1.7066576 1.1155251 0.14752738
1.7082973 1.1167123 0.14730203
1.7082973 1.1173763 0.14730203
1.708292 1.0886402 0.1487214
1.708292 1.0896378 0.1487214
1.7057202 1.0916619 0.14846498
1.7034996 1.0924262 0.14856413
1.7026823 1.0936708 0.14867428
1.7034996 1.0930874 0.14856413
1.6998821 1.0946766 0.148646
1.7003479 1.0946766 0.14818031
1.7026823 1.0943315 0.14867428
1.6987157 1.0958335 0.14839828
1.6998821 1.095335 0.148646
1.7003479 1.095335 0.14818031
1.6987157 1.0964909 0.14839828
1.6987157 1.097477 0.14839828
1.6975492 1.0989549 0.14815056
1.6987157 1.0984631 0.14839828
1.6975492 1.0996113 0.14815056
1.6982508 1.0994492 0.1488632
1.6975492 1.1005957 0.14815056
1.6982508 1.1004351 0.1488632
1.6975492 1.10158 0.14815056
1.6982508 1.1014212 0.1488632
1.6975492 1.1025646 0.14815056
1.6982508 1.1024073 0.1488632
1.6984832 1.1033933 0.14863074
1.6987157 1.1043794 0.14839828
1.7012818 1.1053876 0.14866048
1.7012818 1.1060472 0.14866048
1.7026823 1.1068842 0.14867428
1.7026823 1.1075449 0.14867428
1.7026823 1.1082056 0.14867428
1.7031496 1.1088662 0.14820704
1.7031496 1.1095269 0.14820704
1.7043176 1.1103706 0.14845318
1.7043176 1.1110324 0.14845318
1.7057202 1.1118793 0.14846498
1.7057202 1.1125423 0.14846498
1.7066536 1.1133926 0.14894554
1.7071233 1.1133926 0.14847597
1.7066536 1.1140565 0.14894554
1.7071233 1.1140565 0.14847597
1.708292 1.1149101 0.1487214
1.708292 1.1155752 0.1487214
1.7075928 1.1167123 0.14800638
1.708292 1.1165727 0.1487214
1.7075928 1.1173763 0.14800638
1.708292 1.1175703 0.1487214
1.7078217 1.0886402 0.14919174
1.7085186 1.0884534 0.14990911
1.7078217 1.0896378 0.14919174
1.7085186 1.0894526 0.14990911
1.7087542 1.0904518 0.14967354
1.7057145 1.0914818 0.1498847
1.706184 1.0914818 0.14941514
1.7087542 1.091118 0.14967354
1.7033815 1.0925028 0.14938924
1.7057145 1.0921457 0.1498847
1.706184 1.0921457 0.14941514
1.7025642 1.0937486 0.1494994
1.7033815 1.0931647 0.14938924
1.7017478 1.0949922 0.14960876
1.7025642 1.0944098 0.1494994
1.7017478 1.0956528 0.14960876
1.7003489 1.0964832 0.14959344
1.7003489 1.0974727 0.14959344
1.7003489 1.098462 0.14959344
1.6977859 1.0994492 0.14932814
1.6977859 1.1004351 0.14932814
1.6977859 1.1014212 0.14932814
1.6977859 1.1024073 0.14932814
1.6977859 1.1030647 0.14932814
1.7003489 1.1043981 0.14959344
1.7017478 1.1055629 0.14960876
1.7017478 1.1065539 0.14960876
1.7022151 1.1068842 0.14914152
1.7022151 1.1075449 0.14914152
1.7022151 1.1082056 0.14914152
1.7045481 1.1095593 0.14963701
1.7050169 1.1095593 0.14916819
1.7057145 1.1107367 0.1498847
1.706184 1.1107367 0.14941514
1.7057145 1.1114006 0.1498847
1.706184 1.1114006 0.14941514
1.7073513 1.1125824 0.14966211
1.7073513 1.11358 0.14966211
1.7075865 1.1145775 0.14942692
1.7078217 1.1155752 0.14919174
1.7085186 1.1154327 0.14990911
1.7078217 1.1165727 0.14919174
1.7085186 1.1164321 0.14990911
1.7078217 1.1175703 0.14919174
1.7075764 1.0884534 0.15085137
1.7080475 1.0884534 0.15038022
1.7075764 1.0894526 0.15085137
1.7080475 1.0894526 0.15038022
1.7075764 1.0904518 0.15085137
1.7080475 1.0904518 0.15038022
1.7064106 1.091633 0.15060282
1.7075764 1.091118 0.15085137
1.7080475 1.091118 0.15038022
1.7036104 1.0926563 0.15057459
1.7040793 1.0926563 0.1501058
1.7064106 1.092298 0.15060282
1.7019775 1.0938264 0.15079334
1.7024455 1.0938264 0.1503253
1.7036104 1.0933192 0.15057459
1.7040793 1.0933192 0.1501058
1.701629 1.0947402 0.15043469
1.7024455 1.0944881 0.1503253
1.7017452 1.0955383 0.15055424
1.7008133 1.0966438 0.1505433
1.7008133 1.0976348 0.1505433
1.7008133 1.0986259 0.1505433
1.6994159 1.0994514 0.15052639
1.6994159 1.1004407 0.15052639
1.6994159 1.1014301 0.15052639
1.6994158 1.1024194 0.15052639
1.6994159 1.1034088 0.15052639
1.7008133 1.1045718 0.1505433
1.7012806 1.1055629 0.15007603
1.7012806 1.1065539 0.15007603
1.7036104 1.1079022 0.15057459
1.7040793 1.1079022 0.1501058
1.7036104 1.1085651 0.15057459
1.7040793 1.1085651 0.1501058
1.7047753 1.1094087 0.15082386
1.7052449 1.1094087 0.1503543
1.7047753 1.1100727 0.15082386
1.7052449 1.1100727 0.1503543
1.7075764 1.1114359 0.15085137
1.706881 1.1125824 0.15013245
1.7075764 1.1124351 0.15085137
1.706881 1.11358 0.15013245
1.7075764 1.1131012 0.15085137
1.706881 1.1142451 0.15013245
1.7080475 1.1154327 0.15038022
1.7080475 1.1164321 0.15038022
1.7094498 1.1176248 0.15039201
1.7082701 1.0885991 0.15157178
1.7082701 1.0896001 0.15157178
1.7082701 1.0906008 0.15157178
1.705705 1.091633 0.15130836
1.7082701 1.0912682 0.15157178
1.7034889 1.0927329 0.15140323
1.705705 1.092298 0.15130836
1.7024384 1.093982 0.15174662
1.7034889 1.0933964 0.15140323
1.7024384 1.0946449 0.15174662
1.7012755 1.0954809 0.15149537
1.6998788 1.0966438 0.15147778
1.700346 1.0966438 0.15101054
1.6998788 1.0976348 0.15147778
1.700346 1.0976348 0.15101054
1.6998788 1.0986259 0.15147778
1.700346 1.0986259 0.15101054
1.6996452 1.0996169 0.1517114
1.6996452 1.1006079 0.1517114
1.7010415 1.1017677 0.15172938
1.7010415 1.1024294 0.15172938
1.7010415 1.103422 0.15172938
1.700346 1.1045718 0.15101054
1.702204 1.1045879 0.15198103
1.7024384 1.1055822 0.15174662
1.7031417 1.1059136 0.15104342
1.7026728 1.1065764 0.15151221
1.7031417 1.1065764 0.15104342
1.7026728 1.1072394 0.15151221
1.7031417 1.1072394 0.15104342
1.7054698 1.108592 0.15154353
1.7071052 1.1114359 0.15132251
1.7071052 1.1124351 0.15132251
1.7071052 1.1131012 0.15132251
1.7085061 1.1139548 0.15133582
1.7085061 1.1146221 0.15133582
1.7096714 1.115479 0.15158471
1.7096714 1.1164815 0.15158471
1.7096714 1.117484 0.15158471
1.7096714 1.1181524 0.15158471
1.7068543 1.0885991 0.15298751
1.7075622 1.0885991 0.15227965
1.7068543 1.0896001 0.15298751
1.7075622 1.0896001 0.15227965
1.7068543 1.0906008 0.15298751
1.7075622 1.0906008 0.15227965
1.7047644 1.091633 0.15224908
1.7068543 1.0912682 0.15298751
1.7075622 1.0912682 0.15227965
1.702897 1.0928097 0.15270221
1.7033665 1.0928097 0.15223262
1.7047644 1.092298 0.15224908
1.7015009 1.093982 0.15268423
1.702897 1.0934737 0.15270221
1.7033665 1.0934737 0.15223262
1.7015009 1.0946449 0.15268423
1.7003396 1.0954809 0.15243143
1.7003394 1.0964735 0.15243143
1.7003394 1.0974661 0.15243143
1.7003394 1.0984588 0.15243143
1.6989443 1.0996169 0.1524123
1.7003394 1.0991206 0.15243143
1.6989443 1.1006079 0.1524123
1.7003394 1.1017677 0.15243143
1.7003394 1.1024294 0.15243143
1.7003396 1.103422 0.15243143
1.7015009 1.1045879 0.15268423
1.7015009 1.1052507 0.15268423
1.7042941 1.1065969 0.15271944
1.704294 1.1075944 0.15271944
1.7049996 1.108592 0.1520139
1.7068543 1.1086168 0.15298751
1.7068543 1.1096177 0.15298751
1.7075622 1.1099513 0.15227965
1.7068543 1.1106186 0.15298751
1.7075622 1.1106186 0.15227965
1.7087259 1.1114688 0.15253009
1.7087259 1.1124713 0.15253009
1.7087259 1.1134739 0.15253009
1.7101265 1.1146644 0.15254384
1.7101265 1.1156685 0.15254384
1.7101265 1.116338 0.15254384
1.7101265 1.1170075 0.15254384
1.7112906 1.1178699 0.15279388
1.7112906 1.1185404 0.15279388
1.7059106 1.0885991 0.15393132
1.7063825 1.0885991 0.1534594
1.7059106 1.0896001 0.15393132
1.7063825 1.0896001 0.1534594
1.7059106 1.0906008 0.15393132
1.7063825 1.0906008 0.1534594
1.7047496 1.0917842 0.15367818
1.7055657 1.0915263 0.15356918
1.7063825 1.0912682 0.1534594
1.7024274 1.0928097 0.15317178
1.7031181 1.0929631 0.15389532
1.7047496 1.0924504 0.15367818
1.7052207 1.0924504 0.15320703
1.7024274 1.0934737 0.15317178
1.7031181 1.0936282 0.15389532
1.7019578 1.0944695 0.15364137
1.7005632 1.0956392 0.15362184
1.7005632 1.0966334 0.15362184
1.7005632 1.0976278 0.15362184
1.7005632 1.0986221 0.15362184
1.7005632 1.0996164 0.15362184
1.7005632 1.1006107 0.15362184
1.7005632 1.1016049 0.15362184
1.7005632 1.1025993 0.15362184
1.7019578 1.1034331 0.15364137
1.7019578 1.104097 0.15364137
1.7031181 1.1049342 0.15389532
1.7031181 1.1055993 0.15389532
1.7035885 1.1065969 0.15342495
1.7035885 1.1075944 0.15342495
1.7059106 1.1086168 0.15393132
1.7063825 1.1086168 0.1534594
1.7059106 1.109284 0.15393132
1.7063825 1.109284 0.1534594
1.7075443 1.1104662 0.1537118
1.7083616 1.1115603 0.15360166
1.7083616 1.1122293 0.15360166
1.7103422 1.1135113 0.15374237
1.709653 1.1146644 0.15301731
1.7103422 1.1145171 0.15374237
1.709653 1.1156685 0.15301731
1.7103422 1.1151876 0.15374237
1.709653 1.116338 0.15301731
1.7115047 1.1163837 0.15399402
1.709653 1.1170075 0.15301731
1.7108164 1.1178699 0.15326813
1.7115047 1.1173911 0.15399402
1.7108164 1.1185404 0.15326813
1.7115047 1.1183985 0.15399402
1.7049668 1.0885991 0.15487513
1.7054386 1.0885991 0.15440324
1.7049668 1.0896001 0.15487513
1.7054386 1.0896001 0.15440324
1.7049668 1.0906008 0.15487513
1.7054386 1.0906008 0.15440324
1.7038074 1.0917842 0.15462044
1.7046226 1.0915263 0.15451221
1.7054386 1.0912682 0.15440324
1.7024126 1.0929631 0.15460084
1.7038074 1.0924504 0.15462044
1.7042785 1.0924504 0.15414929
1.7024126 1.0936282 0.15460084
1.7012534 1.0944695 0.15434574
1.6996257 1.0956392 0.15455945
1.6996257 1.0966334 0.15455945
1.7010187 1.0974574 0.15458053
1.7010187 1.0984534 0.15458053
1.7010187 1.0994493 0.15458053
1.7010187 1.1004453 0.15458053
1.7010187 1.1014413 0.15458053
1.7021774 1.1026065 0.15483603
1.7014883 1.1034331 0.15411094
1.7021774 1.1036041 0.15483603
1.7014883 1.104097 0.15411094
1.7024126 1.1046016 0.15460084
1.7026478 1.1055993 0.15436566
1.7049668 1.1066151 0.15487513
1.7054386 1.1066151 0.15440324
1.7049668 1.1076159 0.15487513
1.7054386 1.1076159 0.15440324
1.7065989 1.1087954 0.15465719
1.7065989 1.1094638 0.15465719
1.7070715 1.1104662 0.15418449
1.7082326 1.1116519 0.15443769
1.7082326 1.1123214 0.15443769
1.7096307 1.1135113 0.15445372
1.7096307 1.1145171 0.15445372
1.7096307 1.1151876 0.15445372
1.7105547 1.1163837 0.15494406
1.7110298 1.1163837 0.15446904
1.7105547 1.1173911 0.15494406
1.7110298 1.1173911 0.15446904
1.7105547 1.1183985 0.15494406
1.7110298 1.1183985 0.15446904
1.7042589 1.0885991 0.15558301
1.7042589 1.0896001 0.15558301
1.7042589 1.0906008 0.15558301
1.702865 1.0917842 0.15556273
1.7033361 1.0917842 0.15509158
1.7042589 1.0912682 0.15558301
1.7014718 1.0929631 0.15554157
1.702865 1.0924504 0.15556273
1.7033361 1.0924504 0.15509158
1.7014718 1.0936282 0.15554157
1.6996099 1.0944695 0.15598929
1.7003143 1.0944695 0.1552849
1.6996099 1.0954655 0.15598929
1.7000794 1.0954655 0.15551969
1.6996099 1.0964615 0.15598929
1.7000794 1.0964615 0.15551969
1.6996099 1.0974574 0.15598929
1.7003143 1.0974574 0.1552849
1.6996099 1.0984534 0.15598929
1.7003143 1.0984534 0.1552849
1.7005491 1.0994493 0.1550501
1.7012367 1.0996137 0.15577674
1.7005491 1.1004453 0.1550501
1.7012367 1.1006112 0.15577674
1.7005491 1.1014413 0.1550501
1.7012367 1.1016089 0.15577674
1.701707 1.1026065 0.1553064
1.701707 1.1036041 0.1553064
1.701707 1.1042691 0.1553064
1.7042589 1.1056142 0.15558301
1.7068123 1.1069658 0.15585807
1.7068123 1.1076351 0.15585807
1.7064693 1.1085501 0.15549396
1.7061262 1.1094638 0.15512985
1.7086823 1.1104938 0.1554022
1.7086823 1.1111643 0.1554022
1.7096047 1.1123538 0.15589407
1.7100797 1.1123538 0.15541905
1.7112399 1.1135465 0.155673
1.7112399 1.1145556 0.155673
1.7112399 1.1155647 0.155673
1.7112399 1.1162374 0.155673
1.7124002 1.1174378 0.15592697
1.7124002 1.1184486 0.15592697
1.7124002 1.1191224 0.15592697
1.703315 1.0885991 0.15652685
1.703315 1.0896001 0.15652685
1.703315 1.0906008 0.15652685
1.703315 1.0916018 0.15652685
1.7005311 1.0929631 0.15648229
1.703315 1.0926026 0.15652685
1.7005311 1.0936282 0.15648229
1.7002959 1.0946257 0.15671748
1.7002959 1.0956234 0.15671748
1.7002959 1.096621 0.15671748
1.7002959 1.0976186 0.15671748
1.7002959 1.0986161 0.15671748
1.7007663 1.0996137 0.15624711
1.7014517 1.0997781 0.1569761
1.7007663 1.1006112 0.15624711
1.7014517 1.1004442 0.1569761
1.7007663 1.1016089 0.15624711
1.7019228 1.1024427 0.15650496
1.7023939 1.1024427 0.15603384
1.7019228 1.1031089 0.15650496
1.7023939 1.1031089 0.15603384
1.703315 1.103946 0.15652685
1.703315 1.1046132 0.15652685
1.7047082 1.1054536 0.1565479
1.7047082 1.106122 0.1565479
1.7063389 1.1069658 0.15633154
1.7063389 1.1076351 0.15633154
1.7063389 1.1083046 0.15633154
1.7077338 1.109488 0.15635067
1.7102883 1.1108555 0.15662459
1.7102883 1.1115283 0.15662459
1.711447 1.112384 0.15688008
1.7107642 1.1135465 0.15614879
1.711447 1.1130579 0.15688008
1.7107642 1.1145556 0.15614879
1.7107642 1.1155647 0.15614879
1.7107642 1.1162374 0.15614879
1.7119236 1.1174378 0.15640351
1.7119236 1.1184486 0.15640351
1.7119236 1.1191224 0.15640351
1.7026072 1.0885991 0.1572347
1.7026072 1.0896001 0.1572347
1.7023711 1.0906008 0.15747066
1.7023711 1.0916018 0.15747066
1.6995904 1.0929631 0.157423
1.7023711 1.0926026 0.15747066
1.6995904 1.0936282 0.157423
1.6995904 1.0946257 0.157423
1.6995904 1.0956234 0.157423
1.6995904 1.0966209 0.157423
1.6995904 1.0976186 0.157423
1.6995904 1.0986161 0.157423
1.7007449 1.0997781 0.15768282
1.7007449 1.1004442 0.15768282
1.7023711 1.1016107 0.15747066
1.7035265 1.1027802 0.15772963
1.7035265 1.1034486 0.15772963
1.7049184 1.1046226 0.15775192
1.7042356 1.1054536 0.1570206
1.7042356 1.106122 0.1570206
1.7065482 1.1074762 0.15753627
1.7070224 1.1074762 0.15706202
1.7065482 1.1084821 0.15753627
1.7070224 1.1084821 0.15706202
1.7104939 1.1096886 0.15783322
1.7098125 1.1108555 0.15710038
1.7104939 1.1103625 0.15783322
1.7098125 1.1115283 0.15710038
1.7109705 1.112384 0.15735665
1.7109705 1.1130579 0.15735665
1.7123671 1.1139169 0.15737423
1.7123671 1.1145918 0.15737423
1.7123672 1.1156043 0.15737423
1.7123671 1.1166167 0.15737423
1.7123672 1.1176291 0.15737423
1.7123671 1.1186415 0.15737423
1.7123671 1.1193165 0.15737423
1.7025812 1.0887449 0.158675
1.7025812 1.0894132 0.158675
1.7016634 1.0906008 0.15817851
1.7025024 1.0903044 0.15875378
1.7015061 1.091713 0.15833582
1.7023448 1.0914183 0.15891135
1.7014275 1.0926026 0.15841447
1.7011914 1.0936036 0.15865043
1.6995671 1.0944488 0.15886065
1.7000382 1.0944488 0.15838951
1.6995671 1.095448 0.15886065
1.7000382 1.095448 0.15838951
1.6995671 1.0964473 0.15886065
1.7000382 1.0964473 0.15838951
1.6995671 1.0971135 0.15886065
1.7000382 1.0971135 0.15838951
1.7011914 1.0979407 0.15865043
1.7011914 1.0986079 0.15865043
1.7011914 1.0992752 0.15865043
1.7023448 1.100441 0.15891135
1.7016634 1.1016107 0.15817851
1.7028174 1.1027802 0.15843865
1.7028174 1.1034486 0.15843865
1.7039715 1.1046226 0.15869886
1.704445 1.1046226 0.15822539
1.7053626 1.1058 0.15872188
1.706074 1.1058 0.15801051
1.7053626 1.1064706 0.15872188
1.706074 1.1064706 0.15801051
1.7053626 1.107141 0.15872188
1.706074 1.107141 0.15801051
1.7083852 1.108501 0.15852773
1.7100173 1.1096886 0.15830979
1.7100173 1.1103625 0.15830979
1.7114124 1.1115546 0.15832892
1.7125692 1.1127501 0.1585864
1.7125692 1.1134261 0.1585864
1.7139654 1.1146259 0.15860438
1.7139654 1.1156416 0.15860438
1.7139654 1.1166574 0.15860438
1.7139654 1.117673 0.15860438
1.7139654 1.1183501 0.15860438
1.7139654 1.1193659 0.15860438
1.7016357 1.0887449 0.15962036
1.7016357 1.0894132 0.15962036
1.7016357 1.0904157 0.15962036
1.7007195 1.0919354 0.15912235
1.7016357 1.0914183 0.15962036
1.7007195 1.0926026 0.15912235
1.7013993 1.0924208 0.15985671
1.7007195 1.0936036 0.15912235
1.7013993 1.0934234 0.15985671
1.7013993 1.0944259 0.15985671
1.7013993 1.0954283 0.15985671
1.7013993 1.0964309 0.15985671
1.7007195 1.0979407 0.15912235
1.7013993 1.0974334 0.15985671
1.7007195 1.0986079 0.15912235
1.7013993 1.0984359 0.15985671
1.7007195 1.0992752 0.15912235
1.7013993 1.0994384 0.15985671
1.7018721 1.100441 0.15938401
1.7032614 1.1016101 0.15940903
1.7032614 1.1026143 0.15940903
1.7032614 1.1036185 0.15940903
1.7058046 1.1046299 0.15969419
1.7058046 1.1053015 0.15969419
1.7069578 1.1064827 0.15995511
1.7069578 1.1074917 0.15995511
1.7076714 1.108501 0.15924144
1.7097417 1.1098673 0.15999964
1.7104578 1.1098673 0.15928361
1.7097417 1.1105423 0.15999964
1.7104578 1.1105423 0.15928361
1.7130077 1.1115788 0.15956217
1.7130077 1.1122561 0.15956217
1.7141633 1.1134553 0.15982082
1.7134866 1.1146259 0.15908328
1.7141633 1.1144726 0.15982082
1.7134866 1.1156416 0.15908328
1.7141633 1.1151508 0.15982082
1.7134866 1.1166574 0.15908328
1.7134866 1.117673 0.15908328
1.7134866 1.1183501 0.15908328
1.7134866 1.1193659 0.15908328
1.7009267 1.0887449 0.1603294
1.7009267 1.0894132 0.1603294
1.7009267 1.0904157 0.1603294
1.7009267 1.0914183 0.1603294
1.7009267 1.0924208 0.1603294
1.7009267 1.0934234 0.1603294
1.7009267 1.0944259 0.1603294
1.7009267 1.0954283 0.1603294
1.7009267 1.0964309 0.1603294
1.7009267 1.0974334 0.1603294
1.7009267 1.0984359 0.1603294
1.7009267 1.0994384 0.1603294
1.7023144 1.100606 0.16035597
1.7034657 1.1017767 0.16061883
1.7034657 1.1024473 0.16061883
1.7048545 1.1036224 0.16064423
1.7053295 1.1046299 0.16016921
1.7053295 1.1053015 0.16016921
1.7064819 1.1064827 0.16043091
1.7064819 1.1074917 0.16043091
1.7087871 1.1085174 0.16095433
1.7092644 1.1085174 0.16047695
1.7087871 1.1091924 0.16095433
1.7092644 1.1091924 0.16047695
1.7122893 1.1115788 0.16028051
1.7122893 1.1122561 0.16028051
1.7134438 1.1134553 0.16054031
1.7134438 1.1144726 0.16054031
1.7134438 1.1151508 0.16054031
1.7148384 1.1163561 0.16055983
1.7153188 1.1163561 0.16007939
1.7148384 1.1173751 0.16055983
1.7153188 1.1173751 0.16007939
1.7148384 1.1183941 0.16055983
1.7153188 1.1183941 0.16007939
1.7148384 1.1194131 0.16055983
1.7153188 1.1194131 0.16007939
1.7148384 1.1200925 0.16055983
1.7153188 1.1200925 0.16007939
1.7013675 1.0908989 0.16130288
1.7013675 1.0915684 0.16130288
1.7013675 1.0922378 0.16130288
1.7013675 1.0935767 0.16130288
1.7025172 1.0930595 0.16156729
1.7013675 1.0945809 0.16130288
1.7013675 1.0955851 0.16130288
1.7013675 1.0965892 0.16130288
1.7013675 1.0975934 0.16130288
1.7013675 1.0982629 0.16130288
1.7025172 1.0994298 0.16156729
1.7050546 1.1007644 0.16185826
1.7050546 1.1014371 0.16185826
1.7043796 1.1036224 0.16111922
1.7066814 1.1049718 0.16164577
1.707158 1.1049718 0.16116917
1.7066814 1.1056457 0.16164577
1.707158 1.1056457 0.16116917
1.7078323 1.1064926 0.16190901
1.7083098 1.1064926 0.16143164
1.7078323 1.1075051 0.16190901
1.7083098 1.1075051 0.16143164
1.7106131 1.1088703 0.16195664
1.7106131 1.1095475 0.16195664
1.7124844 1.1104032 0.16149966
1.7124844 1.1110815 0.16149966
1.7138774 1.1119405 0.16152075
1.7138774 1.1126199 0.16152075
1.7138774 1.1136389 0.16152075
1.7150308 1.1148431 0.16178167
1.7150308 1.1155235 0.16178167
1.7143579 1.1163561 0.16104028
1.7143579 1.1173751 0.16104028
1.7143579 1.1183941 0.16104028
1.7143579 1.1194131 0.16104028
1.7143579 1.1200925 0.16104028
1.7015688 1.0913832 0.16251577
1.7015687 1.092389 0.16251577
1.7015688 1.0933948 0.16251577
1.7015687 1.0944006 0.16251577
1.7015687 1.0954065 0.16251577
1.7015687 1.0964123 0.16251577
1.7029545 1.0975776 0.16254428
1.7029545 1.098585 0.16254428
1.704103 1.0994189 0.16280988
1.7043409 1.100428 0.16257197
1.7045789 1.1014371 0.16233405
1.7057283 1.1026133 0.16259888
1.7062049 1.1026133 0.16212231
1.7057283 1.1036241 0.16259888
1.7062049 1.1036241 0.16212231
1.7057283 1.104298 0.16259888
1.7062049 1.104298 0.16212231
1.7085053 1.1056516 0.16265041
1.7096554 1.1068389 0.16291443
1.7096554 1.1075161 0.16291443
1.7096554 1.1081932 0.16291443
1.7101343 1.1088703 0.16243553
1.7101343 1.1095475 0.16243553
1.7126763 1.1105819 0.16272186
1.7126763 1.1112612 0.16272186
1.713397 1.1119405 0.16200119
1.713397 1.1126199 0.16200119
1.713397 1.1136389 0.16200119
1.7145495 1.1148431 0.16226289
1.7145495 1.1155235 0.16226289
1.7157021 1.1163913 0.16252467
1.7161841 1.1163913 0.16204265
1.7157021 1.1174135 0.16252467
1.7161841 1.1174135 0.16204265
1.7157021 1.1184359 0.16252467
1.7161841 1.1184359 0.16204265
1.7157021 1.1194582 0.16252467
1.7161841 1.1194582 0.16204265
1.7157021 1.1204805 0.16252467
1.7161841 1.1204805 0.16204265
1.7008574 1.0913832 0.16322714
1.7008574 1.092389 0.16322714
1.7008574 1.0933948 0.16322714
1.7008574 1.0944006 0.16322714
1.7008574 1.0954065 0.16322714
1.7008574 1.0964123 0.16322714
1.7022419 1.0975776 0.16325681
1.7022419 1.098585 0.16325681
1.7033894 1.0994189 0.16352354
1.7033894 1.1000916 0.16352354
1.7059231 1.1014305 0.16381836
1.7064004 1.1014305 0.16334102
1.7059231 1.102443 0.16381836
1.7064004 1.102443 0.16334102
1.7059231 1.1031179 0.16381836
1.7064004 1.1031179 0.16334102
1.707549 1.1039616 0.16360667
1.707549 1.1046376 0.16360667
1.7080271 1.1056516 0.16312853
1.7091765 1.1068389 0.16339332
1.7091765 1.1075161 0.16339332
1.7091765 1.1081932 0.16339332
1.7117155 1.1095629 0.16368276
1.714256 1.1109391 0.16397065
1.714256 1.1116207 0.16397065
1.7147381 1.112643 0.16348866
1.7152201 1.112643 0.16300666
1.7147381 1.1136652 0.16348866
1.7152201 1.1136652 0.16300666
1.7147381 1.1143467 0.16348866
1.7152201 1.1143467 0.16300666
1.715889 1.1155548 0.1637519
1.7163718 1.1155548 0.1632691
1.715889 1.1165788 0.1637519
1.7163718 1.1165788 0.1632691
1.715889 1.1176027 0.1637519
1.7163718 1.1176027 0.1632691
1.7175235 1.1188173 0.1635316
1.7175235 1.1195011 0.1635316
1.7175235 1.1205266 0.1635316
1.7035837 1.0928427 0.16474344
1.7035837 1.0935165 0.16474344
1.7035837 1.0945272 0.16474344
1.7035837 1.095538 0.16474344
1.7035837 1.0965488 0.16474344
1.7035837 1.0975596 0.16474344
1.7035837 1.0985702 0.16474344
1.7054456 1.1014305 0.1642957
1.7054456 1.102443 0.1642957
1.7054456 1.1031179 0.1642957
1.7065928 1.1039616 0.16456288
1.7070708 1.1039616 0.16408479
1.7065928 1.1046376 0.16456288
1.7070708 1.1046376 0.16408479
1.7096064 1.1056557 0.1643777
1.7096064 1.1063339 0.1643777
1.7107545 1.107525 0.16464365
1.7107545 1.1085439 0.16464365
1.7132921 1.1095761 0.16493466
1.7135332 1.1105983 0.16469365
1.7137741 1.1116207 0.16445264
1.7149234 1.112483 0.16471744
1.7154062 1.112483 0.16423467
1.7149234 1.1131656 0.16471744
1.7154062 1.1131656 0.16423467
1.7163146 1.1143732 0.16474047
1.7163146 1.1153988 0.16474047
1.7163146 1.1164243 0.16474047
1.7163146 1.1174499 0.16474047
1.7163146 1.1181337 0.16474047
1.7170399 1.1188173 0.16401514
1.7174841 1.1194006 0.16451351
1.7170399 1.1205266 0.16401514
1.706782 1.1007447 0.16578779
1.7072608 1.1007447 0.16530889
1.706782 1.1014218 0.16578779
1.7072608 1.1014218 0.16530889
1.706782 1.1020989 0.16578779
1.7072608 1.1020989 0.16530889
1.7084072 1.1029427 0.16557688
1.7084072 1.1036209 0.16557688
1.7084072 1.1046383 0.16557688
1.7088869 1.1056557 0.16509721
1.7095535 1.1058266 0.16584477
1.7088869 1.1063339 0.16509721
1.7095535 1.1065059 0.16584477
1.7100339 1.1075249 0.16536433
1.7100339 1.1085439 0.16536433
1.712569 1.1095761 0.16565765
1.712569 1.1102576 0.16565765
1.7139578 1.1114591 0.165683
1.7144406 1.1114591 0.1652002
1.7167379 1.1128447 0.16573137
1.7167379 1.1135296 0.16573137
1.7178864 1.1143974 0.165997
1.7178864 1.1154263 0.165997
1.7178864 1.1164551 0.165997
1.7178864 1.117484 0.165997
1.7178864 1.1185129 0.165997
1.7175543 1.119446 0.16562203
1.7186141 1.1205707 0.16526935
1.7186141 1.1212565 0.16526935
1.7074479 1.0934474 0.16653621
1.7058241 1.0946505 0.1667456
1.7063031 1.0946505 0.16626671
1.7074479 1.0941257 0.16653621
1.7058241 1.0953276 0.1667456
1.7063031 1.0953276 0.16626671
1.7058241 1.0963434 0.1667456
1.7063031 1.0963434 0.16626671
1.7058241 1.0973591 0.1667456
1.7063031 1.0973591 0.16626671
1.7085925 1.0997126 0.16680565
1.7085925 1.100392 0.16680565
1.7090729 1.100392 0.16632521
1.7085925 1.101411 0.16680565
1.7079275 1.1029427 0.16605654
1.7085925 1.10243 0.16680565
1.7079275 1.1036209 0.16605654
1.7079275 1.1046383 0.16605654
1.7090729 1.1058266 0.16632521
1.7090729 1.1065059 0.16632521
1.7116051 1.1075315 0.16662164
1.7116051 1.1085539 0.16662164
1.7129923 1.1097525 0.16664857
1.7129923 1.1104352 0.16664857
1.7134751 1.1114591 0.16616577
1.7157692 1.1128447 0.16670001
1.7162535 1.1128447 0.16621569
1.7157692 1.1135296 0.16670001
1.7162535 1.1135296 0.16621569
1.7169163 1.1143974 0.16696721
1.7174014 1.1143974 0.16648209
1.7169163 1.1154263 0.16696721
1.7174014 1.1154263 0.16648209
1.7169163 1.1164551 0.16696721
1.7174014 1.1164551 0.16648209
1.7169163 1.117484 0.16696721
1.7174014 1.117484 0.16648209
1.7169163 1.1185129 0.16696721
1.7174014 1.1185129 0.16648209
1.7169163 1.1195418 0.16696721
1.7174014 1.1195418 0.16648209
1.7185493 1.1207635 0.16674846
1.7190351 1.1207635 0.1662626
1.7185493 1.1214505 0.16674846
1.7190351 1.1214505 0.1662626
1.7069682 1.0934474 0.16701588
1.7069682 1.0941257 0.16701588
1.7104001 1.0986718 0.16782665
1.708112 1.0997126 0.16728613
1.7104001 1.0993533 0.16782665
1.708112 1.100392 0.16728613
1.708112 1.101411 0.16728613
1.708112 1.10243 0.16728613
1.7106411 1.1034424 0.16758566
1.7106411 1.1044648 0.16758567
1.7106411 1.105487 0.16758566
1.7120267 1.1063395 0.1676141
1.7120267 1.1073635 0.1676141
1.7120267 1.1083874 0.1676141
1.7122681 1.1094112 0.16737272
1.7131715 1.1099291 0.16788355
1.7125095 1.1104352 0.16713133
1.7131715 1.1106128 0.16788355
1.7148006 1.1114751 0.16766867
1.7152848 1.1114751 0.16718435
1.7148006 1.11216 0.16766867
1.7152848 1.11216 0.16718435
1.7159461 1.1133685 0.1679374
1.7164311 1.1133685 0.16745231
1.7175775 1.1145804 0.16772026
1.7175775 1.1156108 0.16772026
1.7175775 1.1166415 0.16772026
1.7175775 1.1173285 0.16772026
1.7175775 1.1183591 0.16772026
1.7175775 1.1193895 0.16772026
1.7175775 1.1200765 0.16772026
1.7183936 1.12086 0.16761127
1.7183936 1.1215475 0.16761127
1.7110612 1.0943936 0.16857967
1.709677 1.095605 0.16854966
1.709677 1.0966272 0.16854966
1.709677 1.0979903 0.16854966
1.709677 1.0986718 0.16854966
1.709677 1.0993533 0.16854966
1.709677 1.1000348 0.16854966
1.7110612 1.1008785 0.16857967
1.7110612 1.1015612 0.16857967
1.7122045 1.1024082 0.16885066
1.7122045 1.1034337 0.16885066
1.7122045 1.1044593 0.16885066
1.7122045 1.105485 0.16885066
1.7115439 1.1063395 0.1680969
1.7115439 1.1073635 0.1680969
1.7115439 1.1083874 0.1680969
1.7115439 1.1090699 0.1680969
1.712688 1.1099291 0.16836712
1.712688 1.1106128 0.16836712
1.7149758 1.1116538 0.16890764
1.715461 1.1116538 0.16842252
1.7149758 1.1123396 0.16890764
1.715461 1.1123396 0.16842252
1.7166057 1.1135499 0.16869202
1.7174211 1.1146719 0.1685838
1.7173113 1.1155578 0.16845791
1.7175308 1.1165363 0.16870968
1.7174211 1.1174222 0.1685838
1.7174211 1.1184535 0.1685838
1.7170916 1.1193895 0.16820613
1.7170916 1.1200765 0.16820613
1.7182372 1.1209564 0.16847482
1.7182372 1.1216445 0.16847482
1.7103369 1.0943936 0.16930383
1.7089541 1.0956049 0.16927263
1.7089541 1.0966272 0.16927263
1.7105784 1.1008785 0.16906244
1.7105784 1.1015612 0.16906244
1.7117208 1.1024082 0.16933423
1.7117208 1.1034337 0.16933423
1.7117208 1.1044593 0.16933423
1.7117208 1.105485 0.16933423
1.7128632 1.1066813 0.169606
1.7133476 1.1066813 0.16912168
1.7128632 1.1073662 0.169606
1.7133476 1.1073662 0.16912168
1.7128632 1.1080511 0.169606
1.7133476 1.1080511 0.16912168
1.7142482 1.1089101 0.16963527
1.7142482 1.109596 0.16963527
1.7142482 1.1106249 0.16963527
1.715634 1.1118324 0.16966376
1.715634 1.1125194 0.16966376
1.716339 1.1134957 0.16943018
1.7167772 1.1140754 0.16993478
1.7172639 1.1147635 0.16944814
1.7172639 1.1154516 0.16944814
1.7172639 1.1164837 0.16944814
1.7172639 1.1175159 0.16944814
1.7172639 1.118548 0.16944814
1.7186515 1.1197709 0.16947465
1.7186515 1.1204602 0.16947465
1.7186515 1.1214939 0.16947466
1.7132781 1.0996503 0.1706055
1.7132781 1.1006792 0.1706055
1.7132781 1.1013651 0.1706055
1.7132781 1.102051 0.1706055
1.7146622 1.1029012 0.17063552
1.7146622 1.1035883 0.17063552
1.7146622 1.1046188 0.17063552
1.7146622 1.1056494 0.17063552
1.7146622 1.1063364 0.17063552
1.7146622 1.1073668 0.17063552
1.7146622 1.1083974 0.17063552
1.7146622 1.1094279 0.17063552
1.7158039 1.1106348 0.17090812
1.715476 1.1115776 0.17052887
1.7151481 1.1125194 0.17014962
1.7162906 1.1133872 0.17042145
1.7162906 1.1140754 0.17042145
1.7176766 1.1149465 0.17044953
1.7176766 1.1156358 0.17044953
1.7176766 1.1163249 0.17044953
1.7176766 1.1173588 0.17044953
1.7176766 1.1183925 0.17044953
1.7176766 1.1194264 0.17044953
1.7176766 1.1204602 0.17044953
1.7185752 1.1213423 0.17096505
1.7190634 1.1213423 0.17047682
1.7185752 1.1220325 0.17096505
1.7190634 1.1220325 0.17047682
1.7125504 1.0996503 0.17133313
1.7125504 1.1006792 0.17133313
1.7125504 1.1013651 0.17133313
1.7125504 1.102051 0.17133313
1.7136905 1.1029012 0.17160729
1.7141763 1.1029012 0.17112142
1.7136905 1.1035883 0.17160729
1.7141763 1.1035883 0.17112142
1.7136905 1.1046188 0.17160729
1.7141763 1.1046188 0.17112142
1.7136905 1.1056494 0.17160729
1.7141763 1.1056494 0.17112142
1.7136905 1.1063364 0.17160729
1.7141763 1.1063364 0.17112142
1.7136905 1.1073668 0.17160729
1.7141763 1.1073668 0.17112142
1.7136905 1.1083974 0.17160729
1.7141763 1.1083974 0.17112142
1.7136905 1.1094279 0.17160729
1.7141763 1.1094279 0.17112142
1.7148306 1.1106348 0.17188144
1.7153172 1.1106348 0.17139477
1.7148306 1.1113229 0.17188144
1.7153172 1.1113229 0.17139477
1.7167017 1.1125343 0.17142436
1.7175988 1.1137489 0.17194146
1.718087 1.1137489 0.17145324
1.7175988 1.1144392 0.17194146
1.718087 1.1144392 0.17145324
1.7175988 1.1154747 0.17194146
1.718087 1.1154747 0.17145324
1.7175988 1.1165102 0.17194146
1.718087 1.1165102 0.17145324
1.7175988 1.1175456 0.17194146
1.718087 1.1175456 0.17145324
1.7175988 1.1185811 0.17194146
1.718087 1.1185811 0.17145324
1.7175988 1.1196165 0.17194146
1.718087 1.1196165 0.17145324
1.7175988 1.120652 0.17194146
1.718087 1.120652 0.17145324
1.7175988 1.1213423 0.17194146
1.718087 1.1213423 0.17145324
1.7175988 1.1220325 0.17194146
1.718087 1.1220325 0.17145324
1.7166224 1.097872 0.1729179
1.7171106 1.097872 0.17242965
1.7166224 1.0985622 0.1729179
1.7171106 1.0985622 0.17242965
1.7166224 1.0995977 0.1729179
1.7171106 1.0992526 0.17242965
1.7166224 1.1006333 0.1729179
1.7166224 1.1013235 0.1729179
1.7166224 1.1023591 0.1729179
1.7166224 1.1033944 0.1729179
1.7166224 1.1040847 0.1729179
1.7166224 1.1054653 0.1729179
1.7166224 1.1065009 0.1729179
1.7166224 1.1075362 0.1729179
1.7166224 1.1085718 0.1729179
1.7166224 1.1096071 0.1729179
1.7166224 1.1106427 0.1729179
1.7166224 1.111678 0.1729179
1.7159705 1.1125343 0.17215556
1.7166224 1.1123683 0.1729179
1.7166224 1.1130587 0.1729179
1.7171106 1.1137489 0.17242965
1.7171106 1.1144392 0.17242965
1.7171106 1.1154747 0.17242965
1.7171106 1.1165102 0.17242965
1.7171106 1.1175456 0.17242965
1.7193909 1.1189581 0.17297795
1.7193909 1.1196506 0.17297795
1.7193909 1.1203431 0.17297795
1.7193909 1.1213818 0.17297795
1.7193909 1.1224205 0.17297795
1.7161342 1.097872 0.17340609
1.7161342 1.0985622 0.17340609
1.7161342 1.0995977 0.17340609
1.7161342 1.1006333 0.17340609
1.7161342 1.1013235 0.17340609
1.7161342 1.1023591 0.17340609
1.7161342 1.1033944 0.17340609
1.7161342 1.1040847 0.17340609
1.7175173 1.1049416 0.17343733
1.7161342 1.1054653 0.17340609
1.7161342 1.1065009 0.17340609
1.7161342 1.1075362 0.17340609
1.7161342 1.1085718 0.17340609
1.7161342 1.1096071 0.17340609
1.7161342 1.1106427 0.17340609
1.7161342 1.111678 0.17340609
1.7161342 1.1123683 0.17340609
1.7161342 1.1130587 0.17340609
1.7175173 1.1139297 0.17343733
1.7175173 1.1146212 0.17343733
1.7175173 1.1153126 0.17343733
1.7175174 1.1163497 0.17343733
1.7175173 1.1173868 0.17343733
1.7175173 1.1180782 0.17343733
1.7186562 1.1189581 0.1737126
1.7186562 1.1196506 0.1737126
1.7186562 1.1203431 0.1737126
1.7186562 1.1213818 0.17371261
1.7186562 1.1224205 0.1737126
1.7206883 1.0974524 0.17450884
1.7190593 1.0983388 0.17472365
1.7190593 1.0993792 0.17472365
1.7190593 1.1004195 0.17472365
1.7190593 1.10146 0.17472365
1.7190593 1.1025003 0.17472365
1.7190593 1.1035408 0.17472365
1.7190593 1.1045811 0.17472365
1.7190593 1.1056216 0.17472365
1.7190593 1.1066619 0.17472365
1.7190593 1.1073555 0.17472365
1.7190593 1.1083959 0.17472365
1.7176766 1.1096094 0.17469212
1.7176766 1.1106482 0.17469212
1.7176766 1.1113406 0.17469212
1.7176766 1.1120331 0.17469212
1.7190593 1.1129043 0.17472365
1.7190593 1.1135979 0.17472365
1.7190593 1.1146383 0.17472365
1.7190593 1.1156787 0.17472365
1.7190593 1.1163722 0.17472365
1.7190593 1.1174126 0.17472365
1.7190593 1.118453 0.17472365
1.7190593 1.1194935 0.17472365
1.7190593 1.1205338 0.17472365
1.7190593 1.1215742 0.17472365
1.7190593 1.1226146 0.17472365
1.7197057 1.0974524 0.17549148
1.720197 1.0974524 0.17500016
1.7185688 1.0983388 0.1752142
1.7185688 1.0993792 0.1752142
1.7185688 1.1004195 0.1752142
1.7185688 1.10146 0.1752142
1.7185688 1.1025003 0.1752142
1.7185688 1.1035408 0.1752142
1.7185688 1.1045811 0.1752142
1.7185688 1.1056216 0.1752142
1.7185688 1.1066619 0.1752142
1.7185688 1.1073555 0.1752142
1.7185688 1.1083959 0.1752142
1.7185688 1.1129043 0.1752142
1.7185688 1.1135979 0.1752142
1.7185688 1.1146383 0.1752142
1.7185688 1.1156787 0.1752142
1.7185688 1.1163722 0.1752142
1.7185688 1.1174126 0.1752142
1.7185688 1.118453 0.1752142
1.7185688 1.1194935 0.1752142
1.7185688 1.1205338 0.1752142
1.7185688 1.1215742 0.1752142
1.7185688 1.1226146 0.1752142
1.722623 1.1014042 0.17681682
1.722623 1.1024511 0.17681682
1.722623 1.103498 0.17681682
1.722623 1.1045451 0.17681682
1.7214869 1.1054261 0.17653883
1.7214869 1.1064713 0.17653883
1.7214869 1.1075166 0.17653883
1.7214869 1.108562 0.17653883
1.7198585 1.1097826 0.1767529
1.7203506 1.1097826 0.17626077
1.7214869 1.1092589 0.17653883
1.7198585 1.1104784 0.1767529
1.7203506 1.1104784 0.17626077
1.7198585 1.1115222 0.1767529
1.7203506 1.1115222 0.17626077
1.7198585 1.1125658 0.1767529
1.7203506 1.1125658 0.17626077
1.7198585 1.1136096 0.1767529
1.7203506 1.1136096 0.17626077
1.7198585 1.1146531 0.1767529
1.7203506 1.1146531 0.17626077
1.7198585 1.1153489 0.1767529
1.7203506 1.1153489 0.17626077
1.7198585 1.1163926 0.1767529
1.7203506 1.1163926 0.17626077
1.7198585 1.1174363 0.1767529
1.7203506 1.1174363 0.17626077
1.7198585 1.11848 0.1767529
1.7203506 1.11848 0.17626077
1.7198585 1.1195236 0.1767529
1.7203506 1.1195236 0.17626077
1.7198585 1.1205673 0.1767529
1.7203506 1.1205673 0.17626077
1.7198585 1.121611 0.1767529
1.7203506 1.121611 0.17626077
1.7198585 1.1223068 0.1767529
1.7203506 1.1223068 0.17626077
1.7198585 1.1230026 0.1767529
1.7203506 1.1230026 0.17626077
1.7235119 1.0977186 0.17734206
1.7235119 1.0984178 0.17734206
1.7235119 1.0994663 0.17734206
1.7235119 1.100515 0.17734206
1.7216357 1.1014042 0.17780411
1.7221293 1.1014042 0.17731047
1.7216357 1.1024511 0.17780411
1.7221293 1.1024511 0.17731047
1.7216357 1.103498 0.17780411
1.7221293 1.103498 0.17731047
1.7216357 1.1045451 0.17780411
1.7221293 1.1045451 0.17731047
1.7207475 1.1054261 0.17727813
1.7207476 1.1064713 0.17727813
1.720994 1.1075166 0.1770317
1.720994 1.108562 0.1770317
1.720994 1.1092589 0.1770317
1.7216357 1.1195517 0.17780411
1.7216357 1.1205987 0.17780411
1.7216357 1.1216457 0.17780411
1.7216357 1.1233907 0.17780411
1.7216357 1.1244376 0.17780411
1.7221293 1.1244376 0.17731047
1.7216357 1.1254846 0.17780411
1.7221293 1.1254846 0.17731047
1.7227705 1.0977186 0.17808369
1.7227705 1.0984178 0.17808369
1.7227705 1.0994663 0.17808369
1.7227705 1.100515 0.17808369
1.7234098 1.1069744 0.17885843
1.7236574 1.1076746 0.17861082
1.7236574 1.1083747 0.17861082
1.7236574 1.1094251 0.17861082
1.7225232 1.1103021 0.17833088
1.7225232 1.1113508 0.17833087
1.7225232 1.1123993 0.17833088
1.7225232 1.113448 0.17833088
1.7225232 1.1144966 0.17833088
1.7225232 1.1155453 0.17833088
1.7225232 1.1165938 0.17833088
1.7225232 1.1176424 0.17833087
1.7225232 1.1186911 0.17833088
1.7211421 1.1195517 0.17829776
1.7211421 1.1205987 0.17829776
1.7211421 1.1216457 0.17829776
1.7225232 1.1228856 0.17833088
1.7211421 1.1233907 0.17829776
1.7211421 1.1244376 0.17829776
1.7211421 1.1254846 0.17829776
1.7254293 1.1016908 0.1796675
1.7254293 1.1023932 0.1796675
1.7254293 1.1034467 0.1796675
1.7242957 1.104337 0.17938676
1.7242957 1.1053889 0.17938676
1.7229146 1.1069744 0.17935359
1.7242957 1.1064408 0.17938676
1.7229146 1.1076746 0.17935359
1.7229146 1.1083747 0.17935359
1.7229146 1.1094251 0.17935359
1.7217816 1.1103021 0.1790725
1.7217816 1.1113508 0.1790725
1.7217816 1.1123993 0.1790725
1.7217816 1.1134479 0.1790725
1.7217816 1.1144966 0.1790725
1.7217816 1.1155453 0.1790725
1.7217816 1.1165938 0.1790725
1.7217816 1.1176424 0.1790725
1.7251809 1.1196012 0.17991588
1.7251809 1.1206548 0.17991588
1.7251809 1.1213572 0.17991588
1.7251809 1.1224108 0.17991588
1.7240478 1.1239727 0.17963475
1.7251809 1.1234643 0.17991588
1.7240478 1.124674 0.17963475
1.7240478 1.1253753 0.17963475
1.7240478 1.1260765 0.17963475
1.7269487 1.1048268 0.18097639
1.7269487 1.1055313 0.18097639
1.7269487 1.1065881 0.18097639
1.7258164 1.1074774 0.18069452
1.7258164 1.1085327 0.18069452
1.7258164 1.1095878 0.18069452
1.7244358 1.1108216 0.18066099
1.7258164 1.1102912 0.18069452
1.7244358 1.111524 0.18066099
1.7244357 1.1125776 0.18066099
1.7244358 1.1136311 0.18066099
1.7233038 1.1148561 0.18037872
1.7244358 1.1143334 0.18066099
1.7233038 1.1155573 0.18037872
1.7233038 1.1166093 0.18037871
1.7233038 1.1176612 0.18037872
1.7233038 1.1183624 0.18037872
1.7244358 1.1196012 0.18066099
1.7244358 1.1206548 0.18066099
1.7244358 1.1213572 0.18066099
1.7244358 1.1224108 0.18066099
1.7233038 1.1239727 0.18037872
1.7244358 1.1234643 0.18066099
1.7233038 1.124674 0.18037872
1.7233038 1.1253753 0.18037872
1.7233038 1.1260765 0.18037872
1.7294633 1.1009128 0.1812903
1.7294633 1.1016195 0.1812903
1.727582 1.1025202 0.18175736
1.7280811 1.1025202 0.18125826
1.727582 1.1035787 0.18175736
1.7280811 1.1035787 0.18125826
1.7264504 1.1048268 0.18147472
1.727582 1.1042844 0.18175736
1.7280811 1.1042844 0.18125826
1.7264504 1.1055313 0.18147472
1.7264504 1.1065881 0.18147472
1.7253189 1.1074774 0.18119204
1.7253189 1.1085327 0.18119204
1.7253189 1.1095878 0.18119204
1.7253189 1.1102912 0.18119204
1.7287135 1.1009128 0.1820401
1.7287135 1.1016195 0.1820401
1.7293444 1.1053166 0.18282336
1.7293444 1.1063784 0.18282336
1.7293444 1.1074402 0.18282336
1.7293444 1.108502 0.18282336
1.7293444 1.1095638 0.18282336
1.7282138 1.1104541 0.18253991
1.7265838 1.111341 0.1827555
1.727083 1.111341 0.18225643
1.7265838 1.1123996 0.1827555
1.727083 1.1123996 0.18225643
1.7265838 1.113458 0.1827555
1.727083 1.113458 0.18225643
1.7265838 1.1145165 0.1827555
1.727083 1.1145165 0.18225643
1.7265838 1.1155751 0.1827555
1.727083 1.1155751 0.18225643
1.7265838 1.1166335 0.1827555
1.727083 1.1166335 0.18225643
1.7265838 1.117692 0.1827555
1.727083 1.117692 0.18225643
1.7265838 1.1183977 0.1827555
1.727083 1.1183977 0.18225643
1.7265838 1.1194563 0.1827555
1.727083 1.1194563 0.18225643
1.7265838 1.1205148 0.1827555
1.727083 1.1205148 0.18225643
1.7265838 1.1215732 0.1827555
1.727083 1.1215732 0.18225643
1.7265838 1.1226317 0.1827555
1.727083 1.1226317 0.18225643
1.7265838 1.1233374 0.1827555
1.727083 1.1233374 0.18225643
1.7265838 1.1243958 0.1827555
1.727083 1.1243958 0.18225643
1.7299738 1.1026441 0.18360817
1.7304752 1.1026441 0.18310678
1.7299738 1.103353 0.18360817
1.7304752 1.103353 0.18310678
1.7299738 1.1044164 0.18360817
1.7304752 1.1044164 0.18310678
1.7288438 1.1053166 0.18332398
1.7288438 1.1063784 0.18332398
1.7288438 1.1074402 0.18332398
1.7288438 1.108502 0.18332398
1.7288438 1.1095638 0.18332398
1.7277138 1.1104541 0.18303978
1.7294724 1.1026441 0.18410957
1.7294724 1.103353 0.18410957
1.7294724 1.104062 0.18410957
1.7317308 1.1058065 0.1846796
1.7328601 1.1052575 0.1849646
1.7317308 1.1065177 0.1846796
1.7317308 1.1075844 0.1846796
1.7317308 1.108651 0.1846796
1.7317308 1.1093622 0.1846796
1.7303505 1.1106136 0.18464568
1.7317308 1.1100733 0.1846796
1.7303505 1.1113236 0.18464568
1.7303505 1.1123887 0.18464568
1.7289709 1.1136329 0.18461099
1.7294724 1.1136329 0.18410957
1.7289709 1.1146964 0.18461099
1.7294724 1.1146964 0.18410957
1.7303505 1.115584 0.18464568
1.7303505 1.116294 0.18464568
1.7303505 1.1173592 0.18464568
1.7303505 1.1184242 0.18464568
1.7303505 1.1198443 0.18464568
1.7317308 1.1193184 0.1846796
1.7303505 1.1205543 0.18464568
1.7303505 1.1212645 0.18464568
1.7317308 1.1225185 0.1846796
1.7317308 1.1235853 0.1846796
1.7317308 1.1242964 0.1846796
1.7317308 1.1253632 0.1846796
1.733737 1.1018529 0.18550186
1.733737 1.1025662 0.18550186
1.7334847 1.1036363 0.18575412
1.7318527 1.1045452 0.18597206
1.7323563 1.1045452 0.18546832
1.7307249 1.1058065 0.18568552
1.7315402 1.1055319 0.1855773
1.7323563 1.1052575 0.18546832
1.7307249 1.1065177 0.18568552
1.7312279 1.1065177 0.18518254
1.7307249 1.1075844 0.18568552
1.7312279 1.1075844 0.18518254
1.7307249 1.108651 0.18568552
1.7312279 1.108651 0.18518254
1.7307249 1.1093622 0.18568552
1.7312279 1.1093622 0.18518254
1.7295972 1.1106136 0.18539897
1.7307249 1.1100733 0.18568552
1.7312279 1.1100733 0.18518254
1.7295972 1.1113236 0.18539897
1.7295972 1.1123887 0.18539897
1.7295972 1.1134539 0.18539897
1.7312279 1.1193184 0.18518254
1.7312279 1.1225185 0.18518254
1.7312279 1.1235853 0.18518254
1.7312279 1.1242964 0.18518254
1.7312279 1.1253632 0.18518254
1.7329803 1.1018529 0.18625861
1.7329803 1.1025662 0.18625861
1.7329803 1.1036363 0.18625861
1.7324758 1.1089864 0.18676314
1.7324758 1.1096997 0.18676314
1.7324758 1.1104131 0.18676314
1.7324758 1.1114831 0.18676314
1.7324758 1.1125531 0.18676314
1.7324758 1.1136231 0.18676314
1.732728 1.1146932 0.18651088
1.732728 1.1154065 0.18651088
1.734108 1.1162986 0.18654516
1.734108 1.1173701 0.18654516
1.734108 1.1184419 0.18654516
1.734108 1.1191564 0.18654516
1.7352355 1.1204127 0.18683171
1.7352355 1.1214859 0.18683171
1.7352355 1.1222016 0.18683171
1.7368701 1.1274054 0.18661144
1.7368701 1.1284804 0.18661144
1.7358564 1.1023231 0.18762511
1.7344763 1.1035974 0.18759079
1.7358564 1.1030396 0.18762511
1.73335 1.1048675 0.18730308
1.7344763 1.1043129 0.18759079
1.73335 1.1055819 0.18730308
1.73335 1.1062963 0.18730308
1.73335 1.107368 0.18730308
1.7319713 1.1089864 0.18726763
1.73335 1.1084397 0.18730308
1.7319713 1.1096997 0.18726763
1.7319713 1.1104131 0.18726763
1.7319713 1.1114831 0.18726763
1.7319713 1.1125531 0.18726763
1.7319713 1.1136231 0.18726763
1.7319713 1.1146932 0.18726763
1.7319713 1.1154065 0.18726763
1.73335 1.1162986 0.18730308
1.7333499 1.1173701 0.1873031
1.73335 1.1184419 0.18730308
1.73335 1.1191564 0.18730308
1.7344763 1.1204127 0.18759078
1.7344763 1.1214859 0.18759079
1.7344763 1.1222016 0.18759079
1.7358564 1.1234639 0.18762511
1.7363632 1.1234639 0.18711829
1.7358564 1.1245389 0.18762511
1.7363632 1.1245389 0.18711829
1.7358564 1.1256139 0.18762511
1.7363632 1.1256139 0.18711829
1.7358564 1.1266888 0.18762511
1.7363632 1.1266888 0.18711829
1.7358564 1.1274054 0.18762511
1.7363632 1.1274054 0.18711829
1.7358564 1.1284804 0.18762511
1.7363632 1.1284804 0.18711829
1.7353495 1.1023231 0.18813196
1.7353495 1.1030396 0.18813196
1.7359681 1.1053507 0.18892765
1.7359681 1.1064272 0.18892765
1.7359681 1.1075039 0.18892765
1.7359681 1.1085806 0.18892765
1.7359681 1.109657 0.18892765
1.7348427 1.1105645 0.18863881
1.7348427 1.1116394 0.18863881
1.7348427 1.1123559 0.18863881
1.7348427 1.113431 0.18863881
1.7348427 1.1145059 0.18863881
1.7348427 1.1155809 0.18863881
1.7353495 1.1234639 0.18813196
1.7353495 1.1245389 0.18813196
1.7353495 1.1256139 0.18813196
1.7353495 1.1266888 0.18813196
1.7353495 1.1274054 0.18813196
1.7353495 1.1284804 0.18813196
1.7365849 1.1026365 0.18972489
1.7370933 1.1026365 0.18921652
1.7365849 1.1033553 0.18972489
1.7370933 1.1033553 0.18921652
1.7365849 1.1044335 0.18972489
1.7370933 1.1044335 0.18921652
1.7354605 1.1053507 0.18943527
1.7354605 1.1064272 0.18943527
1.7354605 1.1075039 0.18943527
1.7354605 1.1085806 0.18943527
1.7354605 1.109657 0.18943527
1.7343359 1.1105645 0.18914562
1.7343359 1.1116394 0.18914562
1.7343359 1.1123559 0.18914562
1.7343359 1.113431 0.18914562
1.7343359 1.1145059 0.18914562
1.7343359 1.1155809 0.18914562
1.7365849 1.1173725 0.18972489
1.7370933 1.1173725 0.18921652
1.7365849 1.1184508 0.18972489
1.7370933 1.1184508 0.18921652
1.7365849 1.119529 0.18972489
1.7370933 1.119529 0.18921652
1.7393439 1.1209756 0.1897943
1.7393439 1.1216966 0.1897943
1.7393439 1.1224177 0.1897943
1.7393439 1.1231387 0.1897943
1.738324 1.1043919 0.19081417
1.7372004 1.1056728 0.19052377
1.738324 1.1051129 0.19081417
1.7372004 1.1063927 0.19052377
