# .PCD v0.7 - Point Cloud Data file format
VERSION 0.7
FIELDS x y z
SIZE 4 4 4
TYPE F F F
COUNT 1 1 1
WIDTH 1358
HEIGHT 1
VIEWPOINT 0 0 0 1 0 0 0
POINTS 1358
DATA ascii
0.28860125 -0.10926364 0.059800699
0.28942779 -0.10926364 0.059800703
0.29025435 -0.10926364 0.059800707
0.29149416 -0.10926364 0.059800707
0.32579568 -0.10926364 0.059800796
0.32662222 -0.10926364 0.059800796
0.27950928 -0.10843726 0.059800677
0.28033581 -0.10843726 0.059800681
0.28157565 -0.10843726 0.059800684
0.28281546 -0.10843726 0.059800684
0.28364199 -0.10843726 0.059800688
0.28446853 -0.10843726 0.059800692
0.2852951 -0.10843726 0.059800692
0.28612164 -0.10843726 0.059800696
0.32579568 -0.10843726 0.059800796
0.32662222 -0.10843726 0.059800796
0.28157565 -0.10761087 0.059800684
0.28281546 -0.10761087 0.059800684
0.28364199 -0.10761087 0.059800688
0.28446853 -0.10761087 0.059800692
0.2852951 -0.10761087 0.059800692
0.28612164 -0.10761087 0.059800696
0.32579568 -0.10761087 0.059800796
0.32662222 -0.10761087 0.059800796
0.28157565 -0.10678449 0.059800684
0.28281546 -0.10678449 0.059800684
0.28364199 -0.10678449 0.059800688
0.28446853 -0.10678449 0.059800692
0.2852951 -0.10678449 0.059800692
0.28612164 -0.10678449 0.059800696
0.32455587 -0.10678449 0.059800792
0.32579568 -0.10678449 0.059800796
0.32662222 -0.10678449 0.059800796
0.28157565 -0.1055449 0.059800684
0.28281546 -0.1055449 0.059800684
0.28364199 -0.1055449 0.059800688
0.28446853 -0.1055449 0.059800692
0.2852951 -0.1055449 0.059800692
0.28653491 -0.1055449 0.059800696
0.28777471 -0.1055449 0.059800699
0.28860125 -0.1059581 0.059800699
0.28942779 -0.1059581 0.059800703
0.29025435 -0.1059581 0.059800707
0.29108089 -0.1059581 0.059800707
0.32166296 -0.10513171 0.059800785
0.3224895 -0.10513171 0.059800785
0.32331607 -0.10513171 0.059800789
0.32455587 -0.1055449 0.059800792
0.32579568 -0.1055449 0.059800796
0.32662222 -0.1055449 0.059800796
0.28364199 -0.10430533 0.059800688
0.28446853 -0.10430533 0.059800692
0.2852951 -0.10430533 0.059800692
0.28653491 -0.10430533 0.059800696
0.28777471 -0.10430533 0.059800699
0.29273397 -0.10430533 0.059800711
0.2935605 -0.10430533 0.059800714
0.29438704 -0.10430533 0.059800714
0.29521361 -0.10430533 0.059800718
0.29645342 -0.10430533 0.059800722
0.32166296 -0.10430533 0.059800785
0.3224895 -0.10430533 0.059800785
0.32331607 -0.10430533 0.059800789
0.32455587 -0.10430533 0.059800792
0.32579568 -0.10430533 0.059800796
0.32662222 -0.10430533 0.059800796
0.28364199 -0.10347894 0.059800688
0.28446853 -0.10347894 0.059800692
0.2852951 -0.10347894 0.059800692
0.28653491 -0.10347894 0.059800696
0.28777471 -0.10347894 0.059800699
0.29273397 -0.10347894 0.059800711
0.2935605 -0.10347894 0.059800714
0.29438704 -0.10347894 0.059800714
0.29521361 -0.10347894 0.059800718
0.29645342 -0.10347894 0.059800722
0.29769322 -0.10347894 0.059800725
0.29851976 -0.10347894 0.059800725
0.2993463 -0.10347894 0.059800729
0.30058613 -0.10347894 0.059800729
0.30182594 -0.10347894 0.059800733
0.30265248 -0.10347894 0.059800737
0.30347902 -0.10347894 0.05980074
0.30430558 -0.10347894 0.05980074
0.30554539 -0.10347894 0.059800744
0.3067852 -0.10347894 0.059800748
0.30761173 -0.10347894 0.059800748
0.30843827 -0.10347894 0.059800752
0.30926484 -0.10347894 0.059800752
0.31050465 -0.10347894 0.059800759
0.31174445 -0.10347894 0.059800759
0.31257099 -0.10347894 0.059800763
0.31339753 -0.10347894 0.059800763
0.31422409 -0.10347894 0.059800766
0.3154639 -0.10347894 0.059800766
0.31670371 -0.10347894 0.059800774
0.31753024 -0.10347894 0.059800774
0.31835681 -0.10347894 0.059800778
0.31918335 -0.10347894 0.059800778
0.2852951 -0.10265255 0.059800692
0.28653491 -0.10265255 0.059800696
0.28777471 -0.10265255 0.059800699
0.29273397 -0.10265255 0.059800711
0.2935605 -0.10265255 0.059800714
0.29438704 -0.10265255 0.059800714
0.29521361 -0.10265255 0.059800718
0.29645342 -0.10265255 0.059800722
0.29769322 -0.10265255 0.059800725
0.29851976 -0.10265255 0.059800725
0.2993463 -0.10265255 0.059800729
0.30058613 -0.10265255 0.059800729
0.30182594 -0.10265255 0.059800733
0.30265248 -0.10265255 0.059800737
0.30347902 -0.10265255 0.05980074
0.30430558 -0.10265255 0.05980074
0.30554539 -0.10265255 0.059800744
0.3067852 -0.10265255 0.059800748
0.30761173 -0.10265255 0.059800748
0.30843827 -0.10265255 0.059800752
0.30926484 -0.10265255 0.059800752
0.31050465 -0.10265255 0.059800759
0.31174445 -0.10265255 0.059800759
0.31257099 -0.10265255 0.059800763
0.31339753 -0.10265255 0.059800763
0.31422409 -0.10265255 0.059800766
0.3154639 -0.10265255 0.059800766
0.31670371 -0.10265255 0.059800774
0.31753024 -0.10265255 0.059800774
0.31835681 -0.10265255 0.059800778
0.31918335 -0.10265255 0.059800778
0.2852951 -0.10182616 0.059800692
0.28653491 -0.10182616 0.059800696
0.28777471 -0.10182616 0.059800699
0.28860125 -0.10182616 0.059800699
0.28942779 -0.10182616 0.059800703
0.29025435 -0.10182616 0.059800707
0.29149416 -0.10182616 0.059800707
0.29273397 -0.10182616 0.059800711
0.2935605 -0.10182616 0.059800714
0.29438704 -0.10182616 0.059800714
0.29521361 -0.10182616 0.059800718
0.29645342 -0.10182616 0.059800722
0.29769322 -0.10182616 0.059800725
0.29851976 -0.10182616 0.059800725
0.2993463 -0.10182616 0.059800729
0.30058613 -0.10182616 0.059800729
0.30182594 -0.10182616 0.059800733
0.30265248 -0.10182616 0.059800737
0.30347902 -0.10182616 0.05980074
0.30430558 -0.10182616 0.05980074
0.30513212 -0.10182616 0.059800744
0.2852951 -0.10058659 0.059800692
0.28653491 -0.10058659 0.059800696
0.28777471 -0.10058659 0.059800699
0.28860125 -0.10058659 0.059800699
0.28942779 -0.10058659 0.059800703
0.29025435 -0.10058659 0.059800707
0.29149416 -0.10058659 0.059800707
0.29273397 -0.10058659 0.059800711
0.2935605 -0.10058659 0.059800714
0.29438704 -0.10058659 0.059800714
0.29521361 -0.10058659 0.059800718
0.29645342 -0.10058659 0.059800722
0.29769322 -0.10058659 0.059800725
0.29851976 -0.10099978 0.059800725
0.2993463 -0.10099978 0.059800729
0.30058613 -0.10099978 0.059800729
0.30182594 -0.10099978 0.059800733
0.30265248 -0.10099978 0.059800737
0.30347902 -0.10099978 0.05980074
0.30430558 -0.10099978 0.05980074
0.30513212 -0.10099978 0.059800744
0.2852951 -0.099347003 0.059800692
0.28653491 -0.099347003 0.059800696
0.28777471 -0.099347003 0.059800699
0.28860125 -0.099347003 0.059800699
0.28942779 -0.099347003 0.059800703
0.29025435 -0.099347003 0.059800707
0.29149416 -0.099347003 0.059800707
0.29273397 -0.099347003 0.059800711
0.2935605 -0.099347003 0.059800714
0.29438704 -0.099347003 0.059800714
0.29521361 -0.099347003 0.059800718
0.29645342 -0.099347003 0.059800722
0.29769322 -0.099347003 0.059800725
0.29025435 -0.098520614 0.059800707
0.29149416 -0.098520614 0.059800707
0.29273397 -0.098520614 0.059800711
0.2935605 -0.098520614 0.059800714
0.29438704 -0.098520614 0.059800714
0.29025435 -0.097694233 0.059800707
0.29149416 -0.097694233 0.059800707
0.29273397 -0.097694233 0.059800711
0.2935605 -0.097694233 0.059800714
0.29438704 -0.097694233 0.059800714
0.3224895 -0.09645465 0.059800785
0.32331607 -0.09645465 0.059800789
0.32455587 -0.09645465 0.059800792
0.32579568 -0.09645465 0.059800796
0.32662222 -0.09645465 0.059800796
0.3224895 -0.095215067 0.059800785
0.32331607 -0.095215067 0.059800789
0.32455587 -0.095215067 0.059800792
0.32579568 -0.095215067 0.059800796
0.32662222 -0.095215067 0.059800796
0.3224895 -0.094388686 0.059800785
0.32331607 -0.094388686 0.059800789
0.32455587 -0.094388686 0.059800792
0.32579568 -0.094388686 0.059800796
0.32662222 -0.094388686 0.059800796
0.32083642 -0.093562298 0.059800781
0.32166296 -0.093562298 0.059800785
0.3224895 -0.093562298 0.059800785
0.32331607 -0.093562298 0.059800789
0.32455587 -0.093562298 0.059800792
0.32579568 -0.093562298 0.059800796
0.32662222 -0.093562298 0.059800796
0.32083642 -0.092735909 0.059800781
0.32166296 -0.092735909 0.059800785
0.3224895 -0.092735909 0.059800785
0.32083642 -0.09190952 0.059800781
0.32166296 -0.09190952 0.059800785
0.3224895 -0.09190952 0.059800785
0.30058613 -0.025798585 0.059800729
0.30182594 -0.025798585 0.059800733
0.30265248 -0.025798585 0.059800737
0.30347902 -0.025798585 0.05980074
0.30430558 -0.025798585 0.05980074
0.30058613 -0.024559006 0.059800729
0.30182594 -0.024559006 0.059800733
0.30265248 -0.024559006 0.059800737
0.30347902 -0.024559006 0.05980074
0.30430558 -0.024559006 0.05980074
0.30554539 -0.024559006 0.059800744
0.3067852 -0.024559006 0.059800748
0.30761173 -0.024559006 0.059800748
0.30843827 -0.024559006 0.059800752
0.30926484 -0.024559006 0.059800752
0.29851976 -0.023319425 0.059800725
0.2993463 -0.023319425 0.059800729
0.30058613 -0.023319425 0.059800729
0.30182594 -0.023319425 0.059800733
0.30265248 -0.023319425 0.059800737
0.30347902 -0.023319425 0.05980074
0.30430558 -0.023319425 0.05980074
0.30513212 -0.023319425 0.059800744
0.31050465 -0.023319425 0.059800759
0.29851976 -0.022493038 0.059800725
0.2993463 -0.022493038 0.059800729
0.30058613 -0.022493038 0.059800729
0.30182594 -0.022493038 0.059800733
0.30265248 -0.022493038 0.059800737
0.30347902 -0.022493038 0.05980074
0.30430558 -0.022493038 0.05980074
0.30513212 -0.022493038 0.059800744
0.31050465 -0.022493038 0.059800759
0.29851976 -0.021666652 0.059800725
0.2993463 -0.021666652 0.059800729
0.30058613 -0.021666652 0.059800729
0.31050465 -0.021666652 0.059800759
0.29686669 -0.020013878 0.059800722
0.29769322 -0.020013878 0.059800725
0.29851976 -0.020427071 0.059800725
0.2993463 -0.020427071 0.059800729
0.30058613 -0.020840265 0.059800729
0.31050465 -0.020427071 0.059800755
0.31174445 -0.020013878 0.059800759
0.31257099 -0.020013878 0.059800763
0.29686669 -0.019187491 0.059800722
0.29769322 -0.019187491 0.059800725
0.29851976 -0.019187491 0.059800725
0.2993463 -0.019187491 0.059800729
0.31050465 -0.019187491 0.059800759
0.31174445 -0.019187491 0.059800759
0.31257099 -0.019187491 0.059800763
0.29521361 -0.018361105 0.059800718
0.29645342 -0.018361105 0.059800722
0.29769322 -0.018361105 0.059800725
0.31050465 -0.018361105 0.059800759
0.31174445 -0.018361105 0.059800759
0.31257099 -0.018361105 0.059800763
0.29521361 -0.017534718 0.059800718
0.29645342 -0.017534718 0.059800722
0.29769322 -0.017534718 0.059800725
0.31050465 -0.017534718 0.059800759
0.31174445 -0.017534718 0.059800759
0.31257099 -0.017534718 0.059800763
0.29273397 -0.016708331 0.059800711
0.2935605 -0.016708331 0.059800714
0.29438704 -0.016708331 0.059800714
0.29521361 -0.016708331 0.059800718
0.29604015 -0.016708331 0.059800718
0.31050465 -0.016708331 0.059800759
0.31174445 -0.016708331 0.059800759
0.31257099 -0.016708331 0.059800763
0.28942779 -0.015055557 0.059800703
0.29025435 -0.015055557 0.059800707
0.29149416 -0.015055557 0.059800707
0.29273397 -0.01546875 0.059800711
0.2935605 -0.01546875 0.059800714
0.29438704 -0.01546875 0.059800714
0.29521361 -0.015881944 0.059800718
0.29604015 -0.015881944 0.059800718
0.31050465 -0.01546875 0.059800759
0.31174445 -0.01546875 0.059800759
0.31257099 -0.01546875 0.059800763
0.31670371 -0.01546875 0.059800774
0.31753024 -0.01546875 0.059800774
0.31835681 -0.01546875 0.059800778
0.31918335 -0.01546875 0.059800778
0.32000989 -0.01546875 0.059800781
0.28942779 -0.01422917 0.059800703
0.29025435 -0.01422917 0.059800707
0.29149416 -0.01422917 0.059800707
0.29273397 -0.01422917 0.059800711
0.2935605 -0.01422917 0.059800714
0.29438704 -0.01422917 0.059800714
0.31174445 -0.01422917 0.059800759
0.31257099 -0.01422917 0.059800763
0.31339753 -0.01422917 0.059800763
0.31422409 -0.01422917 0.059800766
0.3154639 -0.01422917 0.059800766
0.3224895 -0.01422917 0.059800785
0.32331607 -0.01422917 0.059800789
0.28942779 -0.013402783 0.059800703
0.29025435 -0.013402783 0.059800707
0.29149416 -0.013402783 0.059800707
0.29273397 -0.013402783 0.059800711
0.2935605 -0.013402783 0.059800714
0.29438704 -0.013402783 0.059800714
0.31174445 -0.013402783 0.059800759
0.31257099 -0.013402783 0.059800763
0.31339753 -0.013402783 0.059800763
0.31422409 -0.013402783 0.059800766
0.3154639 -0.013402783 0.059800766
0.3224895 -0.013402783 0.059800785
0.32331607 -0.013402783 0.059800789
0.28942779 -0.012576397 0.059800703
0.29025435 -0.012576397 0.059800707
0.29149416 -0.012576397 0.059800707
0.31174445 -0.012576397 0.059800759
0.31257099 -0.012576397 0.059800763
0.31339753 -0.012576397 0.059800763
0.31422409 -0.012576397 0.059800766
0.3154639 -0.012576397 0.059800766
0.3224895 -0.012576397 0.059800785
0.28942779 -0.01175001 0.059800703
0.29025435 -0.01175001 0.059800707
0.29149416 -0.01175001 0.059800707
0.31174445 -0.01175001 0.059800759
0.31257099 -0.01175001 0.059800763
0.31339753 -0.01175001 0.059800763
0.31422409 -0.01175001 0.059800766
0.3154639 -0.01175001 0.059800766
0.31670371 -0.01175001 0.059800774
0.31753024 -0.01175001 0.059800774
0.32083642 -0.01175001 0.059800781
0.32166296 -0.01175001 0.059800785
0.3224895 -0.01175001 0.059800785
0.28942779 -0.01051043 0.059800703
0.29025435 -0.01051043 0.059800707
0.29149416 -0.01051043 0.059800707
0.29273397 -0.010097236 0.059800711
0.2935605 -0.010097236 0.059800714
0.30265248 -0.010097236 0.059800737
0.3067852 -0.010097236 0.059800748
0.30761173 -0.010097236 0.059800748
0.30843827 -0.010097236 0.059800752
0.30926484 -0.010097236 0.059800752
0.31050465 -0.010097236 0.059800759
0.31174445 -0.01051043 0.059800759
0.31257099 -0.01051043 0.059800763
0.31339753 -0.01051043 0.059800763
0.31422409 -0.01051043 0.059800766
0.3154639 -0.01051043 0.059800766
0.31670371 -0.01051043 0.059800774
0.31753024 -0.01051043 0.059800774
0.3224895 -0.01051043 0.059800785
0.32331607 -0.010097236 0.059800789
0.32455587 -0.010097236 0.059800792
0.28942779 -0.0092708496 0.059800703
0.29025435 -0.0092708496 0.059800707
0.29149416 -0.0092708496 0.059800707
0.29273397 -0.0092708496 0.059800711
0.2935605 -0.0092708496 0.059800714
0.30265248 -0.0092708496 0.059800737
0.3067852 -0.0092708496 0.059800748
0.30761173 -0.0092708496 0.059800748
0.30843827 -0.0092708496 0.059800752
0.30926484 -0.0092708496 0.059800752
0.31050465 -0.0092708496 0.059800759
0.31174445 -0.0092708496 0.059800759
0.31257099 -0.0092708496 0.059800763
0.31339753 -0.0092708496 0.059800763
0.31422409 -0.0092708496 0.059800766
0.3154639 -0.0092708496 0.059800766
0.31670371 -0.0092708496 0.059800774
0.31753024 -0.0092708496 0.059800774
0.3224895 -0.0092708496 0.059800785
0.32331607 -0.0092708496 0.059800789
0.32455587 -0.0092708496 0.059800792
0.29149416 -0.0084444638 0.059800707
0.29273397 -0.0084444638 0.059800711
0.29438704 -0.0084444638 0.059800714
0.29521361 -0.0084444638 0.059800718
0.29645342 -0.0084444638 0.059800722
0.29769322 -0.0084444638 0.059800725
0.29851976 -0.0084444638 0.059800725
0.2993463 -0.0084444638 0.059800729
0.30058613 -0.0084444638 0.059800729
0.30182594 -0.0084444638 0.059800733
0.30265248 -0.0084444638 0.059800737
0.30347902 -0.0084444638 0.05980074
0.30430558 -0.0084444638 0.05980074
0.30554539 -0.0084444638 0.059800744
0.3067852 -0.0084444638 0.059800748
0.30761173 -0.0084444638 0.059800748
0.30843827 -0.0084444638 0.059800752
0.30926484 -0.0084444638 0.059800752
0.31050465 -0.0084444638 0.059800759
0.31174445 -0.0084444638 0.059800759
0.31257099 -0.0084444638 0.059800763
0.31339753 -0.0084444638 0.059800763
0.31422409 -0.0084444638 0.059800766
0.3154639 -0.0084444638 0.059800766
0.31670371 -0.0084444638 0.059800774
0.31753024 -0.0084444638 0.059800774
0.31835681 -0.0084444638 0.059800778
0.31918335 -0.0084444638 0.059800778
0.32042316 -0.0084444638 0.059800781
0.32166296 -0.0084444638 0.059800785
0.3224895 -0.0084444638 0.059800785
0.32331607 -0.0084444638 0.059800789
0.32455587 -0.0084444638 0.059800792
0.32579568 -0.0084444638 0.059800796
0.32662222 -0.0084444638 0.059800796
0.32744876 -0.0084444638 0.0598008
0.32827532 -0.0084444638 0.0598008
0.29149416 -0.0076180766 0.059800707
0.29273397 -0.0076180766 0.059800711
0.29438704 -0.0076180766 0.059800714
0.29521361 -0.0076180766 0.059800718
0.29645342 -0.0076180766 0.059800722
0.29769322 -0.0076180766 0.059800725
0.29851976 -0.0076180766 0.059800725
0.2993463 -0.0076180766 0.059800729
0.30058613 -0.0076180766 0.059800729
0.30182594 -0.0076180766 0.059800733
0.30265248 -0.0076180766 0.059800737
0.30347902 -0.0076180766 0.05980074
0.30430558 -0.0076180766 0.05980074
0.30554539 -0.0076180766 0.059800744
0.3067852 -0.0076180766 0.059800748
0.30761173 -0.0076180766 0.059800748
0.30843827 -0.0076180766 0.059800752
0.30926484 -0.0076180766 0.059800752
0.31050465 -0.0076180766 0.059800759
0.31174445 -0.0076180766 0.059800759
0.31257099 -0.0076180766 0.059800763
0.31339753 -0.0076180766 0.059800763
0.31422409 -0.0076180766 0.059800766
0.3154639 -0.0076180766 0.059800766
0.31670371 -0.0076180766 0.059800774
0.31753024 -0.0076180766 0.059800774
0.31835681 -0.0076180766 0.059800778
0.31918335 -0.0076180766 0.059800778
0.32042316 -0.0076180766 0.059800781
0.32166296 -0.0076180766 0.059800785
0.3224895 -0.0076180766 0.059800785
0.32331607 -0.0076180766 0.059800789
0.32455587 -0.0076180766 0.059800792
0.32579568 -0.0076180766 0.059800796
0.32662222 -0.0076180766 0.059800796
0.32744876 -0.0076180766 0.0598008
0.32827532 -0.0076180766 0.0598008
0.32910186 -0.0076180766 0.059800804
0.30347902 -0.0067916899 0.05980074
0.30430558 -0.0067916899 0.05980074
0.30554539 -0.0067916899 0.059800744
0.3067852 -0.0067916899 0.059800748
0.30761173 -0.0067916899 0.059800748
0.30843827 -0.0067916899 0.059800752
0.30926484 -0.0067916899 0.059800752
0.31050465 -0.0067916899 0.059800759
0.31174445 -0.0067916899 0.059800759
0.31257099 -0.0067916899 0.059800763
0.31339753 -0.0067916899 0.059800763
0.31422409 -0.0067916899 0.059800766
0.3154639 -0.0067916899 0.059800766
0.31670371 -0.0067916899 0.059800774
0.31753024 -0.0067916899 0.059800774
0.31835681 -0.0067916899 0.059800778
0.31918335 -0.0067916899 0.059800778
0.32042316 -0.0067916899 0.059800781
0.32166296 -0.0067916899 0.059800785
0.3224895 -0.0067916899 0.059800785
0.32331607 -0.0067916899 0.059800789
0.32455587 -0.0067916899 0.059800792
0.32579568 -0.0067916899 0.059800796
0.32662222 -0.0067916899 0.059800796
0.32744876 -0.0067916899 0.0598008
0.32827532 -0.0067916899 0.0598008
0.32910186 -0.0067916899 0.059800804
0.30347902 -0.0059653032 0.05980074
0.30430558 -0.0059653032 0.05980074
0.30554539 -0.0059653032 0.059800744
0.3067852 -0.0059653032 0.059800748
0.30761173 -0.0055521098 0.059800748
0.30843827 -0.0055521098 0.059800752
0.30926484 -0.0055521098 0.059800752
0.31050465 -0.0055521098 0.059800759
0.31174445 -0.0055521098 0.059800759
0.31257099 -0.0055521098 0.059800763
0.31339753 -0.0055521098 0.059800763
0.31422409 -0.0055521098 0.059800766
0.3154639 -0.0055521098 0.059800766
0.31670371 -0.0055521098 0.059800774
0.31753024 -0.0055521098 0.059800774
0.31835681 -0.0055521098 0.059800778
0.31918335 -0.0055521098 0.059800778
0.32042316 -0.0055521098 0.059800781
0.32166296 -0.0055521098 0.059800785
0.3224895 -0.0055521098 0.059800785
0.32331607 -0.0055521098 0.059800789
0.32455587 -0.0055521098 0.059800792
0.32579568 -0.0055521098 0.059800796
0.32662222 -0.0055521098 0.059800796
0.32744876 -0.0055521098 0.0598008
0.30761173 -0.0043125292 0.059800748
0.30843827 -0.0043125292 0.059800752
0.30926484 -0.0043125292 0.059800752
0.31050465 -0.0043125292 0.059800759
0.31174445 -0.0043125292 0.059800759
0.31257099 -0.0043125292 0.059800763
0.31339753 -0.0043125292 0.059800763
0.31422409 -0.0043125292 0.059800766
0.3154639 -0.0043125292 0.059800766
0.31670371 -0.0043125292 0.059800774
0.31753024 -0.0043125292 0.059800774
0.31835681 -0.0043125292 0.059800778
0.31918335 -0.0043125292 0.059800778
0.32042316 -0.0043125292 0.059800781
0.32166296 -0.0043125292 0.059800785
0.3224895 -0.0043125292 0.059800785
0.32331607 -0.0043125292 0.059800789
0.32455587 -0.0043125292 0.059800792
0.32579568 -0.0043125292 0.059800796
0.32662222 -0.0043125292 0.059800796
0.32744876 -0.0043125292 0.0598008
0.30761173 -0.0034861425 0.059800748
0.30843827 -0.0034861425 0.059800752
0.30926484 -0.0034861425 0.059800752
0.31050465 -0.0034861425 0.059800759
0.31174445 -0.0034861425 0.059800759
0.31257099 -0.0034861425 0.059800763
0.31339753 -0.0034861425 0.059800763
0.31753024 -0.0034861425 0.059800774
0.31835681 -0.0034861425 0.059800778
0.31918335 -0.0034861425 0.059800778
0.32042316 -0.0034861425 0.059800781
0.32166296 -0.0034861425 0.059800785
0.3224895 -0.0034861425 0.059800785
0.32331607 -0.0034861425 0.059800789
0.32455587 -0.0034861425 0.059800792
0.32579568 -0.0034861425 0.059800796
0.32662222 -0.0034861425 0.059800796
0.32744876 -0.0034861425 0.0598008
0.30761173 -0.0026597558 0.059800748
0.30843827 -0.0026597558 0.059800752
0.30926484 -0.0026597558 0.059800752
0.31050465 -0.0026597558 0.059800759
0.31174445 -0.0026597558 0.059800759
0.31257099 -0.0026597558 0.059800763
0.31339753 -0.0026597558 0.059800763
0.31753024 -0.0026597558 0.059800774
0.31835681 -0.0026597558 0.059800778
0.31918335 -0.0026597558 0.059800778
0.32042316 -0.0026597558 0.059800781
0.32166296 -0.0026597558 0.059800785
0.3224895 -0.0026597558 0.059800785
0.32331607 -0.0026597558 0.059800789
0.30761173 -0.0014201757 0.059800748
0.30843827 -0.0014201757 0.059800752
0.30926484 -0.0014201757 0.059800752
0.31050465 -0.0014201757 0.059800759
0.31174445 -0.0014201757 0.059800759
0.31753024 -0.0014201757 0.059800774
0.31835681 -0.0014201757 0.059800778
0.31918335 -0.0014201757 0.059800778
0.32042316 -0.0014201757 0.059800781
0.32166296 -0.0014201757 0.059800785
0.3224895 -0.0014201757 0.059800785
0.32331607 -0.0014201757 0.059800789
0.32455587 -0.0014201757 0.059800792
0.30761173 -0.00018059557 0.059800748
0.30843827 -0.00018059557 0.059800752
0.30926484 -0.00018059557 0.059800752
0.31050465 -0.00018059557 0.059800759
0.31174445 -0.00018059557 0.059800759
0.31753024 -0.00018059557 0.059800774
0.31835681 -0.00018059557 0.059800778
0.31918335 -0.00018059557 0.059800778
0.32042316 -0.00018059557 0.059800781
0.32166296 -0.00018059557 0.059800785
0.3224895 -0.00018059557 0.059800785
0.32331607 -0.00018059557 0.059800789
0.32455587 -0.00018059557 0.059800792
0.30761173 0.00064579124 0.059800748
0.30843827 0.00064579124 0.059800752
0.30926484 0.00064579124 0.059800752
0.31050465 0.00064579124 0.059800759
0.31174445 0.00064579124 0.059800759
0.31753024 0.00064579124 0.059800774
0.31835681 0.00064579124 0.059800778
0.31918335 0.00064579124 0.059800778
0.32042316 0.00064579124 0.059800781
0.32166296 0.00064579124 0.059800785
0.3224895 0.00064579124 0.059800785
0.32331607 0.00064579124 0.059800789
0.32455587 0.00064579124 0.059800792
0.30554539 0.001472178 0.059800744
0.3067852 0.001472178 0.059800748
0.30761173 0.001472178 0.059800748
0.30843827 0.001472178 0.059800752
0.30926484 0.001472178 0.059800752
0.31009138 0.001472178 0.059800755
0.32083642 0.001472178 0.059800781
0.32166296 0.001472178 0.059800785
0.3224895 0.001472178 0.059800785
0.32331607 0.001472178 0.059800789
0.32455587 0.001472178 0.059800792
0.30554539 0.0022985647 0.059800744
0.3067852 0.0022985647 0.059800748
0.30761173 0.0022985647 0.059800748
0.30843827 0.0022985647 0.059800752
0.30926484 0.0022985647 0.059800752
0.31009138 0.0022985647 0.059800755
0.32083642 0.0022985647 0.059800781
0.32166296 0.0022985647 0.059800785
0.3224895 0.0022985647 0.059800785
0.32331607 0.0022985647 0.059800789
0.32455587 0.0022985647 0.059800792
0.30554539 0.003538145 0.059800744
0.3067852 0.0035381448 0.059800748
0.30761173 0.0035381448 0.059800748
0.30843827 0.0035381448 0.059800752
0.30926484 0.0035381448 0.059800752
0.31009138 0.0035381448 0.059800755
0.32083642 0.0031249516 0.059800781
0.32166296 0.0031249516 0.059800785
0.3224895 0.0031249516 0.059800785
0.32331607 0.0031249516 0.059800789
0.32455587 0.0031249516 0.059800792
0.30554539 0.0047777249 0.059800744
0.3067852 0.0047777249 0.059800748
0.30761173 0.0047777249 0.059800748
0.30843827 0.0047777249 0.059800752
0.30926484 0.0047777249 0.059800752
0.31009138 0.0047777249 0.059800755
0.30554539 0.0056041116 0.059800744
0.3067852 0.0056041116 0.059800748
0.30761173 0.0056041116 0.059800748
0.30843827 0.0056041116 0.059800752
0.30554539 0.0064304983 0.059800744
0.3067852 0.0064304983 0.059800748
0.30761173 0.0064304983 0.059800748
0.30843827 0.0064304983 0.059800752
0.30347902 0.0072568851 0.05980074
0.30430558 0.0072568851 0.05980074
0.30554539 0.0072568851 0.059800744
0.30058613 0.0089096585 0.059800729
0.30182594 0.0089096585 0.059800733
0.30265248 0.0089096585 0.059800737
0.30347902 0.0080832718 0.05980074
0.30430558 0.0080832718 0.05980074
0.30554539 0.0080832718 0.059800744
0.30058613 0.0097360462 0.059800729
0.30182594 0.0097360462 0.059800733
0.30265248 0.0097360462 0.059800737
0.29645342 0.010562433 0.059800722
0.29769322 0.010562433 0.059800725
0.29851976 0.010562433 0.059800725
0.2993463 0.010562433 0.059800729
0.30058613 0.010562433 0.059800729
0.29645342 0.01138882 0.059800722
0.29769322 0.01138882 0.059800725
0.29851976 0.01138882 0.059800725
0.2993463 0.01138882 0.059800729
0.30058613 0.01138882 0.059800729
0.29438704 0.012215206 0.059800714
0.29521361 0.012215206 0.059800718
0.29645342 0.012215206 0.059800722
0.29769322 0.012215206 0.059800725
0.29851976 0.012215206 0.059800725
0.2993463 0.012215206 0.059800729
0.28364199 0.01386798 0.059800688
0.28446853 0.01386798 0.059800692
0.2852951 0.01386798 0.059800692
0.28653491 0.01386798 0.059800696
0.29273397 0.01386798 0.059800711
0.2935605 0.01386798 0.059800714
0.29438704 0.013454787 0.059800714
0.29521361 0.013454787 0.059800718
0.29645342 0.013454787 0.059800722
0.29769322 0.013041593 0.059800725
0.29851976 0.013041593 0.059800725
0.2993463 0.013041593 0.059800729
0.28364199 0.014694367 0.059800688
0.28446853 0.014694367 0.059800692
0.2852951 0.014694367 0.059800692
0.28653491 0.014694367 0.059800696
0.29273397 0.014694367 0.059800711
0.2935605 0.014694367 0.059800714
0.29438704 0.014694367 0.059800714
0.29521361 0.014694367 0.059800718
0.29645342 0.014694367 0.059800722
0.28198892 0.015520753 0.059800684
0.28281546 0.015520753 0.059800684
0.28777471 0.015520753 0.059800699
0.28860125 0.015520753 0.059800699
0.28942779 0.015520753 0.059800703
0.29025435 0.015520753 0.059800707
0.29149416 0.015520753 0.059800707
0.29273397 0.015520753 0.059800711
0.2935605 0.015520753 0.059800714
0.29438704 0.015520753 0.059800714
0.29521361 0.015520753 0.059800718
0.29645342 0.015520753 0.059800722
0.28198892 0.01634714 0.059800684
0.28281546 0.01634714 0.059800684
0.28777471 0.01634714 0.059800699
0.28860125 0.01634714 0.059800699
0.28942779 0.01634714 0.059800703
0.29025435 0.01634714 0.059800707
0.29149416 0.01634714 0.059800707
0.29273397 0.01634714 0.059800711
0.2935605 0.01634714 0.059800714
0.29438704 0.01634714 0.059800714
0.29521361 0.01634714 0.059800718
0.28033581 0.017586719 0.059800681
0.28116238 0.017586719 0.059800681
0.28777471 0.017586719 0.059800699
0.28860125 0.017586719 0.059800699
0.28942779 0.017586719 0.059800703
0.29025435 0.017586719 0.059800707
0.29149416 0.017586719 0.059800707
0.29273397 0.017586719 0.059800711
0.2935605 0.017586719 0.059800714
0.29438704 0.017586719 0.059800714
0.29521361 0.017586719 0.059800718
0.28033581 0.018826298 0.059800681
0.28116238 0.018826298 0.059800681
0.28777471 0.018826298 0.059800699
0.28860125 0.018826298 0.059800699
0.28942779 0.018826298 0.059800703
0.29025435 0.018826298 0.059800707
0.29149416 0.018826298 0.059800707
0.29273397 0.018826298 0.059800711
0.2935605 0.018826298 0.059800714
0.29438704 0.018826298 0.059800714
0.29521361 0.018826298 0.059800718
0.29025435 0.019652685 0.059800707
0.29149416 0.019652685 0.059800707
0.29273397 0.019652685 0.059800711
0.2935605 0.019652685 0.059800714
0.29438704 0.019652685 0.059800714
0.29521361 0.019652685 0.059800718
0.29025435 0.020479072 0.059800707
0.29149416 0.020479072 0.059800707
0.29273397 0.020479072 0.059800711
0.2935605 0.020479072 0.059800714
0.29438704 0.020479072 0.059800714
0.29521361 0.020479072 0.059800718
0.29645342 0.020479072 0.059800722
0.29025435 0.021305459 0.059800707
0.29149416 0.021305459 0.059800707
0.29273397 0.021305459 0.059800711
0.2935605 0.021305459 0.059800714
0.29438704 0.021305459 0.059800714
0.29521361 0.021305459 0.059800718
0.29645342 0.021305459 0.059800722
0.29025435 0.02254504 0.059800707
0.29149416 0.02254504 0.059800707
0.29273397 0.02254504 0.059800711
0.2935605 0.02254504 0.059800714
0.29438704 0.02254504 0.059800714
0.29521361 0.02254504 0.059800718
0.29645342 0.02254504 0.059800722
0.29769322 0.02254504 0.059800725
0.29851976 0.02254504 0.059800725
0.2993463 0.02254504 0.059800729
0.30058613 0.02254504 0.059800729
0.32455587 0.02254504 0.059800792
0.28033581 0.023784619 0.059800681
0.28116238 0.023784619 0.059800681
0.28942779 0.023784619 0.059800703
0.29025435 0.023784619 0.059800707
0.29149416 0.023784619 0.059800707
0.29273397 0.023784619 0.059800711
0.2935605 0.023784619 0.059800714
0.29438704 0.023784619 0.059800714
0.29521361 0.023784619 0.059800718
0.29645342 0.023784619 0.059800722
0.29769322 0.023784619 0.059800725
0.29851976 0.023784619 0.059800725
0.2993463 0.023784619 0.059800729
0.30058613 0.023784619 0.059800729
0.30182594 0.023784619 0.059800733
0.30265248 0.023784619 0.059800737
0.30347902 0.023784619 0.05980074
0.30430558 0.023784619 0.05980074
0.30554539 0.023784619 0.059800744
0.3067852 0.023784619 0.059800748
0.30761173 0.023784619 0.059800748
0.32455587 0.023784619 0.059800792
0.28033581 0.024611006 0.059800681
0.28116238 0.024611006 0.059800681
0.28942779 0.024611006 0.059800703
0.29025435 0.024611006 0.059800707
0.29149416 0.024611006 0.059800707
0.29273397 0.024611006 0.059800711
0.2935605 0.024611006 0.059800714
0.29438704 0.024611006 0.059800714
0.29521361 0.024611006 0.059800718
0.29645342 0.024611006 0.059800722
0.29769322 0.024611006 0.059800725
0.29851976 0.024611006 0.059800725
0.2993463 0.024611006 0.059800729
0.30058613 0.024611006 0.059800729
0.30182594 0.024611006 0.059800733
0.30265248 0.024611006 0.059800737
0.30347902 0.024611006 0.05980074
0.30430558 0.024611006 0.05980074
0.30554539 0.024611006 0.059800744
0.3067852 0.024611006 0.059800748
0.30761173 0.024611006 0.059800748
0.28033581 0.025437392 0.059800681
0.28116238 0.025437392 0.059800681
0.28777471 0.025437392 0.059800699
0.28860125 0.025437392 0.059800699
0.28942779 0.025437392 0.059800703
0.29025435 0.025437392 0.059800707
0.29149416 0.025437392 0.059800707
0.29273397 0.025437392 0.059800711
0.2935605 0.025437392 0.059800714
0.29438704 0.025437392 0.059800714
0.29521361 0.025437392 0.059800718
0.29604015 0.025437392 0.059800718
0.30347902 0.025437392 0.05980074
0.30430558 0.025437392 0.05980074
0.30554539 0.025437392 0.059800744
0.3067852 0.025437392 0.059800748
0.30761173 0.025437392 0.059800748
0.28033581 0.026263781 0.059800681
0.28116238 0.026263781 0.059800681
0.28777471 0.026263781 0.059800699
0.28860125 0.026263781 0.059800699
0.28942779 0.026263781 0.059800703
0.29025435 0.026263781 0.059800707
0.29149416 0.026263781 0.059800707
0.29273397 0.026263781 0.059800711
0.2935605 0.026263781 0.059800714
0.29438704 0.026263781 0.059800714
0.29521361 0.026263781 0.059800718
0.29604015 0.026263781 0.059800718
0.3067852 0.026263781 0.059800748
0.30761173 0.026263781 0.059800748
0.30843827 0.026263781 0.059800752
0.30926484 0.026263781 0.059800752
0.31050465 0.026263781 0.059800759
0.31174445 0.026263781 0.059800759
0.31257099 0.026263781 0.059800763
0.31339753 0.026263781 0.059800763
0.31835681 0.026263781 0.059800778
0.31918335 0.026263781 0.059800778
0.32042316 0.026263781 0.059800781
0.32166296 0.026263781 0.059800785
0.3224895 0.026263781 0.059800785
0.32331607 0.026263781 0.059800789
0.28198892 0.02750336 0.059800684
0.28281546 0.02750336 0.059800684
0.28364199 0.02750336 0.059800688
0.28446853 0.02750336 0.059800692
0.2852951 0.02750336 0.059800692
0.28653491 0.02750336 0.059800696
0.28777471 0.02750336 0.059800699
0.28860125 0.02750336 0.059800699
0.28942779 0.02750336 0.059800703
0.29025435 0.02750336 0.059800707
0.29149416 0.02750336 0.059800707
0.29273397 0.02750336 0.059800711
0.2935605 0.027090168 0.059800714
0.29438704 0.027090168 0.059800714
0.29521361 0.027090168 0.059800718
0.29604015 0.027090168 0.059800718
0.3067852 0.027090168 0.059800748
0.30761173 0.027090168 0.059800748
0.30843827 0.02750336 0.059800752
0.30926484 0.02750336 0.059800752
0.31050465 0.02750336 0.059800759
0.31174445 0.02750336 0.059800759
0.31257099 0.02750336 0.059800763
0.31339753 0.02750336 0.059800763
0.31422409 0.027916554 0.059800766
0.3154639 0.027916554 0.059800766
0.31670371 0.027916554 0.059800774
0.31753024 0.027916554 0.059800774
0.31835681 0.02750336 0.059800778
0.31918335 0.02750336 0.059800778
0.32042316 0.027503362 0.059800781
0.32166296 0.02750336 0.059800785
0.3224895 0.027090168 0.059800785
0.32331607 0.027090168 0.059800789
0.28198892 0.028742941 0.059800684
0.28281546 0.028742941 0.059800684
0.28364199 0.028742941 0.059800688
0.28446853 0.028742941 0.059800692
0.2852951 0.028742941 0.059800692
0.28653491 0.028742941 0.059800696
0.28777471 0.028742941 0.059800699
0.28860125 0.028742941 0.059800699
0.28942779 0.028742941 0.059800703
0.29025435 0.028742941 0.059800707
0.29149416 0.028742941 0.059800707
0.29273397 0.028742941 0.059800711
0.30843827 0.028742941 0.059800752
0.30926484 0.028742941 0.059800752
0.31050465 0.028742941 0.059800759
0.31174445 0.028742941 0.059800759
0.31257099 0.028742941 0.059800763
0.31339753 0.028742941 0.059800763
0.31422409 0.028742941 0.059800766
0.3154639 0.028742941 0.059800766
0.31670371 0.028742941 0.059800774
0.31753024 0.028742941 0.059800774
0.31835681 0.028742941 0.059800778
0.31918335 0.028742941 0.059800778
0.32042316 0.028742941 0.059800781
0.32166296 0.028742941 0.059800785
0.28198892 0.029569328 0.059800684
0.28281546 0.029569328 0.059800684
0.28364199 0.029569328 0.059800688
0.28446853 0.029569328 0.059800692
0.2852951 0.029569328 0.059800692
0.28653491 0.029569328 0.059800696
0.28777471 0.029569328 0.059800699
0.28860125 0.029569328 0.059800699
0.28942779 0.029569328 0.059800703
0.29025435 0.029569328 0.059800707
0.29149416 0.029569328 0.059800707
0.29273397 0.029569328 0.059800711
0.31257099 0.029569328 0.059800763
0.31339753 0.029569328 0.059800763
0.31422409 0.029569328 0.059800766
0.3154639 0.029569328 0.059800766
0.31670371 0.029569328 0.059800774
0.31753024 0.029569328 0.059800774
0.31835681 0.029569328 0.059800778
0.31918335 0.029569328 0.059800778
0.32000989 0.029569328 0.059800781
0.28198892 0.030395715 0.059800684
0.28281546 0.030395715 0.059800684
0.28364199 0.030395715 0.059800688
0.28446853 0.030395715 0.059800692
0.2852951 0.030395715 0.059800692
0.28653491 0.030395715 0.059800696
0.28777471 0.030395715 0.059800699
0.28860125 0.030395715 0.059800699
0.28942779 0.030395715 0.059800703
0.29025435 0.030395715 0.059800707
0.29149416 0.030395715 0.059800707
0.29273397 0.030395715 0.059800711
0.31257099 0.030395715 0.059800763
0.31339753 0.030395715 0.059800763
0.31422409 0.030395715 0.059800766
0.3154639 0.030395715 0.059800766
0.31670371 0.030395715 0.059800774
0.31753024 0.030395715 0.059800774
0.31835681 0.030395715 0.059800778
0.31918335 0.030395715 0.059800778
0.32042316 0.030395715 0.059800781
0.32166296 0.030395715 0.059800785
0.2852951 0.031222101 0.059800692
0.28653491 0.031222101 0.059800696
0.28777471 0.031222101 0.059800699
0.28860125 0.031222101 0.059800699
0.28942779 0.031222101 0.059800703
0.29025435 0.031222101 0.059800707
0.29149416 0.031222101 0.059800707
0.29273397 0.031222101 0.059800711
0.31257099 0.031222101 0.059800763
0.31339753 0.031222101 0.059800763
0.31422409 0.031222101 0.059800766
0.3154639 0.031222101 0.059800766
0.31670371 0.031222101 0.059800774
0.31753024 0.031222101 0.059800774
0.31835681 0.031222101 0.059800778
0.31918335 0.031222101 0.059800778
0.32042316 0.031222101 0.059800781
0.32166296 0.031222101 0.059800785
0.2852951 0.03246168 0.059800692
0.28653491 0.03246168 0.059800696
0.28777471 0.032048486 0.059800699
0.28860125 0.03246168 0.059800699
0.28942779 0.03246168 0.059800703
0.29025435 0.03246168 0.059800707
0.29149416 0.03246168 0.059800707
0.29273397 0.03246168 0.059800711
0.31257099 0.03246168 0.059800763
0.31339753 0.03246168 0.059800763
0.31422409 0.03246168 0.059800766
0.3154639 0.03246168 0.059800766
0.31670371 0.03246168 0.059800774
0.31753024 0.03246168 0.059800774
0.31835681 0.03246168 0.059800778
0.31918335 0.03246168 0.059800778
0.32042316 0.03246168 0.059800781
0.32166296 0.03246168 0.059800785
0.2852951 0.03370126 0.059800692
0.28653491 0.03370126 0.059800696
0.28860125 0.03370126 0.059800699
0.28942779 0.03370126 0.059800703
0.29025435 0.03370126 0.059800707
0.29149416 0.03370126 0.059800707
0.29273397 0.03370126 0.059800711
0.31257099 0.03370126 0.059800763
0.31339753 0.03370126 0.059800763
0.31422409 0.03370126 0.059800766
0.3154639 0.03370126 0.059800766
0.31670371 0.03370126 0.059800774
0.31753024 0.03370126 0.059800774
0.31835681 0.03370126 0.059800778
0.31918335 0.03370126 0.059800778
0.31257099 0.034527648 0.059800763
0.31339753 0.034527648 0.059800763
0.31422409 0.034527648 0.059800766
0.3154639 0.034527648 0.059800766
0.31670371 0.034527648 0.059800774
0.32042316 0.034527648 0.059800781
0.32166296 0.034527648 0.059800785
0.31257099 0.035354033 0.059800763
0.31339753 0.035354033 0.059800763
0.31422409 0.035354033 0.059800766
0.3154639 0.035354033 0.059800766
0.31670371 0.035354033 0.059800774
0.32042316 0.035354033 0.059800781
0.32166296 0.035354033 0.059800785
0.31257099 0.036180422 0.059800763
0.31339753 0.036180422 0.059800763
0.32042316 0.036180422 0.059800781
0.32166296 0.036180422 0.059800785
0.31257099 0.037420001 0.059800763
0.31339753 0.037420001 0.059800763
0.32042316 0.037420001 0.059800781
0.32166296 0.037420001 0.059800785
0.31257099 0.03865958 0.059800763
0.31339753 0.03865958 0.059800763
0.31422409 0.03865958 0.059800766
0.31505063 0.03865958 0.059800766
0.32042316 0.03865958 0.059800781
0.32166296 0.03865958 0.059800785
0.31257099 0.039485969 0.059800763
0.31339753 0.039485969 0.059800763
0.31422409 0.039485969 0.059800766
0.31505063 0.039485969 0.059800766
0.32042316 0.039485969 0.059800781
0.32166296 0.039485969 0.059800785
0.31422409 0.040312354 0.059800766
0.31505063 0.040312354 0.059800766
0.31835681 0.040312354 0.059800778
0.31918335 0.040312354 0.059800778
0.32042316 0.040312354 0.059800781
0.32166296 0.040312354 0.059800785
0.31422409 0.041551933 0.059800766
0.31532612 0.041689664 0.059800763
0.31670371 0.041965127 0.059800774
0.31753024 0.041965127 0.059800774
0.31835681 0.041551933 0.059800778
0.31918335 0.041551933 0.059800778
0.32042316 0.041551933 0.059800781
0.32166296 0.041551933 0.059800785
0.31422409 0.042791516 0.059800766
0.3154639 0.042791516 0.059800766
0.31670371 0.042791516 0.059800774
0.31753024 0.042791516 0.059800774
0.31835681 0.042791516 0.059800778
0.31918335 0.042791516 0.059800778
0.32042316 0.042791516 0.059800781
0.32166296 0.042791516 0.059800785
0.31422409 0.0436179 0.059800766
0.3154639 0.0436179 0.059800766
0.31670371 0.0436179 0.059800774
0.31753024 0.0436179 0.059800774
0.31835681 0.0436179 0.059800778
0.31918335 0.0436179 0.059800778
0.32042316 0.0436179 0.059800781
0.32166296 0.0436179 0.059800785
0.31422409 0.044444289 0.059800766
0.3154639 0.044444289 0.059800766
0.31670371 0.044444289 0.059800774
0.31753024 0.044444289 0.059800774
0.31835681 0.044444289 0.059800778
0.31918335 0.044444289 0.059800778
0.31422409 0.045270674 0.059800766
0.3154639 0.045270674 0.059800766
0.31670371 0.045270674 0.059800774
0.31753024 0.045270674 0.059800774
0.31835681 0.045270674 0.059800778
0.31918335 0.045270674 0.059800778
0.31422409 0.046510257 0.059800766
0.3154639 0.046510257 0.059800766
0.31670371 0.046510257 0.059800774
0.31753024 0.046510257 0.059800774
0.31835681 0.046510257 0.059800778
0.31918335 0.046510257 0.059800778
0.31587717 0.047749836 0.05980077
0.31670371 0.047749836 0.059800774
0.31753024 0.047749836 0.059800774
0.31587717 0.048576221 0.05980077
0.31670371 0.048576221 0.059800774
0.31753024 0.048576221 0.059800774
0.31587717 0.049402609 0.05980077
0.31670371 0.049402609 0.059800774
0.31753024 0.049402609 0.059800774
0.31587717 0.050228994 0.05980077
0.31670371 0.050228994 0.059800774
0.31753024 0.050228994 0.059800774
0.3067852 0.057666477 0.059800748
0.30761173 0.057666477 0.059800748
0.30843827 0.057666477 0.059800752
0.30926484 0.057666477 0.059800752
0.31050465 0.057666477 0.059800759
0.31174445 0.057666477 0.059800759
0.3067852 0.058492865 0.059800748
0.30761173 0.058492865 0.059800748
0.30843827 0.058492865 0.059800752
0.30926484 0.058492865 0.059800752
0.31050465 0.058492865 0.059800759
0.31174445 0.058492865 0.059800759
0.3009994 0.05931925 0.059800733
0.30182594 0.05931925 0.059800733
0.30265248 0.05931925 0.059800737
0.30347902 0.05931925 0.05980074
0.30430558 0.05931925 0.05980074
0.31257099 0.05931925 0.059800763
0.31339753 0.05931925 0.059800763
0.31422409 0.05931925 0.059800766
0.29769322 0.060972024 0.059800725
0.29851976 0.060972024 0.059800725
0.2993463 0.060972024 0.059800729
0.30072388 0.060696561 0.059800729
0.30182594 0.060558833 0.059800733
0.30265248 0.060145639 0.059800737
0.30347902 0.060145639 0.05980074
0.30430558 0.060145639 0.05980074
0.31257099 0.060558833 0.059800763
0.31339753 0.060558833 0.059800763
0.31422409 0.060558833 0.059800766
0.3154639 0.060972024 0.059800766
0.29769322 0.061798412 0.059800725
0.29851976 0.061798412 0.059800725
0.2993463 0.061798412 0.059800729
0.30058613 0.061798412 0.059800729
0.30182594 0.061798412 0.059800733
0.31257099 0.061798412 0.059800763
0.31339753 0.061798412 0.059800763
0.31422409 0.061798412 0.059800766
0.3154639 0.061798412 0.059800766
0.29769322 0.062624797 0.059800725
0.29851976 0.062624797 0.059800725
0.2993463 0.062624797 0.059800729
0.30017287 0.062624797 0.059800729
0.31257099 0.062624797 0.059800763
0.31339753 0.062624797 0.059800763
0.31422409 0.062624797 0.059800766
0.3154639 0.062624797 0.059800766
0.29769322 0.063451186 0.059800725
0.29851976 0.063451186 0.059800725
0.2993463 0.063451186 0.059800729
0.30017287 0.063451186 0.059800729
0.31422409 0.063451186 0.059800766
0.3154639 0.063451186 0.059800766
0.29645342 0.064277574 0.059800722
0.29769322 0.064277574 0.059800725
0.29851976 0.064277574 0.059800725
0.31422409 0.064277574 0.059800766
0.3154639 0.064277574 0.059800766
0.29645342 0.06551715 0.059800722
0.29769322 0.06551715 0.059800725
0.29851976 0.06551715 0.059800725
0.31422409 0.065103956 0.059800766
0.3154639 0.065103956 0.059800766
0.29645342 0.066756733 0.059800722
0.29769322 0.066756733 0.059800725
0.29851976 0.066756733 0.059800725
0.29645342 0.067583121 0.059800722
0.29769322 0.067583121 0.059800725
0.29851976 0.067583121 0.059800725
0.31257099 0.067583121 0.059800763
0.31339753 0.067583121 0.059800763
0.2935605 0.068409503 0.059800714
0.29438704 0.068409503 0.059800714
0.29521361 0.068409503 0.059800718
0.29645342 0.068409503 0.059800722
0.29769322 0.068409503 0.059800725
0.29851976 0.068409503 0.059800725
0.31257099 0.068409503 0.059800763
0.31339753 0.068409503 0.059800763
0.2935605 0.069235891 0.059800714
0.29438704 0.069235891 0.059800714
0.29521361 0.069235891 0.059800718
0.29645342 0.069235891 0.059800722
0.29769322 0.069235891 0.059800725
0.29851976 0.069235891 0.059800725
0.31257099 0.069235891 0.059800763
0.31339753 0.069235891 0.059800763
0.2935605 0.070475474 0.059800714
0.29438704 0.070475474 0.059800714
0.29521361 0.070475474 0.059800718
0.29645342 0.070475474 0.059800722
0.29769322 0.070475474 0.059800725
0.29851976 0.070475474 0.059800725
0.31091791 0.070888668 0.059800759
0.31174445 0.070888668 0.059800759
0.31257099 0.07006228 0.059800763
0.31339753 0.07006228 0.059800763
0.2935605 0.071715049 0.059800714
0.29438704 0.071715049 0.059800714
0.29521361 0.071715049 0.059800718
0.29645342 0.071715049 0.059800722
0.29769322 0.071715049 0.059800725
0.29851976 0.071715049 0.059800725
0.31091791 0.071715049 0.059800759
0.31174445 0.071715049 0.059800759
0.2935605 0.072541445 0.059800714
0.29438704 0.072541445 0.059800714
0.29521361 0.072541445 0.059800718
0.29645342 0.072541445 0.059800722
0.29769322 0.072541445 0.059800725
0.29851976 0.072541445 0.059800725
0.2993463 0.072541445 0.059800729
0.30058613 0.072541445 0.059800729
0.30182594 0.072541445 0.059800733
0.30265248 0.072541445 0.059800737
0.30347902 0.072541445 0.05980074
0.31091791 0.072541445 0.059800759
0.31174445 0.072541445 0.059800759
0.2935605 0.073367827 0.059800714
0.29438704 0.073367827 0.059800714
0.29521361 0.073367827 0.059800718
0.29645342 0.073367827 0.059800722
0.29769322 0.073367827 0.059800725
0.29851976 0.073367827 0.059800725
0.2993463 0.073367827 0.059800729
0.30058613 0.073367827 0.059800729
0.30182594 0.073367827 0.059800733
0.30265248 0.073367827 0.059800737
0.30347902 0.073367827 0.05980074
0.31091791 0.073367827 0.059800759
0.31174445 0.073367827 0.059800759
0.2935605 0.074194215 0.059800714
0.29438704 0.074194215 0.059800714
0.29521361 0.074194215 0.059800718
0.29645342 0.074194215 0.059800722
0.29769322 0.074194215 0.059800725
0.29851976 0.074194215 0.059800725
0.2993463 0.074194215 0.059800729
0.30265248 0.074194215 0.059800737
0.30347902 0.074194215 0.05980074
0.30430558 0.074194215 0.05980074
0.30554539 0.074194215 0.059800744
0.3067852 0.074194215 0.059800748
0.30761173 0.074194215 0.059800748
0.31091791 0.074194215 0.059800759
0.31174445 0.074194215 0.059800759
0.2935605 0.075020604 0.059800714
0.29438704 0.075020604 0.059800714
0.29521361 0.075020604 0.059800718
0.29645342 0.075020604 0.059800722
0.29769322 0.075433798 0.059800725
0.29851976 0.075433798 0.059800725
0.2993463 0.075433798 0.059800729
0.30265248 0.075433798 0.059800737
0.30347902 0.075433798 0.05980074
0.30430558 0.075433798 0.05980074
0.30554539 0.075433798 0.059800744
0.3067852 0.075433798 0.059800748
0.30761173 0.075433798 0.059800748
0.30843827 0.075433798 0.059800752
0.30926484 0.075433798 0.059800752
0.31050465 0.075433798 0.059800759
0.31174445 0.075433798 0.059800759
0.30843827 0.076673374 0.059800752
0.30926484 0.076673374 0.059800752
0.31009138 0.076673374 0.059800755
0.2935605 0.077499762 0.059800714
0.29438704 0.077499762 0.059800714
0.29521361 0.077499762 0.059800718
0.30843827 0.077499762 0.059800752
0.30926484 0.077499762 0.059800752
0.31009138 0.077499762 0.059800755
0.2935605 0.078326151 0.059800714
0.29438704 0.078326151 0.059800714
0.29521361 0.078326151 0.059800718
0.28860125 0.079565734 0.059800699
0.28942779 0.079565734 0.059800703
0.29025435 0.079565734 0.059800707
0.2935605 0.079152539 0.059800714
0.29438704 0.079152539 0.059800714
0.29521361 0.079152539 0.059800718
0.28860125 0.080805309 0.059800699
0.28942779 0.080805309 0.059800703
0.29025435 0.080805309 0.059800707
0.31339753 0.086590014 0.059800763
0.31422409 0.086590014 0.059800766
0.31505063 0.086590014 0.059800766
0.31753024 0.086590014 0.059800774
0.31835681 0.086590014 0.059800778
0.31918335 0.086590014 0.059800778
0.31339753 0.087416403 0.059800763
0.31422409 0.087416403 0.059800766
0.31505063 0.087416403 0.059800766
0.31753024 0.087416403 0.059800774
0.31835681 0.087416403 0.059800778
0.31918335 0.087416403 0.059800778
0.31174445 0.088242792 0.059800759
0.31257099 0.088242792 0.059800763
0.31339753 0.088242792 0.059800763
0.31422409 0.088242792 0.059800766
0.3154639 0.088242792 0.059800766
0.31670371 0.088242792 0.059800774
0.31753024 0.088242792 0.059800774
0.31835681 0.088242792 0.059800778
0.31918335 0.088242792 0.059800778
0.32042316 0.088242792 0.059800781
0.32166296 0.088242792 0.059800785
0.3224895 0.088242792 0.059800785
0.31050465 0.089895561 0.059800759
0.31174445 0.089482367 0.059800759
0.31257099 0.089482367 0.059800763
0.31339753 0.089482367 0.059800763
0.31422409 0.089482367 0.059800766
0.3154639 0.08906918 0.059800766
0.31670371 0.08906918 0.059800774
0.31753024 0.08906918 0.059800774
0.31835681 0.08906918 0.059800778
0.31918335 0.08906918 0.059800778
0.32042316 0.08906918 0.059800781
0.32166296 0.08906918 0.059800785
0.3224895 0.08906918 0.059800785
0.32496914 0.089895561 0.059800792
0.32579568 0.089895561 0.059800796
0.32662222 0.089895561 0.059800796
0.32744876 0.089895561 0.0598008
0.32827532 0.089895561 0.0598008
0.31050465 0.09072195 0.059800759
0.31174445 0.09072195 0.059800759
0.31257099 0.09072195 0.059800763
