# .PCD v0.7 - Point Cloud Data file format
VERSION 0.7
FIELDS x y z
SIZE 4 4 4
TYPE F F F
COUNT 1 1 1
WIDTH 1380
HEIGHT 1
VIEWPOINT 0 0 0 1 0 0 0
POINTS 1380
DATA ascii
0.45554626 0.099262767 0.024801098
0.4568437 0.099262767 0.024801102
0.45770866 0.099262767 0.024801103
0.45857361 0.099262767 0.024801105
0.45943859 0.099262767 0.024801107
0.46030354 0.099262767 0.024801111
0.45554626 0.10012756 0.024801098
0.4568437 0.10012756 0.024801102
0.45770866 0.10012756 0.024801103
0.45857361 0.10012756 0.024801105
0.45943859 0.10012756 0.024801107
0.46030354 0.10012756 0.024801111
0.46462834 0.10099236 0.02480112
0.46549332 0.10099236 0.024801124
0.46635827 0.10099236 0.024801126
0.46462834 0.10185716 0.02480112
0.46549332 0.10185716 0.024801124
0.46635827 0.10185716 0.024801126
0.50787646 0.10358676 0.02480123
0.50874138 0.10358676 0.024801232
0.50787646 0.10445155 0.02480123
0.50874138 0.10445155 0.024801232
0.52517563 0.11655872 0.024801275
0.52604061 0.11655872 0.024801277
0.52517563 0.11742352 0.024801275
0.52604061 0.11742352 0.024801277
0.5269056 0.11828832 0.024801278
0.52777052 0.11828832 0.02480128
0.5269056 0.11915311 0.024801278
0.52777052 0.11915311 0.02480128
0.5269056 0.12001792 0.024801278
0.52777052 0.12001792 0.02480128
0.54766464 0.13817866 0.024801331
0.54852962 0.13817866 0.024801334
0.54766464 0.13904347 0.024801331
0.54852962 0.13904347 0.024801334
0.54939455 0.13990827 0.024801336
0.55025953 0.13990827 0.024801338
0.54939455 0.14077306 0.024801336
0.55025953 0.14077306 0.024801338
0.55155694 0.14163786 0.02480134
0.55155694 0.14250265 0.02480134
0.54783344 -0.010553154 0.02580132
0.54869729 -0.010553154 0.025801321
0.5495612 -0.010553154 0.025801323
0.55042505 -0.010553154 0.025801325
0.5512889 -0.010553154 0.025801327
0.54783344 -0.009689454 0.02580132
0.54869729 -0.009689454 0.025801321
0.5495612 -0.009689454 0.025801323
0.55042505 -0.009689454 0.025801325
0.5512889 -0.009689454 0.025801327
0.54092252 -0.0088257538 0.025801301
0.54178643 -0.0088257538 0.025801303
0.54869729 -0.0088257538 0.025801321
0.5495612 -0.0088257538 0.025801323
0.55042505 -0.0088257538 0.025801325
0.5512889 -0.0088257538 0.025801327
0.54092252 -0.0075302031 0.025801301
0.54178643 -0.0075302031 0.025801303
0.53314775 -0.0010524504 0.025801282
0.53401166 -0.0010524504 0.025801284
0.53314775 -0.00018874995 0.025801282
0.53401166 -0.00018874995 0.025801284
0.53142005 0.00067495037 0.025801277
0.5322839 0.00067495037 0.025801279
0.53142005 0.0015386507 0.025801277
0.5322839 0.0015386507 0.025801279
0.52882844 0.0024023512 0.025801271
0.52969235 0.0024023512 0.025801273
0.5305562 0.0024023512 0.025801275
0.52882844 0.0032660516 0.025801271
0.52969235 0.0032660516 0.025801273
0.5305562 0.0032660516 0.025801275
0.52191758 0.010175655 0.025801253
0.52278143 0.010175655 0.025801256
0.51932597 0.011903055 0.025801247
0.52018982 0.011903055 0.025801249
0.52148563 0.011471204 0.025801253
0.52278143 0.011039355 0.025801256
0.51932597 0.012766755 0.025801247
0.52018982 0.012766755 0.025801249
0.52105367 0.012766755 0.025801251
0.51759821 0.013630456 0.025801241
0.51846212 0.013630456 0.025801245
0.51759821 0.014494156 0.025801241
0.51846212 0.014494156 0.025801245
0.51587051 0.017948957 0.025801238
0.51673436 0.017948957 0.02580124
0.51587051 0.018812658 0.025801238
0.51673436 0.018812658 0.02580124
0.51414275 0.019676358 0.025801234
0.51500666 0.019676358 0.025801236
0.51414275 0.020540059 0.025801234
0.51500666 0.020540059 0.025801236
0.51241505 0.02140376 0.025801228
0.5132789 0.02140376 0.025801232
0.51241505 0.022267459 0.025801228
0.5132789 0.022267459 0.025801232
0.50982344 0.023563011 0.025801223
0.51068735 0.023563011 0.025801225
0.50852764 0.02485856 0.025801219
0.50852764 0.025722262 0.025801219
0.50636798 0.026585961 0.025801213
0.50723189 0.026585961 0.025801215
0.50636798 0.027449662 0.025801213
0.50723189 0.027449662 0.025801215
0.50464028 0.028313363 0.02580121
0.50550413 0.028313363 0.025801212
0.50636798 0.028313363 0.025801213
0.50723189 0.028313363 0.025801215
0.50464028 0.029177062 0.02580121
0.50550413 0.029177062 0.025801212
0.50464028 0.030040763 0.02580121
0.50550413 0.030040763 0.025801212
0.50248063 0.032631863 0.025801204
0.50377643 0.032631863 0.025801208
0.50248063 0.033495564 0.025801204
0.50377643 0.033495564 0.025801208
0.49859327 0.037814066 0.025801195
0.49945712 0.037814066 0.025801197
0.49859327 0.038677767 0.025801195
0.49945712 0.038677767 0.025801197
0.48736304 0.050769571 0.025801165
0.48822692 0.050769571 0.025801169
0.48736304 0.051633272 0.025801165
0.48822692 0.051633272 0.025801169
0.48736304 0.052496973 0.025801165
0.48822692 0.052496973 0.025801169
0.481316 0.056815475 0.02580115
0.48217985 0.056815475 0.025801152
0.481316 0.057679176 0.02580115
0.48217985 0.057679176 0.025801152
0.4718135 0.068475433 0.025801126
0.47267735 0.068475433 0.025801128
0.4718135 0.069770977 0.025801126
0.47267735 0.069770977 0.025801128
0.4718135 0.070634678 0.025801126
0.47267735 0.070634678 0.025801128
0.47051769 0.074953184 0.025801122
0.47051769 0.075816885 0.025801122
0.47051769 0.076680586 0.025801122
0.47051769 0.077544287 0.025801122
0.47051769 0.078407988 0.025801122
0.47051769 0.079271689 0.025801122
0.46835804 0.080999091 0.025801117
0.46922192 0.080999091 0.02580112
0.47051769 0.08013539 0.025801122
0.46835804 0.081862792 0.025801117
0.46922192 0.081862792 0.02580112
0.46576646 0.082726493 0.025801111
0.46663031 0.082726493 0.025801113
0.46749419 0.082726493 0.025801115
0.46576646 0.083590187 0.025801111
0.46663031 0.083590187 0.025801113
0.46749419 0.083590187 0.025801115
0.46576646 0.084453888 0.025801111
0.46663031 0.084453888 0.025801113
0.46749419 0.084453888 0.025801115
0.46576646 0.085317589 0.025801111
0.46663031 0.085317589 0.025801113
0.46749419 0.085317589 0.025801115
0.462311 0.08618129 0.025801102
0.46317488 0.08618129 0.025801104
0.46403873 0.08618129 0.025801107
0.46576646 0.08618129 0.025801111
0.46663031 0.08618129 0.025801113
0.46749419 0.08618129 0.025801115
0.48563531 0.08618129 0.025801161
0.48649919 0.08618129 0.025801163
0.48736304 0.08618129 0.025801165
0.48822692 0.08618129 0.025801169
0.4895227 0.08618129 0.025801171
0.462311 0.087476842 0.025801102
0.46317488 0.087476842 0.025801104
0.46447068 0.087476842 0.025801107
0.48045215 0.087908693 0.025801148
0.481316 0.087908693 0.02580115
0.48563531 0.087044992 0.025801161
0.48649919 0.087044992 0.025801163
0.48736304 0.087044992 0.025801165
0.48822692 0.087044992 0.025801169
0.4895227 0.087044992 0.025801171
0.45885554 0.088772394 0.025801094
0.45971942 0.088772394 0.025801096
0.46058327 0.088772394 0.025801098
0.46144715 0.088772394 0.0258011
0.48045215 0.088772394 0.025801148
0.481316 0.088772394 0.02580115
0.45885554 0.089636095 0.025801094
0.45971942 0.089636095 0.025801096
0.46058327 0.089636095 0.025801098
0.46144715 0.089636095 0.0258011
0.47786054 0.089636095 0.025801141
0.47872442 0.089636095 0.025801145
0.47958827 0.089636095 0.025801146
0.49427396 0.089636095 0.025801184
0.49513781 0.089636095 0.025801186
0.47786054 0.090499796 0.025801141
0.47872442 0.090499796 0.025801145
0.47958827 0.090499796 0.025801146
0.49427396 0.090499796 0.025801184
0.49513781 0.090499796 0.025801186
0.45453623 0.092227191 0.025801083
0.45540011 0.092227191 0.025801085
0.4528085 0.093954593 0.025801077
0.45367238 0.093954593 0.025801079
0.45453623 0.093090892 0.025801083
0.45540011 0.093090892 0.025801085
0.47656474 0.093522742 0.025801137
0.49772939 0.093954593 0.025801191
0.49859327 0.093954593 0.025801195
0.49945712 0.093954593 0.025801197
0.4528085 0.094818294 0.025801077
0.45367238 0.094818294 0.025801079
0.47440508 0.094818294 0.025801133
0.47526896 0.094818294 0.025801135
0.49772939 0.094818294 0.025801191
0.49859327 0.094818294 0.025801195
0.49945712 0.094818294 0.025801197
0.4528085 0.095681995 0.025801077
0.45367238 0.095681995 0.025801079
0.47440508 0.095681995 0.025801133
0.47526896 0.095681995 0.025801135
0.50032097 0.095681995 0.025801199
0.50118482 0.095681995 0.0258012
0.45453623 0.096545696 0.025801083
0.45540011 0.096545696 0.025801085
0.47440508 0.096545696 0.025801133
0.47526896 0.096545696 0.025801135
0.50032097 0.096545696 0.025801199
0.50118482 0.096545696 0.0258012
0.45453623 0.097409397 0.025801083
0.45540011 0.097409397 0.025801085
0.50248063 0.097409397 0.025801204
0.50248063 0.098273098 0.025801204
0.46058327 0.0991368 0.025801098
0.46144715 0.0991368 0.0258011
0.47094965 0.0991368 0.025801124
0.4718135 0.0991368 0.025801126
0.50377643 0.0991368 0.025801208
0.50464028 0.0991368 0.02580121
0.46058327 0.1000005 0.025801098
0.46144715 0.1000005 0.0258011
0.47094965 0.1000005 0.025801124
0.4718135 0.1000005 0.025801126
0.50377643 0.1000005 0.025801208
0.50464028 0.1000005 0.02580121
0.50550413 0.10086419 0.025801212
0.50636798 0.10086419 0.025801213
0.50550413 0.1017279 0.025801212
0.50636798 0.1017279 0.025801213
0.50550413 0.1025916 0.025801212
0.50636798 0.1025916 0.025801213
0.5132789 0.1069101 0.025801232
0.51414275 0.1069101 0.025801234
0.5132789 0.1077738 0.025801232
0.51414275 0.1077738 0.025801234
0.51543856 0.1086375 0.025801238
0.51543856 0.1095012 0.025801238
0.51673436 0.1112286 0.02580124
0.51759821 0.1112286 0.025801241
0.51673436 0.1120923 0.02580124
0.51759821 0.1120923 0.025801241
0.51846212 0.112956 0.025801245
0.51932597 0.112956 0.025801247
0.51846212 0.1138197 0.025801245
0.51932597 0.1138197 0.025801247
0.52969235 0.1207293 0.025801273
0.5305562 0.1207293 0.025801275
0.52969235 0.12159301 0.025801273
0.5305562 0.12159301 0.025801275
0.53444362 0.12245671 0.025801286
0.53444362 0.12332041 0.025801286
0.53573936 0.12418411 0.025801288
0.53660321 0.12418411 0.02580129
0.53573936 0.1250478 0.025801288
0.53660321 0.1250478 0.02580129
0.53746712 0.1259115 0.025801294
0.53833097 0.1259115 0.025801295
0.53746712 0.12677521 0.025801294
0.53833097 0.12677521 0.025801295
0.53919482 0.12850261 0.025801297
0.54005867 0.12850261 0.025801299
0.53919482 0.12936631 0.025801297
0.54005867 0.12936631 0.025801299
0.54092252 0.13023001 0.025801301
0.54178643 0.13023001 0.025801303
0.54092252 0.13109371 0.025801301
0.54178643 0.13109371 0.025801303
0.54265028 0.13368481 0.025801307
0.54351413 0.13368481 0.025801308
0.54265028 0.13454852 0.025801307
0.54351413 0.13454852 0.025801308
0.54437798 0.13541222 0.02580131
0.54524189 0.13541222 0.025801312
0.54610574 0.13541222 0.025801314
0.54437798 0.13627592 0.02580131
0.54524189 0.13627592 0.025801312
0.54610574 0.13627592 0.025801314
0.54437798 0.13713962 0.02580131
0.54524189 0.13713962 0.025801312
0.54610574 0.13713962 0.025801314
0.55215275 0.14145811 0.025801331
0.55301666 0.14145811 0.025801333
0.55215275 0.14232181 0.025801331
0.55301666 0.14232181 0.025801333
0.55145121 -0.010539745 0.026801376
0.55231398 -0.010539745 0.026801378
0.55145121 -0.0096771419 0.026801376
0.55231398 -0.0096771419 0.026801378
0.54196078 -0.0088145388 0.026801351
0.54282355 -0.0088145388 0.026801353
0.55145121 -0.0088145388 0.026801376
0.55231398 -0.0088145388 0.026801378
0.54196078 -0.0075206347 0.026801351
0.54282355 -0.0075206347 0.026801353
0.53764695 -0.0062267305 0.02680134
0.53850973 -0.0062267305 0.026801342
0.53937244 -0.0062267305 0.026801344
0.53764695 -0.0053641275 0.02680134
0.53850973 -0.0053641275 0.026801342
0.53937244 -0.0053641275 0.026801344
0.53592139 -0.0045015244 0.026801335
0.53678417 -0.0045015244 0.026801338
0.53592139 -0.0036389218 0.026801335
0.53678417 -0.0036389218 0.026801338
0.5341959 -0.0027763187 0.026801331
0.53505862 -0.0027763187 0.026801333
0.5341959 -0.0019137159 0.026801331
0.53505862 -0.0019137159 0.026801333
0.52643096 0.0045558061 0.026801312
0.52729374 0.0045558061 0.026801314
0.52643096 0.0058497102 0.026801312
0.52729374 0.0058497102 0.026801314
0.52470547 0.0067123133 0.026801307
0.52556825 0.0067123133 0.026801309
0.52470547 0.0075749164 0.026801307
0.52556825 0.0075749164 0.026801309
0.52297992 0.008437519 0.026801303
0.52384269 0.008437519 0.026801305
0.52297992 0.009300122 0.026801303
0.52384269 0.009300122 0.026801305
0.51866609 0.013613136 0.026801292
0.51952887 0.013613136 0.026801294
0.51866609 0.01447574 0.026801292
0.51952887 0.01447574 0.026801294
0.51694053 0.015338343 0.026801288
0.51780331 0.015338343 0.02680129
0.51694053 0.016200945 0.026801288
0.51780331 0.016200945 0.02680129
0.51694053 0.017063549 0.026801288
0.51780331 0.017063549 0.02680129
0.51521504 0.019651357 0.026801283
0.51607782 0.019651357 0.026801284
0.51521504 0.020513959 0.026801283
0.51607782 0.020513959 0.026801284
0.51348948 0.021376563 0.026801279
0.51435226 0.021376563 0.026801281
0.51348948 0.022239165 0.026801279
0.51435226 0.022239165 0.026801281
0.50399905 0.030865194 0.026801255
0.50486183 0.030865194 0.026801256
0.50399905 0.031727798 0.026801255
0.50486183 0.031727798 0.026801256
0.50141078 0.034315605 0.026801247
0.50227356 0.034315605 0.026801251
0.50313634 0.034315605 0.026801253
0.50141078 0.035178211 0.026801247
0.50227356 0.035178211 0.026801251
0.50313634 0.035178211 0.026801253
0.49968529 0.036472112 0.026801243
0.50054801 0.036472112 0.026801245
0.49795973 0.039491225 0.02680124
0.49882251 0.039491225 0.026801242
0.49795973 0.040353827 0.02680124
0.49882251 0.040353827 0.026801242
0.49795973 0.041216429 0.02680124
0.49882251 0.041216429 0.026801242
0.49623421 0.042510334 0.026801234
0.49709699 0.042510334 0.026801238
0.49450868 0.043804239 0.02680123
0.49537146 0.043804239 0.026801232
0.49450868 0.044666842 0.02680123
0.49537146 0.044666842 0.026801232
0.49192038 0.045529444 0.026801225
0.49278316 0.045529444 0.026801227
0.49364591 0.045529444 0.026801229
0.49192038 0.046392046 0.026801225
0.49278316 0.046392046 0.026801227
0.49364591 0.046392046 0.026801229
0.49019486 0.047254652 0.026801219
0.4910576 0.047254652 0.026801221
0.48846933 0.048979856 0.026801215
0.48933208 0.048979856 0.026801217
0.49019486 0.048117254 0.026801219
0.4910576 0.048117254 0.026801221
0.48846933 0.049842458 0.026801215
0.48933208 0.049842458 0.026801217
0.48674378 0.053292871 0.02680121
0.48760656 0.053292871 0.026801214
0.48674378 0.054155473 0.02680121
0.48760656 0.054155473 0.026801214
0.48544967 0.055449374 0.026801206
0.48242995 0.056743283 0.026801201
0.48329273 0.056743283 0.026801202
0.48242995 0.057605885 0.026801201
0.48329273 0.057605885 0.026801202
0.4789789 0.058468487 0.026801191
0.47984165 0.058468487 0.026801193
0.4789789 0.059331089 0.026801191
0.47984165 0.059331089 0.026801193
0.47725338 0.060193695 0.026801188
0.47811612 0.060193695 0.026801189
0.47552782 0.061918899 0.026801182
0.4763906 0.061918899 0.026801184
0.47725338 0.061056297 0.026801188
0.47811612 0.061056297 0.026801189
0.47552782 0.062781505 0.026801182
0.4763906 0.062781505 0.026801184
0.47552782 0.063644104 0.026801182
0.4763906 0.063644104 0.026801184
0.47552782 0.06450671 0.026801182
0.4763906 0.06450671 0.026801184
0.47552782 0.065369308 0.026801182
0.4763906 0.065369308 0.026801184
0.47293952 0.066231914 0.026801176
0.4738023 0.066231914 0.026801178
0.47293952 0.067525819 0.026801176
0.4738023 0.067525819 0.026801178
0.47293952 0.068819724 0.026801176
0.4738023 0.068819724 0.026801178
0.471214 0.071407534 0.026801171
0.47207677 0.071407534 0.026801175
0.471214 0.072270133 0.026801171
0.47207677 0.072270133 0.026801175
0.471214 0.073564038 0.026801171
0.47207677 0.073564038 0.026801175
0.471214 0.074857943 0.026801171
0.47207677 0.074857943 0.026801175
0.471214 0.075720541 0.026801171
0.47207677 0.075720541 0.026801175
0.471214 0.076583147 0.026801171
0.47207677 0.076583147 0.026801175
0.471214 0.077445745 0.026801171
0.47207677 0.077445745 0.026801175
0.471214 0.078308351 0.026801171
0.47207677 0.078308351 0.026801175
0.471214 0.079170957 0.026801171
0.47207677 0.079170957 0.026801175
0.46948847 0.080896161 0.026801167
0.47035125 0.080896161 0.026801169
0.471214 0.080033556 0.026801171
0.47207677 0.080033556 0.026801175
0.46948847 0.08175876 0.026801167
0.47035125 0.08175876 0.026801169
0.46776295 0.082621366 0.026801163
0.46862569 0.082621366 0.026801165
0.46776295 0.083483972 0.026801163
0.46862569 0.083483972 0.026801165
0.4815672 0.086503074 0.026801197
0.48242995 0.086503074 0.026801201
0.48329273 0.086503074 0.026801202
0.48415548 0.086503074 0.026801204
0.49019486 0.086503074 0.026801219
0.4910576 0.086503074 0.026801221
0.47725338 0.087796986 0.026801188
0.47854751 0.087796986 0.026801191
0.49192038 0.087796986 0.026801225
0.49278316 0.087796986 0.026801227
0.46172357 0.088659585 0.026801147
0.46258634 0.088659585 0.02680115
0.47725338 0.088659585 0.026801188
0.47854751 0.088659585 0.026801191
0.49192038 0.088659585 0.026801225
0.49278316 0.088659585 0.026801227
0.46172357 0.08952219 0.026801147
0.46258634 0.08952219 0.02680115
0.47552782 0.08952219 0.026801182
0.4763906 0.08952219 0.026801184
0.45568421 0.090384789 0.026801132
0.45654699 0.090384789 0.026801134
0.45740974 0.090384789 0.026801137
0.45827252 0.090384789 0.026801139
0.45913529 0.090384789 0.026801141
0.47552782 0.090384789 0.026801182
0.4763906 0.090384789 0.026801184
0.45568421 0.091247395 0.026801132
0.45654699 0.091247395 0.026801134
0.45740974 0.091247395 0.026801137
0.45827252 0.091247395 0.026801139
0.45913529 0.091247395 0.026801141
0.4738023 0.091247395 0.026801178
0.47466508 0.091247395 0.02680118
0.47552782 0.091247395 0.026801182
0.4763906 0.091247395 0.026801184
0.49537146 0.091247395 0.026801232
0.49623421 0.091247395 0.026801234
0.4738023 0.0925413 0.026801178
0.47466508 0.0925413 0.02680118
0.47552782 0.092110001 0.026801182
0.4763906 0.092110001 0.026801184
0.49537146 0.0925413 0.026801232
0.49623421 0.0925413 0.026801234
0.45395869 0.093835205 0.026801128
0.45482147 0.093835205 0.02680113
0.4738023 0.093835205 0.026801178
0.47466508 0.093835205 0.02680118
0.45395869 0.094697803 0.026801128
0.45482147 0.094697803 0.02680113
0.45395869 0.095560409 0.026801128
0.45482147 0.095560409 0.02680113
0.45568421 0.096423015 0.026801132
0.45654699 0.096423015 0.026801134
0.45568421 0.097285613 0.026801132
0.45654699 0.097285613 0.026801134
0.47250813 0.097285613 0.026801176
0.47250813 0.098148219 0.026801176
0.46172357 0.099442124 0.026801147
0.46258634 0.099442124 0.02680115
0.46344912 0.099442124 0.026801152
0.46431187 0.099442124 0.026801154
0.46776295 0.099442124 0.026801163
0.46862569 0.099442124 0.026801165
0.46948847 0.099442124 0.026801167
0.51090121 0.10548034 0.026801271
0.51176399 0.10548034 0.026801275
0.52254856 0.11453767 0.026801303
0.52254856 0.11540028 0.026801303
0.52729374 0.11798809 0.026801314
0.52815652 0.11798809 0.026801316
0.52729374 0.11885069 0.026801314
0.52815652 0.11885069 0.026801316
0.52729374 0.11971329 0.026801314
0.52815652 0.11971329 0.026801316
0.53074479 0.12057589 0.026801322
0.53160757 0.12057589 0.026801325
0.53247035 0.12057589 0.026801327
0.53074479 0.1214385 0.026801322
0.53160757 0.1214385 0.026801325
0.53247035 0.1214385 0.026801327
0.54196078 0.13178973 0.026801351
0.54282355 0.13178973 0.026801353
0.54196078 0.13265233 0.026801351
0.54282355 0.13265233 0.026801353
0.54368633 0.13351494 0.026801355
0.54454905 0.13351494 0.026801357
0.54541183 0.13351494 0.026801359
0.54368633 0.13437754 0.026801355
0.54454905 0.13437754 0.026801357
0.54541183 0.13437754 0.026801359
0.5462746 0.13524014 0.026801363
0.54713738 0.13524014 0.026801364
0.5462746 0.13653405 0.026801363
0.54713738 0.13653405 0.026801364
0.54843152 0.13782795 0.026801366
0.54843152 0.13869056 0.026801366
0.54972565 0.13955316 0.02680137
0.55058843 0.13955316 0.026801372
0.54972565 0.14041576 0.02680137
0.55058843 0.14041576 0.026801372
0.54299456 -0.0088033248 0.02780134
0.54385626 -0.0088033248 0.027801342
0.54299456 -0.0075110672 0.02780134
0.54385626 -0.0075110672 0.027801342
0.53179288 0.00067323522 0.027801313
0.53265452 0.00067323522 0.027801314
0.53179288 0.0015347407 0.027801313
0.53265452 0.0015347407 0.027801314
0.53050041 0.0023962462 0.027801309
0.53050041 0.0032577515 0.027801309
0.52748454 0.0045500095 0.027801301
0.52834618 0.0045500095 0.027801303
0.52920789 0.004119257 0.027801305
0.53050041 0.004119257 0.027801309
0.52748454 0.0058422675 0.027801301
0.52834618 0.0058422675 0.027801303
0.52446866 0.0084267836 0.027801294
0.52446866 0.0092882896 0.027801294
0.52231455 0.010149796 0.027801288
0.52317619 0.010149796 0.02780129
0.5205912 0.011872807 0.027801285
0.52145284 0.011872807 0.027801286
0.52231455 0.011011301 0.027801288
0.52317619 0.011011301 0.02780129
0.5205912 0.012734312 0.027801285
0.52145284 0.012734312 0.027801286
0.51628286 0.017903345 0.027801273
0.5171445 0.017903345 0.027801275
0.51628286 0.01876485 0.027801273
0.5171445 0.01876485 0.027801275
0.51025116 0.023503128 0.027801257
0.51154369 0.023503128 0.02780126
0.50852782 0.024795389 0.027801253
0.50938952 0.024795389 0.027801255
0.50852782 0.025656894 0.027801253
0.50938952 0.025656894 0.027801255
0.50680453 0.026518399 0.027801249
0.50766617 0.026518399 0.027801251
0.50680453 0.027379904 0.027801249
0.50766617 0.027379904 0.027801251
0.50680453 0.028241411 0.027801249
0.50766617 0.028241411 0.027801251
0.505512 0.029533669 0.027801245
0.49948037 0.037717968 0.027801231
0.49948037 0.038579475 0.027801231
0.49948037 0.039440982 0.027801231
0.48784783 0.050640553 0.027801201
0.48870951 0.050640553 0.027801203
0.48784783 0.051502056 0.027801201
0.48870951 0.051502056 0.027801203
0.48784783 0.052363563 0.027801201
0.48870951 0.052363563 0.027801203
0.48052365 0.058394101 0.027801182
0.48052365 0.059255607 0.027801182
0.47664616 0.061840124 0.027801173
0.47750783 0.061840124 0.027801175
0.47664616 0.062701628 0.027801173
0.47750783 0.062701628 0.027801175
0.47664616 0.063563131 0.027801173
0.47750783 0.063563131 0.027801175
0.47449195 0.066147648 0.027801167
0.47578448 0.066147648 0.027801171
0.47449195 0.067009158 0.027801167
0.47578448 0.067009158 0.027801171
0.47233781 0.069593675 0.027801162
0.47319949 0.069593675 0.027801163
0.47233781 0.070455179 0.027801162
0.47319949 0.070455179 0.027801163
0.47233781 0.071316682 0.027801162
0.47319949 0.071316682 0.027801163
0.47233781 0.072178185 0.027801162
0.47319949 0.072178185 0.027801163
0.47233781 0.073470443 0.027801162
0.47319949 0.073470443 0.027801163
0.47233781 0.074762702 0.027801162
0.47319949 0.074762702 0.027801163
0.47233781 0.075624205 0.027801162
0.47319949 0.075624205 0.027801163
0.47233781 0.076485708 0.027801162
0.47319949 0.076485708 0.027801163
0.47233781 0.077347219 0.027801162
0.47319949 0.077347219 0.027801163
0.47233781 0.078208722 0.027801162
0.47319949 0.078208722 0.027801163
0.47233781 0.079500981 0.027801162
0.47319949 0.079500981 0.027801163
0.47061446 0.080793239 0.027801158
0.47147614 0.080793239 0.02780116
0.47061446 0.081654742 0.027801158
0.47147614 0.081654742 0.02780116
0.46889114 0.082516246 0.027801152
0.46975282 0.082516246 0.027801154
0.47061446 0.082516246 0.027801158
0.47147614 0.082516246 0.02780116
0.46889114 0.083377756 0.027801152
0.46975282 0.083377756 0.027801154
0.47061446 0.083377756 0.027801158
0.47147614 0.083377756 0.02780116
0.48267782 0.083377756 0.027801188
0.48353949 0.083377756 0.02780119
0.48440117 0.083377756 0.027801191
0.48526284 0.083377756 0.027801193
0.48655534 0.083377756 0.027801197
0.46716779 0.084239259 0.027801149
0.46846032 0.084239259 0.027801152
0.46975282 0.084239259 0.027801154
0.47061446 0.084239259 0.027801158
0.47147614 0.084239259 0.02780116
0.48267782 0.084239259 0.027801188
0.48353949 0.084239259 0.02780119
0.48440117 0.084239259 0.027801191
0.48526284 0.084239259 0.027801193
0.48655534 0.084239259 0.027801197
0.46716779 0.085531518 0.027801149
0.46846032 0.085531518 0.027801152
0.46975282 0.085531518 0.027801154
0.47061446 0.085531518 0.027801158
0.47147614 0.085531518 0.02780116
0.47233781 0.085531518 0.027801162
0.47319949 0.085531518 0.027801163
0.47449195 0.085531518 0.027801167
0.47578448 0.085962273 0.027801171
0.47664616 0.085962273 0.027801173
0.47750783 0.085962273 0.027801175
0.47836947 0.085962273 0.027801177
0.47923115 0.085962273 0.027801178
0.48009282 0.085962273 0.02780118
0.48267782 0.085100763 0.027801188
0.48353949 0.085100763 0.02780119
0.48440117 0.085100763 0.027801191
0.48526284 0.085100763 0.027801193
0.48655534 0.085100763 0.027801197
0.4645828 0.086823776 0.027801141
0.46544448 0.086823776 0.027801143
0.47147614 0.086823776 0.02780116
0.47233781 0.086823776 0.027801162
0.47319949 0.086823776 0.027801163
0.47449195 0.086823776 0.027801167
0.47578448 0.086823776 0.027801171
0.47664616 0.086823776 0.027801173
0.47750783 0.086823776 0.027801175
0.47836947 0.086823776 0.027801177
0.47923115 0.086823776 0.027801178
0.48009282 0.086823776 0.02780118
0.4645828 0.08768528 0.027801141
0.46544448 0.08768528 0.027801143
0.47147614 0.08768528 0.02780116
0.47233781 0.08768528 0.027801162
0.47319949 0.08768528 0.027801163
0.47449195 0.08768528 0.027801167
0.47578448 0.08768528 0.027801171
0.49344867 0.08768528 0.027801216
0.46285945 0.08854679 0.027801137
0.46372113 0.08854679 0.027801139
0.47319949 0.08854679 0.027801163
0.47449195 0.08854679 0.027801167
0.47578448 0.08854679 0.027801171
0.49344867 0.08854679 0.027801216
0.46285945 0.089408293 0.027801137
0.46372113 0.089408293 0.027801139
0.47319949 0.089408293 0.027801163
0.47406113 0.089408293 0.027801165
0.45941278 0.090269797 0.027801128
0.46027446 0.090269797 0.02780113
0.47319949 0.090269797 0.027801163
0.47406113 0.090269797 0.027801165
0.45553529 0.09199281 0.027801119
0.45941278 0.091131307 0.027801128
0.46027446 0.091131307 0.02780113
0.47147614 0.091131307 0.02780116
0.47233781 0.091131307 0.027801162
0.45553529 0.092854314 0.027801119
0.45553529 0.093715817 0.027801119
0.45553529 0.094577327 0.027801119
0.47147614 0.094577327 0.02780116
0.47233781 0.094577327 0.027801162
0.45553529 0.095438831 0.027801119
0.47147614 0.095438831 0.02780116
0.47233781 0.095438831 0.027801162
0.45682779 0.096300334 0.027801123
0.45768946 0.096300334 0.027801124
0.45855111 0.096300334 0.027801126
0.45941278 0.096300334 0.027801128
0.46027446 0.096300334 0.02780113
0.47147614 0.096300334 0.02780116
0.47233781 0.096300334 0.027801162
0.45682779 0.097161844 0.027801123
0.45768946 0.097161844 0.027801124
0.45855111 0.097161844 0.027801126
0.45941278 0.097161844 0.027801128
0.46027446 0.097161844 0.02780113
0.45941278 0.098023348 0.027801128
0.46027446 0.098023348 0.02780113
0.4645828 0.098884851 0.027801141
0.46544448 0.098884851 0.027801143
0.46630612 0.098884851 0.027801147
0.4645828 0.099746361 0.027801141
0.46544448 0.099746361 0.027801143
0.46630612 0.099746361 0.027801147
0.50766617 0.10319238 0.027801251
0.50852782 0.10319238 0.027801253
0.50766617 0.10405388 0.027801251
0.50852782 0.10405388 0.027801253
0.51886785 0.11266894 0.027801279
0.51972955 0.11266894 0.027801281
0.51886785 0.11353044 0.027801279
0.51972955 0.11353044 0.027801281
0.52489954 0.11654571 0.027801294
0.52576119 0.11654571 0.027801298
0.52834618 0.11783797 0.027801303
0.52920789 0.11783797 0.027801305
0.52834618 0.11869948 0.027801303
0.52920789 0.11869948 0.027801305
0.52834618 0.11956099 0.027801303
0.52920789 0.11956099 0.027801305
0.53437787 0.1221455 0.027801318
0.53523958 0.1221455 0.02780132
0.53437787 0.12300701 0.027801318
0.53523958 0.12300701 0.02780132
0.53782457 0.12559152 0.027801327
0.53868622 0.12559152 0.027801329
0.53782457 0.12645303 0.027801327
0.53868622 0.12645303 0.027801329
0.53782457 0.12731454 0.027801327
0.53868622 0.12731454 0.027801329
0.53954792 0.12817603 0.027801331
0.54040956 0.12817603 0.027801335
0.53954792 0.12903754 0.027801331
0.54040956 0.12903754 0.027801335
0.54127121 0.12989905 0.027801337
0.54213291 0.12989905 0.027801339
0.54127121 0.13076055 0.027801337
0.54213291 0.13076055 0.027801339
0.54945707 0.13765259 0.027801357
0.54945707 0.1385141 0.027801357
0.5507496 0.13937561 0.027801361
0.55161124 0.13937561 0.027801363
0.5507496 0.14023711 0.027801361
0.55161124 0.14023711 0.027801363
0.54445428 -0.0087921107 0.028801331
0.54574513 -0.0087921107 0.028801335
0.54445428 -0.0075014988 0.028801333
0.54574513 -0.0075014988 0.028801335
0.54660571 -0.0075014988 0.028801337
0.53886056 -0.0062108864 0.028801316
0.53972113 -0.0062108864 0.02880132
0.53886056 -0.0053504785 0.028801316
0.53972113 -0.0053504785 0.02880132
0.53627884 -0.0044900705 0.028801311
0.53713942 -0.0044900705 0.028801313
0.53627884 -0.0036296623 0.028801311
0.53713942 -0.0036296623 0.028801313
0.53455776 -0.0027692544 0.028801307
0.53541827 -0.0027692544 0.028801309
0.53283662 -0.0010484385 0.028801301
0.53369719 -0.0010484385 0.028801303
0.53455776 -0.0019088464 0.028801307
0.53541827 -0.0019088464 0.028801309
0.53283662 -0.00018803045 0.028801301
0.53369719 -0.00018803045 0.028801303
0.53283662 0.00067237753 0.028801301
0.53369719 0.00067237753 0.028801303
0.53283662 0.0015327856 0.028801301
0.53369719 0.0015327856 0.028801303
0.53154576 0.0023931935 0.0288013
0.53154576 0.0032536015 0.0288013
0.52853376 0.0049744174 0.02880129
0.52939433 0.0049744174 0.028801294
0.5302549 0.0049744174 0.028801296
0.53154576 0.0041140094 0.0288013
0.52853376 0.0058348253 0.02880129
0.52939433 0.0058348253 0.028801294
0.5302549 0.0058348253 0.028801296
0.52552176 0.0066952333 0.028801285
0.52552176 0.0075556417 0.028801285
0.52337033 0.01056707 0.028801277
0.5242309 0.01056707 0.028801281
0.52164918 0.011857682 0.028801274
0.52250975 0.011857682 0.028801275
0.52164918 0.01271809 0.028801274
0.52250975 0.01271809 0.028801275
0.51949775 0.013578498 0.028801268
0.52078861 0.013578498 0.028801272
0.51949775 0.014438906 0.028801268
0.52078861 0.014438906 0.028801272
0.51734632 0.015299314 0.028801262
0.51820689 0.015299314 0.028801264
0.51949775 0.015299314 0.028801268
0.52078861 0.015299314 0.028801272
0.55047828 0.015299314 0.028801348
0.51734632 0.016159723 0.028801262
0.51820689 0.016159723 0.028801264
0.51949775 0.016159723 0.028801268
0.52078861 0.016159723 0.028801272
0.55047828 0.016159723 0.028801348
0.51734632 0.017450335 0.028801262
0.51820689 0.017450335 0.028801264
0.51949775 0.017020131 0.028801268
0.52078861 0.017020131 0.028801272
0.55047828 0.017450335 0.028801348
0.51734632 0.018740946 0.028801262
0.51820689 0.018740946 0.028801264
0.55047828 0.018740946 0.028801348
0.51562518 0.019601354 0.028801259
0.51648575 0.019601354 0.028801261
0.51562518 0.020461762 0.028801259
0.51648575 0.020461762 0.028801261
0.51390404 0.02132217 0.028801253
0.51476461 0.02132217 0.028801257
0.51390404 0.022182578 0.028801253
0.51476461 0.022182578 0.028801257
0.51218289 0.02347319 0.028801249
0.51304346 0.02347319 0.028801251
0.50960118 0.024763802 0.028801244
0.51046175 0.024763802 0.028801246
0.51132232 0.024763802 0.028801247
0.50960118 0.02562421 0.028801244
0.51046175 0.02562421 0.028801246
0.51132232 0.02562421 0.028801247
0.50788003 0.026484618 0.028801238
0.5087406 0.026484618 0.02880124
0.50788003 0.027345026 0.028801238
0.5087406 0.027345026 0.02880124
0.50788003 0.028205434 0.028801238
0.5087406 0.028205434 0.02880124
0.50615889 0.029496046 0.028801234
0.50701946 0.029496046 0.028801236
0.50443774 0.030786658 0.028801231
0.50529832 0.030786658 0.028801233
0.50615889 0.030786658 0.028801234
0.50701946 0.030786658 0.028801236
0.50443774 0.031647068 0.028801231
0.50529832 0.031647068 0.028801233
0.50615889 0.031647068 0.028801234
0.50701946 0.031647068 0.028801236
0.5027166 0.032507475 0.028801225
0.50357717 0.032507475 0.028801227
0.50443774 0.032507475 0.028801231
0.50529832 0.032507475 0.028801233
0.5027166 0.033367883 0.028801225
0.50357717 0.033367883 0.028801227
0.50443774 0.033367883 0.028801231
0.50529832 0.033367883 0.028801233
0.5027166 0.034228291 0.028801225
0.50357717 0.034228291 0.028801227
0.50056517 0.035949107 0.028801221
0.50185603 0.035949107 0.028801223
0.5027166 0.035088699 0.028801225
0.50357717 0.035088699 0.028801227
0.50056517 0.036809515 0.028801221
0.50185603 0.036809515 0.028801223
0.50056517 0.037669923 0.028801221
0.50056517 0.038530331 0.028801221
0.50056517 0.039390739 0.028801221
0.4984138 0.040251147 0.028801214
0.49927437 0.040251147 0.028801218
0.49669266 0.041971963 0.02880121
0.49755323 0.041971963 0.028801212
0.4984138 0.041111555 0.028801214
0.49927437 0.041111555 0.028801218
0.49669266 0.042832371 0.02880121
0.49755323 0.042832371 0.028801212
0.49497151 0.043692779 0.028801206
0.49583209 0.043692779 0.028801208
0.49497151 0.044553187 0.028801206
0.49583209 0.044553187 0.028801208
0.49325037 0.045413595 0.028801201
0.49411094 0.045413595 0.028801205
0.49325037 0.046274003 0.028801201
0.49411094 0.046274003 0.028801205
0.49066865 0.047564615 0.028801195
0.49152923 0.047564615 0.028801197
0.48894751 0.048855226 0.02880119
0.48980808 0.048855226 0.028801193
0.49066865 0.048855226 0.028801195
0.49152923 0.048855226 0.028801197
0.48894751 0.049715634 0.02880119
0.48980808 0.049715634 0.028801193
0.49066865 0.049715634 0.028801195
0.49152923 0.049715634 0.028801197
0.48894751 0.050576042 0.02880119
0.48980808 0.050576042 0.028801193
0.48894751 0.05143645 0.02880119
0.48980808 0.05143645 0.028801193
0.48894751 0.052296858 0.02880119
0.48980808 0.052296858 0.028801193
0.4872264 0.053157266 0.028801186
0.48808697 0.053157266 0.028801188
0.48550525 0.054878082 0.028801182
0.48636582 0.054878082 0.028801184
0.4872264 0.054017674 0.028801186
0.48808697 0.054017674 0.028801188
0.48550525 0.05573849 0.028801182
0.48636582 0.05573849 0.028801184
0.48292354 0.056598898 0.028801175
0.48378411 0.056598898 0.028801177
0.48464468 0.056598898 0.02880118
0.48292354 0.057459306 0.028801175
0.48378411 0.057459306 0.028801177
0.48464468 0.057459306 0.02880118
0.48120239 0.058319714 0.028801171
0.48206297 0.058319714 0.028801173
0.48120239 0.059180122 0.028801171
0.48206297 0.059180122 0.028801173
0.47776011 0.060470734 0.028801162
0.47862068 0.060470734 0.028801164
0.47948125 0.060470734 0.028801167
0.48034182 0.060470734 0.028801169
0.47776011 0.061761346 0.028801162
0.47862068 0.061761346 0.028801164
0.47776011 0.06262175 0.028801162
0.47862068 0.06262175 0.028801164
0.47776011 0.063482165 0.028801162
0.47862068 0.063482165 0.028801164
0.47646925 0.064342573 0.028801158
0.47646925 0.065202981 0.028801158
0.47646925 0.066493593 0.028801158
0.47345725 0.067784205 0.028801151
0.47431782 0.067784205 0.028801154
0.47517839 0.067784205 0.028801156
0.47646925 0.067784205 0.028801158
0.47345725 0.068644613 0.028801151
0.47431782 0.068644613 0.028801154
0.47517839 0.068644613 0.028801156
0.47646925 0.068644613 0.028801158
0.47345725 0.069505021 0.028801151
0.47431782 0.069505021 0.028801154
0.47517839 0.069505021 0.028801156
0.47345725 0.070365429 0.028801151
0.47431782 0.070365429 0.028801154
0.47517839 0.070365429 0.028801156
0.47345725 0.071225837 0.028801151
0.47431782 0.071225837 0.028801154
0.47517839 0.071225837 0.028801156
0.47345725 0.072516441 0.028801151
0.47431782 0.072516441 0.028801154
0.47517839 0.072516441 0.028801156
0.47646925 0.072516441 0.028801158
0.47345725 0.073807053 0.028801151
0.47431782 0.073807053 0.028801154
0.47517839 0.073807053 0.028801156
0.47646925 0.073807053 0.028801158
0.47345725 0.074667461 0.028801151
0.47431782 0.074667461 0.028801154
0.47517839 0.074667461 0.028801156
0.47646925 0.074667461 0.028801158
0.47345725 0.075527869 0.028801151
0.47431782 0.075527869 0.028801154
0.47517839 0.075527869 0.028801156
0.47646925 0.075527869 0.028801158
0.47345725 0.076388277 0.028801151
0.47431782 0.076388277 0.028801154
0.47517839 0.076388277 0.028801156
0.47646925 0.076388277 0.028801158
0.47345725 0.077248685 0.028801151
0.47431782 0.077248685 0.028801154
0.47517839 0.077248685 0.028801156
0.47646925 0.077248685 0.028801158
0.47345725 0.078539297 0.028801151
0.47431782 0.078539297 0.028801154
0.47517839 0.078539297 0.028801156
0.47646925 0.078539297 0.028801158
0.47776011 0.078539297 0.028801162
0.47862068 0.078539297 0.028801164
0.47345725 0.079829909 0.028801151
0.47431782 0.079829909 0.028801154
0.47517839 0.079829909 0.028801156
0.47646925 0.079829909 0.028801158
0.47776011 0.079829909 0.028801162
0.47862068 0.079829909 0.028801164
0.4717361 0.080690317 0.028801147
0.47259668 0.080690317 0.028801149
0.47345725 0.080690317 0.028801151
0.47431782 0.080690317 0.028801154
0.47517839 0.080690317 0.028801156
0.47646925 0.080690317 0.028801158
0.47776011 0.080690317 0.028801162
0.47862068 0.080690317 0.028801164
0.4717361 0.081550725 0.028801147
0.47259668 0.081550725 0.028801149
0.47345725 0.081550725 0.028801151
0.47431782 0.081550725 0.028801154
0.47517839 0.081550725 0.028801156
0.47646925 0.081550725 0.028801158
0.47776011 0.081550725 0.028801162
0.47862068 0.081550725 0.028801164
0.47948125 0.081550725 0.028801167
0.48034182 0.081550725 0.028801169
0.48120239 0.081550725 0.028801171
0.48249325 0.081550725 0.028801173
0.48378411 0.081550725 0.028801177
0.4717361 0.082411133 0.028801147
0.47259668 0.082411133 0.028801149
0.47345725 0.082411133 0.028801151
0.47431782 0.082411133 0.028801154
0.47517839 0.082411133 0.028801156
0.47646925 0.082411133 0.028801158
0.47776011 0.082411133 0.028801162
0.47862068 0.082411133 0.028801164
0.47948125 0.082411133 0.028801167
0.48034182 0.082411133 0.028801169
0.48120239 0.082411133 0.028801171
0.48249325 0.082411133 0.028801173
0.48378411 0.082411133 0.028801177
0.4717361 0.083271541 0.028801147
0.47259668 0.083271541 0.028801149
0.47345725 0.083271541 0.028801151
0.47431782 0.083271541 0.028801154
0.47517839 0.083271541 0.028801156
0.47646925 0.083271541 0.028801158
0.47776011 0.083271541 0.028801162
0.47862068 0.083271541 0.028801164
0.47948125 0.083271541 0.028801167
0.48034182 0.083271541 0.028801169
0.48120239 0.083271541 0.028801171
0.4872264 0.083271541 0.028801186
0.48808697 0.083271541 0.028801188
0.4717361 0.084131949 0.028801147
0.47259668 0.084131949 0.028801149
0.47345725 0.084131949 0.028801151
0.47431782 0.084131949 0.028801154
0.47517839 0.084562153 0.028801156
0.47646925 0.084562153 0.028801158
0.47776011 0.084562153 0.028801162
0.47862068 0.084562153 0.028801164
0.47948125 0.084562153 0.028801167
0.48034182 0.084562153 0.028801169
0.48120239 0.084562153 0.028801171
0.4872264 0.084562153 0.028801186
0.48851722 0.084562153 0.028801188
0.48980808 0.084562153 0.028801193
0.49066865 0.085852765 0.028801195
0.49152923 0.085852765 0.028801197
0.4923898 0.085852765 0.028801199
0.49325037 0.085852765 0.028801201
0.46571213 0.086713172 0.028801132
0.4665727 0.086713172 0.028801134
0.46743327 0.086713172 0.028801136
0.46829385 0.086713172 0.028801138
0.46915442 0.086713172 0.028801141
0.47001496 0.086713172 0.028801143
0.49066865 0.086713172 0.028801195
0.49152923 0.086713172 0.028801197
0.4923898 0.086713172 0.028801199
0.49325037 0.086713172 0.028801201
0.46571213 0.08757358 0.028801132
0.4665727 0.08757358 0.028801134
0.46743327 0.08757358 0.028801136
0.46829385 0.08757358 0.028801138
0.46915442 0.08757358 0.028801141
0.47001496 0.08757358 0.028801143
0.46399099 0.088433988 0.028801128
0.46485156 0.088433988 0.02880113
0.46571213 0.088433988 0.028801132
0.4665727 0.088433988 0.028801134
0.46743327 0.088433988 0.028801136
0.46829385 0.088433988 0.028801138
0.46915442 0.088433988 0.028801141
0.47044525 0.088433988 0.028801143
0.4717361 0.088433988 0.028801147
0.46399099 0.089294396 0.028801128
0.46485156 0.089294396 0.02880113
0.46571213 0.089294396 0.028801132
0.4665727 0.089294396 0.028801134
0.46743327 0.089294396 0.028801136
0.46829385 0.089294396 0.028801138
0.46915442 0.089294396 0.028801141
0.47044525 0.089294396 0.028801143
0.4717361 0.089294396 0.028801147
0.49454123 0.089294396 0.028801206
0.49583209 0.089294396 0.028801208
0.49669266 0.089294396 0.02880121
0.49755323 0.089294396 0.028801212
0.4605487 0.090154804 0.028801119
0.46140927 0.090154804 0.028801121
0.46226984 0.090154804 0.028801123
0.4635607 0.090154804 0.028801126
0.46485156 0.090154804 0.02880113
0.46571213 0.090154804 0.028801132
0.4665727 0.090154804 0.028801134
0.46743327 0.090154804 0.028801136
0.46829385 0.090154804 0.028801138
0.46915442 0.090154804 0.028801141
0.47044525 0.090154804 0.028801143
0.4717361 0.090154804 0.028801147
0.49454123 0.090154804 0.028801206
0.49583209 0.090154804 0.028801208
0.49669266 0.090154804 0.02880121
0.49755323 0.090154804 0.028801212
0.45624584 0.09187562 0.028801108
0.4575367 0.09187562 0.02880111
0.45882756 0.09187562 0.028801113
0.45968813 0.09187562 0.028801117
0.4605487 0.091445416 0.028801119
0.46140927 0.091445416 0.028801121
0.46226984 0.091445416 0.028801123
0.46341729 0.091302015 0.028801126
0.46485156 0.091015212 0.02880113
0.46571213 0.091015212 0.028801132
0.4665727 0.091445416 0.028801134
0.46743327 0.091445416 0.028801136
0.46829385 0.091015212 0.028801138
0.46915442 0.091015212 0.028801141
0.47044525 0.091445416 0.028801143
0.4717361 0.09187562 0.028801147
0.49583209 0.091445416 0.028801208
0.49669266 0.091445416 0.02880121
0.49755323 0.091445416 0.028801212
0.45624584 0.092736028 0.028801108
0.4575367 0.092736028 0.02880111
0.45882756 0.092736028 0.028801113
0.45968813 0.092736028 0.028801117
0.4605487 0.092736028 0.028801119
0.46140927 0.092736028 0.028801121
0.46226984 0.092736028 0.028801123
0.46313041 0.092736028 0.028801125
0.4665727 0.092736028 0.028801134
0.46743327 0.092736028 0.028801136
0.47087553 0.092736028 0.028801145
0.4717361 0.092736028 0.028801147
0.49583209 0.092736028 0.028801208
0.49669266 0.092736028 0.02880121
0.49755323 0.092736028 0.028801212
0.45624584 0.093596436 0.028801108
0.4575367 0.093596436 0.02880111
0.45882756 0.093596436 0.028801113
0.45968813 0.093596436 0.028801117
0.4605487 0.093596436 0.028801119
0.46140927 0.093596436 0.028801121
0.46226984 0.093596436 0.028801123
0.46313041 0.093596436 0.028801125
0.4665727 0.093596436 0.028801134
0.46743327 0.093596436 0.028801136
0.47087553 0.093596436 0.028801145
0.4717361 0.093596436 0.028801147
0.4984138 0.093596436 0.028801214
0.49927437 0.093596436 0.028801218
0.45624584 0.094456844 0.028801108
0.4575367 0.094456844 0.02880111
0.45882756 0.094456844 0.028801113
0.45968813 0.094456844 0.028801117
0.4605487 0.094456844 0.028801119
0.46140927 0.094456844 0.028801121
0.46226984 0.094456844 0.028801123
0.46313041 0.094456844 0.028801125
0.4665727 0.094456844 0.028801134
0.46743327 0.094456844 0.028801136
0.46829385 0.094456844 0.028801138
0.46915442 0.094456844 0.028801141
0.47001496 0.094456844 0.028801143
0.4984138 0.094456844 0.028801214
0.49927437 0.094456844 0.028801218
0.45624584 0.095317252 0.028801108
0.4575367 0.095317252 0.02880111
0.45882756 0.095317252 0.028801113
0.45968813 0.095317252 0.028801117
0.4605487 0.095317252 0.028801119
0.46140927 0.095317252 0.028801121
0.46226984 0.095317252 0.028801123
0.46313041 0.095317252 0.028801125
0.4665727 0.095317252 0.028801134
0.46743327 0.095317252 0.028801136
0.46829385 0.095317252 0.028801138
0.46915442 0.095317252 0.028801141
0.47001496 0.095317252 0.028801143
0.50056517 0.095317252 0.028801221
0.4605487 0.09617766 0.028801119
0.46140927 0.09617766 0.028801121
0.46226984 0.09617766 0.028801123
0.4635607 0.09617766 0.028801126
0.46485156 0.09617766 0.02880113
0.46571213 0.09617766 0.028801132
0.4665727 0.09617766 0.028801134
0.46743327 0.09617766 0.028801136
0.46829385 0.09617766 0.028801138
0.46915442 0.09617766 0.028801141
0.47001496 0.09617766 0.028801143
0.50056517 0.09617766 0.028801221
0.4605487 0.097468272 0.028801119
0.46140927 0.097468272 0.028801121
0.46226984 0.097468272 0.028801123
0.4635607 0.097468272 0.028801126
0.46485156 0.097468272 0.02880113
0.46571213 0.097468272 0.028801132
0.4665727 0.097468272 0.028801134
0.46743327 0.097468272 0.028801136
0.46829385 0.097468272 0.028801138
0.46915442 0.097468272 0.028801141
0.47001496 0.097468272 0.028801143
0.50185603 0.097468272 0.028801223
0.5027166 0.097468272 0.028801225
0.50357717 0.098758884 0.028801227
0.50443774 0.098758884 0.028801231
0.50357717 0.099619292 0.028801227
0.50443774 0.099619292 0.028801231
0.50529832 0.1004797 0.028801233
0.50615889 0.1004797 0.028801234
0.50529832 0.10134011 0.028801233
0.50615889 0.10134011 0.028801234
0.50529832 0.10220052 0.028801233
0.50615889 0.10220052 0.028801234
0.5087406 0.10349113 0.02880124
0.50960118 0.10349113 0.028801244
0.51046175 0.10349113 0.028801246
0.51132232 0.10478174 0.028801247
0.51218289 0.10478174 0.028801249
0.51132232 0.10564215 0.028801247
0.51218289 0.10564215 0.028801249
0.51347375 0.10650256 0.028801251
0.51347375 0.10736296 0.028801251
0.51476461 0.10822337 0.028801257
0.51562518 0.10822337 0.028801259
0.51476461 0.10951398 0.028801257
0.51562518 0.10951398 0.028801259
0.51648575 0.1108046 0.028801261
0.51734632 0.1108046 0.028801262
0.51648575 0.111665 0.028801261
0.51734632 0.111665 0.028801262
0.51992804 0.11252541 0.02880127
0.52078861 0.11252541 0.028801272
0.52164918 0.11252541 0.028801274
0.51992804 0.11338582 0.02880127
0.52078861 0.11338582 0.028801272
0.52164918 0.11338582 0.028801274
0.52250975 0.11424623 0.028801275
0.52337033 0.11424623 0.028801277
0.52250975 0.11510663 0.028801275
0.52337033 0.11510663 0.028801277
0.52595204 0.11596704 0.028801285
0.52681261 0.11596704 0.028801287
0.52595204 0.11682745 0.028801285
0.52681261 0.11682745 0.028801287
0.52939433 0.11768786 0.028801294
0.5302549 0.11768786 0.028801296
0.52939433 0.11854827 0.028801294
0.5302549 0.11854827 0.028801296
0.53111547 0.11854827 0.028801298
0.52939433 0.11940867 0.028801294
0.5302549 0.11940867 0.028801296
0.53111547 0.11940867 0.028801298
0.53197604 0.12026908 0.0288013
0.53283662 0.12026908 0.028801301
0.53197604 0.12112949 0.0288013
0.53283662 0.12112949 0.028801301
0.53541827 0.12371071 0.028801309
0.53627884 0.12371071 0.028801311
0.53541827 0.12457112 0.028801309
0.53627884 0.12457112 0.028801311
0.5405817 0.12844297 0.028801322
0.54144228 0.12844297 0.028801324
0.54230285 0.13145439 0.028801326
0.54316342 0.13145439 0.028801328
0.54445428 0.13145439 0.028801331
0.54574513 0.13145439 0.028801335
0.54230285 0.1323148 0.028801326
0.54316342 0.1323148 0.028801328
0.54445428 0.1323148 0.028801331
0.54574513 0.1323148 0.028801335
0.54488456 0.13317521 0.028801333
0.54574513 0.13317521 0.028801335
0.54488456 0.13403562 0.028801333
0.54574513 0.13403562 0.028801335
0.54660571 0.13489603 0.028801337
0.54746628 0.13489603 0.028801339
0.54832685 0.13489603 0.028801341
0.54918742 0.13489603 0.028801342
0.54660571 0.13575643 0.028801337
0.54746628 0.13575643 0.028801339
0.54832685 0.13575643 0.028801341
0.54918742 0.13575643 0.028801342
0.54660571 0.13661684 0.028801337
0.54746628 0.13661684 0.028801339
0.54832685 0.13661684 0.028801341
0.54918742 0.13661684 0.028801342
0.55047828 0.13747725 0.028801348
0.55047828 0.13833766 0.028801348
0.54676801 -0.0074919295 0.029801324
0.54762745 -0.0074919295 0.029801326
0.54848695 -0.0074919295 0.02980133
0.54934645 -0.0074919295 0.029801331
0.55020589 -0.0074919295 0.029801333
0.5398922 -0.0062029641 0.029801307
0.5407517 -0.0062029641 0.029801309
0.5398922 -0.0053436537 0.029801307
0.5407517 -0.0053436537 0.029801309
0.53731382 -0.0044843433 0.0298013
0.53817326 -0.0044843433 0.029801302
0.53903276 -0.0044843433 0.029801305
0.53731382 -0.0036250327 0.0298013
0.53817326 -0.0036250327 0.029801302
0.53903276 -0.0036250327 0.029801305
0.53559488 -0.0027657223 0.029801296
0.53645432 -0.0027657223 0.029801298
0.53387588 -0.0010471012 0.029801292
0.53473538 -0.0010471012 0.029801294
0.53559488 -0.0019064117 0.029801296
0.53645432 -0.0019064117 0.029801298
0.53387588 -0.00018779062 0.029801292
0.53473538 -0.00018779062 0.029801294
0.52614063 0.006686694 0.029801272
0.52700013 0.006686694 0.029801274
0.52614063 0.0075460044 0.029801272
0.52700013 0.0075460044 0.029801274
0.52442169 0.0084053148 0.029801268
0.52528119 0.0084053148 0.02980127
0.52442169 0.0092646247 0.029801268
0.52528119 0.0092646247 0.02980127
0.52098382 0.013561178 0.029801259
0.52184331 0.013561178 0.029801261
0.54934645 0.013561178 0.029801331
0.55020589 0.013561178 0.029801333
0.52098382 0.014420488 0.029801259
0.52184331 0.014420488 0.029801261
0.54934645 0.014420488 0.029801331
0.55020589 0.014420488 0.029801333
0.54762745 0.015279799 0.029801326
0.54848695 0.015279799 0.02980133
0.54762745 0.016568765 0.029801326
0.54848695 0.016568765 0.02980133
