# .PCD v0.7 - Point Cloud Data file format
VERSION 0.7
FIELDS x y z
SIZE 4 4 4
TYPE F F F
COUNT 1 1 1
WIDTH 1317
HEIGHT 1
VIEWPOINT 0 0 0 1 0 0 0
POINTS 1317
DATA ascii
-0.36756516 -0.019482302 0.07979998
-0.36676055 -0.019482302 0.07979998
-0.36836976 -0.018677864 0.07979998
-0.36756516 -0.018677864 0.07979998
-0.36957663 -0.011437926 0.07979998
-0.36957663 -0.010633488 0.07979998
-0.37158811 -0.0066112992 0.07979998
-0.37078351 -0.0066112992 0.07979998
-0.37158811 -0.0058068619 0.07979998
-0.37078351 -0.0058068619 0.07979998
-0.44239196 0.030392829 0.079799987
-0.44158739 0.030392829 0.079799987
-0.44239196 0.031197267 0.079799987
-0.44158739 0.031197267 0.079799987
-0.42871395 0.033610579 0.079799987
-0.42790937 0.033610579 0.079799987
-0.42871395 0.034415018 0.079799987
-0.42790937 0.034415018 0.079799987
-0.42871395 0.035219453 0.079799987
-0.42790937 0.035219453 0.079799987
-0.41825429 0.040850516 0.079799987
-0.41744971 0.040850516 0.079799987
-0.41825429 0.041654956 0.079799987
-0.41744971 0.041654956 0.079799987
-0.41664511 0.042459391 0.079799987
-0.41584054 0.042459391 0.079799987
-0.41664511 0.04326383 0.079799987
-0.41584054 0.04326383 0.079799987
-0.41664511 0.044068266 0.079799987
-0.41584054 0.044068266 0.079799987
-0.41503593 0.04648158 0.079799987
-0.41423133 0.04648158 0.079799987
-0.41342676 0.04648158 0.079799987
-0.41503593 0.047286019 0.079799987
-0.41423133 0.047286019 0.079799987
-0.41342676 0.047286019 0.079799987
-0.41503593 0.054525957 0.079799987
-0.41423133 0.054525957 0.079799987
-0.41503593 0.055330392 0.079799987
-0.41423133 0.055330392 0.079799987
-0.41825429 0.057743706 0.079799987
-0.41744971 0.057743706 0.079799987
-0.41825429 0.058548145 0.079799987
-0.41744971 0.058548145 0.079799987
-0.42871395 0.064581424 0.079799987
-0.42790937 0.064581424 0.079799987
-0.42871395 0.065788083 0.079799987
-0.42790937 0.065788083 0.079799987
-0.4327369 0.066592522 0.079799987
-0.4319323 0.066592522 0.079799987
-0.4327369 0.067396954 0.079799987
-0.4319323 0.067396954 0.079799987
-0.38313353 -0.033514172 0.080799967
-0.38233003 -0.033514172 0.080799967
-0.38152656 -0.032309163 0.080799967
-0.38072306 -0.032309163 0.080799967
-0.38152656 -0.031505823 0.080799967
-0.38072306 -0.031505823 0.080799967
-0.38152656 -0.030702483 0.080799967
-0.38072306 -0.030702483 0.080799967
-0.37951779 -0.029497473 0.080799967
-0.37550038 -0.028292464 0.080799967
-0.37550038 -0.027489124 0.080799967
-0.37429512 -0.026685784 0.080799967
-0.37349162 -0.026685784 0.080799967
-0.37429512 -0.025882443 0.080799967
-0.37349162 -0.025882443 0.080799967
-0.37108114 -0.025079103 0.080799967
-0.37027767 -0.025079103 0.080799967
-0.37108114 -0.024275763 0.080799967
-0.37027767 -0.024275763 0.080799967
-0.36947417 -0.023472423 0.080799967
-0.36867067 -0.023472423 0.080799967
-0.36947417 -0.022669083 0.080799967
-0.36867067 -0.022669083 0.080799967
-0.36947417 -0.021865742 0.080799967
-0.36867067 -0.021865742 0.080799967
-0.36746544 -0.017447371 0.080799967
-0.36746544 -0.016242361 0.080799967
-0.36746544 -0.015439021 0.080799967
-0.36746544 -0.014635681 0.080799967
-0.37108114 -0.0094139706 0.080799967
-0.37027767 -0.0094139706 0.080799967
-0.37108114 -0.0082089603 0.080799967
-0.37027767 -0.0082089603 0.080799967
-0.37108114 -0.0074056201 0.080799967
-0.37027767 -0.0074056201 0.080799967
-0.37349162 -0.0045939297 0.080799967
-0.37268814 -0.0045939297 0.080799967
-0.37188464 -0.0045939297 0.080799967
-0.43254828 0.031958047 0.080799975
-0.43134305 0.031958047 0.080799975
-0.43053955 0.031958047 0.080799975
-0.42973605 0.031958047 0.080799975
-0.42893255 0.031958047 0.080799975
-0.43254828 0.032761384 0.080799975
-0.43134305 0.032761384 0.080799975
-0.43053955 0.032761384 0.080799975
-0.42973605 0.032761384 0.080799975
-0.42893255 0.032761384 0.080799975
-0.42652208 0.035974745 0.080799975
-0.42571861 0.035974745 0.080799975
-0.42491511 0.035974745 0.080799975
-0.42652208 0.036778085 0.080799975
-0.42571861 0.036778085 0.080799975
-0.42491511 0.036778085 0.080799975
-0.42451334 0.037581425 0.080799975
-0.42330813 0.037581425 0.080799975
-0.42451334 0.038384765 0.080799975
-0.42330813 0.038384765 0.080799975
-0.4204959 0.039589774 0.080799975
-0.41929066 0.040794786 0.080799975
-0.41848716 0.040794786 0.080799975
-0.41929066 0.041598126 0.080799975
-0.41848716 0.041598126 0.080799975
-0.41607669 0.044811487 0.080799975
-0.41527319 0.044811487 0.080799975
-0.41607669 0.045614827 0.080799975
-0.41527319 0.045614827 0.080799975
-0.41446972 0.048426516 0.080799975
-0.41366622 0.048426516 0.080799975
-0.41286272 0.048426516 0.080799975
-0.41286272 0.049631529 0.080799975
-0.41607669 0.056459919 0.080799975
-0.41527319 0.056459919 0.080799975
-0.42451334 0.062484968 0.080799975
-0.42451334 0.063288309 0.080799975
-0.43536049 0.068510026 0.080799975
-0.43455699 0.068510026 0.080799975
-0.38541853 -0.035473995 0.081800021
-0.38541853 -0.034671754 0.081800021
-0.38421494 -0.033468388 0.081800021
-0.38341254 -0.033468388 0.081800014
-0.38261014 -0.032265026 0.081800014
-0.38180774 -0.032265026 0.081800014
-0.38261014 -0.031462781 0.081800014
-0.38180774 -0.031462781 0.081800014
-0.38261014 -0.03066054 0.081800014
-0.38180774 -0.03066054 0.081800014
-0.37779579 -0.028253812 0.081800014
-0.37659219 -0.028253812 0.081800014
-0.37779579 -0.027451569 0.081800014
-0.37659219 -0.027451569 0.081800014
-0.37217903 -0.025044842 0.081800014
-0.37137663 -0.025044842 0.081800014
-0.37217903 -0.024242599 0.081800014
-0.37137663 -0.024242599 0.081800014
-0.36856824 -0.021033628 0.081800014
-0.36856824 -0.020231385 0.081800014
-0.36856824 -0.01541793 0.081800014
-0.36856824 -0.014615687 0.081800014
-0.36856824 -0.013412323 0.081800014
-0.37057424 -0.012208959 0.081800014
-0.36977184 -0.012208959 0.081800014
-0.36856824 -0.012208959 0.081800014
-0.37057424 -0.011406716 0.081800014
-0.36977184 -0.011406716 0.081800014
-0.37057424 -0.010604474 0.081800014
-0.36977184 -0.010604474 0.081800014
-0.37258023 -0.0065932604 0.081800014
-0.37137663 -0.0065932604 0.081800014
-0.37258023 -0.0057910178 0.081800014
-0.37137663 -0.0057910178 0.081800014
-0.4427897 0.030309903 0.081800021
-0.44198731 0.030309903 0.081800021
-0.4427897 0.031112144 0.081800021
-0.44198731 0.031112144 0.081800021
-0.42754421 0.035925601 0.081800021
-0.42674184 0.035925601 0.081800021
-0.42754421 0.036727842 0.081800021
-0.42674184 0.036727842 0.081800021
-0.4171131 0.042343542 0.081800021
-0.4163107 0.042343542 0.081800021
-0.4171131 0.043546908 0.081800021
-0.4163107 0.043546908 0.081800021
-0.41350234 0.049563725 0.081800021
-0.41350234 0.05036597 0.081800021
-0.41350231 0.051569331 0.081800021
-0.41350234 0.052772697 0.081800021
-0.41350234 0.053574938 0.081800021
-0.42272985 0.060795125 0.081800021
-0.42192745 0.060795125 0.081800021
-0.42272985 0.061597366 0.081800021
-0.42192745 0.061597366 0.081800021
-0.38929841 -0.03863005 0.082800008
-0.38849711 -0.03863005 0.082800008
-0.38929841 -0.037428331 0.082800008
-0.38849711 -0.037428331 0.082800008
-0.38929841 -0.036226612 0.082800008
-0.38849711 -0.036226612 0.082800008
-0.38609323 -0.033022031 0.082800008
-0.3852919 -0.033422604 0.082800008
-0.38449061 -0.033422604 0.082800008
-0.38368931 -0.032220885 0.082800008
-0.38288802 -0.032220885 0.082800001
-0.38368931 -0.031419743 0.082800008
-0.38288802 -0.031419743 0.082800001
-0.38208672 -0.029416878 0.082800001
-0.38128543 -0.029416878 0.082800001
-0.38048413 -0.029416878 0.082800001
-0.37968284 -0.029416878 0.082800001
-0.37848091 -0.028215161 0.082800001
-0.37848091 -0.027414016 0.082800001
-0.37567636 -0.02661287 0.082800001
-0.37447441 -0.02661287 0.082800001
-0.37567636 -0.025811726 0.082800001
-0.37447441 -0.025811726 0.082800001
-0.37327248 -0.02501058 0.082800001
-0.37247118 -0.02501058 0.082800001
-0.37327248 -0.024209434 0.082800001
-0.37247118 -0.024209434 0.082800001
-0.37166989 -0.02340829 0.082800001
-0.37046796 -0.02340829 0.082800001
-0.36926597 -0.02340829 0.082800001
-0.37166989 -0.022607144 0.082800001
-0.37046796 -0.022607144 0.082800001
-0.36926597 -0.022607144 0.082800001
-0.37166989 -0.021806 0.082800001
-0.37033439 -0.021538951 0.082800001
-0.36926597 -0.021405427 0.082800001
-0.3700673 -0.02020371 0.082800001
-0.36926597 -0.02020371 0.082800001
-0.3700673 -0.019402564 0.082800001
-0.36926597 -0.019402564 0.082800001
-0.36846468 -0.019402564 0.082800001
-0.36766338 -0.019402564 0.082800001
-0.3700673 -0.018601419 0.082800001
-0.36926597 -0.018601419 0.082800001
-0.36846468 -0.018601419 0.082800001
-0.36766338 -0.018601419 0.082800001
-0.36846468 -0.017800273 0.082800001
-0.36766338 -0.017800273 0.082800001
-0.36846468 -0.016598556 0.082800001
-0.36766338 -0.016598556 0.082800001
-0.3700673 -0.013794547 0.082800001
-0.36926597 -0.013794547 0.082800001
-0.37247118 -0.012192257 0.082800001
-0.37166989 -0.012192257 0.082800001
-0.37046796 -0.01259283 0.082800001
-0.36926597 -0.012993402 0.082800001
-0.37247118 -0.011391112 0.082800001
-0.37166989 -0.011391112 0.082800001
-0.37086859 -0.011391112 0.082800001
-0.37247118 -0.010589967 0.082800001
-0.37166989 -0.010589967 0.082800001
-0.37086859 -0.010589967 0.082800001
-0.37247118 -0.0097888215 0.082800001
-0.37166989 -0.0097888215 0.082800001
-0.37086859 -0.0097888215 0.082800001
-0.37247118 -0.0085871033 0.082800001
-0.37166989 -0.0085871033 0.082800001
-0.37086859 -0.0085871033 0.082800001
-0.37247118 -0.0073853862 0.082800001
-0.37166989 -0.0073853862 0.082800001
-0.37086859 -0.0073853862 0.082800001
-0.37407377 -0.0045813778 0.082800001
-0.37327248 -0.0045813778 0.082800001
-0.44458786 0.030268438 0.082800008
-0.44378656 0.030268438 0.082800008
-0.44298527 0.030268438 0.082800008
-0.44458786 0.031069584 0.082800008
-0.44378656 0.031069584 0.082800008
-0.44298527 0.031069584 0.082800008
-0.43417099 0.03187073 0.082800008
-0.4333697 0.03187073 0.082800008
-0.4325684 0.03187073 0.082800008
-0.43417099 0.032671873 0.082800008
-0.4333697 0.032671873 0.082800008
-0.4325684 0.032671873 0.082800008
-0.42856193 0.033473019 0.082800008
-0.42776063 0.033473019 0.082800008
-0.42856193 0.034274165 0.082800008
-0.42776063 0.034274165 0.082800008
-0.42856193 0.035075311 0.082800008
-0.42776063 0.035075311 0.082800008
-0.42535675 0.037478745 0.082800008
-0.42455545 0.037478745 0.082800008
-0.42535675 0.038279891 0.082800008
-0.42455545 0.038279891 0.082800008
-0.42135027 0.03948161 0.082800008
-0.42054898 0.03948161 0.082800008
-0.41974768 0.040683325 0.082800008
-0.41894639 0.040683325 0.082800008
-0.41974768 0.041484471 0.082800008
-0.41894639 0.041484471 0.082800008
-0.41814506 0.042285617 0.082800008
-0.41734377 0.042285617 0.082800008
-0.41814506 0.043487333 0.082800008
-0.41734377 0.043487333 0.082800008
-0.41654247 0.044689052 0.082800008
-0.41574118 0.044689052 0.082800008
-0.41654247 0.045490198 0.082800008
-0.41574118 0.045490198 0.082800008
-0.41453922 0.046291344 0.082800008
-0.41453922 0.047493059 0.082800008
-0.41453922 0.048694778 0.082800008
-0.41453922 0.054302793 0.082800008
-0.41453922 0.055103939 0.082800008
-0.41854572 0.057507377 0.082800008
-0.41734377 0.057507377 0.082800008
-0.41854572 0.058308519 0.082800008
-0.41734377 0.058308519 0.082800008
-0.42054898 0.059510238 0.082800008
-0.41974768 0.059510238 0.082800008
-0.41894639 0.059510238 0.082800008
-0.42535675 0.062314246 0.082800008
-0.42455545 0.062314246 0.082800008
-0.42936322 0.063916534 0.082800008
-0.42856193 0.063916534 0.082800008
-0.42776063 0.063916534 0.082800008
-0.42535675 0.063115388 0.082800008
-0.42455545 0.063115388 0.082800008
-0.42936322 0.06471768 0.082800008
-0.42856193 0.06471768 0.082800008
-0.42776063 0.06471768 0.082800008
-0.4325684 0.065518826 0.082800008
-0.42936322 0.065518826 0.082800008
-0.42856193 0.065518826 0.082800008
-0.42776063 0.065518826 0.082800008
-0.4325684 0.066319972 0.082800008
-0.43176711 0.066319972 0.082800008
-0.4325684 0.067121118 0.082800008
-0.43176711 0.067121118 0.082800008
-0.3911657 -0.040577248 0.083799995
-0.39036551 -0.040577248 0.083799995
-0.38956532 -0.040577248 0.083799995
-0.38716471 -0.03537694 0.083799995
-0.38636452 -0.03537694 0.083799995
-0.3855643 -0.03537694 0.083799995
-0.38716471 -0.034576893 0.083799995
-0.38636452 -0.034576893 0.083799995
-0.3855643 -0.034576893 0.083799995
-0.3855643 -0.033776846 0.083799995
-0.37956282 -0.028176511 0.083799988
-0.37956282 -0.027376462 0.083799988
-0.37676212 -0.026576415 0.083799988
-0.37596193 -0.026576415 0.083799988
-0.37676212 -0.025776366 0.083799988
-0.37596193 -0.025776366 0.083799988
-0.37116075 -0.020576056 0.083799988
-0.37036052 -0.020576056 0.083799988
-0.36956033 -0.017775889 0.083799988
-0.36876014 -0.017775889 0.083799988
-0.36956033 -0.016575819 0.083799988
-0.36876014 -0.016575819 0.083799988
-0.36956033 -0.015375747 0.083799988
-0.36876014 -0.015375747 0.083799988
-0.36956033 -0.014575699 0.083799988
-0.36876014 -0.014575699 0.083799988
-0.37356132 -0.0065752212 0.083799988
-0.37276113 -0.0065752212 0.083799988
-0.37356132 -0.0057751737 0.083799988
-0.37276113 -0.0057751737 0.083799988
-0.37556183 -0.0033750304 0.083799988
-0.37436152 -0.0033750304 0.083799988
-0.37556183 -0.0025749828 0.083799988
-0.37436152 -0.0025749828 0.083799988
-0.43517664 0.03182707 0.083799995
-0.43437645 0.03182707 0.083799995
-0.43517664 0.032627117 0.083799995
-0.43437645 0.032627117 0.083799995
-0.42957523 0.033427168 0.083799995
-0.42877504 0.033427168 0.083799995
-0.42957523 0.034227215 0.083799995
-0.42877504 0.034227215 0.083799995
-0.42957523 0.035027262 0.083799995
-0.42877504 0.035027262 0.083799995
-0.42317367 0.039427526 0.083799995
-0.42237344 0.039427526 0.083799995
-0.42157325 0.039427526 0.083799995
-0.41557175 0.046227928 0.083799995
-0.41557175 0.047027979 0.083799995
-0.41437146 0.04942812 0.083799995
-0.41357127 0.04942812 0.083799995
-0.41437146 0.050228167 0.083799995
-0.41357127 0.050228167 0.083799995
-0.41437146 0.051428244 0.083799995
-0.41357127 0.051428244 0.083799995
-0.41437146 0.052628312 0.083799995
-0.41357127 0.052628312 0.083799995
-0.41437146 0.053428359 0.083799995
-0.41357127 0.053428359 0.083799995
-0.41557175 0.055828504 0.083799995
-0.41557175 0.056628551 0.083799995
-0.42717466 0.062228885 0.083799995
-0.42637447 0.062228885 0.083799995
-0.42557424 0.062228885 0.083799995
-0.42717466 0.063028932 0.083799995
-0.42637447 0.063028932 0.083799995
-0.42557424 0.063028932 0.083799995
-0.43557674 0.067829221 0.083799995
-0.43437645 0.067829221 0.083799995
-0.43557674 0.068629265 0.083799995
-0.43437645 0.068629265 0.083799995
-0.37464708 -0.024542581 0.084799975
-0.37344846 -0.024542581 0.084799975
-0.3730489 -0.023344157 0.084799975
-0.37224978 -0.023344157 0.084799975
-0.37145069 -0.023344157 0.084799975
-0.3730489 -0.022545207 0.084799975
-0.37224978 -0.022545207 0.084799975
-0.37145069 -0.022545207 0.084799975
-0.3730489 -0.021746257 0.084799975
-0.37224978 -0.021746257 0.084799975
-0.37145069 -0.021746257 0.084799975
-0.37065157 -0.019349406 0.084799975
-0.36985248 -0.019349406 0.084799975
-0.37065157 -0.018550456 0.084799975
-0.36985248 -0.018550456 0.084799975
-0.37145069 -0.013756755 0.084799975
-0.37065157 -0.013756755 0.084799975
-0.36985248 -0.013756755 0.084799975
-0.37145069 -0.012957805 0.084799975
-0.37065157 -0.012957805 0.084799975
-0.36985248 -0.012957805 0.084799975
-0.3730489 -0.0081641031 0.084799975
-0.37224978 -0.0081641031 0.084799975
-0.3730489 -0.0073651527 0.084799975
-0.37224978 -0.0073651527 0.084799975
-0.43777609 0.031783413 0.084799983
-0.43777609 0.032582361 0.084799983
-0.43058416 0.033381313 0.084799983
-0.42978507 0.033381313 0.084799983
-0.43058416 0.034180265 0.084799983
-0.42978507 0.034180265 0.084799983
-0.42738777 0.035778165 0.084799983
-0.42658865 0.035778165 0.084799983
-0.42738777 0.036577113 0.084799983
-0.42658865 0.036577113 0.084799983
-0.42578956 0.037376065 0.084799983
-0.42499048 0.037376065 0.084799983
-0.42578956 0.038175013 0.084799983
-0.42499048 0.038175013 0.084799983
-0.42059541 0.040571865 0.084799983
-0.41939676 0.040571865 0.084799983
-0.42059541 0.041370817 0.084799983
-0.41939676 0.041370817 0.084799983
-0.4165999 0.044566616 0.084799983
-0.4165999 0.045365568 0.084799983
-0.42259315 0.060545623 0.084799983
-0.42179406 0.060545623 0.084799983
-0.42259315 0.061344571 0.084799983
-0.42179406 0.061344571 0.084799983
-0.42978507 0.063741423 0.084799983
-0.42898598 0.063741423 0.084799983
-0.42978507 0.064540371 0.084799983
-0.42898598 0.064540371 0.084799983
-0.43058416 0.065339327 0.084799983
-0.42978507 0.065339327 0.084799983
-0.42898598 0.065339327 0.084799983
-0.38929456 -0.039269146 0.08579997
-0.38849655 -0.039269146 0.08579997
-0.38929456 -0.038471293 0.08579997
-0.38849655 -0.038471293 0.08579997
-0.38929456 -0.03767344 0.08579997
-0.38849655 -0.03767344 0.08579997
-0.38610256 -0.033684175 0.08579997
-0.38530454 -0.033684175 0.08579997
-0.38610256 -0.032886326 0.08579997
-0.38530454 -0.032886326 0.08579997
-0.38450652 -0.032088473 0.08579997
-0.38370854 -0.032088473 0.08579997
-0.38291052 -0.032088473 0.085799962
-0.38450652 -0.031290621 0.08579997
-0.38370854 -0.031290621 0.08579997
-0.38291052 -0.031290621 0.085799962
-0.38211253 -0.030492766 0.085799962
-0.38131452 -0.030492766 0.085799962
-0.38211253 -0.029694913 0.085799962
-0.38131452 -0.029694913 0.085799962
-0.38211253 -0.02889706 0.085799962
-0.38131452 -0.02889706 0.085799962
-0.38051653 -0.028099207 0.085799962
-0.37971851 -0.028099207 0.085799962
-0.38051653 -0.027301354 0.085799962
-0.37971851 -0.027301354 0.085799962
-0.37732449 -0.026503501 0.085799962
-0.3765265 -0.026503501 0.085799962
-0.37732449 -0.025705649 0.085799962
-0.3765265 -0.025705649 0.085799962
-0.37572849 -0.024508869 0.085799962
-0.3749305 -0.024508869 0.085799962
-0.37014246 -0.017727122 0.085799962
-0.36934447 -0.017727122 0.085799962
-0.37014246 -0.016530342 0.085799962
-0.36934447 -0.016530342 0.085799962
-0.37014246 -0.015333563 0.085799962
-0.36934447 -0.015333563 0.085799962
-0.37014246 -0.01453571 0.085799962
-0.36934447 -0.01453571 0.085799962
-0.37253648 -0.012142153 0.085799962
-0.37173849 -0.012142153 0.085799962
-0.37253648 -0.0113443 0.085799962
-0.37173849 -0.0113443 0.085799962
-0.37253648 -0.010546447 0.085799962
-0.37173849 -0.010546447 0.085799962
-0.37253648 -0.0097485939 0.085799962
-0.37173849 -0.0097485939 0.085799962
-0.37253648 -0.008950741 0.085799962
-0.37173849 -0.008950741 0.085799962
-0.4443568 0.030542975 0.08579997
-0.44355878 0.030542975 0.08579997
-0.43877077 0.031739753 0.08579997
-0.43797278 0.031739753 0.08579997
-0.43637675 0.031739753 0.08579997
-0.43557876 0.031739753 0.08579997
-0.43478075 0.031739753 0.08579997
-0.43877077 0.032537606 0.08579997
-0.43797278 0.032537606 0.08579997
-0.43637675 0.032537606 0.08579997
-0.43557876 0.032537606 0.08579997
-0.43478075 0.032537606 0.08579997
-0.42360872 0.038920429 0.08579997
-0.4228107 0.038920429 0.08579997
-0.42360872 0.039718281 0.08579997
-0.4228107 0.039718281 0.08579997
-0.41802269 0.042510767 0.08579997
-0.41722468 0.042510767 0.08579997
-0.41802269 0.043707546 0.08579997
-0.41722468 0.043707546 0.08579997
-0.41443169 0.04769681 0.08579997
-0.41443169 0.048494663 0.08579997
-0.41443169 0.05447856 0.08579997
-0.42759871 0.062457085 0.08579997
-0.42680073 0.062457085 0.08579997
-0.43238676 0.06524957 0.08579997
-0.43158874 0.06524957 0.08579997
-0.43238676 0.066446349 0.08579997
-0.43158874 0.066446349 0.08579997
-0.38875908 -0.036426488 0.086800016
-0.38796216 -0.036426488 0.086800016
-0.38716525 -0.035231356 0.086800016
-0.38636836 -0.035231356 0.086800016
-0.38716525 -0.034434602 0.086800016
-0.38636836 -0.034434602 0.086800016
-0.38158691 -0.028060559 0.086800009
-0.38079002 -0.028060559 0.086800009
-0.38238382 -0.027263803 0.086800009
-0.38158691 -0.027263803 0.086800009
-0.38079002 -0.027263803 0.086800009
-0.37959465 -0.026467048 0.086800009
-0.37839928 -0.026467048 0.086800009
-0.3776024 -0.026467048 0.086800009
-0.37959465 -0.025670292 0.086800009
-0.37839928 -0.025670292 0.086800009
-0.3776024 -0.025670292 0.086800009
-0.37640703 -0.024475161 0.086800009
-0.37361786 -0.023280026 0.086800009
-0.37282094 -0.023280026 0.086800009
-0.37361786 -0.022483271 0.086800009
-0.37282094 -0.022483271 0.086800009
-0.37361786 -0.021686515 0.086800009
-0.37282094 -0.021686515 0.086800009
-0.37361786 -0.020491384 0.086800009
-0.37242252 -0.020491384 0.086800009
-0.37122715 -0.020491384 0.086800009
-0.37043023 -0.020491384 0.086800009
-0.37202406 -0.019296249 0.086800009
-0.37122715 -0.019296249 0.086800009
-0.37043023 -0.019296249 0.086800009
-0.37202406 -0.018499494 0.086800009
-0.37122715 -0.018499494 0.086800009
-0.37043023 -0.018499494 0.086800009
-0.37202406 -0.013718961 0.086800009
-0.37122715 -0.013718961 0.086800009
-0.37202406 -0.012922206 0.086800009
-0.37122715 -0.012922206 0.086800009
-0.37361786 -0.0065481625 0.086800009
-0.37282094 -0.0065481625 0.086800009
-0.37361786 -0.0057514072 0.086800009
-0.37282094 -0.0057514072 0.086800009
-0.37441477 -0.0045562745 0.086800009
-0.37361786 -0.0045562745 0.086800009
-0.37282094 -0.0045562745 0.086800009
-0.38557145 -0.00057249772 0.086800016
-0.38477454 -0.00057249772 0.086800016
-0.38557145 0.00062263536 0.086800016
-0.38477454 0.00062263536 0.086800016
-0.38557145 0.0014193907 0.086800016
-0.38477454 0.0014193907 0.086800016
-0.44215176 0.031696092 0.086800016
-0.44135484 0.031696092 0.086800016
-0.44055796 0.031696092 0.086800016
-0.43976104 0.031696092 0.086800016
-0.43896413 0.031696092 0.086800016
-0.44215176 0.03249285 0.086800016
-0.44135484 0.03249285 0.086800016
-0.44055796 0.03249285 0.086800016
-0.43976104 0.03249285 0.086800016
-0.43896413 0.03249285 0.086800016
-0.43179199 0.033289604 0.086800016
-0.43059662 0.033289604 0.086800016
-0.43179199 0.034086358 0.086800016
-0.43059662 0.034086358 0.086800016
-0.42740899 0.035679869 0.086800016
-0.42740899 0.036476627 0.086800016
-0.4214322 0.040460404 0.086800016
-0.42063531 0.040460404 0.086800016
-0.4214322 0.041257162 0.086800016
-0.42063531 0.041257162 0.086800016
-0.41943994 0.042452291 0.086800016
-0.41824457 0.042452291 0.086800016
-0.41943994 0.043647427 0.086800016
-0.41824457 0.043647427 0.086800016
-0.41824457 0.044444181 0.086800016
-0.41744769 0.044444181 0.086800016
-0.41665077 0.044444181 0.086800016
-0.41824457 0.045240939 0.086800016
-0.41744769 0.045240939 0.086800016
-0.41665077 0.045240939 0.086800016
-0.4154554 0.046436068 0.086800016
-0.41426006 0.049224712 0.086800016
-0.41346315 0.049224712 0.086800016
-0.41426006 0.050419845 0.086800016
-0.41346315 0.050419845 0.086800016
-0.41426006 0.051614981 0.086800016
-0.41346315 0.051614981 0.086800016
-0.41426006 0.052411735 0.086800016
-0.41346315 0.052411735 0.086800016
-0.41426006 0.053208489 0.086800016
-0.41346315 0.053208489 0.086800016
-0.41665077 0.055598758 0.086800016
-0.4154554 0.055598758 0.086800016
-0.41665077 0.056395512 0.086800016
-0.4154554 0.056395512 0.086800016
-0.41824457 0.057590645 0.086800016
-0.41744769 0.057590645 0.086800016
-0.41943994 0.058785778 0.086800016
-0.41943994 0.059582535 0.086800016
-0.42302603 0.060379289 0.086800016
-0.42222911 0.060379289 0.086800016
-0.42302603 0.061176043 0.086800016
-0.42222911 0.061176043 0.086800016
-0.43019816 0.063566312 0.086800016
-0.42940128 0.063566312 0.086800016
-0.43019816 0.064363062 0.086800016
-0.42940128 0.064363062 0.086800016
-0.38504034 -0.032000195 0.087800004
-0.38424453 -0.032000195 0.087800004
-0.38504034 -0.031204538 0.087800004
-0.38424453 -0.031204538 0.087800004
-0.38344872 -0.030408882 0.087799996
-0.38265291 -0.030408882 0.087799996
-0.38185713 -0.030408882 0.087799996
-0.38344872 -0.029613223 0.087799996
-0.38265291 -0.029613223 0.087799996
-0.38185713 -0.029613223 0.087799996
-0.38344872 -0.028817566 0.087799996
-0.38265291 -0.028817566 0.087799996
-0.38185713 -0.028419737 0.087799996
-0.37469485 -0.023247959 0.087799996
-0.37389904 -0.023247959 0.087799996
-0.37469485 -0.022452302 0.087799996
-0.37389904 -0.022452302 0.087799996
-0.37469485 -0.021656644 0.087799996
-0.37389904 -0.021656644 0.087799996
-0.37151161 -0.017678354 0.087799996
-0.3707158 -0.017678354 0.087799996
-0.36991999 -0.017678354 0.087799996
-0.37151161 -0.016484868 0.087799996
-0.3707158 -0.016484868 0.087799996
-0.36991999 -0.016484868 0.087799996
-0.37151161 -0.01529138 0.087799996
-0.3707158 -0.01529138 0.087799996
-0.36991999 -0.01529138 0.087799996
-0.37151161 -0.014495722 0.087799996
-0.3707158 -0.014495722 0.087799996
-0.36991999 -0.014495722 0.087799996
-0.37310323 -0.012108748 0.087799996
-0.37230742 -0.012108748 0.087799996
-0.37310323 -0.01131309 0.087799996
-0.37230742 -0.01131309 0.087799996
-0.37310323 -0.010517432 0.087799996
-0.37230742 -0.010517432 0.087799996
-0.37310323 -0.0097217746 0.087799996
-0.37230742 -0.0097217746 0.087799996
-0.37310323 -0.0085282885 0.087799996
-0.37230742 -0.0085282885 0.087799996
-0.37310323 -0.0073348014 0.087799996
-0.37230742 -0.0073348014 0.087799996
-0.44552177 0.03045895 0.087800004
-0.44472596 0.03045895 0.087800004
-0.44393015 0.03045895 0.087800004
-0.42403495 0.03881336 0.087800004
-0.42323914 0.03881336 0.087800004
-0.42403495 0.039609015 0.087800004
-0.42323914 0.039609015 0.087800004
-0.43358463 0.065467894 0.087800004
-0.43278885 0.065467894 0.087800004
-0.43199304 0.065467894 0.087800004
-0.43358463 0.066661388 0.087800004
-0.43278885 0.066661388 0.087800004
-0.43199304 0.066661388 0.087800004
-0.38927755 -0.039107099 0.088799991
-0.38848284 -0.039107099 0.088799991
-0.38927755 -0.038312539 0.088799991
-0.38848284 -0.038312539 0.088799991
-0.38927755 -0.03751798 0.088799991
-0.38848284 -0.03751798 0.088799991
-0.38768813 -0.035134301 0.088799991
-0.38689342 -0.035134301 0.088799991
-0.38768813 -0.034339741 0.088799991
-0.38689342 -0.034339741 0.088799991
-0.38609871 -0.033545181 0.088799991
-0.385304 -0.033545181 0.088799991
-0.38609871 -0.032750618 0.088799991
-0.385304 -0.032750618 0.088799991
-0.37735689 -0.024407733 0.088799983
-0.37656218 -0.024407733 0.088799983
-0.37258863 -0.019243091 0.088799983
-0.37179393 -0.019243091 0.088799983
-0.37258863 -0.018448532 0.088799983
-0.37179393 -0.018448532 0.088799983
-0.37457541 -0.0065301238 0.088799983
-0.37338334 -0.0065301238 0.088799983
-0.37417805 -0.0057355631 0.088799983
-0.37338334 -0.0057355631 0.088799983
-0.38649607 -0.00057092059 0.088799991
-0.385304 -0.00057092059 0.088799991
-0.38649607 0.00062092009 0.088799991
-0.385304 0.00062092009 0.088799991
-0.38649607 0.0014154805 0.088799991
-0.385304 0.0014154805 0.088799991
-0.43219191 0.033595178 0.088799991
-0.4313972 0.033595178 0.088799991
-0.43219191 0.034787018 0.088799991
-0.42901307 0.034787018 0.088799991
-0.42821836 0.034787018 0.088799991
-0.42742366 0.034787018 0.088799991
-0.42901307 0.035581578 0.088799991
-0.42821836 0.035581578 0.088799991
-0.42742366 0.035581578 0.088799991
-0.42901307 0.036376141 0.088799991
-0.42821836 0.036376141 0.088799991
-0.42742366 0.036376141 0.088799991
-0.42503953 0.037567981 0.088799991
-0.42424482 0.037567981 0.088799991
-0.42146331 0.040348943 0.088799991
-0.42146331 0.041143503 0.088799991
-0.41470829 0.047499988 0.088799991
-0.41391358 0.047499988 0.088799991
-0.41470829 0.048294548 0.088799991
-0.41391358 0.048294548 0.088799991
-0.415503 0.05345919 0.088799991
-0.41470829 0.05345919 0.088799991
-0.41391358 0.05345919 0.088799991
-0.415503 0.054651033 0.088799991
-0.41470829 0.054651033 0.088799991
-0.41391358 0.054651033 0.088799991
-0.41709241 0.055445593 0.088799991
-0.4162977 0.055445593 0.088799991
-0.41709241 0.056240153 0.088799991
-0.4162977 0.056240153 0.088799991
-0.42027125 0.058623835 0.088799991
-0.41947654 0.058623835 0.088799991
-0.42027125 0.059418395 0.088799991
-0.41947654 0.059418395 0.088799991
-0.42742366 0.061802074 0.088799991
-0.42662895 0.061802074 0.088799991
-0.42742366 0.062596634 0.088799991
-0.42662895 0.062596634 0.088799991
-0.38873985 -0.036672696 0.089799978
-0.38794625 -0.036672696 0.089799978
-0.38873985 -0.035879236 0.089799978
-0.38794625 -0.035879236 0.089799978
-0.38715264 -0.033498846 0.089799978
-0.38635904 -0.033498846 0.089799978
-0.38715264 -0.032705382 0.089799978
-0.38635904 -0.032705382 0.089799978
-0.3835814 -0.030324994 0.08979997
-0.3835814 -0.029531531 0.08979997
-0.3835814 -0.028738068 0.08979997
-0.38239095 -0.027547874 0.08979997
-0.38159734 -0.027547874 0.08979997
-0.38040692 -0.026357679 0.08979997
-0.37921649 -0.026357679 0.08979997
-0.38040692 -0.025564216 0.08979997
-0.37921649 -0.025564216 0.08979997
-0.37842289 -0.024770753 0.08979997
-0.37762928 -0.024770753 0.08979997
-0.37842289 -0.023977291 0.08979997
-0.37762928 -0.023977291 0.08979997
-0.37643886 -0.023183826 0.08979997
-0.37524843 -0.023183826 0.08979997
-0.37445483 -0.023183826 0.08979997
-0.37643886 -0.022390364 0.08979997
-0.37524843 -0.022390364 0.08979997
-0.37445483 -0.022390364 0.08979997
-0.37366122 -0.020406708 0.08979997
-0.37286761 -0.020406708 0.08979997
-0.37207398 -0.017629586 0.08979997
-0.37128037 -0.017629586 0.08979997
-0.37207398 -0.016836124 0.08979997
-0.37128037 -0.016836124 0.08979997
-0.37207398 -0.013662271 0.08979997
-0.37128037 -0.013662271 0.08979997
-0.37207398 -0.012868809 0.08979997
-0.37128037 -0.012868809 0.08979997
-0.37366122 -0.0096949562 0.08979997
-0.37286761 -0.0096949562 0.08979997
-0.37366122 -0.0085047614 0.08979997
-0.37286761 -0.0085047614 0.08979997
-0.37366122 -0.0073145675 0.08979997
-0.37286761 -0.0073145675 0.08979997
-0.38754943 -0.00057013205 0.089799978
-0.38754946 0.0006200624 0.089799978
-0.38754946 0.0014135254 0.089799978
-0.44151509 0.031565119 0.089799978
-0.44151509 0.032358583 0.089799978
-0.43635663 0.033548776 0.089799978
-0.43556303 0.033548776 0.089799978
-0.43476939 0.033548776 0.089799978
-0.43357897 0.033548776 0.089799978
-0.43238857 0.033548776 0.089799978
-0.43318218 0.034738969 0.089799978
-0.43238857 0.034738969 0.089799978
-0.43040454 0.034738969 0.089799978
-0.42921412 0.034738969 0.089799978
-0.43040454 0.035532434 0.089799978
-0.42921412 0.035532434 0.089799978
-0.43040454 0.036325898 0.089799978
-0.42921412 0.036325898 0.089799978
-0.43000773 0.037119363 0.089799978
-0.42643648 0.037516095 0.089799978
-0.42524606 0.037516095 0.089799978
-0.41969076 0.041880138 0.089799978
-0.41889715 0.041880138 0.089799978
-0.41969076 0.042673603 0.089799978
-0.41889715 0.042673603 0.089799978
-0.41969076 0.043467067 0.089799978
-0.41889715 0.043467067 0.089799978
-0.41810355 0.044260528 0.089799978
-0.41730991 0.044260528 0.089799978
-0.41810355 0.045053992 0.089799978
-0.41730991 0.045053992 0.089799978
-0.4165163 0.045847453 0.089799978
-0.4157227 0.045847453 0.089799978
-0.41492909 0.045847453 0.089799978
-0.4165163 0.046640918 0.089799978
-0.4157227 0.046640918 0.089799978
-0.41492909 0.046640918 0.089799978
-0.41440001 0.049550284 0.089799978
-0.41334185 0.04941804 0.089799978
-0.41453227 0.050608233 0.089799978
-0.41334185 0.050608233 0.089799978
-0.41453227 0.051401697 0.089799978
-0.41334185 0.051401697 0.089799978
-0.41453227 0.052195158 0.089799978
-0.41334185 0.052195158 0.089799978
-0.41810355 0.056955937 0.089799978
-0.41730991 0.056955937 0.089799978
-0.41810355 0.057749398 0.089799978
-0.41730991 0.057749398 0.089799978
-0.42365882 0.06052652 0.089799978
-0.42246839 0.06052652 0.089799978
-0.43000773 0.063303642 0.089799978
-0.42921412 0.063303642 0.089799978
-0.43000773 0.064097106 0.089799978
-0.42921412 0.064097106 0.089799978
-0.3897872 -0.040583804 0.090799965
-0.38899469 -0.040583804 0.090799965
-0.3897872 -0.039791439 0.090799965
-0.38899469 -0.039791439 0.090799965
-0.38820216 -0.035037242 0.090799965
-0.38740966 -0.035037242 0.090799965
-0.38820216 -0.034244876 0.090799965
-0.38740966 -0.034244876 0.090799965
-0.38503212 -0.031471599 0.090799965
-0.38423958 -0.031471599 0.090799965
-0.38344708 -0.027509771 0.090799958
-0.38265458 -0.027509771 0.090799958
-0.38146579 -0.026321223 0.090799958
-0.38146579 -0.025528857 0.090799958
-0.37472942 -0.02156703 0.090799958
-0.37393689 -0.02156703 0.090799958
-0.37472942 -0.020774664 0.090799958
-0.37393689 -0.020774664 0.090799958
-0.37472942 -0.019982299 0.090799958
-0.37354064 -0.019586116 0.090799958
-0.37235188 -0.019189933 0.090799958
-0.37314439 -0.018397568 0.090799958
-0.37235188 -0.018397568 0.090799958
-0.37155935 -0.016020471 0.090799958
-0.37076685 -0.016020471 0.090799958
-0.37155935 -0.015228106 0.090799958
-0.37076685 -0.015228106 0.090799958
-0.37155935 -0.01443574 0.090799958
-0.37076685 -0.01443574 0.090799958
-0.37314439 -0.012058644 0.090799958
-0.37235188 -0.012058644 0.090799958
-0.37314439 -0.011266278 0.090799958
-0.37235188 -0.011266278 0.090799958
-0.37314439 -0.010473913 0.090799958
-0.37235188 -0.010473913 0.090799958
-0.38859844 -0.00056934345 0.090799965
-0.38859844 0.00061920483 0.090799965
-0.3897872 0.0014115705 0.090799965
-0.38859844 0.0014115705 0.090799965
-0.43813062 0.033502378 0.090799965
-0.43733811 0.033502378 0.090799965
-0.43654561 0.033502378 0.090799965
-0.4234691 0.038652748 0.090799965
-0.4234691 0.039445113 0.090799965
-0.42228034 0.040237479 0.090799965
-0.42148781 0.040237479 0.090799965
-0.42228034 0.041029844 0.090799965
-0.42148781 0.041029844 0.090799965
-0.41554394 0.047368769 0.090799965
-0.41435519 0.047368769 0.090799965
-0.41554394 0.048161134 0.090799965
-0.41435519 0.048557319 0.090799965
-0.4206953 0.058461886 0.090799965
-0.41990277 0.058461886 0.090799965
-0.4206953 0.059254251 0.090799965
-0.41990277 0.059254251 0.090799965
-0.42465788 0.060442798 0.090799965
-0.42386535 0.060442798 0.090799965
-0.42743167 0.061631348 0.090799965
-0.42743167 0.062423714 0.090799965
-0.39003873 -0.03815379 0.091800012
-0.38924733 -0.038549423 0.091800012
-0.3884559 -0.038549423 0.091800012
-0.39003873 -0.037362523 0.091800012
-0.38924733 -0.037362523 0.091800012
-0.3884559 -0.037362523 0.091800012
-0.37975031 -0.02470223 0.091800004
-0.3785632 -0.02470223 0.091800004
-0.37975031 -0.023910962 0.091800004
-0.3785632 -0.023910962 0.091800004
-0.37500182 -0.0057117976 0.091800004
-0.37421039 -0.0057117976 0.091800004
-0.37341899 -0.0057117976 0.091800004
-0.37500182 -0.0045248955 0.091800004
-0.37421039 -0.0045248955 0.091800004
-0.37341899 -0.0045248955 0.091800004
-0.44227231 0.031477802 0.091800012
-0.44148088 0.031477802 0.091800012
-0.44227231 0.032269072 0.091800012
-0.44148088 0.032269072 0.091800012
-0.43910661 0.033455972 0.091800012
-0.43831521 0.033455972 0.091800012
-0.4280268 0.037412308 0.091800012
-0.42723536 0.037412308 0.091800012
-0.42644393 0.037412308 0.091800012
-0.42011261 0.041764285 0.091800012
-0.41932118 0.041764285 0.091800012
-0.42011261 0.042555552 0.091800012
-0.41932118 0.042555552 0.091800012
-0.41852978 0.044533722 0.091800012
-0.41773835 0.044533722 0.091800012
-0.41655123 0.045720626 0.091800012
-0.41655123 0.046511892 0.091800012
-0.41536412 0.048885696 0.091800012
-0.41457269 0.048885696 0.091800012
-0.41536412 0.049676966 0.091800012
-0.41457269 0.049676966 0.091800012
-0.41536412 0.052842036 0.091800012
-0.41457269 0.052842036 0.091800012
-0.41536412 0.053633306 0.091800012
-0.41457269 0.053633306 0.091800012
-0.41536412 0.054424573 0.091800012
-0.41457269 0.054424573 0.091800012
-0.41655123 0.055215843 0.091800012
-0.41852978 0.05679838 0.091800012
-0.41773835 0.05679838 0.091800012
-0.41655123 0.05600711 0.091800012
-0.41852978 0.057589646 0.091800012
-0.41773835 0.057589646 0.091800012
-0.43277529 0.064711057 0.091800012
-0.43198386 0.064711057 0.091800012
-0.43277529 0.065502323 0.091800012
-0.43198386 0.065502323 0.091800012
-0.43277529 0.066293597 0.091800012
-0.43198386 0.066293597 0.091800012
-0.38712683 -0.033359844 0.092799999
-0.38633651 -0.033359844 0.092799999
-0.38712683 -0.032569677 0.092799999
-0.38633651 -0.032569677 0.092799999
-0.3835704 -0.030199163 0.092799991
-0.3835704 -0.029408993 0.092799991
-0.3835704 -0.028618822 0.092799991
-0.37764299 -0.023087628 0.092799991
-0.37645751 -0.023087628 0.092799991
-0.37764299 -0.022297457 0.092799991
-0.37645751 -0.022297457 0.092799991
-0.37527204 -0.021507287 0.092799991
-0.37448171 -0.021507287 0.092799991
-0.37527204 -0.020717116 0.092799991
-0.37448171 -0.020717116 0.092799991
-0.37527204 -0.019926945 0.092799991
-0.37448171 -0.019926945 0.092799991
-0.37369141 -0.019136775 0.092799991
-0.37290108 -0.019136775 0.092799991
-0.37369141 -0.018346604 0.092799991
-0.37290108 -0.018346604 0.092799991
-0.37211075 -0.017556434 0.092799991
-0.37132046 -0.017556434 0.092799991
-0.37211075 -0.016766263 0.092799991
-0.37132046 -0.016766263 0.092799991
-0.37211075 -0.015581007 0.092799991
-0.37132046 -0.015581007 0.092799991
-0.37211075 -0.014395751 0.092799991
-0.37132046 -0.014395751 0.092799991
-0.37211075 -0.013605581 0.092799991
-0.37132046 -0.013605581 0.092799991
-0.37211075 -0.01281541 0.092799991
-0.37132046 -0.01281541 0.092799991
-0.38949779 -0.00056776631 0.092799999
-0.38870749 -0.00056776631 0.092799999
-0.38949779 0.00061748957 0.092799999
-0.38870749 0.00061748957 0.092799999
-0.41478804 0.050398238 0.092799999
-0.41399771 0.050398238 0.092799999
-0.41478804 0.051583491 0.092799999
-0.41399771 0.051583491 0.092799999
-0.39053527 -0.040415172 0.093799986
-0.38974604 -0.040415172 0.093799986
-0.38895682 -0.040415172 0.093799986
-0.39053527 -0.039626099 0.093799986
-0.38974604 -0.039626099 0.093799986
-0.38895682 -0.039626099 0.093799986
-0.38895682 -0.038837027 0.093799986
-0.3885622 -0.036469806 0.093799986
-0.38737836 -0.036469806 0.093799986
-0.3885622 -0.035680734 0.093799986
-0.38737836 -0.035680734 0.093799986
-0.3885622 -0.034497123 0.093799986
-0.38737836 -0.034497119 0.093799986
-0.38501072 -0.031735368 0.093799986
-0.38422149 -0.031735368 0.093799986
-0.38501072 -0.030551758 0.093799986
-0.38422149 -0.030551758 0.093799986
-0.38501072 -0.029368147 0.093799986
-0.38422149 -0.029368147 0.093799986
-0.38501072 -0.028579073 0.093799986
-0.38422149 -0.028579073 0.093799986
-0.38343227 -0.027395464 0.093799978
-0.38264304 -0.027395464 0.093799978
-0.38145921 -0.026211854 0.093799978
-0.38145921 -0.025422782 0.093799978
-0.38027537 -0.024633707 0.093799978
-0.37948614 -0.024633707 0.093799978
-0.38027537 -0.023844635 0.093799978
-0.37948614 -0.023844635 0.093799978
-0.37869692 -0.023055561 0.093799978
-0.37790772 -0.023055561 0.093799978
-0.37869692 -0.022266489 0.093799978
-0.37790772 -0.022266489 0.093799978
-0.37475082 -0.019110195 0.093799978
-0.3739616 -0.019110195 0.093799978
-0.37554005 -0.018321123 0.093799978
-0.37475082 -0.018321123 0.093799978
-0.3739616 -0.018321123 0.093799978
-0.37317237 -0.017532051 0.093799978
-0.37238315 -0.017532051 0.093799978
-0.37317237 -0.016742978 0.093799978
-0.37238315 -0.016742978 0.093799978
-0.37317237 -0.013586685 0.093799978
-0.37238315 -0.013586685 0.093799978
-0.37343547 -0.012271562 0.093799978
-0.37238315 -0.012403075 0.093799978
-0.37356699 -0.011219465 0.093799978
-0.37238315 -0.011219465 0.093799978
-0.37356699 -0.010430393 0.093799978
-0.37238315 -0.010430393 0.093799978
-0.37356699 -0.0096413195 0.093799978
-0.37238315 -0.0096413195 0.093799978
-0.37356699 -0.0084577091 0.093799978
-0.37238315 -0.0084577091 0.093799978
-0.37356699 -0.0072740992 0.093799978
-0.37238315 -0.0072740992 0.093799978
-0.44459698 0.02981234 0.093799986
-0.44341314 0.02981234 0.093799986
-0.44459698 0.030601412 0.093799986
-0.44341314 0.030601412 0.093799986
-0.43946704 0.032968633 0.093799986
-0.43867782 0.032968633 0.093799986
-0.43946704 0.033757705 0.093799986
-0.43867782 0.033757705 0.093799986
-0.43473169 0.034546778 0.093799986
-0.43354788 0.034546778 0.093799986
-0.43236405 0.034546778 0.093799986
-0.43157482 0.034546778 0.093799986
-0.43473169 0.03533585 0.093799986
-0.43354788 0.03533585 0.093799986
-0.43236405 0.03533585 0.093799986
-0.43157482 0.03533585 0.093799986
-0.43473169 0.036124922 0.093799986
-0.43354788 0.036124922 0.093799986
-0.43236405 0.036124922 0.093799986
-0.43157482 0.036124922 0.093799986
-0.42447183 0.038492143 0.093799986
-0.4236826 0.038492143 0.093799986
-0.42289338 0.038492143 0.093799986
-0.42447183 0.039281216 0.093799986
-0.4236826 0.039281216 0.093799986
-0.42289338 0.039281216 0.093799986
-0.42249876 0.040464826 0.093799986
-0.42131492 0.040464826 0.093799986
-0.4205257 0.041648433 0.093799986
-0.41973647 0.041648433 0.093799986
-0.4205257 0.042437509 0.093799986
-0.41973647 0.042437509 0.093799986
-0.41855264 0.043226581 0.093799986
-0.41855264 0.044410191 0.093799986
-0.41736883 0.045593798 0.093799986
-0.4165796 0.045593798 0.093799986
-0.41736883 0.046382874 0.093799986
-0.4165796 0.046382874 0.093799986
-0.41539577 0.047566481 0.093799986
-0.41539577 0.052695457 0.093799986
-0.41539577 0.053484533 0.093799986
-0.41539577 0.054273605 0.093799986
-0.41736883 0.055457212 0.093799986
-0.4165796 0.055457212 0.093799986
-0.41973647 0.056640822 0.093799986
-0.41855264 0.056640822 0.093799986
-0.41973647 0.057429899 0.093799986
-0.41855264 0.057429899 0.093799986
-0.42131492 0.058218971 0.093799986
-0.4205257 0.058218971 0.093799986
-0.41973647 0.058218971 0.093799986
-0.42447183 0.059797116 0.093799986
-0.4236826 0.059797116 0.093799986
-0.42131492 0.059008043 0.093799986
-0.4205257 0.059008043 0.093799986
-0.41973647 0.059008043 0.093799986
-0.42447183 0.060586188 0.093799986
-0.4236826 0.060586188 0.093799986
-0.42841792 0.061375264 0.093799986
-0.4276287 0.061375264 0.093799986
-0.42683947 0.061375264 0.093799986
-0.42960176 0.062953413 0.093799986
-0.42841792 0.062558874 0.093799986
-0.4276287 0.062164336 0.093799986
-0.42683947 0.062164336 0.093799986
-0.42960176 0.063742481 0.093799986
-0.42841792 0.063742481 0.093799986
-0.37659398 -0.021447543 0.094799966
-0.37541181 -0.021447543 0.094799966
-0.37659398 -0.020659568 0.094799966
-0.37541181 -0.020659568 0.094799966
-0.37659398 -0.019871593 0.094799966
-0.37528047 -0.019608935 0.094799966
-0.37265337 -0.015537727 0.094799966
-0.37186524 -0.015537727 0.094799966
-0.37265337 -0.014355764 0.094799966
-0.37186524 -0.014355764 0.094799966
-0.44240236 0.031346828 0.094799973
-0.44122019 0.031346828 0.094799973
-0.44240236 0.032134801 0.094799973
-0.44122019 0.032134801 0.094799973
-0.43570331 0.034498729 0.094799973
-0.43491518 0.034498729 0.094799973
-0.43570331 0.035286706 0.094799973
-0.43491518 0.035286706 0.094799973
-0.42545769 0.038438607 0.094799973
-0.42466956 0.038438607 0.094799973
-0.42545769 0.03922658 0.094799973
-0.42466956 0.03922658 0.094799973
-0.41521206 0.048682291 0.094799973
-0.41442394 0.048682291 0.094799973
-0.41521206 0.049470264 0.094799973
-0.41442394 0.049470264 0.094799973
-0.41521206 0.050258242 0.094799973
-0.41442394 0.050258242 0.094799973
-0.41521206 0.051440205 0.094799973
-0.41442394 0.051440205 0.094799973
-0.38944891 -0.038728997 0.09580002
-0.38866189 -0.038728997 0.09580002
-0.38944891 -0.03754868 0.09580002
-0.38866189 -0.03754868 0.09580002
-0.38748136 -0.033220846 0.09580002
-0.3863008 -0.033220846 0.09580002
-0.38748136 -0.032433968 0.09580002
-0.3863008 -0.032433968 0.09580002
-0.3863008 -0.03164709 0.09580002
-0.38551378 -0.03164709 0.09580002
-0.38472676 -0.03164709 0.09580002
-0.3863008 -0.030860214 0.09580002
-0.38551378 -0.030860214 0.09580002
-0.38472676 -0.030860214 0.09580002
-0.38354623 -0.027712701 0.095800012
-0.38354623 -0.026925823 0.095800012
-0.38236567 -0.026138945 0.095800012
-0.38157865 -0.026138945 0.095800012
-0.38236567 -0.025352066 0.095800012
-0.38157865 -0.025352066 0.095800012
-0.38039809 -0.024565188 0.095800012
-0.38039809 -0.02377831 0.095800012
-0.37528244 -0.0044997917 0.095800012
-0.37449542 -0.0044997917 0.095800012
-0.37370837 -0.0044997917 0.095800012
-0.39102298 -0.00017196151 0.09580002
-0.39023593 -0.00056540064 0.09580002
-0.38944891 -0.00056540064 0.09580002
-0.38866189 -0.00056540064 0.09580002
-0.39102298 0.00061491673 0.09580002
-0.39023593 0.00061491673 0.09580002
-0.38944891 0.00061491673 0.09580002
-0.38866189 0.00061491673 0.09580002
-0.44611484 0.029729411 0.09580002
-0.44532782 0.029729411 0.09580002
-0.4445408 0.029729411 0.09580002
-0.44611484 0.030516289 0.09580002
-0.44532782 0.030516289 0.09580002
-0.4445408 0.030516289 0.09580002
-0.43667054 0.03445068 0.09580002
-0.43588349 0.03445068 0.09580002
-0.43667054 0.035237558 0.09580002
-0.43588349 0.035237558 0.09580002
-0.42840675 0.036811315 0.09580002
-0.42722622 0.036811315 0.09580002
-0.42840675 0.037598193 0.09580002
-0.42722622 0.037598193 0.09580002
-0.41620782 0.04743417 0.09580002
-0.4154208 0.04743417 0.09580002
-0.41620782 0.052548878 0.09580002
-0.4154208 0.052548878 0.09580002
-0.41620782 0.053335756 0.09580002
-0.4154208 0.053335756 0.09580002
-0.41620782 0.054122634 0.09580002
-0.4154208 0.054122634 0.09580002
-0.42171702 0.058450464 0.09580002
-0.42093 0.058450464 0.09580002
-0.39047763 -0.040246543 0.096800007
-0.38969171 -0.040246543 0.096800007
-0.39047763 -0.03946076 0.096800007
-0.38969171 -0.03946076 0.096800007
-0.38851282 -0.036317639 0.096800007
-0.38851282 -0.035531856 0.096800007
-0.38576207 -0.030031392 0.096800007
-0.38458318 -0.030031392 0.096800007
-0.38576207 -0.029245611 0.096800007
-0.38458318 -0.029245611 0.096800007
-0.38576207 -0.02845983 0.096800007
-0.38458318 -0.02845983 0.096800007
-0.37868869 -0.022566475 0.096799999
-0.37790278 -0.022566475 0.096799999
-0.37711683 -0.021387802 0.096799999
-0.37633091 -0.021387802 0.096799999
-0.37711683 -0.020602023 0.096799999
-0.37633091 -0.020602023 0.096799999
-0.37711683 -0.019816242 0.096799999
-0.37633091 -0.019816242 0.096799999
-0.375545 -0.019030461 0.096799999
-0.37475905 -0.019030461 0.096799999
-0.375545 -0.01824468 0.096799999
-0.37475905 -0.01824468 0.096799999
-0.37358016 -0.017458899 0.096799999
-0.37240127 -0.017458899 0.096799999
-0.37358016 -0.016673118 0.096799999
-0.37240127 -0.016673118 0.096799999
-0.37358016 -0.015494446 0.096799999
-0.37240127 -0.015494446 0.096799999
-0.37358016 -0.014315776 0.096799999
-0.37240127 -0.014315776 0.096799999
-0.37358016 -0.013529995 0.096799999
-0.37240127 -0.013529995 0.096799999
-0.37358016 -0.012744213 0.096799999
-0.37240127 -0.012744213 0.096799999
-0.37358016 -0.011565542 0.096799999
-0.37358016 -0.010386871 0.096799999
-0.37358016 -0.0096010901 0.096799999
-0.37358016 -0.0084224204 0.096799999
-0.37358016 -0.0072437488 0.096799999
-0.37358016 -0.0064579681 0.096799999
-0.37358016 -0.0056721871 0.096799999
-0.43920526 0.032831069 0.096800007
-0.43841931 0.032831069 0.096800007
-0.43920526 0.033616852 0.096800007
-0.43841931 0.033616852 0.096800007
-0.42270073 0.039903097 0.096800007
-0.42191482 0.039903097 0.096800007
-0.42270073 0.040688876 0.096800007
-0.42191482 0.040688876 0.096800007
-0.42112887 0.041474659 0.096800007
-0.42034295 0.041474659 0.096800007
-0.41955701 0.041474659 0.096800007
-0.42112887 0.042260438 0.096800007
-0.42034295 0.042260438 0.096800007
-0.41955701 0.042260438 0.096800007
-0.41877109 0.043439113 0.096800007
-0.41798517 0.043439113 0.096800007
-0.41877109 0.044617783 0.096800007
-0.41798517 0.044617783 0.096800007
-0.41719922 0.045403562 0.096800007
-0.41641331 0.045403562 0.096800007
-0.41719922 0.046189342 0.096800007
-0.41641331 0.046189342 0.096800007
-0.41562736 0.048546687 0.096800007
-0.41484144 0.048546687 0.096800007
-0.41562736 0.049332466 0.096800007
-0.41484144 0.049332466 0.096800007
-0.41562736 0.050511137 0.096800007
-0.41484144 0.050511137 0.096800007
-0.41562736 0.051689807 0.096800007
-0.41484144 0.051689807 0.096800007
-0.4175922 0.054832932 0.096800007
-0.41641331 0.054832932 0.096800007
-0.4175922 0.055618711 0.096800007
-0.41641331 0.055618711 0.096800007
-0.41955701 0.056404494 0.096800007
-0.41877109 0.056404494 0.096800007
-0.41955701 0.057190273 0.096800007
-0.41877109 0.057190273 0.096800007
-0.4242726 0.059547614 0.096800007
-0.42348665 0.059547614 0.096800007
-0.4242726 0.060333397 0.096800007
-0.42348665 0.060333397 0.096800007
-0.42977411 0.062690742 0.096800007
-0.42898816 0.062690742 0.096800007
-0.42977411 0.063476518 0.096800007
-0.42898816 0.063476518 0.096800007
-0.43134594 0.064262301 0.096800007
-0.43056002 0.064262301 0.096800007
-0.43134594 0.065440968 0.096800007
