# .PCD v0.7 - Point Cloud Data file format
VERSION 0.7
FIELDS x y z
SIZE 4 4 4
TYPE F F F
COUNT 1 1 1
WIDTH 403
HEIGHT 1
VIEWPOINT 0 0 0 1 0 0 0
POINTS 403
DATA ascii
0.11635014 -0.064444192 0.01080024
0.11723047 -0.064444192 0.010800241
0.12867475 -0.064444192 0.01080027
0.12955506 -0.064444192 0.010800273
0.13043539 -0.064444192 0.010800275
0.13131572 -0.064444192 0.010800277
0.11635014 -0.063564032 0.01080024
0.11723047 -0.063564032 0.010800241
0.12867475 -0.063564032 0.01080027
0.12955506 -0.063564032 0.010800273
0.13043539 -0.063564032 0.010800275
0.13131572 -0.063564032 0.010800277
0.11370917 -0.062683865 0.010800233
0.1145895 -0.062683865 0.010800235
0.11546982 -0.062683865 0.010800237
0.11370917 -0.061803706 0.010800233
0.1145895 -0.061803706 0.010800235
0.11546982 -0.061803706 0.010800237
0.13219605 -0.061803706 0.01080028
0.13307638 -0.061803706 0.010800282
0.13219605 -0.060483463 0.01080028
0.13307638 -0.060483463 0.010800282
0.13219605 -0.059163217 0.01080028
0.13307638 -0.059163217 0.010800282
0.11194851 -0.058283057 0.010800228
0.11282884 -0.058283057 0.01080023
0.13219605 -0.058283057 0.01080028
0.13307638 -0.058283057 0.010800282
0.11194851 -0.057402894 0.010800228
0.11282884 -0.057402894 0.01080023
0.13219605 -0.057402894 0.01080028
0.13307638 -0.057402894 0.010800282
0.11194851 -0.056522731 0.010800228
0.11282884 -0.056522731 0.01080023
0.13219605 -0.056522731 0.01080028
0.13307638 -0.056522731 0.010800282
0.11194851 -0.055642568 0.010800228
0.11282884 -0.055642568 0.01080023
0.13219605 -0.055642568 0.01080028
0.13307638 -0.055642568 0.010800282
0.11018785 -0.054762408 0.010800224
0.11150834 -0.054762408 0.010800228
0.11282884 -0.054762408 0.01080023
0.13219605 -0.054762408 0.01080028
0.13307638 -0.054762408 0.010800282
0.11018785 -0.053442165 0.010800224
0.11150834 -0.053442165 0.010800228
0.11282884 -0.053442165 0.01080023
0.13219605 -0.053442165 0.01080028
0.13307638 -0.053442165 0.010800282
0.11194851 -0.052121919 0.010800228
0.11282884 -0.052121919 0.01080023
0.13043539 -0.052121919 0.010800275
0.13131572 -0.052121919 0.010800277
0.13219605 -0.052121919 0.01080028
0.13307638 -0.052121919 0.010800282
0.11194851 -0.051241759 0.010800228
0.11282884 -0.051241759 0.01080023
0.13043539 -0.051241759 0.010800275
0.13131572 -0.051241759 0.010800277
0.13219605 -0.051241759 0.01080028
0.13307638 -0.051241759 0.010800282
0.11194851 -0.050361596 0.010800228
0.11282884 -0.050361596 0.01080023
0.11370917 -0.050361596 0.010800233
0.1145895 -0.050361596 0.010800235
0.11546982 -0.050361596 0.010800237
0.11635014 -0.050361596 0.01080024
0.11723047 -0.050361596 0.010800241
0.12075179 -0.050361596 0.010800251
0.13043539 -0.050361596 0.010800275
0.13131572 -0.050361596 0.010800277
0.13219605 -0.050361596 0.01080028
0.13307638 -0.050361596 0.010800282
0.11194851 -0.049481433 0.010800228
0.11282884 -0.049481433 0.01080023
0.11370917 -0.049481433 0.010800233
0.1145895 -0.049481433 0.010800235
0.11546982 -0.049481433 0.010800237
0.11635014 -0.049481433 0.01080024
0.11723047 -0.049481433 0.010800241
0.12075179 -0.049481433 0.010800251
0.12779441 -0.049481433 0.010800269
0.12867475 -0.049481433 0.01080027
0.12955506 -0.049481433 0.010800273
0.13043539 -0.049481433 0.010800275
0.13131572 -0.049481433 0.010800277
0.11546982 -0.04860127 0.010800237
0.11635014 -0.04860127 0.01080024
0.11723047 -0.04860127 0.010800241
0.12075179 -0.04860127 0.010800251
0.12779441 -0.04860127 0.010800269
0.12867475 -0.04860127 0.01080027
0.12955506 -0.04860127 0.010800273
0.13043539 -0.04860127 0.010800275
0.13131572 -0.04860127 0.010800277
0.11855097 -0.04772111 0.010800245
0.11987147 -0.04772111 0.010800248
0.12075179 -0.04772111 0.010800251
0.12163212 -0.04772111 0.010800253
0.12251244 -0.04772111 0.010800255
0.12339278 -0.04772111 0.010800257
0.12427311 -0.04772111 0.010800259
0.12515342 -0.04772111 0.010800262
0.12647392 -0.04772111 0.010800265
0.12779441 -0.04772111 0.010800269
0.12867475 -0.04772111 0.01080027
0.12955506 -0.04772111 0.010800273
0.11855097 -0.046840947 0.010800245
0.11987147 -0.046840947 0.010800248
0.12075179 -0.046840947 0.010800251
0.12163212 -0.046840947 0.010800253
0.12251244 -0.046840947 0.010800255
0.12339278 -0.046840947 0.010800257
0.12427311 -0.046840947 0.010800259
0.12515342 -0.046840947 0.010800262
0.12647392 -0.046840947 0.010800265
0.12779441 -0.046840947 0.010800269
0.12867475 -0.046840947 0.01080027
0.12955506 -0.046840947 0.010800273
0.11796354 -0.064363837 0.01180023
0.11884277 -0.064363837 0.011800233
0.119722 -0.064363837 0.011800235
0.12060124 -0.064363837 0.011800237
0.12148046 -0.064363837 0.01180024
0.12235969 -0.064363837 0.011800242
0.12323892 -0.064363837 0.011800244
0.12455777 -0.064363837 0.011800247
0.12587661 -0.064363837 0.011800251
0.12675583 -0.064363837 0.011800253
0.12763506 -0.064363837 0.011800255
0.11796354 -0.063484773 0.01180023
0.11884277 -0.063484773 0.011800233
0.119722 -0.063484773 0.011800235
0.12060124 -0.063484773 0.011800237
0.12148046 -0.063484773 0.01180024
0.12235969 -0.063484773 0.011800242
0.12323892 -0.063484773 0.011800244
0.12455777 -0.063484773 0.011800247
0.12587661 -0.063484773 0.011800251
0.12675583 -0.063484773 0.011800253
0.12763506 -0.063484773 0.011800255
0.11620507 -0.062605709 0.011800226
0.11752392 -0.062605709 0.01180023
0.11884277 -0.062605709 0.011800233
0.119722 -0.062605709 0.011800235
0.12060124 -0.062605709 0.011800237
0.12148046 -0.062605709 0.01180024
0.12235969 -0.062605709 0.011800242
0.1285143 -0.062605709 0.011800257
0.12939353 -0.062605709 0.011800259
0.13027276 -0.062605709 0.011800262
0.13115199 -0.062605709 0.011800264
0.11620507 -0.061726645 0.011800226
0.11752392 -0.061726645 0.01180023
0.11884277 -0.061726645 0.011800233
0.119722 -0.061726645 0.011800235
0.12060124 -0.061726645 0.011800237
0.12148046 -0.061726645 0.01180024
0.12235969 -0.061726645 0.011800242
0.1285143 -0.061726645 0.011800257
0.12939353 -0.061726645 0.011800259
0.13027276 -0.061726645 0.011800262
0.13115199 -0.061726645 0.011800264
0.11356738 -0.060847577 0.011800219
0.11444662 -0.060847577 0.011800222
0.11532585 -0.060847577 0.011800224
0.11620507 -0.060847577 0.011800226
0.11752392 -0.060847577 0.01180023
0.11884277 -0.060847577 0.011800233
0.119722 -0.060847577 0.011800235
0.12060124 -0.060847577 0.011800237
0.12148046 -0.060847577 0.01180024
0.12235969 -0.060847577 0.011800242
0.1285143 -0.060847577 0.011800257
0.12939353 -0.060847577 0.011800259
0.13027276 -0.060847577 0.011800262
0.13115199 -0.060847577 0.011800264
0.11356738 -0.05952898 0.011800219
0.11444662 -0.05952898 0.011800222
0.11532585 -0.05952898 0.011800224
0.11620507 -0.05952898 0.011800226
0.11708432 -0.05952898 0.011800229
0.13027276 -0.05952898 0.011800262
0.13115199 -0.05952898 0.011800264
0.11356738 -0.058210384 0.011800219
0.11444662 -0.058210384 0.011800222
0.13027276 -0.058210384 0.011800262
0.13115199 -0.058210384 0.011800264
0.11356738 -0.05733132 0.011800219
0.11444662 -0.05733132 0.011800222
0.13027276 -0.05733132 0.011800262
0.13115199 -0.05733132 0.011800264
0.11356738 -0.056452256 0.011800219
0.11444662 -0.056452256 0.011800222
0.13027276 -0.056452256 0.011800262
0.13115199 -0.056452256 0.011800264
0.11356738 -0.055573188 0.011800219
0.11444662 -0.055573188 0.011800222
0.13027276 -0.055573188 0.011800262
0.13115199 -0.055573188 0.011800264
0.11356738 -0.054694124 0.011800219
0.11444662 -0.054694124 0.011800222
0.13027276 -0.054694124 0.011800262
0.13115199 -0.054694124 0.011800264
0.11356738 -0.053815059 0.011800219
0.11444662 -0.053815059 0.011800222
0.13027276 -0.053815059 0.011800262
0.13115199 -0.053815059 0.011800264
0.11356738 -0.052496463 0.011800219
0.11444662 -0.052496463 0.011800222
0.11532585 -0.052056931 0.011800224
0.11620507 -0.052056931 0.011800226
0.11708432 -0.052056931 0.011800229
0.12763506 -0.052056931 0.011800255
0.1285143 -0.052056931 0.011800257
0.12939353 -0.052056931 0.011800259
0.13027276 -0.052935995 0.011800262
0.13115199 -0.052935995 0.011800264
0.11356738 -0.051177867 0.011800219
0.11444662 -0.051177867 0.011800222
0.11532585 -0.051177867 0.011800224
0.11620507 -0.051177867 0.011800226
0.11708432 -0.051177867 0.011800229
0.12763506 -0.051177867 0.011800255
0.1285143 -0.051177867 0.011800257
0.12939353 -0.051177867 0.011800259
0.11796354 -0.050298799 0.01180023
0.11884277 -0.050298799 0.011800233
0.119722 -0.050298799 0.011800235
0.12148046 -0.050298799 0.01180024
0.12235969 -0.050298799 0.011800242
0.12323892 -0.050298799 0.011800244
0.12455777 -0.050298799 0.011800247
0.12587661 -0.050298799 0.011800251
0.12675583 -0.050298799 0.011800253
0.12763506 -0.050298799 0.011800255
0.1285143 -0.050298799 0.011800257
0.12939353 -0.050298799 0.011800259
0.11796354 -0.049419735 0.01180023
0.11884277 -0.049419735 0.011800233
0.119722 -0.049419735 0.011800235
0.12148046 -0.049419735 0.01180024
0.12235969 -0.049419735 0.011800242
0.12323892 -0.049419735 0.011800244
0.12455777 -0.049419735 0.011800247
0.12587661 -0.049419735 0.011800251
0.12675583 -0.049419735 0.011800253
0.11796354 -0.04854067 0.01180023
0.11884277 -0.04854067 0.011800233
0.119722 -0.04854067 0.011800235
0.12148046 -0.04854067 0.01180024
0.12235969 -0.04854067 0.011800242
0.12323892 -0.04854067 0.011800244
0.12455777 -0.04854067 0.011800247
0.12587661 -0.04854067 0.011800251
0.12675583 -0.04854067 0.011800253
0.12352413 -0.062527545 0.012800291
0.12484132 -0.062527545 0.012800295
0.12571946 -0.062527545 0.012800297
0.1265976 -0.062527545 0.0128003
0.12747572 -0.062527545 0.012800301
0.12352413 -0.06164958 0.012800291
0.12484132 -0.06164958 0.012800295
0.12571946 -0.06164958 0.012800297
0.1265976 -0.06164958 0.0128003
0.12747572 -0.06164958 0.012800301
0.12352413 -0.060771614 0.012800291
0.12484132 -0.060771614 0.012800295
0.12571946 -0.060771614 0.012800297
0.1265976 -0.060771614 0.0128003
0.12747572 -0.060771614 0.012800301
0.11781627 -0.059454665 0.012800277
0.11869439 -0.059454665 0.012800279
0.11957253 -0.059454665 0.012800281
0.12045065 -0.059454665 0.012800284
0.12132879 -0.059454665 0.012800286
0.12220693 -0.059454665 0.012800288
0.12352413 -0.059454661 0.012800291
0.12484132 -0.059454665 0.012800295
0.12571946 -0.059454665 0.012800297
0.1265976 -0.059454665 0.0128003
0.12747572 -0.059454665 0.012800301
0.12835386 -0.059454665 0.012800303
0.12923199 -0.059454665 0.012800306
0.11518186 -0.058137711 0.012800271
0.11649907 -0.058137711 0.012800273
0.11781627 -0.058137711 0.012800277
0.11869439 -0.058137711 0.012800279
0.11957253 -0.058137711 0.012800281
0.12045065 -0.058137711 0.012800284
0.12132879 -0.058137711 0.012800286
0.12220693 -0.058137711 0.012800288
0.12352413 -0.058137711 0.012800291
0.12484132 -0.058137711 0.012800295
0.12571946 -0.058137711 0.012800297
0.1265976 -0.058137711 0.0128003
0.12747572 -0.058137711 0.012800301
0.12835386 -0.058137711 0.012800303
0.12923199 -0.058137711 0.012800306
0.11518186 -0.057259742 0.012800271
0.11649907 -0.057259742 0.012800273
0.11781627 -0.057259742 0.012800277
0.11869439 -0.057259742 0.012800279
0.11957253 -0.057259742 0.012800281
0.12045065 -0.057259742 0.012800284
0.12132879 -0.057259742 0.012800286
0.12220693 -0.057259742 0.012800288
0.12352413 -0.057259742 0.012800291
0.12484132 -0.057259742 0.012800295
0.12571946 -0.057259742 0.012800297
0.1265976 -0.057259742 0.0128003
0.12747572 -0.057259742 0.012800301
0.12835386 -0.057259742 0.012800303
0.12923199 -0.057259742 0.012800306
0.11518186 -0.056381777 0.012800271
0.11649907 -0.056381777 0.012800273
0.11781627 -0.056381777 0.012800277
0.11869439 -0.056381777 0.012800279
0.11957253 -0.056381777 0.012800281
0.12045065 -0.056381777 0.012800284
0.12132879 -0.056381777 0.012800286
0.12220693 -0.056381777 0.012800288
0.12835386 -0.056381777 0.012800303
0.12923199 -0.056381777 0.012800306
0.11518186 -0.055503808 0.012800271
0.11649907 -0.055503808 0.012800273
0.11781627 -0.055503808 0.012800277
0.11869439 -0.055503808 0.012800279
0.11957253 -0.055503808 0.012800281
0.12045065 -0.055503808 0.012800284
0.12132879 -0.055503808 0.012800286
0.12220693 -0.055503808 0.012800288
0.12835386 -0.055503808 0.012800303
0.12923199 -0.055503808 0.012800306
0.11518186 -0.054625843 0.012800271
0.11649907 -0.054625843 0.012800273
0.11781627 -0.054625843 0.012800277
0.11869439 -0.054625843 0.012800279
0.11957253 -0.054625843 0.012800281
0.12045065 -0.054625843 0.012800284
0.12132879 -0.054625843 0.012800286
0.12220693 -0.054625843 0.012800288
0.12835386 -0.054625843 0.012800303
0.12923199 -0.054625843 0.012800306
0.11518186 -0.053747874 0.012800271
0.11649907 -0.053747874 0.012800273
0.11781627 -0.053747874 0.012800277
0.11869439 -0.053747874 0.012800279
0.11957253 -0.053747874 0.012800281
0.12045065 -0.053747874 0.012800284
0.12132879 -0.053747874 0.012800286
0.12220693 -0.053747874 0.012800288
0.12352413 -0.053747874 0.012800291
0.12484132 -0.053747874 0.012800295
0.12571946 -0.053747874 0.012800297
0.1265976 -0.053747874 0.0128003
0.12747572 -0.053747874 0.012800301
0.12835386 -0.053747874 0.012800303
0.12923199 -0.053747874 0.012800306
0.11518186 -0.052869909 0.012800271
0.11649907 -0.052869909 0.012800273
0.11781627 -0.052869909 0.012800277
0.11869439 -0.052869909 0.012800279
0.11957253 -0.052869909 0.012800281
0.12045065 -0.052869909 0.012800284
0.12132879 -0.052869909 0.012800286
0.12220693 -0.052869909 0.012800288
0.12352413 -0.052869909 0.012800291
0.12484132 -0.052869909 0.012800295
0.12571946 -0.052869909 0.012800297
0.1265976 -0.052869909 0.0128003
0.12747572 -0.052869909 0.012800301
0.12835386 -0.052869909 0.012800303
0.12923199 -0.052869909 0.012800306
0.11781627 -0.051552959 0.012800277
0.11869439 -0.051552959 0.012800279
0.11957253 -0.051552959 0.012800281
0.12045065 -0.051552959 0.012800284
0.12132879 -0.051552959 0.012800286
0.12220693 -0.051552959 0.012800288
0.12352413 -0.051552959 0.012800291
0.12484132 -0.051552959 0.012800295
0.12571946 -0.051552959 0.012800297
0.1265976 -0.051552959 0.0128003
0.1229312 -0.056311298 0.013800277
0.12380823 -0.056311298 0.013800279
0.12468528 -0.056311298 0.013800281
0.12556231 -0.056311298 0.013800284
0.12643935 -0.056311298 0.013800286
0.12731637 -0.056311298 0.013800289
0.1229312 -0.055434428 0.013800277
0.12380823 -0.055434428 0.013800279
0.12468528 -0.055434428 0.013800281
0.12556231 -0.055434428 0.013800284
0.12643935 -0.055434428 0.013800286
0.12731637 -0.055434428 0.013800289
0.1229312 -0.054557558 0.013800277
0.12380823 -0.054557558 0.013800279
0.12468528 -0.054557558 0.013800281
0.12556231 -0.054557558 0.013800284
0.12643935 -0.054557558 0.013800286
0.12731637 -0.054557558 0.013800289
