# .PCD v0.7 - Point Cloud Data file format
VERSION 0.7
FIELDS x y z rgb
SIZE 4 4 4 4
TYPE F F F U
COUNT 1 1 1 1
WIDTH 1044
HEIGHT 1
VIEWPOINT 0 0 0 1 0 0 0
POINTS 1044
DATA ascii
0.32476938 -0.16596188 0.017800797 4287992202
0.32389674 -0.16596188 0.017800795 4288255374
0.32261777 -0.16575311 0.018800778 4288321680
0.32174623 -0.16575311 0.018800776 4288716438
0.32047054 -0.16554436 0.01980076 4288716186
0.31960011 -0.16554436 0.019800758 4288387221
0.31872964 -0.16554436 0.019800756 4288058003
0.316589 -0.1653356 0.020800738 4287597452
0.31571963 -0.1653356 0.020800736 4287136901
0.3148503 -0.1653356 0.020800734 4287202181
0.31556672 -0.16617063 0.016800728 4286873216
0.31469297 -0.16617063 0.016800724 4286872446
0.31500196 -0.16679691 0.013800764 4286740860
0.31412494 -0.16679691 0.013800762 4286675320
0.31324789 -0.16679691 0.01380076 4286675320
0.31354371 -0.16742317 0.01080074 4286675318
0.31266338 -0.16742317 0.010800737 4286741111
0.33555192 -0.16654301 0.010800795 4286346092
0.33467159 -0.16654301 0.010800793 4286280299
0.33254269 -0.16592003 0.013800808 4286740850
0.33166564 -0.16592003 0.013800806 4286872436
0.32996061 -0.16550471 0.015800776 4286938229
0.3290858 -0.16550471 0.015800774 4287465088
0.32615185 -0.16446641 0.020800762 4287794053
0.32528251 -0.16446641 0.02080076 4287992202
0.32441315 -0.16446641 0.020800758 4287860616
0.32272679 -0.1640511 0.022800786 4288386960
0.32185966 -0.1640511 0.022800785 4288452753
0.3209925 -0.1640511 0.022800783 4288387219
0.316589 -0.16446641 0.020800738 4287465866
0.31571963 -0.16446641 0.020800736 4287334280
0.3148503 -0.16446641 0.020800734 4287202181
0.31556672 -0.16529706 0.016800728 4286939009
0.31469297 -0.16529706 0.016800724 4286675837
0.31500196 -0.16592003 0.013800764 4286939009
0.31412494 -0.16592003 0.013800762 4286939262
0.31324789 -0.16592003 0.01380076 4287070848
0.31354371 -0.16654301 0.01080074 4287136639
0.31266338 -0.16654301 0.010800737 4287070846
0.33555192 -0.16566285 0.010800795 4286280299
0.33467159 -0.16566285 0.010800793 4286675057
0.33254269 -0.16504316 0.013800808 4286740850
0.33166564 -0.16504316 0.013800806 4286807158
0.32996061 -0.16463004 0.015800776 4287004537
0.3290858 -0.16463004 0.015800774 4287530627
0.32615185 -0.16359723 0.020800762 4287793799
0.32528251 -0.16359723 0.02080076 4288123534
0.32441315 -0.16359723 0.020800758 4288255120
0.32272679 -0.16318411 0.022800786 4288452499
0.32185966 -0.16318411 0.022800785 4288518292
0.3209925 -0.16318411 0.022800783 4288387219
0.316589 -0.16359723 0.020800738 4287465866
0.31571963 -0.16359723 0.020800736 4287531659
0.3148503 -0.16359723 0.020800734 4287334280
0.31556672 -0.16442348 0.016800728 4287136901
0.31469297 -0.16442348 0.016800724 4287070595
0.31500196 -0.16504316 0.013800764 4286939009
0.31412494 -0.16504316 0.013800762 4287070848
0.31324789 -0.16504316 0.01380076 4287399813
0.31354371 -0.16566285 0.01080074 4287465604
0.31266338 -0.16566285 0.010800737 4287334018
0.33471513 -0.16437176 0.012800827 4286346605
0.333837 -0.16437176 0.012800825 4286609777
0.3321265 -0.16396083 0.014800794 4286741363
0.33125055 -0.16396083 0.014800793 4286872697
0.3287186 -0.16313897 0.018800793 4287333248
0.32784706 -0.16313897 0.018800791 4287926157
0.32532826 -0.16231711 0.022800794 4287991950
0.3244611 -0.16231711 0.022800792 4287991948
0.32359394 -0.16231711 0.022800788 4288518292
0.32150126 -0.16170071 0.025800746 4288518292
0.3206374 -0.16170071 0.025800742 4288518292
0.31896088 -0.16128978 0.027800772 4288453014
0.3180992 -0.16128978 0.02780077 4288453014
0.31723756 -0.16128978 0.027800769 4288256152
0.31637588 -0.16128978 0.027800767 4288190359
0.31551421 -0.16128978 0.027800763 4288190359
0.31545421 -0.16170071 0.025800729 4287927187
0.31459033 -0.16170071 0.025800727 4287861647
0.31532103 -0.16252257 0.021800781 4287730061
0.31445277 -0.16252257 0.021800779 4287531912
0.31517029 -0.16334443 0.017800773 4287466119
0.31429765 -0.16334443 0.017800771 4287137154
0.313425 -0.16334443 0.017800769 4287071361
0.31412494 -0.1641663 0.013800762 4287070848
0.31324789 -0.1641663 0.01380076 4287399813
0.31354371 -0.16478269 0.01080074 4287465604
0.31266338 -0.16478269 0.010800737 4287465604
0.33471513 -0.1634938 0.012800827 4286807156
0.333837 -0.1634938 0.012800825 4286741363
0.3321265 -0.16308506 0.014800794 4287004535
0.33125055 -0.16308506 0.014800793 4287070846
0.3287186 -0.16226758 0.018800793 4287399811
0.32784706 -0.16226758 0.018800791 4287926155
0.32532826 -0.16145012 0.022800794 4288123534
0.3244611 -0.16145012 0.022800792 4288123534
0.32359394 -0.16145012 0.022800788 4288386706
0.32150126 -0.16083701 0.025800746 4288320915
0.3206374 -0.16083701 0.025800742 4288320915
0.31896088 -0.16042829 0.027800772 4288453014
0.3180992 -0.16042829 0.02780077 4288321428
0.31723756 -0.16042829 0.027800769 4288189589
0.31637588 -0.16042829 0.027800767 4287992210
0.31551421 -0.16042829 0.027800763 4288255382
0.31545421 -0.16083701 0.025800729 4287597452
0.31459033 -0.16083701 0.025800727 4287465353
0.31532103 -0.16165449 0.021800781 4287333767
0.31445277 -0.16165449 0.021800779 4287004802
0.31517029 -0.16247195 0.017800773 4287070595
0.31429765 -0.16247195 0.017800771 4287136641
0.313425 -0.16247195 0.017800769 4287202434
0.31412494 -0.16328943 0.013800762 4287137154
0.31324789 -0.16328943 0.01380076 4287071361
0.31354371 -0.16390252 0.01080074 4287071361
0.31266338 -0.16390252 0.010800737 4287268740
0.33429676 -0.16241255 0.013800813 4287070328
0.33341971 -0.16241255 0.013800811 4287070330
0.33171031 -0.16200602 0.01580078 4287267709
0.33083546 -0.16200602 0.015800778 4287399813
0.32830459 -0.16119294 0.01980078 4287597192
0.32743415 -0.16119294 0.019800778 4287991950
0.32409284 -0.15997331 0.025800752 4288057743
0.32322899 -0.15997331 0.02580075 4288320915
0.32236511 -0.15997331 0.025800748 4288386708
0.32027572 -0.15936351 0.028800763 4288452501
0.31941515 -0.15936351 0.028800761 4288123536
0.31855458 -0.15936351 0.028800759 4288452761
0.31769401 -0.15936351 0.028800756 4288189589
0.31683344 -0.15936351 0.028800754 4287860624
0.31597286 -0.15936351 0.028800752 4287794831
0.31511229 -0.15936351 0.02880075 4287860624
0.3150534 -0.15977004 0.026800776 4287531659
0.31419063 -0.15977004 0.026800774 4287333767
0.31532103 -0.16078639 0.021800781 4286939009
0.31445277 -0.16078639 0.021800779 4287004802
0.31517029 -0.16159947 0.017800773 4287202181
0.31429765 -0.16159947 0.017800771 4287268487
0.313425 -0.16159947 0.017800769 4287465866
0.31412494 -0.16241255 0.013800762 4287531912
0.31324789 -0.16241255 0.01380076 4287400326
0.31354371 -0.16302237 0.01080074 4287531912
0.31266338 -0.16302237 0.010800737 4287531912
0.33429676 -0.16153568 0.013800813 4287267455
0.33341971 -0.16153568 0.013800811 4287334018
0.33171031 -0.16113134 0.01580078 4287334018
0.33083546 -0.16113134 0.015800778 4287662985
0.32830459 -0.16032265 0.01980078 4287794571
0.32743415 -0.16032265 0.019800778 4288057743
0.32409284 -0.15910961 0.025800752 4288255122
0.32322899 -0.15910961 0.02580075 4288386708
0.32236511 -0.15910961 0.025800748 4288518294
0.32027572 -0.1585031 0.028800763 4288189842
0.31941515 -0.1585031 0.028800761 4288189842
0.31855458 -0.1585031 0.028800759 4288255382
0.31769401 -0.1585031 0.028800756 4288255382
0.31683344 -0.1585031 0.028800754 4287860624
0.31597286 -0.1585031 0.028800752 4287992210
0.31511229 -0.1585031 0.02880075 4287860624
0.3150534 -0.15890744 0.026800776 4287729038
0.31419063 -0.15890744 0.026800774 4287597705
0.31604293 -0.16072699 0.017800774 4287334533
0.31517029 -0.16072699 0.017800773 4287400326
0.31429765 -0.16072699 0.017800771 4287401096
0.313425 -0.16072699 0.017800769 4287598475
0.31412494 -0.16153568 0.013800762 4287730061
0.31324789 -0.16153568 0.01380076 4287598475
0.31354371 -0.1621422 0.01080074 4287401096
0.31266338 -0.1621422 0.010800737 4287401096
0.33819291 -0.16126204 0.010800802 4286412398
0.33731258 -0.16126204 0.010800799 4286807156
0.33643225 -0.16126204 0.010800797 4287005053
0.33429676 -0.16065882 0.013800813 4287136639
0.33341971 -0.16065882 0.013800811 4287268740
0.3308779 -0.15985452 0.017800812 4287334533
0.33000526 -0.15985452 0.01780081 4287531912
0.32747656 -0.15905021 0.021800812 4287729291
0.32660833 -0.15905021 0.02180081 4288123536
0.32368106 -0.15804484 0.026800798 4288452501
0.32281828 -0.15804484 0.026800795 4288584087
0.32195553 -0.15804484 0.026800793 4288584087
0.32027572 -0.15764269 0.028800763 4288387221
0.31941515 -0.15764269 0.028800761 4288255635
0.31814826 -0.15744162 0.029800745 4288189589
0.31728879 -0.15744162 0.029800743 4288321175
0.31642932 -0.15744162 0.029800741 4288058003
0.31597286 -0.15764269 0.028800752 4288058003
0.31511229 -0.15764269 0.02880075 4287860877
0.3150534 -0.15804484 0.026800776 4287860877
0.31419063 -0.15804484 0.026800774 4287992463
0.31604293 -0.15985452 0.017800774 4287531912
0.31517029 -0.15985452 0.017800773 4287466119
0.31429765 -0.15985452 0.017800771 4287401096
0.313425 -0.15985452 0.017800769 4287598475
0.31412494 -0.16065882 0.013800762 4287598732
0.31324789 -0.16065882 0.01380076 4287532939
0.31315279 -0.16106096 0.011800725 4287532939
0.31227353 -0.16106096 0.011800723 4287401353
-0.38895839 -0.16126204 0.010798958 4278716424
-0.38983873 -0.16126204 0.010798956 4278716424
-0.39071906 -0.16126204 0.010798953 4278716424
0.33819291 -0.16038188 0.010800802 4286412400
0.33731258 -0.16038188 0.010800799 4286872951
0.33643225 -0.16038188 0.010800797 4287005055
0.33429676 -0.15978195 0.013800813 4287136641
0.33341971 -0.15978195 0.013800811 4287137154
0.3308779 -0.15898204 0.017800812 4287334533
0.33000526 -0.15898204 0.01780081 4287531912
0.32747656 -0.15818213 0.021800812 4287860877
0.32660833 -0.15818213 0.02180081 4288255122
0.32368106 -0.15718223 0.026800798 4288452501
0.32281828 -0.15718223 0.026800795 4288649880
0.32195553 -0.15718223 0.026800793 4288781466
0.32027572 -0.15678228 0.028800763 4288453014
0.31941515 -0.15678228 0.028800761 4288387221
0.31814826 -0.1565823 0.029800745 4288321175
0.31728879 -0.1565823 0.029800743 4288321175
0.31642932 -0.1565823 0.029800741 4288189589
0.31597286 -0.15678228 0.028800752 4287860624
0.31511229 -0.15678228 0.02880075 4287860877
0.31545421 -0.15738222 0.025800729 4288518807
0.31459033 -0.15738222 0.025800727 4288518807
0.31604293 -0.15898204 0.017800774 4287795084
0.31517029 -0.15898204 0.017800773 4287597705
0.31429765 -0.15898204 0.017800771 4287269510
0.313425 -0.15898204 0.017800769 4287401096
0.31412494 -0.15978195 0.013800762 4287335303
0.31324789 -0.15978195 0.01380076 4287401096
0.31315279 -0.16018189 0.011800725 4287466636
0.31227353 -0.16018189 0.011800723 4287466636
-0.38895839 -0.16038188 0.010798958 4278716424
-0.38983873 -0.16038188 0.010798956 4278584838
-0.39071906 -0.16038188 0.010798953 4278584838
0.33819291 -0.15950172 0.010800802 4286544756
0.33731258 -0.15950172 0.010800799 4286873721
0.33643225 -0.15950172 0.010800797 4287005053
0.33429676 -0.15890507 0.013800813 4287005053
0.33341971 -0.15890507 0.013800811 4287005053
0.3308779 -0.15810956 0.017800812 4287005053
0.33000526 -0.15810956 0.01780081 4287399811
0.32747656 -0.15731403 0.021800812 4287926155
0.32660833 -0.15731403 0.02180081 4288189840
0.32368106 -0.15631963 0.026800798 4288321426
0.32281828 -0.15631963 0.026800795 4288255635
0.32195553 -0.15631963 0.026800793 4288321428
0.32027572 -0.15592188 0.028800763 4288189842
0.31941515 -0.15592188 0.028800761 4288189842
0.31814826 -0.15572299 0.029800745 4287926670
0.31728879 -0.15572299 0.029800743 4287597705
0.31642932 -0.15572299 0.029800741 4287400073
0.31597286 -0.15592188 0.028800752 4287531659
0.31511229 -0.15592188 0.02880075 4287597192
0.31545421 -0.15651852 0.025800729 4287991950
0.31459033 -0.15651852 0.025800727 4287860364
0.31571963 -0.15751292 0.020800736 4287860364
0.3148503 -0.15751292 0.020800734 4287400326
0.31517029 -0.15810956 0.017800773 4287137154
0.31429765 -0.15810956 0.017800771 4287071361
0.313425 -0.15810956 0.017800769 4287137154
0.31412494 -0.15890507 0.013800762 4286940545
0.31324789 -0.15890507 0.01380076 4286940545
0.31315279 -0.15930283 0.011800725 4287401096
0.31227353 -0.15930283 0.011800723 4287335303
-0.38895839 -0.15950172 0.010798958 4278782470
-0.38983873 -0.15950172 0.010798956 4278716677
-0.39071906 -0.15950172 0.010798953 4278782470
0.33429676 -0.1580282 0.013800813 4287071100
0.33341971 -0.1580282 0.013800811 4287005307
0.33129409 -0.15743485 0.016800767 4287071100
0.33042035 -0.15743485 0.016800765 4287399811
0.32789057 -0.15664373 0.020800766 4287926155
0.32702121 -0.15664373 0.020800764 4287926155
0.32409284 -0.15565482 0.025800752 4287662983
0.32322899 -0.15565482 0.02580075 4287597190
0.32236511 -0.15565482 0.025800748 4287136639
0.32027572 -0.15506147 0.028800763 4286676090
0.31941515 -0.15506147 0.028800761 4287465606
0.31855458 -0.15506147 0.028800759 4287465606
0.31769401 -0.15506147 0.028800756 4286873469
0.31683344 -0.15506147 0.028800754 4286676090
0.31637588 -0.15525925 0.027800767 4286939262
0.31551421 -0.15525925 0.027800763 4287070078
0.31545421 -0.15565482 0.025800729 4287070078
0.31459033 -0.15565482 0.025800727 4287135871
0.31571963 -0.15664373 0.020800736 4287267457
0.3148503 -0.15664373 0.020800734 4287201664
0.31556672 -0.15743485 0.016800728 4287135871
0.31469297 -0.15743485 0.016800724 4287005055
0.31381923 -0.15743485 0.016800722 4287136641
0.31412494 -0.1580282 0.013800762 4287136641
0.31324789 -0.1580282 0.01380076 4287070848
0.31354371 -0.15862155 0.01080074 4287268740
0.31266338 -0.15862155 0.010800737 4287071361
-0.38895839 -0.15862155 0.010798958 4278848263
-0.38983873 -0.15862155 0.010798956 4278782470
-0.39071906 -0.15862155 0.010798953 4278848263
0.33429676 -0.15715134 0.013800813 4287071613
0.33341971 -0.15715134 0.013800811 4287071613
0.33129409 -0.15656129 0.016800767 4287268992
0.33042035 -0.15656129 0.016800765 4287597957
0.32789057 -0.15577453 0.020800766 4287861129
0.32702121 -0.15577453 0.020800764 4287926155
0.32409284 -0.15479112 0.025800752 4287662983
0.32322899 -0.15479112 0.02580075 4287202432
0.32236511 -0.15479112 0.025800748 4286873467
0.32027572 -0.15420106 0.028800763 4286741883
0.31941515 -0.15420106 0.028800761 4286873469
0.31855458 -0.15420106 0.028800759 4286939262
0.31769401 -0.15420106 0.028800756 4286741883
0.31683344 -0.15420106 0.028800754 4286676090
0.31637588 -0.15439774 0.027800767 4286873469
0.31551421 -0.15439774 0.027800763 4286676088
0.31545421 -0.15479112 0.025800729 4286741881
0.31459033 -0.15479112 0.025800727 4286806904
0.31571963 -0.15577453 0.020800736 4287004283
0.3148503 -0.15577453 0.020800734 4287135869
0.31556672 -0.15656129 0.016800728 4287070076
0.31469297 -0.15656129 0.016800724 4287070076
0.31381923 -0.15656129 0.016800722 4287135869
0.31412494 -0.15715134 0.013800762 4287201662
0.31324789 -0.15715134 0.01380076 4287004283
0.31354371 -0.1577414 0.01080074 4286873467
0.31266338 -0.1577414 0.010800737 4286610295
-0.38895839 -0.1577414 0.010798958 4278848263
-0.38983873 -0.1577414 0.010798956 4278914056
-0.39071906 -0.1577414 0.010798953 4278914056
0.33429676 -0.15627447 0.013800813 4287400324
0.33341971 -0.15627447 0.013800811 4287531910
0.3321265 -0.15607888 0.014800794 4287795082
0.33125055 -0.15607888 0.014800793 4287860875
0.32913262 -0.15549211 0.017800808 4287795082
0.32825997 -0.15549211 0.017800806 4287729289
0.32532826 -0.15451418 0.022800794 4287400324
0.3244611 -0.15451418 0.022800792 4287136639
0.32359394 -0.15451418 0.022800788 4287070846
0.32190976 -0.15412299 0.024800759 4287005053
0.3210448 -0.15412299 0.024800757 4286939260
0.31977352 -0.15392742 0.02580074 4286873467
0.31890967 -0.15392742 0.025800738 4286741881
0.31804579 -0.15392742 0.025800737 4286873467
0.31798798 -0.15431859 0.023800762 4286939260
0.31712192 -0.15431859 0.023800761 4287005053
0.31705752 -0.15470976 0.021800786 4287136639
0.31618926 -0.15470976 0.021800783 4286873467
0.31651697 -0.15529652 0.018800763 4286676088
0.3156454 -0.15529652 0.018800762 4286939260
0.31596318 -0.1558833 0.015800741 4286873467
0.31508833 -0.1558833 0.015800739 4286872697
0.31421351 -0.1558833 0.015800737 4286741111
0.31451806 -0.15647006 0.012800775 4286609525
0.31363994 -0.15647006 0.012800774 4286806904
-0.38895839 -0.15686123 0.010798958 4278913799
-0.38983873 -0.15686123 0.010798956 4279045385
-0.39071906 -0.15686123 0.010798953 4278979592
0.33471513 -0.15559208 0.012800827 4287466117
0.333837 -0.15559208 0.012800825 4287598473
0.3321265 -0.1552031 0.014800794 4287861645
0.33125055 -0.1552031 0.014800793 4288124817
0.32913262 -0.15461963 0.017800808 4288322196
0.32825997 -0.15461963 0.017800806 4288256403
0.32532826 -0.15364718 0.022800794 4287401094
0.3244611 -0.15364718 0.022800792 4287597703
0.32359394 -0.15364718 0.022800788 4287729289
0.32190976 -0.1532582 0.024800759 4287531910
0.3210448 -0.1532582 0.024800757 4287466117
0.31977352 -0.15306371 0.02580074 4287334531
0.31890967 -0.15306371 0.025800738 4287137152
0.31804579 -0.15306371 0.025800737 4287137152
0.31798798 -0.15345269 0.023800762 4287334531
0.31712192 -0.15345269 0.023800761 4287334785
0.31705752 -0.15384167 0.021800786 4287071613
0.31618926 -0.15384167 0.021800783 4286676342
0.31651697 -0.15442514 0.018800763 4286676342
0.3156454 -0.15442514 0.018800762 4286873721
0.31596318 -0.15500861 0.015800741 4286873721
0.31508833 -0.15500861 0.015800739 4286807158
0.31421351 -0.15500861 0.015800737 4286543986
0.31451806 -0.15559208 0.012800775 4286609266
0.31363994 -0.15559208 0.012800774 4286609266
-0.38895839 -0.15598106 0.010798958 4279111178
-0.38983873 -0.15598106 0.010798956 4279045385
-0.39071906 -0.15598106 0.010798953 4278979592
0.33471513 -0.15471412 0.012800827 4287531399
0.333837 -0.15471412 0.012800825 4287795082
0.3321265 -0.15432733 0.014800794 4288321426
0.33125055 -0.15432733 0.014800793 4288453782
0.32913262 -0.15374716 0.017800808 4288585368
0.32825997 -0.15374716 0.017800806 4288914333
0.32532826 -0.15278019 0.022800794 4288322196
0.3244611 -0.15278019 0.022800792 4287926668
0.32359394 -0.15278019 0.022800788 4287795082
0.32190976 -0.1523934 0.024800759 4287729289
0.3210448 -0.1523934 0.024800757 4287334531
0.31977352 -0.15220001 0.02580074 4287137152
0.31890967 -0.15220001 0.025800738 4287005566
0.31804579 -0.15220001 0.025800737 4287136893
0.31798798 -0.1525868 0.023800762 4287071100
0.31712192 -0.1525868 0.023800761 4287071100
0.3190617 -0.15394054 0.016800735 4286742135
0.31818795 -0.15394054 0.016800733 4286676342
0.31811148 -0.15432733 0.014800759 4286544756
0.31723556 -0.15432733 0.014800757 4286610549
0.31715247 -0.15471412 0.012800782 4286610549
0.31627434 -0.15471412 0.01280078 4286543986
0.31539619 -0.15471412 0.012800778 4286346607
0.31530437 -0.15510091 0.010800743 4286477680
0.31442404 -0.15510091 0.010800742 4286411887
-0.38895839 -0.15510091 0.010798958 4279505166
-0.38983873 -0.15510091 0.010798956 4279241994
-0.39071906 -0.15510091 0.010798953 4279373580
0.33379129 -0.15422074 0.010800791 4288189842
0.33291095 -0.15422074 0.010800788 4288585368
0.33078861 -0.15364386 0.013800804 4288585368
0.32991156 -0.15364386 0.013800802 4288782747
0.32821095 -0.15325926 0.015800772 4288716954
0.3273361 -0.15325926 0.01580077 4287992461
0.32646126 -0.15325926 0.015800767 4287597703
0.32476938 -0.15287468 0.017800797 4287399811
0.32389674 -0.15287468 0.017800795 4287070846
0.32261777 -0.15268238 0.018800778 4286808187
0.32174623 -0.15268238 0.018800776 4286545015
0.32087469 -0.15268238 0.018800775 4286741365
0.32040617 -0.15287468 0.017800786 4286741365
0.31953353 -0.15287468 0.017800784 4286675572
0.3190617 -0.15306696 0.016800735 4286741365
0.31818795 -0.15306696 0.016800733 4286675570
0.31811148 -0.15345156 0.014800759 4286609777
0.31723556 -0.15345156 0.014800757 4286741363
0.31715247 -0.15383615 0.012800782 4286675570
0.31627434 -0.15383615 0.01280078 4286543984
0.31539619 -0.15383615 0.012800778 4286412398
0.31530437 -0.15422074 0.010800743 4286675057
0.31442404 -0.15422074 0.010800742 4286411885
0.33379129 -0.15334058 0.010800791 4287926155
0.33291095 -0.15334058 0.010800788 4288386706
0.33078861 -0.15276699 0.013800804 4288518292
0.32991156 -0.15276699 0.013800802 4288847257
0.32821095 -0.15238459 0.015800772 4288518292
0.3273361 -0.15238459 0.01580077 4288057743
0.32646126 -0.15238459 0.015800767 4287860364
0.32476938 -0.1520022 0.017800797 4287531397
0.32389674 -0.1520022 0.017800795 4287334018
0.32261777 -0.15181099 0.018800778 4286741881
0.32174623 -0.15181099 0.018800776 4286478709
0.32087469 -0.15181099 0.018800775 4286543986
0.32040617 -0.1520022 0.017800786 4286675572
0.31953353 -0.1520022 0.017800784 4286872438
0.3190617 -0.1521934 0.016800735 4286806645
0.31818795 -0.1521934 0.016800733 4286477678
0.31811148 -0.15257579 0.014800759 4286609264
0.31723556 -0.15257579 0.014800757 4286675057
0.31715247 -0.15295818 0.012800782 4286806643
0.31627434 -0.15295818 0.01280078 4286675057
0.31539619 -0.15295818 0.012800778 4286346092
0.31530437 -0.15334058 0.010800743 4286477678
0.31442404 -0.15334058 0.010800742 4286477678
0.3285093 -0.15246041 0.010800777 4287991948
0.32762897 -0.15246041 0.010800775 4287860362
0.32674864 -0.15246041 0.010800772 4287662983
0.32546201 -0.15227032 0.011800757 4286676855
0.32458279 -0.15227032 0.011800755 4286347890
0.32370356 -0.15227032 0.011800752 4286742133
0.32282433 -0.15227032 0.01180075 4286742133
0.32194507 -0.15227032 0.011800747 4286872949
0.32146668 -0.15246041 0.010800759 4286807156
0.32058635 -0.15246041 0.010800757 4286412398
0.31970602 -0.15246041 0.010800755 4286609777
0.31882569 -0.15246041 0.010800753 4286675570
-0.18032056 -0.15246041 0.010799487 4285822068
-0.18120089 -0.15246041 0.010799485 4285822068
-0.18208121 -0.15246041 0.010799482 4285822068
0.3285093 -0.15158026 0.010800777 4288058254
0.32762897 -0.15158026 0.010800775 4287992461
0.32674864 -0.15158026 0.010800772 4287729289
0.32546201 -0.15139125 0.011800757 4287400578
0.32458279 -0.15139125 0.011800755 4287268992
0.32370356 -0.15139125 0.011800752 4287202684
0.32282433 -0.15139125 0.01180075 4287071098
0.32194507 -0.15139125 0.011800747 4287070326
0.32146668 -0.15158026 0.010800759 4286807154
0.32058635 -0.15158026 0.010800757 4286346090
0.31970602 -0.15158026 0.010800755 4286477676
0.31882569 -0.15158026 0.010800753 4286280297
-0.18032056 -0.15158026 0.010799487 4285822321
-0.18120089 -0.15158026 0.010799485 4285822321
-0.18208121 -0.15158026 0.010799482 4285888114
-0.17767957 -0.15070009 0.010799494 4285756271
-0.1785599 -0.15070009 0.010799492 4285887857
-0.17944023 -0.15070009 0.01079949 4285887857
-0.18032056 -0.15070009 0.010799487 4285887857
-0.18120089 -0.15070009 0.010799485 4285756528
-0.18208121 -0.15070009 0.010799482 4285559149
-0.18296154 -0.15070009 0.010799481 4285493103
-0.18384187 -0.15070009 0.010799479 4285493103
-0.17767957 -0.14981993 0.010799494 4285822064
-0.1785599 -0.14981993 0.010799492 4285822064
-0.17944023 -0.14981993 0.01079949 4285756528
-0.18032056 -0.14981993 0.010799487 4285690735
-0.18120089 -0.14981993 0.010799485 4285756528
-0.18208121 -0.14981993 0.010799482 4285690735
-0.18296154 -0.14981993 0.010799481 4285558896
-0.18384187 -0.14981993 0.010799479 4285493103
-0.17767957 -0.14893977 0.010799494 4285624685
-0.1785599 -0.14893977 0.010799492 4285624685
-0.17944023 -0.14893977 0.01079949 4285690735
-0.18032056 -0.14893977 0.010799487 4285559149
-0.18120089 -0.14893977 0.010799485 4285822321
-0.18208121 -0.14893977 0.010799482 4285756528
-0.18296154 -0.14893977 0.010799481 4285559149
-0.18384187 -0.14893977 0.010799479 4285493356
-0.17767957 -0.14805961 0.010799494 4285493099
-0.1785599 -0.14805961 0.010799492 4285624685
-0.17944023 -0.14805961 0.01079949 4285756528
-0.18032056 -0.14805961 0.010799487 4285822321
-0.18120089 -0.14805961 0.010799485 4285822321
-0.18208121 -0.14805961 0.010799482 4285756528
-0.18296154 -0.14805961 0.010799481 4285427563
-0.18384187 -0.14805961 0.010799479 4285361770
-0.17767957 -0.14717944 0.010799494 4285756271
-0.1785599 -0.14717944 0.010799492 4285756271
-0.17944023 -0.14717944 0.01079949 4285690735
-0.18032056 -0.14717944 0.010799487 4285690735
-0.18120089 -0.14717944 0.010799485 4285756528
-0.18208121 -0.14717944 0.010799482 4285427563
-0.18296154 -0.14717944 0.010799481 4285230184
-0.18384187 -0.14717944 0.010799479 4285295977
0.12867475 -0.14629929 0.01080027 4286546561
0.12779441 -0.14629929 0.010800269 4286020217
0.12691408 -0.14629929 0.010800266 4286678147
0.12603375 -0.14629929 0.010800264 4286678147
0.12515342 -0.14629929 0.010800262 4286479998
0.015112368 -0.14629929 0.010799983 4285363572
0.01423204 -0.14629929 0.010799981 4285363572
0.013351711 -0.14629929 0.010799978 4285363572
-0.17767957 -0.14629929 0.010799494 4285822064
-0.1785599 -0.14629929 0.010799492 4286019443
-0.17944023 -0.14629929 0.01079949 4285559149
-0.18032056 -0.14629929 0.010799487 4285361770
-0.18120089 -0.14629929 0.010799485 4285032805
-0.18208121 -0.14629929 0.010799482 4284967012
-0.18296154 -0.14629929 0.010799481 4285032805
-0.18384187 -0.14629929 0.010799479 4285230184
0.12867475 -0.14541912 0.01080027 4286546561
0.12779441 -0.14541912 0.010800269 4286349182
0.12691408 -0.14541912 0.010800266 4286941319
0.12603375 -0.14541912 0.010800264 4286809733
0.12515342 -0.14541912 0.010800262 4286282619
0.015112368 -0.14541912 0.010799983 4285429365
0.01423204 -0.14541912 0.010799981 4285363572
0.013351711 -0.14541912 0.010799978 4285429365
-0.17767957 -0.14541912 0.010799494 4285888114
-0.1785599 -0.14541912 0.010799492 4285559149
-0.17944023 -0.14541912 0.01079949 4284900962
-0.18032056 -0.14541912 0.010799487 4285164134
-0.18120089 -0.14541912 0.010799485 4284966759
-0.18208121 -0.14541912 0.010799482 4284966759
-0.18296154 -0.14541912 0.010799481 4284966759
-0.18384187 -0.14541912 0.010799479 4285427310
0.14364032 -0.14453895 0.010800309 4286940549
0.14275999 -0.14453895 0.010800307 4286941319
0.14187966 -0.14453895 0.010800304 4286809733
0.14099933 -0.14453895 0.010800302 4286809733
0.14011902 -0.14453895 0.010800299 4286743940
0.13923869 -0.14453895 0.010800297 4286678147
0.13835835 -0.14453895 0.010800296 4286743940
0.13747802 -0.14453895 0.010800293 4287007112
0.13642737 -0.14435874 0.011800277 4287007112
0.13554814 -0.14435874 0.011800275 4287007112
0.13466892 -0.14435874 0.011800273 4286941319
0.13362266 -0.14417851 0.012800317 4286809733
0.13274452 -0.14417851 0.012800314 4286941319
0.1318664 -0.14417851 0.012800313 4287007114
0.13098826 -0.14417851 0.012800311 4286941321
0.13011013 -0.14417851 0.012800308 4286941321
0.12923199 -0.14417851 0.012800306 4286809735
0.12835386 -0.14417851 0.012800303 4286743940
0.12747572 -0.14417851 0.012800301 4286612354
0.1265976 -0.14417851 0.0128003 4286743940
0.12587661 -0.14435874 0.011800251 4286743940
0.12499738 -0.14435874 0.011800248 4286414205
0.12411816 -0.14435874 0.011800246 4286282619
0.12339278 -0.14453895 0.010800257 4286216826
0.12251244 -0.14453895 0.010800255 4286216826
0.12163212 -0.14453895 0.010800253 4286282619
0.12075179 -0.14453895 0.010800251 4285690482
0.017753355 -0.14453895 0.010799989 4285429365
0.016873026 -0.14453895 0.010799987 4285560951
0.015992697 -0.14453895 0.010799985 4285495158
0.015112368 -0.14453895 0.010799983 4285429365
0.01423204 -0.14453895 0.010799981 4285495158
0.013351711 -0.14453895 0.010799978 4285034607
0.012471383 -0.14453895 0.010799976 4284968299
0.011591054 -0.14453895 0.010799974 4284705127
0.010710726 -0.14453895 0.010799971 4284705127
0.0098303976 -0.14453895 0.01079997 4284705127
-0.17767957 -0.14453895 0.010799494 4285822068
-0.1785599 -0.14453895 0.010799492 4284637794
-0.17944023 -0.14453895 0.01079949 4284440158
-0.18032056 -0.14453895 0.010799487 4285098088
-0.18120089 -0.14453895 0.010799485 4284966759
-0.18208121 -0.14453895 0.010799482 4285098345
0.14364032 -0.1436588 0.010800309 4287072135
0.14275999 -0.1436588 0.010800307 4286941319
0.14187966 -0.1436588 0.010800304 4286809733
0.14099933 -0.1436588 0.010800302 4286809733
0.14011902 -0.1436588 0.010800299 4286941319
0.13923869 -0.1436588 0.010800297 4286809733
0.13835835 -0.1436588 0.010800296 4286809733
0.13747802 -0.1436588 0.010800293 4287007112
0.13642737 -0.14347968 0.011800277 4287072905
0.13554814 -0.14347968 0.011800275 4287138698
0.13466892 -0.14347968 0.011800273 4287007112
0.13362266 -0.14330055 0.012800317 4286941319
0.13274452 -0.14330055 0.012800314 4286941319
0.1318664 -0.14330055 0.012800313 4287007112
0.13098826 -0.14330055 0.012800311 4286941319
0.13011013 -0.14330055 0.012800308 4286941319
0.12923199 -0.14330055 0.012800306 4286941319
0.12835386 -0.14330055 0.012800303 4286743940
0.12747572 -0.14330055 0.012800301 4286809733
0.1265976 -0.14330055 0.0128003 4286809733
0.12587661 -0.14347968 0.011800251 4286349182
0.12499738 -0.14347968 0.011800248 4286283389
0.12411816 -0.14347968 0.011800246 4286151803
0.12339278 -0.1436588 0.010800257 4286216826
0.12251244 -0.1436588 0.010800255 4286151033
0.12163212 -0.1436588 0.010800253 4286019443
0.12075179 -0.1436588 0.010800251 4285624685
0.017753355 -0.1436588 0.010799989 4285429365
0.016873026 -0.1436588 0.010799987 4285495158
0.015992697 -0.1436588 0.010799985 4285429365
0.015112368 -0.1436588 0.010799983 4285429365
0.01423204 -0.1436588 0.010799981 4285363572
0.013351711 -0.1436588 0.010799978 4285034607
0.012471383 -0.1436588 0.010799976 4284968301
0.011591054 -0.1436588 0.010799974 4284770922
0.010710726 -0.1436588 0.010799971 4284705127
0.0098303976 -0.1436588 0.01079997 4284573541
-0.18032056 -0.1436588 0.010799487 4285032552
-0.18120089 -0.1436588 0.010799485 4285295724
-0.18208121 -0.1436588 0.010799482 4285361517
0.14346123 -0.14260061 0.011800296 4287137930
0.142582 -0.14260061 0.011800293 4287072137
0.14170276 -0.14260061 0.011800291 4286743172
0.14082353 -0.14260061 0.011800288 4286743942
0.1399443 -0.14260061 0.011800286 4287007114
0.13906507 -0.14260061 0.011800284 4286941321
0.13818584 -0.14260061 0.011800282 4287007114
0.1373066 -0.14260061 0.01180028 4287072905
0.13642737 -0.14260061 0.011800277 4287072905
0.13520969 -0.14224455 0.013800308 4287007112
0.13433266 -0.14224455 0.013800306 4287007112
0.13345562 -0.14224455 0.013800303 4287007112
0.1325786 -0.14224455 0.013800302 4287007112
0.13170156 -0.14224455 0.0138003 4287072905
0.13082452 -0.14224455 0.013800297 4286941319
0.12994748 -0.14224455 0.013800295 4286809733
0.12923199 -0.14242257 0.012800306 4286809733
0.12835386 -0.14242257 0.012800303 4286743940
0.12747572 -0.14242257 0.012800301 4286743940
0.1265976 -0.14242257 0.0128003 4286809733
0.12587661 -0.14260061 0.011800251 4286283389
0.12499738 -0.14260061 0.011800248 4286151803
0.12411816 -0.14260061 0.011800246 4286151803
0.12323892 -0.14260061 0.011800244 4286151033
0.12235969 -0.14260061 0.011800242 4286019447
0.12163212 -0.14277864 0.010800253 4285953650
0.12075179 -0.14277864 0.010800251 4285756271
0.11987147 -0.14277864 0.010800248 4285558890
0.11899114 -0.14277864 0.010800246 4285558890
0.017753355 -0.14277864 0.010799989 4285429363
0.016873026 -0.14277864 0.010799987 4285429363
0.015992697 -0.14277864 0.010799985 4285363570
0.015112368 -0.14277864 0.010799983 4285429363
0.01423204 -0.14277864 0.010799981 4284968814
0.013351711 -0.14277864 0.010799978 4284639849
0.012471383 -0.14277864 0.010799976 4284573543
0.011591054 -0.14277864 0.010799974 4284770922
0.010710726 -0.14277864 0.010799971 4284901736
0.0098303976 -0.14277864 0.01079997 4284506978
-0.18032056 -0.14277864 0.010799487 4285295724
-0.18120089 -0.14277864 0.010799485 4285493103
-0.18208121 -0.14277864 0.010799482 4285493103
0.14346123 -0.14172155 0.011800296 4286940551
0.142582 -0.14172155 0.011800293 4286809735
0.14170276 -0.14172155 0.011800291 4286612356
0.14082353 -0.14172155 0.011800288 4286941321
0.1399443 -0.14172155 0.011800286 4287007114
0.13906507 -0.14172155 0.011800284 4287007114
0.13818584 -0.14172155 0.011800282 4286941321
0.1373066 -0.14172155 0.01180028 4287007114
0.13642737 -0.14172155 0.011800277 4287007114
0.13520969 -0.14136767 0.013800308 4286941319
0.13433266 -0.14136767 0.013800306 4286941319
0.13345562 -0.14136767 0.013800303 4286809733
0.1325786 -0.14136767 0.013800302 4286941319
0.13170156 -0.14136767 0.0138003 4286941319
0.13082452 -0.14136767 0.013800297 4286743940
0.12994748 -0.14136767 0.013800295 4286743940
0.12923199 -0.14154461 0.012800306 4286678147
0.12835386 -0.14154461 0.012800303 4286612354
0.12747572 -0.14154461 0.012800301 4286612354
0.1265976 -0.14154461 0.0128003 4286546561
0.12587661 -0.14172155 0.011800251 4286217596
0.12499738 -0.14172155 0.011800248 4286086010
0.12411816 -0.14172155 0.011800246 4286020217
0.12323892 -0.14172155 0.011800244 4285823091
0.12235969 -0.14172155 0.011800242 4285888884
0.12163212 -0.14189847 0.010800253 4285953907
0.12075179 -0.14189847 0.010800251 4285756528
0.11987147 -0.14189847 0.010800248 4285558890
0.11899114 -0.14189847 0.010800246 4285558890
0.017753355 -0.14189847 0.010799989 4285429363
0.016873026 -0.14189847 0.010799987 4285429363
0.015992697 -0.14189847 0.010799985 4285231984
0.015112368 -0.14189847 0.010799983 4285166191
0.01423204 -0.14189847 0.010799981 4285100400
0.013351711 -0.14189847 0.010799978 4284968814
0.012471383 -0.14189847 0.010799976 4284507748
0.011591054 -0.14189847 0.010799974 4284573541
0.14804196 -0.1410183 0.01080032 4286414205
0.14716163 -0.1410183 0.010800318 4286677377
0.1462813 -0.1410183 0.010800315 4286808965
0.14521967 -0.14084247 0.011800299 4286677379
0.14434044 -0.14084247 0.011800298 4286677379
0.14328213 -0.14066663 0.012800341 4286808965
0.14240399 -0.14066663 0.01280034 4286809735
0.14152585 -0.14066663 0.012800337 4286809735
0.14064772 -0.14066663 0.012800335 4286743942
0.13959487 -0.14049082 0.013800319 4286809735
0.13871783 -0.14049082 0.013800317 4286941321
0.13784081 -0.14049082 0.013800315 4287007114
0.13696377 -0.14049082 0.013800313 4287007114
0.13608673 -0.14049082 0.01380031 4286941321
0.13520969 -0.14049082 0.013800308 4286809735
0.13433266 -0.14049082 0.013800306 4286809735
0.13328859 -0.14031498 0.014800291 4286809735
0.13241266 -0.14031498 0.014800288 4286941321
0.13153672 -0.14031498 0.014800286 4286809735
0.13066079 -0.14031498 0.014800284 4286743942
0.12978485 -0.14031498 0.014800281 4286678147
0.12907045 -0.14049082 0.013800292 4286349182
0.12819341 -0.14049082 0.01380029 4286546561
0.12731637 -0.14049082 0.013800289 4286546561
0.12643935 -0.14049082 0.013800286 4286283389
0.12571946 -0.14066663 0.012800297 4286217596
0.12484132 -0.14066663 0.012800295 4286151803
0.1239632 -0.14066663 0.012800292 4286217596
0.12308506 -0.14066663 0.01280029 4286349435
0.12220693 -0.14066663 0.012800288 4286152056
0.12148046 -0.14084247 0.01180024 4286217079
0.12060124 -0.14084247 0.011800237 4285888114
0.11987147 -0.1410183 0.010800248 4285558890
0.11899114 -0.1410183 0.010800246 4285493097
0.017753355 -0.1410183 0.010799989 4285363570
0.016873026 -0.1410183 0.010799987 4285363570
0.015992697 -0.1410183 0.010799985 4285231984
0.015112368 -0.1410183 0.010799983 4285100398
0.01423204 -0.1410183 0.010799981 4285034605
0.013351711 -0.1410183 0.010799978 4284705640
0.012471383 -0.1410183 0.010799976 4284376162
0.011591054 -0.1410183 0.010799974 4284376162
0.14804196 -0.14013815 0.01080032 4287072135
0.14716163 -0.14013815 0.010800318 4286940549
0.1462813 -0.14013815 0.010800315 4286940551
0.14521967 -0.1399634 0.011800299 4286808965
0.14434044 -0.1399634 0.011800298 4286611586
0.14328213 -0.13978867 0.012800341 4286874758
0.14240399 -0.13978867 0.01280034 4286941321
0.14152585 -0.13978867 0.012800337 4287072907
0.14064772 -0.13978867 0.012800335 4287007114
0.13959487 -0.13961394 0.013800319 4287007114
0.13871783 -0.13961394 0.013800317 4287007884
0.13784081 -0.13961394 0.013800315 4287007884
0.13696377 -0.13961394 0.013800313 4287007884
0.13608673 -0.13961394 0.01380031 4286876298
0.13520969 -0.13961394 0.013800308 4286613126
0.13433266 -0.13961394 0.013800306 4286810505
0.13328859 -0.1394392 0.014800291 4286810505
0.13241266 -0.1394392 0.014800288 4286810505
0.13153672 -0.1394392 0.014800286 4286678919
0.13066079 -0.1394392 0.014800284 4286613126
0.12978485 -0.1394392 0.014800281 4286547333
0.12907045 -0.13961394 0.013800292 4286547333
0.12819341 -0.13961394 0.01380029 4286547331
0.12731637 -0.13961394 0.013800289 4286415745
0.12643935 -0.13961394 0.013800286 4286349182
0.12571946 -0.13978867 0.012800297 4286283389
0.12484132 -0.13978867 0.012800295 4286349182
0.1239632 -0.13978867 0.012800292 4286283389
0.12308506 -0.13978867 0.01280029 4286481021
0.12220693 -0.13978867 0.012800288 4286349435
0.12148046 -0.1399634 0.01180024 4286480251
0.12060124 -0.1399634 0.011800237 4286019700
0.11987147 -0.14013815 0.010800248 4285492327
0.11899114 -0.14013815 0.010800246 4285558120
0.017753355 -0.14013815 0.010799989 4285297264
0.016873026 -0.14013815 0.010799987 4285231471
0.015992697 -0.14013815 0.010799985 4285231471
0.015112368 -0.14013815 0.010799983 4285099885
0.01423204 -0.14013815 0.010799981 4285099887
0.013351711 -0.14013815 0.010799978 4284968301
0.012471383 -0.14013815 0.010799976 4285165678
0.011591054 -0.14013815 0.010799974 4284968299
0.14804196 -0.13925798 0.01080032 4287137928
0.14716163 -0.13925798 0.010800318 4286940549
0.1462813 -0.13925798 0.010800315 4286940551
0.14521967 -0.13908434 0.011800299 4286940551
0.14434044 -0.13908434 0.011800298 4286546563
0.14328213 -0.13891071 0.012800341 4286941321
0.14240399 -0.13891071 0.01280034 4287138700
0.14152585 -0.13891071 0.012800337 4287204493
0.14064772 -0.13891071 0.012800335 4287007884
0.13959487 -0.13873707 0.013800319 4286942091
0.13871783 -0.13873707 0.013800317 4287007884
0.13784081 -0.13873707 0.013800315 4287007884
0.13696377 -0.13873707 0.013800313 4287007884
0.13608673 -0.13873707 0.01380031 4286876298
0.13470201 -0.13821615 0.016800268 4286876298
0.13382828 -0.13821615 0.016800266 4287073677
0.13278751 -0.13804251 0.017800311 4287139470
0.13191487 -0.13804251 0.017800309 4286876298
0.13104221 -0.13804251 0.017800305 4286547333
0.1303333 -0.13821615 0.016800256 4286810505
0.12945956 -0.13821615 0.016800255 4286678919
0.12874737 -0.1383898 0.015800266 4286613126
0.12787253 -0.1383898 0.015800264 4286613124
0.12715703 -0.13856342 0.014800275 4286218366
0.1262811 -0.13856342 0.014800273 4286349182
0.12540516 -0.13856342 0.01480027 4286480768
0.12468528 -0.13873707 0.013800281 4286612607
0.12380823 -0.13873707 0.013800279 4286481021
0.1229312 -0.13873707 0.013800277 4286481021
0.12205417 -0.13873707 0.013800275 4286283642
0.12148046 -0.13908434 0.01180024 4286348665
0.12060124 -0.13908434 0.011800237 4286217079
0.11987147 -0.13925798 0.010800248 4285559149
0.11899114 -0.13925798 0.010800246 4285559149
0.11811081 -0.13925798 0.010800244 4285164132
0.11723047 -0.13925798 0.010800241 4285887855
0.14785737 -0.13820527 0.011800306 4286940549
0.14697814 -0.13820527 0.011800304 4286940549
0.14609891 -0.13820527 0.011800302 4286808965
0.14485708 -0.13786019 0.013800332 4286874758
0.14398006 -0.13786019 0.01380033 4286941321
0.14310302 -0.13786019 0.013800329 4287072907
0.14222598 -0.13786019 0.013800326 4287138700
0.14117204 -0.13768765 0.01480031 4287204493
0.1402961 -0.13768765 0.014800308 4287270286
0.13924545 -0.13751511 0.015800294 4287270286
0.13837062 -0.13751511 0.01580029 4287007884
0.13732325 -0.13734257 0.016800275 4286942091
0.1364495 -0.13734257 0.016800273 4286481540
0.13557576 -0.13734257 0.016800271 4286876298
0.13470201 -0.13734257 0.016800268 4287138700
0.13382828 -0.13734257 0.016800266 4285691254
0.13278751 -0.13717003 0.017800311 4285559668
0.13191487 -0.13717003 0.017800309 4286086012
0.13104221 -0.13717003 0.017800305 4286020989
0.1303333 -0.13734257 0.016800256 4286086782
0.12945956 -0.13734257 0.016800255 4286415747
0.12874737 -0.13751511 0.015800266 4286876298
0.12787253 -0.13751511 0.015800264 4286810505
0.12715703 -0.13768765 0.014800275 4286152575
0.1262811 -0.13768765 0.014800273 4286020987
0.12540516 -0.13768765 0.01480027 4286415745
0.12468528 -0.13786019 0.013800281 4286481021
0.12380823 -0.13786019 0.013800279 4286349435
0.1229312 -0.13786019 0.013800277 4286481021
0.12205417 -0.13786019 0.013800275 4286481021
0.12148046 -0.13820527 0.01180024 4286349435
0.12060124 -0.13820527 0.011800237 4286152056
0.11987147 -0.13837782 0.010800248 4285823091
0.11899114 -0.13837782 0.010800246 4285823091
0.11811081 -0.13837782 0.010800244 4285888112
0.11723047 -0.13837782 0.010800241 4285888112
0.14785737 -0.13732621 0.011800306 4286874758
0.14697814 -0.13732621 0.011800304 4286808965
0.14609891 -0.13732621 0.011800302 4286677379
0.14485708 -0.13698334 0.013800332 4286743172
0.14398006 -0.13698334 0.01380033 4286808965
0.14310302 -0.13698334 0.013800329 4287137930
0.14222598 -0.13698334 0.013800326 4287007114
0.14117204 -0.13681188 0.01480031 4287072907
0.1402961 -0.13681188 0.014800308 4286613126
0.13924545 -0.13664044 0.015800294 4286810505
0.13837062 -0.13664044 0.01580029 4286810505
0.13732325 -0.13646899 0.016800275 4286876298
0.1364495 -0.13646899 0.016800273 4286547333
0.13557576 -0.13646899 0.016800271 4286020989
0.13470201 -0.13646899 0.016800268 4285362289
0.13382828 -0.13646899 0.016800266 4283454292
0.13278751 -0.13629755 0.017800311 4283519315
0.13191487 -0.13629755 0.017800309 4283650901
0.13104221 -0.13629755 0.017800305 4285098092
0.1303333 -0.13646899 0.016800256 4286413952
0.12945956 -0.13646899 0.016800255 4286941321
0.12874737 -0.13664044 0.015800266 4286809735
0.12787253 -0.13664044 0.015800264 4286743942
0.12715703 -0.13681188 0.014800275 4286349184
0.1262811 -0.13681188 0.014800273 4286283389
0.12540516 -0.13681188 0.01480027 4286349182
0.12468528 -0.13698334 0.013800281 4286283642
0.12349833 -0.13664044 0.015800253 4286217849
0.12262349 -0.13664044 0.015800251 4286283642
0.12174864 -0.13664044 0.015800249 4286283642
0.12117713 -0.13698334 0.013800273 4286217849
0.1203001 -0.13698334 0.01380027 4286020470
0.11942305 -0.13698334 0.013800268 4285823091
0.11854602 -0.13698334 0.013800266 4285757298
0.11796354 -0.13732621 0.01180023 4285888112
0.11708432 -0.13732621 0.011800229 4285888112
0.14980263 -0.1366175 0.010800324 4286677377
0.14892229 -0.1366175 0.010800322 4286874756
0.14785737 -0.13644715 0.011800306 4286940549
0.14679466 -0.13627681 0.012800351 4286808963
0.14591652 -0.13627681 0.012800348 4286677379
0.14485708 -0.13610646 0.013800332 4286677379
0.14398006 -0.13610646 0.01380033 4286480000
0.1425657 -0.13559543 0.016800288 4286282621
0.14169195 -0.13559543 0.016800286 4286743942
0.14046441 -0.13525473 0.018800316 4287007114
0.13959286 -0.13525473 0.018800315 4286743942
0.1385466 -0.13508438 0.0198003 4286743942
0.13767615 -0.13508438 0.019800296 4286547846
0.1368057 -0.13508438 0.019800294 4286482053
0.13559242 -0.13474369 0.021800326 4287007884
0.13472417 -0.13474369 0.021800322 4285626231
0.13385591 -0.13474369 0.021800321 4282993743
0.13298766 -0.13474369 0.021800319 4282072641
0.13195236 -0.13457334 0.022800304 4282071614
0.13108522 -0.13457334 0.0228003 4281742649
0.13021806 -0.13457334 0.022800298 4281742649
0.1293509 -0.13457334 0.022800297 4282532165
0.12848374 -0.13457334 0.022800295 4283979611
0.12793967 -0.13491404 0.020800259 4285427057
0.12707032 -0.13491404 0.020800257 4286086012
0.12636031 -0.13508438 0.019800268 4286480770
0.12548986 -0.13508438 0.019800266 4286743940
0.12461941 -0.13508438 0.019800264 4286743940
0.12406107 -0.13542508 0.017800288 4286349435
0.12318842 -0.13542508 0.017800286 4286086263
0.12262349 -0.13576576 0.015800251 4286086263
0.12174864 -0.13576576 0.015800249 4286020470
0.12117713 -0.13610646 0.013800273 4285888884
0.1203001 -0.13610646 0.01380027 4285691505
0.11942305 -0.13610646 0.013800268 4285559919
0.11854602 -0.13610646 0.013800266 4285428333
0.11796354 -0.13644715 0.01180023 4285362540
0.11708432 -0.13644715 0.011800229 4285428333
0.14980263 -0.13573733 0.010800324 4286611584
0.14892229 -0.13573733 0.010800322 4286874756
0.14804196 -0.13573733 0.01080032 4286940549
0.14679466 -0.13539883 0.012800351 4286874756
0.14591652 -0.13539883 0.012800348 4286743172
0.14485708 -0.13522959 0.013800332 4286677379
0.14398006 -0.13522959 0.01380033 4286874758
0.1425657 -0.13472185 0.016800288 4286611586
0.14169195 -0.13472185 0.016800286 4286808965
0.14046441 -0.13438335 0.018800316 4287072137
0.13959286 -0.13438335 0.018800315 4286743942
0.1385466 -0.13421409 0.0198003 4286743942
0.13767615 -0.13421409 0.019800296 4286613126
0.1368057 -0.13421409 0.019800294 4286942091
0.13559242 -0.13387559 0.021800326 4287073677
0.13472417 -0.13387559 0.021800322 4284573543
0.13385591 -0.13387559 0.021800321 4283783259
0.13298766 -0.13387559 0.021800319 4283520087
0.13195236 -0.13370635 0.022800304 4282927180
0.13108522 -0.13370635 0.0228003 4282466629
0.13021806 -0.13370635 0.022800298 4282005821
0.1293509 -0.13370635 0.022800297 4281611063
0.12848374 -0.13370635 0.022800295 4281808440
0.12793967 -0.13404484 0.020800259 4282597956
0.12707032 -0.13404484 0.020800257 4283453265
0.12636031 -0.13421409 0.019800268 4284440160
0.12548986 -0.13421409 0.019800266 4285427310
0.12461941 -0.13421409 0.019800264 4286348412
0.12406107 -0.1345526 0.017800288 4286809733
0.12318842 -0.1345526 0.017800286 4286349182
0.12262349 -0.13489109 0.015800251 4286020217
0.12174864 -0.13489109 0.015800249 4285822838
0.12117713 -0.13522959 0.013800273 4285625459
0.1203001 -0.13522959 0.01380027 4285296494
0.11942305 -0.13522959 0.013800268 4284967529
0.11854602 -0.13522959 0.013800266 4285099115
0.11796354 -0.13556808 0.01180023 4285099115
0.11708432 -0.13556808 0.011800229 4285296494
0.14980263 -0.13485718 0.010800324 4286348412
0.14892229 -0.13485718 0.010800322 4286874756
0.14804196 -0.13485718 0.01080032 4286808965
0.14661115 -0.13435271 0.013800337 4286808965
0.14573412 -0.13435271 0.013800335 4286743172
0.14449449 -0.13401641 0.015800307 4286808965
0.14361966 -0.13401641 0.015800303 4287335309
0.1422075 -0.13351196 0.018800322 4286874758
0.14133595 -0.13351196 0.018800318 4286743172
0.13993369 -0.13300751 0.021800335 4287072137
0.13906544 -0.13300751 0.021800334 4286349184
0.13819718 -0.13300751 0.021800332 4286941321
0.13680808 -0.13250305 0.024800289 4286678919
0.13594311 -0.13250305 0.024800288 4287468435
0.13490674 -0.1323349 0.025800273 4285955196
0.13404287 -0.1323349 0.025800269 4284112992
0.13284057 -0.13199861 0.027800301 4284506210
0.13197891 -0.13199861 0.027800299 4284177245
0.1309502 -0.13183045 0.028800283 4283519315
0.13008963 -0.13183045 0.028800281 4284111452
0.12922905 -0.13183045 0.028800279 4284308831
0.12836848 -0.13183045 0.028800277 4283914073
0.12750791 -0.13183045 0.028800275 4282992969
0.12664735 -0.13183045 0.028800271 4281940281
0.12594724 -0.13199861 0.027800282 4281742645
0.12508556 -0.13199861 0.027800281 4281611059
0.12454037 -0.1323349 0.025800247 4282334014
0.12367652 -0.1323349 0.025800243 4283649874
0.12312476 -0.13267121 0.023800269 4284637539
0.1222587 -0.13267121 0.023800265 4285492848
0.12170035 -0.13300751 0.021800291 4286151803
0.12083209 -0.13300751 0.021800287 4285757045
0.12041882 -0.13351196 0.018800266 4285362287
0.11954729 -0.13351196 0.018800264 4285230701
0.11912412 -0.13401641 0.015800241 4285296494
0.11824928 -0.13401641 0.01580024 4284901736
0.11766899 -0.13435271 0.013800263 4284770150
0.11679195 -0.13435271 0.013800262 4284835943
0.11606 -0.13452087 0.012800273 4284638817
0.11518186 -0.13452087 0.012800271 4284901989
0.11430372 -0.13452087 0.012800268 4284835426
0.14980263 -0.13397701 0.010800324 4286808963
0.14892229 -0.13397701 0.010800322 4287203721
0.14804196 -0.13397701 0.01080032 4286743170
0.14661115 -0.13347585 0.013800337 4286479998
0.14573412 -0.13347585 0.013800335 4286479998
0.14449449 -0.13314174 0.015800307 4286743170
0.14361966 -0.13314174 0.015800303 4286808965
0.1422075 -0.13264059 0.018800322 4286743172
0.14133595 -0.13264059 0.018800318 4286677379
0.13993369 -0.13213941 0.021800335 4286808965
0.13906544 -0.13213941 0.021800334 4286217598
0.13819718 -0.13213941 0.021800332 4286283391
0.13680808 -0.13163826 0.024800289 4286415747
0.13594311 -0.13163826 0.024800288 4286876298
0.13490674 -0.1314712 0.025800273 4283980636
0.13404287 -0.1314712 0.025800269 4282401604
