# .PCD v0.7 - Point Cloud Data file format
VERSION 0.7
FIELDS x y z normal_x normal_y normal_z curvature
SIZE 4 4 4 4 4 4 4
TYPE F F F F F F F
COUNT 1 1 1 1 1 1 1
WIDTH 709
HEIGHT 1
VIEWPOINT 0 0 0 1 0 0 0
POINTS 709
DATA ascii
0.013063694 -0.015131317 0.02232906 -0.63624245 0.7714892 0 0
0.01977336 -0.015275333 0.02270467 0.79680538 -0.60423613 0 0
-0.020292426 -0.014502694 0.022274001 -0.81697005 -0.57668012 0 0
-0.014119685 -0.014127764 0.022289865 0.66532564 0.74655318 0 0
-0.013589442 -0.014600314 0.02219755 0.6653257 0.74655324 0 0
0.013411215 -0.014828993 0.022701278 -0.6653257 0.74655324 0 0
0.01403666 -0.014198797 0.02220514 -0.72052145 0.69343221 0.00082445587 0
0.020532133 -0.014163104 0.022304552 0.81697005 -0.57668012 0 0
-0.020951172 -0.013569462 0.022704519 -0.81697005 -0.57668012 0 0
-0.014668137 -0.013556165 0.022362839 0.77148908 0.63624257 0 0
0.014749314 -0.013458718 0.022555299 -0.72052145 0.69343215 0.00082445587 0
0.015182406 -0.013002427 0.022379458 -0.74655336 0.66532558 0 0
0.020855658 -0.013704775 0.022253264 0.81697005 -0.57668012 0 0
0.02121187 -0.013200137 0.022838501 0.81697005 -0.57668012 0 0
-0.021656528 -0.012418263 0.022042396 -0.88788509 -0.46006528 0 0
-0.015450663 -0.012607298 0.022701271 0.77148908 0.63624257 0 0
0.015560436 -0.012546708 0.022584461 -0.79140997 0.61128581 0.00014545425 0
0.021775097 -0.012219859 0.022472814 0.89502567 -0.44601196 -0.0015316121 0
-0.022236111 -0.011299719 0.022910614 -0.88788509 -0.46006528 0 0
-0.02193133 -0.011887917 0.022885472 -0.88788509 -0.46006528 0 0
-0.016220514 -0.011639071 0.022478476 0.80294323 0.59605551 0 0
0.01629125 -0.011534465 0.022666249 -0.81792909 0.5753184 0.00087220973 0
0.022373706 -0.01103417 0.022804752 0.88788509 -0.46006528 0 0
-0.022645971 -0.010508726 0.02217184 -0.88788509 -0.46006528 0 0
-0.016884863 -0.010621138 0.02242521 0.85956979 0.51101834 0 0
0.016795302 -0.010817842 0.022656778 -0.81792909 0.5753184 0.00087220973 0
0.017176069 -0.010244034 0.022988679 -0.83936578 0.54356706 0 0
0.022646584 -0.010507544 0.022375226 0.88788509 -0.46006528 0 0
-0.023164151 -0.0093019847 0.022699768 -0.94226098 -0.33487943 0 0
-0.022969251 -0.0098503791 0.022271091 -0.94226098 -0.33487943 0 0
-0.017391492 -0.0097689526 0.022590566 0.85956985 0.51101834 0 0
0.017552812 -0.0095267287 0.022509944 -0.8875016 0.46080443 0.00045745107 0
0.023082359 -0.00957439 0.022496056 0.9302786 -0.36685386 0 0
-0.023410629 -0.0086084642 0.022553595 -0.94226098 -0.33487943 0 0
-0.018145537 -0.0083230166 0.022637222 0.92750233 0.37381735 0 0
-0.017898982 -0.0089153163 0.022850024 0.85956985 0.51101834 0 0
0.017938033 -0.0087593393 0.022764295 -0.89616507 0.44371995 0.00091473421 0
0.018204691 -0.0082197879 0.022283474 -0.89616507 0.44371995 0.00091473415 0
0.023451639 -0.0085060894 0.022418763 0.94657815 -0.32247338 -0.00086434319 0
-0.023828607 -0.0074323835 0.022698946 -0.94226098 -0.33487943 0 0
-0.018529244 -0.0073709758 0.022402823 0.92750233 0.37381735 0 0
0.018534062 -0.0074849199 0.022450285 -0.92750233 0.37381735 0 0
0.0238184 -0.0074611036 0.022495259 0.94226098 -0.33487943 0 0
-0.024196276 -0.0061513558 0.022252806 -0.97908401 -0.20345621 0 0
-0.019047383 -0.0060853874 0.022333849 0.92750233 0.37381735 0 0
-0.018800702 -0.0066974461 0.022518223 0.92750233 0.37381735 0 0
0.018859059 -0.0065714009 0.022738284 -0.95339602 0.30172032 0.00094859482 0
0.019019533 -0.0060649239 0.022927277 -0.95339602 0.30172032 0.00094859482 0
0.024243627 -0.0060414569 0.022093806 0.97900534 -0.20383151 -0.0011289078 0
-0.024418365 -0.0050826101 0.022506768 -0.97908407 -0.20345622 0 0
-0.019181348 -0.0055497345 0.022681905 0.97369546 0.22785328 0 0
0.019184446 -0.0055421074 0.022384513 -0.95339596 0.30172035 0.00094859482 0
0.024328094 -0.0055716475 0.022681424 0.98532641 -0.17066608 -0.0022565273 0
-0.024569623 -0.0043547126 0.02271297 -0.97908407 -0.20345622 0 0
-0.019411512 -0.0045661563 0.022432243 0.97369546 0.22785327 0 0
0.019458121 -0.0045822179 0.022434477 -0.97243315 0.23318158 0 0
0.024595529 -0.0042300471 0.022313416 0.97908401 -0.20345619 0 0
-0.024737291 -0.0035478498 0.022207363 -0.97908407 -0.20345622 0 0
-0.019660603 -0.0035002914 0.022640549 0.98020929 0.19796401 0 0
0.019660704 -0.003490848 0.022513535 -0.98827994 0.15264949 0.00097046886 0
0.024793847 -0.0031444766 0.022329336 0.99475729 -0.1022643 0 0
-0.024841841 -0.0023122337 0.022365671 -0.9976688 -0.068242349 0 0
-0.019788112 -0.0027598576 0.02245512 0.99706584 0.076549262 0 0
0.019799098 -0.0025905615 0.022434611 -0.98969668 0.1431779 0.00072795182 0
0.024853704 -0.0024001775 0.022451647 0.99940896 -0.034299005 -0.0023190801 0
-0.024893386 -0.0015586623 0.022524206 -0.99766874 -0.068242349 0 0
-0.019895364 -0.0013629117 0.022594754 0.99706584 0.076549262 0 0
0.019933283 -0.0015075183 0.022671169 -0.99834961 0.057429075 0 0
0.024886664 -0.0016569111 0.022395212 0.99766886 -0.068242349 0 0
-0.019943779 -0.00073227473 0.022435958 0.99706584 0.076549262 0 0
0.019975053 -0.00065084221 0.022899803 -0.99926621 0.038301859 0 0
0.024985533 -0.0002114934 0.022552934 0.9976688 -0.068242349 0 0
-0.024970809 0.00042676119 0.02287039 -0.99766874 0.068242349 0 0
-0.019959632 0.00052577798 0.02272616 0.99706584 -0.076549262 0 0
0.019980744 0.00050239166 0.022524146 -0.99926621 -0.038301863 -3.1270837e-18 0
-0.024907926 0.0013461029 0.022537764 -0.99766886 0.068242349 0 0
-0.019873984 0.0016413408 0.02237938 0.99706584 -0.076549262 0 0
0.02490874 0.0017183353 0.022542577 0.99766809 0.068242304 -0.0011629106 0
-0.024817381 0.0026698385 0.022200514 -0.9976688 0.068242349 0 0
-0.019807078 0.0025128345 0.02238787 0.99706584 -0.076549262 0 0
0.019796148 0.0024708277 0.022399209 -0.98828042 -0.15264958 0 0
0.024815993 0.0029290386 0.022544088 0.99475724 0.10226429 0 0
-0.024768651 0.0033011376 0.022541577 -0.99245584 0.12260225 0 0
-0.019724155 0.0032301312 0.022550851 0.97369546 -0.22785325 0 0
0.019622009 0.0036643811 0.022511067 -0.99244964 -0.12264277 0.0015428463 0
0.024665572 0.0039933035 0.022769785 0.98545945 0.16991091 0 0
-0.024559019 0.0044057393 0.02237835 -0.97908401 0.20345621 0 0
-0.019374577 0.0047239936 0.022671364 0.97369552 -0.22785328 0 0
0.019501943 0.0043875254 0.022489287 -0.9778862 -0.20913748 0 0
0.024554675 0.0045512924 0.022469295 0.98045015 0.19676541 -0.00091346423 0
-0.024369115 0.0053196112 0.022565732 -0.97908401 0.20345621 0 0
-0.019163035 0.005627987 0.022465473 0.97369546 -0.22785325 0 0
0.019186229 0.0054660994 0.022468099 -0.9533965 -0.3017205 0 0
0.024332425 0.0056239832 0.022773316 0.97908348 0.2034561 -0.0011417238 0
-0.024100253 0.0066134403 0.022399081 -0.97908407 0.20345622 0 0
-0.019073738 0.0060095834 0.022738464 0.97369546 -0.22785325 0 0
-0.018871289 0.006522309 0.022621449 0.92750233 -0.37381741 0 0
0.018838452 0.0065920027 0.022373116 -0.96109921 -0.27620018 0.0013368373 0
0.024167787 0.0063556805 0.022983048 0.97156715 0.23676433 0 0
-0.023863727 0.0073335585 0.022661829 -0.94226098 0.33487943 0 0
-0.018475281 0.0075048697 0.022550827 0.92750233 -0.37381741 0 0
0.01855207 0.0074318871 0.022515014 -0.9246155 -0.38090175 0 0
0.023799742 0.0075848498 0.022618692 0.94892395 0.31550461 -0.00044085426 0
-0.023446783 0.008506733 0.022296889 -0.94226098 0.33487943 0 0
-0.018102022 0.008430982 0.022265075 0.92750233 -0.37381735 0 0
-0.017979315 0.0087354416 0.022367278 0.92750233 -0.37381735 0 0
0.017905857 0.008777393 0.02255825 -0.89616543 -0.44372013 0 0
0.018113531 0.0083579617 0.02233878 -0.89616543 -0.44372013 0 0
0.023439826 0.0086009204 0.022674363 0.94226044 0.33487925 -0.0011019814 0
-0.023166295 0.0092959572 0.022516578 -0.94226098 0.33487943 0 0
-0.017523887 0.0095462566 0.022381587 0.85956985 -0.51101828 0 0
0.017457601 0.0097269481 0.02244721 -0.91190076 -0.41040695 0.0017931889 0
0.023079703 0.0095799929 0.022300862 0.93235111 0.36155403 -0.00018367842 0
-0.022545351 0.010702915 0.022583038 -0.88788509 0.46006528 0 0
-0.017182231 0.010120949 0.022386875 0.85956985 -0.51101834 0 0
-0.016763674 0.01082499 0.022011878 0.85956985 -0.51101834 0 0
0.01679136 0.010789097 0.022471702 -0.81792939 -0.57531863 0 0
0.017202582 0.010183522 0.022539772 -0.84962344 -0.52738982 0 0
0.022595441 0.010650051 0.022358797 0.89306384 0.44992951 -0.00069883472 0
-0.022138603 0.011487898 0.02253635 -0.88788509 0.46006528 0 0
-0.021948116 0.011855521 0.022338049 -0.88788509 0.46006528 0 0
-0.016332887 0.01151298 0.022647662 0.81157064 -0.58425432 0 0
0.016309425 0.011474261 0.022187648 -0.81792939 -0.57531863 0 0
0.021941088 0.011921095 0.022828681 0.88788468 0.46006507 -0.0010481162 0
-0.021642897 0.012444565 0.022324417 -0.88788509 0.46006528 0 0
-0.015517806 0.012525881 0.022482326 0.77148908 -0.63624257 0 0
0.01537054 0.012786406 0.022593498 -0.72052169 -0.69343245 0 0
0.021656925 0.012455295 0.022500766 0.87827295 0.47815946 -0.0004193052 0
-0.021164756 0.013266884 0.022440311 -0.81697005 0.57668012 0 0
-0.014727442 0.013484252 0.022490215 0.77148908 -0.63624257 0 0
0.014678606 0.013505371 0.022362547 -0.72052163 -0.69343239 0 0
0.015032182 0.013137984 0.022751546 -0.72052169 -0.69343245 0 0
0.02068709 0.013982304 0.022665121 0.81696963 0.57667977 -0.00098527572 0
0.021128429 0.013343396 0.022622354 0.83618224 0.54845178 0 0
-0.020345647 0.014427297 0.022358635 -0.81697005 0.57668012 0 0
-0.014124305 0.014123646 0.022432614 0.6653257 -0.74655324 0 0
-0.013785427 0.014425653 0.022599984 0.6653257 -0.74655324 0 0
0.0135655 0.014674349 0.02248664 -0.69835114 -0.71575505 0.00064232509 0
0.020241888 0.014612704 0.022482825 0.81696969 0.57667977 -0.00098527584 0
-0.019680835 0.015367378 0.022286983 -0.79682928 0.60420454 0 0
-0.013064474 0.015068163 0.022119764 0.6653257 -0.74655324 0 0
-0.012561293 0.015513721 0.022502031 0.64886343 -0.76090485 0 0
0.012352094 0.015658587 0.022360161 -0.60622555 -0.79529279 0 0
0.013208481 0.015005791 0.022441257 -0.60622555 -0.79529279 0 0
0.019648388 0.015437416 0.022441559 0.80363095 0.59512782 -0.00032846784 0
-0.019053286 0.016140711 0.022467002 -0.73083568 0.68255341 0 0
-0.018667543 0.016553741 0.02242231 -0.73083574 0.68255335 0 0
-0.011446989 0.016344612 0.022707999 0.54356736 -0.83936554 0 0
-0.010674894 0.016844617 0.02245171 0.54356736 -0.83936554 0 0
0.010870451 0.016781691 0.022706483 -0.51757962 -0.85563505 0 0
0.011625348 0.016218714 0.022363201 -0.62043971 -0.78425378 0.00075088383 0
0.01881377 0.016427377 0.022449335 0.73083544 0.68255305 -0.00091840309 0
0.019085664 0.016129417 0.022945816 0.75371265 0.65720415 0 0
-0.018122921 0.01713689 0.0226191 -0.73083568 0.68255341 0 0
-0.017637312 0.017656846 0.022452153 -0.7308358 0.68255329 0 0
-0.010171576 0.017170563 0.022483252 0.54356736 -0.83936554 0 0
-0.0092450082 0.01770894 0.022668928 0.4090687 -0.91250366 0 0
-0.0087307403 0.017939484 0.022497877 0.4090687 -0.91250366 0 0
0.0093021449 0.017640617 0.022593098 -0.47771969 -0.87851226 0 0
0.010225743 0.017138381 0.022712896 -0.47771969 -0.87851226 0 0
0.017708404 0.017611198 0.022646468 0.73083544 0.68255305 -0.00091840309 0
0.018111955 0.017178586 0.022262517 0.7308355 0.68255311 -0.00091840309 0
-0.017115183 0.018213272 0.022673739 -0.68255311 0.73083603 0 0
-0.016534567 0.018701486 0.022269925 -0.63108814 0.77571118 0 0
-0.0082116779 0.018172175 0.022572832 0.4090687 -0.9125036 0 0
-0.007661717 0.018418718 0.022442732 0.4090687 -0.9125036 0 0
-0.0065066791 0.018884944 0.022624696 0.33801705 -0.94113994 0 0
0.0064830463 0.018860038 0.022697099 -0.33801687 -0.94114006 0 0
0.0076578357 0.018438105 0.022357574 -0.33801687 -0.94114006 0 0
0.0083895028 0.018143246 0.022479877 -0.43153155 -0.9020977 0.00046950424 0
0.016586494 0.018677888 0.02255608 0.64162415 0.76701897 -0.00051097263 0
0.017059075 0.018275043 0.022307172 0.65720415 0.75371265 0 0
-0.016097592 0.019056991 0.022550827 -0.63108808 0.77571118 0 0
-0.015163876 0.019816624 0.022431098 -0.63108802 0.77571118 0 0
-0.0054267398 0.01918928 0.022356711 0.26498181 -0.96425343 0 0
-0.0040753093 0.019560659 0.022590324 0.26498184 -0.96425343 0 0
-0.0035739739 0.019654684 0.022417024 0.15259364 -0.988289 0 0
-0.0024766428 0.019787844 0.022663102 0.11468337 -0.99340212 0 0
-0.0012900126 0.019924834 0.022546351 0.11468337 -0.99340212 0 0
-0.00053877605 0.019967441 0.022513971 0.019716671 -0.99980557 0.0002897589 0
0.00067185919 0.019930206 0.022549158 -0.038302612 -0.99926615 0 0
0.0013632523 0.019903706 0.022389725 -0.038302612 -0.99926621 0 0
0.0025012479 0.019806854 0.02251349 -0.132504 -0.99118227 0.00061770761 0
0.0033485303 0.019663464 0.022498408 -0.19626383 -0.98055106 0.00020500059 0
0.0045691081 0.019426746 0.022461345 -0.19039132 -0.98170829 0 0
0.0059148218 0.019070156 0.02212362 -0.37155595 -0.92840964 0.0013131363 0
0.014985668 0.019986095 0.022309273 0.63108784 0.77571094 -0.00085150189 0
0.015563943 0.019515835 0.022493318 0.63108784 0.77571094 -0.00085150189 0
-0.014067275 0.020636924 0.022745347 -0.51958418 0.85441929 0 0
-0.013653432 0.020888589 0.022460479 -0.51958418 0.85441929 0 0
0.013615322 0.020932881 0.022916721 0.519584 0.85441905 -0.00078734808 0
0.014380381 0.020438584 0.022561027 0.57201272 0.82024473 -0.00014203887 0
-0.013443816 0.021016058 0.022384424 -0.51958418 0.85441929 0 0
-0.012409422 0.02164509 0.022247972 -0.51958418 0.85441929 0 0
0.012384648 0.021680918 0.022533333 0.51958394 0.85441905 -0.00078734802 0
0.013273198 0.021140859 0.022837386 0.519584 0.85441905 -0.00078734808 0
-0.011324741 0.022260534 0.022671344 -0.42944738 0.90309191 0 0
-0.010660104 0.022562657 0.02255905 -0.39840093 0.91721141 0 0
-0.0099627171 0.022865575 0.022577334 -0.39840093 0.91721141 0 0
0.0098247975 0.022943482 0.022687156 0.39840084 0.91721117 -0.00072778639 0
0.010348033 0.022715861 0.022249859 0.39840084 0.91721117 -0.00072778639 0
0.011379509 0.022253023 0.022610383 0.46006534 0.88788509 0 0
-0.0093369186 0.023137398 0.022320203 -0.39840093 0.91721141 0 0
0.0074562444 0.023828862 0.022526328 0.26979667 0.96291709 -0.00067368773 0
0.0085983053 0.023467224 0.022454264 0.37478161 0.92711312 -0.0001819665 0
0.0094745513 0.023095299 0.022289505 0.39840084 0.91721117 -0.00072778639 0
-0.0064167208 0.024104362 0.022252174 -0.2697967 0.96291733 0 0
-0.0057145376 0.024301106 0.022582566 -0.26979673 0.96291733 0 0
-0.0045453846 0.024551462 0.022582678 -0.13616699 0.99068594 0 0
-0.0034647631 0.024699992 0.022569913 -0.13616699 0.99068588 0 0
-0.0025289939 0.024828611 0.022574259 -0.13616697 0.99068588 0 0
-0.0017183645 0.024925269 0.022168756 -0.068242587 0.9976688 0 0
-0.00069697911 0.02494172 0.022475144 0 1 0 0
0.00032083961 0.02494172 0.022773493 0 1 0 0
0.0017536308 0.02493331 0.022519691 0.051199295 0.99868846 0 0
0.0026749657 0.024822859 0.02267254 0.13616695 0.9906857 -0.0006253894 0
0.0037528684 0.024674604 0.02251149 0.13616695 0.9906857 -0.0006253894 0
0.0046305098 0.024554137 0.022773232 0.13616695 0.9906857 -0.0006253894 0
0.0055552372 0.02435551 0.02272252 0.23677742 0.97156382 -0.00044964932 0
-0.006506077 -0.024079327 0.023481123 -0.26979673 -0.96291733 0 0
-0.0054955469 -0.024362464 0.023422124 -0.26979673 -0.96291733 0 0
-0.0046601603 -0.02453569 0.023560004 -0.13616699 -0.99068594 0 0
-0.0035540408 -0.024687722 0.023324749 -0.13616697 -0.99068588 0 0
-0.0013518138 -0.024939209 0.023757527 -0.045483235 -0.99896508 0 0
-0.00065382523 -0.02494172 0.023649279 0 -1 0 0
0.00031226355 -0.02494172 0.023192447 0 -1 0 0
0.0022242842 -0.024882508 0.023588359 0.16756678 -0.98585993 -0.0012065863 0
0.0032307929 -0.02473215 0.023603134 0.13616699 -0.99068594 0 0
0.0046141529 -0.024542011 0.023592705 0.13616697 -0.99068588 0 0
0.0055481377 -0.024354486 0.023510149 0.26277304 -0.96485722 -0.00086694921 0
0.0067560938 -0.024009276 0.02314681 0.26979673 -0.96291733 0 0
-0.009390194 -0.023114255 0.023662254 -0.39840093 -0.91721141 0 0
-0.0085285436 -0.023480197 0.023504367 -0.356271 -0.93438262 0 0
-0.0075366995 -0.023790559 0.023387242 -0.26979673 -0.96291733 0 0
-0.0068210177 -0.023991086 0.023341084 -0.26979673 -0.96291733 0 0
0.0076072519 -0.023770792 0.023499804 0.26979673 -0.96291733 0 0
0.0083893342 -0.023540432 0.0236305 0.33489192 -0.94225663 0 0
-0.0114428 -0.02221209 0.023363531 -0.4600651 -0.88788521 0 0
-0.010595595 -0.022590676 0.023482243 -0.3984009 -0.91721135 0 0
-0.009758221 -0.022954397 0.023822362 -0.39840093 -0.91721141 0 0
0.0099177584 -0.022885103 0.023316642 0.3984009 -0.91721141 0 0
0.010807409 -0.022498673 0.023608699 0.3984009 -0.91721141 0 0
0.011547502 -0.022165706 0.023289736 0.44483924 -0.89561045 0 0
-0.013306247 -0.021099716 0.02341013 -0.51958418 -0.85441929 0 0
-0.012313772 -0.021703254 0.023573892 -0.51958418 -0.85441929 0 0
0.011891059 -0.021978164 0.023260923 0.49011073 -0.87166017 0 0
0.012352891 -0.021683544 0.023034504 0.54633015 -0.83756852 -0.0015154596 0
0.013345394 -0.02107591 0.023400679 0.51958418 -0.85441929 0 0
-0.014772261 -0.020135228 0.02369874 -0.63108808 -0.77571118 0 0
0.013890426 -0.020744469 0.023759825 0.51958418 -0.85441935 0 0
0.014550412 -0.020312244 0.023611853 0.59839678 -0.80119985 -0.00032857267 0
-0.016112372 -0.019044966 0.023269374 -0.63108808 -0.77571118 0 0
-0.015415225 -0.019612137 0.023461366 -0.63108808 -0.77571118 0 0
-0.0060774959 -0.019010447 0.023096737 0.26498184 0.96425343 0 0
-0.0054999655 -0.019169156 0.023654239 0.26498181 0.96425343 0 0
-0.0048868814 -0.019337637 0.023888011 0.26498184 0.96425343 0 0
-0.0038419522 -0.019614143 0.023469429 0.20544109 0.97866946 0 0
-0.0026621246 -0.019766431 0.023436716 0.11468337 0.99340212 0 0
-0.0016730542 -0.019880615 0.023584958 0.11468337 0.99340212 0 0
-0.00052076048 -0.019980596 0.023432665 0.015944283 0.99987292 0.00018793566 0
0.00090258813 -0.019934764 0.023783259 -0.038302608 0.99926603 0.0005630689 0
0.0014601247 -0.019913254 0.023534156 -0.038302608 0.99926603 0.0005630689 0
0.0024524482 -0.019834997 0.023356624 -0.13843484 0.99037153 0.00031804972 0
0.0034855371 -0.019652033 0.023399318 -0.19039126 0.98170805 0.00063521694 0
0.0045144097 -0.019452572 0.0235168 -0.19039127 0.98170811 0.000635217 0
0.005437348 -0.019236291 0.023578547 -0.28340778 0.95899945 0.00011320097 0
0.0061350716 -0.019001836 0.023329098 -0.33801681 0.94113988 0.00067858293 0
0.015485032 -0.019557521 0.023553682 0.63808191 -0.76996833 -0.00046875453 0
-0.017251056 -0.018070426 0.023471773 -0.7308358 -0.68255341 0 0
-0.016722182 -0.018548852 0.023739599 -0.63108814 -0.77571118 0 0
-0.0082845753 -0.018139495 0.023776842 0.4090687 0.91250366 0 0
-0.0077188052 -0.018393127 0.023360632 0.4090687 0.91250366 0 0
-0.0068712463 -0.018773081 0.023473311 0.4090687 0.9125036 0 0
0.0065548145 -0.018851345 0.023693589 -0.33801675 0.94113976 0.00067858282 0
0.0074723121 -0.018520782 0.02342511 -0.34401849 0.9389627 0.00056554336 0
0.0083184736 -0.018179769 0.02358813 -0.40905115 0.91251141 0.00024217377 0
0.016515814 -0.018716743 0.023169374 0.63108802 -0.77571118 0 0
0.01718376 -0.018150967 0.02329319 0.70710683 -0.70710683 0 0
-0.018114446 -0.017145963 0.023367763 -0.73083568 -0.68255341 0 0
-0.017482184 -0.017822947 0.023239652 -0.7308358 -0.68255341 0 0
-0.010323851 -0.017071949 0.02315551 0.54356736 0.83936554 0 0
-0.0094347093 -0.017610691 0.023586398 0.44366938 0.89619058 0 0
-0.0088333143 -0.017893499 0.023549778 0.4090687 0.91250366 0 0
0.0087860832 -0.017940421 0.023226105 -0.47771958 0.87851214 0.00072545529 0
0.0095012179 -0.01755169 0.023403475 -0.47771955 0.87851208 0.00072545529 0
0.010340087 -0.017095767 0.023693744 -0.47771958 0.87851214 0.00072545529 0
0.01737047 -0.017964259 0.023606751 0.70710683 -0.70710683 0 0
0.018186405 -0.017068911 0.023198267 0.7308358 -0.68255341 0 0
-0.019129701 -0.01605889 0.023909068 -0.7308358 -0.68255341 0 0
-0.018571632 -0.016656436 0.023396576 -0.7308358 -0.68255329 0 0
-0.011206042 -0.01650065 0.023375612 0.54356736 0.83936554 0 0
-0.010616349 -0.016882531 0.02308641 0.54356736 0.83936554 0 0
0.010640412 -0.016924605 0.023881249 -0.51101798 0.85957003 0 0
0.011261696 -0.016511299 0.023773033 -0.59088057 0.80675894 0.00038741794 0
0.018534213 -0.016696502 0.023654006 0.73083574 -0.68255335 0 0
0.01904761 -0.016146788 0.023495205 0.7308358 -0.68255341 0 0
-0.019515242 -0.015582773 0.023683527 -0.78427148 -0.62041783 0 0
-0.012647699 -0.015438924 0.023438452 0.64886343 0.76090485 0 0
-0.011993842 -0.015990475 0.023852164 0.54356736 0.83936554 0 0
0.012534998 -0.015542028 0.023469951 -0.60622531 0.79529256 0.00077469368 0
0.013147218 -0.015062435 0.023558749 -0.63624245 0.7714892 0 0
0.019517127 -0.015596157 0.023539836 0.77974021 -0.6261031 -0.00038264369 0
-0.020357123 -0.01441104 0.02354119 -0.81697005 -0.57668012 0 0
-0.014219075 -0.014039185 0.023764383 0.6653257 0.74655324 0 0
-0.013607711 -0.014584032 0.023250265 0.6653257 0.74655324 0 0
0.013486098 -0.014753686 0.023517758 -0.68650538 0.72712475 0.00020629374 0
0.014217948 -0.014012421 0.023882499 -0.72052145 0.69343221 0.00082445587 0
0.019966334 -0.014989129 0.023747664 0.83503038 -0.55020064 -0.001909102 0
0.02036293 -0.014405048 0.023407742 0.81960183 -0.5729335 -0.00027274605 0
-0.020766446 -0.01383116 0.023631955 -0.81697005 -0.57668012 0 0
-0.015101518 -0.013030659 0.023537327 0.77148908 0.63624257 0 0
-0.014484611 -0.013767431 0.023552958 0.73108292 0.68228859 0 0
0.014714699 -0.01349574 0.023441894 -0.72052145 0.69343227 0.00082445599 0
0.015121016 -0.013071314 0.023176311 -0.74655336 0.66532558 0 0
0.02082099 -0.01375389 0.023429414 0.81697005 -0.57668012 0 0
0.021154806 -0.01328098 0.02365325 0.81697005 -0.57668012 0 0
-0.021628041 -0.012473241 0.0237321 -0.88788509 -0.46006528 0 0
-0.015546792 -0.012490734 0.023488348 0.77148908 0.63624257 0 0
0.015672581 -0.012391013 0.023391038 -0.79530418 0.60621029 0.00058232766 0
0.021573428 -0.012608153 0.023352232 0.87810308 -0.47847128 -0.00040840497 0
-0.022169063 -0.01142911 0.023515975 -0.88788509 -0.46006528 0 0
-0.016231533 -0.011658838 0.023414502 0.81792945 0.57531857 0 0
-0.015969252 -0.01197847 0.023345415 0.77148908 0.63624257 0 0
0.016419603 -0.011353114 0.023407971 -0.81792909 0.5753184 0.00087220973 0
0.022162318 -0.01144213 0.023496974 0.88788509 -0.46006528 0 0
-0.022577202 -0.010641441 0.0233502 -0.88788509 -0.46006528 0 0
-0.017130855 -0.010207364 0.02344504 0.85956985 0.51101834 0 0
-0.01688865 -0.01061477 0.023665439 0.85956985 0.51101834 0 0
0.016877381 -0.010699898 0.023611384 -0.82520932 0.56482679 0.00058156805 0
0.017001864 -0.010513039 0.023981102 -0.83936578 0.54356706 0 0
0.022704512 -0.010395747 0.023680111 0.88788509 -0.46006528 0 0
-0.02311945 -0.0094277579 0.023317629 -0.94226092 -0.33487943 0 0
-0.017635494 -0.0093585253 0.023198845 0.85956985 0.51101834 0 0
0.017449541 -0.009736727 0.023383318 -0.88572949 0.46420157 0.00036595814 0
0.023161834 -0.0093615875 0.023564482 0.93823606 -0.3459951 -0.00072055199 0
-0.023441367 -0.0085219769 0.023684822 -0.94226098 -0.33487943 0 0
-0.018177733 -0.0082431324 0.02345044 0.92750233 0.37381735 0 0
-0.017865235 -0.0089720851 0.023695154 0.85956985 0.51101834 0 0
0.018132336 -0.008368562 0.023565738 -0.89616507 0.44371995 0.00091473415 0
0.023369795 -0.0087456489 0.023078578 0.95274621 -0.30375952 -0.0021605769 0
-0.023780659 -0.0075672963 0.023531046 -0.94226098 -0.33487943 0 0
-0.018418973 -0.0076445765 0.023585757 0.92750233 0.37381735 0 0
0.018511018 -0.0075395131 0.023568124 -0.92953533 0.3687329 0 0
0.023789963 -0.0075411168 0.023338789 0.94226098 -0.33487946 0 0
-0.024139151 -0.0063992874 0.023694405 -0.96881706 -0.24777734 0 0
-0.018827518 -0.0066309073 0.023629352 0.92750233 0.37381735 0 0
0.018912274 -0.0064053037 0.023392936 -0.95339602 0.30172032 0.00094859482 0
0.019016515 -0.0060760905 0.023447424 -0.95339602 0.30172032 0.00094859482 0
0.024130454 -0.0064957482 0.023441918 0.96738738 -0.25330132 0 0
-0.024350798 -0.0054077692 0.023440771 -0.97908401 -0.20345621 0 0
-0.019149322 -0.0056865835 0.023665655 0.97369546 0.22785325 0 0
0.019186424 -0.0055393837 0.023504123 -0.95339602 0.30172035 0.00094859482 0
0.024336593 -0.0055340831 0.023550706 0.98532635 -0.17066608 -0.0022565273 0
-0.024571791 -0.0043442794 0.023768645 -0.97908407 -0.20345622 0 0
-0.019379422 -0.0047032898 0.023480562 0.97369546 0.22785325 0 0
0.019437281 -0.0046640127 0.023358122 -0.97070491 0.24027455 0 0
0.024541629 -0.004489434 0.023448901 0.97908401 -0.20345618 0 0
-0.02471086 -0.0036750489 0.023819607 -0.97908407 -0.20345622 0 0
-0.019634118 -0.0036148843 0.02352176 0.97369546 0.22785325 0 0
0.019661119 -0.003494089 0.023465317 -0.98742986 0.15805532 0.00083190517 0
0.024751309 -0.0034733997 0.023382623 0.98821676 -0.153061 0 0
-0.024828315 -0.0025099926 0.023382466 -0.9976688 -0.068242349 0 0
-0.019805884 -0.0025283883 0.02345947 0.99706578 0.076549254 0 0
0.019815659 -0.0024856576 0.023459686 -0.99014884 0.14001727 0.00064708479 0
0.024851909 -0.002450966 0.023651263 0.99837393 -0.056983523 -0.0015468522 0
-0.024915315 -0.0012380654 0.023305828 -0.9976688 -0.068242349 0 0
-0.019874122 -0.0016395962 0.023680666 0.99706584 0.076549262 0 0
0.019935781 -0.001523876 0.023506107 -0.99706578 0.076549254 0 0
0.024889046 -0.0016267442 0.02328518 0.99807131 -0.062076192 -0.00042168729 0
-0.024996653 -4.8947317e-05 0.023790915 -0.9976688 -0.068242349 0 0
-0.019953318 -0.00060802198 0.0235302 0.99706578 0.076549254 0 0
0.019978017 -0.00057353702 0.023578882 -0.99926615 0.038301855 0 0
0.02497646 -0.00034416391 0.023634145 0.99766886 -0.068242349 0 0
-0.024963172 0.00053842331 0.023629967 -0.99766874 0.068242341 0 0
-0.019969027 0.00040340965 0.023694482 0.99706584 -0.076549262 0 0
0.019980436 0.0005104235 0.023344567 -0.99926627 -0.038301863 -3.1270839e-18 0
0.024982665 0.00049787783 0.023621637 0.99916059 0.040964957 -0.00023260387 0
-0.024903616 0.0014090852 0.023542609 -0.99766874 0.068242341 0 0
-0.019906355 0.0012197472 0.023238048 0.99706584 -0.076549262 0 0
0.019920651 0.0016614918 0.02353264 -0.99152482 -0.12991725 0 0
0.024943739 0.0012241916 0.023571556 0.99766809 0.068242304 -0.0011629106 0
-0.02482773 0.0025184914 0.023531882 -0.9976688 0.068242349 0 0
-0.019806007 0.0025267855 0.023372868 0.99706578 -0.076549254 0 0
0.019766174 0.0026648999 0.023626449 -0.98828042 -0.15264957 0 0
0.024843097 0.0026653928 0.02363535 0.99475729 0.1022643 0 0
-0.02475849 0.0034458386 0.023696246 -0.97908407 0.20345622 0 0
-0.019590987 0.0037992008 0.023611346 0.97369552 -0.22785328 0 0
0.019670354 0.0033118054 0.023574065 -0.99099296 -0.13391057 0.00096434139 0
0.024745276 0.0034860936 0.023381464 0.99068588 0.13616697 0 0
-0.024574809 0.0043297587 0.023751497 -0.97908407 0.20345622 0 0
-0.019379823 0.0047015813 0.023545761 0.97369546 -0.22785328 0 0
0.019455479 0.0045723231 0.023451986 -0.96915233 -0.24646252 0 0
0.024531724 0.0046699098 0.023669355 0.97908342 0.20345609 -0.0011417238 0
-0.024334688 0.0054852907 0.023695206 -0.97908407 0.20345622 0 0
-0.019241611 0.0052922 0.023558611 0.97369552 -0.22785328 0 0
0.019215437 0.0053738081 0.0236331 -0.95339644 -0.30172047 0 0
0.024375718 0.0054185758 0.023297954 0.97908342 0.20345609 -0.0011417238 0
-0.019028587 0.0061320253 0.023708582 0.92750233 -0.37381735 0 0
-0.018870395 0.006524527 0.023457013 0.92750233 -0.37381735 0 0
0.01885156 0.0065558101 0.023353992 -0.96109921 -0.27620018 0.0013368373 0
0.024093777 0.0066474681 0.023505 0.96738452 0.25331265 0 0
-0.023780072 0.0075689522 0.023534754 -0.94226098 0.33487949 0 0
-0.018441485 0.0075887176 0.023518384 0.92750233 -0.37381741 0 0
0.018452955 0.0076659396 0.023668401 -0.92017186 -0.39151478 0 0
0.023769252 0.0076757893 0.023625813 0.94508493 0.32682386 -0.00082657643 0
-0.023373773 0.0087121679 0.023524575 -0.94226098 0.33487943 0 0
-0.018127307 0.0083682491 0.023221847 0.92750233 -0.37381735 0 0
-0.017859656 0.0089814682 0.023162011 0.85956985 -0.51101834 0 0
0.017801266 0.0089886319 0.023430113 -0.89616543 -0.44372013 0 0
0.018188132 0.0082072932 0.023484606 -0.89616543 -0.44372013 0 0
0.023505135 0.0084198872 0.023500206 0.94226044 0.33487922 -0.0011019814 0
-0.023076303 0.0095491661 0.023944158 -0.94226098 0.33487943 0 0
-0.022954078 0.0098930756 0.023102487 -0.94226098 0.33487943 0 0
-0.017489837 0.0096035302 0.023328194 0.85956985 -0.51101834 0 0
0.01753013 0.0095550884 0.023389962 -0.89590466 -0.44424573 0.00071768108 0
0.022961929 0.0098797809 0.023880091 0.9302786 0.36685386 0 0
0.02318456 0.0093110623 0.023479041 0.9352023 0.35411361 -0.00044085426 0
-0.02273008 0.010346402 0.023452893 -0.88788509 0.46006528 0 0
-0.017141847 0.010188874 0.023454983 0.85956985 -0.51101834 0 0
-0.016945099 0.010519821 0.023153439 0.85956985 -0.51101834 0 0
0.01685508 0.010698507 0.023528012 -0.81792939 -0.57531863 0 0
0.01726846 0.010078649 0.023373721 -0.87851232 -0.47771969 0 0
0.022673938 0.010495519 0.023285665 0.89712435 0.44177794 -0.0004193052 0
-0.022182941 0.011402331 0.023682751 -0.88788509 0.46006528 0 0
-0.021935983 0.011878937 0.023317164 -0.88788509 0.46006528 0 0
-0.016236547 0.01164994 0.023194693 0.80294323 -0.59605551 0 0
0.016058188 0.011833343 0.023539424 -0.83167154 -0.5552668 0.0011342642 0
0.022205232 0.011412655 0.023413753 0.88788462 0.46006504 -0.0010481162 0
-0.021703634 0.012327349 0.023216888 -0.88788509 0.46006528 0 0
-0.015653268 0.012361623 0.023710057 0.77148908 -0.63624257 0 0
0.015748251 0.012281308 0.023423085 -0.81713992 -0.57643783 0.0013648394 0
0.021618173 0.012524744 0.023489127 0.87990075 0.4751572 -0.00052413455 0
-0.021154543 0.013281351 0.02336809 -0.81697005 0.57668012 0 0
-0.020866128 0.01368994 0.023697754 -0.81697005 0.57668012 0 0
-0.015116145 0.013012923 0.023266936 0.77148908 -0.63624257 0 0
-0.014489205 0.013764165 0.023333861 0.72052157 -0.69343257 0 0
0.014548828 0.013640219 0.023512188 -0.72052169 -0.69343239 0 0
0.020864591 0.013732361 0.023553973 0.81696969 0.57667983 -0.00098527584 0
0.021093482 0.013396676 0.02312706 0.83618224 0.54845178 0 0
-0.020253859 0.014557334 0.023585495 -0.81697005 0.57668012 0 0
-0.014259744 0.014002942 0.023831891 0.6653257 -0.74655324 0 0
-0.013637554 0.014557436 0.023598494 0.6653257 -0.74655324 0 0
0.013671132 0.014563116 0.023441797 -0.72346711 -0.69035822 0.00091602228 0
0.014142739 0.014062173 0.023138339 -0.72052169 -0.69343245 0 0
0.02013623 0.014764311 0.023608485 0.81696969 0.57667983 -0.00098527584 0
-0.019380756 0.015784223 0.023446407 -0.7757113 0.63108796 0 0
-0.013056818 0.015074985 0.023177333 0.6653257 -0.74655324 0 0
-0.012269953 0.015770338 0.023378599 0.5939436 -0.8045066 0 0
0.012583137 0.01548247 0.023438036 -0.60622555 -0.79529279 0 0
0.013067557 0.015113214 0.023496263 -0.60622555 -0.79529279 0 0
0.019516712 0.015604442 0.02347886 0.78106844 0.62444538 -0.00024656151 0
-0.019061713 0.016131686 0.02357845 -0.7308358 0.68255341 0 0
-0.018541208 0.016689012 0.023368962 -0.73083568 0.68255341 0 0
-0.011552521 0.016276274 0.023379628 0.54356736 -0.83936554 0 0
-0.010629749 0.016873853 0.023758261 0.54356736 -0.83936554 0 0
0.010845198 0.016801529 0.023348153 -0.47771969 -0.87851232 0 0
0.011306114 0.016469365 0.023309024 -0.6151188 -0.78843373 0.0010016307 0
0.01868427 0.016567614 0.023621239 0.7308355 0.68255311 -0.00091840309 0
0.019162996 0.016040729 0.023940761 0.75371265 0.65720415 0 0
-0.017656473 0.017636333 0.023576243 -0.7308358 0.68255329 0 0
-0.01012289 0.017202092 0.02361268 0.54356736 -0.83936554 0 0
-0.009630342 0.017490063 0.023546761 0.50003844 -0.86600322 0 0
-0.0088502076 0.017885927 0.023537239 0.4090687 -0.9125036 0 0
0.0088799745 0.017875098 0.023281679 -0.49340987 -0.86979663 0.00070223899 0
0.009699122 0.017424747 0.023362361 -0.47771969 -0.87851226 0 0
0.010436779 0.017023621 0.023853729 -0.47771969 -0.87851232 0 0
0.017681785 0.017640386 0.023156472 0.7308355 0.68255311 -0.00091840309 0
-0.017007234 0.018316941 0.023315944 -0.63108808 0.77571118 0 0
-0.016655797 0.018602857 0.023496499 -0.63108814 0.77571118 0 0
-0.0082977191 0.018133603 0.023349037 0.40906873 -0.9125036 0 0
-0.0073983087 0.018536802 0.023612605 0.4090687 -0.9125036 0 0
-0.0064359568 0.018902671 0.023305129 0.30166715 -0.95341337 0 0
0.0066821324 0.018788533 0.023437306 -0.33801687 -0.94114006 0 0
0.0076690838 0.018434064 0.023333039 -0.33801687 -0.94114006 0 0
0.016588645 0.018681049 0.023473581 0.63637048 0.77138329 -0.00068126514 0
0.017293705 0.018041022 0.023546353 0.70710683 0.70710683 0 0
-0.01605539 0.019091323 0.023113692 -0.63108808 0.77571118 0 0
-0.01546063 0.019575197 0.02361027 -0.63108808 0.77571118 0 0
-0.0056945309 0.01911569 0.02348211 0.26498184 -0.96425343 0 0
-0.0044573452 0.019455675 0.023432048 0.26498184 -0.96425343 0 0
-0.0034137443 0.019679662 0.023648329 0.11468337 -0.99340212 0 0
-0.0025413409 0.019780375 0.023353901 0.11468337 -0.99340212 0 0
-0.0015064587 0.019899849 0.02351651 0.11468337 -0.99340212 0 0
-0.00021407435 0.019972911 0.023332113 -0.058713105 -0.99827439 0.00096326234 0
0.00054623984 0.019935023 0.023500567 -0.038302608 -0.99926615 0 0
0.0017130295 0.019890299 0.023471782 -0.038302612 -0.99926615 0 0
0.0025863564 0.01981144 0.02370186 -0.1365521 -0.99063277 0.00049373915 0
0.0035386391 0.019626686 0.023480484 -0.19391553 -0.98101819 0.00012299647 0
0.0043928982 0.019460922 0.023333749 -0.19039132 -0.98170829 0 0
0.0053469199 0.019266685 0.023353657 -0.27027664 -0.96278268 0 0
0.0060492181 0.019017896 0.023201058 -0.37155595 -0.92840964 0.0013131363 0
0.01534366 0.019696349 0.02367733 0.63108784 0.77571094 -0.00085150189 0
0.016019456 0.019146107 0.023274399 0.63108784 0.77571094 -0.00085150189 0
-0.014543617 0.020321241 0.023582255 -0.63108808 0.77571118 0 0
-0.013956046 0.020704566 0.023579508 -0.51958418 0.85441929 0 0
0.013997985 0.020699084 0.023216465 0.54845178 0.83618218 0 0
0.014412726 0.020413702 0.023242911 0.58594495 0.81035084 0 0
-0.013202352 0.021162895 0.023471465 -0.51958418 0.85441929 0 0
-0.012475084 0.021605158 0.023632979 -0.51958412 0.85441929 0 0
0.012458069 0.021637028 0.023357816 0.519584 0.85441905 -0.00078734814 0
0.013263899 0.021147037 0.023404822 0.519584 0.85441899 -0.00078734802 0
-0.011276404 0.022294959 0.02362358 -0.39840093 0.91721135 0 0
-0.010279236 0.022728089 0.02333105 -0.3984009 0.91721135 0 0
-0.0098782033 0.022902284 0.023945212 -0.39840093 0.91721141 0 0
0.0097762272 0.0229651 0.023344591 0.39840084 0.91721117 -0.00072778639 0
0.010236479 0.022765387 0.023598712 0.39840084 0.91721117 -0.00072778639 0
0.011455987 0.022212757 0.023443962 0.44992569 0.89306599 0 0
-0.0083306581 0.023545682 0.023435479 -0.31331396 0.94964957 0 0
-0.0076173986 0.023767948 0.023440465 -0.26979673 0.96291733 0 0
-0.006848271 0.023983449 0.02350555 -0.26979673 0.96291733 0 0
0.0073961858 0.023846319 0.023425939 0.26979664 0.96291709 -0.00067368767 0
0.0084216446 0.023532121 0.023394391 0.33487943 0.94226104 0 0
0.0094222743 0.023119051 0.023606243 0.39840084 0.91721117 -0.00072778639 0
-0.0063658352 0.024118621 0.023417711 -0.26979673 0.96291733 0 0
-0.0053405934 0.024405882 0.023175253 -0.26979673 0.96291733 0 0
-0.0042098309 0.024597583 0.023404017 -0.13616697 0.99068588 0 0
-0.0035347568 0.024690371 0.02330265 -0.13616697 0.99068588 0 0
-0.0025243601 0.024829246 0.023288464 -0.13616697 0.99068588 0 0
-0.0011319306 0.02494172 0.023558717 0 1 0 0
-0.00036318175 0.02494172 0.023480114 0 1 0 0
0.00046882679 0.02494172 0.02366296 0 1 0 0
0.0012986918 0.02494172 0.023790345 0 1 0 0
0.0022735812 0.024877185 0.023454564 0.12488224 0.99217147 -0.0004169803 0
0.0035275174 0.024706224 0.02353891 0.13616695 0.9906857 -0.0006253894 0
0.0045672674 0.024561407 0.023530504 0.15868349 0.98732948 -0.00020849018 0
0.0058126431 0.024290113 0.023576466 0.26979667 0.96291709 -0.00067368778 0
0.0061901375 0.02418422 0.023397384 0.26979667 0.96291709 -0.00067368773 0
-0.0064261295 -0.024101727 0.024873728 -0.26979673 -0.96291733 0 0
-0.0057103196 -0.024302289 0.024409503 -0.26979673 -0.96291733 0 0
-0.0047196136 -0.024527514 0.024634978 -0.13616697 -0.99068588 0 0
-0.003625917 -0.024677841 0.024337346 -0.13616699 -0.99068594 0 0
-0.0027458337 -0.024798807 0.024405051 -0.13616699 -0.99068594 0 0
-0.0016003955 -0.024925487 0.024518412 -0.068242587 -0.9976688 0 0
0.00087163085 -0.02494172 0.024762817 0 -1 0 0
0.0016208175 -0.024935797 0.024372587 0.06825576 -0.99766785 0 0
0.0022814106 -0.024874337 0.024845611 0.16756679 -0.98585999 -0.0012065863 0
0.0032076659 -0.024735328 0.024511568 0.13616699 -0.99068594 0 0
0.0046203672 -0.024541156 0.024418503 0.13616697 -0.99068588 0 0
0.005418106 -0.024389461 0.024507498 0.22251737 -0.97492856 -0.00052063854 0
0.006492686 -0.024083078 0.024889348 0.26979673 -0.96291733 0 0
-0.0093326978 -0.023139229 0.024585044 -0.39840093 -0.91721141 0 0
-0.0084671155 -0.023507392 0.024426036 -0.33487952 -0.94226098 0 0
-0.0071944916 -0.023886442 0.024882458 -0.26979673 -0.96291733 0 0
0.0068751904 -0.023975909 0.024291892 0.26979673 -0.96291733 0 0
0.0076402272 -0.023761554 0.024270855 0.26979673 -0.96291733 0 0
0.0086024944 -0.023459923 0.024600493 0.35317639 -0.93555659 -0.00056196726 0
0.0095928637 -0.023026224 0.024207128 0.3984009 -0.91721141 0 0
-0.011300629 -0.022284437 0.024454255 -0.39840093 -0.91721141 0 0
-0.010871412 -0.022470873 0.024737649 -0.39840093 -0.91721141 0 0
-0.0098449625 -0.022916719 0.02421226 -0.39840093 -0.91721141 0 0
0.0097878799 -0.022941515 0.024837108 0.3984009 -0.91721141 0 0
0.010862607 -0.022474697 0.024577886 0.3984009 -0.91721135 0 0
0.011425264 -0.022219842 0.024483398 0.46007717 -0.88787901 0 0
-0.012538979 -0.021566303 0.024321813 -0.51958418 -0.85441929 0 0
0.011874828 -0.021987289 0.02482242 0.49011073 -0.87166017 0 0
0.012678784 -0.021483416 0.024520904 0.52855837 -0.84889686 -0.00050520943 0
0.013370845 -0.021060433 0.024296217 0.51958418 -0.85441929 0 0
-0.014479177 -0.020355074 0.024366923 -0.57668054 -0.81696975 0 0
-0.013761098 -0.020823114 0.024606876 -0.51958418 -0.85441929 0 0
0.013732282 -0.020840641 0.024448223 0.51958418 -0.85441929 0 0
0.014564125 -0.020305149 0.024521824 0.57616025 -0.81733668 -0.00041117056 0
-0.015581693 -0.019476704 0.024355074 -0.63108814 -0.77571118 0 0
-0.0060793487 -0.01900994 0.024353625 0.26498184 0.96425343 0 0
-0.0054431483 -0.01918477 0.024384586 0.26498181 0.96425343 0 0
-0.0041879769 -0.019529698 0.024509035 0.26498184 0.96425343 0 0
-0.0032543195 -0.019698067 0.024449224 0.11468336 0.99340206 0 0
-0.0023420963 -0.019803377 0.024653217 0.11468338 0.99340218 0 0
-0.0013454312 -0.019918438 0.024332736 0.11468337 0.99340206 0 0
-0.00023683501 -0.01997878 0.024494089 -0.03315603 0.99945009 0.00046217116 0
0.0004921853 -0.019950891 0.024486387 -0.038302608 0.99926609 0.0005630689 0
0.0015751887 -0.019909404 0.024528161 -0.038302604 0.99926609 0.00056306884 0
0.0021158864 -0.019883405 0.024576236 -0.086094297 0.99628699 0 0
0.0037493296 -0.019601518 0.024395604 -0.19039127 0.98170811 0.000635217 0
0.0043739546 -0.019480512 0.024600858 -0.19039127 0.98170811 0.000635217 0
0.0055928975 -0.019192221 0.024544323 -0.31387076 0.94946569 0.0002262312 0
0.015525543 -0.019528491 0.024516402 0.63924265 -0.76900494 -0.00054688525 0
0.016094958 -0.019059133 0.024610646 0.63108808 -0.77571124 0 0
-0.01662744 -0.018625926 0.024343409 -0.63108814 -0.77571118 0 0
-0.008324001 -0.018121824 0.024316259 0.4090687 0.9125036 0 0
-0.0073311147 -0.018566925 0.024366455 0.4090687 0.9125036 0 0
-0.0065996568 -0.018866956 0.024069207 0.26498184 0.96425343 0 0
0.006246563 -0.01896238 0.02414047 -0.33801681 0.94113988 0.00067858293 0
0.0075132749 -0.018506935 0.024503408 -0.34701455 0.93785959 0.00050900731 0
0.0084301885 -0.018126875 0.024364937 -0.44372031 0.89616537 0 0
0.016221069 -0.018956535 0.024736781 0.63108808 -0.77571124 0 0
-0.018151168 -0.017106641 0.024306864 -0.7308358 -0.68255341 0 0
-0.017422013 -0.017887376 0.024195012 -0.7308358 -0.68255341 0 0
-0.010261328 -0.017112439 0.024260228 0.54356736 0.83936554 0 0
-0.0096160006 -0.017516341 0.024578618 0.45508832 0.89044631 0 0
-0.0087269023 -0.017941205 0.02467712 0.4090687 0.9125036 0 0
0.0088023003 -0.017932724 0.02458455 -0.47771955 0.87851208 0.00072545523 0
0.0091626234 -0.01773661 0.024370102 -0.47771958 0.87851214 0.00072545529 0
0.010281781 -0.017127829 0.024655515 -0.48611107 0.8738969 0.00054416637 0
0.017704498 -0.01760542 0.024462689 0.75217766 -0.65895796 -0.0017731799 0
-0.019093778 -0.016097356 0.024616128 -0.7308358 -0.68255341 0 0
-0.018652644 -0.016569693 0.024047524 -0.7308358 -0.68255341 0 0
-0.011322247 -0.016425397 0.024581822 0.54356736 0.83936554 0 0
-0.010592583 -0.016897921 0.024486553 0.54356736 0.83936554 0 0
0.01079778 -0.01683066 0.024834245 -0.53279912 0.84624171 0 0
0.011506732 -0.016327143 0.024805857 -0.60622531 0.79529256 0.00077469368 0
0.018733684 -0.016482921 0.024081193 0.7308358 -0.68255341 0 0
-0.019695211 -0.015348757 0.024445517 -0.81697005 -0.57668012 0 0
-0.013047424 -0.015083358 0.024738712 0.6653257 0.74655324 0 0
-0.012509873 -0.015562421 0.024549678 0.6653257 0.74655324 0 0
0.01259758 -0.015495656 0.024836626 -0.60622531 0.79529256 0.00077469368 0
0.019423435 -0.015725784 0.024418533 0.77571982 -0.63107753 0 0
-0.020399267 -0.014351338 0.024571866 -0.81697005 -0.57668012 0 0
-0.013584643 -0.014604594 0.024513878 0.6653257 0.74655324 0 0
0.013845552 -0.014400056 0.024464194 -0.72052145 0.69343221 0.00082445587 0
0.014168824 -0.014063831 0.024192004 -0.72052145 0.69343221 0.00082445587 0
0.020207787 -0.014633689 0.024389286 0.83059555 -0.55687428 -0.0014319648 0
-0.020846238 -0.013718119 0.024008185 -0.81697005 -0.57668012 0 0
-0.015093341 -0.013040573 0.024459679 0.77148908 0.63624257 0 0
-0.014595996 -0.01364364 0.02449806 0.77148908 0.63624257 0 0
0.014783166 -0.013425889 0.024529239 -0.72052145 0.69343215 0.00082445587 0
0.020816956 -0.013759604 0.02463527 0.81697005 -0.57668012 0 0
0.021082394 -0.013383564 0.024584949 0.81697005 -0.57668012 0 0
-0.021703897 -0.012326844 0.024611317 -0.88788509 -0.46006528 0 0
-0.015528815 -0.012512531 0.024620119 0.77148908 0.63624257 0 0
0.015643876 -0.012423452 0.024204195 -0.79530132 0.60621423 0.00043658537 0
0.021525085 -0.012696858 0.0246686 0.87166017 -0.49011075 0 0
-0.022213899 -0.011342584 0.024401858 -0.88788509 -0.46006528 0 0
-0.021948112 -0.011855528 0.024622018 -0.88788509 -0.46006528 0 0
-0.016381821 -0.011432879 0.024630217 0.82666594 0.56269294 0 0
-0.015995346 -0.01194683 0.024901971 0.77148908 0.63624257 0 0
0.015978012 -0.011983034 0.024803113 -0.81792909 0.5753184 0.00087220973 0
0.016330928 -0.011480554 0.024314092 -0.81792909 0.5753184 0.00087220973 0
0.021894738 -0.011989384 0.024938785 0.90231842 -0.43106529 -0.002041301 0
0.022110535 -0.011545055 0.024676705 0.89280075 -0.45045134 -0.00068051333 0
-0.022618813 -0.010561138 0.024492713 -0.88788509 -0.46006528 0 0
-0.017053789 -0.010336997 0.024562875 0.85956985 0.51101834 0 0
-0.016809214 -0.010748387 0.024399318 0.85956985 0.51101834 0 0
0.016740197 -0.010898776 0.024364728 -0.81792909 0.5753184 0.00087220973 0
0.017193507 -0.01020741 0.024700474 -0.85956985 0.5110184 0 0
0.022841392 -0.010131577 0.024002844 0.88788509 -0.46006528 0 0
-0.023117919 -0.00943207 0.024529669 -0.94226092 -0.33487943 0 0
-0.017631687 -0.00936493 0.024604499 0.85956985 0.51101828 0 0
0.017507209 -0.0096247597 0.024589539 -0.8875016 0.46080443 0.00045745107 0
0.023144687 -0.0094104055 0.0245714 0.93977219 -0.34180033 -0.00086469686 0
-0.023433747 -0.008543415 0.024520317 -0.94226098 -0.33487943 0 0
-0.018141156 -0.0083338842 0.024525622 0.92750233 0.37381735 0 0
-0.01792556 -0.0088688154 0.024420004 0.92750233 0.37381735 0 0
0.017834477 -0.0089718383 0.024391243 -0.89616507 0.44371995 0.00091473421 0
0.018173611 -0.008287413 0.024639446 -0.89616501 0.44371992 0.00091473415 0
0.023472436 -0.0084432615 0.024882844 0.9476319 -0.3193627 -0.0010804348 0
-0.02387961 -0.0072888718 0.024673218 -0.94226098 -0.33487946 0 0
-0.018524732 -0.0073821717 0.024605231 0.92750233 0.37381735 0 0
0.018498627 -0.0075910478 0.024662597 -0.91250336 0.4090693 0 0
0.023808891 -0.0074878577 0.024225166 0.94226098 -0.33487946 0 0
-0.024139848 -0.0064142817 0.024423992 -0.97317082 -0.23008402 0 0
-0.019027125 -0.00613565 0.024216056 0.92750233 0.37381735 0 0
-0.018816207 -0.0066589741 0.024396861 0.92750233 0.37381735 0 0
0.018809564 -0.006731987 0.024069998 -0.95339602 0.30172032 0.00094859482 0
0.024089541 -0.0066510215 0.024604456 0.95518613 -0.29600608 0 0
-0.019194728 -0.0054925536 0.024134709 0.97369552 0.22785328 0 0
0.019341413 -0.0050392132 0.024736509 -0.96425354 0.26498133 0 0
0.024340529 -0.0055243573 0.024321979 0.98416597 -0.17723997 -0.0018053834 0
-0.019408951 -0.0045771068 0.024662239 0.97369546 0.22785325 0 0
0.019462764 -0.0045870789 0.024614969 -0.97070497 0.24027455 0 0
0.02456069 -0.0043977024 0.024400376 0.97908401 -0.20345619 0 0
-0.024749646 -0.003440351 0.024621174 -0.99068594 -0.13616672 0 0
-0.01972935 -0.0032060326 0.024867959 0.98828042 0.15264916 0 0
0.019642422 -0.0036211419 0.024389651 -0.98827994 0.15264949 0.00097046886 0
0.024734823 -0.0035597321 0.024510235 0.97908401 -0.20345619 0 0
-0.024835343 -0.0024072088 0.024500953 -0.99766874 -0.068242349 0 0
-0.019806577 -0.0025193472 0.024497878 0.99706584 0.076549262 0 0
0.019792022 -0.0026543399 0.024663121 -0.98827994 0.15264949 0.00097046886 0
0.024850851 -0.0024498322 0.024350539 0.99766272 -0.06832134 -0.0011602142 0
-0.024894074 -0.0015485927 0.024625998 -0.9976688 -0.068242349 0 0
-0.019893354 -0.0013890708 0.024493439 0.99706584 0.076549254 0 0
0.019955754 -0.0011543359 0.024321973 -0.99926621 0.038301859 0 0
0.024903817 -0.0014061353 0.02449806 0.99766886 -0.068242349 0 0
-0.024988519 -0.00016785093 0.024755528 -0.99766874 -0.068242349 0 0
-0.019970305 -0.00038675941 0.024458116 0.99706584 0.076549262 0 0
0.019985212 -0.00038579517 0.024757151 -0.99926627 0.038301859 0 0
0.024981495 -0.00027054647 0.024581157 0.99766886 -0.068242349 0 0
-0.024991449 0.00012500482 0.024751537 -0.9976688 0.068242349 0 0
-0.019967977 0.00041709165 0.024420265 0.99706584 -0.076549262 0 0
0.019973001 0.00070434809 0.024512196 -0.99926615 -0.038301859 -2.6059031e-18 0
0.024976429 0.00065165281 0.024554824 0.99908918 0.04267088 -0.00029075949 0
-0.024897458 0.0014991027 0.024485689 -0.99766886 0.068242349 0 0
-0.019889968 0.0014331732 0.024321798 0.99706584 -0.076549254 0 0
0.019939763 0.0014521657 0.024667373 -0.99706727 -0.076530054 0 0
0.024919555 0.0015916053 0.024385789 0.99766809 0.068242304 -0.0011629106 0
-0.024834478 0.0024198366 0.024285695 -0.99766874 0.068242341 0 0
-0.01979913 0.0026163703 0.024881922 0.99706578 -0.076549254 0 0
0.019810213 0.002379772 0.024664421 -0.98828042 -0.15264958 0 0
0.024850043 0.002567467 0.024503037 0.99635804 0.085265748 -0.00058154017 0
-0.024724131 0.0035444703 0.024421444 -0.98873055 0.14970569 0 0
-0.0196479 0.0035559896 0.024475275 0.97369546 -0.22785325 0 0
0.01959742 0.0039045396 0.024667764 -0.99334937 -0.11512344 0.0019283362 0
0.024742743 0.0035398344 0.024604881 0.98821598 0.15306617 0 0
-0.02450577 0.0046619973 0.02468707 -0.97908401 0.20345621 0 0
-0.019413969 0.004555665 0.024425441 0.97369546 -0.22785325 0 0
0.019427508 0.0047036926 0.02452394 -0.95339644 -0.30172047 0 0
0.024592584 0.0043669143 0.024461458 0.98346168 0.18111612 -0.00038062397 0
-0.024383485 0.0052504558 0.024709409 -0.97908407 0.20345622 0 0
-0.019177375 0.0055667073 0.024698753 0.97369546 -0.22785328 0 0
0.019225867 0.0053408463 0.024382928 -0.95339644 -0.30172047 0 0
0.024351912 0.0055396245 0.024453701 0.97908348 0.20345607 -0.0011417238 0
-0.024108926 0.0065437281 0.024364328 -0.95651716 0.29167601 0 0
-0.019075448 0.0060022818 0.024342254 0.97369546 -0.22785325 0 0
-0.018842662 0.0065933368 0.024626922 0.92750233 -0.37381735 0 0
0.024087921 0.0066827866 0.024395414 0.96592677 0.25881517 0 0
-0.023738898 0.0076848008 0.024526594 -0.94226098 0.33487946 0 0
-0.018537497 0.0073505007 0.024608025 0.92750233 -0.37381735 0 0
0.018500935 0.007567192 0.024515379 -0.90611738 -0.42302623 0 0
0.023879671 0.0073480061 0.024399241 0.95105666 0.30901635 -0.00022041686 0
-0.023415986 0.008593387 0.024630331 -0.94226098 0.33487943 0 0
