# .PCD v0.7 - Point Cloud Data file format
VERSION 0.7
FIELDS x y z
SIZE 4 4 4
TYPE F F F
COUNT 1 1 1
WIDTH 1396
HEIGHT 1
VIEWPOINT 0 0 0 1 0 0 0
POINTS 1396
DATA ascii
0.15598725 0.15033376 0.029810484
0.15953107 0.15032709 0.029841803
0.058477104 0.1573782 0.029464085
0.061381698 0.15739727 0.029440772
0.062811866 0.15739393 0.029447563
0.065332472 0.15735281 0.029471312
0.067913741 0.15742844 0.029423524
0.072260171 0.15734023 0.02948831
0.076148927 0.15739089 0.029440481
0.079095721 0.15735608 0.029474374
0.081576154 0.15743512 0.029395752
0.084024116 0.15736711 0.029479459
0.14607774 0.15736705 0.029475249
0.14864621 0.15737295 0.029461592
0.15556885 0.15738761 0.029431392
0.15703984 0.15737784 0.029440127
0.069626138 0.16432089 0.029356819
0.072518647 0.16436726 0.029312659
0.087590069 0.1643461 0.029358223
0.09526284 0.1643641 0.029314905
0.10238022 0.16437125 0.029327683
0.10494761 0.1643523 0.029334452
0.11469454 0.16431338 0.029373776
0.11611429 0.16434872 0.029352471
0.14675556 0.16438442 0.029276423
0.14925249 0.16435814 0.029335886
0.1518777 0.16434443 0.02933393
0.071391732 0.1650908 0.029946271
0.078238472 0.16510266 0.029913872
0.081112236 0.16503561 0.02998428
0.083950832 0.16505665 0.029964779
0.0864591 0.16507906 0.029954668
0.090510681 0.16502362 0.029987656
0.093388379 0.1650511 0.029971927
0.095188692 0.16504806 0.029967975
0.096579462 0.16503882 0.029980768
0.098011017 0.16504681 0.029996388
0.10954629 0.16507947 0.029946361
0.11059879 0.16506726 0.029969357
0.14418499 0.16503423 0.02998922
0.14558101 0.16504633 0.029989138
0.15068841 0.16503578 0.029999074
0.083564103 0.17131269 0.02938446
0.089329049 0.17134446 0.029354822
0.093273312 0.17127514 0.029426549
0.094780535 0.17126071 0.029430535
0.098058522 0.17128128 0.029410228
0.10271038 0.17126739 0.029429235
0.10411841 0.17130858 0.029402345
0.10549265 0.17131668 0.029401507
0.13800423 0.1712935 0.029393725
0.13944463 0.1713084 0.029384669
0.14234261 0.1712594 0.029453944
0.1470018 0.17128336 0.029407848
0.14848348 0.1712684 0.029435549
0.096074149 0.1774686 0.029058132
0.097537994 0.17747277 0.029045951
0.098902419 0.17749244 0.029055513
0.100418 0.177499 0.02903102
0.10360801 0.17748713 0.029039234
0.10541274 0.17749161 0.029041927
0.10834961 0.17752802 0.029006183
0.11365916 0.17747211 0.029070117
0.11585759 0.17751831 0.029001508
0.11690606 0.17752159 0.02902798
0.13212009 0.17748201 0.029036295
0.14471571 0.17750454 0.029024754
0.099943757 0.17817992 0.029711027
0.10719486 0.17813402 0.029739466
0.11828794 0.17817223 0.029711019
0.1215598 0.17812216 0.0297499
0.13354149 0.17819399 0.029676881
0.13709597 0.17814296 0.029735193
0.1395545 0.17813307 0.029752802
0.14216724 0.1781677 0.029700182
0.10933641 0.18432271 0.029536653
0.1127422 0.18434608 0.02952778
0.11890948 0.18431759 0.029528517
0.11998732 0.18435556 0.029499453
0.13006105 0.18434322 0.029505689
0.13510418 0.1843161 0.029533278
0.13979732 0.18428695 0.029576324
0.12269117 0.19042981 0.02953127
0.12373297 0.19046479 0.029514935
0.12743299 0.19038469 0.029592603
0.12841283 0.19039088 0.029580403
0.12952513 0.19038862 0.029598009
0.13532069 0.19041651 0.0295441
0.13083781 0.19582057 0.029062148
0.13190821 0.1958161 0.029065225
0.13322471 0.1964494 0.029795576
0.13436392 0.19650757 0.029725604
0.19607694 0.078473747 0.030967452
0.19229293 0.088089108 0.030094005
0.18749917 0.098415136 0.030145239
0.1864911 0.099180341 0.030667022
0.15613933 0.10949206 0.030979358
0.17708421 0.109483 0.030999593
0.15671994 0.11744398 0.030038185
0.170761 0.11745805 0.030002158
0.15564807 0.11816239 0.030598067
0.17619407 0.1181764 0.030581422
0.15759295 0.12684274 0.030429717
0.17059438 0.12682927 0.030459683
0.1716662 0.12682021 0.030475799
0.16481061 0.12762928 0.030961584
0.16590737 0.12760854 0.030981418
0.014117271 0.13471889 0.030003682
0.014148057 0.1354329 0.03060019
0.017713159 0.13550186 0.030546308
0.020147502 0.1354658 0.030596379
0.021287799 0.13542402 0.030610688
0.027803123 0.13545942 0.030581195
0.15554234 0.13548863 0.030535769
0.15669869 0.13546562 0.030538555
0.15912379 0.13545412 0.030587986
0.16302881 0.13544637 0.03057795
0.024953663 0.14326417 0.030407269
0.029231727 0.14328754 0.03038758
0.03035751 0.14325309 0.030403461
0.034005076 0.14334613 0.030329015
0.035128683 0.14329249 0.030362412
0.038982153 0.14332783 0.030332178
0.043695867 0.14328182 0.030386902
0.047366291 0.14399403 0.030975789
0.14544909 0.14330882 0.030341875
0.14943618 0.14399904 0.030972607
0.15266503 0.14326507 0.030394081
0.15372907 0.14326042 0.030398645
0.15780097 0.14329332 0.030366696
0.1617175 0.14328992 0.030356128
0.16313364 0.14399892 0.030990589
0.16419563 0.14327502 0.030395735
0.040831178 0.14401066 0.03098619
0.045555413 0.14400959 0.030984171
0.072836488 0.14404136 0.030949339
0.16060798 0.14402896 0.030954428
0.043681175 0.15109718 0.030392908
0.045558274 0.15103579 0.030449435
0.048784614 0.1510632 0.030424967
0.057056293 0.15109342 0.03036695
0.058527991 0.15107042 0.030424796
0.077585012 0.1511206 0.030370653
0.078611389 0.15181988 0.030999571
0.058427885 0.15808773 0.030093249
0.059890315 0.1580646 0.03011132
0.060324535 0.15807146 0.030080277
0.064561695 0.158764 0.030744903
0.067106068 0.15876377 0.030714009
0.071026474 0.15804702 0.030116994
0.073937908 0.1587801 0.030744672
0.085035264 0.15875661 0.030754566
0.086170048 0.158759 0.030748069
0.12800233 0.15807593 0.030102376
0.13127378 0.15809393 0.030070372
0.13249561 0.15809804 0.030073643
0.13375334 0.15879059 0.030711837
0.13486338 0.15875876 0.030766163
0.1352399 0.15874273 0.030776013
0.1366674 0.15873724 0.030765515
0.13989909 0.15876669 0.03072907
0.14533925 0.15875214 0.030750848
0.14750615 0.1580621 0.030115843
0.15035349 0.15874684 0.030757919
0.15263596 0.15805006 0.030131057
0.15371753 0.15809703 0.03006272
0.15478337 0.15809274 0.030067407
0.072822556 0.16575402 0.030611787
0.074236989 0.16536278 0.030324046
0.075691327 0.165007 0.030020867
0.077110171 0.16570878 0.030677684
0.079567462 0.16578412 0.030577548
0.082579866 0.16502136 0.030003656
0.085338503 0.1657849 0.030574821
0.087882444 0.1657154 0.030648842
0.089363202 0.16570777 0.030653019
0.092191875 0.16573167 0.030650523
0.097279668 0.1657275 0.030637998
0.10452309 0.16572458 0.030631781
0.10694717 0.16571194 0.030664992
0.11533608 0.16500467 0.030030802
0.13042194 0.16570628 0.030644674
0.14844123 0.16574162 0.030622996
0.088174015 0.17198783 0.030058984
0.092092946 0.17195159 0.030103795
0.096454635 0.17198384 0.030074384
0.13541494 0.17194843 0.030096054
0.13677989 0.17197722 0.030077811
0.14117034 0.17198342 0.030056961
0.14408216 0.17193115 0.030110113
0.14679657 0.1719535 0.030093174
0.088109568 0.17265278 0.030732289
0.091017306 0.17264032 0.03075837
0.092067227 0.17262954 0.030778006
0.098225832 0.17266321 0.030722592
0.10141033 0.17264956 0.030761592
0.10288323 0.17265403 0.03073531
0.10443304 0.1726371 0.030741177
0.10722971 0.17264569 0.030749764
0.13971093 0.17264503 0.030736342
0.14103085 0.17266548 0.030732494
0.14581202 0.17262799 0.030760795
0.10251163 0.17882425 0.030383717
0.10565193 0.17882943 0.030412592
0.11147366 0.17882049 0.03040788
0.11290406 0.17882359 0.030404147
0.13848765 0.17880327 0.030404586
0.14095694 0.17882133 0.030405924
0.11135468 0.18497092 0.030226842
0.1141517 0.18497902 0.030234784
0.11565101 0.18498588 0.03022055
0.11813261 0.18493468 0.030279558
0.12138678 0.18498504 0.030222248
0.12244909 0.18497604 0.030243933
0.12358482 0.18494022 0.030277576
0.1314797 0.18498802 0.030202825
0.13405471 0.18495411 0.030243371
0.11271356 0.18500215 0.03020991
0.12602362 0.18559176 0.030966729
0.1281966 0.18564498 0.030909333
0.13790525 0.18566626 0.030880768
0.13897428 0.18565667 0.030917075
0.12508149 0.1910975 0.030241765
0.12652497 0.19170493 0.030979406
0.12867242 0.19168216 0.030997854
0.13090914 0.19106895 0.030278344
0.13201219 0.19111168 0.030206032
0.13308068 0.19112432 0.030192651
0.13440932 0.19173497 0.030929618
0.19483319 0.068048239 0.031620603
0.19538304 0.079237103 0.031475458
0.19154488 0.089616716 0.031141825
0.19026393 0.090382516 0.03168536
0.18579504 0.10070217 0.031733435
0.17995849 0.1094436 0.031040728
0.18102098 0.10944074 0.031040296
0.1554355 0.11025429 0.03151514
0.17879608 0.11022657 0.031581651
0.17994305 0.11019427 0.031609241
0.16032998 0.11896622 0.031094216
0.16393892 0.1189025 0.031171825
0.16824581 0.11890024 0.031180013
0.1729297 0.11891538 0.0311771
0.17464209 0.11892134 0.031165119
0.15679117 0.11964285 0.031734124
0.17008595 0.11967021 0.031704176
0.0075316429 0.12758946 0.031001553
0.1615486 0.12757468 0.031031858
0.16262828 0.12759107 0.031024925
0.16951938 0.12755764 0.03104502
0.0093151927 0.12830347 0.031628396
0.011100411 0.1283083 0.031632788
0.15683018 0.12830889 0.03159412
0.16405277 0.12837243 0.031533845
0.16840993 0.12830615 0.031613108
0.01625663 0.13615263 0.031200331
0.02269122 0.13621837 0.031147357
0.023819029 0.13623434 0.031122454
0.024886101 0.13619852 0.031163909
0.025957912 0.13615739 0.031190481
0.027106851 0.13612384 0.03122697
0.029628247 0.13694352 0.031726796
0.032857388 0.13615513 0.031198721
0.15440115 0.13620692 0.031150945
0.16198303 0.13617504 0.031157881
0.1633604 0.136904 0.031764515
0.16452989 0.1361528 0.031189118
0.16561534 0.1361587 0.03118341
0.1666621 0.13617277 0.031189822
0.16769192 0.13622963 0.03113487
0.036529899 0.14397585 0.03101936
0.037971437 0.14396644 0.031021103
0.042321593 0.14396739 0.031021401
0.15658343 0.14397717 0.03101401
0.033235937 0.14471221 0.031609323
0.03432405 0.14477289 0.031537715
0.15075123 0.14472049 0.031597789
0.15301445 0.14469457 0.03160619
0.15543595 0.14470041 0.031628169
0.15807404 0.14471829 0.031595744
0.15951473 0.14473432 0.031587616
0.046972662 0.15173662 0.031085182
0.047303438 0.1517399 0.031090736
0.050532058 0.15179563 0.031043243
0.052370936 0.15175813 0.031064354
0.054069757 0.15176922 0.031054705
0.055931553 0.15174747 0.031089265
0.063885495 0.15180939 0.031023648
0.065332294 0.1517722 0.031043913
0.14318183 0.15175468 0.031077638
0.14756989 0.15173155 0.03108377
0.14826587 0.15171421 0.031111076
0.15298341 0.15176582 0.03104711
0.15772459 0.15173197 0.031087104
0.049072206 0.1524747 0.031695463
0.061711401 0.15243983 0.031708706
0.067095682 0.15243334 0.031709444
0.069616958 0.15244609 0.031729542
0.072071761 0.15252244 0.031627975
0.14607975 0.15244228 0.031702068
0.14743467 0.15244001 0.031725466
0.14967197 0.15246862 0.03170006
0.15078208 0.15249139 0.03165235
0.15906675 0.15243948 0.031715907
0.063463449 0.15948147 0.031361725
0.069976375 0.15946716 0.031370204
0.076784194 0.15949333 0.031345103
0.07821624 0.15943837 0.031408042
0.088002458 0.15944052 0.031392422
0.12073477 0.15946829 0.031360235
0.12724796 0.15943235 0.031392481
0.13735242 0.15945131 0.031395074
0.14418937 0.15949965 0.031334165
0.14664251 0.15946513 0.031403381
0.151831 0.15943527 0.031401042
0.1528447 0.1594395 0.031414032
0.14298469 0.16018879 0.031994905
0.075954244 0.16638726 0.031329859
0.077116892 0.16638112 0.031318258
0.081322208 0.16642487 0.031290114
0.086754382 0.16647542 0.031228099
0.096871987 0.16641998 0.031277798
0.10303524 0.16642624 0.031283822
0.10629822 0.16640258 0.031286024
0.10839382 0.16638076 0.031320207
0.10946693 0.16644347 0.031249333
0.11051516 0.16644698 0.031276394
0.11158979 0.16643101 0.031280246
0.11272608 0.16639507 0.031319827
0.1138874 0.16637141 0.031331833
0.11631411 0.16637444 0.031344134
0.11745751 0.16643 0.031270456
0.12217227 0.16640627 0.031279404
0.14020409 0.16638625 0.031322449
0.14154482 0.16640407 0.031304166
0.14733161 0.16645128 0.031242084
0.14984304 0.16640633 0.031309016
0.084601983 0.16709101 0.031945407
0.095829114 0.16710067 0.031926006
0.11346161 0.16707027 0.031986225
0.11453038 0.16706884 0.03198
0.11559975 0.16706544 0.031983692
0.12352875 0.16710329 0.031963456
0.12640198 0.16711217 0.031925764
0.1386424 0.16711712 0.031925961
0.1401135 0.16707987 0.031976562
0.14479731 0.16709912 0.031950299
0.14621331 0.16708344 0.03197955
0.14873534 0.16712338 0.031913921
0.090928242 0.17335361 0.031387746
0.096759617 0.17332989 0.031407092
0.1061015 0.17334694 0.031390376
0.13457204 0.17329407 0.031424403
0.13859794 0.17331904 0.031401064
0.14290215 0.17330766 0.031442445
0.14435969 0.17328274 0.031451102
0.10747226 0.17946595 0.031092297
0.11034332 0.17950338 0.031072821
0.12119251 0.17944998 0.031119991
0.13015355 0.17948568 0.031095181
0.1316141 0.17948914 0.031067312
0.13267313 0.17950034 0.031057075
0.13522553 0.17952991 0.031031959
0.13984205 0.17949802 0.031080037
0.10585997 0.1801737 0.031755779
0.11455651 0.18014443 0.031772304
0.11885099 0.1801849 0.031743564
0.12215151 0.18012136 0.031796206
0.13657846 0.18012297 0.03179292
0.13769911 0.18013036 0.031777538
0.11830841 0.18626881 0.031647265
0.12050517 0.18631583 0.031578854
0.1295305 0.18633729 0.031563375
0.13424993 0.18628806 0.031639665
0.12762798 0.1916846 0.031007744
0.12643078 0.19237339 0.031672213
0.13113953 0.19234318 0.03169927
0.19245446 0.068760216 0.032183152
0.19386473 0.068778515 0.032163553
0.20030007 0.068792582 0.032139041
0.19879611 0.069610655 0.032593366
0.18076968 0.10143375 0.032321054
0.18211532 0.10144627 0.032315083
0.18479238 0.10144162 0.032281574
0.17630225 0.11172026 0.032672003
0.17778814 0.11171979 0.032669757
0.15526177 0.12037623 0.032319233
0.16612627 0.12037879 0.032329392
0.17183223 0.12042117 0.032278884
0.15598533 0.12111628 0.032887317
0.16896877 0.12112087 0.032897696
0.0078911781 0.1290524 0.032178059
0.011438757 0.12975377 0.03280339
0.015827715 0.12903959 0.032209039
0.017189324 0.12975907 0.03280798
0.019329071 0.12982559 0.03272792
0.15503302 0.12977844 0.032777604
0.15608434 0.1290369 0.032211527
0.16760215 0.12906432 0.032179821
0.16868399 0.1297816 0.032771956
0.020877928 0.13764256 0.032370798
0.021980375 0.1375879 0.032408189
0.03212893 0.13760662 0.032386571
0.15218866 0.13760382 0.032405969
0.15477113 0.13764328 0.032352172
0.1561707 0.13765776 0.032345183
0.16126777 0.13761401 0.032375406
0.036349595 0.13839221 0.032927915
0.15913902 0.13834745 0.03295815
0.044354647 0.14540714 0.032253753
0.14243098 0.14540249 0.032232396
0.15221269 0.14541936 0.032225478
0.16093554 0.14545786 0.032179262
0.041456044 0.14618546 0.032799773
0.042915404 0.14611822 0.032854181
0.05589667 0.1461575 0.032812554
0.13875628 0.14614505 0.032836773
0.14786547 0.14616215 0.032798301
0.15009671 0.14614546 0.032813232
0.15727068 0.14611608 0.032852888
0.052656442 0.15317094 0.032306381
0.054735512 0.15387273 0.032934867
0.058041319 0.15389812 0.032895755
0.059438825 0.15389794 0.032926012
0.06054844 0.15318143 0.032303505
0.064536661 0.15391868 0.032892074
0.067371473 0.15386522 0.032948837
0.079616234 0.15320837 0.032286201
0.081052512 0.15386331 0.032954175
0.14772613 0.15385902 0.032963742
0.14890593 0.1538378 0.032981403
0.15540117 0.15353018 0.032619644
0.074566662 0.16085202 0.032681774
0.082827568 0.16092217 0.032595214
0.083939806 0.16016191 0.032028049
0.08680509 0.16084552 0.032661613
0.087930098 0.16015106 0.032011312
0.089687407 0.16018379 0.032009192
0.091129661 0.16087079 0.032643333
0.13395292 0.16087729 0.032639753
0.14596243 0.16084582 0.032675292
0.14957727 0.16016173 0.032011759
0.080209091 0.16785496 0.032522947
0.081643596 0.16780519 0.032577202
0.085938588 0.16783202 0.032554388
0.12125595 0.16780847 0.032566171
0.14327706 0.16778314 0.032604739
0.13743013 0.17397124 0.032089494
0.09850654 0.17400742 0.032067887
0.099968761 0.17400032 0.032067884
0.1092968 0.1746673 0.032744229
0.11249724 0.17463529 0.032786321
0.1323777 0.17402005 0.032072689
0.14026096 0.174694 0.03272026
0.10445383 0.18083161 0.032438226
0.11810118 0.18086618 0.032399703
0.13042863 0.18081754 0.032445662
0.19749081 0.070382237 0.033084523
0.085929677 0.093447745 0.033775631
0.18723266 0.093416512 0.033832967
0.18252875 0.10295838 0.033397302
0.15616435 0.11250281 0.033186223
0.16983812 0.11244649 0.033270929
0.17160511 0.11245257 0.033249415
0.17486858 0.11246186 0.033249408
0.16844985 0.11320102 0.033797145
0.16646504 0.12185687 0.033462752
0.17075372 0.12188202 0.033429723
0.16317688 0.12265009 0.033969563
0.010038555 0.13049269 0.033385061
0.16042197 0.13048744 0.033375502
0.15449624 0.13124508 0.03392389
0.15362178 0.13905877 0.03358205
0.1580058 0.13909227 0.033528712
0.14605854 0.1468327 0.033476222
0.062275693 0.15456378 0.033606581
0.072752804 0.15464818 0.033493102
0.075679123 0.15454203 0.033586133
0.14051422 0.15461761 0.03351913
0.12425919 0.16158807 0.033251401
0.13185972 0.16155517 0.03328355
0.1368884 0.16153002 0.033333126
0.14051488 0.16154462 0.033310134
0.077670038 0.16228759 0.033888303
0.092351779 0.16226 0.033920575
0.10262704 0.1622625 0.033923492
0.1159108 0.1622982 0.033880733
0.097491905 0.16847956 0.033250485
0.10112154 0.16844881 0.033262841
0.10810444 0.17536467 0.03341255
0.13406697 0.17531651 0.033446517
0.11487599 0.18148488 0.033117987
0.12387353 0.18145478 0.033158239
0.13680612 0.18150061 0.033116315
0.19506043 0.071879089 0.034165464
0.19638182 0.071934283 0.034118976
0.19074604 0.072660804 0.034652121
0.1669794 0.11396027 0.034335356
0.15577866 0.11401099 0.034286294
0.17062123 0.11468071 0.034947295
0.17417456 0.11469424 0.034912311
0.15553688 0.12336528 0.034575991
0.16458502 0.12336719 0.034575589
0.16658226 0.13202423 0.034463823
0.038562447 0.13979554 0.034164038
0.15279551 0.13978308 0.034188326
0.155083 0.13980126 0.034159951
0.16336338 0.13979501 0.034148037
0.14959183 0.14050633 0.034775801
0.050058693 0.14756453 0.034058712
0.05766277 0.14758015 0.034042105
0.14126585 0.14755964 0.034073167
0.067688912 0.15529925 0.034176592
0.083526179 0.15597278 0.034837157
0.13404608 0.15560859 0.034541488
0.13833013 0.15563476 0.034514125
0.13973783 0.15597528 0.034857258
0.14664847 0.15528893 0.034186624
0.094279319 0.16294855 0.034580298
0.12994952 0.16293299 0.034591302
0.13131285 0.16296262 0.034572929
0.097791582 0.084579825 0.035113476
0.094942227 0.085324943 0.035656992
0.09999308 0.085346639 0.035637189
0.15487967 0.12484169 0.035705548
0.15624979 0.12409341 0.035158541
0.14815056 0.14125061 0.035351556
0.15143993 0.1412124 0.035393484
0.15279362 0.14193815 0.035994913
0.07667388 0.14977121 0.035831135
0.14773743 0.14901352 0.035270426
0.084969163 0.15668941 0.035447542
0.13720419 0.15668792 0.035455666
0.095954955 0.16365457 0.035229899
0.12630172 0.16366816 0.035208888
0.11830476 0.16436929 0.035818785
0.11942787 0.1643548 0.035824649
0.12591141 0.16437703 0.03580125
0.090977937 0.08692193 0.036613517
0.092664823 0.086938083 0.036626112
0.093862131 0.086121321 0.036162842
0.097067475 0.086128116 0.036141612
0.082725376 0.097217441 0.036450759
0.15447064 0.12557769 0.036297139
0.15593052 0.12631691 0.036852498
0.15495883 0.13492846 0.036837086
0.084545106 0.15739298 0.036075979
0.087013453 0.15810502 0.036713652
0.088863745 0.15811914 0.036688153
0.13638192 0.15809911 0.036714412
0.13826153 0.15810108 0.036711082
0.14105518 0.15811527 0.036705315
0.1064062 0.16499841 0.036544088
0.10748452 0.16503727 0.036483593
0.10856082 0.16507566 0.036453959
0.10966143 0.16504776 0.036485873
0.11072257 0.16503978 0.036507901
0.11762917 0.16508222 0.03642875
0.12880477 0.16500419 0.036519036
0.089922979 0.087671697 0.037167244
0.087738425 0.088430464 0.037675172
0.15651275 0.11770111 0.037147082
0.15387669 0.13565177 0.037442714
0.14807524 0.14413816 0.037749462
0.14914401 0.14414692 0.037742816
0.1501808 0.14413291 0.037768479
0.078379035 0.15188533 0.037707679
0.1404487 0.15184373 0.037750389
0.088012591 0.15952396 0.037967134
0.11254153 0.16569245 0.037188355
0.11469254 0.16569036 0.03718216
0.11575751 0.16570544 0.037174329
0.11686571 0.16577417 0.037088316
0.11176047 0.16641009 0.037799116
0.1139058 0.16638881 0.037817936
0.085969597 0.089959383 0.038727537
0.089577645 0.089198709 0.038191829
0.079508662 0.10027963 0.038592342
0.15523955 0.12778938 0.03801392
0.15049972 0.13634884 0.038064487
0.14509453 0.15256745 0.038349103
0.14614987 0.15254974 0.03836558
0.080472186 0.15327686 0.038988307
0.13421662 0.15327507 0.038969886
0.1384691 0.15331286 0.038934655
0.13964023 0.1533125 0.038905285
0.14000019 0.15331894 0.038914397
0.086981803 0.16020751 0.038583815
0.085298523 0.090778828 0.039197836
0.079148397 0.1017797 0.039676104
0.15443902 0.12929732 0.039151177
0.14690693 0.13782197 0.039234482
0.15051058 0.13780695 0.039242033
0.089782611 0.16094333 0.039193437
0.12263213 0.16097605 0.039166715
0.12301159 0.16096574 0.039161444
0.1276523 0.16090852 0.039211933
0.13053922 0.16093123 0.039213192
0.09232235 0.16164261 0.039816942
0.093540549 0.16163749 0.039825261
0.10343651 0.16162223 0.03984648
0.11934441 0.1616286 0.039849237
0.12186086 0.16164434 0.039810166
0.12545827 0.16160148 0.039867863
0.13045172 0.16163337 0.039839618
0.13834994 0.16163379 0.039845642
0.10666953 0.16780889 0.039060026
0.10009007 0.081989288 0.040620096
0.1015695 0.081935763 0.040681433
0.10294618 0.081951559 0.040684342
0.10687523 0.081947446 0.040694203
0.10950102 0.081958592 0.040682264
0.083550543 0.092286766 0.040226184
0.08249335 0.093067944 0.040727127
0.15530059 0.11359143 0.040892974
0.15358888 0.12217575 0.040470276
0.15620825 0.12214953 0.040503349
0.15458944 0.13929647 0.040373068
0.081484124 0.15470564 0.040205337
0.13776723 0.15470117 0.040200785
0.12039495 0.16233939 0.04046629
0.12722766 0.16232741 0.040474296
0.1049047 0.082720876 0.041163526
0.1062952 0.08270812 0.041182704
0.10764185 0.082713127 0.041207768
0.096896589 0.083507001 0.04165113
0.099775791 0.083541393 0.041611183
0.10120654 0.083528399 0.041633461
0.10262889 0.083502352 0.041684572
0.082165912 0.094608724 0.041790497
0.085045427 0.094615161 0.041751321
0.14185113 0.14918667 0.041956209
0.084767312 0.15613157 0.041403409
0.095734611 0.16376835 0.041709896
0.10630511 0.16304845 0.041064885
0.11673069 0.16380125 0.041645773
0.11776146 0.16376871 0.041679271
0.12177595 0.16305149 0.041066635
0.12507822 0.16308308 0.041038223
0.09262161 0.08426106 0.04220067
0.094047144 0.084257185 0.042187177
0.10193463 0.084299207 0.04214843
0.096186072 0.085064352 0.04266591
0.098035902 0.085060596 0.042666443
0.099432468 0.085056365 0.042694349
0.079943985 0.095403016 0.042247821
0.083327055 0.096128881 0.042799708
0.084663481 0.096156955 0.042779852
0.14658503 0.14148557 0.042123515
0.15156689 0.14145911 0.042160459
0.15294778 0.14220244 0.042749211
0.1410234 0.14991254 0.042572573
0.14359091 0.14989418 0.042570692
0.1445732 0.14990097 0.042579513
0.083994403 0.15684718 0.042032696
0.13659354 0.15756434 0.042645633
0.1058396 0.16442555 0.042385545
0.11268501 0.16442436 0.042368758
0.12212586 0.16445547 0.042325862
0.096801281 0.16516972 0.042977963
0.1093896 0.16518974 0.042951088
0.11952162 0.16517752 0.04293726
0.095164984 0.085834682 0.043170407
0.090865195 0.086648285 0.043617222
0.094124541 0.086595953 0.043690268
0.095848188 0.086619735 0.043666489
0.078274146 0.096948683 0.043248229
0.15767589 0.1344558 0.043163449
0.077140391 0.15067726 0.043127548
0.13880409 0.15065306 0.043142594
0.14426087 0.1506176 0.043169845
0.078234062 0.15134972 0.04377833
0.079627812 0.15135413 0.04376984
0.087218061 0.15829891 0.043240122
0.12428144 0.15897363 0.04389558
0.13838528 0.15899098 0.043869548
0.13987762 0.15826952 0.043267522
0.087874144 0.15902239 0.043852571
0.12179674 0.15903312 0.043814864
0.12973924 0.15900725 0.043838274
0.13259046 0.15902144 0.043835193
0.14162251 0.15902817 0.043817326
0.10900159 0.16590065 0.043578401
0.11237215 0.16582596 0.043633718
0.11412564 0.16512835 0.043012455
0.11555406 0.16586435 0.043613505
0.12025982 0.16585726 0.043583121
0.09302853 0.087414443 0.044134468
0.08039555 0.098514974 0.044263091
0.079727665 0.099276304 0.044780176
0.078932703 0.15207368 0.044367149
0.14200868 0.15280294 0.04496849
0.12105206 0.15972251 0.044458296
0.13584131 0.15968364 0.044501539
0.13210121 0.16655391 0.044224951
0.10933188 0.16731751 0.044807814
0.12131976 0.1672706 0.044834416
0.090954542 0.088958979 0.045123361
0.086994126 0.089698911 0.045660436
0.076847389 0.10074008 0.045905653
0.07907261 0.100012 0.04533466
0.14903645 0.14587182 0.045632049
0.14096479 0.15351748 0.045563541
0.10951671 0.16039467 0.045126099
0.12353921 0.16045368 0.045078535
0.094663367 0.16114414 0.045701358
0.11579265 0.16794628 0.045525193
0.12877578 0.16795558 0.045502398
0.12009802 0.16800433 0.045441162
0.10862765 0.079439282 0.046245091
0.10684979 0.08014524 0.046823855
0.11156926 0.080195487 0.046752919
0.088777259 0.090514123 0.046149004
0.085206509 0.091293335 0.046639804
0.086716309 0.091256261 0.046661373
0.076263502 0.10149306 0.046430189
0.078677714 0.10150462 0.046441566
0.15149982 0.13887733 0.046607759
0.14308645 0.14730865 0.046859581
0.083991244 0.15495586 0.046763398
0.1416055 0.15424752 0.046170596
0.1267226 0.16183388 0.046322778
0.12818813 0.16184413 0.046326667
0.1021461 0.08097434 0.047267146
0.10865951 0.080995083 0.047236588
0.11083665 0.080988348 0.047232091
0.11339906 0.080988944 0.04723309
0.11443086 0.080983758 0.047268324
0.098545626 0.081797063 0.047678035
0.10140771 0.081773102 0.047738329
0.10405286 0.081748366 0.047736518
0.10542694 0.081742287 0.04774899
0.10692671 0.08173424 0.04775887
0.10795002 0.081736028 0.047774341
0.10970606 0.081016541 0.047208928
0.11163944 0.08177495 0.047703367
0.11276692 0.081763387 0.047714535
0.11601177 0.081743717 0.047732815
0.084541321 0.092097819 0.047074303
0.085960492 0.09203732 0.047172341
0.076231688 0.10383338 0.047955777
0.077713087 0.10382116 0.047962166
0.078780502 0.10382003 0.04796714
0.13874343 0.14880145 0.047998011
0.14390278 0.14803624 0.047429632
0.14491877 0.14804059 0.047442876
0.15106444 0.14807367 0.0473997
0.14528351 0.1556918 0.047352903
0.084968001 0.15642124 0.047961947
0.13258955 0.15640312 0.047982354
0.09425284 0.16328448 0.047541574
0.10824649 0.16330087 0.04753089
0.10938291 0.16326535 0.047570527
0.11482969 0.16331881 0.047487024
0.10080744 0.082531214 0.048233569
0.10328035 0.082538664 0.048230816
0.10473943 0.082547784 0.048208151
0.098190814 0.083346963 0.048697807
0.084251806 0.09366256 0.048089124
0.085703269 0.093652427 0.048081055
0.075844064 0.10541493 0.048938658
0.13437058 0.1571365 0.048562858
0.13902929 0.15713161 0.048583686
0.14046958 0.15718287 0.048498984
0.14155579 0.15716809 0.048518553
0.10538903 0.1639654 0.048183322
0.093530267 0.16400236 0.048154168
0.094880313 0.16401267 0.048163746
0.095237792 0.16401476 0.04815083
0.10646266 0.1640262 0.048112668
0.10863726 0.16436595 0.048457589
0.12914461 0.16470122 0.048767619
0.13176112 0.16400135 0.048137367
0.09541139 0.084105313 0.049187504
0.096195206 0.0848912 0.049673073
0.09720245 0.084109128 0.049185682
0.098913416 0.084151506 0.049148645
0.10009867 0.08414185 0.049120378
0.10289362 0.084126174 0.049205191
0.079578444 0.095194101 0.049087815
0.081453979 0.095936775 0.049634416
0.08285442 0.095948577 0.049614061
0.083908245 0.095185459 0.049101267
0.075538263 0.10696602 0.049960833
0.15646937 0.12485147 0.049112502
0.077086955 0.15099251 0.049756896
0.08599247 0.15787554 0.049160369
0.12743768 0.15786839 0.049153686
0.14153735 0.15862256 0.049691416
0.10751328 0.16546839 0.049334019
0.115309 0.16545624 0.049343653
0.11637124 0.16547495 0.049314659
0.11758088 0.16545844 0.049338728
0.10677488 0.16614479 0.049976457
0.11755477 0.16619569 0.049927775
0.094996288 0.085693955 0.050156292
0.090449408 0.086484969 0.05060526
0.092242241 0.086468935 0.050624318
0.093760893 0.086436868 0.050662469
0.094081625 0.08643502 0.050663907
0.079598621 0.097546756 0.050573569
0.081070781 0.097521365 0.050588969
0.082555667 0.097497582 0.050636776
0.07487008 0.10773134 0.050443251
0.077397943 0.1077143 0.05049577
0.13571094 0.15930784 0.050358817
0.089675307 0.16003692 0.050934967
0.10527241 0.16612655 0.050020121
0.11328845 0.16610682 0.05003256
0.1147209 0.16611803 0.050027076
0.087894008 0.087253511 0.051119488
0.089750722 0.087273538 0.051078074
0.09111324 0.087281466 0.051089682
0.093013033 0.087245166 0.051139776
0.088707253 0.088038325 0.05160141
0.079002202 0.098329127 0.051039282
0.080728129 0.099086106 0.051576719
0.074554384 0.10921216 0.051542759
0.15188354 0.13713986 0.051608641
0.15228465 0.13714385 0.051605362
0.14713992 0.14482129 0.051127162
0.14924456 0.14481652 0.051146224
0.15187921 0.14478868 0.051167309
0.15288919 0.1447916 0.051169686
0.13685192 0.15319246 0.051507279
0.09172897 0.16076761 0.051530771
0.12598893 0.16073251 0.051555816
0.1284281 0.16078109 0.051536929
0.087571964 0.088805735 0.052112941
0.086601183 0.089582741 0.052565992
0.089883566 0.089605629 0.052540399
0.078681529 0.099880755 0.052055128
0.07416971 0.11077762 0.0525636
0.14531547 0.14632154 0.052247345
0.07953307 0.1539107 0.052116256
0.14266422 0.15390986 0.052102003
0.14412434 0.15391815 0.052080434
0.083224222 0.1546253 0.0526862
0.13616049 0.15464121 0.052678868
0.1418626 0.15465158 0.052696805
0.14337832 0.15464014 0.052688986
0.12668942 0.1614641 0.05214769
0.12957649 0.16148692 0.052148815
0.13067384 0.16149497 0.052120831
0.13238668 0.16150737 0.052122399
0.09137097 0.16221517 0.052725233
0.11691372 0.16222274 0.052713081
0.13386926 0.16222435 0.052724164
0.085901186 0.090376198 0.053057585
0.087312937 0.090379894 0.05304433
0.088772267 0.090378106 0.053048223
0.085173309 0.091153324 0.053553723
0.078335941 0.10137349 0.053144459
0.077653304 0.10213691 0.05365251
0.073198766 0.11155438 0.053050708
0.15038331 0.13170385 0.053955063
0.1482017 0.14778811 0.053399879
0.15105535 0.1477741 0.053443998
0.15037012 0.14852494 0.053980324
0.14088462 0.15536928 0.053274173
0.14011124 0.15614581 0.053797916
0.11295822 0.16292816 0.053361665
0.11512889 0.1629799 0.053273588
0.12484965 0.16289884 0.053375065
0.12597534 0.16290337 0.053360194
0.13279311 0.16294593 0.053318743
0.094880566 0.1636622 0.053951886
0.09559691 0.16367072 0.053924099
0.10443994 0.16362292 0.053977702
0.10641779 0.16369259 0.053902496
0.10862556 0.16363943 0.053959761
0.10955437 0.16362178 0.053985812
0.11077073 0.1636188 0.053978484
0.11188196 0.1636169 0.053982619
0.11650324 0.16367114 0.053906221
0.11726756 0.16367155 0.053904809
0.1180087 0.16364318 0.053930551
0.1241516 0.16369063 0.053891953
0.128769 0.16366071 0.053942058
0.10463379 0.080896676 0.054313615
0.10726903 0.080881834 0.054329604
0.10833472 0.080934703 0.054251276
0.10939796 0.0809322 0.054256652
0.11199369 0.08090502 0.054271337
0.11295469 0.080922246 0.054283906
0.11408462 0.080903351 0.054298807
0.11523257 0.080887258 0.054292362
0.11628862 0.080879986 0.054313585
0.1176362 0.080904961 0.054315962
0.10003836 0.081678271 0.054772869
0.10252981 0.081688404 0.054776784
0.10654531 0.081658185 0.05480672
0.11485234 0.08168596 0.054766022
0.11595547 0.08167851 0.054775532
0.11700933 0.081679046 0.054779876
0.11838932 0.081692278 0.05477947
0.087026253 0.091935873 0.054015625
0.0835215 0.092774689 0.054438401
0.084903598 0.0927701 0.054476514
0.075539425 0.10291868 0.054151274
0.07628274 0.1036886 0.054654866
0.077309743 0.10369456 0.054643665
0.15257424 0.14159739 0.05497992
0.14563142 0.14925903 0.054579057
0.1361445 0.1568352 0.054434784
0.13892993 0.15687162 0.054403048
0.096391439 0.16436237 0.054549452
0.10426548 0.16434395 0.054583542
0.098954558 0.082521796 0.055178795
0.10180999 0.082485616 0.055242822
0.10338403 0.082476556 0.055224486
0.10438451 0.082487643 0.055231344
0.10573986 0.082481503 0.055252869
0.11992915 0.082469523 0.055249415
0.12148659 0.082495928 0.055212852
0.096438542 0.083270311 0.055709183
0.1232406 0.083309054 0.055671446
0.12474762 0.083296359 0.055648636
0.083177701 0.094305694 0.05544458
0.084619969 0.094344914 0.055399869
0.082129791 0.09510076 0.055915397
0.083925709 0.095107019 0.055914328
0.073654026 0.11463469 0.055092782
0.15298176 0.13396412 0.055560201
0.14918321 0.14235157 0.0555158
0.15074496 0.14234746 0.055533659
0.14567336 0.1499747 0.055170212
0.14491615 0.15069693 0.055749957
0.13616082 0.15756637 0.055024192
0.087111935 0.1583156 0.055586256
0.088598728 0.15830266 0.055580806
0.1288956 0.15832746 0.055569395
0.13494128 0.15830457 0.055611212
0.13537724 0.15829766 0.055608422
0.13825276 0.15829509 0.055613521
0.10641144 0.16582561 0.055715587
0.094341666 0.084860265 0.056637041
0.095430091 0.084060967 0.056166843
0.097250894 0.084057987 0.056178279
0.098660305 0.084100902 0.05610887
0.10009196 0.084088266 0.056131288
0.080009758 0.095867217 0.056406226
0.082829386 0.0958938 0.056392077
0.081824765 0.096670032 0.056918368
0.074514627 0.1064781 0.056313198
0.076322466 0.10604531 0.056116533
0.072897688 0.11620069 0.056120746
0.15429726 0.1162371 0.056071881
0.15376027 0.1347084 0.056107819
0.1438345 0.14389551 0.056590367
0.15077637 0.14308995 0.056090906
0.15180115 0.14310092 0.056097105
0.14272082 0.15147245 0.056282494
0.14377463 0.15145594 0.056298818
0.14446454 0.15145046 0.056317326
0.13690327 0.15224832 0.056802165
0.14050555 0.15220791 0.05686653
0.14346439 0.1521911 0.056865051
0.088494122 0.15979248 0.056739755
0.08965674 0.15904599 0.056168139
0.13129939 0.15979761 0.056750406
0.13396546 0.1590057 0.056218136
0.093336508 0.085623085 0.057121381
0.096571401 0.085649133 0.057083331
0.098337233 0.085644901 0.057130836
0.090352342 0.086481214 0.057543341
0.092305794 0.08641845 0.057602052
0.09548682 0.086443067 0.057569873
0.097336978 0.086439133 0.057570431
0.091202006 0.087262452 0.057999555
0.081182733 0.097439349 0.057369418
0.07863602 0.098282576 0.057790328
0.080003977 0.098261654 0.057828296
0.073854268 0.1083957 0.057571512
0.15613581 0.12697804 0.057040665
0.1537828 0.127756 0.057549525
0.15522674 0.1277557 0.057544541
0.15687527 0.1277343 0.057575319
0.14350069 0.14537591 0.057728384
0.13977081 0.15294611 0.057441372
0.088498965 0.16051447 0.05733731
0.092023864 0.16051519 0.057364196
0.094305038 0.16047287 0.057367459
0.10537472 0.16052711 0.057339747
0.11631155 0.16049027 0.057343427
0.12130597 0.16053432 0.05730572
0.13282651 0.16050214 0.057349056
0.13339663 0.16048586 0.057385046
0.13434173 0.16047275 0.05738648
0.091705486 0.16122961 0.057936002
0.093509123 0.16123474 0.05793849
0.11045983 0.16119826 0.057986293
0.12378348 0.16120368 0.057970021
0.12488919 0.16121811 0.057953928
0.12630291 0.16121989 0.057940748
0.12734826 0.16121066 0.057971891
0.13103698 0.16125613 0.057905179
0.089444503 0.08724016 0.058013242
0.094475091 0.087227225 0.058043856
0.090582401 0.08884418 0.058927711
0.093445867 0.088002503 0.05853324
0.077964604 0.099050403 0.058286022
0.079718679 0.099859893 0.058758292
0.073151603 0.10913986 0.058132593
0.075327903 0.10957819 0.058303867
0.073033199 0.11930233 0.058134276
0.15188208 0.1292901 0.058603149
0.15403949 0.13851088 0.058827411
0.14681512 0.14686745 0.05882575
0.14792399 0.14610916 0.058277685
0.11012028 0.16192907 0.058565076
0.11229594 0.16197753 0.058503706
0.11301211 0.1619966 0.058470536
0.11545716 0.16198242 0.058493372
0.11914091 0.16196078 0.058510695
0.12307261 0.16199005 0.058513787
0.12812342 0.16194391 0.058530774
0.12960687 0.16196537 0.058508176
0.11333208 0.16201043 0.058465157
0.1143865 0.16201633 0.058459666
0.086641595 0.089597821 0.059446964
0.087991625 0.089633882 0.05942728
0.089549676 0.089613616 0.059404779
0.13291888 0.089606583 0.059411082
0.077636018 0.10058516 0.059332412
0.076918051 0.10134435 0.059844319
0.079451248 0.10141975 0.059727553
0.072538942 0.11071092 0.059072558
0.14645484 0.13998413 0.059946198
0.15058044 0.13997501 0.059965048
0.15150256 0.13997149 0.059960376
0.15337503 0.14000756 0.059918787
0.14536092 0.14837611 0.059929822
0.14712428 0.14836144 0.059948761
0.14865831 0.14835596 0.059949484
0.13545845 0.15591127 0.059695397
0.13693556 0.15589887 0.059723299
0.13761452 0.15554982 0.05941524
0.13976984 0.15593261 0.059676889
0.14155656 0.15591848 0.05971152
0.14349061 0.15516591 0.059133444
0.094553158 0.16271007 0.059093971
0.12270905 0.16273206 0.059051286
0.12876062 0.16271269 0.05910309
0.11040288 0.16339391 0.059724357
0.10721529 0.079397619 0.060351152
0.10940111 0.079378903 0.060364831
0.11185279 0.079375744 0.06039479
0.10651751 0.080169082 0.060856905
0.10870253 0.080181003 0.060810979
0.11122985 0.080179036 0.060820635
0.11590688 0.080143034 0.060873251
0.084871024 0.09117043 0.060399447
0.086359188 0.091158628 0.060381856
0.089177713 0.091190875 0.060375292
0.076593444 0.10291362 0.060792621
0.073650092 0.1122734 0.060072739
0.15348235 0.11311084 0.060498174
0.15333626 0.13157892 0.060192231
0.15511486 0.1323325 0.060738545
0.13618726 0.15664929 0.060284119
0.084237888 0.15738928 0.060861159
0.12825537 0.1573987 0.060832795
0.13293634 0.15736425 0.06087314
0.13470212 0.15738755 0.060855981
0.095703602 0.16414189 0.060290392
0.10570911 0.16491616 0.060823966
0.10640806 0.16418928 0.060266104
0.1074802 0.1641745 0.060269993
0.12554027 0.1641345 0.060311507
0.10332824 0.080937803 0.061311815
0.10467578 0.080944002 0.061336737
0.10584889 0.080915451 0.061350901
0.1094466 0.08097291 0.061276753
0.11056849 0.080964446 0.061280053
0.11303948 0.080968976 0.061312865
0.11423112 0.080943525 0.061295006
0.11530299 0.08093375 0.061322313
0.11776631 0.080944777 0.061330315
0.11887808 0.080960453 0.061295513
0.1203548 0.080978036 0.061273802
0.12437479 0.080960155 0.061278019
0.099676281 0.081752717 0.061767485
0.10115466 0.081757069 0.061763499
0.10766865 0.081777334 0.061732817
0.10871503 0.081798315 0.06170537
0.11240751 0.081771076 0.061729554
0.11962178 0.081770241 0.061742704
0.12214644 0.081795335 0.061716575
0.084590867 0.092779994 0.061300527
0.086100623 0.092743456 0.061321829
0.076018885 0.10368091 0.061286863
0.078433201 0.10369289 0.061298084
0.073368415 0.11462748 0.061549801
0.1558089 0.12386608 0.061258469
0.14755681 0.14148968 0.061030228
0.15263523 0.1415 0.061024059
0.14275691 0.15057629 0.061655793
0.085344747 0.15814722 0.061408553
0.086036205 0.15814477 0.061405461
0.088284761 0.15886867 0.061971795
0.12135683 0.15887743 0.061990324
0.12531181 0.15887719 0.061992843
0.13073607 0.15889478 0.061961789
0.13262212 0.15810472 0.06145132
0.13365112 0.15812135 0.061433781
0.10307151 0.08254379 0.06220213
0.10444659 0.08253777 0.062214751
0.10594663 0.082529724 0.062224735
0.11744298 0.082549095 0.062225293
0.12146938 0.082586169 0.062174778
0.1229527 0.082589567 0.062156115
0.124117 0.082560718 0.062158454
0.097964585 0.083388686 0.062595509
0.099398807 0.08336556 0.062637694
0.10082608 0.083366156 0.062655836
0.12589048 0.083358705 0.062638544
0.12945452 0.083349228 0.06263496
0.084332064 0.09438771 0.062171835
0.085749552 0.094329476 0.062269446
0.080808133 0.09512794 0.062704585
0.083668828 0.095188558 0.062658474
0.074127331 0.10532933 0.062192317
0.075630724 0.10527825 0.062239815
0.078179345 0.1052652 0.06225108
0.072253183 0.11540097 0.062064368
0.15380599 0.13539612 0.062803663
0.14976043 0.14375091 0.062664129
0.14175509 0.15207976 0.062753752
0.14205761 0.15209126 0.062742881
0.14314087 0.15206742 0.062764362
0.1482363 0.15211123 0.062717661
0.088292822 0.15960819 0.062551416
0.11674125 0.15959406 0.062566571
0.12321734 0.15958327 0.062580518
0.12824148 0.15961993 0.062535837
0.13934471 0.15961903 0.062564947
0.094461262 0.084939659 0.063561052
0.09762904 0.084966004 0.063553557
0.10270943 0.084144831 0.063117512
0.10416928 0.084153414 0.063094966
0.12732957 0.084154725 0.063114889
0.082540736 0.095946848 0.063151963
0.081906945 0.096724629 0.063624807
0.08334592 0.096738577 0.063609913
0.076827973 0.10683411 0.063218795
0.075654894 0.10767144 0.063644998
0.073428869 0.11695319 0.063063338
0.071954623 0.11776084 0.063528284
0.15472113 0.12697119 0.063290656
0.15325235 0.1369496 0.063847534
0.14060792 0.15283364 0.063322559
0.14499852 0.15280992 0.06332922
0.14315148 0.15358365 0.063865788
0.1460558 0.15354222 0.063912533
0.090023801 0.16035497 0.063132204
0.1066311 0.16032165 0.063175209
0.11778869 0.16034907 0.063117877
0.12423065 0.1603297 0.063139819
0.12569579 0.16034055 0.063143566
0.13328233 0.16033113 0.063164972
0.13102898 0.16111261 0.063682735
0.12050156 0.16853601 0.063798852
0.095255196 0.08573854 0.064015888
0.096652105 0.085740924 0.064011037
0.12955134 0.085743248 0.064006358
0.092440635 0.086513519 0.064492047
0.093755752 0.086544812 0.064469412
0.089530215 0.087357998 0.064886719
0.09095405 0.087358177 0.0648918
0.094466656 0.087352216 0.064920045
0.13177589 0.087341905 0.064893
0.13613176 0.087337852 0.064927228
0.079410717 0.097538173 0.064063594
0.080901876 0.097504139 0.064112447
0.079067484 0.099140227 0.064990848
0.072868168 0.1091888 0.064669423
0.07266745 0.11854202 0.064036727
0.07287769 0.12928408 0.064824104
0.1544902 0.12927902 0.064816132
0.15775248 0.13844192 0.064955913
0.14293601 0.14677072 0.064849913
0.14845172 0.14604002 0.064274229
0.15163296 0.1467635 0.064843185
0.15227534 0.14601099 0.064303525
0.13303502 0.15432322 0.064428397
0.13808139 0.15510833 0.064922243
0.1395652 0.15507096 0.064992703
0.092442662 0.16184771 0.064270929
0.1245998 0.16181767 0.064288229
0.12533198 0.16180074 0.06428609
0.09177205 0.16256869 0.0648413
0.08596614 0.088942528 0.065819949
0.088511422 0.088144243 0.065337069
0.090604603 0.088965118 0.065792173
0.091722906 0.088139951 0.065357618
0.13287558 0.088146508 0.065351292
0.13441458 0.088513315 0.065603517
0.13754632 0.088197291 0.065315984
0.078481495 0.099935293 0.065426208
0.080540434 0.099114776 0.065006353
0.077423871 0.10069573 0.065946706
0.080217972 0.1007067 0.065933116
0.074713379 0.11002898 0.065059215
0.071760997 0.12005603 0.065038331
0.15693018 0.12167025 0.065968491
0.15126285 0.1392194 0.065465398
0.14689961 0.14755845 0.065334342
0.084753156 0.15583867 0.065520763
0.13589512 0.15581846 0.065548256
0.13949358 0.15584135 0.065520316
0.14089294 0.15508527 0.065000311
0.1424063 0.15582263 0.065547273
0.11162432 0.163288 0.065450251
0.1051127 0.16409028 0.065941252
0.10621214 0.16406411 0.065973073
0.088209525 0.08973527 0.066272967
0.089641854 0.089754045 0.06623245
0.13443345 0.090527952 0.066718102
0.13668968 0.090510666 0.066725895
0.078181624 0.10151434 0.066381097
0.072947666 0.11156404 0.066077307
0.074418709 0.11153924 0.066097952
0.072835356 0.12163991 0.066026397
0.15488525 0.12237197 0.066546857
0.14582792 0.14983803 0.066949978
0.14654048 0.14907223 0.066413499
0.14943323 0.14982653 0.066964984
0.08579801 0.15659982 0.066060677
0.12505035 0.15657449 0.066097073
0.12690005 0.15659773 0.066060781
0.12941705 0.15659165 0.066073008
0.13294466 0.15657628 0.066102423
0.13591447 0.15656984 0.06609571
0.13763379 0.15660548 0.066064343
0.12692808 0.15733242 0.066625133
0.12835851 0.1573379 0.066625074
0.1301427 0.15732628 0.066641957
0.13198072 0.15729362 0.066680931
0.1329942 0.15731627 0.06666033
0.13487662 0.15731674 0.066657215
0.10762911 0.16479695 0.06656605
0.1169925 0.16480291 0.066529192
0.12812786 0.16402972 0.066018738
0.10815828 0.17147583 0.06611488
0.10887054 0.080352783 0.067788728
0.10999827 0.080341041 0.067799874
0.11464152 0.080314517 0.067838959
0.11598867 0.080339968 0.067841262
0.086123794 0.091305733 0.067176268
0.087485 0.091313839 0.067205362
0.085433424 0.092112482 0.067637026
0.086846247 0.09211576 0.06762398
0.075749621 0.10381842 0.067880332
0.077520937 0.10342479 0.067648135
0.072360441 0.11314881 0.067012057
0.073094428 0.11392254 0.067515843
0.074054942 0.11313218 0.067058988
0.071787819 0.12395078 0.067537166
0.14981788 0.14148331 0.067076847
0.14433584 0.1505459 0.067563802
0.086175874 0.15808624 0.067186221
0.12110981 0.15804517 0.067234144
0.13557239 0.15806478 0.067209385
0.084329084 0.081148028 0.068230502
0.10379708 0.081938565 0.068711363
0.10558785 0.081118941 0.068296
0.10815597 0.081169486 0.068218209
0.11002211 0.081959069 0.068663843
0.11143436 0.081553042 0.068457298
0.11284257 0.081141055 0.068260357
0.11399037 0.081124663 0.068254009
0.11472401 0.081928849 0.0687062
0.11577708 0.081929803 0.068710484
0.11756913 0.081120491 0.068277709
0.11966088 0.081952333 0.068677746
0.12088697 0.081973851 0.068671145
0.12345418 0.081948817 0.068658978
0.083352819 0.092956483 0.068020023
0.086179763 0.092900276 0.068082079
0.13931073 0.09292835 0.068091974
0.083084241 0.094548702 0.068925917
0.07686311 0.10539776 0.068817228
0.07283321 0.11627412 0.068969503
0.07251814 0.12473971 0.068020061
0.15491568 0.12469798 0.068052217
0.15417042 0.12548375 0.068543851
0.15317605 0.13467991 0.068401121
0.1510092 0.13547003 0.068916686
0.15243518 0.14376462 0.068655059
0.15458183 0.14305121 0.068082623
0.14402898 0.15128714 0.068111144
0.14083429 0.15207207 0.068611003
0.14474973 0.15203661 0.068661623
0.14582314 0.15208447 0.068623833
0.088366494 0.15957296 0.068300143
0.089773759 0.16031969 0.068860725
0.13519041 0.16030794 0.068882674
0.1105784 0.16696835 0.068311535
0.10619502 0.16775012 0.068819746
0.11158554 0.16771382 0.068879582
0.11269616 0.16771215 0.068883777
0.11595818 0.16779393 0.068770789
0.11628684 0.1677956 0.068774588
0.12200503 0.1677528 0.068828404
0.097375244 0.082776129 0.069066852
0.098863333 0.082736373 0.069144905
0.10016952 0.082763314 0.069151536
0.10170323 0.082742751 0.06914334
0.10683703 0.082727849 0.0691633
0.10790247 0.08277905 0.06908527
0.11402591 0.082739711 0.069132738
0.11870757 0.082732797 0.069148839
0.12273085 0.082781315 0.069085412
0.12630455 0.08275044 0.069142543
0.09659411 0.083590627 0.069530904
0.098137975 0.083587229 0.069514729
0.10356867 0.08355391 0.069567218
0.10492358 0.083548486 0.069588728
0.10612416 0.083516419 0.069609635
0.12458183 0.083560944 0.069535203
0.1256527 0.083559752 0.069558635
0.081322283 0.0961169 0.069858834
0.082761288 0.09610635 0.069870532
0.084203541 0.096144795 0.069825888
0.076625645 0.1069743 0.069762617
0.073641628 0.10704392 0.069697492
0.075120404 0.1070227 0.069719814
0.072166696 0.11786193 0.069919124
0.15001751 0.13622487 0.069437154
0.15683466 0.13620359 0.069453605
0.14888369 0.14453375 0.069162153
0.15028694 0.14452463 0.069180265
0.15164818 0.14454222 0.069183126
0.14960106 0.14529628 0.069689073
0.14074695 0.1528278 0.069170311
0.14260031 0.15281242 0.069168493
0.14395745 0.15281224 0.069191508
0.13714726 0.15362436 0.06965141
0.13862032 0.15357608 0.069708154
0.089843541 0.16181964 0.069970749
0.092273384 0.16181886 0.069998525
0.093429908 0.16103625 0.069443092
0.12764093 0.16106445 0.069436133
0.12060641 0.1692223 0.069998935
0.12168255 0.16922247 0.069976367
0.12312442 0.16923553 0.069960497
0.12567739 0.16926348 0.069935784
0.10207802 0.073372304 0.070948698
0.095631778 0.084349513 0.070013873
0.10139772 0.084356129 0.070014663
0.091402233 0.085129559 0.070471339
0.093149275 0.08516103 0.070443541
0.094633192 0.085152328 0.070440456
0.096857771 0.085953414 0.070888288
0.098267734 0.085995078 0.070818901
0.12957136 0.085961342 0.070853956
0.13083094 0.085960269 0.070861697
0.080283374 0.096902549 0.070346177
0.074457362 0.10781866 0.070163965
0.15426581 0.10779095 0.070190497
0.15504177 0.10857213 0.070663683
0.071907118 0.12783313 0.070022635
0.15489933 0.12782687 0.070028849
0.072665304 0.12861568 0.070524469
0.15422183 0.12861067 0.070507482
0.15364122 0.13777435 0.070433527
0.15443014 0.13853365 0.070951663
0.14778796 0.14684957 0.070726775
0.14845577 0.14607632 0.070233725
0.091395795 0.15438408 0.07020162
0.091583073 0.16255975 0.070543937
0.094488278 0.16253644 0.070560411
0.1258032 0.16254723 0.070544578
0.12727271 0.16254026 0.070549339
0.1112586 0.16919369 0.070031583
0.090754658 0.086762428 0.071337327
0.092558697 0.086740434 0.071332976
0.094314873 0.086768627 0.071314417
0.095794737 0.08676517 0.071295284
0.096165434 0.086764455 0.07131502
0.13268031 0.086745143 0.071325861
0.091888979 0.087550163 0.071779601
0.093312129 0.08756572 0.071757361
0.13497737 0.087550461 0.071748786
0.080013871 0.098491192 0.071222551
0.081438705 0.098510146 0.071252048
0.077870473 0.099349618 0.071611077
0.15154284 0.099293172 0.07170558
0.075530753 0.10941863 0.071096614
0.074543476 0.11021763 0.071531527
0.15385686 0.12098134 0.071862929
0.15601772 0.12024724 0.071300171
0.072256148 0.12102729 0.071814097
0.14671259 0.14760798 0.071255617
0.14958212 0.14759707 0.071277484
