# .PCD v0.7 - Point Cloud Data file format
VERSION 0.7
FIELDS x y z
SIZE 4 4 4
TYPE F F F
COUNT 1 1 1
WIDTH 1281
HEIGHT 1
VIEWPOINT 0 0 0 1 0 0 0
POINTS 1281
DATA ascii
0.14437309 -0.0053806659 0.0090623535
0.1369963 -0.0016228189 0.0088807773
-0.00027088821 0.069150902 0.0064181751
0.10601422 -0.0021405965 0.0086308746
0.10329475 -0.00066357292 0.0086318674
0.099675283 0.0004818961 0.0092771817
0.097803406 0.0014497712 0.0092648119
-0.0025423616 0.053164013 0.0074391989
0.087912641 -0.00089879707 0.0088066347
0.086674228 -0.00025609508 0.0087897219
0.0016861409 0.043568365 0.0072880052
-0.0018448532 0.04535225 0.0071801692
0.0010367036 0.035827845 0.0079527088
-0.10450123 0.090288423 0.006109599
0.063025974 -0.003429234 0.0092025595
0.06123662 -0.003116332 0.0099635953
0.060306601 -0.0026397035 0.0099665225
0.057951219 -0.0014988966 0.0098620206
0.05704359 -0.0010776259 0.0098020518
0.0026068538 0.02709651 0.0089111188
0.0010260344 0.027882725 0.0088670217
-0.0016266555 0.029904559 0.0080588236
0.04888735 -0.0033143535 0.0093182679
0.043494843 -0.00056613237 0.0092317332
0.0022388101 0.020029113 0.0092369867
0.031528741 -0.0015803352 0.0095042633
0.00098736584 0.013566978 0.0097734332
0.021389283 -0.0034340099 0.010040533
0.0028776228 0.0060662776 0.0096699689
0.0015131459 0.0067988336 0.0096615218
0.00023542345 0.0074705854 0.0096559655
0.0018702298 0.00025260076 0.0097954515
0.0052713677 -0.0021934994 0.010607773
0.0042664781 -0.0016277209 0.010620164
0.0032972619 -0.0011025928 0.010629527
0.0023688078 -0.00062161684 0.010602796
1.4692545e-05 0.12913734 0.0033861969
-0.00033710897 0.13011551 0.0027524913
-0.00074927509 0.11854997 0.0038278098
-5.9753656e-05 0.11741 0.0044770641
-0.0010277182 0.10776784 0.0045515434
-0.0023018569 0.10842142 0.0045286892
0.00016915798 0.087131284 0.0056704064
0.15214896 -0.0010607195 0.0093776453
-0.00082173944 0.077768773 0.0065965536
0.13032627 0.0010594372 0.0094540818
0.12934324 0.0016144346 0.0094634499
-0.00083939731 0.060444027 0.0071550692
0.11634264 -0.00063325465 0.01001022
-0.00011324883 0.059327014 0.0078529008
0.00066538155 0.050799631 0.0082014799
-0.00057725608 0.05145634 0.0081959767
-0.001796782 0.052068688 0.0081782527
0.071926005 -0.0013519861 0.0099937664
0.070939042 -0.00082826242 0.0099656768
0.0030315965 0.034078218 0.0086855488
-0.00033465028 0.035182908 0.0094408635
0.058456846 -0.0023635738 0.010694085
0.04337652 -0.0018281229 0.010750469
-0.00080615282 0.013820417 0.010502556
-0.0020607263 0.014463067 0.010466159
0.018389978 -0.0025699846 0.010754637
0.016914882 -0.0024090931 0.011533145
-0.0037874356 -0.0043975711 0.011538081
0.00048869848 0.13993929 0.0032268513
-0.0010851324 0.14074206 0.0031751415
0.0015739352 0.12757744 0.0040515088
-0.00035522878 0.12777601 0.0046380954
0.00067383051 0.11625311 0.0051407651
-0.0010475218 0.11714873 0.0051012523
-0.0022864193 0.11776838 0.0050725583
0.001554206 0.10491742 0.0059277965
-0.0003298074 0.10663838 0.0052365959
-0.0008957237 0.096086003 0.0062556346
0.15219118 -0.0026189275 0.010696258
0.00060348213 0.075503856 0.0079645496
-0.00070589781 0.07620883 0.0079532908
0.12492479 0.0030854121 0.010027289
0.00092326105 0.067072637 0.0078387437
-0.00044973195 0.067801595 0.0078265108
-0.0026713014 0.068904713 0.0077734301
0.13624078 -0.0034234147 0.010974344
0.11446397 -0.00034213997 0.010721128
0.11383502 -7.0940703e-05 0.010684673
0.098944053 -0.0013277736 0.011394786
0.098248273 -0.0001849439 0.010707754
0.0011338145 0.049844429 0.0089516398
0.084691189 -0.001306342 0.010957043
0.0010138452 0.041861743 0.0094895475
0.054723404 -0.0011524782 0.011328033
0.055165201 -0.0020945705 0.012058293
0.0022688806 0.025266305 0.011191652
0.00067140162 0.026074849 0.011143794
-0.00092017651 0.026890695 0.011107946
0.039616272 -0.00052307546 0.011448531
0.030994631 -0.0032387264 0.011835312
0.0021484047 0.011582464 0.011289038
0.015077166 -0.0020995773 0.012278444
0.013260797 -0.0011212043 0.012286304
0.0035426319 0.0038144812 0.012037039
0.016559348 0.15580666 0.0031620613
0.005236432 0.14791285 0.0041566463
0.00077065825 0.13824895 0.0045015858
-0.0027614981 0.14000243 0.0043584555
0.00066268444 0.12565029 0.0058847074
-0.00070552528 0.12637581 0.0058699367
0.00063498318 0.11473244 0.0064141173
-0.00032645464 0.10511062 0.0065477705
0.00012609363 0.09480872 0.0069318172
0.0011143535 0.093539357 0.0076261787
-1.1608005e-05 0.084935792 0.0076503674
-0.001932025 0.085956536 0.0076482845
0.00093154609 0.083707429 0.0083300546
-0.00099033117 0.084709249 0.0083107688
0.13288055 -0.0023835218 0.011636149
0.11582149 -0.0018464513 0.011400138
0.001281172 0.057193555 0.0093293777
5.3927302e-05 0.057810985 0.0093005104
0.11718708 -0.0032894332 0.012121641
0.11430988 -0.00173245 0.012108108
0.094523162 0.00029224902 0.012057153
0.00091727078 0.048531748 0.010361195
0.081925645 -0.0012692343 0.012392778
0.080627009 -0.00062864088 0.012318837
0.069983177 -0.0023918226 0.012191477
0.06799031 -0.0014303401 0.012114858
0.0005132705 0.032667145 0.011623147
-0.00020781159 0.01866857 0.012251355
0.028375305 -0.0031700991 0.013345959
0.026730075 -0.0016838722 0.012547535
0.011772066 -0.00096415356 0.013051424
0.0018102303 0.0040589422 0.012786872
0.00050560385 0.0047785789 0.012789965
0.0034968331 -0.0031111538 0.012986061
0.0049585402 0.14722824 0.0047386601
-0.0008379221 0.13745742 0.0056760008
-0.0024315119 0.13823353 0.0055932547
0.00124605 0.12455337 0.0064952811
0.0018647313 0.12345117 0.0071334159
0.0012191534 0.11364155 0.007042164
-0.0022685826 0.1146497 0.0076256413
-0.00066594779 0.10375085 0.0078297229
-0.00039744377 0.092781402 0.0089092869
-0.0014839023 0.094120406 0.0082262335
-0.0005864352 0.082988992 0.0096488316
0.14234695 0.00095993048 0.011898205
-0.00093029439 0.074836656 0.0093153762
-0.0022396445 0.075541288 0.0093111545
0.14591581 -0.0016467045 0.01262249
0.14334491 -0.00022952305 0.012628783
0.12955159 -0.0014014328 0.012262969
0.12923376 -0.0012721112 0.012231787
-0.0012176037 0.06600932 0.0099050831
-0.00048720837 0.064882055 0.010591609
0.11107728 -0.00086065754 0.012722049
0.1090042 0.00026433356 0.012707788
-0.0014127344 0.05712796 0.01069168
0.092376709 0.00066617876 0.012735363
-0.0009046644 0.048787966 0.011074519
0.082723722 -0.0023804046 0.013128674
0.00037899613 0.040091984 0.011669209
0.049595639 -0.0005207397 0.013506606
-0.00067509711 0.025435701 0.012635925
0.00059464574 0.017634749 0.013055908
0.025352791 -0.0022441447 0.014099022
0.024020873 -0.001524888 0.014073414
0.023056395 -0.0010877177 0.014031599
0.012299851 -0.0025210343 0.014619493
0.010287195 -0.00090543926 0.013751419
0.0088542253 -0.00079511479 0.014542991
0.0035444275 0.0026154034 0.013689866
0.00050947815 -0.0027347431 0.014583148
-0.00036418438 -0.0022908337 0.014555322
0.00041349232 0.13522968 0.0069302311
-0.00086382031 0.13590813 0.0069254646
5.184114e-05 0.10259814 0.0084961327
0.0010501742 0.082187735 0.0097241886
0.14402001 -0.0013138617 0.013336299
0.12548812 -0.00076194573 0.013596459
0.0014456362 0.063163176 0.011355394
0.00019444525 0.063807979 0.011318762
0.10954645 -0.00081063807 0.013385535
0.10764439 0.00027224235 0.013421957
0.10636774 0.00094086677 0.013399687
0.10551511 0.00066249259 0.014106943
-0.001318112 0.055664726 0.012122318
0.0027478039 0.045459487 0.012547348
0.0023404509 0.038378611 0.012435487
0.0010350049 0.039041206 0.012397604
0.076754123 -0.00069873035 0.014488396
0.075788304 -0.00017444417 0.014486024
0.065072589 -0.0019272715 0.014326038
0.050925441 -0.0017955452 0.014332723
0.049981341 -0.0013311133 0.014309558
0.0035431832 0.022570364 0.013443792
0.049147815 -0.0015761629 0.015041837
0.048219576 -0.001163274 0.014984585
0.047206998 -0.00066564232 0.014945552
0.001425758 0.022976726 0.014152107
0.033633828 -7.5146556e-05 0.014401931
-0.0015624166 0.018050708 0.013758785
0.037979826 -0.0029541627 0.015267544
0.036693431 -0.0022968277 0.01523378
0.035777204 -0.0018326528 0.015240313
0.035399258 -0.0016531236 0.015211122
0.021721356 -0.001701802 0.015549843
0.017539516 0.00051467866 0.015503494
0.0018679798 0.008586891 0.015219398
-0.00074550509 0.0098800287 0.015136236
0.0012517124 0.0024697781 0.015159227
0.00068067014 0.13429834 0.0075420076
0.0018673688 0.12187666 0.0084073162
-0.0010203123 0.12334768 0.0083151879
-0.0022981018 0.12401398 0.0083142491
-0.00041171908 0.12226303 0.0089635942
-0.00099746883 0.11244848 0.0089110155
-0.002226457 0.11308352 0.008901027
-0.00034624338 0.11130424 0.0095397104
0.00032390654 0.10016348 0.010428321
-0.00027753413 0.10124899 0.0097909216
0.00089919567 0.08987911 0.010940831
-0.00046247244 0.091339484 0.010248438
0.00050243735 0.080214843 0.011738038
-0.0011709481 0.081087962 0.011700458
0.13286631 0.0029210504 0.014491245
-0.0014593899 0.07210695 0.012001216
-0.0018026233 0.073041946 0.011326805
0.12341775 -0.001132044 0.014969748
0.12050885 0.00029643718 0.014864987
-0.0013176501 0.063131928 0.012675395
0.10808878 -0.0014794022 0.014785687
0.10397502 0.00065284967 0.014710102
0.10264839 0.0013743639 0.014724736
0.00093206763 0.045710504 0.013254371
-0.00099882483 0.046007238 0.013943729
0.077156819 -0.0015992709 0.015228738
0.06331791 -0.0016388483 0.015080807
0.062350005 -0.0011555068 0.015067643
0.0014608949 0.030190594 0.013938905
0.060482502 -0.00090783834 0.015769077
0.059492417 -0.00048049167 0.015664591
-0.00063173473 0.030548744 0.014622112
0.033599056 -0.0013800971 0.015944188
0.031374283 -0.00022304803 0.01590573
0.01895678 -0.0008733049 0.016316172
0.0026166216 0.0075649768 0.016026538
6.8746507e-05 0.0088555962 0.015951831
0.0059108064 -0.00047018752 0.016112272
0.0030281767 0.0010379255 0.016076446
0.00034986436 0.13286376 0.0087488694
-0.00037236512 0.12065329 0.010220899
-0.00036092103 0.10974993 0.010810303
0.0009880662 0.099030353 0.011089419
0.10898761 0.033327483 0.01348902
0.10572337 0.034372345 0.014170213
0.14191779 -0.0024419096 0.015365716
0.0011822581 0.070072576 0.012802185
-0.0011142045 0.071183741 0.012687919
0.12186938 -0.0010497859 0.015663281
-0.00062616169 0.062053002 0.013417453
0.00021159649 0.053485498 0.013609493
0.10785309 -0.0027722996 0.016205225
0.10503776 -0.001248043 0.016217476
0.0020997226 0.05179897 0.014337562
0.0026122332 0.044153742 0.01403826
0.089846134 -0.0015471373 0.016309366
0.088229351 -0.00066994876 0.016298415
0.077529937 -0.0025080554 0.015920501
0.072410516 0.00018351153 0.015867071
0.0031971037 0.035865165 0.014657512
-0.00097095966 0.038026869 0.014578687
0.073837802 -0.0012212843 0.016690532
0.071193181 5.864352e-05 0.016572122
-0.00029674172 0.036968514 0.015313402
0.044382401 -0.0011151247 0.017250376
0.045316391 -0.0016891435 0.017189354
0.0010764152 0.021154299 0.016416457
0.0032414421 0.013582185 0.016134929
0.030025102 -0.00082539767 0.01743008
0.019401871 -0.0017497875 0.01709736
0.0079418719 -0.0022216253 0.016872639
-2.8282404e-05 0.13146594 0.0099543119
0.00027766824 0.10865363 0.011456777
0.00092233717 0.10753661 0.012106817
0.0010596365 0.097420767 0.012360268
-0.0018448681 0.098965742 0.01233549
-0.001264587 0.088709719 0.012879025
0.00051952899 0.078717254 0.013092522
-0.0016551465 0.079096437 0.013735033
0.14005944 -0.0022262624 0.016020078
0.13531193 -0.00053271046 0.016606938
0.12030913 -0.0010676626 0.016238533
0.0012395829 0.060343705 0.014101161
1.3098121e-05 0.060985945 0.014106255
0.00028856099 0.05202686 0.015034037
-0.0013174117 0.052855857 0.015019287
0.092768952 -0.0036800634 0.017128423
0.088589899 -0.0015628152 0.017023684
0.00020718575 0.043951184 0.015396247
-0.0011438578 0.044667907 0.015378676
0.00053396821 0.035853393 0.016080592
0.056253038 -0.00010307506 0.017166186
0.0010675639 0.02835837 0.016179126
-0.00047764182 0.029159576 0.016155146
0.058529764 -0.0019586422 0.017960399
0.05664257 -0.0010197572 0.017872123
0.0037525594 0.026315056 0.01699657
0.042919934 -0.0010319464 0.017980831
0.041594684 -0.00035265088 0.017946107
0.0015221834 0.013902247 0.01694705
0.00024105608 0.014546104 0.016900562
0.016648352 -0.00097536296 0.017818259
0.014777519 5.0492585e-05 0.017840896
-0.0012690648 0.0082820877 0.017504813
0.013291188 0.00012355298 0.018539026
0.0006160289 0.12951341 0.011177771
-0.00035259128 0.13002217 0.01116135
-0.0025593489 0.13115117 0.011122252
0.00091674924 0.12858218 0.01180381
-0.0013211071 0.12972307 0.01175351
-0.00039677322 0.11909179 0.011486972
0.0015188456 0.10646915 0.012778081
-0.001396805 0.10795889 0.012687635
-0.0011977851 0.097856693 0.01300808
-0.00051933527 0.096692413 0.013637017
4.4628978e-05 0.087277755 0.013580692
0.15222982 -0.0009520647 0.01718173
-0.0010274351 0.078018896 0.014408566
0.13597144 -0.001619962 0.017295806
0.13309091 -9.6880831e-05 0.017272459
0.00034211576 0.068306454 0.014848371
0.13117197 9.8248012e-05 0.017884219
-0.0015137047 0.068511225 0.015509326
0.11626393 -0.00033901725 0.017633364
0.114627 0.00046554767 0.017588196
-0.0026976317 0.060945064 0.015479679
7.6904893e-05 0.050699092 0.016449306
-0.0011763871 0.051357441 0.016439488
0.086812302 -0.0013429727 0.017720012
0.086495727 -0.001181487 0.017696153
0.08521229 -0.00052621774 0.017686721
0.0018882155 0.042475305 0.016229881
2.2381544e-05 0.042659067 0.016864153
0.071404733 -0.0013330653 0.018105274
0.069418058 -0.00041333959 0.018013157
0.0012147129 0.034818187 0.016823666
0.069829315 -0.0013040863 0.018743377
0.06854517 -0.00062187761 0.018742081
0.0019442439 0.033688352 0.017520057
0.055731945 -0.0012174658 0.018618969
0.054787487 -0.00068844855 0.018633612
0.042066775 -0.0012559183 0.018719478
0.0015712157 0.0055092722 0.019097965
0.0035428703 -0.0017472506 0.019248595
0.0007269457 -0.00028178096 0.019209052
0.046797141 0.11602163 0.012672996
-0.00080196559 0.14123522 0.011115858
0.04315424 0.10687172 0.012622418
-0.00041042268 0.11753388 0.012729659
-0.00069479644 0.10680824 0.013338552
0.00041735172 0.095435902 0.014272372
0.0014749765 0.09411256 0.014948034
-0.00053875148 0.095165268 0.014913095
0.0003028363 0.085604727 0.014886587
0.15033843 -0.0007568365 0.017803283
0.14778121 -0.00021095644 0.018423114
0.14684653 0.0010474694 0.01775549
0.14463566 0.0014210632 0.018370474
0.094641849 0.027208742 0.017479761
0.00039565563 0.075747423 0.015752342
-0.00093197823 0.076456182 0.015748933
0.00011643767 0.066956468 0.016226405
-9.8690391e-05 0.058103025 0.016873203
-0.0013978332 0.058802612 0.016859552
-0.0020497441 0.059872426 0.016173538
0.098535635 -0.00075637363 0.018938353
0.0933768 0.0018807761 0.018816104
0.0017849207 0.049073845 0.017171998
0.082801849 -0.00067158602 0.019119065
0.0017767251 0.041103721 0.017664976
-0.0018650889 0.042920403 0.017533949
0.066927917 -0.00044861436 0.01946627
0.065862477 0.00013172626 0.019467406
0.052944168 -0.00039942563 0.019366609
0.00081938505 0.026447877 0.018419433
0.050193802 0.00024621189 0.019988051
0.0017531216 0.02531597 0.019201079
0.039191827 -0.00043065101 0.01942287
0.0021219999 0.018629983 0.01873745
0.03962034 -0.0013353415 0.02017875
0.038389526 -0.00070257857 0.020168945
0.0028146505 0.017639965 0.019525023
0.025548153 -0.0004539676 0.019679323
0.021483868 0.00096517801 0.020366326
0.00087292492 0.01220382 0.019208197
-0.00088693202 0.012522817 0.019985219
0.01389011 -0.0014398657 0.020141028
0.012949355 -0.00093338266 0.02015239
0.0023395792 0.004456915 0.019883269
0.00064127892 -0.0014991872 0.020776851
0.0010273606 0.13870829 0.012391335
-0.00056010485 0.13949692 0.012307841
0.04681693 0.11435483 0.013836745
0.041026354 0.11737582 0.013760413
0.032979652 0.10967997 0.014241491
0.00054220855 0.12718605 0.013018096
-0.0013514012 0.12734076 0.013581349
-0.00038444996 0.11593392 0.013976979
0.0002348125 0.11484631 0.014628151
0.0019177645 0.10391491 0.014687041
0.00056964159 0.10461222 0.014661375
-0.00064775348 0.105227 0.014636499
0.11236122 0.036186218 0.017587654
0.10854504 0.038153876 0.017528037
0.00047720969 0.093850404 0.015565343
0.00073470175 0.083844513 0.016189285
-0.0012442023 0.084889323 0.016190534
0.14812694 -0.0011861165 0.019058309
0.00014261901 0.074351683 0.017071798
-0.0011957586 0.075084426 0.017082248
0.13097396 -0.0012212247 0.019284099
0.1255316 0.0015743552 0.019192185
0.00079138577 0.065845408 0.016899174
-0.0017750859 0.067184605 0.016870987
0.13101198 -0.0020030187 0.019969808
0.12685725 0.00011013728 0.019871786
0.11548161 -0.0021551773 0.019703934
0.0022428483 0.056211241 0.017652197
0.11000778 -9.168312e-05 0.020271724
4.7370791e-05 0.056581721 0.018289648
0.094400972 0.00062232837 0.019555552
-0.00068280101 0.048938558 0.018564131
0.083210133 -0.0016206466 0.019818656
-0.00010709465 0.041368946 0.018352458
0.081354342 -0.0013397913 0.020525675
0.079048 -0.00017767027 0.020464098
0.064304732 0.00025513396 0.02019605
-0.00072236359 0.033738278 0.019004557
0.063368641 4.5221299e-05 0.020904599
0.0012330264 0.031988792 0.019714562
-2.6509166e-05 0.032649629 0.019706622
0.050615154 -0.00059775263 0.020783348
0.036888093 -0.00062805787 0.020880569
-0.00063318014 0.018721201 0.020191582
0.023171596 -0.00060993433 0.021127004
0.00077098608 0.010934502 0.020711171
-0.00047594309 0.011618011 0.020732863
0.014300801 -0.0023116805 0.02092036
0.0093000755 -0.00039256737 0.021593772
0.0040234253 0.0029641949 0.020714266
0.002201438 0.0032189079 0.021415368
0.049011543 0.11248029 0.014541967
0.05185245 0.11017495 0.015152749
0.049579769 0.11137569 0.015131609
0.039100707 0.11755203 0.014322286
0.0015733987 0.13604368 0.014208078
0.00029921532 0.13671358 0.014199242
0.037662923 0.10569078 0.01555819
0.033464402 0.10782526 0.01546097
0.031920463 0.10863692 0.015442196
-0.00044070184 0.1252827 0.014824466
0.033218876 0.096202388 0.016404385
0.11812711 0.032470308 0.018356921
0.11688076 0.033162031 0.018372387
0.11429288 0.034468029 0.018327231
0.1094844 0.03696382 0.018236889
0.10825716 0.037544653 0.018176153
0.11498926 0.033370711 0.019002995
0.1126778 0.0344446 0.018852668
0.11146843 0.035091691 0.018850695
0.00082188845 0.092168197 0.016899543
0.00075115263 0.082350306 0.017538125
-0.00017622113 0.083554052 0.016844971
0.14565082 -0.0013337845 0.020409694
0.14180072 0.00062921736 0.020334503
0.11290979 -0.0014981981 0.020388009
0.11134817 -0.0014740899 0.021023974
0.00075595081 0.055509627 0.019020956
0.098086752 -0.0027621593 0.021012248
0.097105712 -0.0021886621 0.021029791
0.09584032 -0.0015057344 0.02103363
0.094603166 -0.00089405291 0.020996952
0.092648894 6.8984926e-05 0.020938549
0.00092285872 0.04737822 0.019278964
-0.00026422739 0.047997557 0.01928121
0.079470932 -0.0011405908 0.021151796
0.034681037 0.02205513 0.020447413
0.06091249 0.00050176308 0.021504529
0.0023115277 0.023617193 0.020659607
0.035055339 -0.00035491586 0.021589015
0.00018680096 0.017651401 0.020990495
0.033183247 -3.8933009e-05 0.022325335
0.031959951 0.00060756505 0.022318764
0.00090925395 0.016601689 0.0217578
0.0028033927 0.0092832074 0.021550708
0.050554082 0.11005259 0.015731452
0.049565256 0.10974206 0.016309422
0.045669019 0.11176716 0.016239556
0.0012515783 0.13456717 0.01538744
-8.2030892e-05 0.13527238 0.015361202
-0.0013753623 0.13593858 0.015344518
0.038275942 0.10456304 0.016171174
0.035068408 0.10539642 0.016685674
0.0014490634 0.12350288 0.015441916
0.00012028217 0.12419005 0.015424986
-0.0023939162 0.1254985 0.015404001
0.0322541 0.096726455 0.016411776
0.00025074184 0.11325022 0.015862206
0.00081972778 0.11215258 0.016473817
0.00092428923 0.10208851 0.016576855
-0.0016465634 0.10341316 0.016529096
-0.0010082275 0.10230177 0.017173231
0.10774817 0.036303438 0.019487673
-0.0017326772 0.092697784 0.017485222
0.0011355132 0.090473019 0.018198879
0.098917827 0.031001106 0.019976806
0.09669815 0.023113867 0.020199733
0.09445183 0.024246473 0.020120054
0.14187366 -0.00087001268 0.021710441
0.091290653 0.025168192 0.0207686
0.0015220791 0.071368687 0.019114582
-0.00082074106 0.07259389 0.019061299
0.12653702 -0.0011682352 0.02123682
-0.0012743473 0.064686641 0.018923936
0.12211677 0.0002850499 0.021785213
0.12117703 0.00081846211 0.021824285
-0.00065128505 0.063626893 0.01960904
0.10976107 -0.0014575925 0.021627754
0.10633187 -0.00031302311 0.022350188
0.089549527 0.0009958446 0.021607291
0.077004366 -0.00052543543 0.021873474
-0.00090925395 0.039676279 0.020496001
0.077038869 -0.0012547541 0.02259168
0.076074019 -0.0007516183 0.022576844
0.0010726303 0.037929729 0.021239538
0.063286304 -0.0012992062 0.022386365
0.003016606 0.029734269 0.021267008
0.0013909489 0.030582085 0.021247424
0.050453082 -0.0018513836 0.022291407
0.045782171 -0.00011073798 0.022965576
0.0024812967 0.022173375 0.022152983
0.00090393424 0.023000829 0.022139296
0.034957096 -0.0016192049 0.023119552
0.032369025 -0.00027592108 0.023085354
0.030161165 0.00086400285 0.023044147
0.00164105 0.015599616 0.022538349
0.020910628 -0.00072398409 0.022656811
0.0035826936 0.0082330778 0.022361463
0.021326624 -0.0016099773 0.023412675
0.008939743 -0.0015186816 0.023127418
0.0073355213 -0.00064878911 0.023141157
0.043764621 0.11188936 0.016753614
0.033186212 0.10553358 0.017249541
-0.001424849 0.12336748 0.016613085
0.00079040229 0.12143493 0.017262198
-0.00083997846 0.12227256 0.01722596
0.0014383197 0.11102869 0.017088901
-0.000803262 0.11140314 0.017689757
-7.0929527e-05 0.10027098 0.018458296
0.10859779 0.035113215 0.020173717
0.11050097 0.033252347 0.020756733
-0.00139153 0.090990372 0.018807448
0.10092042 0.029186627 0.020674709
0.10986792 0.023865459 0.021520332
0.10273319 0.027470915 0.021339191
-0.001421541 0.081182376 0.019474652
0.13967671 -0.00052964548 0.02230452
0.13841519 0.00013855379 0.022305688
0.13710909 0.00083061913 0.022295432
0.092287309 0.023908015 0.021463029
0.091220371 -0.0013376251 0.023060525
0.085437186 0.0016797297 0.022939881
0.00018902123 0.045599379 0.021395352
0.001843363 0.036825731 0.021989467
0.058910578 -0.00054270402 0.023672987
0.046194181 -0.0010626875 0.023683321
0.030625202 -4.8592687e-05 0.023822961
0.029316567 0.0006155856 0.023773223
0.019537494 -0.0013138838 0.024173366
0.0074946359 -0.0013949089 0.02390416
0.0048801899 2.0455569e-05 0.023902934
0.0016342774 0.0015964508 0.023767285
0.00037128478 0.0022404566 0.023729153
0.056730829 0.11631179 0.017286059
0.0023460984 0.14337505 0.016758533
0.041847289 0.11206067 0.017326096
0.045352146 0.10947958 0.018020341
0.038046375 0.1132329 0.017875019
0.0010885 0.1322435 0.017153772
-0.001061976 0.13333255 0.017125249
0.029289693 0.095105477 0.018853296
-0.00014725327 0.11025719 0.018308178
0.00060068071 0.099130228 0.019095637
0.0013002455 0.097947992 0.019729611
0.0018277317 0.088582806 0.019525835
0.00094355643 0.088255472 0.020152086
-0.00043281913 0.089736767 0.019464977
-0.00045928359 0.079952359 0.020186936
0.10761063 0.023418508 0.022729663
0.10059351 0.027003746 0.022578636
0.099341013 0.027711879 0.022609627
0.00021342933 0.078845121 0.020858102
0.13684423 -0.0005412735 0.023634396
0.093299583 0.021804465 0.022759626
0.092379674 0.022305634 0.022762528
-0.00068123639 0.070246689 0.021078734
0.10477982 -0.00093157776 0.023735503
-0.00063565373 0.053362712 0.021815358
-0.0019639134 0.054008901 0.021762578
0.10550635 -0.0020603575 0.024424523
0.10331802 -0.00095237605 0.024386199
0.10234322 -0.00051607564 0.02431464
0.00010113418 0.052250527 0.022532668
0.0012619942 0.043601811 0.022827882
2.5182962e-06 0.044262901 0.022810608
0.07271257 -0.00036423281 0.023986429
-0.0015933514 0.037911825 0.022652481
0.073131315 -0.0012980551 0.024728261
-0.00090306997 0.036824383 0.023364563
0.0010303557 0.028675318 0.02342147
0.046555445 -0.0019619949 0.024405204
0.043833509 -0.0011447296 0.025188554
0.042829692 -0.00061522052 0.025158903
0.040305607 0.0006586723 0.025112383
0.038953714 0.0013456941 0.025064109
0.0011349469 0.021503158 0.023625646
0.032523163 -0.0016834736 0.024596931
0.0014956295 0.014342584 0.024061365
0.030464642 -0.0012960769 0.025314514
0.026876234 0.00056003407 0.025252126
0.01801341 -0.0011709817 0.024911487
0.015861027 -4.0903687e-05 0.024904395
0.0004267171 0.0078865439 0.02458222
0.013663262 0.00040884688 0.025587328
0.0024442896 0.0062067136 0.025396686
0.0054653957 -0.0015831776 0.025460143
0.0044956729 -0.0010583922 0.025469426
0.0016270652 0.00040740147 0.025406318
0.057647429 0.11417914 0.018441167
0.00062164664 0.14263399 0.017895225
0.043400496 0.10968658 0.018578399
0.042067736 0.11033317 0.018505318
0.038865373 0.11202002 0.018502485
-0.00081944466 0.13240099 0.017719969
0.0017742217 0.13025063 0.018361527
0.038558319 0.10038304 0.019181821
0.036582589 0.10144093 0.019175487
0.034024805 0.10275415 0.019132061
0.00078377128 0.1198438 0.018513268
-0.00090235472 0.12071171 0.01844408
0.03210178 0.102926 0.019676676
0.0013322383 0.11877941 0.019130932
-0.0002053082 0.11955863 0.01910281
-0.0002142787 0.10872829 0.019551158
0.1116087 0.040275961 0.02231231
0.0974207 0.028009934 0.023270715
0.096118152 0.028655553 0.023244254
0.00086291134 0.07775379 0.021530861
0.13886024 -0.0023673102 0.024321038
0.13147087 0.00065789558 0.024840944
-2.7671456e-05 0.068503462 0.022494214
-0.00031577051 0.06938234 0.021833301
0.12111213 -0.0027676802 0.025295541
0.11627597 -0.00027797557 0.025213892
0.0011450201 0.058975235 0.023061546
0.00046904385 0.060090266 0.022375371
-0.00076910853 0.060722508 0.022375952
0.097401179 0.0013458021 0.02496318
0.00072339177 0.051214322 0.023241982
0.087896645 -0.0017305892 0.025130454
0.034754872 0.025618415 0.024140961
0.026742287 0.029831201 0.024067393
0.069323778 -8.4932894e-05 0.025347207
-0.00016993284 0.035755739 0.024122491
0.0020897985 0.02745235 0.024196222
0.05696559 -0.0015998594 0.025858605
0.055039205 -0.0005093962 0.025904786
0.0031114668 0.026262566 0.024972914
0.0012700707 0.020069905 0.025114095
-0.00024722517 0.020850427 0.025097676
0.0039665103 0.011687621 0.02559047
0.003236644 0.0051169954 0.026160188
0.0011601821 0.0068590492 0.025403062
0.055975102 0.11424459 0.019011023
0.0011532605 0.14071345 0.019047016
0.00082497299 0.14088282 0.019034082
0.046903357 0.10621807 0.01979835
0.037898287 0.11088319 0.019662699
0.034682348 0.1125361 0.019580325
-0.0011946708 0.13097247 0.018897211
0.038833797 0.10955061 0.020230928
0.03626667 0.099977426 0.020363739
0.034950897 0.10068139 0.020359261
0.001332283 0.11718505 0.02034693
0.0011574328 0.10644171 0.020848386
-0.00022228062 0.10715007 0.020797865
-0.0016502738 0.09794268 0.020953957
0.11285644 0.038175464 0.023660861
0.00058367848 0.095965862 0.021595281
-0.00094360113 0.096773602 0.021594962
0.00058175623 0.086136431 0.022100799
-0.00064478815 0.087538257 0.021418761
-0.0013501942 0.078126147 0.022153955
0.14996947 5.7395897e-05 0.024827877
0.096532002 0.026931232 0.024588503
0.13378131 -0.0012099426 0.025608553
0.13213032 -0.00036943331 0.025558241
0.13113508 9.0734102e-05 0.025498427
0.12871623 0.0013735015 0.025512449
0.00071434677 0.067381598 0.023192855
0.0018220693 0.057900541 0.02378013
0.09733656 -2.877973e-05 0.026393792
0.00049464405 0.049862206 0.024613919
0.085766792 -0.0013427567 0.025805166
0.084476613 -0.00068594329 0.025792919
0.031885266 0.02643609 0.024847286
0.0037125945 0.040968873 0.024342366
-0.00020156801 0.042927139 0.024226207
0.083536223 -0.00091377646 0.026490999
0.00051182508 0.041902214 0.025014054
0.072285026 -0.0022672638 0.026159769
0.068418615 -0.00030994415 0.026062479
0.067502171 0.00020603836 0.026073027
0.031622872 0.018703524 0.025445132
0.00056038797 0.034663476 0.024852017
0.069130935 -0.0014153533 0.026777469
0.032003328 0.017800041 0.026172368
0.022434682 0.022685524 0.025953624
0.0012762994 0.033578619 0.025570193
0.055431776 -0.0014529526 0.026603406
0.054135881 -0.00072043389 0.026613288
0.00066404045 0.026800454 0.025640607
0.040870734 -0.0016546138 0.027352227
0.040434636 -0.00074464083 0.026598586
0.0014625639 0.018642977 0.02664567
0.0249843 -0.00049309805 0.027490128
0.0021430701 0.011922643 0.026278723
-0.00023635477 0.0062908456 0.026903976
0.002542831 -0.0013309792 0.026986187
0.0015557632 -0.00081963092 0.026972298
-0.00072167814 0.00025588274 0.026846364
0.050129071 0.11477175 0.02061744
0.0021473318 0.13938791 0.019683395
-0.0008046031 0.14007741 0.020162659
-0.00028260052 0.12807086 0.020702478
0.03268899 0.10023683 0.021533398
0.0020126551 0.11603191 0.020980155
-0.00095935166 0.11755218 0.020907329
-0.00028960407 0.11640204 0.021528963
-0.0022590309 0.086824372 0.022677897
0.00091829896 0.084389143 0.02336484
-0.0010400563 0.085442953 0.023375101
0.14712426 8.8848174e-05 0.026157822
0.14614607 0.00059657171 0.026142765
0.14682537 -0.0004903099 0.02681849
0.00069221854 0.074749939 0.024139831
0.13285595 -0.0014730012 0.026261181
0.13120362 -0.0006745439 0.026190329
0.12994084 -3.4966506e-05 0.02616759
0.12895808 0.00051922817 0.026176821
-0.0008559823 0.066694275 0.024514113
0.11058088 0.00038789958 0.027116871
-0.00099827349 0.057877809 0.02507904
0.093888447 0.00094755925 0.026982309
0.092580214 0.0016630068 0.026977483
0.063081853 0.0010041296 0.027397519
0.0019660443 0.032491736 0.026274437
-0.00085534155 0.033992119 0.026292028
0.051351525 -5.3558499e-05 0.027259851
0.0032819062 0.02476383 0.026440289
0.001688391 0.025609136 0.026410243
0.051715694 -0.00087806955 0.028039275
0.039037555 -0.0013936609 0.028056081
0.0022749454 0.017575644 0.027431384
0.026256457 -0.0011017807 0.027535956
0.00035406649 0.012276262 0.027090989
0.012253113 -0.0014322512 0.028689463
0.011269286 -0.0010021254 0.02860699
0.0018811226 0.0045044348 0.027678717
0.00051700324 0.0052364096 0.02767038
0.00046673417 0.13861027 0.020801501
0.0012584776 0.12650001 0.021339806
-0.0011268705 0.1052365 0.022662625
0.0020492375 0.10282417 0.023355935
0.00073930621 0.10350393 0.023326624
-0.00051297247 0.10414395 0.023310015
2.9459596e-05 0.093914859 0.023488637
0.00090236962 0.082867801 0.024655888
-0.00065007806 0.083660945 0.024639245
0.1481104 -0.0019846209 0.027449392
0.14461236 -0.00013808697 0.027426098
0.0022070557 0.073165521 0.024774343
-9.2834234e-05 0.065531172 0.02518948
0.10905205 0.00047650561 0.027817745
0.10777523 0.0011451598 0.027795611
-0.00027361512 0.056765288 0.025800008
0.0016112626 0.047799379 0.026011901
0.00035274029 0.048470676 0.026027827
0.079839677 -0.00046223961 0.027826549
0.078880101 3.4568831e-05 0.027811881
0.080503583 -0.0015230346 0.02852051
0.063553624 0.00011817738 0.028194591
0.0027011186 0.031479359 0.027091801
0.064938828 -0.0012674369 0.028933983
0.063970543 -0.00078337267 0.028920949
0.00049629807 0.031849205 0.027689056
-0.00080174208 0.032568984 0.02773181
0.052102543 -0.0017462596 0.028788181
0.0018410534 0.024142601 0.027894525
0.0029464811 0.016545072 0.028163958
0.034909956 4.6338886e-05 0.028722156
0.022688463 -0.00065008178 0.028965509
0.0010179877 0.13756108 0.021432236
-0.00057773292 0.1383267 0.021348359
0.0012897104 0.11400589 0.022784563
-0.00023202598 0.11477108 0.022760229
0.0009996444 0.092632756 0.024155954
0.14782651 -0.0025984729 0.028120708
0.14638101 -0.0018692107 0.028087247
0.14140761 0.00072234357 0.027999884
0.11484512 0.014380665 0.02751931
0.00033502281 0.073402837 0.025428126
0.13922058 0.0011118003 0.028655306
-0.0015001595 0.073617749 0.026088381
0.12431076 0.00060990173 0.028083334
0.0017816722 0.063816935 0.025897304
0.00053103268 0.064451836 0.025855936
0.12269127 0.00067510922 0.028704438
0.11365978 -0.0033706874 0.029264167
0.11172982 -0.0023916867 0.029237226
0.11070858 -0.0019304361 0.029171038
-0.00024420023 0.055289432 0.027180839
0.016833901 0.038527511 0.027711801
0.0013890564 0.046470456 0.02741248
9.4756484e-05 0.04713317 0.027387906
0.075502105 0.00039399788 0.029195027
0.048361324 -0.0006275773 0.029377528
0.047443554 -8.2265586e-05 0.029427269
0.048817016 -0.001529973 0.030142104
0.031924382 0.00089278817 0.029430272
0.036106035 -0.0019428059 0.030245882
0.022533901 -0.0019153357 0.030461652
0.018352099 0.00030106306 0.030415343
0.0017573759 0.008838661 0.030108996
0.00039926916 0.0094859451 0.03005995
0.0092889369 -0.0012899674 0.030137025
-5.8755279e-05 0.0035440773 0.029949531
0.00020492077 -0.0026943423 0.030058699
0.0009315908 0.13598609 0.022607168
0.032984808 0.096023977 0.024541579
0.00091604888 0.11259042 0.023983445
0.0015212595 0.11145565 0.024588175
-0.00096434355 0.11276577 0.024573596
0.001696527 0.10143715 0.024592299
0.00045654178 0.10205593 0.024567328
-0.00088983774 0.10276223 0.024537489
0.0012761056 0.090956047 0.025434252
0.0012853742 0.081166133 0.026007572
0.00035141408 0.080877326 0.026633441
0.14115813 -0.00070000067 0.029321166
0.0010404885 0.071480669 0.026733104
6.185472e-05 0.071998641 0.026727401
-0.0011940747 0.072670333 0.02672179
0.00055384636 0.054177627 0.027914055
0.092219859 -0.0018046349 0.030456478
0.07589829 -0.00052701309 0.029940808
0.031294242 0.022376038 0.029035777
0.027157292 0.024575692 0.029017478
0.024874426 0.025691215 0.028946549
-0.00034560263 0.038766451 0.02854781
0.077835321 -0.0022898521 0.030633403
0.075600214 -0.0011083558 0.030614778
0.031978108 0.021316178 0.029775206
0.022434078 0.026283234 0.029650999
0.00028906763 0.03770344 0.029251814
0.061514176 -0.00095908716 0.030311771
0.060525008 -0.00053007156 0.030207314
0.0022496879 0.029581711 0.029226741
0.00069853663 0.030373082 0.029198045
-0.00014021993 0.023088321 0.030063659
-0.001703769 0.023882017 0.030017495
0.034284241 -0.0016834103 0.030955719
0.032989368 -0.0010092109 0.030931622
0.031756505 -0.00036110729 0.030920543
0.0010146499 0.015493602 0.030367753
0.018772058 -0.00061116368 0.031171326
0.00072237104 0.0024415627 0.030707249
0.0088322014 -0.0023747571 0.031639665
0.0072902143 -0.0015456416 0.031643994
0.0063002557 -0.00099486858 0.03166201
0.0052809194 -0.00044474751 0.031654119
0.0024328604 0.000981085 0.031587522
0.0030527711 0.13242625 0.024365975
-8.4206462e-05 0.13402839 0.02431451
0.00019352138 0.12296708 0.024252973
-0.0010378957 0.12360556 0.024251627
0.023720533 0.088430814 0.026152888
0.017030939 0.081200488 0.026954658
-0.00034576654 0.090226322 0.026678242
-0.0021653622 0.09112592 0.026620336
0.13924783 -0.00044532027 0.029937761
0.13639322 0.0010446711 0.029930955
0.13707784 -7.0924871e-05 0.030597784
0.12251718 -0.0013827775 0.030819431
0.11899834 0.00042410009 0.030722177
0.0015366077 0.060933873 0.028573962
0.00032843649 0.061560631 0.028577687
0.076523907 0.014309395 0.029972279
0.0012693405 0.053062208 0.028615613
-0.0017283559 0.05456984 0.028520791
0.10765913 -0.0025863051 0.031159054
0.10669143 -0.0020004883 0.031196823
0.0018894225 0.052021734 0.029309358
0.087533183 -0.00010798126 0.031073362
-0.00074931979 0.045392111 0.029468741
0.072759338 -0.00036015734 0.031245342
0.034359545 0.01947435 0.03061375
0.032418162 0.020460106 0.030575942
0.0010166615 0.03662283 0.029990677
0.057240441 -0.00017957762 0.031661071
0.0024075061 0.028102495 0.030677915
0.00081059337 0.028921753 0.030646434
0.045469612 -0.0011187531 0.031611767
0.044543192 -0.00064582005 0.031593036
0.0024918318 0.021004461 0.030801792
0.0032030046 0.01995036 0.031548508
0.0017241836 0.014452428 0.031141438
0.029386751 -0.00050314516 0.032388162
0.028055079 0.00021700934 0.032362659
0.020168625 -0.0019917153 0.031964041
0.019211009 -0.0014918447 0.031954642
0.00061850995 0.0011935309 0.032252297
0.0022931695 0.14375496 0.024677962
0.00075979531 0.12025803 0.026080834
0.0001283735 0.12138622 0.025444489
-0.0021270066 0.12173022 0.025989005
0.00085493922 0.10940418 0.026395136
-0.0020126551 0.11090182 0.026364749
-0.0013789237 0.10974716 0.026965847
0.00067086518 0.097986594 0.027660975
2.4721026e-05 0.09913107 0.027027093
-0.001206398 0.099769495 0.02702608
0.016694427 0.079882927 0.028270813
4.9158931e-05 0.088463798 0.027959198
0.0026274323 0.077371143 0.028598549
-0.00025352836 0.078869015 0.028567936
0.0011306852 0.069235146 0.028794853
0.00016219914 0.069716379 0.028772337
-0.0021084398 0.070842117 0.028670039
0.080619544 0.01865774 0.031343997
-0.0011954457 0.060849436 0.029899688
0.10736097 -0.0031800531 0.031837471
0.0022267252 0.051096216 0.029984348
0.00099357963 0.05174014 0.02997954
-0.00024068356 0.052365378 0.029957462
0.073488265 0.013625924 0.031958889
0.017732635 0.04231108 0.030907458
2.4139881e-05 0.044262089 0.030181598
0.087271705 -0.0014118534 0.032457985
0.0029738396 0.042075329 0.030988757
0.001683861 0.042691454 0.030940492
0.071828 -0.0006484054 0.03192034
0.022207268 0.024926536 0.031014767
0.038996607 0.015649315 0.032128535
0.029273622 0.020558733 0.031842362
0.059495978 -0.0020487234 0.032431073
0.0034327358 0.026874699 0.031427227
0.057040952 -0.0015188828 0.033056702
0.055732027 -0.00079128146 0.033080731
-0.00062581897 0.028261639 0.032077137
0.042660601 -0.00036970526 0.032283895
0.0039721131 0.018894315 0.032318253
0.030999713 -0.0020231344 0.033137716
0.018366419 -0.0017119236 0.03270312
0.016428247 -0.00070590898 0.032662496
0.015520737 -0.00020554289 0.032684982
0.0023710877 -0.00025527924 0.033147268
0.0020161122 0.13049509 0.026086599
-0.00020000339 0.13163167 0.026048036
-0.0011826307 0.13214007 0.026031969
-0.0022018999 0.1201661 0.027190488
0.00081589818 0.1078246 0.027608775
-0.00077371299 0.1086342 0.027585665
0.001646176 0.096656181 0.028266519
0.021432191 0.085627124 0.02919532
0.0013044477 0.087036565 0.028630313
-0.0015343577 0.087713256 0.02919377
0.15236539 -0.00056618918 0.031960506
0.00068552792 0.077624552 0.029230235
-0.00027552247 0.077348158 0.029869352
0.13648006 -0.0020520412 0.032560267
0.10270791 -0.0021500811 0.033209022
0.1017471 -0.0017406177 0.033111483
0.10042088 -0.0010207258 0.033125907
0.018405721 0.041282088 0.031666517
0.015872508 0.042544261 0.031576812
0.082214154 -0.00031087548 0.033716906
-0.00017400086 0.042888053 0.031560328
0.069702603 -0.00099510327 0.033318374
0.039363816 0.014721747 0.032815512
0.037398636 0.015713077 0.032746475
0.03452076 0.017220765 0.032734208
0.033548474 0.017748144 0.032744255
-0.0011263341 0.035578176 0.032069918
0.054863721 -0.0010227971 0.033814996
0.053867191 -0.00051612407 0.033789419
0.052913629 -3.4648925e-05 0.033755433
0.040213615 -0.00047452375 0.033713743
0.0017199889 0.011676706 0.034074012
0.013476394 -0.00053526834 0.034109637
-0.00072559714 0.14199558 0.02689092
-0.0010337085 0.14216715 0.026895408
0.0025918484 0.12858132 0.02727828
0.00067010522 0.12871367 0.027796498
-0.0012879074 0.12974051 0.027763784
0.0013152361 0.11756219 0.027893269
7.6770782e-05 0.11818166 0.027864529
-0.00092853606 0.11788855 0.028439201
0.00047260523 0.10639928 0.028826922
-0.00081053376 0.10706439 0.028799912
0.00070439279 0.0963559 0.028877314
0.0015803277 0.085321121 0.029875543
-0.00024421513 0.086269528 0.029868564
0.00256446 0.084018953 0.030510439
-0.0012411177 0.086008213 0.030480027
0.14974974 -0.00082507601 0.033156503
0.00040563941 0.076221213 0.030514052
-0.0012325644 0.07707341 0.030495904
0.14786245 -0.00054933247 0.033818539
-0.00054867566 0.075935245 0.031146836
0.13298023 -0.00097076222 0.033186708
0.0022229999 0.065624967 0.031435721
0.0015246123 0.066768065 0.030787943
-0.0003875345 0.066992246 0.031412598
0.13086094 -0.00070515554 0.03375398
0.12041294 -0.0032889796 0.033461593
0.1174953 -0.0018462427 0.033367667
0.11509641 -0.00090313517 0.033714026
0.086155042 0.013619812 0.033520438
0.07845138 0.017514393 0.033321198
0.00080828369 0.057526261 0.031919457
-0.00056637824 0.058257997 0.031884
-0.0011840761 0.059334919 0.031225955
0.098517612 -0.00072665513 0.033810087
0.097305372 -0.00011244789 0.033795305
0.098885491 -0.0016906206 0.034471732
-0.00045797229 0.04952997 0.032696228
0.084809259 -0.0016020164 0.033825923
0.083534107 -0.00092670321 0.033831138
0.047624864 0.017570689 0.033164926
0.031294443 0.025990624 0.032877911
0.024586104 0.029455572 0.03275498
0.022025302 0.030781671 0.032700162
0.081319705 -0.00058696605 0.034412008
0.080328517 -3.5164878e-05 0.034437701
0.051878273 0.014643144 0.033933077
0.050575569 0.01534551 0.033926331
0.034838319 0.02338355 0.033574652
0.03298413 0.024362106 0.033560026
0.031835675 0.02497191 0.033552814
0.029407926 0.026227988 0.033514269
0.028303072 0.026794218 0.033493198
0.024667032 0.028701268 0.033472624
0.022888131 0.029606152 0.03341192
0.00089609623 0.040974855 0.033057597
-0.00040125847 0.041570142 0.032978352
0.03175576 0.01795138 0.033404168
0.06731654 -0.001146473 0.034713887
0.065102257 5.0701201e-05 0.034726691
0.039424263 0.013229504 0.034210738
0.0061334074 0.030412227 0.033633832
-0.00089624524 0.034033157 0.033513885
0.052992642 -0.00078864768 0.034477789
0.050117336 0.00061732158 0.034369443
0.033737108 0.009114936 0.034116525
0.050345466 -0.00020410493 0.035096567
0.045376688 0.002438277 0.03505595
0.041161887 0.0045895986 0.034974441
0.0040546954 0.023699135 0.034293201
0.040620498 -0.0013923869 0.034446083
0.039389223 -0.00075997412 0.034436312
0.03754054 -0.00051817298 0.035115644
0.036569066 -3.4231693e-05 0.035083573
0.03465277 0.00097706914 0.035063133
-0.0003746748 0.019710086 0.033685915
0.026120253 -0.00082566217 0.034575447
0.024246 -0.00061088055 0.035239629
0.020414412 0.0014214441 0.035199113
0.0028190166 0.01046443 0.034869354
0.00052399933 0.012378141 0.034125067
0.013623841 -0.0012306534 0.034928564
0.00043193251 0.0055351257 0.034664117
-0.00071533024 0.14030872 0.027983889
-0.00097304583 0.12874949 0.02834711
0.00027871132 0.12729874 0.028961118
-0.00031334162 0.11677831 0.02904463
0.00065036118 0.11546659 0.02966951
0.0010514557 0.10532006 0.029470555
-0.00052437186 0.10611264 0.029408099
0.0026769489 0.093741804 0.030148495
0.00097048283 0.094641462 0.030115305
-0.00155963 0.09514726 0.030708821
0.0016480386 0.083696224 0.031123692
-2.2083521e-05 0.084574021 0.031120829
-0.00033134222 0.084740452 0.031124974
0.14693025 -6.3926447e-05 0.033825293
0.14612481 -3.5774661e-05 0.034130774
0.14504141 0.00013450463 0.034440286
0.14439097 0.0004529031 0.034404788
0.12895268 -0.00044951588 0.034402147
0.12817049 -3.9090402e-05 0.034401406
0.0028743297 0.064532623 0.032123949
0.11827308 0.004229093 0.034826528
0.11511754 0.0059540812 0.034850132
0.10964219 0.0087323263 0.034721479
-0.00065337121 0.065618411 0.032738421
0.10763236 0.0017425083 0.034539446
0.021146469 0.046318077 0.032972675
-0.0014578402 0.057973884 0.032550391
0.11051601 -0.000509331 0.035248093
0.099903405 0.0049945023 0.035078023
0.016927719 0.047770858 0.033586029
0.010169357 0.051225014 0.033433538
0.095783249 -0.00082553923 0.035114843
7.8618526e-05 0.048505902 0.033386394
0.077229604 0.00088345073 0.035109252
0.0637706 0.0077570379 0.034823138
0.02122923 0.02974344 0.03411046
0.017614059 0.03156101 0.033993233
0.010285273 0.035368852 0.03389566
0.074343681 0.0015750602 0.03570623
0.068286166 0.0046606623 0.035561383
0.06552469 -0.0008935146 0.035425127
0.059005961 0.0024809055 0.035312336
0.042383172 0.010953933 0.034957994
-0.00023631752 0.032984994 0.03423262
0.046664685 0.0017787106 0.03508956
0.00060626864 0.025510266 0.034269433
0.0477309 0.00052871183 0.035841785
0.039371625 0.0048236363 0.035681617
0.031646192 0.0088164806 0.035536595
0.0015191585 0.024364188 0.035027117
0.029909581 0.0026878864 0.035691224
0.020311892 0.0077037551 0.035569578
0.0014719814 0.017375052 0.035205264
0.00011104345 0.018080406 0.035163105
0.022485219 -0.00035509467 0.035985813
0.021158926 0.00034945831 0.035958603
0.020513706 0.00066456944 0.035936195
0.01284305 0.0046728291 0.035846945
0.010978505 0.0056441799 0.035829946
0.0057574809 0.0082921758 0.035675075
0.0035737082 0.0094061643 0.035629209
0.0029097348 0.0097419098 0.035613343
0.0015830696 0.010390371 0.035569418
0.0099298432 -0.00071669742 0.036324792
0.0057718083 0.0014919937 0.036301002
0.0019460768 0.0033796057 0.036157914
0.00066483766 0.0040555745 0.036144499
-0.020182341 -0.0040426105 0.036953315
0.011445642 0.14590889 0.028288478
0.010149956 0.1465745 0.028242631
0.0057838857 0.13620311 0.028746013
0.0079669505 0.13425626 0.0293501
0.006980747 0.13476831 0.029330609
0.0041936487 0.13618781 0.029285066
0.0031766444 0.136724 0.029265052
0.0012797862 0.13767138 0.029215649
-0.00031533837 0.13844982 0.029133007
-0.0006301254 0.1386092 0.029118234
0.0015137792 0.12667724 0.028992668
0.0048645735 0.10174892 0.030738203
0.00268206 0.10287088 0.030717999
0.00070342422 0.10389432 0.030675622
0.019864008 0.083263613 0.031664256
0.01251854 0.087139986 0.031608686
0.0032080114 0.091930337 0.031416051
0.001906842 0.091808803 0.032015808
2.7090311e-05 0.092731692 0.031946179
-0.00064240396 0.093881316 0.031316992
0.0044958293 0.081492864 0.031862307
0.14404543 -0.0001091524 0.035066176
0.13637649 0.0037732418 0.034882031
0.1332161 0.0054709408 0.034893755
0.14212626 7.3143747e-05 0.035652801
0.1418294 0.00022022147 0.035633724
0.1370109 0.0026864791 0.035541318
0.13063933 0.005949595 0.035419736
0.010093808 0.068126343 0.03328393
0.0078759342 0.069265008 0.033212826
0.0055598617 0.070490383 0.033202309
0.12410674 0.00046886876 0.035588369
0.11575666 0.0048539713 0.03550674
1.3709068e-06 0.064496636 0.033385206
0.11113994 -0.0015947334 0.035915568
0.10893782 -0.00037525967 0.035931639
0.10762195 0.00033032335 0.03593136
0.097769126 0.0053494088 0.035700232
0.096483573 0.0060060788 0.035691351
0.094895467 0.006835198 0.035675906
0.093584478 0.0074422359 0.035587296
0.0044492781 0.053472206 0.034049515
0.0015524179 0.054934822 0.03398031
-5.4940581e-05 0.055729166 0.03392911
0.09382607 -0.00057205558 0.035751931
0.088743478 0.0020614434 0.03567528
0.0098646134 0.042722076 0.034241334
0.00063064694 0.047463253 0.034069657
0.093536898 -0.00044777617 0.035750549
0.091783889 -0.00024264306 0.036399428
0.090732925 0.00030408241 0.036391802
0.090109631 0.00062316656 0.03637588
0.082082272 0.0047964305 0.036257688
0.080377638 0.0063439533 0.03549286
0.077305496 0.0072528534 0.036186084
0.074950814 0.0083987415 0.036078583
0.069563217 0.011895195 0.035281666
0.066728532 0.012687985 0.035978585
0.0028764307 0.045557857 0.034774289
0.001905933 0.046060912 0.034761555
0.078060962 -0.00031542405 0.035792418
0.071855508 0.0029520765 0.035722677
0.070562951 0.0036044456 0.035705157
0.064450502 0.0067166314 0.035557404
0.003906846 0.037924811 0.034478854
0.00074149668 0.039579131 0.034442976
0.076341242 -0.00011099875 0.036491193
0.075065866 0.00056032464 0.036458194
0.055522241 0.010571036 0.036087971
0.031842269 0.022725135 0.035608869
0.025365084 0.026087083 0.035510231
0.012044922 0.032999828 0.035324629
0.0012105703 0.03860572 0.035127949
0.062245108 1.7419457e-05 0.036037222
0.051401444 0.0056498498 0.035866302
0.050170951 0.0062809251 0.035856999
0.039551534 0.011742376 0.035655696
0.037305422 0.012917221 0.035612993
0.0018338114 0.031153217 0.034950085
0.00047156215 0.031844161 0.034904771
0.061090112 -0.00014320388 0.036687706
0.058211453 0.0014611036 0.036716886
0.056906112 0.0021106489 0.036691371
0.053443998 0.0038903244 0.036636345
0.05220031 0.0045284294 0.036606736
0.048301078 0.0065093599 0.036510959
0.044187702 0.008627072 0.036446873
0.0059917569 0.028343827 0.035773322
0.00085377693 0.030939072 0.035623454
0.046234369 0.00059713796 0.036541834
0.025369219 0.011359937 0.036179133
0.0084025338 0.020093195 0.035844926
0.0061199069 0.021255925 0.03581018
0.0041745454 0.02222801 0.035737116
0.0036088973 0.022526428 0.0357402
0.0022854954 0.023229435 0.035729036
0.011941113 0.017508287 0.036588274
0.035062663 -0.00060875714 0.036545884
0.030934885 0.0015354156 0.036488473
0.02365198 0.0053119324 0.036390115
0.018783644 0.0078256093 0.036304813
0.015917093 0.0092890114 0.036240935
0.0094995946 0.012571692 0.036086485
0.002142787 0.0163709 0.035969153
0.032205082 0.00016804412 0.037244003
0.029106513 0.0017395206 0.03716794
0.026542343 0.003084708 0.037137844
0.025258899 0.0037374794 0.037096076
0.022633873 0.0057909228 0.036308225
0.014342949 0.0093235783 0.036869496
0.013373494 0.009816587 0.036833003
0.011205912 0.010975707 0.036832035
0.0066604838 0.01328199 0.036741044
0.005729489 0.01376643 0.036705807
0.002723068 0.015395686 0.036712725
0.019668423 0.0004376024 0.036688454
0.018201113 0.0005335249 0.037418511
0.017470293 0.0016094372 0.03667127
0.015553504 0.0025198087 0.036597766
0.01460325 0.0030301064 0.036583539
0.01306653 0.0031843074 0.03733927
