# .PCD v0.7 - Point Cloud Data file format
VERSION 0.7
FIELDS x y z
SIZE 4 4 4
TYPE F F F
COUNT 1 1 1
WIDTH 1405
HEIGHT 1
VIEWPOINT 0 0 0 1 0 0 0
POINTS 1405
DATA ascii
0.12617031 0.19317502 0.0050993627
0.12487926 0.19941783 0.0055865403
0.21837009 0.10660756 0.0065403031
0.21984723 0.10663009 0.0064910175
0.19799201 0.12424207 0.0066398345
0.061953828 0.14030015 0.0064723734
0.18289474 0.14028674 0.006485329
0.17364748 0.14755821 0.0061031217
0.1750668 0.1475634 0.0061049387
0.17679164 0.14827186 0.0067570014
0.081584796 0.16193789 0.0060336692
0.1599918 0.16195995 0.0060045701
0.16177554 0.16196036 0.0060034944
0.15879859 0.16264462 0.0066727083
0.089099497 0.16907442 0.0062904526
0.15274084 0.16906482 0.0063124048
0.15492097 0.16904438 0.0063388851
0.15093963 0.17545027 0.0061188275
0.096226931 0.17609233 0.0068313098
0.14611754 0.17610228 0.0068264157
0.10056421 0.18181765 0.0060848324
0.13668238 0.18183488 0.0060575381
0.14168681 0.18180203 0.0060979407
0.13839652 0.18250257 0.0067551434
0.14096072 0.18241405 0.0068476396
0.10760497 0.18876028 0.006992952
0.13155752 0.18812829 0.0062585426
0.13429467 0.1888023 0.006925106
0.12309986 0.19440109 0.0065822517
0.12556666 0.19436234 0.0066428678
0.22162686 0.10735309 0.007083348
0.21515539 0.1080215 0.0077697085
0.041716754 0.11687034 0.0076896744
0.20639357 0.11686248 0.0077067753
0.20787594 0.11686558 0.0076707769
0.20930555 0.11687523 0.0076577794
0.21038263 0.11616641 0.0070451964
0.19657177 0.12564003 0.0079051163
0.20019075 0.12565303 0.0078772167
0.18911943 0.13370657 0.0076947194
0.19093359 0.13371557 0.0076742452
0.18074888 0.1409722 0.0071432386
0.061214268 0.14102787 0.0070932321
0.17998981 0.14165473 0.0078012003
0.18246071 0.14165485 0.0078022415
0.18529509 0.14168972 0.0077568162
0.068797305 0.14889526 0.0074632904
0.069938481 0.14888716 0.0074695526
0.17132622 0.14892894 0.0074115023
0.076370165 0.15618014 0.0072523719
0.07704927 0.15683603 0.0079463106
0.16675922 0.15612793 0.0073025124
0.16812916 0.15614182 0.0072988207
0.16088611 0.16328138 0.007394827
0.088679865 0.16968644 0.007025511
0.15011257 0.16969126 0.0070488146
0.15441394 0.17034239 0.007741861
0.09542121 0.17675656 0.0075328276
0.14191228 0.17675668 0.0075297384
0.14424787 0.17675167 0.0075167185
0.1452696 0.17675835 0.0075187478
0.14753149 0.17671269 0.0075813197
0.148618 0.1767022 0.0075803278
0.13097185 0.18933851 0.0077603944
0.11841802 0.20120054 0.0078633074
0.1194331 0.20120984 0.0078650704
0.14514971 0.056775749 0.0085091796
0.21696168 0.10873371 0.0083760452
0.21835968 0.10873657 0.0083796531
0.21475554 0.10945672 0.0089763291
0.21616107 0.10946602 0.0089705018
0.20532066 0.11756206 0.0083255237
0.2045728 0.11827612 0.0089342054
0.19579849 0.12633973 0.008539577
0.18768401 0.134381 0.0083422344
0.18613504 0.13508433 0.0089927595
0.19011313 0.13509738 0.0089800591
0.063586324 0.14234036 0.0084549738
0.17491627 0.14959556 0.0080963057
0.0708794 0.15027225 0.0087861242
0.16303596 0.15676028 0.0080156149
0.16438106 0.15678072 0.008012969
0.16594656 0.15676862 0.0080173509
0.078094348 0.15747982 0.0086440817
0.16307938 0.16392916 0.0080847666
0.084248692 0.16455954 0.0088164229
0.15721361 0.16453665 0.0088459607
0.16003694 0.16462499 0.008751113
0.15179549 0.17102438 0.0083943633
0.14042628 0.18370098 0.008291306
0.1396427 0.18437696 0.0089458479
0.13277172 0.19000643 0.0084480708
0.13385399 0.19003081 0.0084145134
0.12537076 0.19619262 0.0088520311
0.12645425 0.207353 0.0085676722
0.13053361 0.21284974 0.0086730877
0.22165343 0.10054421 0.0093304301
0.22312674 0.10051423 0.009375209
0.2190389 0.10133141 0.0098599633
0.2204943 0.10130531 0.0098919757
0.20636217 0.11900407 0.0095403688
0.19862795 0.12706107 0.0091560958
0.19979444 0.12706119 0.0091314046
0.18871501 0.13577622 0.0096310461
0.17839795 0.14305478 0.0090786861
0.18125699 0.14372236 0.0097567337
0.18230362 0.14372891 0.0097559653
0.17406262 0.15096152 0.0094182957
0.16071488 0.15813231 0.0093465783
0.16800316 0.15813905 0.0093345484
0.084901348 0.16521603 0.0095103914
0.15891725 0.16524523 0.0094917594
0.15025479 0.17163199 0.0091536343
0.097693413 0.17864221 0.0096998345
0.09803395 0.17863572 0.0096967872
0.10341972 0.18495125 0.0097228121
0.13296162 0.18498278 0.009699353
0.13529886 0.18432903 0.0090193143
0.13698198 0.18495202 0.0097171655
0.13842605 0.1849817 0.0096893851
0.12938681 0.19055921 0.0092547322
0.11089151 0.19122779 0.009942513
0.12050079 0.1968444 0.0095703788
0.12367357 0.2133925 0.0094735445
0.14519522 0.059826791 0.010623702
0.16429381 0.082561016 0.010966125
0.22418277 0.10196549 0.010557571
0.21293625 0.11090273 0.010170632
0.21041599 0.11160046 0.010791006
0.21472746 0.1116274 0.010766977
0.21612224 0.11162817 0.010773337
0.20411927 0.11970627 0.010161999
0.2081449 0.11971623 0.010143982
0.20333797 0.12041217 0.010787177
0.19286281 0.12846893 0.010388182
0.19565487 0.12846923 0.010415275
0.19826658 0.12846869 0.010406528
0.18397939 0.13718885 0.010892441
0.18573806 0.13716114 0.010932229
0.065202013 0.14439458 0.010441806
0.18050186 0.14439785 0.010416286
0.17147517 0.15163648 0.010091212
0.16931233 0.15232426 0.010753459
0.1750486 0.15231013 0.010759403
0.1642753 0.15877682 0.010037942
0.16167952 0.15945494 0.010726438
0.153877 0.16589278 0.010183663
0.15629804 0.16587186 0.010198505
0.092318684 0.17298704 0.01049352
0.14350401 0.17930144 0.010390088
0.12880121 0.19182169 0.010704654
0.11542143 0.19742328 0.010334573
0.15300471 0.072722793 0.011696695
0.15817337 0.083280563 0.011548231
0.16128942 0.083318055 0.011527651
0.17659667 0.093759656 0.011772447
0.2219896 0.10348815 0.011652821
0.061677918 0.1123057 0.011418403
0.21252865 0.11235583 0.01136518
0.2114272 0.11305696 0.011978786
0.21434525 0.1130681 0.011968159
0.20086449 0.12185407 0.011990868
0.201671 0.12111908 0.011392464
0.20264918 0.12111908 0.011397087
0.19208449 0.12990439 0.011626692
0.19387935 0.12987387 0.011642751
0.19533926 0.12986428 0.011669363
0.059380442 0.13788772 0.01152449
0.17753872 0.14584148 0.011643617
0.17823279 0.14514053 0.011014483
0.18001713 0.14579445 0.011699795
0.071032196 0.15296382 0.011458681
0.17102654 0.15298784 0.011443225
0.073532864 0.15305281 0.011369332
0.16853398 0.15300888 0.011404187
0.080793798 0.1601063 0.01139406
0.15873818 0.16716594 0.011611546
0.14751901 0.17357802 0.011260354
0.1485851 0.17357904 0.011271629
0.099378586 0.17990917 0.01113407
0.10432805 0.18619871 0.011187811
0.10532279 0.18682975 0.011913025
0.10643759 0.18684173 0.011897392
0.13649963 0.18619996 0.011202606
0.11065614 0.19246155 0.011416986
0.12019904 0.19862056 0.011859023
0.15655172 0.073522389 0.012202376
0.15184832 0.074251115 0.012792013
0.16829431 0.084774613 0.012657409
0.026286811 0.1041916 0.012288171
0.02774334 0.10490608 0.012871173
0.17118575 0.10489094 0.012897204
0.17255411 0.10417914 0.012299524
0.22077583 0.10425442 0.012206311
0.21002448 0.11377692 0.012579761
0.19907632 0.12256634 0.012598478
0.2001555 0.12256962 0.012597843
0.19060344 0.13061404 0.012244533
0.19276817 0.13060254 0.012260457
0.19127358 0.1313203 0.012874768
0.18497354 0.1385842 0.012170318
0.18207048 0.13925284 0.01281971
0.17680277 0.14652944 0.012291227
0.17592143 0.14722431 0.012958786
0.17846203 0.14721185 0.012963519
0.074219838 0.15372956 0.012036373
0.16801822 0.1543715 0.012753014
0.086491987 0.16786367 0.012251467
0.15073469 0.16790122 0.012218381
0.15749797 0.16785061 0.012275073
0.087789088 0.16852993 0.012945785
0.088491052 0.16857916 0.012892484
0.094223782 0.17488551 0.012656511
0.14110872 0.18118697 0.012555142
0.12242118 0.19368619 0.012893888
0.1249197 0.19363576 0.012960185
0.12572916 0.19308013 0.012156711
0.12715288 0.1930967 0.012133821
0.12192889 0.19927174 0.012574191
0.12402305 0.21025312 0.012449388
0.15878575 0.075020909 0.013288292
0.160705 0.085526824 0.01321371
0.17369667 0.095992029 0.013465562
0.17481391 0.095971406 0.013463004
0.1751949 0.095974028 0.013465029
0.17046154 0.096005142 0.013429617
0.21756923 0.10572445 0.013381607
0.21902096 0.10573363 0.013344147
0.22040716 0.10573292 0.01335116
0.06381467 0.11447841 0.013200904
0.066716388 0.11450177 0.01318585
0.068207651 0.11448139 0.013188112
0.06923762 0.11449444 0.013188426
0.039584905 0.11525768 0.013755928
0.2081714 0.11524022 0.013756811
0.21104071 0.11522174 0.013780565
0.18980299 0.13202071 0.013497931
0.184127 0.13998973 0.01343448
0.068048939 0.14714515 0.013040227
0.17452289 0.14717352 0.013016933
0.17090233 0.15503079 0.013425444
0.1618617 0.16213787 0.01341264
0.15245362 0.16917819 0.01365449
0.15350012 0.1691736 0.013656759
0.15461381 0.16917354 0.013660026
0.1477523 0.17550969 0.013380474
0.13365828 0.18814451 0.013306187
0.1266291 0.19430816 0.013637149
0.1174504 0.19984597 0.013342001
0.14738713 0.065171182 0.014320108
0.15629885 0.076514065 0.014399634
0.15293607 0.077269912 0.014958688
0.15481888 0.077263534 0.01494928
0.16280089 0.087037981 0.014324705
0.16612776 0.087045908 0.014302461
0.022317201 0.096758127 0.014001471
0.16934121 0.097494483 0.01457844
0.17260715 0.097492039 0.014584799
0.057315588 0.10636133 0.014064903
0.058859497 0.10636026 0.0140585
0.061737269 0.1071021 0.014627541
0.21862951 0.10718656 0.0145415
0.20710889 0.11594737 0.014356527
0.20990898 0.11596358 0.01436323
0.046352416 0.12472475 0.01442686
0.074121356 0.12470549 0.014428762
0.1926233 0.13343966 0.014756949
0.18305351 0.14066708 0.014086586
0.18626511 0.14067459 0.014098895
0.18192093 0.14133704 0.014765116
0.17081718 0.14856184 0.014277528
0.17411768 0.14855182 0.014292234
0.17549962 0.14854866 0.014325532
0.16359736 0.15569025 0.014109506
0.16505924 0.15569752 0.014101173
0.16754152 0.1557321 0.014069748
0.10503505 0.15639418 0.014756602
0.082422823 0.16277367 0.014112455
0.16034982 0.16280615 0.014093361
0.15780251 0.16349417 0.014752283
0.15917349 0.16350716 0.014738807
0.1498079 0.16983467 0.014349007
0.090864301 0.17055207 0.014990148
0.15121606 0.17053592 0.014966344
0.14055309 0.17683828 0.014769546
0.14286442 0.17685115 0.014736415
0.14364326 0.17620093 0.014050215
0.14472073 0.1761952 0.014046413
0.14589243 0.17616045 0.014083535
0.14698622 0.17614388 0.014117657
0.13951986 0.1824519 0.014017078
0.13577995 0.18310839 0.014698883
0.13730817 0.18314302 0.014664962
0.13038296 0.18868679 0.014139554
0.12958463 0.18930066 0.01486973
0.11289588 0.19491088 0.014374881
0.12039608 0.19492656 0.01438
0.11876391 0.20044708 0.014114368
0.12863664 0.2168206 0.014192331
0.14965867 0.066692412 0.015376891
0.14814594 0.067465007 0.015900727
0.15841848 0.078056037 0.015463254
0.15986915 0.078043699 0.015462895
0.16168627 0.078052461 0.015469619
0.16500264 0.088540792 0.015411275
0.16822854 0.088547587 0.015428669
0.17117989 0.088500857 0.015459861
0.020832807 0.098213494 0.015173982
0.16830939 0.098205626 0.015168597
0.17479023 0.098955929 0.015736368
0.17769614 0.098921776 0.015774976
0.060680658 0.10780919 0.015222681
0.21613538 0.10786098 0.01519397
0.21761936 0.10787725 0.015178076
0.16964369 0.10855943 0.015823137
0.21539266 0.1085943 0.015775774
0.066227764 0.11664486 0.015027218
0.20382035 0.11737162 0.015608455
0.20817338 0.11739796 0.015551851
0.071907356 0.12542689 0.015043893
0.19862173 0.12541723 0.015052692
0.20073304 0.12542599 0.015052878
0.073286355 0.12615246 0.015659828
0.19540566 0.12611401 0.015696004
0.18534619 0.13411373 0.015404318
0.18924353 0.13414484 0.015384442
0.19113107 0.13413918 0.015374606
0.1811507 0.14203417 0.015409063
0.076870441 0.15709484 0.015371072
0.16171683 0.15703285 0.015449411
0.16712464 0.15707624 0.015409597
0.15373704 0.16413242 0.015461181
0.14834926 0.17049545 0.01503197
0.090080142 0.17122477 0.015642304
0.14976797 0.17113739 0.015732292
0.15256283 0.17118078 0.015691414
0.13978674 0.17748338 0.015466756
0.13325571 0.18374479 0.015416215
0.12616868 0.18998104 0.015544728
0.12881446 0.18992478 0.015604245
0.13239816 0.19000334 0.015526959
0.12210007 0.19554263 0.015123944
0.12466499 0.19550735 0.015141812
0.12384705 0.19616127 0.015837643
0.11865702 0.20165092 0.015601355
0.15215114 0.069004893 0.016939837
0.157011 0.078778028 0.01602608
0.16253276 0.090008378 0.016564388
0.1672487 0.090030193 0.016530681
0.17050217 0.09000957 0.01655326
0.17185572 0.09970367 0.016290139
0.22091517 0.099712372 0.016274754
0.16898492 0.10042274 0.016881406
0.17031631 0.10045403 0.01687029
0.17367868 0.10044682 0.016865853
0.21723303 0.10931897 0.016370073
0.05872494 0.11002427 0.016995188
0.060215488 0.11002165 0.016976908
0.21107152 0.11005676 0.016940314
0.21359286 0.11005932 0.016943749
0.2150128 0.11006165 0.016953807
0.068376526 0.11884999 0.016766109
0.069539338 0.11811239 0.016192481
0.070659921 0.11809731 0.016182415
0.20586383 0.11883724 0.016800541
0.20730698 0.11883807 0.016779333
0.074792638 0.12684655 0.016270276
0.1981326 0.1268481 0.016296197
0.19492307 0.12755418 0.016920488
0.18789268 0.1348235 0.016024273
0.18636428 0.1355229 0.016657822
0.19035541 0.13555604 0.016630188
0.17705676 0.14346039 0.016651262
0.18074331 0.14342499 0.016688723
0.17072679 0.15061736 0.016243797
0.17213766 0.15061867 0.016242519
0.070996732 0.15129393 0.01693888
0.078244358 0.15772754 0.016106736
0.16351573 0.15770215 0.016118374
0.16888307 0.15776396 0.01607053
0.1063315 0.15842265 0.016755085
0.1608651 0.15840822 0.016772214
0.16519959 0.1583935 0.016787224
0.1666389 0.15842503 0.016749293
0.16016032 0.1648261 0.01610608
0.085043043 0.16545027 0.016832061
0.15336762 0.16546071 0.016820241
0.15761264 0.16544455 0.016863305
0.15904187 0.16550255 0.016781881
0.14821431 0.17180741 0.016413771
0.098529667 0.17876726 0.01687476
0.13828297 0.17873883 0.016898569
0.14709364 0.17809898 0.016211532
0.1324362 0.1843943 0.016115382
0.13930658 0.18441153 0.016105525
0.10414024 0.18500721 0.016875479
0.10842459 0.19061834 0.01625241
0.12799174 0.19056743 0.016316295
0.11474124 0.19676906 0.016593084
0.12153597 0.19677562 0.016603082
0.16426937 0.090777814 0.017102599
0.173324 0.090747952 0.017138939
0.16606058 0.091542184 0.017633945
0.16928889 0.091542363 0.017659783
0.2208771 0.10194772 0.017969485
0.2219325 0.10118961 0.017426323
0.22333615 0.10115421 0.017481327
0.063101485 0.11076498 0.017576367
0.16780843 0.1107769 0.017543536
0.20257309 0.11955184 0.017407786
0.20375565 0.11954117 0.017402954
0.20519155 0.11954767 0.017398532
0.19278678 0.12826598 0.01751307
0.057547614 0.13663238 0.01755432
0.058260992 0.13624561 0.017280318
0.18492427 0.13623708 0.017288353
0.1874449 0.13693529 0.017906096
0.18889681 0.13623559 0.017273176
0.18962356 0.13694233 0.017899904
0.18000329 0.14411896 0.017321024
0.17168362 0.1519931 0.017548244
0.16775049 0.15200549 0.01754621
0.079269573 0.15906101 0.017436009
0.080338702 0.15906686 0.017448138
0.10877299 0.1591019 0.017422635
0.1110249 0.15904599 0.017480638
0.15640208 0.16611069 0.017530419
0.15139228 0.17249548 0.017075449
0.15431181 0.17246103 0.017108209
0.14699702 0.1731267 0.017794374
0.14207105 0.17942566 0.017588664
0.13590609 0.1856513 0.017567322
0.11007735 0.19185716 0.017729025
0.12635517 0.19186509 0.017725516
0.1274123 0.19186139 0.017722197
0.12993523 0.19181162 0.017787185
0.13107336 0.19180453 0.017765746
0.12022561 0.20286256 0.017119952
0.16464058 0.081823945 0.018181782
0.16173998 0.082575679 0.018718887
0.16209668 0.092255294 0.018231489
0.16636279 0.10190266 0.018038984
0.16935408 0.10190159 0.018027477
0.17258905 0.1019212 0.018006146
0.21972615 0.10272241 0.018512983
0.22158708 0.10268342 0.018543363
0.058020011 0.11150569 0.018148642
0.064877868 0.11150289 0.018141083
0.16639756 0.11149222 0.018136632
0.21069005 0.11223942 0.018710401
0.21357882 0.11224604 0.018698514
0.067632854 0.1202631 0.018001821
0.070515618 0.12099969 0.018584803
0.20153369 0.12061697 0.018313173
0.19452491 0.12897396 0.018149171
0.19630042 0.12969083 0.018759307
0.18591791 0.13763916 0.018546723
0.17595614 0.14557761 0.018523518
0.17953625 0.14552128 0.018588942
0.17059331 0.1526677 0.018239968
0.16472827 0.1597541 0.018107262
0.16224004 0.16043097 0.018768825
0.16368638 0.16041815 0.018776063
0.15529576 0.16678834 0.018196393
0.086983547 0.16749197 0.018828165
0.11407024 0.16747117 0.018868558
0.15746786 0.16744071 0.018887267
0.15019995 0.17377341 0.018489823
0.099507317 0.18005919 0.01828922
0.14027572 0.18005687 0.018272363
0.1413085 0.18006867 0.018275209
0.13115783 0.18634653 0.018220343
0.13281889 0.18696225 0.018955659
0.13475919 0.18628061 0.018300265
0.11147556 0.19247973 0.018450584
0.1196584 0.19797266 0.018094357
0.12357315 0.19798958 0.018087201
0.11877255 0.19861281 0.018829063
0.12128651 0.19863898 0.018798638
0.12537566 0.19860148 0.018817935
0.01686275 0.093731999 0.019375674
0.018377513 0.093758583 0.019335806
0.16104832 0.093759179 0.019347843
0.019728035 0.09454602 0.01986862
0.16576542 0.1041187 0.019762784
0.16711654 0.10411769 0.019757874
0.21932448 0.10422033 0.019630108
0.16999337 0.11296022 0.019309435
0.063065737 0.1136654 0.019917004
0.21318012 0.11371303 0.019864451
0.20045741 0.12170625 0.019198839
0.2039753 0.12171674 0.019206624
0.19971317 0.12244844 0.019784443
0.19230339 0.13042545 0.019353807
0.19307482 0.13112801 0.019961521
0.19447619 0.13111526 0.019978754
0.18336664 0.13908029 0.01976322
0.18522412 0.13905418 0.019806288
0.18689659 0.13905334 0.019793358
0.17514491 0.14628488 0.019162387
0.17835791 0.14659995 0.019519296
0.075124815 0.15406978 0.019505598
0.16763309 0.15406913 0.019504588
0.1700905 0.15406084 0.019532774
0.15934496 0.1611281 0.01940934
0.16102415 0.16112411 0.019418657
0.15379833 0.16813862 0.019547168
0.15491648 0.16813231 0.019537572
0.14388978 0.17512715 0.019850664
0.13945036 0.18068737 0.019017547
0.098965034 0.18135369 0.019697543
0.13866894 0.1813305 0.019733511
0.1056927 0.18757772 0.019724205
0.13714653 0.18756217 0.019708388
0.12462315 0.19368404 0.019968592
0.12609448 0.19375634 0.01988988
0.12973614 0.19369346 0.019959901
0.12295488 0.19923967 0.019561764
0.021263599 0.095255315 0.020438522
0.21829192 0.10496122 0.020184737
0.22110382 0.10493612 0.020238459
0.16606557 0.1056186 0.020878591
0.16919154 0.11443943 0.020463418
0.20885247 0.11443716 0.020455018
0.21029842 0.1144188 0.020475242
0.19796444 0.12315202 0.02038087
0.18974018 0.1318692 0.020543545
0.19148394 0.13187456 0.020568393
0.1822899 0.13977498 0.020386424
0.067926183 0.14758581 0.020536102
0.17332275 0.14761567 0.020503033
0.16938773 0.15474427 0.020172637
0.080866918 0.16177571 0.020098135
0.16463469 0.16176879 0.020114511
0.10392262 0.16247886 0.020751067
0.16028486 0.16247582 0.020747148
0.15294941 0.1688056 0.0202416
0.088990107 0.16953242 0.020839557
0.14205538 0.1757828 0.020536959
0.14747517 0.1757499 0.020575196
0.135019 0.18202263 0.020370182
0.14146054 0.1820147 0.020383269
0.14255419 0.18200403 0.020392038
0.12981775 0.18818837 0.02046616
0.12079863 0.19984168 0.020305328
0.028010637 0.10635519 0.021442059
0.16533075 0.10635948 0.021438871
0.21646512 0.10640854 0.021398515
0.21788085 0.10643899 0.021341316
0.2197478 0.10718077 0.021897815
0.20777711 0.11517304 0.021028966
0.21104665 0.11514956 0.021065421
0.16908517 0.12386429 0.021010876
0.20183244 0.12387025 0.021007303
0.19533032 0.1245997 0.021614689
0.19999111 0.12461263 0.02158647
0.20107204 0.12461871 0.021581631
0.18120568 0.14044768 0.021062385
0.18328407 0.14119154 0.021633238
0.17224509 0.14830577 0.021144543
0.17501469 0.14832354 0.021161508
0.17759936 0.14835626 0.021092035
0.17680785 0.14907253 0.021714449
0.074966684 0.15616584 0.021431476
0.10536952 0.16314512 0.021417275
0.15080826 0.1701647 0.021533266
0.14120877 0.17643905 0.021218535
0.14343613 0.17643499 0.021227829
0.13678037 0.1826939 0.021053866
0.13823089 0.18265629 0.021100536
0.10208037 0.18328637 0.021802153
0.10765602 0.18949318 0.021852415
0.13184577 0.18952483 0.021823641
0.12411369 0.1949659 0.021398868
0.12915152 0.19498116 0.021386124
0.15777111 0.087843359 0.022553418
0.16388802 0.097496927 0.022131935
0.029058874 0.10783541 0.022575282
0.030086845 0.1078319 0.022584844
0.16647254 0.1078335 0.022583913
0.21471578 0.10786045 0.022560924
0.21612716 0.10785466 0.022570256
0.16759121 0.11658436 0.022273563
0.20742381 0.11662394 0.022208218
0.20882085 0.11663395 0.022203851
0.20629579 0.11735696 0.022805344
0.1981979 0.12533152 0.022177413
0.19932479 0.12532741 0.022178516
0.19496751 0.12604308 0.022808753
0.19740964 0.12605178 0.022798359
0.18926704 0.13401836 0.022381648
0.19116999 0.13400716 0.022390954
0.18075572 0.1418637 0.022320423
0.070319891 0.14975083 0.022384014
0.17133307 0.14973158 0.022393007
0.17465448 0.14970589 0.0224238
0.076725513 0.1567992 0.022146579
0.16418764 0.1567657 0.022172254
0.16671087 0.15682209 0.022120222
0.16811909 0.15682054 0.022125456
0.16923682 0.15682244 0.022112329
0.082875848 0.16380805 0.022113547
0.10631382 0.16381329 0.022107247
0.10738447 0.1637876 0.022149809
0.1098903 0.16386259 0.022060547
0.13374399 0.16384566 0.022075828
0.15796675 0.16386658 0.022042692
0.15945867 0.16384012 0.022066195
0.16124257 0.16384041 0.022065103
0.10446076 0.16450518 0.022760209
0.10554616 0.1645239 0.022728939
0.10806409 0.16446149 0.02280857
0.11995 0.16454017 0.022710696
0.12104149 0.1645208 0.022735287
0.15686642 0.16448867 0.022789128
0.088848412 0.17086291 0.022199366
0.14633991 0.17080182 0.022268049
0.1543303 0.1708014 0.022271726
0.14953499 0.17146832 0.02295658
0.15245613 0.17148864 0.022924479
0.15354566 0.17147166 0.022945661
0.14098497 0.17775542 0.022618055
0.14547387 0.17773867 0.022630978
0.10159966 0.18394381 0.022510655
0.13189806 0.18396258 0.02249131
0.13105293 0.19011086 0.022594571
0.11358088 0.19561481 0.02209099
0.12584658 0.19560015 0.02211716
0.16289864 0.098984063 0.023254257
0.22195405 0.098971486 0.023268662
0.22087935 0.099756658 0.023765817
0.16463302 0.10857433 0.023139481
0.21397005 0.10860789 0.023125734
0.21787277 0.10863978 0.023094442
0.032334477 0.10930187 0.023743708
0.21289958 0.10934341 0.023697641
0.2157889 0.10933673 0.02370394
0.2197082 0.10940117 0.023616392
0.20514697 0.1180793 0.023424465
0.1863647 0.1354146 0.023637865
0.19032711 0.13543981 0.023609795
0.17933419 0.14326632 0.023568515
0.18041109 0.14327073 0.023563702
0.18180555 0.14326668 0.023569562
0.17355925 0.15039688 0.023061797
0.17237422 0.15112162 0.023681179
0.17421798 0.15109813 0.023696318
0.16631123 0.15817565 0.023440994
0.16768129 0.15818971 0.02343725
0.11527699 0.16514361 0.023472715
0.14804611 0.17214739 0.023602445
0.094792038 0.17841303 0.023312841
0.14248277 0.17840481 0.023301523
0.14361764 0.17840779 0.023296762
0.14690031 0.17837071 0.023361128
0.14798653 0.17836022 0.023359928
0.13654116 0.18460774 0.023190498
0.1379783 0.18464828 0.023159999
0.13398096 0.18523717 0.023930497
0.10854374 0.19076914 0.02328955
0.13021134 0.19072711 0.023332894
0.12280376 0.19686878 0.023553643
0.11853598 0.20231932 0.023252014
0.11965485 0.2023052 0.02326604
0.014065325 0.090844452 0.024739698
0.16281441 0.11002797 0.024338622
0.20960742 0.11081749 0.024841554
0.16734274 0.11878365 0.024031207
0.20305349 0.11879671 0.024007928
0.20446607 0.11880034 0.02401296
0.20587714 0.11881518 0.02400706
0.19705757 0.12748915 0.02401245
0.048329145 0.12820935 0.024611291
0.19525293 0.12820256 0.024615843
0.1963571 0.1282081 0.024607915
0.18709001 0.13612431 0.024250645
0.18884984 0.13614601 0.024243012
0.063604742 0.14396477 0.024222884
0.17885002 0.14468372 0.0248193
0.16986325 0.15178907 0.024351411
0.17126627 0.15180457 0.024317775
0.071924835 0.15255952 0.024918314
0.16117038 0.15884703 0.024107203
0.16394681 0.1588484 0.024125461
0.16583015 0.15952355 0.024782889
0.11301367 0.16585314 0.024110992
0.15461294 0.16584331 0.024094664
0.08517018 0.16652423 0.024757367
0.12347922 0.16653138 0.024765648
0.15385725 0.16654545 0.024743423
0.15673497 0.16649729 0.024805561
0.1444411 0.17278492 0.024330333
0.092231825 0.17348415 0.024969392
0.14683636 0.17347199 0.024982035
0.14797974 0.17347068 0.024979603
0.1497196 0.17346913 0.024986405
0.15155096 0.17350775 0.024931215
0.097623765 0.17903787 0.024024311
0.10354514 0.18588519 0.024628501
0.1306404 0.18594241 0.024565041
0.10960451 0.19140434 0.024011318
0.12456186 0.1974721 0.024297148
0.1207318 0.19814742 0.024992246
0.21828997 0.10281807 0.025914129
0.21430725 0.11155611 0.025417976
0.21331143 0.11229092 0.025978588
0.21606882 0.11230499 0.025983121
0.20082889 0.12097734 0.025775049
0.20151995 0.12025088 0.025191177
0.20408131 0.12026298 0.025179047
0.040829003 0.12105197 0.025690868
0.19410297 0.12893498 0.02521617
0.19341986 0.12965053 0.025803495
0.18233182 0.13757861 0.025463946
0.18416663 0.13755888 0.025496952
0.18589191 0.13756055 0.025486823
0.065066129 0.14537936 0.025452383
0.17810056 0.14540774 0.025419421
0.1693365 0.15320009 0.025640514
0.1603068 0.16023785 0.025407623
0.085830867 0.16722077 0.025421716
0.15845187 0.16722476 0.025425795
0.12334114 0.17419446 0.025595266
0.13897568 0.18034542 0.025409494
0.13777247 0.18656385 0.025293421
0.11534193 0.19812185 0.025006272
0.12252279 0.1987505 0.025742967
0.025602967 0.10348415 0.026556097
0.22161525 0.1035108 0.026526213
0.22308767 0.10348189 0.026570842
0.032631993 0.11227554 0.026007447
0.034103602 0.11225116 0.026034061
0.21251217 0.11303544 0.026556015
0.16628382 0.12169456 0.026372109
0.16769028 0.12170553 0.026371371
0.20253381 0.12171984 0.026363511
0.20365264 0.12172771 0.026351243
0.20185769 0.12244356 0.02694574
0.051573113 0.13038778 0.026356585
0.19048671 0.13041306 0.026372377
0.19235477 0.13038379 0.026382379
0.19514713 0.13038504 0.026409324
0.07024534 0.13111538 0.026982188
0.16679715 0.13115191 0.02692195
0.058173478 0.1382919 0.026072003
0.059561178 0.13897604 0.026717141
0.061730787 0.13896781 0.026729994
0.18848373 0.13827032 0.026098073
0.18343462 0.13900352 0.026692655
0.064284593 0.14607775 0.026085895
0.065762088 0.14608812 0.026077386
0.066503063 0.146788 0.026714873
0.17403416 0.14684433 0.026664849
0.17764266 0.14684308 0.026648846
0.18097132 0.14609468 0.026070669
0.072949499 0.15395141 0.026199058
0.073635876 0.15393698 0.02621359
0.16899037 0.15459824 0.026888531
0.11049432 0.16088802 0.026105255
0.11159426 0.16087186 0.026121687
0.11301731 0.16087323 0.026097357
0.1205734 0.16091722 0.026088055
0.16246434 0.16089845 0.026086748
0.16388114 0.16090196 0.026073065
0.080515131 0.16157937 0.026726615
0.099570334 0.16164112 0.026689347
0.10061902 0.16162354 0.026713889
0.10173556 0.16161132 0.0267164
0.10205856 0.16162074 0.026718594
0.10498254 0.16159135 0.026741784
0.10644798 0.16159427 0.026733194
0.10768577 0.16163224 0.026691832
0.1096731 0.16161788 0.026706167
0.1140309 0.1615777 0.02676513
0.11549558 0.16163689 0.026692852
0.12804389 0.1615814 0.026745114
0.1301946 0.16160947 0.026706219
0.13124458 0.1616165 0.026723493
0.13320905 0.16162837 0.026686613
0.14038394 0.16159707 0.026742347
0.12914146 0.16792208 0.026058078
0.15342385 0.16789174 0.026092418
0.15584613 0.16787124 0.026107293
0.087553203 0.16863799 0.026684273
0.12078065 0.16862214 0.026692949
0.093920648 0.17481267 0.02633746
0.14235203 0.17483956 0.026305102
0.14778529 0.17480898 0.026350193
0.1423485 0.17550051 0.026988108
0.098879889 0.18102223 0.026081357
0.11486599 0.18101728 0.02607974
0.13060814 0.18167853 0.026767127
0.13171484 0.181674 0.026788268
0.13567995 0.18172067 0.026727699
0.13856554 0.1816473 0.026813805
0.14101931 0.18169129 0.026772857
0.10524215 0.18719208 0.026020624
0.11667141 0.18785059 0.026736278
0.12245773 0.18786377 0.026712663
0.13289095 0.18786013 0.026711531
0.13374858 0.18718457 0.026021644
0.1352129 0.18718672 0.026055414
0.12331674 0.19390988 0.026932225
0.12556145 0.19333291 0.026138291
0.126628 0.19332516 0.026152447
0.12726721 0.19395214 0.026872825
0.12838301 0.19393212 0.026898529
0.1292243 0.19326514 0.026212092
0.12026162 0.19939852 0.026448671
0.12201948 0.19938695 0.026472162
0.018769741 0.095428467 0.02795488
0.027664512 0.10497808 0.027674794
0.029114574 0.10498303 0.027684946
0.030628443 0.10494494 0.027730159
0.21971262 0.10505867 0.027589872
0.22083163 0.10503572 0.027615905
0.22127575 0.1050241 0.027621433
0.20815733 0.11376554 0.027132891
0.21134815 0.11378109 0.027130831
0.04036352 0.11446846 0.027761273
0.2103591 0.11449057 0.027718998
0.2121284 0.11452204 0.027694225
0.064158157 0.13181722 0.027601026
0.06555146 0.13182718 0.027580805
0.16920486 0.13186264 0.027551621
0.19706601 0.13109493 0.027006138
0.069318265 0.1397028 0.027312115
0.16603245 0.13971269 0.027300552
0.18050961 0.13968831 0.027330335
0.062041014 0.14039367 0.02795722
0.065279648 0.1404838 0.027865525
0.066705778 0.14044517 0.027900029
0.077590257 0.14040577 0.027923279
0.16494834 0.14043278 0.027897846
0.17034517 0.14044821 0.027916301
0.18260968 0.14043033 0.02790831
0.18445385 0.1404348 0.027916536
0.18586954 0.14040613 0.027957868
0.18620844 0.14042228 0.02793736
0.069985285 0.14757186 0.027255654
0.17696093 0.14756179 0.02725137
0.07718657 0.14828241 0.027900252
0.17364067 0.14822757 0.027944602
0.17623782 0.14826828 0.027872212
0.1602724 0.15525532 0.027563002
0.17071946 0.15528136 0.027551953
0.083597615 0.16234344 0.02731799
0.095563382 0.16228837 0.027364269
0.098857999 0.1622715 0.027381159
0.10160953 0.16231018 0.027369432
0.10464634 0.16227359 0.027378853
0.10893765 0.16230679 0.027363203
0.11656556 0.16233569 0.027318068
0.15230007 0.16227293 0.027376942
0.1583799 0.16230822 0.027353976
0.16161677 0.16228664 0.027388684
0.085049942 0.16302335 0.027974665
0.10738362 0.16925478 0.027408879
0.13508472 0.16926342 0.027422223
0.15442917 0.16924077 0.027420282
0.15541062 0.16924751 0.027419206
0.096441746 0.17547929 0.027003746
0.10399194 0.1754849 0.027015176
0.14638221 0.17546469 0.027025968
0.14702417 0.1754756 0.02701794
0.094871879 0.1761415 0.02769224
0.095276937 0.17614806 0.027685739
0.10075259 0.17616463 0.027681444
0.10539073 0.17615891 0.027689606
0.11006932 0.17616868 0.027684331
0.13175429 0.17617661 0.027648825
0.14563024 0.17611969 0.02773805
0.13450824 0.18235487 0.027439788
0.13922922 0.18230987 0.02748825
0.14027807 0.18232948 0.027471125
0.11447562 0.18851835 0.027412958
0.12824094 0.18843758 0.027471583
0.13039827 0.18851519 0.027417045
0.13213085 0.18853104 0.027380925
0.13360749 0.18849331 0.027421221
0.11492468 0.19458169 0.027596571
0.12523524 0.19459325 0.027587149
0.12647961 0.19461113 0.027564228
0.11722416 0.19999886 0.027211744
0.11860497 0.20063657 0.027915377
0.11972629 0.20061356 0.027939182
0.12196821 0.20001215 0.027197208
0.027890563 0.096967876 0.028993651
0.033678859 0.10573626 0.028231151
0.21761906 0.10582215 0.028114054
0.21870607 0.10581893 0.02811401
0.029456705 0.10648841 0.028798394
0.037593782 0.10644758 0.028824754
0.20828807 0.10650373 0.028754428
0.21936783 0.10656917 0.028677791
0.036607474 0.11522776 0.028301958
0.049106419 0.11518317 0.028339814
0.20494252 0.11523861 0.028272234
0.2060779 0.11598182 0.028829113
0.20814139 0.11599344 0.028830573
0.20929205 0.11523718 0.028281543
0.21103895 0.11524034 0.028279625
0.05033353 0.12392908 0.028100684
0.056066647 0.1239832 0.028034836
0.20043358 0.12392652 0.028096803
0.20157841 0.12390643 0.028111208
0.046348661 0.12461525 0.028732967
0.19797847 0.12464303 0.028674252
0.19973609 0.12465906 0.02867597
0.063029781 0.13255709 0.02819103
0.066951841 0.13261515 0.028124023
0.16627976 0.13260996 0.028134428
0.19013304 0.132581 0.028156552
0.19194475 0.13257724 0.028165173
0.19374061 0.13254714 0.028181151
0.057179675 0.13325375 0.028831009
0.061903074 0.13333291 0.028729543
0.16888233 0.13332033 0.028725281
0.19081554 0.13330501 0.028759323
0.16381316 0.14113772 0.028533529
0.18156475 0.14112204 0.02853873
0.18329558 0.14116198 0.028513674
0.068915665 0.14896047 0.028546877
0.15301976 0.14894319 0.028543808
0.15590227 0.14891368 0.028577
0.16890448 0.14894211 0.028530575
0.17536959 0.14898241 0.028512925
0.090189606 0.15598041 0.028165799
0.094495341 0.15596849 0.028185491
0.16416164 0.15599489 0.028168492
0.16855119 0.15599793 0.028152943
0.075015664 0.15601867 0.028122667
0.076604009 0.1566605 0.028830465
0.083564103 0.15667391 0.028831884
0.085045546 0.15667534 0.028815012
0.086557522 0.15665996 0.028814826
0.089010254 0.15669203 0.028810836
0.091552958 0.15668368 0.028804861
0.093684122 0.15668154 0.028822094
0.1522454 0.15668416 0.028824765
0.15798996 0.15668434 0.028815944
0.15949172 0.15666676 0.028821945
0.1630466 0.1566605 0.028846376
0.16559577 0.15669727 0.028801046
0.16663612 0.15670806 0.028793611
0.16773719 0.1567027 0.028809115
0.082382411 0.16296631 0.02802914
0.096921533 0.16297966 0.028034516
0.15908074 0.16298598 0.028013807
0.16059229 0.16298485 0.028005354
0.086747363 0.16365296 0.028699759
0.15392533 0.1636399 0.028709173
0.15544127 0.16364145 0.028721113
0.088914528 0.16997194 0.028036546
0.10471842 0.16996062 0.028060392
0.12973993 0.16997153 0.028035346
0.14058663 0.16993076 0.028089326
0.15360439 0.16991681 0.028109096
0.099319845 0.1706115 0.028737519
0.1506349 0.170636 0.028717242
0.15175696 0.17059863 0.028769821
0.099557847 0.17684257 0.028336421
0.10217234 0.17682081 0.028350364
0.11330169 0.17680538 0.028386615
0.14073192 0.17683947 0.028336894
0.14367111 0.17683727 0.028346039
0.13344489 0.17753893 0.028985623
0.11422896 0.18299544 0.028164435
0.13338044 0.18299085 0.028161049
0.13807307 0.18299598 0.028184567
0.10225633 0.18332428 0.028523415
0.10372105 0.18366748 0.028840289
0.10520013 0.18365341 0.028842699
0.10871392 0.18365848 0.028854828
0.11306852 0.18301469 0.028159119
0.11561246 0.18367159 0.028825879
0.11669624 0.18363649 0.028870028
0.12245782 0.18364573 0.028873712
0.12358482 0.18361545 0.028903831
0.12462826 0.18360627 0.028911386
0.12570731 0.18362784 0.028888941
0.13733117 0.18336254 0.028467383
0.10753691 0.1891368 0.0281386
0.11136617 0.18978107 0.028858677
0.11611073 0.18979388 0.028844196
0.1172221 0.18978447 0.028846454
0.12164226 0.18912011 0.028157961
0.12272239 0.18915588 0.028115086
0.12410688 0.18979257 0.028839424
0.12774865 0.18908131 0.028202452
0.13064882 0.1897999 0.028831884
0.13144015 0.18917531 0.028094206
0.11986169 0.19523293 0.028308511
0.14263281 0.22249025 0.028701983
0.021312505 0.097703218 0.029552393
0.028397977 0.10722679 0.029356431
0.031634897 0.10796249 0.029934004
0.0327968 0.1072762 0.029285565
0.03585881 0.10797393 0.02990422
0.21547274 0.10725486 0.029324841
0.21688896 0.10730928 0.029264539
0.039765537 0.10802567 0.029870402
0.20754184 0.10800046 0.029873703
0.21367496 0.10800123 0.029874902
0.21625069 0.10801584 0.029862262
0.038422525 0.11677057 0.0294022
0.040019184 0.11671811 0.029436629
0.042505503 0.11668164 0.029465083
0.044015378 0.11674333 0.029393591
0.047870398 0.11667335 0.029500473
0.049450099 0.11666971 0.029485654
0.20242059 0.11670315 0.029449694
0.20727372 0.11673027 0.02940179
0.052102193 0.12535316 0.029296275
0.055344194 0.12537813 0.02928713
0.16690919 0.12537575 0.029273685
0.1683754 0.12536079 0.029289417
0.19720176 0.12538069 0.029264301
0.19900703 0.12538731 0.029261727
0.053878739 0.12608767 0.029883824
0.16609837 0.12613201 0.029843833
0.18930364 0.12610793 0.029855173
0.19622231 0.12611341 0.029871564
0.19722375 0.12611043 0.029851235
0.19828391 0.12611294 0.029850055
0.054546982 0.13406235 0.029334672
0.056188509 0.13400066 0.029379506
0.060861424 0.13475513 0.029966429
0.066618159 0.13471287 0.029987287
0.068777785 0.13405138 0.029327102
0.16487545 0.13473046 0.029960517
0.16591471 0.13436705 0.029693943
0.17747489 0.13471067 0.029991444
0.17887467 0.13474596 0.029944599
0.18030944 0.13474423 0.029963296
0.18180904 0.13472551 0.029997569
0.18784593 0.13473898 0.029973719
0.18814877 0.13475442 0.029961087
0.18969789 0.13438559 0.02965324
0.062354073 0.14182746 0.029174864
0.064175412 0.1418432 0.02917324
0.069936663 0.14182955 0.029176679
0.071325511 0.14185864 0.029153753
0.076752633 0.14185071 0.029148798
0.079289854 0.14186215 0.029162541
0.1630758 0.14184988 0.029166095
0.17320722 0.14188653 0.029104415
0.17427781 0.14188552 0.029104881
0.17527661 0.14185846 0.029158913
0.17862514 0.1418311 0.029181078
0.065919399 0.14262682 0.029703636
0.075606063 0.14256507 0.029778965
0.1767813 0.1425522 0.029774621
0.18001936 0.14254779 0.029794119
0.18111566 0.14254677 0.029790133
0.18257332 0.14257205 0.029751606
0.070605248 0.14969909 0.029120617
0.075005263 0.14962316 0.029194035
0.078884259 0.14962935 0.029205799
0.08035402 0.14963973 0.029183988
0.086951837 0.14964026 0.029168725
0.16344033 0.14966673 0.029162072
0.16455923 0.14966786 0.029148825
0.17326076 0.14964175 0.029166762
0.072378233 0.15035099 0.029809624
0.073939174 0.15032154 0.029817488
0.083229721 0.15034062 0.029815003
0.084662929 0.15037113 0.029780645
0.08616586 0.15035903 0.029805277
0.15762328 0.1503318 0.029817432
0.1613282 0.1503526 0.029797763
0.16701606 0.15036094 0.029808491
0.17065732 0.1503529 0.029784001
0.17171603 0.15035051 0.029794376
0.081046864 0.15743887 0.029389974
0.087908417 0.15738285 0.029468466
0.14136772 0.15736777 0.029479675
0.14859198 0.15737122 0.029459745
0.15658641 0.15737331 0.029449098
0.16447845 0.15737039 0.029464815
0.1656044 0.1573866 0.029443771
0.084213883 0.16437185 0.02930158
0.088538304 0.16434908 0.029332183
0.092514783 0.16437554 0.029303137
0.095131949 0.16435206 0.029317386
0.10658541 0.16432422 0.029387578
0.13369061 0.16437137 0.029304203
0.14420381 0.16434002 0.029349104
0.15788801 0.16439694 0.029286198
0.1582351 0.16439265 0.029286612
0.08562474 0.16509545 0.029929336
0.096424535 0.16504484 0.029972445
0.11049898 0.1650638 0.029975053
0.15104213 0.16503811 0.029994916
0.15216066 0.16503143 0.029985327
0.089883834 0.17133325 0.029388733
0.091319054 0.17127585 0.029426519
0.095662624 0.17129129 0.029426824
0.09825176 0.17127997 0.02940768
0.10399145 0.17128474 0.029418733
0.10501584 0.17131555 0.029391721
0.13905568 0.17129648 0.02939542
0.14308217 0.17125279 0.029459834
0.14912362 0.17127502 0.02943863
0.097013563 0.1774835 0.029043525
0.1009627 0.17749494 0.029035769
0.10560513 0.1775018 0.029027626
0.10924253 0.17750561 0.029037926
0.13559102 0.17746085 0.029079758
0.13778277 0.17748076 0.029026788
0.13986877 0.17749828 0.029047038
0.14289911 0.17751062 0.029028792
0.10480261 0.17816108 0.029731371
0.10703494 0.17814487 0.029730741
0.12720247 0.17818242 0.029695775
0.12981778 0.17815548 0.029744286
0.132312 0.17816657 0.029695198
0.13697049 0.17813253 0.029747024
0.1421338 0.17818016 0.029690161
0.10653304 0.18432206 0.029532947
0.10762013 0.18430829 0.029538155
0.11123866 0.1843155 0.029545099
0.11226499 0.18434536 0.029518288
0.11806363 0.1842705 0.029601466
0.11914429 0.18432909 0.029537395
0.12927584 0.18436235 0.029485121
0.13032033 0.18434262 0.029500268
0.13140826 0.1843254 0.029523715
0.1348297 0.18431014 0.029539045
0.1092409 0.19042748 0.029540028
0.11276306 0.19043845 0.029538102
0.11862732 0.1904301 0.029545691
0.12545498 0.1904366 0.029540174
0.12658951 0.19039673 0.029590569
0.12768905 0.19038105 0.02960664
0.12873751 0.19038379 0.029600214
0.11410172 0.19584835 0.02902104
0.11514398 0.19585091 0.02903688
0.12204488 0.19585955 0.029016513
0.1245445 0.19581074 0.029082686
0.11651878 0.19649625 0.029748265
0.11767419 0.19647199 0.02975338
0.021332622 0.098450422 0.030110348
0.027071387 0.098434031 0.03012155
0.032256246 0.098408997 0.030142587
0.026014954 0.099181652 0.030673303
0.030138671 0.099200487 0.030655857
0.042694092 0.10868376 0.030495528
0.21153665 0.10875106 0.030429199
0.2151296 0.10874736 0.030434854
0.2093769 0.10949624 0.030982371
0.21294463 0.10949749 0.03099221
0.037344635 0.11741185 0.030061837
0.040033579 0.11745501 0.030007444
0.041471481 0.11743039 0.030030988
0.05122453 0.11746573 0.030006852
0.20379221 0.11745608 0.030021574
0.20492736 0.11745244 0.030006807
0.044354349 0.11817729 0.030562069
0.04582873 0.11823124 0.030541591
0.047251374 0.11817402 0.030591093
0.052931756 0.1182422 0.030523475
0.2038382 0.11819446 0.03058704
0.20676948 0.11819679 0.030544911
0.049902081 0.12689823 0.030392069
0.051376656 0.12685901 0.030422017
0.16795771 0.12683356 0.030447621
0.17629907 0.12685668 0.030429117
0.18488061 0.12686479 0.030411355
0.057444885 0.12764013 0.03095996
0.058907822 0.12761915 0.030964632
0.16576904 0.12761211 0.030985236
0.070498407 0.13471878 0.03000059
0.056515321 0.13546199 0.03057659
0.057896912 0.13541901 0.030611794
0.18350966 0.13544524 0.030590203
0.18536869 0.13544643 0.030576084
0.18681026 0.13545084 0.030573551
0.067721635 0.14331949 0.030321136
0.069188058 0.14325315 0.030388441
0.16626289 0.14399666 0.03097
0.16735511 0.14329708 0.030360065
0.16920456 0.14398217 0.030993748
0.1782358 0.14325726 0.030399334
0.18001208 0.14326787 0.030399606
0.066289708 0.14403206 0.03095524
0.16159807 0.14401168 0.030965179
0.16268516 0.14400554 0.030980371
0.17273918 0.14404744 0.030933429
0.17595145 0.14400893 0.03098245
0.076693296 0.15107298 0.030405853
0.08858712 0.15105814 0.030423846
0.1589741 0.1510458 0.030455586
0.16269542 0.15107882 0.030409835
0.16848905 0.15104699 0.030448586
0.17062479 0.15106213 0.030405104
0.17241062 0.15104991 0.030429669
0.078523353 0.15804857 0.03012092
0.07992278 0.15805489 0.030101776
0.082780018 0.15881693 0.030710448
0.08421427 0.15876025 0.030748397
0.086791307 0.15805674 0.030107778
0.089665368 0.15877968 0.030726042
0.090824082 0.15806681 0.03008841
0.092182249 0.15877491 0.030727614
0.096890956 0.15843314 0.030406319
0.13953316 0.15875739 0.030750275
0.1502998 0.15874362 0.03076008
0.15288244 0.15874714 0.030772783
0.15396833 0.15810579 0.030051887
0.15980136 0.15805757 0.030109175
0.16124797 0.1580447 0.03011661
0.16264886 0.15873557 0.030763343
0.16334158 0.15805942 0.030113224
0.155716 0.16499585 0.030033644
0.087353081 0.16572881 0.030638754
0.088770285 0.16571677 0.030645005
0.090303436 0.16572207 0.030638345
0.094253048 0.1657334 0.030630019
0.097784594 0.16573364 0.030647118
0.098894775 0.16574055 0.030622352
0.1000212 0.16571504 0.030646581
0.11410826 0.16569042 0.030691858
0.13655336 0.1657424 0.030620042
0.14122793 0.16571832 0.030649651
0.14556983 0.16571707 0.030662391
0.14745536 0.16574705 0.030597061
0.14922073 0.16571444 0.030650344
0.15315109 0.16502339 0.030002329
0.15417612 0.16502267 0.030005526
0.091229752 0.17194653 0.030106343
0.093074515 0.17194712 0.030097604
0.097082317 0.17197263 0.030071519
0.13173299 0.17195886 0.030108456
0.13703319 0.17198008 0.030074716
0.13823354 0.17197078 0.030066293
0.14229099 0.171938 0.03012082
0.14513254 0.17195565 0.030092284
0.14694783 0.17195141 0.030094888
0.14767954 0.17195493 0.030096449
0.09587273 0.1726253 0.030775968
0.099909365 0.17264616 0.030738994
0.1009952 0.17263305 0.030744214
0.10670029 0.17265552 0.030750126
0.13313435 0.17260331 0.030786924
0.13631511 0.17263442 0.030743398
0.14144291 0.17266011 0.03074
0.098740041 0.17880785 0.030394435
0.10015205 0.17882842 0.030388132
0.10269529 0.17882508 0.030387014
0.11208096 0.178828 0.030393235
0.13122015 0.17881709 0.030391954
0.14012815 0.17883623 0.030402083
0.1412801 0.17883921 0.030385494
0.10541379 0.18498206 0.030233737
0.10895996 0.18496925 0.030246034
0.11362424 0.18498808 0.030235149
0.12704916 0.18495315 0.030270055
0.13393176 0.18496054 0.030257601
0.10421327 0.18564934 0.030901551
0.10682586 0.18562877 0.030915279
0.11035055 0.18563408 0.030932989
0.11150701 0.18560916 0.030937791
0.11616203 0.18563396 0.030916981
0.11729851 0.18560988 0.030935917
0.11828525 0.18559772 0.030982513
0.1218809 0.18564999 0.030918363
0.1226171 0.18563312 0.030930489
0.12413894 0.18559164 0.03096899
0.12516923 0.18559092 0.030980792
0.13277769 0.18562686 0.030925613
0.10919422 0.19107169 0.030246846
0.11054832 0.19140488 0.03059588
0.11187938 0.1917389 0.030948371
0.11526628 0.19110101 0.030231405
0.1165816 0.19175154 0.030935761
0.1200532 0.19106662 0.030250259
0.12105916 0.19105601 0.030279785
0.12212592 0.19102758 0.030305922
0.11899513 0.19716299 0.030432422
0.12148236 0.19714302 0.030459184
0.024845183 0.099948049 0.031197876
0.023848683 0.10070586 0.031738795
0.031971514 0.10068327 0.031764608
0.037654042 0.10942453 0.031073909
0.035483241 0.11023915 0.031564079
0.039081812 0.1101855 0.031598475
0.040519059 0.11026061 0.031532321
0.20830715 0.11023253 0.031553686
0.21191171 0.11024374 0.031542383
0.19878444 0.11890775 0.031178322
0.20314915 0.11891615 0.031169396
0.043614089 0.11962622 0.031756662
0.048980266 0.11962789 0.031767607
0.19807863 0.11965191 0.031736534
0.20020299 0.11964792 0.031749733
0.20122619 0.11966759 0.031742554
0.20240894 0.11965632 0.031737708
0.048816562 0.1275537 0.031042363
0.16713732 0.12758791 0.031029336
0.19246671 0.12756103 0.031051867
0.19353995 0.12757003 0.031048764
0.19573271 0.12757069 0.031043597
0.056072518 0.12827218 0.031644795
0.060727119 0.1282829 0.031618305
0.18200627 0.12829822 0.031610068
0.18519492 0.1283356 0.031578951
0.18842416 0.12833548 0.031604342
0.19141662 0.12829828 0.03161373
0.19249433 0.12828726 0.031638701
0.061512798 0.13689435 0.031791281
0.062904418 0.13623583 0.031111218
0.064348117 0.13618135 0.03117492
0.065910384 0.13615096 0.031182744
0.068330497 0.13619864 0.031144042
0.071179435 0.13690269 0.031776857
0.072591692 0.13689411 0.031781457
0.074129984 0.13689595 0.03177496
0.16404906 0.13617504 0.03116871
0.17238991 0.13617623 0.031170115
0.17381585 0.13688058 0.031796124
0.17496264 0.1368739 0.031798054
0.17569512 0.13615525 0.031194042
0.17704594 0.13688332 0.031802982
0.17957491 0.13690948 0.031748168
0.18098217 0.13692051 0.031751476
0.18208621 0.13619053 0.03117143
0.18528959 0.1365307 0.031478919
0.064870924 0.14395678 0.031027552
0.078863174 0.1439817 0.031000882
0.17163411 0.1439991 0.031013109
0.17823146 0.14396387 0.03101971
0.07093209 0.14468813 0.031626575
0.072328314 0.1446963 0.031606868
0.073779508 0.14477521 0.031534795
0.076295942 0.14470464 0.031614572
0.077740252 0.14469832 0.031618688
0.080227047 0.14469934 0.031632047
0.0842655 0.14471841 0.031592831
0.16079584 0.14473534 0.031594675
0.16401783 0.14471579 0.031625792
0.17421359 0.1447503 0.031547666
0.17744729 0.14469999 0.031609848
0.075662896 0.15175247 0.03105925
0.079528227 0.15176052 0.031064589
0.080943063 0.15175015 0.031070039
0.15538229 0.15175468 0.031079516
0.15686971 0.15173882 0.03108421
0.16407995 0.15178972 0.031037617
0.16522305 0.15177923 0.031033251
0.16969621 0.1517604 0.03104623
0.073045328 0.15248525 0.031660847
0.074525431 0.15244162 0.031694539
0.078450665 0.15251917 0.031633765
0.082810089 0.1524592 0.031689957
0.086760238 0.15247041 0.031680994
0.15437342 0.15246952 0.031669505
0.1560822 0.15246224 0.031699657
0.16662677 0.15248191 0.031660918
0.16767804 0.15247136 0.031683732
0.085983202 0.15945035 0.031392835
0.088469759 0.15945125 0.031405579
0.10154153 0.15946668 0.031368498
0.10511875 0.15947825 0.031373966
0.12994169 0.15948367 0.031370044
0.13520105 0.15944046 0.031416707
0.1363045 0.15943241 0.031421836
0.14345655 0.15949655 0.031325258
0.14529151 0.1594556 0.031397913
0.14633447 0.15945262 0.031400051
0.15177293 0.15943027 0.031411022
0.15724453 0.1594696 0.03136348
0.15860666 0.15946865 0.031367622
0.1614878 0.1594398 0.031400502
0.10221197 0.16017413 0.031991933
0.15458637 0.16019082 0.031981464
0.15601076 0.160182 0.031984929
0.093149856 0.16641867 0.031277623
0.095695108 0.16641438 0.031276274
0.10142577 0.16644222 0.031263527
0.11225623 0.16641265 0.031301793
0.13139212 0.1664058 0.031274971
0.14052798 0.16638154 0.031330626
0.14227431 0.16640455 0.03130408
0.087652162 0.16712075 0.031936936
0.089066729 0.16709697 0.031954776
0.090546101 0.16709924 0.031938221
0.092057422 0.16708446 0.031937767
0.12197721 0.16709703 0.03193216
0.1045996 0.17329472 0.031427037
0.13445497 0.17329371 0.031432383
0.13553374 0.17332226 0.031400736
0.13962266 0.17333472 0.031400725
0.098628044 0.17947966 0.031086363
0.10150084 0.17950571 0.031071022
0.1040422 0.17949831 0.031064663
0.10873275 0.17951965 0.031053342
0.10975428 0.17952389 0.031053826
0.12676325 0.17953962 0.031018849
0.13617446 0.17947364 0.031110194
0.10535626 0.18017924 0.031745564
0.10761315 0.18014801 0.031763267
0.12983957 0.18633628 0.031556245
0.13085525 0.18633878 0.03156
0.11442384 0.19235736 0.031669591
