# .PCD v0.7 - Point Cloud Data file format
VERSION 0.7
FIELDS x y z
SIZE 4 4 4
TYPE F F F
COUNT 1 1 1
WIDTH 1325
HEIGHT 1
VIEWPOINT 0 0 0 1 0 0 0
POINTS 1325
DATA ascii
-0.13287537 -0.64292377 0.020409597
-0.14626297 -0.6358676 0.020461181
-0.15165076 -0.62950456 0.02003197
-0.20991987 -0.62877524 0.020642305
-0.15023205 -0.62886262 0.020732293
-0.14743719 -0.62881923 0.020691415
-0.16021328 -0.62251663 0.020466756
-0.16674431 -0.61625522 0.020416215
-0.17383133 -0.61001897 0.020544728
-0.17118555 -0.61007524 0.020604245
-0.16760185 -0.60999668 0.020526959
-0.17789994 -0.60445738 0.020123944
-0.17533502 -0.60449266 0.020141812
-0.17615296 -0.60383874 0.020837644
-0.18134299 -0.59834909 0.020601355
0.19125685 -0.2346925 0.020842616
-0.020984165 -0.10689543 0.020415362
-0.018080641 -0.10693209 0.020402415
-0.00010063512 -0.10688204 0.020421911
0.0021620798 -0.10691717 0.020419925
0.014757899 -0.10693514 0.020404944
0.026205588 -0.092930891 0.020489804
-0.064071603 -0.07811477 0.020582456
-0.01791987 -0.078089513 0.020602304
-0.014653178 -0.07809063 0.020600177
-0.0053342874 -0.078112714 0.020606594
-0.068683229 -0.077362239 0.020124527
-0.065689899 -0.077344686 0.020140579
-0.021046953 -0.077331804 0.020154256
-0.01529699 -0.077334806 0.020147875
-0.012027521 -0.077328511 0.020152563
-0.010243532 -0.077336796 0.020145565
-0.00054047041 -0.077355333 0.020128017
0.00052736851 -0.077326469 0.020122873
0.063789517 -0.077359147 0.020138329
-0.061806355 -0.062351506 0.020777179
-0.049559709 -0.062386584 0.020784909
0.068365447 -0.062390532 0.020818485
-0.057319678 -0.061650034 0.020365551
-0.051372368 -0.061666094 0.020354968
-0.050306752 -0.061656699 0.020354342
-0.048016693 -0.061592184 0.020346414
-0.066826478 -0.045069851 0.020724265
-0.061520573 -0.045027308 0.020715468
-0.059513539 -0.045032553 0.020711094
-0.057564475 -0.045038041 0.020711543
-0.053539526 -0.045070194 0.020709934
-0.074448273 -0.044997279 0.020710606
-0.063555084 -0.044233739 0.02029209
-0.059919316 -0.044253733 0.020292714
-0.058154684 -0.044237539 0.020286847
-0.05781287 -0.044247456 0.020289917
-0.056423657 -0.044973951 0.020710465
0.069743603 -0.044916168 0.020695025
0.075545527 -0.044938575 0.02072363
-0.066920921 -0.025106059 0.020047355
-0.14784887 -0.73099512 0.021939838
-0.14298901 -0.72122198 0.021026079
-0.13746725 -0.70999163 0.021564387
-0.13275132 -0.70996982 0.021530682
-0.12949784 -0.70999044 0.021553261
-0.12814429 -0.70029634 0.021290138
-0.079084851 -0.70028764 0.021274753
-0.13101509 -0.69957727 0.021881405
-0.1296837 -0.69954598 0.021870291
-0.12632133 -0.69955319 0.021865852
-0.082766987 -0.69068104 0.021370072
-0.24127507 -0.68997574 0.021995189
-0.23978452 -0.68997836 0.021976909
-0.088928498 -0.68994325 0.021940315
-0.086407147 -0.68994069 0.021943748
-0.084987208 -0.68993837 0.021953808
-0.23162349 -0.68115002 0.021766108
-0.23046067 -0.68188763 0.02119248
-0.22934009 -0.68190271 0.021182414
-0.094136171 -0.68116277 0.02180054
-0.092693023 -0.68116194 0.021779332
-0.22520737 -0.67315346 0.021270275
-0.10186741 -0.67315191 0.021296198
-0.10507695 -0.67244583 0.021920487
-0.11210733 -0.66517651 0.021024272
-0.11363573 -0.66447711 0.021657823
-0.10964461 -0.66444397 0.021630187
-0.12294325 -0.65653962 0.021651261
-0.11925671 -0.65657502 0.021688722
-0.12927322 -0.64938265 0.021243796
-0.12786235 -0.64938134 0.021242518
-0.22900328 -0.64870608 0.021938879
-0.22175565 -0.64227247 0.021106735
-0.13648428 -0.64229786 0.021118375
-0.13111694 -0.64223605 0.021070531
-0.19366851 -0.64157736 0.021755084
-0.13913491 -0.64159179 0.021772215
-0.13480042 -0.64160651 0.021787222
-0.13336112 -0.64157498 0.021749292
-0.13983969 -0.63517392 0.021106081
-0.21495697 -0.63454974 0.021832062
-0.14663239 -0.63453931 0.021820242
-0.14238738 -0.63455546 0.021863306
-0.14095815 -0.63449746 0.021781882
-0.1517857 -0.6281926 0.021413771
-0.20147035 -0.62123275 0.021874761
-0.16171704 -0.62126118 0.021898568
-0.15290637 -0.62190104 0.021211533
-0.16756381 -0.61560571 0.021115381
-0.16069344 -0.61558849 0.021105524
-0.19585977 -0.6149928 0.021875478
-0.19157542 -0.60938168 0.02125241
-0.17200828 -0.60943258 0.021316294
-0.18525878 -0.60323095 0.021593085
-0.17846404 -0.6032244 0.021603083
0.19512194 -0.23530397 0.021532208
0.04424163 -0.095231488 0.021891864
0.045287132 -0.095218897 0.021893278
0.056118019 -0.095199637 0.021900333
-0.020691495 -0.080366068 0.021969056
-0.018987743 -0.080358222 0.021959454
-0.022807883 -0.079599917 0.021508107
-0.019878287 -0.079592682 0.021510059
-0.017459488 -0.079583295 0.021502934
-0.023797836 -0.078795657 0.021042112
-0.067417167 -0.063905507 0.021657968
-0.050385974 -0.063151971 0.021222269
-0.049832396 -0.063899234 0.021657033
-0.04776587 -0.063520908 0.021441666
-0.046447113 -0.063584343 0.021448651
-0.042925712 -0.063941471 0.021672238
0.065765493 -0.063091524 0.021234522
-0.056777958 -0.047332853 0.021976616
-0.0550524 -0.045844086 0.02114138
-0.066001922 -0.028266944 0.021670088
-0.13573064 -0.7092222 0.0221026
-0.12667601 -0.70925206 0.022138938
-0.13393943 -0.70845783 0.022633944
-0.13071112 -0.70845765 0.022659784
-0.079122916 -0.69805229 0.022969484
-0.078067504 -0.6988104 0.022426324
-0.076663867 -0.6988458 0.022481328
-0.23689853 -0.68923503 0.022576367
-0.13219158 -0.68922311 0.022543536
-0.097426914 -0.68044817 0.022407787
-0.096244365 -0.68045884 0.022402953
-0.094808459 -0.68045235 0.022398533
-0.10721324 -0.67173404 0.022513071
-0.2424524 -0.66336763 0.022554321
-0.24173902 -0.6637544 0.022280317
-0.11507574 -0.66376293 0.022288352
-0.11255512 -0.66306472 0.022906095
-0.11110321 -0.66376442 0.022273177
-0.11037645 -0.66305768 0.022899903
-0.11999672 -0.65588105 0.022321025
-0.12831639 -0.64800692 0.022548243
-0.13224952 -0.64799452 0.022546209
-0.22073044 -0.640939 0.022436008
-0.21966131 -0.64093316 0.022448137
-0.19122702 -0.64089811 0.022422636
-0.18897511 -0.64095402 0.022480639
-0.14359793 -0.63388932 0.02253042
-0.14860773 -0.62750453 0.02207545
-0.14568821 -0.62753898 0.02210821
-0.15300299 -0.62687331 0.022794373
-0.15792896 -0.62057436 0.022588665
-0.16409393 -0.61434871 0.022567321
-0.18992266 -0.60814285 0.022729026
-0.17364484 -0.60813493 0.022725515
-0.17258771 -0.60813862 0.022722196
-0.17006478 -0.60818839 0.022787185
-0.16892666 -0.60819548 0.022765746
-0.1797744 -0.59713745 0.022119951
-0.04791151 -0.066286981 0.022979775
-0.040010691 -0.066215977 0.022967566
-0.045554593 -0.064690664 0.022103919
-0.044456251 -0.064663768 0.022104815
0.067978993 -0.064681016 0.022116987
-0.13535944 -0.71817607 0.023181781
-0.13826004 -0.71742433 0.023718888
-0.13790333 -0.70774472 0.02323149
-0.13363722 -0.69809735 0.023038983
-0.13064593 -0.69809842 0.023027478
-0.12741096 -0.69807881 0.023006147
-0.080273859 -0.69727761 0.023512984
-0.078412935 -0.69731659 0.023543362
-0.24198 -0.68849432 0.023148643
-0.23512214 -0.68849713 0.023141082
-0.13360246 -0.6885078 0.023136633
-0.089309953 -0.68776059 0.0237104
-0.086421184 -0.68775398 0.023698512
-0.23236716 -0.67973691 0.02300182
-0.22948439 -0.67900032 0.023584804
-0.098466322 -0.67938304 0.023313172
-0.1054751 -0.67102605 0.02314917
-0.1036996 -0.67030919 0.023759305
-0.11408209 -0.66236085 0.023546724
-0.12404387 -0.6544224 0.023523519
-0.12046376 -0.65447873 0.023588941
-0.12940671 -0.64733231 0.023239966
-0.13527174 -0.64024591 0.023107262
-0.13775997 -0.63956904 0.023768825
-0.13631363 -0.63958186 0.023776064
-0.14470425 -0.63321167 0.023196392
-0.21301647 -0.63250804 0.023828164
-0.18592978 -0.63252884 0.023868559
-0.14253215 -0.6325593 0.023887265
-0.14980006 -0.6262266 0.023489822
-0.20049269 -0.61994082 0.02328922
-0.1597243 -0.61994314 0.023272362
-0.15869151 -0.61993134 0.023275208
-0.16884218 -0.61365348 0.023220344
-0.16718112 -0.61303777 0.02395566
-0.16524082 -0.6137194 0.023300266
-0.18852445 -0.60752028 0.023450583
-0.18034162 -0.60202736 0.023094356
-0.17642686 -0.60201043 0.023087202
-0.18122746 -0.6013872 0.023829063
-0.1787135 -0.60136104 0.023798639
-0.17462435 -0.60139853 0.023817936
0.19426727 -0.23009253 0.02362035
0.010558563 -0.11135887 0.023300678
-0.066428699 -0.067075081 0.023414491
-0.045661476 -0.067767031 0.023860026
-0.044118427 -0.067006841 0.023421725
-0.043484118 -0.067788601 0.023858411
-0.042342082 -0.067729622 0.023844887
-0.041319948 -0.067737445 0.023842599
-0.050616961 -0.066936038 0.023406364
-0.046261087 -0.066955335 0.023413766
-0.06541948 -0.032165933 0.023711029
-0.066709764 -0.031376544 0.023300827
-0.065628119 -0.031388488 0.023309465
-0.063907668 -0.031397492 0.023299128
-0.28313726 -0.70626801 0.024375673
-0.2816225 -0.70624143 0.024335807
-0.13895169 -0.70624083 0.024347842
-0.28027198 -0.70545399 0.024868621
-0.13423459 -0.69588131 0.024762785
-0.13288347 -0.69588232 0.024757873
-0.080675527 -0.69577968 0.024630107
-0.13000664 -0.68703979 0.024309434
-0.23693427 -0.68633461 0.024917005
-0.086819895 -0.68628699 0.024864452
-0.099542603 -0.67829376 0.024198838
-0.096024707 -0.67828327 0.024206623
-0.10028685 -0.67755157 0.024784444
-0.10769662 -0.66957456 0.024353808
-0.10692519 -0.668872 0.024961522
-0.10552382 -0.66888475 0.024978753
-0.11663337 -0.66091973 0.024763219
-0.1147759 -0.66094583 0.024806287
-0.11310341 -0.66094667 0.024793359
-0.12485511 -0.65371513 0.024162387
-0.1216421 -0.65340006 0.024519296
-0.2248752 -0.64593023 0.024505598
-0.13236693 -0.64593089 0.024504587
-0.12990952 -0.64593917 0.024532773
-0.14065506 -0.63887191 0.024409339
-0.13897586 -0.6388759 0.024418658
-0.14620169 -0.63186139 0.024547169
-0.14508353 -0.63186771 0.024537573
-0.15611023 -0.62487286 0.024850663
-0.16054966 -0.61931264 0.024017546
-0.20103498 -0.61864632 0.024697542
-0.16133107 -0.61866951 0.024733512
-0.19430731 -0.61242229 0.024724204
-0.16285348 -0.61243784 0.024708387
-0.17537686 -0.60631597 0.024968592
-0.17390554 -0.60624367 0.024889879
-0.17026387 -0.60630655 0.024959899
-0.17704514 -0.60076034 0.024561765
-0.038234204 -0.069325611 0.024707127
-0.040742382 -0.068528384 0.024280235
-0.039653212 -0.068553589 0.024281111
-0.038556661 -0.068513349 0.024266765
-0.036379203 -0.068606384 0.024257481
-0.055442791 -0.052746579 0.024922809
-0.0543315 -0.052774001 0.024931455
-0.056241244 -0.051176924 0.024077784
-0.059522193 -0.033700343 0.024517208
-0.056575626 -0.032940414 0.024108134
-0.27873641 -0.7047447 0.025438523
-0.081708089 -0.6950388 0.025184738
-0.078896202 -0.69506389 0.025238458
-0.13393444 -0.69438142 0.02587859
-0.13080847 -0.68556058 0.025463419
-0.091147549 -0.68556285 0.025455019
-0.089701593 -0.68558121 0.025475241
-0.10203557 -0.67684799 0.02538087
-0.11025984 -0.66813082 0.025543546
-0.10851607 -0.66812545 0.025568392
-0.11771011 -0.66022503 0.025386423
-0.23207383 -0.6524142 0.025536101
-0.12667726 -0.65238434 0.025503032
-0.13061228 -0.64525574 0.025172638
-0.21913309 -0.6382243 0.025098136
-0.13536532 -0.63823122 0.02511451
-0.19607739 -0.63752115 0.025751067
-0.13971515 -0.63752419 0.025747148
-0.1470506 -0.63119441 0.025241598
-0.2110099 -0.63046759 0.025839556
-0.15794463 -0.62421721 0.025536958
-0.15252484 -0.62425011 0.025575196
-0.16498101 -0.61797738 0.025370182
-0.15853947 -0.61798531 0.025383269
-0.15744582 -0.61799598 0.025392039
-0.17018226 -0.61181164 0.025466159
-0.17920138 -0.60015833 0.025305327
0.19441658 -0.23194365 0.025583355
-0.037207413 -0.07165543 0.025996026
-0.035384279 -0.071621113 0.025980217
0.070415214 -0.070841566 0.025611572
-0.056969535 -0.053473797 0.025342867
-0.055161759 -0.053550426 0.025351534
-0.27198938 -0.69364482 0.026442058
-0.13466926 -0.69364053 0.026438871
-0.083534904 -0.69359148 0.026398515
-0.082119167 -0.69356102 0.026341315
-0.080252215 -0.69281924 0.026897816
-0.092222899 -0.68482697 0.026028967
-0.088953361 -0.68485045 0.026065422
-0.13091484 -0.67613572 0.026010877
-0.098167561 -0.67612976 0.026007304
-0.10466968 -0.67540032 0.026614688
-0.1000089 -0.67538738 0.026586471
-0.098927975 -0.6753813 0.026581632
-0.11879434 -0.65955234 0.026062386
-0.11671593 -0.65880847 0.026633237
-0.12775493 -0.65169424 0.026144544
-0.12498532 -0.65167648 0.026161507
-0.12240066 -0.65164375 0.026092034
-0.12319216 -0.65092748 0.02671445
-0.22503333 -0.64383417 0.026431477
-0.19463049 -0.63685489 0.026417274
-0.14919175 -0.62983531 0.026533267
-0.15879124 -0.62356097 0.026218535
-0.15656388 -0.62356502 0.026227828
-0.16321965 -0.61730611 0.026053865
-0.16176912 -0.61734372 0.026100535
-0.19791964 -0.61671364 0.026802154
-0.19234399 -0.61050683 0.026852414
-0.16815424 -0.61047518 0.02682364
-0.17588632 -0.60503411 0.026398869
-0.17084849 -0.60501885 0.026386123
0.19227052 -0.24027957 0.026871609
0.1954774 -0.23257686 0.026257187
-0.034493711 -0.073244341 0.026875513
-0.031292539 -0.073119417 0.026881963
-0.024443336 -0.073103204 0.026918482
-0.031894162 -0.072421484 0.026450314
-0.021748705 -0.072339371 0.02648822
-0.0181603 -0.072338887 0.026503848
-0.038959231 -0.071688123 0.026018271
-0.033139139 -0.071692877 0.026002906
-0.059470233 -0.055845734 0.026607694
-0.1422289 -0.71215665 0.027553417
-0.13611199 -0.70250309 0.027131936
-0.27094114 -0.6921646 0.027575282
-0.26991317 -0.69216812 0.027584843
-0.13352747 -0.69216651 0.027583914
-0.085284233 -0.69213957 0.027560925
-0.083872855 -0.69214535 0.027570257
-0.1324088 -0.68341565 0.027273564
-0.092576198 -0.68337607 0.027208218
-0.09117917 -0.68336606 0.027203852
-0.093704216 -0.68264306 0.027805345
-0.10180212 -0.67466849 0.027177412
-0.10067523 -0.6746726 0.027178515
-0.1050325 -0.67395693 0.027808752
-0.10259037 -0.67394823 0.027798358
-0.11073297 -0.66598165 0.027381647
-0.10883002 -0.66599286 0.027390955
-0.11924429 -0.65813631 0.027320422
-0.22968012 -0.65024918 0.027384013
-0.12866694 -0.65026844 0.027393006
-0.12534553 -0.65029413 0.027423799
-0.2232745 -0.64320081 0.02714658
-0.13581237 -0.64323431 0.027172254
-0.13328914 -0.64317793 0.027120223
-0.13188092 -0.64317948 0.027125457
-0.13076319 -0.64317757 0.027112329
-0.21712416 -0.63619196 0.027113546
-0.19368619 -0.63618672 0.027107248
-0.19261554 -0.63621241 0.02714981
-0.19010971 -0.63613743 0.027060548
-0.16625603 -0.63615435 0.027075827
-0.14203326 -0.63613343 0.027042693
-0.14054134 -0.6361599 0.027066195
-0.13875744 -0.6361596 0.027065104
-0.19553925 -0.63549483 0.02776021
-0.19445385 -0.63547611 0.027728938
-0.19193593 -0.63553852 0.027808571
-0.18005002 -0.63545984 0.027710697
-0.17895852 -0.63547921 0.027735285
-0.1431336 -0.63551134 0.027789127
-0.2111516 -0.6291371 0.027199365
-0.1536601 -0.62919819 0.027268048
-0.14566971 -0.62919861 0.027271725
-0.15046503 -0.62853169 0.027956581
-0.14754388 -0.62851137 0.02792448
-0.14645435 -0.62852836 0.02794566
-0.15901504 -0.6222446 0.027618056
-0.15452614 -0.62226135 0.027630979
-0.19840035 -0.6160562 0.027510654
-0.16810195 -0.61603743 0.027491309
-0.16894709 -0.60988915 0.02759457
-0.18641913 -0.6043852 0.027090989
-0.17415343 -0.60439986 0.027117161
-0.031495407 -0.074662328 0.027755326
-0.027558155 -0.074594945 0.027767666
-0.011620591 -0.074642822 0.027808361
-0.010550239 -0.074633949 0.027806304
-0.0087869186 -0.074651256 0.027801167
-0.0062369299 -0.074645147 0.027801929
-0.005204984 -0.074627802 0.027798904
-0.0014804839 -0.07470198 0.0277944
0.0023886508 -0.074581005 0.027781896
-0.036097866 -0.073951766 0.027295571
-0.033907529 -0.073964715 0.027316283
-0.030687254 -0.073906377 0.027317656
-0.029963657 -0.073893398 0.027316656
-0.015154585 -0.073852696 0.027365826
-0.013330621 -0.073868878 0.027366171
-0.012185899 -0.073891386 0.027367879
-0.0094187036 -0.073869467 0.027365576
-0.0075473613 -0.073858678 0.027362602
-0.0054078088 -0.073872894 0.027364383
-0.0018052643 -0.073856272 0.02734472
-0.00067740359 -0.073934197 0.027358558
-0.056216799 -0.057423599 0.027471658
-0.053198189 -0.057384253 0.027459288
-0.051662117 -0.056590557 0.027031261
-0.068430185 -0.039970309 0.027760338
-0.062259506 -0.039967552 0.027765686
-0.068972096 -0.020808488 0.027932182
-0.13710137 -0.70101595 0.028254256
-0.078045964 -0.70102853 0.028268663
-0.079120658 -0.70024335 0.028765818
-0.13536699 -0.69142568 0.028139481
-0.086029962 -0.69139212 0.028125733
-0.082127243 -0.69136024 0.028094443
-0.26766554 -0.69069815 0.028743709
-0.087100431 -0.6906566 0.028697642
-0.084211111 -0.69066328 0.028703941
-0.080291808 -0.69059885 0.028616393
-0.094853036 -0.68192071 0.028424464
-0.11363532 -0.66458541 0.028637866
-0.10967291 -0.6645602 0.028609794
-0.12066581 -0.65673369 0.028568514
-0.11958893 -0.65672928 0.028563701
-0.11819445 -0.65673333 0.028569562
-0.12644076 -0.64960313 0.028061796
-0.12762579 -0.6488784 0.02868118
-0.12578203 -0.64890188 0.028696319
-0.13368878 -0.64182436 0.028440995
-0.13231872 -0.6418103 0.028437251
-0.18472302 -0.6348564 0.028472716
-0.15195391 -0.62785262 0.028602445
-0.20520797 -0.62158698 0.02831284
-0.15751724 -0.6215952 0.028301524
-0.15638237 -0.62159222 0.028296763
-0.1530997 -0.6216293 0.028361127
-0.15201348 -0.62163979 0.028359929
-0.16345885 -0.61539227 0.028190499
-0.16202171 -0.61535174 0.02816
-0.16601905 -0.61476284 0.028930496
-0.19145627 -0.60923088 0.028289549
-0.16978867 -0.6092729 0.028332893
-0.17719625 -0.60313123 0.028553642
-0.18146403 -0.59768069 0.028252015
-0.18034516 -0.59769481 0.028266041
0.19785196 -0.2414552 0.028142031
-0.030619416 -0.076261781 0.028646
-0.027416324 -0.076166928 0.02865959
-0.025212355 -0.076241039 0.028685013
-0.024417244 -0.076206401 0.028683351
-0.017970867 -0.076163039 0.028680015
-0.0078447992 -0.07619679 0.02867844
-0.02974101 -0.075504072 0.028213704
-0.016450293 -0.075388983 0.028240632
-0.053935409 -0.05969144 0.028720727
-0.051282078 -0.058919653 0.028296188
-0.055023625 -0.042297486 0.028977949
-0.059932426 -0.041563757 0.028580435
-0.058847431 -0.041557424 0.028575152
-0.28593469 -0.70915556 0.029739697
-0.1371856 -0.68997204 0.029338621
-0.090392597 -0.68918252 0.029841555
-0.13265727 -0.68121636 0.029031206
-0.096946523 -0.68120331 0.029007928
-0.09553393 -0.68119967 0.029012961
-0.094122872 -0.68118483 0.029007059
-0.10294243 -0.67251086 0.029012451
-0.25167087 -0.67179066 0.02961129
-0.10474709 -0.67179745 0.029615844
-0.1036429 -0.67179191 0.029607916
-0.11291001 -0.6638757 0.029250646
-0.11115018 -0.663854 0.029243011
-0.23639527 -0.65603524 0.029222885
-0.12114999 -0.65531629 0.029819299
-0.13013676 -0.64821094 0.029351411
-0.12873374 -0.64819545 0.029317776
-0.22807518 -0.64744049 0.029918315
-0.13882963 -0.64115298 0.029107204
-0.1360532 -0.64115161 0.029125459
-0.13416986 -0.64047647 0.029782889
-0.18698634 -0.63414687 0.02911099
-0.14538707 -0.6341567 0.029094663
-0.21482983 -0.63347578 0.029757366
-0.17652079 -0.63346863 0.029765649
-0.14614277 -0.63345456 0.029743422
-0.14326504 -0.63350272 0.02980556
-0.15555891 -0.62721509 0.029330332
-0.20776819 -0.62651587 0.029969392
-0.15316366 -0.62652802 0.029982034
-0.15202028 -0.62652934 0.029979603
-0.15028042 -0.62653089 0.029986406
-0.14844905 -0.62649226 0.029931216
-0.20237625 -0.62096214 0.02902431
-0.19645487 -0.61411482 0.0296285
-0.16935961 -0.6140576 0.02956504
-0.1903955 -0.60859567 0.029011318
-0.17543815 -0.60252792 0.029297149
-0.17926821 -0.6018526 0.029992247
0.20157257 -0.22867057 0.029722195
-0.024802864 -0.078411937 0.029973574
-0.023745032 -0.07845176 0.029986721
-0.030023217 -0.077012181 0.029088095
-0.020361936 -0.077701896 0.029567007
-0.027143674 -0.076932274 0.029101383
-0.026051369 -0.076962531 0.02911298
-0.022464145 -0.076916613 0.029112961
-0.021382187 -0.0769483 0.029126931
-0.050986033 -0.062018074 0.029989749
-0.056621511 -0.061246082 0.029574307
-0.053797439 -0.061246607 0.029558469
-0.057174418 -0.060469292 0.029158348
-0.051070649 -0.060528204 0.029154321
-0.059235249 -0.043881081 0.029786663
-0.081710041 -0.69718194 0.03091413
-0.085692763 -0.6884439 0.030417977
-0.086688578 -0.68770909 0.030978587
-0.083931193 -0.68769503 0.030983122
-0.099171117 -0.67902267 0.03077505
-0.098480061 -0.67974913 0.030191176
-0.0959187 -0.67973703 0.030179048
-0.25917101 -0.67894804 0.030690867
-0.10589704 -0.67106503 0.030216169
-0.10658015 -0.67034948 0.030803494
-0.1176682 -0.66242141 0.030463947
-0.11583339 -0.66244113 0.030496953
-0.1141081 -0.66243947 0.030486824
-0.23493388 -0.65462065 0.030452384
-0.12189945 -0.65459228 0.03041942
-0.13066351 -0.64679992 0.030640515
-0.13969322 -0.63976216 0.030407624
-0.21416914 -0.63277924 0.030421715
-0.14154814 -0.63277525 0.030425796
-0.17665887 -0.62580556 0.030595265
-0.16102433 -0.6196546 0.030409493
-0.16222754 -0.61343616 0.03029342
-0.18465808 -0.60187817 0.030006273
-0.17747723 -0.60124952 0.030742966
0.19454545 -0.23702905 0.030844726
0.19870844 -0.23702334 0.03080672
0.19580753 -0.23699723 0.030834168
-0.020220106 -0.07922373 0.030428542
-0.01773138 -0.079220742 0.030425124
-0.046184614 -0.063616462 0.030840909
-0.055120543 -0.04551319 0.030604955
-0.27439705 -0.69651586 0.031556096
-0.078384757 -0.69648921 0.031526212
-0.076912344 -0.69651812 0.031570841
-0.26736802 -0.68772447 0.031007446
-0.26589641 -0.68774885 0.03103406
-0.087487847 -0.68696457 0.031556014
-0.1337162 -0.67830545 0.031372108
-0.13230973 -0.67829448 0.03137137
-0.097466193 -0.67828017 0.03136351
-0.096347377 -0.67827231 0.031351242
-0.098142333 -0.67755646 0.031945739
-0.2484269 -0.66961223 0.031356584
-0.1095133 -0.66958696 0.031372376
-0.10764524 -0.66961622 0.031382378
-0.10485289 -0.66961497 0.031409323
-0.22975467 -0.66888463 0.031982187
-0.13320287 -0.6688481 0.031921949
-0.24182653 -0.66170812 0.031072002
-0.24043883 -0.66102397 0.03171714
-0.23826922 -0.6610322 0.031729992
-0.11151628 -0.66172969 0.031098073
-0.11656539 -0.6609965 0.031692654
-0.23571542 -0.65392226 0.031085894
-0.23423792 -0.65391189 0.031077387
-0.23349695 -0.65321201 0.031714872
-0.12596585 -0.65315568 0.031664848
-0.12235735 -0.65315694 0.031648844
-0.11902869 -0.65390533 0.031070668
-0.22705051 -0.64604861 0.031199057
-0.22636414 -0.64606303 0.031213589
-0.13100964 -0.64540178 0.03188853
-0.1895057 -0.639112 0.031105254
-0.18840575 -0.63912815 0.031121686
-0.18698271 -0.63912678 0.031097358
-0.17942661 -0.63908279 0.031088056
-0.13753568 -0.63910156 0.031086748
-0.13611887 -0.63909805 0.031073065
-0.21948488 -0.63842064 0.031726614
-0.20042968 -0.63835889 0.031689346
-0.19938099 -0.63837647 0.031713888
-0.19826445 -0.63838869 0.031716399
-0.19794145 -0.63837928 0.031718593
-0.19501747 -0.63840866 0.031741783
-0.19355203 -0.63840574 0.031733193
-0.19231424 -0.63836777 0.031691831
-0.19032691 -0.63838214 0.031706166
-0.18596911 -0.63842231 0.031765129
-0.18450443 -0.63836312 0.031692851
-0.17195612 -0.63841861 0.031745113
-0.16980541 -0.63839054 0.031706218
-0.16875543 -0.63838351 0.031723492
-0.16679096 -0.63837165 0.031686611
-0.15961607 -0.63840294 0.031742346
-0.17085855 -0.63207793 0.031058079
-0.14657617 -0.63210827 0.031092416
-0.14415388 -0.63212878 0.031107292
-0.21244681 -0.63136202 0.031684272
-0.17921937 -0.63137788 0.031692948
-0.20607936 -0.62518734 0.031337459
-0.15764798 -0.62516046 0.031305101
-0.15221472 -0.62519103 0.031350192
-0.15765151 -0.6244995 0.031988107
-0.20112012 -0.61897779 0.031081358
-0.18513402 -0.61898273 0.031079741
-0.16939187 -0.61832148 0.031767126
-0.16828518 -0.61832601 0.031788267
-0.16432007 -0.61827934 0.031727698
-0.16143447 -0.61835271 0.031813804
-0.1589807 -0.61830872 0.031772856
-0.19475786 -0.61280793 0.031020623
-0.1833286 -0.61214942 0.031736277
-0.17754228 -0.61213624 0.031712662
-0.16710906 -0.61213988 0.03171153
-0.16625144 -0.61281544 0.031021645
-0.16478711 -0.61281329 0.031055415
-0.17668328 -0.60609013 0.031932224
-0.17443857 -0.6066671 0.031138292
-0.17337202 -0.60667485 0.031152446
-0.1727328 -0.60604787 0.031872824
-0.171617 -0.6060679 0.031898528
-0.17077571 -0.60673487 0.031212093
-0.17973839 -0.60060149 0.03144867
-0.17798053 -0.60061306 0.031472161
0.19077305 -0.24459863 0.031542346
0.19247711 -0.23762529 0.031490523
0.19681197 -0.23764548 0.031471483
0.19932812 -0.229958 0.031023467
-0.049650535 -0.065096334 0.031674534
-0.048513941 -0.06517566 0.031682499
-0.04422107 -0.065130241 0.031685967
-0.051350668 -0.064343646 0.03125225
-0.050245035 -0.064297318 0.031249058
-0.046972319 -0.06440369 0.031261843
-0.045913927 -0.06431219 0.031256717
-0.062403683 -0.046236906 0.031013394
-0.05846937 -0.046189763 0.0310058
-0.053598054 -0.046972793 0.031407338
-0.068000741 -0.028730221 0.031814631
-0.064687409 -0.028743781 0.031825166
-0.064837016 -0.027931694 0.031438068
-0.28123027 -0.70457155 0.032954879
-0.2723355 -0.69502193 0.032674793
-0.27088544 -0.69501698 0.032684945
-0.26937157 -0.69505507 0.032730158
-0.080287389 -0.69494134 0.032589871
-0.079168379 -0.69496429 0.032615904
-0.078724273 -0.69497591 0.032621432
-0.091842689 -0.68623447 0.03213289
-0.088651866 -0.68621892 0.03213083
-0.25963649 -0.68553156 0.032761272
-0.089640908 -0.68550944 0.032718997
-0.087871611 -0.68547797 0.032694224
-0.23584186 -0.66818279 0.032601025
-0.23444855 -0.66817284 0.032580804
-0.13079515 -0.66813737 0.03255162
-0.102934 -0.66890508 0.032006137
-0.23068175 -0.66029721 0.032312114
-0.13396756 -0.66028732 0.03230055
-0.1194904 -0.6603117 0.032330334
-0.237959 -0.65960634 0.032957219
-0.23472036 -0.65951622 0.032865524
-0.23329423 -0.65955484 0.032900028
-0.22240975 -0.65959424 0.032923277
-0.13505167 -0.65956724 0.032897845
-0.12965484 -0.6595518 0.0329163
-0.11739034 -0.65956968 0.032908309
-0.11554616 -0.65956521 0.032916535
-0.11413047 -0.65959388 0.032957867
-0.11379157 -0.65957773 0.032937359
-0.23001473 -0.65242815 0.032255653
-0.12303908 -0.65243822 0.032251369
-0.22281344 -0.6517176 0.032900251
-0.12635934 -0.65177244 0.032944601
-0.12376218 -0.65173173 0.032872211
-0.13972761 -0.64474469 0.032563001
-0.12928055 -0.64471865 0.032551952
-0.2164024 -0.63765657 0.032317989
-0.20443663 -0.63771164 0.032364268
-0.20114201 -0.63772851 0.032381158
-0.19839048 -0.63768983 0.032369431
-0.19535367 -0.63772643 0.032378852
-0.19106236 -0.63769323 0.032363202
-0.18343446 -0.63766432 0.032318067
-0.14769994 -0.63772708 0.032376941
-0.14162011 -0.6376918 0.032353975
-0.13838324 -0.63771337 0.032388683
-0.21495007 -0.63697666 0.032974664
-0.19261639 -0.63074523 0.032408878
-0.16491529 -0.63073659 0.032422222
-0.14557084 -0.63075924 0.032420281
-0.14458939 -0.6307525 0.032419205
-0.20355827 -0.62452072 0.032003745
-0.19600807 -0.62451512 0.032015175
-0.1536178 -0.62453532 0.032025967
-0.15297584 -0.62452441 0.032017939
-0.20512813 -0.62385851 0.032692239
-0.20472308 -0.62385195 0.032685738
-0.19924742 -0.62383538 0.032681443
-0.19460928 -0.62384111 0.032689605
-0.18993069 -0.62383133 0.03268433
-0.16824572 -0.6238234 0.032648824
-0.15436977 -0.62388033 0.032738049
-0.16549177 -0.61764514 0.032439787
-0.16077079 -0.61769015 0.032488249
-0.15972194 -0.61767054 0.032471124
-0.18552439 -0.61148167 0.032412957
-0.17175907 -0.61156243 0.032471582
-0.16960174 -0.61148483 0.032417044
-0.16786917 -0.61146897 0.032380924
-0.16639252 -0.6115067 0.03242122
-0.18507533 -0.60541832 0.03259657
-0.17476477 -0.60540676 0.032587148
-0.1735204 -0.60538888 0.032564227
-0.18277586 -0.60000116 0.032211743
-0.18139504 -0.59936345 0.032915376
-0.18027373 -0.59938645 0.032939181
-0.1780318 -0.59998786 0.032197207
0.19285183 -0.2452243 0.032180615
-0.042358287 -0.067416273 0.032935113
-0.040859472 -0.066669688 0.032514449
-0.039780106 -0.066675164 0.032513238
-0.03868375 -0.066684999 0.032506518
-0.045781028 -0.065884225 0.032105003
-0.043625906 -0.0659196 0.032109812
-0.042466078 -0.065889552 0.032098431
-0.061504643 -0.049361397 0.032630984
-0.058589533 -0.049366456 0.032636475
-0.055698868 -0.049291883 0.032623064
-0.060940482 -0.030322742 0.032601722
-0.066167019 -0.029499155 0.032216165
-0.27210945 -0.70303214 0.03399365
-0.26632115 -0.69426376 0.03323115
-0.082380943 -0.69417787 0.033114053
-0.081293948 -0.69418108 0.033114009
-0.27054331 -0.69351161 0.033798393
-0.26240623 -0.69355243 0.033824753
-0.091711938 -0.69349629 0.033754427
-0.080632187 -0.69343084 0.03367779
-0.26339254 -0.68477225 0.033301957
-0.25089359 -0.68481684 0.033339813
-0.095057495 -0.6847614 0.033272233
-0.093922108 -0.68401819 0.033829112
-0.091858625 -0.68400657 0.033830572
-0.090707958 -0.68476284 0.033281542
-0.088961065 -0.68475968 0.033279624
-0.24966648 -0.67607093 0.033100683
-0.24393336 -0.67601681 0.033034835
-0.09956643 -0.67607349 0.033096801
-0.098421611 -0.67609358 0.033111207
-0.25365135 -0.67538476 0.033732966
-0.10202154 -0.67535698 0.033674251
-0.10026392 -0.67534095 0.033675969
-0.23697023 -0.66744292 0.033191029
-0.23304817 -0.66738486 0.033124022
-0.13372025 -0.66739005 0.033134427
-0.10986698 -0.66741902 0.033156551
-0.10805527 -0.66742277 0.033165172
-0.10625941 -0.66745287 0.03318115
-0.24282034 -0.66674626 0.033831008
-0.23809694 -0.6666671 0.033729542
-0.13111769 -0.66667968 0.03372528
-0.10918448 -0.666695 0.033759322
-0.13618685 -0.65886229 0.033533528
-0.11843526 -0.65887797 0.033538729
-0.11670443 -0.65883803 0.033513673
-0.23108435 -0.65103954 0.033546876
-0.14698026 -0.65105683 0.033543807
-0.14409775 -0.65108633 0.033576999
-0.13109553 -0.6510579 0.033530574
-0.12463043 -0.65101761 0.033512924
-0.20981041 -0.6440196 0.033165798
-0.20550467 -0.64403152 0.033185489
-0.13583837 -0.64400512 0.033168491
-0.13144882 -0.64400208 0.033152942
-0.22498435 -0.64398134 0.033122666
-0.223396 -0.64333951 0.033830464
-0.21643591 -0.6433261 0.033831883
-0.21495447 -0.64332467 0.033815011
-0.21344249 -0.64334005 0.033814825
-0.21098976 -0.64330798 0.033810835
-0.20844705 -0.64331633 0.03380486
-0.20631589 -0.64331847 0.033822093
-0.14775461 -0.64331585 0.033824764
-0.14201005 -0.64331567 0.033815943
-0.14050829 -0.64333326 0.033821944
-0.13695341 -0.64333951 0.033846375
-0.13440424 -0.64330274 0.033801045
-0.13336389 -0.64329195 0.03379361
-0.13226283 -0.64329731 0.033809114
-0.2176176 -0.6370337 0.033029139
-0.20307848 -0.63702035 0.033034515
-0.14091927 -0.63701403 0.033013806
-0.13940772 -0.63701516 0.033005353
-0.21325265 -0.63634706 0.033699758
-0.14607468 -0.63636011 0.033709172
-0.14455874 -0.63635856 0.033721112
-0.21108548 -0.63002807 0.033036545
-0.19528159 -0.63003939 0.033060391
-0.17026009 -0.63002849 0.033035345
-0.15941338 -0.63006926 0.033089325
-0.14639562 -0.6300832 0.033109095
-0.20068017 -0.62938851 0.033737518
-0.14936511 -0.62936401 0.033717241
-0.14824305 -0.62940139 0.03376982
-0.20044217 -0.62315744 0.03333642
-0.19782767 -0.6231792 0.033350363
-0.18669832 -0.62319463 0.033386614
-0.1592681 -0.62316054 0.033336893
-0.1563289 -0.62316275 0.033346038
-0.16655512 -0.62246108 0.033985622
-0.18577105 -0.61700457 0.033164434
-0.16661957 -0.61700916 0.033161048
-0.16192694 -0.61700404 0.033184566
-0.19774368 -0.61667573 0.033523414
-0.19627896 -0.61633253 0.033840287
-0.19479989 -0.6163466 0.033842698
-0.19128609 -0.61634153 0.033854827
-0.18693149 -0.61698532 0.033159118
-0.18438755 -0.61632842 0.033825878
-0.18330377 -0.61636353 0.033870026
-0.17754219 -0.61635429 0.033873711
-0.17641519 -0.61638457 0.03390383
-0.17537175 -0.61639374 0.033911385
-0.1742927 -0.61637217 0.03388894
-0.16266884 -0.61663747 0.033467382
-0.1924631 -0.61086321 0.033138599
-0.18863384 -0.61021894 0.033858676
-0.18388928 -0.61020613 0.033844195
-0.18277791 -0.61021554 0.033846453
-0.17835775 -0.6108799 0.03315796
-0.17727762 -0.61084414 0.033115085
-0.17589313 -0.61020744 0.033839423
-0.17225136 -0.6109187 0.033202451
-0.16935119 -0.61020011 0.033831883
-0.16855986 -0.6108247 0.033094205
-0.18013832 -0.60476708 0.03330851
-0.1573672 -0.57750976 0.033701982
-0.040504161 -0.069026999 0.033778191
-0.036856491 -0.069052123 0.033747375
-0.035794988 -0.069020033 0.033735376
-0.044240851 -0.068234272 0.033367548
-0.043172117 -0.068188675 0.033357702
-0.042617138 -0.068978645 0.033777885
-0.041609775 -0.068987943 0.033777103
-0.038908377 -0.068196915 0.033342693
-0.037107572 -0.068282969 0.033331662
-0.058281489 -0.05019629 0.033044923
-0.27868751 -0.70229679 0.034552392
-0.27160203 -0.69277322 0.03435643
-0.26836511 -0.69203752 0.034934003
-0.26720321 -0.69272381 0.034285564
-0.2641412 -0.69202608 0.034904219
-0.084527269 -0.69274515 0.03432484
-0.083111048 -0.69269073 0.034264538
-0.26023448 -0.69197434 0.034870401
-0.092458174 -0.69199955 0.034873702
-0.086325057 -0.69199878 0.034874901
-0.083749332 -0.69198418 0.034862261
-0.26157749 -0.68322945 0.034402199
-0.25998083 -0.6832819 0.034436628
-0.25749451 -0.68331838 0.034465082
-0.25598463 -0.68325669 0.03439359
-0.25212961 -0.68332666 0.034500472
-0.25054991 -0.6833303 0.034485653
-0.097579412 -0.68329686 0.034449693
-0.09272629 -0.68326974 0.034401789
-0.24789782 -0.67464685 0.034296274
-0.24465582 -0.67462188 0.034287129
-0.13309082 -0.67462426 0.034273684
-0.13162461 -0.67463923 0.034289416
-0.10279825 -0.67461932 0.0342643
-0.10099297 -0.6746127 0.034261726
-0.24612127 -0.67391235 0.034883823
-0.13390164 -0.673868 0.034843832
-0.11069637 -0.67389208 0.034855172
-0.10377771 -0.6738866 0.034871563
-0.10277627 -0.67388958 0.034851234
-0.1017161 -0.67388707 0.034850053
-0.24545303 -0.66593766 0.034334671
-0.2438115 -0.66599935 0.034379505
-0.23913859 -0.66524488 0.034966428
-0.23338185 -0.66528714 0.034987286
-0.23122223 -0.66594863 0.034327101
-0.13512456 -0.66526955 0.034960516
-0.1340853 -0.66563296 0.034693941
-0.12252512 -0.66528934 0.034991443
-0.12112535 -0.66525406 0.034944598
-0.11969057 -0.66525578 0.034963295
-0.11819097 -0.6652745 0.034997568
-0.11215408 -0.66526103 0.034973718
-0.11185125 -0.66524559 0.034961086
-0.11030212 -0.66561443 0.034653239
-0.23764594 -0.65817255 0.034174863
-0.2358246 -0.65815681 0.034173239
-0.23006335 -0.65817046 0.034176677
-0.2286745 -0.65814137 0.034153752
-0.22324738 -0.6581493 0.034148797
-0.22071016 -0.65813786 0.03416254
-0.13692421 -0.65815014 0.034166094
-0.12679279 -0.65811348 0.034104414
-0.1257222 -0.65811449 0.03410488
-0.12472341 -0.65814155 0.034158912
-0.12137487 -0.65816891 0.034181077
-0.23408061 -0.65737319 0.034703635
-0.22439395 -0.65743494 0.034778964
-0.12321872 -0.65744781 0.03477462
-0.11998065 -0.65745223 0.034794118
-0.11888435 -0.65745324 0.034790132
-0.1174267 -0.65742797 0.034751605
-0.22939476 -0.65030092 0.034120616
-0.22499475 -0.65037686 0.034194034
-0.22111575 -0.65037066 0.034205798
-0.21964599 -0.65036029 0.034183986
-0.21304817 -0.65035975 0.034168724
-0.13655968 -0.65033329 0.034162071
-0.13544078 -0.65033215 0.034148823
-0.12673925 -0.65035826 0.034166761
-0.22762178 -0.64964902 0.034809623
-0.22606084 -0.64967847 0.034817487
-0.21677029 -0.6496594 0.034815002
-0.21533708 -0.64962888 0.034780644
-0.21383415 -0.64964098 0.034805275
-0.14237674 -0.64966822 0.034817431
-0.13867182 -0.64964741 0.034797762
-0.13298395 -0.64963907 0.03480849
-0.12934269 -0.64964712 0.034784
-0.12828398 -0.6496495 0.034794375
-0.21895315 -0.64256114 0.034389973
-0.21209159 -0.64261717 0.034468465
-0.15863229 -0.64263225 0.034479674
-0.15140803 -0.64262879 0.034459744
-0.1434136 -0.6426267 0.034449097
-0.13552156 -0.64262962 0.034464814
-0.13439561 -0.64261341 0.03444377
-0.21578613 -0.63562816 0.034301579
-0.21146171 -0.63565093 0.034332182
-0.20748523 -0.63562447 0.034303136
-0.20486806 -0.63564795 0.034317385
-0.1934146 -0.63567579 0.034387577
-0.1663094 -0.63562864 0.034304202
-0.1557962 -0.63565999 0.034349103
-0.142112 -0.63560307 0.034286197
-0.14176491 -0.63560736 0.034286611
-0.21437527 -0.63490456 0.034929335
-0.20357548 -0.63495517 0.034972444
-0.18950103 -0.63493621 0.034975052
-0.14895788 -0.6349619 0.034994915
-0.14783935 -0.63496858 0.034985326
-0.21011618 -0.62866676 0.034388732
-0.20868096 -0.62872416 0.034426518
-0.20433739 -0.62870872 0.034426823
-0.20174825 -0.62872005 0.034407679
-0.19600856 -0.62871528 0.034418732
-0.19498417 -0.62868446 0.03439172
-0.16094433 -0.62870353 0.034395419
-0.15691784 -0.62874722 0.034459833
-0.15087639 -0.62872499 0.034438629
-0.20298645 -0.62251651 0.034043524
-0.19903731 -0.62250507 0.034035768
-0.19439489 -0.62249821 0.034027625
-0.19075748 -0.6224944 0.034037925
-0.164409 -0.62253916 0.034079757
-0.16221724 -0.62251925 0.034026787
-0.16013125 -0.62250173 0.034047037
-0.1571009 -0.62248939 0.034028791
-0.1951974 -0.62183893 0.034731369
-0.19296508 -0.62185514 0.03473074
-0.17279755 -0.62181759 0.034695774
-0.17018223 -0.62184453 0.034744285
-0.16768801 -0.62183344 0.034695197
-0.16302952 -0.62186748 0.034747023
-0.15786621 -0.62181985 0.03469016
-0.19346698 -0.61567795 0.034532946
-0.19237988 -0.61569172 0.034538154
-0.18876135 -0.61568451 0.034545098
-0.18773502 -0.61565465 0.034518287
-0.18193638 -0.61572951 0.034601465
-0.18085572 -0.61567092 0.034537394
-0.17072417 -0.61563766 0.03448512
-0.16967969 -0.61565739 0.034500267
-0.16859175 -0.61567461 0.034523714
-0.16517031 -0.61568987 0.034539044
-0.19075911 -0.60957253 0.034540027
-0.18723695 -0.60956156 0.034538101
-0.18137269 -0.60956991 0.03454569
-0.17454503 -0.60956341 0.034540173
-0.17341051 -0.60960329 0.034590568
-0.17231096 -0.60961896 0.034606639
-0.1712625 -0.60961622 0.034600213
-0.18589829 -0.60415167 0.034021039
-0.18485603 -0.6041491 0.034036878
-0.17795514 -0.60414046 0.034016512
-0.17545551 -0.60418928 0.034082685
-0.18348123 -0.60350376 0.034748264
-0.18232583 -0.60352802 0.034753378
-0.035769269 -0.071360849 0.034994796
-0.037124559 -0.070583679 0.034583889
-0.036051229 -0.070544422 0.0345704
-0.039068419 -0.06984219 0.034191661
-0.054768287 -0.052481342 0.03425929
-0.27866739 -0.70154959 0.035110347
-0.27292863 -0.70156598 0.035121549
-0.26774377 -0.70159101 0.035142586
-0.27398506 -0.70081836 0.035673302
-0.26986134 -0.70079952 0.035655856
-0.25730592 -0.69131625 0.035495527
-0.088463359 -0.69124895 0.035429198
-0.084870413 -0.69125265 0.035434853
-0.090623103 -0.69050378 0.03598237
-0.087055378 -0.69050252 0.035992209
-0.26265538 -0.68258816 0.035061836
-0.25996643 -0.68254501 0.035007443
-0.25852853 -0.68256962 0.035030987
-0.24877548 -0.68253428 0.035006851
-0.09620779 -0.68254393 0.035021573
-0.095072657 -0.68254757 0.035006806
-0.25564566 -0.68182272 0.035562068
-0.25417128 -0.68176877 0.03554159
-0.25274864 -0.681826 0.035591092
-0.24706826 -0.68175781 0.035523474
-0.09616182 -0.68180555 0.035587039
-0.093230531 -0.68180323 0.03554491
-0.25009793 -0.67310178 0.035392068
-0.24862336 -0.673141 0.035422016
-0.1320423 -0.67316645 0.03544762
-0.12370094 -0.67314333 0.035429116
-0.11511939 -0.67313522 0.035411354
-0.24255513 -0.67235988 0.035959959
-0.24109219 -0.67238086 0.035964631
-0.13423097 -0.6723879 0.035985235
-0.22950161 -0.66528124 0.035000589
-0.24348469 -0.66453803 0.035576589
-0.2421031 -0.664581 0.035611793
-0.11649035 -0.66455477 0.035590202
-0.11463133 -0.66455358 0.035576083
-0.11318976 -0.66454917 0.03557355
-0.23227838 -0.65668052 0.035321135
-0.23081195 -0.65674686 0.03538844
-0.13373712 -0.65600336 0.035969999
-0.13264491 -0.65670294 0.035360064
-0.13079545 -0.65601784 0.035993747
-0.12176421 -0.65674275 0.035399333
-0.11998793 -0.65673214 0.035399605
-0.2337103 -0.65596795 0.035955239
-0.13840194 -0.65598834 0.035965178
-0.13731486 -0.65599447 0.03598037
-0.12726083 -0.65595257 0.035933428
-0.12404856 -0.65599108 0.035982449
-0.22330672 -0.64892703 0.035405852
-0.21141289 -0.64894187 0.035423845
-0.14102592 -0.64895421 0.035455585
-0.13730459 -0.64892119 0.035409834
-0.13151096 -0.64895302 0.035448585
-0.12937522 -0.64893788 0.035405103
-0.12758939 -0.6489501 0.035429668
-0.22147666 -0.64195144 0.035120919
-0.22007723 -0.64194512 0.035101775
-0.21721999 -0.64118308 0.035710447
-0.21578574 -0.64123976 0.035748396
-0.21320871 -0.64194328 0.035107777
-0.21033464 -0.64122033 0.035726041
-0.20917593 -0.6419332 0.035088409
-0.20781776 -0.6412251 0.035727613
-0.20310906 -0.64156687 0.035406318
-0.16046685 -0.64124262 0.035750274
-0.14970021 -0.64125639 0.035760079
-0.14711757 -0.64125288 0.035772782
-0.14603168 -0.64189422 0.035051886
-0.14019865 -0.64194244 0.035109174
-0.13875204 -0.64195532 0.035116609
-0.13735116 -0.64126444 0.035763342
-0.13665843 -0.64194059 0.035113223
-0.14428401 -0.63500416 0.035033643
-0.21264693 -0.6342712 0.035638753
-0.21122973 -0.63428324 0.035645004
-0.20969658 -0.63427794 0.035638344
-0.20574696 -0.63426661 0.035630018
-0.20221542 -0.63426638 0.035647117
-0.20110524 -0.63425946 0.035622351
-0.19997881 -0.63428497 0.03564658
-0.18589175 -0.63430959 0.035691857
-0.16344665 -0.63425761 0.035620041
-0.15877208 -0.63428169 0.03564965
-0.15443018 -0.63428295 0.03566239
-0.15254465 -0.63425297 0.03559706
-0.15077928 -0.63428557 0.035650343
-0.14684892 -0.63497663 0.035002328
-0.1458239 -0.63497734 0.035005525
-0.20877026 -0.62805349 0.035106342
-0.2069255 -0.62805289 0.035097603
-0.2029177 -0.62802738 0.035071518
-0.16826703 -0.62804115 0.035108455
-0.16296682 -0.62801993 0.035074715
-0.16176647 -0.62802923 0.035066292
-0.15770902 -0.62806201 0.035120819
-0.15486747 -0.62804437 0.035092283
-0.15305218 -0.6280486 0.035094887
-0.15232047 -0.62804508 0.035096448
-0.20412728 -0.62737471 0.035775967
-0.20009065 -0.62735385 0.035738993
-0.19900481 -0.62736696 0.035744213
-0.19329973 -0.62734449 0.035750125
-0.16686566 -0.6273967 0.035786923
-0.1636849 -0.62736559 0.035743397
-0.1585571 -0.6273399 0.035739999
-0.20125997 -0.62119216 0.035394434
-0.19984797 -0.62117159 0.035388131
-0.19730473 -0.62117493 0.035387013
-0.18791905 -0.62117201 0.035393234
-0.16877986 -0.62118292 0.035391953
-0.15987186 -0.62116379 0.035402082
-0.15871991 -0.62116081 0.035385493
-0.19458622 -0.61501795 0.035233736
-0.19104005 -0.61503077 0.035246033
-0.18637577 -0.61501193 0.035235148
-0.17295085 -0.61504686 0.035270054
-0.16606826 -0.61503947 0.0352576
-0.19578674 -0.61435068 0.03590155
-0.19317415 -0.61437124 0.035915278
-0.18964946 -0.61436594 0.035932988
-0.188493 -0.61439085 0.03593779
-0.18383798 -0.61436605 0.03591698
-0.1827015 -0.61439013 0.035935916
-0.18171476 -0.61440229 0.035982512
-0.17811911 -0.61435002 0.035918362
-0.17738292 -0.61436689 0.035930488
-0.17586108 -0.61440837 0.035968989
-0.17483078 -0.61440909 0.035980791
-0.16722232 -0.61437315 0.035925612
-0.19080579 -0.60892832 0.035246845
-0.18945169 -0.60859513 0.035595879
-0.18812063 -0.60826111 0.03594837
-0.18473373 -0.608899 0.035231404
-0.18341841 -0.60824847 0.03593576
-0.17994681 -0.60893339 0.035250258
-0.17894085 -0.608944 0.035279784
-0.17787409 -0.60897243 0.035305921
-0.18100488 -0.60283703 0.035432421
-0.17851765 -0.60285699 0.035459183
0.19500904 -0.23449674 0.035517849
0.20053856 -0.23442489 0.035460271
-0.033446103 -0.072917521 0.035866242
-0.031884786 -0.072095565 0.035446573
-0.010260664 -0.072063297 0.035494179
-0.004864546 -0.072067261 0.03548678
-0.0037676406 -0.072076589 0.035494082
0.00088309462 -0.07208477 0.035469595
-0.03463459 -0.071406826 0.035008378
-0.03353801 -0.071392544 0.035016414
-0.057270981 -0.054817952 0.035470985
-0.27515483 -0.70005196 0.036197875
-0.27615133 -0.69929415 0.036738794
-0.2680285 -0.69931674 0.036764607
-0.26234597 -0.69057548 0.036073908
-0.26451677 -0.68976086 0.036564078
-0.2609182 -0.68981451 0.036598474
-0.25948095 -0.68973941 0.03653232
-0.091692865 -0.68976748 0.036553685
-0.088088296 -0.68975627 0.036542382
-0.10121558 -0.68109226 0.036178321
-0.096850857 -0.68108386 0.036169395
-0.25638592 -0.68037379 0.036756661
-0.25101975 -0.68037212 0.036767606
-0.10192137 -0.6803481 0.036736533
-0.099797025 -0.68035209 0.036749732
-0.098773822 -0.68033242 0.036742553
-0.097591065 -0.68034369 0.036737707
-0.25118345 -0.67244631 0.036042362
-0.13286269 -0.6724121 0.036029335
-0.1075333 -0.67243898 0.036051866
-0.10646006 -0.67242998 0.036048763
-0.10426731 -0.67242932 0.036043596
-0.24392749 -0.67172784 0.036644794
-0.23927289 -0.67171711 0.036618304
-0.11799375 -0.67170179 0.036610067
-0.11480509 -0.67166442 0.03657895
-0.11157586 -0.67166454 0.036604341
-0.10858338 -0.67170173 0.036613729
-0.10750569 -0.67171276 0.036638699
-0.23848721 -0.66310567 0.03679128
-0.23709559 -0.66376418 0.036111217
-0.2356519 -0.66381866 0.036174919
-0.23408963 -0.66384906 0.036182743
-0.23166952 -0.66380137 0.036144041
-0.22882058 -0.66309732 0.036776856
-0.22740832 -0.66310591 0.036781456
-0.22587003 -0.66310406 0.036774959
-0.13595095 -0.66382498 0.036168709
-0.1276101 -0.66382378 0.036170114
-0.12618417 -0.66311944 0.036796123
-0.12503737 -0.66312611 0.036798052
-0.1243049 -0.66384476 0.036194041
-0.12295406 -0.66311669 0.036802981
-0.12042511 -0.66309053 0.036748167
-0.11901785 -0.6630795 0.036751475
-0.1179138 -0.66380948 0.036171429
-0.11471041 -0.66346931 0.036478918
-0.23512909 -0.65604323 0.036027551
-0.22113684 -0.65601832 0.036000881
-0.1283659 -0.65600091 0.036013108
-0.12176855 -0.65603614 0.036019709
-0.22906792 -0.65531188 0.036626574
-0.2276717 -0.65530372 0.036606867
-0.2262205 -0.6552248 0.036534794
-0.22370407 -0.65529537 0.036614571
-0.22225976 -0.65530169 0.036618687
-0.21977296 -0.65530068 0.036632046
-0.21573451 -0.6552816 0.03659283
-0.13920417 -0.65526468 0.036594674
-0.13598219 -0.65528423 0.036625791
-0.12578642 -0.65524971 0.036547665
-0.12255272 -0.65530002 0.036609847
-0.22433712 -0.64824754 0.036059249
-0.22047178 -0.64823949 0.036064588
-0.21905695 -0.64824986 0.036070038
-0.14461772 -0.64824533 0.036079515
-0.1431303 -0.64826119 0.036084209
-0.13592006 -0.64821029 0.036037616
-0.13477696 -0.64822078 0.03603325
-0.1303038 -0.64823961 0.036046229
-0.22695468 -0.64751476 0.036660846
-0.22547458 -0.64755839 0.036694538
-0.22154935 -0.64748085 0.036633763
-0.21718992 -0.64754081 0.036689956
-0.21323977 -0.6475296 0.036680993
-0.14562659 -0.6475305 0.036669504
-0.14391781 -0.64753777 0.036699656
-0.13337325 -0.6475181 0.036660917
-0.13232197 -0.64752865 0.036683731
-0.21401681 -0.64054966 0.036392834
-0.21153025 -0.64054877 0.036405578
-0.19845848 -0.64053333 0.036368497
-0.19488126 -0.64052176 0.036373965
-0.17005832 -0.64051634 0.036370043
-0.16479896 -0.64055955 0.036416706
-0.16369551 -0.6405676 0.036421835
-0.15654346 -0.64050347 0.036325257
-0.1547085 -0.64054441 0.036397912
-0.15366554 -0.64054739 0.03640005
-0.14822708 -0.64056975 0.036411021
-0.14275548 -0.64053041 0.036363479
-0.14139335 -0.64053136 0.036367621
-0.13851221 -0.64056021 0.036400501
-0.19778804 -0.63982588 0.036991931
-0.14541364 -0.63980919 0.036981463
-0.14398925 -0.63981801 0.036984928
-0.20685016 -0.63358134 0.036277622
-0.2043049 -0.63358563 0.036276273
-0.19857424 -0.6335578 0.036263525
-0.18774378 -0.63358736 0.036301792
-0.16860789 -0.63359421 0.03627497
-0.15947203 -0.63361847 0.036330625
-0.15772571 -0.63359547 0.036304079
-0.21234785 -0.63287926 0.036936935
-0.21093328 -0.63290304 0.036954775
-0.20945391 -0.63290077 0.03693822
-0.20794259 -0.63291556 0.036937766
-0.1780228 -0.63290298 0.036932159
-0.19540042 -0.62670529 0.036427036
-0.16554505 -0.6267063 0.036432382
-0.16446628 -0.62667775 0.036400735
-0.16037735 -0.62666529 0.036400724
-0.20137197 -0.62052035 0.036086362
-0.19849917 -0.62049431 0.036071021
-0.19595781 -0.6205017 0.036064662
-0.19126727 -0.62048036 0.036053341
-0.19024573 -0.62047613 0.036053825
-0.17323676 -0.62046039 0.036018848
-0.16382556 -0.62052637 0.036110193
-0.19464375 -0.61982077 0.036745563
-0.19238687 -0.61985201 0.036763266
-0.17016044 -0.61366373 0.036556244
-0.16914476 -0.61366123 0.036559999
-0.18557617 -0.60764265 0.03666959
-0.18448243 -0.60762894 0.036665499
-0.18089567 -0.60763335 0.036667742
-0.17981061 -0.60761505 0.036638059
0.19814587 -0.24269082 0.036642719
0.19997711 -0.24271944 0.036649432
0.20103544 -0.24270682 0.036647324
-0.03365694 -0.074444339 0.036715057
-0.027538039 -0.074371301 0.036731731
-0.024573879 -0.074455462 0.036764678
-0.023549918 -0.074357331 0.03674287
-0.034273446 -0.073685296 0.036285456
-0.032118365 -0.07362102 0.036283512
-0.031106202 -0.073645376 0.036283869
-0.0075645098 -0.073622093 0.036332097
-0.0021459321 -0.073642701 0.036319666
-0.05573009 -0.057109922 0.036701731
-0.053636685 -0.057135217 0.036690053
-0.052563746 -0.057131931 0.036682982
-0.06145246 -0.038171586 0.036496975
-0.060367037 -0.038171895 0.036496665
-0.054312799 -0.038935859 0.036885194
-0.27035886 -0.69847816 0.037247054
-0.26513636 -0.69855231 0.03726479
-0.079674162 -0.698524 0.037252456
