# .PCD v0.7 - Point Cloud Data file format
VERSION 0.7
FIELDS x y z
SIZE 4 4 4
TYPE F F F
COUNT 1 1 1
WIDTH 1340
HEIGHT 1
VIEWPOINT 0 0 0 1 0 0 0
POINTS 1340
DATA ascii
-0.2692177 -0.61256653 0.045142755
-0.22509226 -0.62126189 0.042707324
-0.21901497 -0.62332815 0.042474154
-0.21732071 -0.62393546 0.042449832
-0.22559254 -0.62031108 0.043333203
-0.2218319 -0.62165171 0.043240141
-0.21912538 -0.62252283 0.043089934
-0.2187767 -0.6226474 0.043082748
-0.27099007 -0.59825438 0.044094168
-0.2248009 -0.61413467 0.042567704
-0.22390984 -0.61443889 0.042521168
-0.23191112 -0.60451204 0.042859573
-0.22921522 -0.6054039 0.042731628
-0.22883509 -0.60557634 0.042765088
-0.24033524 -0.58885372 0.042573318
-0.28749013 -0.57189727 0.044828933
-0.26905492 -0.57822651 0.044172872
-0.26699504 -0.57893741 0.044114899
-0.25744599 -0.58219987 0.043760464
-0.2401842 -0.58817464 0.043248706
-0.25909579 -0.5760594 0.043177933
-0.25221366 -0.57837957 0.04288898
-0.30400842 -0.55505443 0.044168502
-0.24449454 -0.57556927 0.042203639
-0.24384455 -0.57578766 0.042185418
-0.3180978 -0.54950184 0.045323845
-0.29186529 -0.55849522 0.044415258
-0.26800844 -0.56674707 0.043660268
-0.27037069 -0.56032413 0.043317221
-0.25840947 -0.56452239 0.042977784
-0.25808561 -0.5646264 0.042966664
-0.25119516 -0.56699294 0.042731199
-0.26527005 -0.55663502 0.042981088
-0.25942254 -0.55868489 0.042811431
-0.28918058 -0.54300314 0.043767821
-0.28880498 -0.54310977 0.043742545
-0.25778162 -0.55375755 0.042680044
-0.25744623 -0.55387092 0.042659286
-0.25645176 -0.55418909 0.04263597
-0.26854879 -0.54526037 0.042367458
-0.30280164 -0.53280008 0.044245187
-0.29738006 -0.53468931 0.044048663
-0.29227304 -0.53644663 0.043901678
-0.27693522 -0.54179263 0.043456823
-0.27424276 -0.54265916 0.043321103
-0.26877752 -0.54458451 0.04317645
-0.26329565 -0.54639137 0.042916298
-0.26229352 -0.54673755 0.042885285
-0.32360137 -0.52097195 0.04447037
-0.31134772 -0.52517807 0.044057731
-0.31102151 -0.52529383 0.044062927
-0.30453944 -0.52754736 0.043850444
-0.29595849 -0.53047228 0.043534685
-0.28027338 -0.53587383 0.04302229
-0.27585548 -0.5374307 0.042903267
-0.32730791 -0.51499665 0.044210616
-0.31700298 -0.5185076 0.04384052
-0.30378222 -0.52301794 0.043381117
-0.29482633 -0.52610606 0.043069951
-0.28910255 -0.52810359 0.042895004
-0.27886236 -0.53164345 0.042588692
-0.26979375 -0.53476131 0.042284973
-0.27001828 -0.5300374 0.042065371
-0.32113633 -0.51176041 0.044488069
-0.29301232 -0.521438 0.043555867
-0.28283972 -0.52493507 0.043227144
-0.27902043 -0.52628368 0.04311401
-0.27151284 -0.52879727 0.042800941
-0.27019358 -0.52929634 0.042800933
-0.31493777 -0.50987464 0.043357655
-0.30947131 -0.51176041 0.043180443
-0.3088786 -0.51201063 0.043207336
-0.29665115 -0.51614541 0.042734854
-0.29556918 -0.51653481 0.04270028
-0.28729433 -0.51935953 0.042411499
-0.2869572 -0.51946831 0.04239472
-0.27229711 -0.52451932 0.041908473
-0.32549781 -0.50560689 0.044500556
-0.30945078 -0.51112807 0.043952547
-0.28180766 -0.52064729 0.043024145
-0.33508354 -0.49830815 0.044025112
-0.33446175 -0.49854583 0.044005796
-0.32896248 -0.50044227 0.043820642
-0.32774314 -0.50081176 0.043743238
-0.32687634 -0.50114727 0.043742687
-0.324682 -0.50189662 0.043655016
-0.29050398 -0.51364714 0.042527407
-0.28140253 -0.5168277 0.042257383
-0.27642918 -0.51851237 0.042067491
-0.33784539 -0.49278161 0.044186551
-0.33383948 -0.494185 0.04409118
-0.31310079 -0.50129926 0.043365121
-0.31237927 -0.50157458 0.043370966
-0.30248094 -0.50491983 0.042999275
-0.28514373 -0.51090795 0.04244101
-0.28096771 -0.51235926 0.042342409
-0.27722144 -0.51365179 0.042183522
-0.34884855 -0.48438907 0.044735208
-0.33727556 -0.48837861 0.044357937
-0.32812387 -0.49153087 0.044075895
-0.32230547 -0.49359131 0.043915279
-0.32025391 -0.49482203 0.042974614
-0.31962451 -0.49510938 0.043008804
-0.31859195 -0.4948535 0.043780684
-0.31241992 -0.49697623 0.043563396
-0.30729175 -0.49871784 0.043366667
-0.30192533 -0.50056791 0.043207809
-0.29650384 -0.50250429 0.043090146
-0.2956419 -0.50281847 0.04306991
-0.29445219 -0.50317478 0.042995609
-0.29292145 -0.50373757 0.042980894
-0.29137054 -0.50428677 0.042917512
-0.28966928 -0.50537455 0.041982733
-0.28455758 -0.50683182 0.042207383
-0.34671718 -0.48122483 0.044214293
-0.33951956 -0.4836736 0.04394735
-0.33921888 -0.48379424 0.043955568
-0.3378247 -0.48420575 0.043858975
-0.33138236 -0.48649254 0.043686174
-0.32830802 -0.48756906 0.043589596
-0.31124592 -0.49341449 0.043003026
-0.31093511 -0.4935199 0.04299723
-0.30169913 -0.49672592 0.042718269
-0.30107301 -0.49695513 0.042720567
-0.35393643 -0.47415531 0.044798732
-0.33868346 -0.47993541 0.043453783
-0.3165676 -0.48765522 0.042792626
-0.31553432 -0.48801979 0.04276133
-0.31313151 -0.48881751 0.042668641
-0.30158883 -0.49280068 0.042301729
-0.30123258 -0.49288759 0.04225944
-0.29886913 -0.49375868 0.042218991
-0.29571384 -0.4942275 0.042881791
-0.29513609 -0.49502039 0.042087175
-0.28938556 -0.49707007 0.041943718
-0.28732491 -0.4977423 0.041847441
-0.28700942 -0.49786347 0.041850895
-0.35628897 -0.46952215 0.044655815
-0.34807649 -0.47229865 0.044335641
-0.33961439 -0.4752208 0.044062942
-0.33858842 -0.47553939 0.044000614
-0.33252063 -0.47822821 0.043009833
-0.32140806 -0.48205066 0.042632729
-0.31683832 -0.48309776 0.043329585
-0.30926833 -0.48572254 0.043094344
-0.30790186 -0.4861376 0.043023199
-0.30655783 -0.48658872 0.042966377
-0.30041063 -0.48872647 0.042780627
-0.29666999 -0.49000725 0.042650148
-0.2927469 -0.49132821 0.042475387
-0.29195458 -0.49218535 0.041662548
-0.29125732 -0.49190092 0.042483613
-0.29060584 -0.49267602 0.041630108
-0.34533381 -0.46934882 0.044061273
-0.34238556 -0.47035408 0.043923289
-0.33301672 -0.47359267 0.04362892
-0.32416338 -0.47661892 0.043316081
-0.31670606 -0.47925392 0.043121412
-0.31562984 -0.47956359 0.043031342
-0.30987811 -0.4815889 0.042881243
-0.30340946 -0.48377278 0.042644259
-0.30208212 -0.48422918 0.042604469
-0.30104256 -0.48461181 0.042568251
-0.29896057 -0.48532546 0.042488549
-0.29562277 -0.48650998 0.042415362
-0.34923375 -0.46410987 0.044007547
-0.34794319 -0.46454218 0.043963451
-0.33502454 -0.4690024 0.043555912
-0.33160871 -0.47020614 0.043441273
-0.32804164 -0.47141278 0.043312959
-0.31600469 -0.47556809 0.042935323
-0.31105885 -0.47728401 0.042794578
-0.30471432 -0.47946483 0.042570118
-0.30096638 -0.48074973 0.042434227
-0.34124988 -0.46297967 0.043702755
-0.33925629 -0.46370071 0.043687262
-0.33837557 -0.46399894 0.043632299
-0.33765471 -0.46425751 0.043608941
-0.32782859 -0.46764946 0.043304078
-0.32750195 -0.46778092 0.043293055
-0.32103658 -0.46997938 0.043071076
-0.32035694 -0.47021616 0.043045487
-0.31932014 -0.47059369 0.043030489
-0.31761393 -0.47114351 0.042946786
-0.31676686 -0.47146207 0.04294334
-0.31388849 -0.47244257 0.042850547
-0.31149095 -0.4732846 0.042771976
-0.31086111 -0.47352016 0.042764224
-0.31014234 -0.47375375 0.042722583
-0.30940419 -0.4739666 0.04266151
-0.30648226 -0.47505662 0.042640846
-0.30499011 -0.47549024 0.042509854
-0.30449933 -0.4756577 0.042501062
-0.30296722 -0.47623545 0.042501941
-0.3429032 -0.45905006 0.042910349
-0.34138525 -0.45962778 0.042912431
-0.33968335 -0.46017587 0.042814486
-0.32783943 -0.46431798 0.042492673
-0.32674903 -0.46463138 0.042402398
-0.32133168 -0.46654418 0.042249378
-0.32064033 -0.46676666 0.042226147
-0.31958121 -0.4671374 0.042174615
-0.30535677 -0.47202578 0.041738249
-0.30470198 -0.47228521 0.041715536
-0.34348559 -0.45840946 0.043864787
-0.3325935 -0.46215075 0.043499611
-0.33015341 -0.46296772 0.043392353
-0.32967621 -0.46315768 0.043393254
-0.32885003 -0.46344122 0.043372907
-0.32304522 -0.46540233 0.043152884
-0.3220312 -0.4657765 0.04312598
-0.32134062 -0.46604457 0.04311803
-0.30601865 -0.47129267 0.042610057
-0.33328766 -0.45857894 0.042800296
-0.33255458 -0.45882592 0.042741794
-0.33150893 -0.45918983 0.042702079
-0.32218951 -0.46240506 0.042407595
-0.3152166 -0.46480513 0.042180084
-0.31451184 -0.4650538 0.042149674
-0.31352168 -0.46541697 0.042145781
-0.312852 -0.46561688 0.042105913
-0.30904585 -0.46694258 0.041970357
-0.3067112 -0.46774632 0.041906219
-0.30585447 -0.46804839 0.041884404
-0.30502337 -0.46834323 0.04186812
-0.30415463 -0.46863753 0.041827947
-0.33681345 -0.45352072 0.043059953
-0.33615527 -0.45375243 0.04305283
-0.32627618 -0.45721379 0.042773381
-0.32338995 -0.45818004 0.042659208
-0.32273209 -0.45840922 0.042639256
-0.32205766 -0.45867321 0.042644784
-0.31691211 -0.46034685 0.042402741
-0.31593385 -0.46075511 0.042398602
-0.31524265 -0.46100229 0.042389218
-0.32831353 -0.453161 0.042228147
-0.32543027 -0.45414776 0.042114187
-0.32490003 -0.45432711 0.042093992
-0.32235977 -0.45521048 0.042021628
-0.31541872 -0.4576284 0.041821353
-0.3094632 -0.45965683 0.041608043
-0.30860898 -0.45995682 0.041577503
-0.30758721 -0.46032864 0.041568849
-0.30656749 -0.46063352 0.041497797
-0.32041171 -0.45215082 0.04236275
-0.32009017 -0.45223939 0.042357422
-0.31868979 -0.45270318 0.042271409
-0.31769484 -0.45305091 0.042247936
-0.31604511 -0.45366716 0.042234253
-0.31191874 -0.45503369 0.042052109
-0.3108784 -0.45537156 0.042001799
-0.31020898 -0.45563677 0.041993018
-0.32413954 -0.44747996 0.041972674
-0.32230264 -0.44815859 0.041961122
-0.32147571 -0.44844416 0.04193449
-0.32042047 -0.44881892 0.041888408
-0.31701243 -0.45000434 0.041799452
-0.31093973 -0.45207292 0.041571371
-0.32045734 -0.44549793 0.041513607
-0.2090784 -0.75811863 0.047124397
-0.21178526 -0.75634646 0.047671597
-0.20601776 -0.75830203 0.04741399
-0.2039437 -0.75904 0.047381941
-0.16877681 -0.77121556 0.046374477
-0.21643035 -0.74029422 0.04762033
-0.23348728 -0.70901275 0.047303811
-0.22747962 -0.71111572 0.047111697
-0.22386958 -0.7132144 0.046556544
-0.21913214 -0.71395671 0.046803869
-0.16892242 -0.73125005 0.045162398
-0.16821626 -0.73150182 0.04514404
-0.16682664 -0.73281896 0.044621103
-0.16010652 -0.73424721 0.044825856
-0.15834525 -0.73484093 0.044721663
-0.12140557 -0.73596668 0.04339904
-0.17743924 -0.70661449 0.044338621
-0.17560939 -0.70723355 0.044286691
-0.17887351 -0.70526963 0.044880353
-0.17751054 -0.7057569 0.044831894
-0.24873883 -0.67122918 0.046615791
-0.18610784 -0.69282824 0.04458224
-0.14872387 -0.70565957 0.043269917
-0.18414868 -0.6926446 0.044978444
-0.1822616 -0.69329077 0.044927694
-0.24844885 -0.66136134 0.046329759
-0.20260848 -0.67721009 0.044878431
-0.18900736 -0.68188447 0.044419099
-0.18698688 -0.68250889 0.044265646
-0.19460115 -0.67088133 0.044119112
-0.1929581 -0.67142558 0.044044159
-0.19840892 -0.66878784 0.044808127
-0.25724223 -0.64029509 0.045985408
-0.20355126 -0.65879065 0.044243734
-0.20209545 -0.65931141 0.044206556
-0.19933078 -0.66025215 0.044133063
-0.20215389 -0.65847808 0.044764474
-0.20744385 -0.64928567 0.043915428
-0.21038771 -0.64013845 0.043763246
-0.2097249 -0.64036918 0.043747675
-0.20906174 -0.64059848 0.043732993
-0.24867417 -0.62617832 0.045632098
-0.24157615 -0.62860453 0.045382928
-0.2364545 -0.63036686 0.045220345
-0.28492296 -0.60635692 0.046235342
-0.27641082 -0.60933769 0.046010695
-0.22982222 -0.62535775 0.044437848
-0.22879414 -0.62572032 0.044415932
-0.21896677 -0.6291461 0.044125173
-0.27832121 -0.60135865 0.045645103
-0.27280045 -0.60251403 0.046108369
-0.2521359 -0.60965115 0.045429979
-0.24538799 -0.61194927 0.045187835
-0.23731977 -0.61554068 0.04436221
-0.22982378 -0.61810768 0.044097934
-0.22273432 -0.61980069 0.044487022
-0.22189628 -0.62033898 0.044258229
-0.22156633 -0.62097299 0.04383089
-0.26208049 -0.5997659 0.045028117
-0.26067132 -0.600227 0.044969231
-0.25999013 -0.60050642 0.044970088
-0.24066482 -0.60711795 0.044279378
-0.28902024 -0.5840705 0.045375243
-0.2810342 -0.58684307 0.04512177
-0.27980977 -0.58652276 0.045744278
-0.27829236 -0.58774465 0.044994824
-0.27690583 -0.58750379 0.045620665
-0.27658427 -0.58837831 0.044965632
-0.26825586 -0.5905109 0.045374598
-0.2678327 -0.59064448 0.045337714
-0.2596339 -0.58711404 0.044729892
-0.24871667 -0.59086764 0.044346295
-0.23860542 -0.59436464 0.044028979
-0.23632032 -0.59509552 0.04389932
-0.2358679 -0.59527123 0.043910522
-0.23010273 -0.59719676 0.043670077
-0.25896007 -0.58102643 0.044555049
-0.2583313 -0.58124459 0.044544395
-0.252193 -0.58333355 0.044325359
-0.25157183 -0.58350384 0.044250533
-0.23840016 -0.58802301 0.043776024
-0.23721528 -0.58845299 0.043796897
-0.30203038 -0.55988479 0.045991831
-0.29356796 -0.56310701 0.045323078
-0.27898508 -0.56847 0.04447972
-0.27815104 -0.5680604 0.045157854
-0.27674431 -0.56857949 0.045130439
-0.27642834 -0.56869584 0.045132175
-0.27539605 -0.5690099 0.045061402
-0.26860985 -0.57135278 0.044843957
-0.25876999 -0.57475567 0.044536572
-0.2549783 -0.57608008 0.044409707
-0.24517307 -0.57977456 0.043734301
-0.24456252 -0.58037353 0.043393388
-0.30398625 -0.55362022 0.045496419
-0.2784254 -0.56245488 0.044689838
-0.26815751 -0.56600857 0.044365183
-0.26680362 -0.56644714 0.044316381
-0.25247502 -0.57131284 0.043761484
-0.25101358 -0.57187837 0.043768816
-0.24398898 -0.57431966 0.043581799
-0.31346107 -0.54486597 0.045508333
-0.29749715 -0.55039996 0.04500629
-0.26951873 -0.55995321 0.044010803
-0.26019055 -0.56318545 0.043734353
-0.25965977 -0.5633738 0.043708298
-0.25350142 -0.56546509 0.04348544
-0.25318563 -0.5655663 0.043465957
-0.28502014 -0.54921234 0.044400681
-0.2841872 -0.54946363 0.044342272
-0.28314918 -0.54983288 0.044305664
-0.2651003 -0.55599052 0.043674428
-0.26375413 -0.55653608 0.043704491
-0.25776118 -0.55856472 0.04347863
-0.31023395 -0.53975111 0.045869891
-0.30498385 -0.54157639 0.04569225
-0.30027181 -0.54319429 0.045547672
-0.29044968 -0.5465613 0.045210503
-0.27531326 -0.55177879 0.044720516
-0.26976371 -0.5536865 0.044542365
-0.31936032 -0.53188592 0.045456655
-0.30910206 -0.53540099 0.04509509
-0.30348173 -0.53735286 0.044925865
-0.29821938 -0.53915155 0.044746023
-0.29786342 -0.53927076 0.044735245
-0.28443849 -0.54395485 0.044344164
-0.27673343 -0.54657012 0.044045031
-0.27608228 -0.54676282 0.044001844
-0.26446706 -0.5508275 0.04367692
-0.31203538 -0.52901769 0.045345359
-0.302715 -0.53221107 0.045031331
-0.29778707 -0.53388965 0.04483965
-0.29729271 -0.53404838 0.044810861
-0.29288417 -0.53558892 0.044710021
-0.28653696 -0.53777421 0.044452321
-0.28222823 -0.53921628 0.044288423
-0.27713528 -0.54099035 0.044153437
-0.27615258 -0.54141295 0.044178508
-0.27072829 -0.54321092 0.043945584
-0.26950377 -0.54364741 0.043926019
-0.32348242 -0.52034748 0.045225374
-0.30546182 -0.52654397 0.044591159
-0.3051061 -0.52664435 0.044589575
-0.30094045 -0.52808231 0.044435807
-0.29634207 -0.52970344 0.044329368
-0.29582697 -0.52988845 0.044308029
-0.29072925 -0.53160012 0.044113245
-0.2861082 -0.5332247 0.043989763
-0.28555083 -0.53344178 0.043984689
-0.27642739 -0.53659171 0.043694586
-0.26857162 -0.5392518 0.04338561
-0.26483202 -0.54054672 0.043284565
-0.32758394 -0.51423466 0.044955738
-0.29923034 -0.5239591 0.044000003
-0.27459824 -0.53242844 0.043161627
-0.27054033 -0.53385013 0.043054912
-0.32741413 -0.51366413 0.04571994
-0.32360643 -0.51500106 0.045629654
-0.32259601 -0.51533735 0.045587458
-0.32157621 -0.51565123 0.045520835
-0.30497539 -0.52139288 0.045007698
-0.30413157 -0.52169865 0.04499172
-0.29531702 -0.52471429 0.044682361
-0.29463828 -0.5249387 0.044656038
-0.29058865 -0.52632165 0.04451042
-0.28513658 -0.52820665 0.044326477
-0.28480726 -0.52831697 0.044334337
-0.27483729 -0.53168577 0.043931805
-0.27080083 -0.53315747 0.043854319
-0.31107748 -0.51466686 0.045000408
-0.31015879 -0.5156365 0.044204272
-0.30836678 -0.51557046 0.044885892
-0.30766344 -0.51583064 0.044870716
-0.30683845 -0.51613086 0.044871673
-0.30299175 -0.51804024 0.043920819
-0.29810584 -0.51906621 0.044498615
-0.28946307 -0.5220257 0.04418138
-0.28873545 -0.5226326 0.043825012
-0.27893317 -0.52567929 0.043861229
-0.27388841 -0.52741963 0.043711968
-0.27328497 -0.5283035 0.042955328
-0.31935012 -0.50778192 0.044324577
-0.31611764 -0.50828654 0.045014251
-0.31547672 -0.50850046 0.044990923
-0.31507468 -0.50925493 0.044205014
-0.31023407 -0.51031536 0.044829916
-0.32601207 -0.5047974 0.045292664
-0.32056057 -0.50671756 0.045141101
-0.31650382 -0.50812733 0.045005206
-0.31580198 -0.50837338 0.044987239
-0.31108192 -0.51000637 0.04483436
-0.2976563 -0.5146144 0.044396505
-0.29168916 -0.51664627 0.044167832
-0.28782785 -0.51800007 0.044067435
-0.28751189 -0.51809925 0.044069782
-0.2834014 -0.51950234 0.043893207
-0.28206116 -0.51996136 0.043844804
-0.34213257 -0.49529949 0.045027878
-0.32957733 -0.49964899 0.044644363
-0.31932706 -0.50315195 0.044291239
-0.30961883 -0.50644672 0.043921854
-0.30912763 -0.50662452 0.043929763
-0.30287099 -0.50888145 0.04380586
-0.29967731 -0.50996798 0.043702915
-0.29653639 -0.51100546 0.043563653
-0.28656799 -0.51437336 0.04316549
-0.28626478 -0.514498 0.043171257
-0.27806413 -0.51733398 0.042877179
-0.277408 -0.51754963 0.042868089
-0.27637869 -0.517937 0.042865559
-0.33597371 -0.49684536 0.045669798
-0.33492035 -0.49714422 0.045579858
-0.33081913 -0.49856374 0.045433626
-0.31785703 -0.5029943 0.044997789
-0.31450379 -0.50420934 0.044945911
-0.30492526 -0.50749296 0.044601552
-0.30126235 -0.50878274 0.044521995
-0.29891697 -0.50963128 0.044462539
-0.29102364 -0.51226705 0.044121686
-0.29068273 -0.51238632 0.044124573
-0.28901869 -0.51298046 0.044090826
-0.33682314 -0.4925335 0.044980373
-0.33611196 -0.49275619 0.044923075
-0.31874371 -0.49873394 0.044368051
-0.3181223 -0.49894923 0.044343177
-0.31297404 -0.50076121 0.044173241
-0.31233287 -0.50096935 0.044164285
-0.30955577 -0.50193596 0.044073246
-0.30801409 -0.5024811 0.044045903
-0.29018793 -0.50862139 0.043451976
-0.28225571 -0.51130408 0.043140315
-0.28123665 -0.51167583 0.043126903
-0.33998072 -0.4868941 0.045289915
-0.33897021 -0.48725459 0.045260895
-0.33013302 -0.49029022 0.044982865
-0.32980406 -0.49043542 0.044984166
-0.32803452 -0.4909862 0.044873036
-0.32433316 -0.4922547 0.044754934
-0.32227692 -0.49303102 0.044722088
-0.30252114 -0.4997555 0.044008739
-0.2980392 -0.50133508 0.043894503
-0.29676801 -0.50182992 0.043916382
-0.29352039 -0.5029304 0.043792553
-0.28794995 -0.50481892 0.043583471
-0.28690273 -0.50519311 0.043556683
-0.28605926 -0.50549924 0.043540817
-0.28519073 -0.50574189 0.043465752
-0.34734488 -0.48040906 0.045036089
-0.34664398 -0.48067656 0.045034338
-0.34083432 -0.48262727 0.044790968
-0.32415783 -0.48838931 0.044284932
-0.31426257 -0.49179769 0.04394646
-0.31222135 -0.49246782 0.043855779
-0.30303085 -0.49566758 0.043573365
-0.30201238 -0.49604255 0.043550007
-0.28776634 -0.50100708 0.043124318
-0.28674775 -0.50132692 0.043083377
-0.3536514 -0.47428259 0.044819348
-0.35224843 -0.47477901 0.044789422
-0.3485468 -0.47605363 0.044666164
-0.34037286 -0.47888824 0.044411734
-0.33358049 -0.48121837 0.044178531
-0.33287764 -0.48146555 0.044147663
-0.32373255 -0.48461458 0.04387122
-0.32268846 -0.48501155 0.043851033
-0.3171922 -0.48684388 0.043598313
-0.31689349 -0.48695064 0.043617848
-0.30631903 -0.49059391 0.043259442
-0.30562657 -0.49085811 0.043258272
-0.29882169 -0.49320826 0.043041553
-0.2920453 -0.49549493 0.042781465
-0.35600308 -0.47296938 0.045776617
-0.35256994 -0.47412574 0.045637034
-0.35157824 -0.47446308 0.045616895
-0.34102222 -0.47807607 0.045237143
-0.33352506 -0.48064265 0.044994365
-0.33117992 -0.48151624 0.044966899
-0.32776186 -0.48267999 0.044813722
-0.32606363 -0.48325014 0.044770654
-0.32539046 -0.48346871 0.044731498
-0.32436424 -0.48387703 0.044723183
-0.30803078 -0.48944533 0.044167362
-0.30698633 -0.48982006 0.044124521
-0.30243063 -0.49140871 0.043979716
-0.29876721 -0.49269673 0.043894351
-0.29640096 -0.4934364 0.043742798
-0.29272109 -0.49479014 0.043710764
-0.29217923 -0.49492303 0.043656092
-0.35693309 -0.46871823 0.045509256
-0.35145795 -0.47057492 0.045262173
-0.34362859 -0.47332031 0.045059659
-0.34278029 -0.4735803 0.044995993
-0.3422426 -0.47374406 0.044969365
-0.34023321 -0.4744662 0.044926062
-0.33514667 -0.47617525 0.044732139
-0.33445221 -0.47641784 0.044707093
-0.33241642 -0.47716522 0.044675708
-0.31713313 -0.48242384 0.04418806
-0.31131572 -0.4844487 0.043993056
-0.31062865 -0.48466954 0.043958094
-0.30973414 -0.48494044 0.043900602
-0.30841839 -0.4854477 0.043903209
-0.30793238 -0.48560372 0.04387705
-0.30072761 -0.48804522 0.043611456
-0.29696929 -0.48935822 0.043482915
-0.29661205 -0.48946446 0.043474376
-0.34937298 -0.46745697 0.045037493
-0.34827983 -0.4677856 0.044946719
-0.34726942 -0.46810752 0.044907264
-0.34611017 -0.46856269 0.044918083
-0.34543189 -0.46878546 0.044898007
-0.34457916 -0.46907765 0.044858642
-0.33388668 -0.47277069 0.044513851
-0.32821915 -0.47473007 0.044310972
-0.32691377 -0.47517067 0.044286303
-0.32621029 -0.47541839 0.044255611
-0.3257471 -0.4755905 0.044258431
-0.32348964 -0.47632796 0.044163827
-0.32161522 -0.47700745 0.044099353
-0.32076961 -0.47730333 0.044087376
-0.3197673 -0.47762755 0.04405259
-0.31875151 -0.47797862 0.044013031
-0.31806844 -0.47825381 0.044004872
-0.31736839 -0.47847566 0.043987412
-0.31215847 -0.48029685 0.043842036
-0.31159556 -0.48044652 0.04377719
-0.30271673 -0.48347825 0.043463685
-0.29642937 -0.48567945 0.043272506
-0.29563072 -0.48595172 0.043258365
-0.29010406 -0.48781419 0.043025486
-0.3533974 -0.46223399 0.04508394
-0.35250708 -0.46245125 0.044971302
-0.35164869 -0.46277803 0.044973783
-0.35052243 -0.46318102 0.044972334
-0.34983563 -0.46344456 0.044961393
-0.34932315 -0.46358386 0.044908367
-0.33939466 -0.46699509 0.044558324
-0.33840826 -0.46734628 0.044548128
-0.33669558 -0.46793094 0.044479735
-0.33567387 -0.46826828 0.044436269
-0.33500636 -0.46850443 0.044424884
-0.32995504 -0.47030222 0.044304274
-0.32852951 -0.4706707 0.044167578
-0.31154984 -0.47657001 0.043656968
-0.31118619 -0.47671252 0.043662462
-0.3050648 -0.478847 0.043458782
-0.34468263 -0.46129471 0.044687584
-0.34385502 -0.46162722 0.044699281
-0.34275866 -0.46203741 0.044678878
-0.34207731 -0.46220765 0.044595271
-0.34139627 -0.46239197 0.044551142
-0.34007159 -0.46292451 0.044567183
-0.33073822 -0.46614957 0.044270769
-0.32970667 -0.46649241 0.044220123
-0.32888946 -0.46673968 0.044171721
-0.32802421 -0.46707475 0.044160306
-0.32136518 -0.46933085 0.043932538
-0.3157551 -0.4713062 0.043752778
-0.31438029 -0.47178835 0.043727875
-0.31356472 -0.47204748 0.0436939
-0.3127344 -0.47232944 0.043660048
-0.31186852 -0.47266093 0.043651562
-0.30674759 -0.4744665 0.043500725
-0.30539298 -0.47486886 0.043424949
-0.34513825 -0.45736098 0.04479387
-0.3445245 -0.4580715 0.043925878
-0.34399748 -0.45827043 0.04391719
-0.33308601 -0.46149385 0.044377938
-0.33225662 -0.46179485 0.044376004
-0.33141759 -0.46209285 0.044361316
-0.33071065 -0.46233082 0.044323981
-0.3234033 -0.46484017 0.044080354
-0.33804664 -0.45647806 0.043824479
-0.33700654 -0.45684797 0.043787885
-0.33594856 -0.45713559 0.043694202
-0.33526987 -0.45737448 0.043682188
-0.33427501 -0.45776987 0.043693401
-0.33343261 -0.45805275 0.043671731
-0.32338822 -0.46149117 0.043312907
-0.32273564 -0.4617255 0.043294009
-0.3212254 -0.46230191 0.04329025
-0.31727943 -0.46362647 0.043136448
-0.31627825 -0.4639712 0.043109193
-0.31540784 -0.46422207 0.043049686
-0.31391287 -0.46478748 0.04302901
-0.3122229 -0.46534798 0.042963404
-0.3114922 -0.46560183 0.042935796
-0.31048068 -0.46597278 0.042915087
-0.30776718 -0.46689624 0.042826474
-0.30693704 -0.46717548 0.042786144
-0.32686192 -0.45652708 0.043674935
-0.32652783 -0.45664078 0.043665007
-0.32531404 -0.45707795 0.043644365
-0.32427293 -0.4574011 0.043564126
-0.32360995 -0.45764825 0.043558918
-0.31733423 -0.45979744 0.043346725
-0.31629443 -0.46013495 0.043296151
-0.33061236 -0.45170185 0.043637291
-0.33019322 -0.45200598 0.043124203
-0.32922333 -0.45238015 0.043137588
-0.32721853 -0.45309475 0.043105781
-0.32636011 -0.45338684 0.043060094
-0.32563496 -0.45365065 0.043035887
-0.31839043 -0.4561379 0.042803805
-0.31736338 -0.45645666 0.042742219
-0.31682742 -0.45666748 0.042735986
-0.31598896 -0.45697656 0.042729162
-0.3110933 -0.45867473 0.042586438
-0.31032586 -0.45891207 0.042524867
-0.30917561 -0.45929068 0.042491328
-0.30784968 -0.45980495 0.042479128
-0.31738055 -0.45601577 0.043652724
-0.30414465 -0.46060169 0.043220572
-0.3191123 -0.45214313 0.043208398
-0.32341149 -0.4473542 0.042899348
-0.32256514 -0.44766462 0.042888455
-0.18433237 -0.76406109 0.047584351
-0.20237795 -0.7569803 0.048603538
-0.20029566 -0.75771075 0.048548687
-0.19557321 -0.75929832 0.048365276
-0.18978536 -0.76125085 0.048105843
-0.17060304 -0.75524038 0.046593849
-0.15942127 -0.75910085 0.046299398
-0.18525368 -0.73658836 0.046845302
-0.14919122 -0.74907988 0.04578539
-0.13530126 -0.75385803 0.04524453
-0.20293653 -0.7296918 0.047936082
-0.17131349 -0.7405377 0.046844084
-0.16627502 -0.74219894 0.046560984
-0.21519551 -0.71367759 0.047706358
-0.16487941 -0.73096102 0.045974392
-0.16322622 -0.73152274 0.045923568
-0.13467215 -0.74143434 0.045115806
-0.18399242 -0.71270496 0.046431705
-0.17261234 -0.71661556 0.046047788
-0.17084317 -0.71719855 0.045983024
-0.16707438 -0.71849495 0.0458555
-0.13910139 -0.72819364 0.044987306
-0.17853668 -0.70370173 0.045856401
-0.17795323 -0.70392042 0.045845333
-0.17657737 -0.70524925 0.045315586
-0.12534252 -0.72209436 0.04419462
-0.12363502 -0.72267669 0.044137128
-0.25444055 -0.66760039 0.047806818
-0.1831706 -0.69215441 0.045461949
-0.21849804 -0.67912245 0.047110304
-0.13298085 -0.70856905 0.044293139
-0.24272308 -0.6625464 0.046687089
-0.24086796 -0.66316652 0.04660875
-0.19895679 -0.67760181 0.045242194
-0.19724457 -0.67821372 0.045182869
-0.2557283 -0.6572119 0.047644984
-0.2536006 -0.65801692 0.047627617
-0.24301946 -0.66162825 0.047234118
-0.19222692 -0.67913771 0.045563534
-0.18965693 -0.68004352 0.045514505
-0.25041533 -0.65003562 0.047044504
-0.20370595 -0.66608155 0.045463987
-0.19698244 -0.66847366 0.045318767
-0.19536601 -0.66900653 0.045257628
-0.20011555 -0.65920293 0.044718403
-0.19943716 -0.65944117 0.044707201
-0.21183923 -0.6543386 0.045648001
-0.20024534 -0.65835661 0.045288969
-0.20656377 -0.64801168 0.045029577
-0.24040355 -0.63555962 0.046706766
-0.22272663 -0.64163506 0.046135813
-0.20785204 -0.64677721 0.045667008
-0.20665459 -0.64719874 0.045635317
-0.25084102 -0.62460351 0.046248801
-0.24741839 -0.62582296 0.046169844
-0.2412907 -0.62793207 0.045965884
-0.22718935 -0.63278091 0.045504142
-0.22664726 -0.63297409 0.045496911
-0.2139961 -0.63731605 0.045046136
-0.20959389 -0.63885385 0.044920072
-0.27516031 -0.60899633 0.046581242
-0.27413887 -0.60934204 0.046533976
-0.2677694 -0.6115151 0.046307646
-0.26132232 -0.61300254 0.046722367
-0.26099145 -0.61312485 0.046698537
-0.23788217 -0.62102866 0.045897499
-0.21883167 -0.62763441 0.04532259
-0.21866354 -0.62808627 0.045027405
-0.28057715 -0.59989756 0.046425954
-0.23744933 -0.61472702 0.044995241
-0.28268391 -0.59831154 0.047012527
-0.27419662 -0.60131824 0.046836488
-0.2728591 -0.60177493 0.046784744
-0.25960088 -0.60630912 0.046285629
-0.24398309 -0.61170256 0.045799684
-0.23066279 -0.61629891 0.045349438
-0.22556813 -0.61805707 0.045200586
-0.26287562 -0.59877753 0.045735717
-0.26236409 -0.59894502 0.045706753
-0.25875899 -0.60018015 0.045553338
-0.24994405 -0.60323942 0.045295302
-0.22786526 -0.61080343 0.044539839
-0.22749582 -0.61092585 0.044511884
-0.27839595 -0.5926711 0.046862099
-0.26434025 -0.59752244 0.046400815
-0.26366156 -0.59775054 0.046385985
-0.26297653 -0.5979901 0.046377677
-0.25724179 -0.59994996 0.046142608
-0.24870054 -0.60291785 0.045888461
-0.22934434 -0.60956186 0.045227658
-0.22864503 -0.60981327 0.04520984
-0.24936274 -0.596255 0.045382585
-0.23302186 -0.60188562 0.04482105
-0.2316107 -0.60239834 0.04479016
-0.23096801 -0.60261589 0.044782106
-0.28708798 -0.57692182 0.046305012
-0.28396058 -0.57795191 0.046140239
-0.26807785 -0.58346033 0.045660995
-0.25200552 -0.58900142 0.045147661
-0.25163323 -0.58912849 0.045129605
-0.24041753 -0.59295493 0.04471254
-0.23875771 -0.59356451 0.044683214
-0.23685247 -0.59414965 0.044562537
-0.23630469 -0.59433711 0.044548061
-0.23498702 -0.59484076 0.044544708
-0.23466986 -0.59495348 0.044532873
-0.28961426 -0.57529098 0.047001839
-0.28892785 -0.57548964 0.0469556
-0.28551164 -0.57673007 0.046895169
-0.26891744 -0.58240366 0.046327259
-0.26854914 -0.58255661 0.046315465
-0.25924951 -0.5857265 0.045980576
-0.25348899 -0.5877583 0.045840438
-0.25296867 -0.58792919 0.045827195
-0.25249168 -0.58810246 0.045821697
-0.27682874 -0.57412332 0.045790639
-0.26047808 -0.57971364 0.045219034
-0.26049602 -0.5789662 0.045881595
-0.25966221 -0.57927966 0.045872394
-0.24431017 -0.58456367 0.045372635
-0.24346106 -0.58483905 0.045335867
-0.24241987 -0.58523905 0.045310035
-0.24144532 -0.58557522 0.045281034
-0.30593005 -0.55784142 0.046809502
-0.30181819 -0.55925548 0.046679996
-0.29346299 -0.56206656 0.046340778
-0.28037387 -0.5666191 0.045957204
-0.28001505 -0.56671864 0.045905661
-0.26775831 -0.57094347 0.045503892
-0.2585718 -0.57409018 0.045183219
-0.24600385 -0.57840997 0.044768617
-0.24494953 -0.57874531 0.044725228
-0.30950624 -0.55101538 0.046389833
-0.29930407 -0.55449218 0.046011541
-0.29453519 -0.55615175 0.045873541
-0.29387933 -0.55641544 0.045894377
-0.29220182 -0.55699229 0.045834877
-0.28610831 -0.55910975 0.045650467
-0.28507257 -0.55943304 0.045580052
-0.28469211 -0.55953228 0.045547768
-0.28158283 -0.56067419 0.04550514
-0.28095213 -0.56091255 0.04551306
-0.28007305 -0.5611226 0.045391291
-0.27890542 -0.56150955 0.045337114
-0.26596084 -0.56604183 0.044974197
-0.25306466 -0.57045442 0.044544604
-0.25235778 -0.57065845 0.044463105
-0.25149608 -0.57097048 0.044459857
-0.25095236 -0.57117325 0.044450842
-0.30945405 -0.55033201 0.047114167
-0.30396247 -0.55217367 0.046863485
-0.29915029 -0.55382186 0.046690229
-0.2950435 -0.55529785 0.04660387
-0.28693029 -0.55808997 0.046331458
-0.28623861 -0.55832964 0.046332728
-0.28523147 -0.55869061 0.046314262
-0.28311962 -0.55938971 0.046196852
-0.2824707 -0.55962455 0.04619389
-0.25358155 -0.56956887 0.045229904
-0.25295436 -0.5698151 0.045250945
-0.29342031 -0.55109304 0.045576267
-0.28438127 -0.55414289 0.045214228
-0.27126426 -0.55870378 0.044820704
-0.27075118 -0.55885434 0.04478436
-0.26594949 -0.56050694 0.044617958
-0.25610241 -0.56392634 0.044333972
-0.25403202 -0.56462157 0.044234093
-0.25368994 -0.56473279 0.044213817
-0.25180632 -0.56539631 0.044174645
-0.25067812 -0.56577539 0.044138234
-0.31298834 -0.54360604 0.046872769
-0.30699319 -0.54568696 0.046693414
-0.30669188 -0.54577619 0.046677511
-0.30223268 -0.547342 0.046550713
-0.28520054 -0.55315727 0.045950964
-0.28453389 -0.55342799 0.045949787
-0.27125734 -0.5580259 0.045546144
-0.26510525 -0.56010646 0.045301229
-0.2633965 -0.56067657 0.045247708
-0.26270783 -0.56097871 0.045258708
-0.25628844 -0.56316036 0.04504035
-0.25508821 -0.56357569 0.044993404
-0.25441539 -0.56380916 0.04498376
-0.31517407 -0.53740805 0.046809047
-0.30519521 -0.54082578 0.046449378
-0.30016455 -0.5425688 0.046292871
-0.29646641 -0.54391247 0.046225742
-0.29493728 -0.54432786 0.046080239
-0.29105204 -0.54566681 0.045970827
-0.28519934 -0.54840881 0.045087367
-0.27772844 -0.55029541 0.045561057
-0.27716404 -0.55085844 0.045199391
-0.27670753 -0.55135971 0.044830415
-0.27534965 -0.55108637 0.04545119
-0.27242941 -0.55215812 0.045410521
-0.26465559 -0.55474919 0.045083154
-0.26177126 -0.55581951 0.045058966
-0.26105413 -0.55603522 0.044998419
-0.25644696 -0.55833346 0.044154577
-0.32085717 -0.53009796 0.047040403
-0.31999946 -0.53038675 0.047016017
-0.31962079 -0.53115863 0.046241228
-0.31857485 -0.53149503 0.046175405
-0.3133198 -0.53305948 0.046218164
-0.31246668 -0.53356433 0.045954943
-0.3045333 -0.53561264 0.046391338
-0.29809642 -0.53850609 0.045484222
-0.29347765 -0.53946686 0.046078671
-0.28499752 -0.54306078 0.045074444
-0.26388964 -0.54967803 0.045109663
-0.26369232 -0.55040187 0.044390187
-0.26183307 -0.55035436 0.045015186
-0.31227517 -0.52828044 0.046104077
-0.30714998 -0.53003377 0.045935303
-0.29819885 -0.53309268 0.045614492
-0.29785621 -0.53321046 0.045592371
-0.2930634 -0.53485137 0.045429911
-0.28285015 -0.53833795 0.045072485
-0.27635252 -0.54063648 0.044903997
-0.26989228 -0.54284596 0.044657189
-0.2695263 -0.54296631 0.044662666
-0.32383209 -0.51953691 0.045939147
-0.31900167 -0.52127552 0.04586
-0.31694025 -0.52201432 0.045814473
-0.3162365 -0.52220744 0.045758024
-0.31489828 -0.52269638 0.04573546
-0.31454322 -0.52281845 0.045740079
-0.31180859 -0.52376986 0.045632184
-0.30599719 -0.52569258 0.045354012
-0.30150014 -0.52719277 0.0451717
-0.30112797 -0.52733839 0.045181815
-0.29701519 -0.52876997 0.045038737
-0.28648514 -0.5324235 0.044719238
-0.28613603 -0.53255141 0.044735514
-0.28072211 -0.53445321 0.044579431
-0.2770102 -0.53569221 0.044426367
-0.27669817 -0.53582746 0.044450279
-0.26997027 -0.5381394 0.044197537
-0.26845026 -0.53862697 0.044138897
-0.26644146 -0.53931886 0.044060603
-0.3242619 -0.51871973 0.046691399
-0.31783295 -0.52105027 0.046597198
-0.31508934 -0.52195692 0.046484184
-0.31326377 -0.52262443 0.04644141
-0.29082793 -0.53028512 0.045636944
-0.28179294 -0.53338921 0.045307547
-0.27140543 -0.53700519 0.045016509
-0.32859397 -0.51255465 0.046491452
-0.32354578 -0.51435703 0.046372343
-0.31773382 -0.51637304 0.046185814
-0.30521613 -0.5206567 0.045755796
-0.30421716 -0.52102596 0.045750696
-0.30024904 -0.52234238 0.04558596
-0.2904439 -0.52573174 0.045259774
-0.28020889 -0.52932644 0.044973925
-0.27173245 -0.53223455 0.04469604
-0.32731563 -0.50837666 0.046241168
-0.31160635 -0.51382887 0.04574037
-0.29869169 -0.5182063 0.045280058
-0.29834133 -0.51833832 0.045260932
-0.29423702 -0.51973468 0.045112897
-0.28346381 -0.52348715 0.044798248
-0.28061044 -0.52447522 0.044729516
-0.27916509 -0.52495307 0.044627313
-0.27577955 -0.5261519 0.044563785
-0.27545065 -0.5262053 0.044503808
-0.32899129 -0.50324601 0.046229746
-0.32762623 -0.50366008 0.046157695
-0.3208124 -0.50598276 0.045909621
-0.3205055 -0.50609154 0.045902781
-0.31131953 -0.50929248 0.045633644
-0.29840088 -0.51374638 0.045210615
-0.29774779 -0.51395953 0.04516241
-0.2932997 -0.51548874 0.04500068
-0.27512068 -0.52173907 0.044399932
-0.33481944 -0.49657947 0.046370775
-0.31991369 -0.50171423 0.045888968
-0.30964506 -0.50523239 0.04551845
-0.28893477 -0.51237756 0.044871636
-0.27929205 -0.51571155 0.044551294
-0.33029181 -0.49418643 0.045577109
-0.32895881 -0.49469402 0.045550376
-0.32377285 -0.49641275 0.045347244
-0.32325444 -0.49658149 0.045304861
-0.32140788 -0.49726546 0.045282509
-0.31933442 -0.49795765 0.045183297
-0.30271921 -0.50373679 0.044694964
-0.29147354 -0.50757307 0.044299372
-0.29047433 -0.50790733 0.04426419
-0.28636819 -0.50930434 0.044093467
-0.28322428 -0.51032662 0.043923758
-0.28219146 -0.51072717 0.043947831
-0.33938029 -0.49044716 0.04666068
-0.31433105 -0.4990899 0.04581596
-0.31348109 -0.49935779 0.045795128
-0.30936566 -0.50077718 0.045658048
-0.30479386 -0.50235081 0.045493871
-0.35079661 -0.48257774 0.046454918
-0.34879091 -0.48328015 0.046394959
-0.34837312 -0.48342338 0.046367481
-0.34280568 -0.48535573 0.046193514
-0.34056205 -0.48609814 0.046111584
-0.33755878 -0.48717275 0.046058334
-0.33547404 -0.48787907 0.045977313
-0.33499295 -0.48804027 0.045936983
-0.33414 -0.48833767 0.045904994
-0.33310366 -0.48869625 0.045887861
-0.33226413 -0.48896408 0.045850925
-0.33108437 -0.48939073 0.04582224
-0.32464471 -0.4916268 0.045630611
-0.32354063 -0.49196294 0.045533147
-0.31409687 -0.49520969 0.045247011
-0.30880982 -0.49706504 0.045070812
-0.30384547 -0.49878937 0.044955358
-0.29872325 -0.50053263 0.044766154
-0.298392 -0.5006274 0.044728857
-0.28702676 -0.50455761 0.044365488
-0.29805213 -0.50072825 0.044698678
-0.35235631 -0.47810954 0.046007041
-0.35082948 -0.47864756 0.045981273
-0.34996665 -0.47896242 0.045963518
-0.34893948 -0.47927669 0.045890454
-0.34826249 -0.47952735 0.045884445
-0.34657216 -0.48010769 0.045829985
-0.34182939 -0.48172283 0.04566215
-0.34150696 -0.48181343 0.045640089
-0.3407917 -0.4820585 0.045610365
-0.32429066 -0.48776263 0.045090802
-0.32315272 -0.48819482 0.045081981
-0.31832027 -0.4898743 0.044934418
-0.31749481 -0.49014589 0.044893019
-0.31677619 -0.49035585 0.044848498
-0.31607276 -0.49058211 0.044803884
-0.31524646 -0.49094957 0.044834014
-0.31321725 -0.49159843 0.044726059
-0.30774593 -0.49346948 0.044522393
-0.30330712 -0.49500051 0.044386294
-0.30295062 -0.49510637 0.044377927
-0.2980873 -0.49679163 0.044224288
-0.29232651 -0.49885893 0.044101574
-0.29130161 -0.49920037 0.044067472
-0.29028076 -0.49952525 0.044012807
-0.28908825 -0.49996448 0.044006616
-0.28861037 -0.50013888 0.043979306
-0.35128814 -0.47790533 0.046794672
-0.3329083 -0.48422813 0.0461936
-0.32437485 -0.48717284 0.045908712
-0.30770507 -0.492935 0.045365818
-0.29871434 -0.4959864 0.04504104
-0.35666719 -0.47212151 0.046589542
-0.35614252 -0.47233906 0.046590805
-0.35529745 -0.47265601 0.046581689
-0.35091043 -0.47414142 0.046450309
-0.34240222 -0.47710863 0.046173818
-0.33350992 -0.48008955 0.045818888
-0.32669416 -0.4825024 0.045631569
-0.32470721 -0.48316497 0.045554861
-0.3188765 -0.48524159 0.04539774
-0.3182514 -0.48543817 0.045388479
-0.3175205 -0.48564526 0.045321327
-0.30964622 -0.48836076 0.045054525
-0.30828834 -0.48878524 0.044999447
-0.30251136 -0.49081522 0.04482092
-0.29656026 -0.49288288 0.044647045
-0.29336137 -0.49399173 0.044540189
-0.29297006 -0.49412867 0.044523969
-0.34614223 -0.47190186 0.045965455
-0.34547198 -0.4721173 0.045933522
-0.3443222 -0.4725121 0.045912974
-0.34361964 -0.47277248 0.045907028
-0.34140605 -0.47351789 0.045806073
-0.33375296 -0.47613788 0.045539454
-0.32699901 -0.47847143 0.045337502
-0.31774428 -0.4816547 0.045018397
-0.31744069 -0.48175687 0.04502688
-0.31331709 -0.48318511 0.044867307
-0.31230202 -0.48357525 0.044867262
-0.3114478 -0.48387855 0.044854749
-0.31025326 -0.48423669 0.044795033
-0.30242941 -0.48693776 0.044515923
-0.30068123 -0.48750418 0.04443711
-0.29772264 -0.48861206 0.044408806
-0.29715014 -0.48876378 0.044363081
-0.35134774 -0.46618947 0.045901213
-0.35071605 -0.46640098 0.045885798
-0.3496764 -0.46681347 0.045894012
-0.34935856 -0.4669407 0.045903355
-0.34797293 -0.46736252 0.0457948
-0.34694359 -0.46769667 0.045760065
-0.34625357 -0.46797642 0.045766301
-0.33713856 -0.47112241 0.04548065
-0.33674768 -0.47125393 0.04545816
-0.3357501 -0.47161123 0.045436259
-0.33489144 -0.471865 0.045376066
-0.3297832 -0.47366935 0.045229323
-0.32878068 -0.47401321 0.045211703
-0.32831615 -0.47418544 0.0452131
-0.31260252 -0.47963777 0.044698246
-0.31231382 -0.47971994 0.044692352
-0.30301592 -0.48289028 0.044345897
-0.29656574 -0.48509878 0.044148371
-0.33974662 -0.46638122 0.045443505
-0.33943078 -0.46646947 0.045423932
-0.32921803 -0.46999514 0.045106601
-0.32126626 -0.47274622 0.044862889
-0.3125717 -0.47577208 0.044591218
-0.31151643 -0.47607166 0.044502791
-0.30575997 -0.47811595 0.044350632
-0.30504602 -0.47835639 0.044327676
-0.3428458 -0.46149197 0.045548137
-0.32229403 -0.46857059 0.044879876
-0.3236087 -0.46097025 0.044226125
-0.30931431 -0.46590739 0.043753169
-0.33153355 -0.45119381 0.044160958
-0.33095545 -0.45140636 0.044144414
-0.30516332 -0.46025419 0.04327374
-0.20337266 -0.78578073 0.05052809
-0.21508779 -0.76710653 0.049652345
-0.1909323 -0.77550179 0.048971917
-0.22153422 -0.76405418 0.050338376
-0.19300663 -0.77302092 0.049811441
-0.1986962 -0.7573626 0.048896674
-0.19731674 -0.75784504 0.048845731
-0.17381981 -0.76601815 0.048203882
-0.17182577 -0.76670492 0.04814053
-0.21465105 -0.75103635 0.049881883
-0.19184384 -0.75887722 0.049115796
-0.18680465 -0.76053923 0.048831727
-0.17857417 -0.76352137 0.048765548
-0.19714281 -0.74434555 0.048305623
-0.18739028 -0.74766314 0.047934003
-0.18191007 -0.74957216 0.047775373
-0.17101383 -0.75336498 0.047455925
-0.15441182 -0.75909841 0.046986759
-0.15032971 -0.76051307 0.046782747
-0.17988944 -0.74941039 0.048163034
-0.17652123 -0.75050133 0.047941014
-0.16661516 -0.75404936 0.047806811
-0.16496769 -0.7546187 0.047764156
-0.14514798 -0.74963009 0.046135426
-0.21284699 -0.72540206 0.048696265
-0.21017563 -0.7254656 0.049052261
-0.1873315 -0.73419297 0.047858737
-0.1697275 -0.73937982 0.047706503
-0.1633261 -0.74152839 0.047423881
-0.15920854 -0.74390268 0.046972468
-0.15740156 -0.74455196 0.046928313
-0.15101576 -0.74590093 0.047198612
-0.1418899 -0.74901849 0.046877231
-0.22823028 -0.70830077 0.048573837
-0.22509433 -0.70939398 0.048447009
-0.17518096 -0.72658187 0.046828039
-0.15319726 -0.73326218 0.046501279
-0.13502406 -0.73964703 0.046123136
-0.13135532 -0.74087161 0.045880657
-0.11775101 -0.74557745 0.045434762
-0.11734454 -0.74572349 0.045421682
-0.18057331 -0.71303737 0.046799682
-0.17616719 -0.71454126 0.046618994
-0.17383319 -0.71533412 0.046548598
-0.17352644 -0.71544236 0.046542812
-0.16606274 -0.71799994 0.046301141
-0.16294627 -0.71906394 0.046144001
-0.12359947 -0.73267311 0.044968002
-0.21911168 -0.69890308 0.048527598
-0.20408416 -0.70410919 0.048067451
-0.19733362 -0.70639229 0.047798846
-0.1952419 -0.70715362 0.047780536
-0.19328405 -0.70780635 0.04768981
-0.17628191 -0.71365732 0.047116172
-0.17488322 -0.71414697 0.047071092
-0.17359385 -0.71457368 0.047019489
-0.16671038 -0.71695864 0.046814866
-0.14126256 -0.72572052 0.045969479
-0.12999834 -0.72965848 0.045683738
-0.22493865 -0.68688768 0.047861006
-0.18820067 -0.69955504 0.046686437
-0.17954695 -0.70253122 0.04637605
-0.13046375 -0.71949196 0.044836119
-0.12656924 -0.72084796 0.044735357
-0.21139617 -0.69073278 0.047920547
-0.19872494 -0.69508016 0.047475923
-0.19642304 -0.69591337 0.047471315
-0.18316703 -0.70047522 0.047023166
-0.18103848 -0.70116681 0.046926342
-0.14343539 -0.7141155 0.045675494
-0.22315863 -0.67675149 0.047850549
-0.21459167 -0.67968124 0.047532093
-0.20237394 -0.68390107 0.047148481
-0.19796206 -0.68541867 0.046996564
-0.19387245 -0.68682587 0.04689144
-0.18491271 -0.69075871 0.046083741
-0.18397899 -0.69026649 0.04658483
-0.25332955 -0.65728474 0.048152238
-0.25262165 -0.65754229 0.048136692
-0.24069579 -0.66159403 0.047674879
-0.23051748 -0.66510326 0.047352374
-0.20112352 -0.67527008 0.046430908
-0.19565649 -0.67713666 0.046203591
-0.19408023 -0.67766261 0.046170328
-0.1910934 -0.67870361 0.046045497
-0.23154645 -0.66394305 0.047916897
-0.23018752 -0.66441035 0.047873851
-0.22778501 -0.6652745 0.047859844
-0.22551453 -0.66603261 0.047752522
-0.22476301 -0.66629845 0.047723442
-0.21948782 -0.66808218 0.047508646
-0.20802191 -0.67204767 0.047148865
-0.20532934 -0.67298001 0.047063883
-0.20852336 -0.66367632 0.046237014
-0.1968967 -0.66768914 0.045858055
-0.22955121 -0.6556415 0.047488175
-0.20209606 -0.66504824 0.046525866
-0.19903241 -0.6661104 0.046429984
-0.2391561 -0.64412379 0.047104936
-0.23472376 -0.64562833 0.046931043
-0.23335899 -0.64609098 0.046855558
-0.22618227 -0.64856696 0.04664005
-0.21698163 -0.65174025 0.046338182
-0.21509871 -0.65240717 0.046307653
-0.21425644 -0.65272141 0.046317238
-0.23706195 -0.64407349 0.047629412
-0.23659512 -0.64423931 0.047620088
-0.23558205 -0.64457631 0.047586136
-0.23452063 -0.64492232 0.047522701
-0.217401 -0.65080547 0.04691983
-0.20958017 -0.65353101 0.046705503
-0.20689227 -0.65442258 0.046603959
-0.20620698 -0.65464175 0.046533398
-0.27107176 -0.62418652 0.048257343
-0.27004892 -0.62449116 0.048207175
-0.24018455 -0.63482499 0.047270227
-0.21681057 -0.64289784 0.046539623
-0.2077491 -0.64601159 0.046210706
-0.20686449 -0.64672792 0.04594104
-0.26280335 -0.61972839 0.047258679
-0.24923964 -0.62443274 0.046846859
-0.24858209 -0.62464595 0.046821371
-0.22712582 -0.63199824 0.046076216
-0.22539479 -0.63264871 0.046067286
-0.22407924 -0.63310939 0.04603751
-0.22147588 -0.63394499 0.045887712
-0.21409391 -0.63650626 0.045649529
-0.2700184 -0.6164211 0.048026539
-0.26190948 -0.61925721 0.047818135
-0.23571812 -0.62823683 0.046925467
-0.23158495 -0.62972182 0.046829257
-0.22726002 -0.63114989 0.046647049
-0.22251062 -0.63285625 0.046577413
-0.21629715 -0.63498038 0.046338297
-0.21422917 -0.63568401 0.046248365
-0.21389507 -0.63579929 0.04623346
-0.27538496 -0.60737449 0.047774546
-0.26758504 -0.61004066 0.047495458
-0.25927389 -0.61292654 0.04723642
-0.25204885 -0.61536694 0.046974596
-0.24605587 -0.61743999 0.046776507
-0.24549069 -0.61760855 0.046720721
-0.23835923 -0.62008888 0.046526484
-0.22106095 -0.62602854 0.045946967
-0.21979648 -0.62650567 0.045931615
-0.25086242 -0.61496156 0.047478829
-0.24460863 -0.61710662 0.047272574
-0.24405307 -0.61731839 0.047270142
-0.23813078 -0.61939013 0.047128897
-0.22451088 -0.62412149 0.046704762
-0.22010343 -0.62559646 0.046522006
-0.28183216 -0.59784853 0.047627896
-0.28051424 -0.5983597 0.047617547
-0.27443999 -0.5996834 0.048039261
-0.27327731 -0.60088408 0.047416624
-0.27241963 -0.6004141 0.04801549
-0.24970978 -0.6089918 0.046626255
-0.24836861 -0.60869384 0.047221828
-0.24303405 -0.61128795 0.046407137
-0.24158804 -0.61103308 0.046969429
-0.22914863 -0.6160444 0.045926169
-0.22548248 -0.61656058 0.04643115
-0.22522253 -0.61703128 0.046123382
-0.28040355 -0.59761286 0.048222262
-0.27646369 -0.59895551 0.048069507
-0.2581335 -0.60525692 0.047435526
-0.22584286 -0.61642385 0.046445247
-0.28765756 -0.588714 0.04777291
-0.28664175 -0.58905947 0.047741089
-0.27866176 -0.59180629 0.047470614
-0.26972973 -0.59406626 0.047767662
-0.26414376 -0.59680343 0.047007699
-0.25582105 -0.59968251 0.046729863
-0.25534356 -0.59984028 0.046722818
-0.24751206 -0.60256535 0.046470441
-0.246067 -0.60223049 0.046988402
-0.23999539 -0.60507482 0.046153605
-0.23878458 -0.60472411 0.046736177
-0.23461001 -0.60698199 0.046027295
-0.23284042 -0.60754728 0.045927845
-0.23053764 -0.60840178 0.045921333
-0.22949959 -0.60875529 0.045876823
-0.28550774 -0.5830695 0.047217675
-0.28430682 -0.58275044 0.0478172
-0.27034545 -0.58748531 0.047303677
-0.2698257 -0.58794945 0.047094177
-0.26883751 -0.58807087 0.047292434
-0.26179141 -0.59051991 0.047091454
-0.26149368 -0.59062207 0.047090776
-0.24639174 -0.59574986 0.046517979
-0.23668808 -0.59916723 0.046270698
-0.23563139 -0.59953588 0.046248242
-0.23489398 -0.59991544 0.04599975
-0.28943896 -0.57463902 0.047694042
-0.28772312 -0.57514769 0.047549047
-0.27715999 -0.57883394 0.047246501
-0.2758078 -0.57930875 0.047207952
-0.26946336 -0.58150399 0.047006875
-0.26899093 -0.58163995 0.046998363
-0.25907493 -0.58503366 0.04663559
-0.25364828 -0.58691311 0.046467151
-0.24419972 -0.59019381 0.046182983
-0.30442804 -0.56315511 0.048029725
-0.29489115 -0.56643546 0.047722906
-0.29421291 -0.56667209 0.047710333
-0.29335773 -0.56693244 0.047638614
-0.29280764 -0.56709486 0.047590964
-0.29179552 -0.56748086 0.047590692
-0.29005796 -0.56812459 0.047580779
-0.28952745 -0.56867862 0.047244862
-0.27549064 -0.57384658 0.046422243
-0.27453765 -0.57382178 0.046720065
-0.27376264 -0.57371747 0.047034688
-0.2526055 -0.58119744 0.046178475
-0.25212437 -0.58192021 0.045664471
-0.24651653 -0.58311415 0.046163168
-0.24484822 -0.58366781 0.046059605
-0.24451624 -0.58376056 0.046041574
-0.3130964 -0.55457568 0.047647636
-0.30186689 -0.55800098 0.047782015
-0.29360765 -0.56106502 0.047261402
-0.28103995 -0.56496537 0.047334235
-0.28053433 -0.56587243 0.046672076
-0.2733109 -0.56828976 0.046351679
-0.27300617 -0.56837338 0.046329226
-0.27075517 -0.56849682 0.046987846
-0.26618633 -0.57077384 0.046140913
-0.26509517 -0.57078928 0.046459779
-0.26423985 -0.57108706 0.046436436
-0.26332837 -0.57175827 0.046068858
-0.26212293 -0.57145905 0.046698876
-0.26124606 -0.5717259 0.046638668
-0.26023036 -0.57257384 0.046173621
-0.25940531 -0.57309449 0.045922533
-0.25045282 -0.57613885 0.045572773
-0.24913386 -0.57661617 0.0455519
-0.24580778 -0.5777787 0.045469724
-0.3044475 -0.55138588 0.047660131
-0.2997095 -0.55299258 0.047471933
-0.29529077 -0.55455047 0.047353689
-0.29423475 -0.55485028 0.047264777
-0.28679448 -0.55742133 0.0470277
-0.2719577 -0.56254071 0.046553358
-0.27110845 -0.56288803 0.046569854
-0.26629072 -0.56452024 0.046380777
-0.26396829 -0.56530321 0.046300966
-0.26363158 -0.56540757 0.046267323
-0.2622624 -0.56589055 0.046229996
-0.24283649 -0.5726037 0.045615848
