# .PCD v0.7 - Point Cloud Data file format
VERSION 0.7
FIELDS x y z
SIZE 4 4 4
TYPE F F F
COUNT 1 1 1
WIDTH 1259
HEIGHT 1
VIEWPOINT 0 0 0 1 0 0 0
POINTS 1259
DATA ascii
-0.00056533911 -0.071837604 0.030034825
-0.070892923 0.00049571146 0.029686974
-0.069818348 -0.00063664216 0.029709708
-0.063283019 -0.0072393585 0.029800529
-0.062254377 -0.0082382215 0.029781258
-0.061208595 -0.0093172519 0.029820599
-0.011067268 -0.060223892 0.030546091
-0.008451229 -0.062847488 0.030563965
-0.0044528521 -0.066892266 0.03063173
-0.0019019109 -0.069490738 0.030643435
-0.0011606667 -0.070246466 0.030664328
-0.059752449 -0.00069776498 0.029529553
-0.054977667 -0.005624258 0.029675195
-0.017461814 -0.043705236 0.030220198
-0.012387634 -0.048847266 0.030272549
-0.0067740399 -0.054538798 0.030341838
-0.0012365279 -0.060161214 0.030436335
-0.00043407129 -0.060951449 0.030426951
-0.052592374 0.0019145139 0.029644461
-0.049573716 -0.0011813538 0.029717699
-0.046762802 -0.0039942744 0.029729052
-0.044942688 -0.0058746897 0.029768866
-0.036924224 -0.014051365 0.029952789
-0.017861566 -0.033319991 0.03014145
-0.01050503 -0.040829297 0.030290609
-0.00085705088 -0.05053369 0.030365869
-0.00061648304 -0.050783888 0.030369649
-0.051102426 0.0014112922 0.030304002
-0.043558359 -0.0063155936 0.030453756
-0.033665091 -0.01632523 0.030597469
-0.0052237543 -0.045215692 0.031021802
-0.0044431109 -0.04601682 0.031023227
-0.043659396 0.0027625116 0.029960565
-0.042693697 0.0016997656 0.030011259
-0.039633662 -0.0013826133 0.030055344
-0.037823752 -0.003234179 0.0300618
-0.033791538 -0.0073183882 0.030130317
-0.033049855 -0.0080259684 0.030114312
-0.0091685457 -0.032280397 0.030457672
-0.0063747466 -0.035179142 0.030561218
-0.0021174881 -0.03946564 0.030600937
-0.034268402 0.0020059848 0.029838968
-0.031487893 -0.00079821923 0.029870957
-0.028223969 -0.004099363 0.029909376
-0.025668172 -0.0066871047 0.029956112
-0.0072051985 -0.025482655 0.030260103
-0.0056511709 -0.027028959 0.030229542
-0.0041748728 -0.028502386 0.030271061
-0.0020384435 -0.030651564 0.030283408
-0.028335389 -0.0030722856 0.030621171
-0.026779894 -0.0046733753 0.030642446
-0.012595295 -0.019008677 0.030809935
-0.01077978 -0.020890556 0.030883899
-0.0090198126 -0.022658495 0.030860025
-0.005775176 -0.026000377 0.03095754
-0.0021153954 -0.029643346 0.030953469
-0.022730542 2.2255437e-05 0.030592624
-0.021977372 -0.00076161209 0.030608349
-0.019432303 -0.0033335055 0.030651625
-0.018689919 -0.0040431726 0.030635817
-0.014674777 -0.0082259802 0.030775052
-0.013872909 -0.008953779 0.030723259
-0.0067358827 -0.016144939 0.030773062
-0.0060171122 -0.01690275 0.030798148
-0.0052662585 -0.017689852 0.030832034
-0.0028757469 -0.020137237 0.030881168
-0.016484153 0.0023796076 0.030777894
-0.014003852 -0.00012091113 0.030811435
-0.0098934332 -0.0043030004 0.030877411
-0.0050958637 -0.0091606099 0.030940281
-0.0043290821 -0.0099970512 0.031001009
-0.0035687794 -0.010791236 0.031027673
-0.0028306835 -0.011535904 0.031031795
-0.0092007481 0.0027286506 0.03044185
-0.0084676929 0.0019880619 0.030468164
-0.0036168019 -0.0029200548 0.030516976
-0.0018985067 -0.004735061 0.030606892
-0.0070608058 0.0014547138 0.031209007
-0.0062671332 0.00061483035 0.031225067
-0.14367463 0.00041155977 0.028192757
-0.13965811 -0.0036868374 0.028260896
-0.13603684 -0.0073969532 0.028333111
-0.13988118 -0.0024153767 0.028820401
-0.13697259 -0.0053386185 0.028844632
-0.12140511 -0.0076212012 0.02904457
-0.0028330439 -0.12781209 0.030667037
-0.00031367849 -0.13037342 0.030708501
-0.0038323442 -0.12575664 0.031216878
-0.0013272706 -0.1282966 0.031262394
-0.1189371 0.0023196221 0.028773641
-0.11701749 0.00043558134 0.028747205
-0.11602624 -0.00060592056 0.028784497
-0.10915411 -0.007526367 0.028858701
-0.0020633042 -0.11618219 0.030397665
-0.0012686918 -0.11699296 0.030394154
-0.11348399 -0.0021400661 0.029362684
-0.11241012 -0.0031519451 0.029358285
-0.11145342 -0.004205741 0.029420568
-0.10741575 -0.0082023861 0.02941142
-0.0015194046 -0.11570243 0.030981665
0.00054096035 -0.11778783 0.030968899
-0.10337809 3.2746175e-05 0.029464066
-0.10237163 -0.0010451837 0.029507767
-0.020553894 -0.084084854 0.030697631
-0.014681592 -0.090008594 0.030763056
-0.0086513795 -0.096113965 0.030831249
-0.097569168 -0.0048237909 0.030125488
-0.096557282 -0.0058803828 0.030144257
-0.021549359 -0.08198522 0.031232458
-0.083343923 -0.0091408463 0.02947212
-0.092644818 0.0013328004 0.029926594
-0.09170644 0.00031839038 0.029974526
-0.0035107885 -0.089116313 0.031208737
-0.0022045749 -0.090439208 0.03121323
-0.0011894519 -0.091462687 0.03122521
-0.079179205 -0.0011292901 0.029977715
-0.078198709 -0.0022208376 0.03005801
-0.0095401322 -0.070835359 0.031627752
-0.0092563573 -0.072097979 0.03101163
-0.0074860631 -0.072940618 0.031680528
-0.0016477343 -0.079874866 0.031158622
-0.0003932683 -0.081132375 0.031176904
-0.079692818 0.00038413174 0.030614924
-0.012803879 -0.067502774 0.031576697
-0.012045523 -0.068281397 0.031602591
-0.0049569309 -0.07541132 0.031657167
-0.0027306012 -0.077726431 0.031737313
-0.067364685 -0.0020765108 0.030343985
-0.059026577 -0.010557123 0.030480448
-0.0096265404 -0.060691196 0.031215193
-0.0069896523 -0.063317634 0.031207459
-0.0029462955 -0.067466237 0.031303298
-0.0014352262 -0.068976097 0.031281549
-0.00019092247 -0.070256673 0.031323645
-0.061107934 0.0015198026 0.030250115
-0.060120609 0.00052785297 0.030245118
-0.057587497 -0.00097820314 0.030900989
-0.056621972 -0.0020397694 0.030951854
-0.055297934 -0.0043622404 0.030319797
-0.052781083 -0.0059078219 0.030984452
-0.052459396 -0.0072268443 0.030340983
-0.051017743 -0.0077035436 0.031011054
-0.047947712 -0.011293396 0.030728465
-0.017791828 -0.041436352 0.031506415
-0.01024399 -0.049113426 0.031623457
-0.0084288716 -0.050950285 0.031662051
-0.0081053246 -0.052166391 0.030936386
-0.0040464504 -0.056354739 0.031050742
-0.0030403289 -0.057394031 0.031072313
-0.0015811289 -0.057913315 0.031749919
-0.0015601001 -0.0588746 0.031090215
-0.0019738777 -0.048574187 0.03110617
-0.049455855 0.00061779865 0.031046117
-0.048469737 -0.00039996579 0.031066226
-0.047389571 -0.0014879821 0.031075019
-0.04460879 -0.0042926096 0.03110644
-0.042129997 -0.0068075564 0.031158829
-0.041345157 -0.0075930473 0.03114534
-0.040573183 -0.008413367 0.031180181
-0.030703131 -0.018463021 0.031365592
-0.014908556 -0.03440975 0.031519365
-0.011645023 -0.037755895 0.031595077
-0.0085983416 -0.040848922 0.031651173
-0.0072517986 -0.042169966 0.031605445
-0.0060370825 -0.043450583 0.03167554
-0.003753989 -0.046727978 0.031049924
-0.0030350429 -0.047458459 0.031063342
-0.042295773 0.0022271757 0.030706551
-0.041000154 0.0009139608 0.030716259
-0.038167991 -0.0019219539 0.030730864
-0.013854953 -0.026607987 0.031113679
-0.010118433 -0.030367218 0.031133439
-0.0092822257 -0.031228464 0.031136783
-0.0064587039 -0.034141496 0.031231022
-0.0044507538 -0.036152389 0.031231327
-0.0031795583 -0.037448108 0.031251967
-0.0026634547 -0.037966743 0.031260923
-0.038569909 -0.00060964975 0.031439137
-0.03572055 -0.0034692602 0.031443022
-0.034967788 -0.0042517846 0.031458765
-0.030947113 -0.0082988702 0.031522237
-0.01242926 -0.027160529 0.031821866
-0.010173237 -0.029403375 0.031810906
-0.0065553072 -0.033036992 0.031859387
-0.032147106 0.0016922904 0.031239433
-0.031141138 0.00070123852 0.031247744
-0.029358201 -0.001112208 0.031271961
-0.022767805 -0.0077940947 0.031372041
-0.0093403915 -0.021431446 0.031561729
-0.0030738767 -0.027761823 0.031661339
-0.0022627024 -0.028579904 0.031656343
-0.023063712 0.0012754078 0.031298313
-0.020583838 -0.0012590518 0.031345725
-0.017295962 -0.0045673251 0.031381916
-0.0078977747 -0.014152572 0.031550091
-0.0030608387 -0.01904859 0.0316066
-0.023447949 0.0025919094 0.031970415
-0.021628963 0.00071681372 0.032009732
-0.019151377 -0.0017897176 0.032062788
-0.01835743 -0.0026308044 0.032078534
-0.01507158 -0.0059281955 0.032104854
-0.014291408 -0.0067546293 0.03213454
-0.013608566 -0.0074663232 0.032190684
-0.011045748 -0.0099895522 0.032163776
-0.010541248 -0.010525816 0.032182839
-0.0095034419 -0.011639077 0.032235507
-0.0087809972 -0.012373401 0.032257576
-0.0034131373 -0.017765867 0.032279335
-0.016075822 0.0028578164 0.031499941
-0.014896717 0.0021238278 0.03187063
-0.013733295 0.0014067827 0.032244567
-0.011792151 -0.0014455551 0.031545907
-0.010423158 -0.0019328374 0.032279264
-0.008456815 -0.0048788358 0.031611733
-0.007758942 -0.0056029791 0.031651042
-0.007030983 -0.0063828863 0.031687122
-0.0048647751 0.00015222219 0.031934176
-0.0031336797 -0.0016333198 0.031985283
-0.14016972 -0.001049744 0.029352073
-0.14034316 0.00018630904 0.029901598
-0.1346579 -0.0056143664 0.030008009
-0.12443007 -0.0035179402 0.029590722
-0.12538616 -0.0014052368 0.030079192
-0.12289909 -0.0040059187 0.030148206
-0.12183509 -0.0049760211 0.030098297
-0.0040732967 -0.12448385 0.031795524
-0.0015347257 -0.12704279 0.031820524
-0.0045738677 -0.11160883 0.031539898
-0.0015037629 -0.11471111 0.031574793
-0.11300176 -0.00060806773 0.030585323
-0.10923393 -0.004428443 0.030649927
-0.0045533939 -0.11058954 0.032109275
-0.0030653235 -0.11210532 0.032143604
-0.0023328867 -0.1128201 0.032147136
-0.001510535 -0.11367024 0.032153834
-0.10368954 0.0012592277 0.030119509
-0.020607166 -0.082977064 0.031289615
-0.0028463881 -0.10103413 0.031564567
-0.0020865244 -0.10179207 0.031572413
-0.00054667558 -0.10335311 0.031589173
-0.098099537 -0.0034098369 0.03081201
-0.09482386 -0.0067167389 0.030832304
-0.0096783331 -0.093073122 0.032036293
-0.0074126422 -0.095317334 0.032037977
-0.0051465081 -0.097617321 0.032095626
-0.0030725903 -0.099774562 0.032133985
-0.0023245483 -0.10055004 0.03216945
-0.088147141 -0.0012330821 0.031226246
-0.087622233 -0.0026793757 0.03054403
-0.086649135 -0.0037463813 0.030620787
-0.085574299 -0.0048803459 0.030643465
-0.083840556 -0.0065699262 0.030630138
-0.081355162 -0.0081110345 0.031308625
-0.080370024 -0.0091228234 0.031327121
-0.079288691 -0.010216935 0.031336039
-0.016666338 -0.074751362 0.031610653
-0.010810482 -0.080690354 0.031695429
-0.0093236174 -0.081217803 0.032352902
-0.008523412 -0.082039177 0.032366123
-0.0085058529 -0.08305908 0.031751852
-0.0070544085 -0.083516218 0.032392096
-0.0052591721 -0.085298263 0.032363217
-0.0042635379 -0.086292714 0.032380864
-0.0039938246 -0.087585412 0.031793986
-0.0015106014 -0.089631006 0.032141797
-0.080744125 0.0013409093 0.03067117
-0.070903569 -0.0086057074 0.03078494
-0.0057690293 -0.074659117 0.03172458
-0.0011630938 -0.079382114 0.031796228
-0.075983562 -0.0024682232 0.031348649
-0.074997157 -0.0034565905 0.031343102
-0.073920518 -0.0044339062 0.031287506
-0.072206244 -0.0062763114 0.031390652
-0.071196981 -0.0073093302 0.031409044
-0.069450937 -0.0090796892 0.031447276
-0.066601507 -0.011941825 0.031448897
-0.01286746 -0.06642995 0.032215867
-0.010620399 -0.06873849 0.032278687
-0.0034367994 -0.075974226 0.032303315
-0.0012041677 -0.078313015 0.032396544
-0.067620449 -0.00087244983 0.031003673
-0.064901486 -0.0036194911 0.03104783
-0.063915849 -0.0046343887 0.031067161
-0.011658688 -0.057642136 0.031820558
-0.010625967 -0.058712557 0.031839721
-0.0055272104 -0.063811019 0.031866446
-0.0047321515 -0.064632386 0.031873249
-0.001605846 -0.067831233 0.031930454
-0.068951152 0.0014998263 0.031597037
-0.06794405 0.00041482423 0.031644426
-0.06513194 -0.0023254182 0.031624816
-0.062115826 -0.0054725897 0.031723067
-0.05933474 -0.0082776751 0.031753849
-0.011872619 -0.056427948 0.032417946
-0.010679034 -0.057650249 0.032464989
-0.003262097 -0.065145202 0.032532111
-0.0025322072 -0.065901503 0.032565165
-0.054904923 -0.0028216722 0.031630822
-0.053159099 -0.0045919428 0.031668425
-0.043971214 -0.013889598 0.031762354
-0.041452013 -0.016429011 0.031803858
-0.024023077 -0.034102459 0.032048102
-0.020363057 -0.037878655 0.03214623
-0.019594332 -0.038670152 0.032162186
-0.014525768 -0.043717373 0.032138698
-0.013268613 -0.045053605 0.032228649
-0.012538669 -0.045798454 0.032241128
-0.0087372065 -0.049687184 0.032305889
-0.0048671179 -0.0535556 0.032314006
-0.0039117387 -0.054526329 0.032331735
-0.0019106042 -0.056598689 0.032392681
-0.043012396 -0.013876839 0.032409787
-0.0062349578 -0.051162709 0.032923065
-0.0052414457 -0.052183293 0.032940544
-0.044911388 -0.0030325921 0.031759758
-0.043127716 -0.0048481524 0.031783734
-0.039084837 -0.0089095011 0.031828947
-0.031504162 -0.016643403 0.031974688
-0.018075544 -0.030275291 0.032138914
-0.01168108 -0.036798857 0.03228524
-0.010438174 -0.038026053 0.032276716
-0.048287127 0.0013685822 0.032381285
-0.047311515 0.00034434331 0.032412663
-0.046271008 -0.00070741196 0.032410949
-0.045220617 -0.0017940506 0.032425229
-0.024208719 -0.023092117 0.032718904
-0.031983461 -0.006361146 0.032193743
-0.011026719 -0.027622983 0.032497384
-0.010248346 -0.02837084 0.03247723
-0.0073691737 -0.031273969 0.032518383
-0.031764615 0.0022365309 0.031946626
-0.029729076 0.00020916112 0.03196064
-0.027950207 -0.0016057587 0.031979498
-0.024642115 -0.0049309847 0.032015573
-0.02392203 -0.0056554801 0.032026373
-0.011970177 -0.017756773 0.032161757
-0.0054130084 -0.024506081 0.03234547
-0.026559902 -0.0020705573 0.032690138
-0.024998294 -0.0036998643 0.032729611
-0.0049862135 -0.015182012 0.032897945
-0.0042715473 -0.015903596 0.032911904
-0.011524718 2.1517983e-05 0.033006262
-0.010747069 -0.00074770919 0.033013444
-0.0082324781 -0.0033050911 0.03305142
-0.0074570412 -0.0040646484 0.033033039
-0.13570875 -0.003371137 0.030487757
-0.13209593 -0.0071424982 0.030555837
-0.0018864481 -0.13919677 0.032397386
-0.12576124 1.7099781e-05 0.030619578
-0.12384618 -0.0019394 0.030667147
-0.1200554 -0.0057945363 0.030721767
-0.11833522 -0.0075857118 0.030784817
-0.11546418 -0.0093686515 0.031332754
-0.00074454997 -0.12576163 0.032969754
-0.11320405 0.00069269264 0.03113142
-0.0045420257 -0.10953967 0.032677572
-0.1107378 -0.00082291383 0.031781677
-0.10966163 -0.0017938938 0.031731255
-0.0099058207 -0.10309496 0.03322326
-0.0045605651 -0.10849428 0.033261597
-0.10136139 0.0010363754 0.031275753
-0.1003396 -1.3742974e-05 0.031311393
-0.098649107 -0.00077985472 0.031976104
-0.098394081 -0.0020669461 0.031389922
-0.095544733 -0.0038492053 0.031967536
-0.020770831 -0.080721319 0.032415301
-0.019783277 -0.081733458 0.032438759
-0.010697317 -0.089989685 0.033233851
-0.010236996 -0.091472484 0.03263472
-0.0071422425 -0.093586981 0.033258438
-0.0056212023 -0.096123442 0.032659933
-0.0038568494 -0.096884869 0.033294771
-0.0033597397 -0.098438792 0.032727756
-0.089698642 0.0013123091 0.031821981
-0.081563242 -0.0068141129 0.031857613
-0.014404044 -0.075037584 0.032863416
-0.01185591 -0.077531166 0.03283719
-0.005535007 -0.084056787 0.033018343
-0.083633818 -0.0038175641 0.032497518
-0.015323779 -0.073066093 0.033438113
-0.076274022 -0.0011546555 0.031959001
-0.012906495 -0.065385111 0.032822799
-0.0052753207 -0.073185951 0.032959674
-0.0019809057 -0.07646773 0.03296664
-0.072747506 -0.0036525684 0.03256721
-0.0139434 -0.063388288 0.033462577
-0.013140795 -0.064179868 0.033453014
-0.012405555 -0.064915299 0.033464864
-0.0083457511 -0.069082573 0.033548187
-0.0066066091 -0.070800446 0.033534516
-0.0055342582 -0.071936548 0.033580739
-0.064754792 -0.00081609352 0.032957762
-0.062967725 -0.002608032 0.032977775
-0.059614804 -0.0070129312 0.032381199
-0.056137584 -0.010536149 0.032453887
-0.055352051 -0.011324538 0.032440327
-0.01562674 -0.050685786 0.033679184
-0.015283738 -0.052058153 0.03307566
-0.01275249 -0.053512726 0.033653654
-0.012475392 -0.054818433 0.033048376
-0.012213138 -0.05509831 0.033058591
-0.010716707 -0.055629589 0.033701673
-0.0066438364 -0.060802098 0.033174135
-0.053419836 -0.0033508504 0.032287881
-0.050595496 -0.0061906548 0.032326233
-0.047343705 -0.0094977478 0.032381643
-0.040838044 -0.015198075 0.033177529
-0.015859945 -0.041452918 0.032835845
-0.01261294 -0.043725073 0.033485513
-0.0098048868 -0.046624269 0.03356481
-0.0090563763 -0.047370639 0.033559255
-0.0022236349 -0.055282909 0.033029113
-0.042779345 -0.0032709704 0.033120394
-0.040283717 -0.0057923188 0.033151705
-0.038720846 -0.0074261478 0.0331917
-0.01259728 -0.033878535 0.033537932
-0.011043176 -0.035520598 0.03362241
-0.0057155215 -0.040851064 0.03361987
-0.0034700362 -0.043185573 0.033708241
-0.037418559 0.00011209057 0.03278761
-0.014611057 -0.023020638 0.033099432
-0.0046306779 -0.033165805 0.033269409
-0.029848749 -0.0065638847 0.033539008
-0.0083739571 -0.028394941 0.033860065
-0.012397564 -0.015550544 0.033606101
-0.011604226 -0.016282529 0.033562906
-0.0057797367 -0.022205018 0.033650044
-0.019619538 0.0005085289 0.033442479
-0.0061656684 -0.013188921 0.033690158
-0.0060733794 -0.0046237693 0.033809736
-0.0093560647 -0.0012189293 0.03372056
-0.13157363 -0.0056045898 0.031723376
-0.12335837 -0.00029769936 0.031782765
-0.11779612 -0.0060370453 0.031921841
-0.11796178 -0.004752947 0.032441039
-0.10589973 -0.004700324 0.032433338
-0.10284688 -0.007725921 0.032420635
-0.024486287 -0.087287106 0.033583976
-0.013113999 -0.09876401 0.033703983
-0.0083473586 -0.10365067 0.033818655
-0.020057363 -0.07938455 0.033615857
-0.0076910625 -0.092018552 0.033851944
-0.0053941845 -0.094303422 0.033862259
-0.0082537932 -0.090423338 0.034448568
-0.0013319893 -0.097425878 0.034531672
-0.015683489 -0.071705967 0.034045599
-0.068228312 -0.0073268372 0.033307031
-0.066174209 -0.0093802596 0.033323251
-0.012182996 -0.064145237 0.034087263
-0.0093672741 -0.067017183 0.034132071
-0.0030734129 -0.073419608 0.03425331
-0.065032817 0.00040892389 0.033613041
-0.054942466 -0.0097609144 0.033721082
-0.0062541361 -0.0592039 0.034441128
-0.040863685 -0.014165467 0.03378455
-0.036279388 -0.018847302 0.033876173
-0.020518968 -0.034752093 0.03404155
-0.0098718274 -0.045596119 0.03422913
-0.050545473 -0.0033608512 0.034285851
-0.016031651 -0.038380206 0.034793492
-0.015524114 -0.038882859 0.03478634
-0.011945553 -0.042472083 0.034792352
-0.0097057484 -0.044788256 0.034882572
-0.038809497 -0.0063581602 0.033850618
-0.0090986937 -0.036521785 0.034293249
-0.007839188 -0.037796956 0.034305342
-0.043421045 -0.00074840413 0.034453452
-0.032512855 -0.002964762 0.034193728
-0.027665956 -0.0078795375 0.034272049
-0.010671038 -0.025127893 0.034512449
-0.0079297619 -0.019166453 0.034361921
-0.016670903 -0.0015932558 0.034205828
-0.093474984 -0.07153222 0.033185322
-0.030295145 -0.091633588 0.034838695
-0.0093420129 -0.10161453 0.034380104
-0.0060685338 -0.10491742 0.034434017
-0.023720067 -0.086004451 0.034763493
-0.010616512 -0.099227682 0.03491611
-0.094593138 -0.0018519606 0.033844661
-0.0051640086 -0.09253265 0.035073712
-0.0182954 -0.079127759 0.0348249
-0.017525868 -0.079938456 0.03485347
-0.078614034 -0.0068320245 0.03377809
-0.011417142 -0.075041592 0.034742866
-0.014973659 -0.070422821 0.035311844
-0.070495345 -0.0039585358 0.033850182
-0.063439012 -0.011170375 0.03398433
-0.013514682 -0.061841246 0.034723718
-0.012720351 -0.062663004 0.034746125
-0.013512864 -0.060877498 0.035357092
-0.052975662 -0.0098235989 0.035046082
-0.051914521 -0.011417247 0.034742109
-0.048646469 -0.014221203 0.035101075
-0.015867008 -0.047977574 0.035257246
-0.014905976 -0.049452715 0.034959748
-0.013357148 -0.051062219 0.035014093
-0.010530959 -0.053853065 0.034979273
-0.0097370781 -0.05466219 0.034998324
-0.0085614454 -0.055859167 0.035024125
-0.019646334 -0.033712279 0.035351954
-0.017604977 -0.035764784 0.035389021
-0.016293526 -0.037178949 0.03547246
-0.0036344419 -0.049932525 0.035567995
-0.09166535 -0.072315328 0.033764709
-0.095636636 -0.067150287 0.034190588
-0.094886571 -0.067930996 0.034222662
-0.094124354 -0.068704061 0.034238286
-0.12639493 -0.0076267621 0.033432454
-0.02450417 -0.084136784 0.035305083
-0.022995489 -0.084662132 0.035935793
-0.010298926 -0.097495146 0.036072273
-0.018613078 -0.07785698 0.035504598
-0.015245761 -0.068094596 0.036486086
-0.015257367 -0.06910643 0.035898931
-0.061467268 -0.011193366 0.035267122
-0.011808734 -0.061590347 0.036007702
-0.017382193 -0.054857347 0.036481228
-0.011843936 -0.060549952 0.036618128
-0.013172517 -0.049249358 0.036244959
-0.038481563 -0.013671167 0.035775967
-0.03161256 -0.020630257 0.035863116
-0.028597685 -0.0236593 0.035871908
-0.034748849 -0.016448785 0.036451075
-0.020566164 -0.030845109 0.036641594
-0.019806415 -0.031630766 0.036661152
-0.096613489 -0.064027414 0.035247888
-0.096103579 -0.065566711 0.034668013
-0.094552681 -0.066056699 0.035222255
-0.024449002 -0.082074746 0.036421057
-0.011879731 -0.094862111 0.036645345
-0.0070387302 -0.0998004 0.036722217
-0.10054487 -0.0039074682 0.035991509
-0.019065306 -0.075385019 0.036672585
-0.018074024 -0.075366147 0.037279829
-0.018075798 -0.076379992 0.036685433
-0.017622998 -0.053637479 0.037114657
-0.01207245 -0.05934462 0.037240848
-0.024377761 -0.036838777 0.036696006
-0.031776369 -0.018584611 0.037207793
-0.030473609 -0.019861253 0.037200704
-0.028651901 -0.021613121 0.037132062
-0.026401633 -0.023989912 0.037241582
-0.025636861 -0.024758669 0.037256297
-0.098349206 -0.061171155 0.035739489
-0.096289121 -0.063269041 0.035770323
-0.021461397 -0.082021408 0.03823366
-0.014513565 -0.06681668 0.03771501
-0.015667249 -0.054630823 0.037761841
-0.018876933 -0.040502008 0.038084514
-0.033359867 -0.014924526 0.038396444
-0.0979046 -0.058413498 0.037329949
-0.09599448 -0.061406195 0.036834065
-0.026700649 -0.089045949 0.038335122
-0.018115491 -0.072234727 0.039040659
-0.016858496 -0.073492371 0.039063878
-0.013085202 -0.065223843 0.039568778
-0.017309174 -0.051044572 0.039051872
-0.016993711 -0.051374767 0.039055679
-0.055578135 -0.011181204 0.039104391
-0.018747421 -0.048558854 0.039627068
-0.012176512 -0.055219725 0.039705135
-0.015412429 -0.042051196 0.039416634
-0.014065675 -0.043374833 0.039370812
-0.028880017 -0.018583069 0.039176054
-0.096346088 -0.058939833 0.037911218
-0.094796315 -0.059407007 0.038418703
-0.094138533 -0.046410553 0.037868187
-0.017892141 -0.071447268 0.039657075
-0.065123558 -0.011461683 0.039450012
-0.014148205 -0.063161947 0.040175866
-0.054585271 -0.011218457 0.039740901
-0.0094266906 -0.05703111 0.040387537
-0.013739314 -0.052591369 0.040279131
-0.041112639 -0.015048171 0.039713822
-0.017739518 -0.03870574 0.040007599
-0.015942404 -0.040517617 0.040013187
-0.0395968 -0.015520464 0.040314849
-0.039197385 -0.015903985 0.040300749
-0.036284305 -0.018964294 0.040424
-0.027386071 -0.027871178 0.040443528
-0.020784456 -0.034602065 0.040565617
-0.09682893 -0.070969157 0.039165579
-0.094073161 -0.073805705 0.039253794
-0.09304662 -0.074757054 0.039177977
-0.092016332 -0.075847782 0.039221242
-0.091813602 -0.077162534 0.038727809
-0.090860531 -0.078107491 0.038743593
-0.087835588 -0.081196435 0.038809869
-0.095257036 -0.056710865 0.039428737
-0.031672582 -0.093129456 0.040286705
-0.01737031 -0.068898417 0.041447017
-0.016895035 -0.069374777 0.041465826
-0.014863693 -0.071454227 0.041472539
-0.041101567 -0.01304044 0.040929101
-0.03783204 -0.016324252 0.040975038
-0.036611497 -0.017597072 0.041022275
-0.035841636 -0.01842374 0.041063663
-0.03406458 -0.020206351 0.04108287
-0.031765632 -0.022430353 0.041007824
-0.014987942 -0.039537877 0.041319467
-0.096763559 -0.069962204 0.039689209
-0.095085911 -0.071674056 0.039733399
-0.091993779 -0.074713513 0.039705724
-0.090992644 -0.075781815 0.039752763
-0.089950174 -0.076855235 0.039756738
-0.087933943 -0.078929223 0.03981306
-0.093220085 -0.072521478 0.040304631
-0.092195228 -0.073489279 0.040266231
-0.088171594 -0.077553764 0.040311281
-0.095949374 -0.054945044 0.039935321
-0.09752275 -0.05228867 0.040444788
-0.096785165 -0.05301597 0.040472392
-0.095952451 -0.053864341 0.040448997
-0.091978468 -0.043314118 0.040633485
-0.071153075 -0.013334164 0.041281905
-0.015108895 -0.070206344 0.04209841
-0.011604944 -0.062729895 0.042041302
-0.035655018 -0.016570471 0.042275764
-0.034107544 -0.019199921 0.041721873
-0.031738263 -0.021482831 0.041653704
-0.017840931 -0.035638504 0.041907709
-0.0948769 -0.069710553 0.040729791
-0.094187856 -0.070387177 0.040742658
-0.096377358 -0.067091972 0.041239977
-0.094868563 -0.068619393 0.041264359
-0.092434347 -0.071084164 0.041300327
-0.091364868 -0.072226889 0.041347649
-0.097453378 -0.051302619 0.04096476
-0.097450286 -0.050242726 0.041534197
-0.095665246 -0.052022282 0.041523378
-0.024572093 -0.083873093 0.042318039
-0.018417183 -0.065779909 0.042621315
-0.015357761 -0.067878246 0.04326107
-0.05858792 -0.0130528 0.042602401
-0.011191824 -0.061182279 0.043303847
-0.011727646 -0.050727557 0.042877518
-0.012679637 -0.048766319 0.043468852
-0.0088051101 -0.052651495 0.043480136
-0.034166861 -0.017158695 0.042985015
-0.097641289 -0.064699285 0.041725919
-0.097284958 -0.064002268 0.042243306
-0.097408295 -0.049202595 0.042066488
-0.020167522 -0.073020823 0.044067547
-0.017380334 -0.075873286 0.04414117
-0.013666634 -0.068576902 0.043915603
-0.012234415 -0.059113957 0.043894816
-0.011275221 -0.060055789 0.043906007
-0.019411346 -0.050804839 0.044402342
-0.016783638 -0.053396285 0.044369485
-0.012483896 -0.057826273 0.044480413
-0.043380659 -0.015612965 0.044273622
-0.0185041 -0.041848771 0.044007678
-0.014409395 -0.045997318 0.044067528
-0.012676971 -0.047745034 0.044072099
-0.095723726 -0.0644271 0.042728659
-0.094475277 -0.065705076 0.04275341
-0.096493922 -0.047947485 0.043085515
-0.094794244 -0.049699582 0.043132279
-0.035532136 -0.094146147 0.044667646
-0.020440375 -0.07069359 0.045269474
-0.013043965 -0.056227565 0.045073085
-0.021315511 -0.037017837 0.04523249
-0.018827248 -0.039521903 0.045255471
-0.018036326 -0.040325832 0.045252752
-0.017520471 -0.040844131 0.045261957
-0.015730971 -0.042615496 0.04523756
-0.014981887 -0.043367561 0.045251533
-0.012474718 -0.035240106 0.045855284
-0.096658476 -0.061355561 0.043776229
-0.095380954 -0.062659532 0.043790083
-0.097111881 -0.05980039 0.044283658
-0.094843499 -0.046310592 0.044622585
-0.093853392 -0.047380824 0.044723202
-0.025623962 -0.089772299 0.045348417
-0.017855939 -0.071242236 0.046434224
-0.016865712 -0.072242483 0.046446711
-0.012277728 -0.054980613 0.046285238
-0.011181793 -0.056103215 0.046332721
-0.027527798 -0.029725216 0.045768414
-0.022109816 -0.035162766 0.045791388
-0.018336387 -0.039025888 0.045875546
-0.012981046 -0.044456508 0.045952827
-0.042000737 -0.014051098 0.046205085
-0.089304268 -0.082481682 0.044891894
-0.090269603 -0.080398701 0.045367133
-0.089314431 -0.081322037 0.045376942
-0.087414108 -0.083252601 0.045372378
-0.086674176 -0.083968766 0.045368467
-0.097796269 -0.058040705 0.044801239
-0.097027071 -0.058835559 0.04481709
-0.095552184 -0.060287319 0.044806715
-0.095083043 -0.045040939 0.045173686
-0.094017819 -0.045028098 0.045704037
-0.015110951 -0.073000714 0.047072619
-0.014691 -0.062444966 0.04686439
-0.011608801 -0.065531828 0.046870198
-0.016985711 -0.059120897 0.047444806
-0.016736263 -0.059378501 0.047446955
-0.011643439 -0.064476222 0.047478791
-0.01734438 -0.047852144 0.047457669
-0.014591862 -0.051627498 0.046891756
-0.039356772 -0.014681455 0.047426615
-0.093232788 -0.076240458 0.045785595
-0.090208717 -0.079349145 0.045861822
-0.087400272 -0.082196213 0.045904279
-0.085626222 -0.083935589 0.045888294
-0.084078886 -0.085505038 0.045890402
-0.083318442 -0.086293004 0.04591883
-0.093437925 -0.074873164 0.046238061
-0.091355979 -0.077047989 0.046295933
-0.090427056 -0.077988937 0.046345957
-0.08839184 -0.080081619 0.046366926
-0.084048018 -0.084430479 0.046399273
-0.099024564 -0.053454306 0.046261702
-0.097389363 -0.055131048 0.04626932
-0.096668951 -0.055840369 0.046283375
-0.096695043 -0.056938689 0.045800611
-0.095110625 -0.057496399 0.046372384
-0.093459599 -0.043462627 0.046785682
-0.021646336 -0.076388009 0.048033386
-0.018506896 -0.055496641 0.048582487
-0.014219239 -0.060890578 0.048071243
-0.013424666 -0.061712231 0.048093479
-0.01218781 -0.061896756 0.048671145
-0.01141971 -0.063671403 0.048071489
-0.017402304 -0.046783853 0.048089478
-0.014696816 -0.049550489 0.04813695
-0.011092805 -0.053147066 0.048139613
-0.0097715305 -0.054503102 0.048156235
-0.052455954 -0.010217983 0.048186649
-0.047634777 -0.015109229 0.048269685
-0.019430762 -0.043654781 0.048593055
-0.018702427 -0.044410594 0.048638064
-0.016410479 -0.046770193 0.048701216
-0.01493928 -0.04828326 0.048729923
-0.026054332 -0.02712955 0.048188567
-0.093586445 -0.073649682 0.04674498
-0.089343339 -0.077991232 0.046848498
-0.090456843 -0.075760156 0.047299966
-0.097373702 -0.054064855 0.046782766
-0.093635544 -0.042210635 0.047342442
-0.019906908 -0.077085651 0.048643701
-0.01625417 -0.05779437 0.048635781
-0.050924096 -0.01070485 0.048781797
-0.017304715 -0.044865824 0.049303014
-0.035018768 -0.016116582 0.049375992
-0.024308715 -0.026918313 0.049466413
-0.022858154 -0.028498799 0.049572773
-0.019861583 -0.031461947 0.049570441
-0.019242048 -0.03259458 0.049252462
-0.014922615 -0.036530975 0.049670782
-0.011177414 -0.040309977 0.049722821
-0.097783551 -0.067255884 0.047721524
-0.097089216 -0.06792511 0.047745295
-0.094673544 -0.069304794 0.048245143
-0.094250232 -0.070286863 0.048017927
-0.093823165 -0.071277857 0.047799073
-0.092755221 -0.07237003 0.047829423
-0.098090261 -0.051157009 0.047796544
-0.092792392 -0.040910855 0.048377018
-0.015313787 -0.066568226 0.05053867
-0.021778582 -0.039306775 0.049840409
-0.015960475 -0.045219757 0.049936142
-0.044932868 -0.01486576 0.050172638
-0.034043591 -0.0161216 0.050023444
-0.033512004 -0.016701344 0.050051477
-0.031997208 -0.018247543 0.050062101
-0.024352988 -0.02589336 0.050101396
-0.022869021 -0.027445078 0.05018441
-0.034325577 -0.014792515 0.050612357
-0.023910552 -0.025360286 0.050733536
-0.097360775 -0.065438628 0.048656818
-0.094635509 -0.068228692 0.048749104
-0.091866203 -0.071081683 0.048815176
-0.095820263 -0.06591402 0.049211398
-0.097965837 -0.049159348 0.048867401
-0.09547136 -0.051611893 0.048871011
-0.094653137 -0.052456867 0.048862882
-0.095399462 -0.050612222 0.049374577
-0.091912322 -0.038476344 0.049896616
-0.091156989 -0.039306629 0.049951281
-0.029621487 -0.08951015 0.050167449
-0.018011386 -0.0748372 0.05090462
-0.059139922 -0.010197394 0.050407633
-0.057614055 -0.01071927 0.051021039
-0.018766265 -0.040344149 0.051087923
-0.097072788 -0.063555487 0.049716134
-0.097496189 -0.062027 0.050171375
-0.096760422 -0.062785834 0.050209124
-0.095450103 -0.064059578 0.050164498
-0.095272936 -0.048619911 0.050416365
-0.017522555 -0.074297987 0.051490091
-0.019631054 -0.060181696 0.051684797
-0.013522772 -0.066316515 0.051727362
-0.01811805 -0.060688868 0.052294511
-0.01504883 -0.06372349 0.052289762
-0.014305973 -0.064467885 0.052301448
-0.015754152 -0.052125998 0.052168448
-0.015255404 -0.052612893 0.052169286
-0.0099723302 -0.058060683 0.052297175
-0.042452406 -0.014361109 0.052028753
-0.018570673 -0.038536731 0.052331273
-0.01603462 -0.041110158 0.052378628
-0.015499368 -0.041607488 0.052340493
-0.017679684 -0.029725922 0.052097201
-0.097161122 -0.06128335 0.050690852
-0.093880199 -0.064547658 0.050689321
-0.096170157 -0.046521984 0.050837994
-0.095238812 -0.047537532 0.050937124
-0.090217248 -0.036974911 0.051487505
-0.022779921 -0.07783436 0.0531465
-0.020247525 -0.080409497 0.053167164
-0.016455339 -0.073300228 0.052648515
-0.016755516 -0.071901776 0.053180564
-0.014792643 -0.062968373 0.052884221
-0.05531615 -0.01104615 0.052248672
-0.054552589 -0.011739194 0.052221481
-0.017800098 -0.049102202 0.052779209
-0.019844105 -0.045985438 0.053360999
-0.014481873 -0.051382069 0.053385738
-0.013510643 -0.052348211 0.053386237
-0.012174285 -0.053752027 0.053433035
-0.011219081 -0.054721616 0.053450685
-0.039887968 -0.014845777 0.053204797
-0.026972992 -0.027982479 0.053414244
-0.021362484 -0.033655275 0.053474106
-0.019856868 -0.035197116 0.053522147
-0.019084563 -0.036016949 0.05357153
-0.015298 -0.03984946 0.053594895
-0.090594679 -0.081500813 0.051930226
-0.084778287 -0.087375723 0.052021038
-0.083960146 -0.088249907 0.052024249
-0.091525108 -0.079479076 0.052403871
-0.090492196 -0.080531955 0.05242119
-0.088730387 -0.082280993 0.05242699
-0.087926678 -0.083080262 0.052416366
-0.08619149 -0.084815666 0.052447494
-0.085397497 -0.085640535 0.052439965
-0.084643282 -0.086407684 0.052464254
-0.097565018 -0.058699694 0.051702667
-0.096838206 -0.059390094 0.051682208
-0.096086867 -0.060156848 0.051706262
-0.095322706 -0.045215379 0.051880058
-0.020441292 -0.078055784 0.054230876
-0.01952789 -0.079011343 0.054260317
-0.062769771 -0.011206624 0.053964421
-0.020065369 -0.044722881 0.05392703
-0.014808698 -0.050130494 0.054057773
-0.013788072 -0.050116476 0.054661922
-0.037936393 -0.015831826 0.053866182
-0.036396541 -0.017472327 0.053945199
-0.023495125 -0.030488277 0.054072309
-0.019619288 -0.03440943 0.054114692
-0.015835743 -0.038287032 0.054201208
-0.014027229 -0.040136408 0.054231133
-0.037930325 -0.014805294 0.054451521
-0.034929913 -0.017960815 0.054583002
-0.028548721 -0.024377143 0.054612368
-0.027408479 -0.025505938 0.054601442
-0.025736244 -0.027183609 0.054625038
-0.025023961 -0.027965551 0.054695148
-0.024250073 -0.028769761 0.054694094
-0.023496749 -0.029508682 0.054688133
-0.020379575 -0.032623306 0.054699499
-0.016355202 -0.036752548 0.054809082
-0.094738469 -0.075035922 0.052778732
-0.092703074 -0.077125549 0.052831188
-0.091419697 -0.078457288 0.052870207
-0.088689111 -0.081227198 0.052929513
-0.086869471 -0.083029799 0.052907277
-0.086136714 -0.083743736 0.052908853
-0.082076751 -0.087918125 0.052988797
-0.081304505 -0.088701949 0.052984335
-0.080297291 -0.089688517 0.052999064
-0.094904743 -0.073744282 0.053250149
-0.08958298 -0.079234257 0.053385392
-0.088629834 -0.080163896 0.05339507
-0.08200784 -0.086875275 0.053488277
-0.080210052 -0.088685758 0.053470176
-0.097158834 -0.056892935 0.052678168
-0.097891219 -0.054982226 0.053124674
-0.097140759 -0.055747971 0.053131044
-0.095581844 -0.057415862 0.053229481
-0.097817346 -0.053968329 0.053599585
-0.094802044 -0.043595731 0.052938648
-0.094948456 -0.042384248 0.053473007
-0.015178671 -0.070391193 0.05491076
-0.016063295 -0.057581604 0.055218112
-0.013331408 -0.060357485 0.055274416
-0.01197892 -0.061700538 0.055256166
-0.011741305 -0.051086199 0.055195052
-0.011000088 -0.051856343 0.055218801
-0.010712076 -0.052168265 0.05523349
-0.018414859 -0.033607256 0.05534739
-0.01733898 -0.034755964 0.055403803
-0.092792854 -0.074814156 0.053776529
-0.091779135 -0.075861506 0.053803451
-0.090826094 -0.076806359 0.053819291
-0.089521714 -0.078162588 0.053847905
-0.086745337 -0.081006274 0.053914808
-0.083395861 -0.084334441 0.05390431
-0.082647376 -0.085093834 0.053913914
-0.07839065 -0.08942391 0.053989071
-0.077355295 -0.090499878 0.054015025
-0.076592103 -0.091274589 0.054037165
-0.09401992 -0.072501943 0.054299328
-0.09299501 -0.073454119 0.054223772
-0.087702066 -0.078922153 0.054374937
-0.073980659 -0.09272293 0.054473031
-0.096737407 -0.052868053 0.054608207
-0.095179915 -0.054445446 0.054641623
-0.094088502 -0.041088142 0.054502062
-0.09308257 -0.042090092 0.054493234
-0.029955383 -0.091684885 0.055545591
-0.01566566 -0.067787163 0.056061164
-0.013877363 -0.069615699 0.056061927
-0.059682433 -0.012275679 0.055169225
-0.015599668 -0.055960543 0.056372091
-0.012573136 -0.059051346 0.056436334
-0.012347744 -0.059275538 0.056445379
-0.014771428 -0.047035329 0.05578398
-0.020858314 -0.039863873 0.056316134
-0.017778929 -0.042943068 0.056308497
-0.017576376 -0.043132007 0.056316692
-0.015542743 -0.045251016 0.056400049
-0.014768271 -0.04602978 0.056395598
-0.012032323 -0.048859976 0.056481
-0.020527879 -0.030466011 0.055950243
-0.097405314 -0.066824764 0.055187583
-0.09664312 -0.067597389 0.05520317
-0.095906526 -0.068891734 0.05494868
-0.095015191 -0.070368171 0.054749161
-0.093131028 -0.071213283 0.055290386
-0.092935607 -0.072450839 0.054761272
-0.096749343 -0.051750213 0.055136982
-0.097654194 -0.049780816 0.055615354
-0.096666969 -0.05075559 0.05561512
-0.093249403 -0.039715134 0.055490851
-0.018843248 -0.075528949 0.056549937
-0.016374469 -0.066008069 0.056585487
-0.015612059 -0.066803664 0.056615315
-0.010808088 -0.071708634 0.056698881
-0.058934767 -0.010988811 0.056349393
-0.012544824 -0.058073703 0.057026733
-0.0092278942 -0.061369207 0.057032894
-0.057934333 -0.010970998 0.056949701
-0.05665506 -0.012201016 0.056931116
-0.012773626 -0.056783359 0.057585016
-0.038430635 -0.020013513 0.057292379
-0.032615531 -0.025880124 0.057319727
-0.022150787 -0.037558999 0.056921776
-0.020667322 -0.03800815 0.057511084
-0.019917427 -0.038768716 0.057533439
-0.012768411 -0.046023663 0.057612393
-0.010778251 -0.048075631 0.057670664
-0.018058822 -0.02994974 0.057816885
-0.094082028 -0.069077432 0.055698618
-0.090266608 -0.072869837 0.055702634
-0.096253619 -0.065779187 0.056165744
-0.095529854 -0.066504486 0.056177203
-0.093943365 -0.068130285 0.056176119
-0.098254487 -0.046918243 0.056558724
-0.096557893 -0.048703309 0.05664498
-0.095759958 -0.049498301 0.056610979
-0.094773166 -0.050483756 0.056634419
-0.092385262 -0.038375564 0.056493659
-0.023124808 -0.08219707 0.057249971
-0.023129974 -0.08108829 0.057774067
-0.02155946 -0.082748666 0.057833981
-0.010782006 -0.057777192 0.058201484
-0.042987753 -0.014347559 0.057791784
-0.035840869 -0.021514278 0.057813127
-0.024738479 -0.032822382 0.058010656
-0.018374545 -0.039314985 0.058137178
-0.017381242 -0.04032848 0.058159627
-0.038219739 -0.018199315 0.058495373
-0.029530261 -0.026912302 0.058513008
-0.025300695 -0.031258345 0.058617592
-0.024560407 -0.031975977 0.058625512
-0.022677468 -0.033883344 0.05864881
-0.019622395 -0.03704362 0.058725733
-0.097500473 -0.063383341 0.056621395
-0.066052042 -0.095328584 0.057073198
-0.097584046 -0.061098624 0.057572067
-0.097898036 -0.061883871 0.057091542
-0.097126804 -0.06268391 0.057109118
-0.095856108 -0.063899554 0.057047881
-0.095127106 -0.064655907 0.057098873
-0.063645624 -0.095544957 0.058071688
-0.095678277 -0.047391504 0.057653151
-0.093287475 -0.036382444 0.057011303
-0.023987798 -0.079123162 0.058251929
-0.023047458 -0.08008036 0.058284961
-0.01609607 -0.061141603 0.059486691
-0.011505981 -0.065741517 0.059513643
-0.012503792 -0.053927839 0.059306957
-0.036454611 -0.018952303 0.059098173
-0.026084993 -0.029467683 0.059224889
-0.025537545 -0.030006358 0.05920177
-0.024803123 -0.030732768 0.05921578
-0.022430172 -0.033118516 0.059244793
-0.01456632 -0.041088253 0.059335064
-0.0093217622 -0.046475414 0.059467424
-0.02854114 -0.026876707 0.059117436
-0.094719306 -0.062838212 0.058055002
-0.09792877 -0.058540467 0.058535088
-0.097206675 -0.059235021 0.058530211
-0.095169142 -0.061335161 0.05856603
-0.09554816 -0.046400301 0.05810757
-0.093846813 -0.048153661 0.058154091
-0.096774161 -0.044024881 0.058550946
-0.095720381 -0.045073703 0.05854591
-0.090666153 -0.036836043 0.058029674
-0.091674641 -0.034812104 0.058625035
-0.018482164 -0.068482526 0.06043129
-0.016277386 -0.070720345 0.060414907
-0.013615917 -0.073440723 0.060483944
-0.015658852 -0.071333759 0.060431559
-0.013053657 -0.063094079 0.0600449
-0.0092225298 -0.067046359 0.060136463
-0.062986992 -0.011430125 0.059934169
-0.052613363 -0.011133609 0.059899058
-0.014543065 -0.050329585 0.06019425
-0.013015728 -0.051290322 0.060444046
-0.01198347 -0.053436045 0.059910201
-0.026340356 -0.028193047 0.059838537
-0.019397739 -0.035230815 0.059936311
-0.018115984 -0.03552635 0.060568079
-0.089921653 -0.082345232 0.05894785
-0.085845701 -0.086487122 0.059009977
-0.087284967 -0.083868831 0.059434917
-0.082219288 -0.089049995 0.059507396
-0.096779674 -0.057505354 0.059532944
-0.096882425 -0.058472812 0.059029464
-0.095617488 -0.05976218 0.059042621
-0.093843073 -0.044757891 0.059555691
-0.089792833 -0.035555854 0.059077851
-0.089773752 -0.034551267 0.059646588
-0.020863341 -0.076931961 0.061003666
-0.014628366 -0.071340524 0.061004255
-0.013313478 -0.072681472 0.061022144
-0.062487662 -0.010879741 0.060488366
-0.013513187 -0.060611203 0.061223816
-0.012473938 -0.061619669 0.06119841
-0.015124858 -0.048203409 0.061062261
-0.01099242 -0.052364156 0.061088551
-0.0092410799 -0.054139886 0.061119955
-0.018313725 -0.04392276 0.061594531
-0.023325458 -0.028185012 0.061657906
-0.093789682 -0.076192066 0.059805032
-0.092822999 -0.077155039 0.059839066
-0.087187864 -0.082865067 0.05989955
-0.084652595 -0.085456967 0.059944138
-0.08393731 -0.086166613 0.059970658
-0.082256496 -0.087901302 0.059972361
-0.080388561 -0.089796834 0.060016684
-0.077839442 -0.092333794 0.060043562
-0.09399455 -0.07484781 0.060276493
-0.088990122 -0.079947352 0.060383122
-0.087896265 -0.081089355 0.060404837
-0.08230608 -0.086740427 0.060474016
-0.078487642 -0.090609558 0.060496785
-0.07775782 -0.091347389 0.060542487
-0.076747403 -0.092293583 0.060488045
-0.09750589 -0.055570092 0.059946455
-0.096719936 -0.0564413 0.060007609
-0.098171636 -0.053801563 0.060408104
-0.094064325 -0.043485168 0.060076989
-0.040363587 -0.097988643 0.060878813
-0.094242185 -0.042224135 0.060584165
-0.089992985 -0.033288412 0.060174704
-0.081987239 -0.027005777 0.060574364
-0.082150526 -0.025766972 0.061074793
-0.018228946 -0.077481195 0.062104382
-0.01250309 -0.060566101 0.061786257
-0.058387984 -0.012938756 0.061692201
-0.01477703 -0.057238944 0.062338762
-0.024666246 -0.035367332 0.062639289
-0.021878451 -0.038232274 0.062696397
-0.016822508 -0.044404797 0.062199581
-0.014479526 -0.045751326 0.062794514
-0.013784414 -0.046444971 0.062804475
-0.09183538 -0.07593973 0.060766399
-0.090905964 -0.076880068 0.060816299
-0.089867473 -0.07797239 0.060837809
-0.08887054 -0.078973547 0.060837444
-0.076682709 -0.091317326 0.061023057
-0.095123924 -0.071552426 0.061260611
-0.094048575 -0.072539426 0.061185099
-0.09308017 -0.073495165 0.061183896
-0.073493563 -0.093389049 0.061453819
-0.072794281 -0.094105422 0.061490271
-0.097894236 -0.051850945 0.061378326
-0.09705516 -0.052728254 0.061378825
-0.096260294 -0.05352658 0.061386049
-0.095539086 -0.054236632 0.061400045
-0.094436519 -0.040940255 0.061099753
-0.092386805 -0.041898362 0.061600007
-0.089163788 -0.031937331 0.061229631
-0.088151172 -0.03294453 0.06122379
-0.031585876 -0.090282939 0.061957616
-0.031336993 -0.090544924 0.061972227
-0.024035169 -0.082629092 0.063000716
-0.015070231 -0.067729786 0.062684134
-0.013530072 -0.068233088 0.063239411
-0.059103057 -0.011227097 0.06226271
-0.0151991 -0.054684278 0.063427009
-0.011946249 -0.058033787 0.063515134
-0.020088963 -0.040053025 0.062726654
-0.019088024 -0.041078236 0.062748276
-0.044209473 -0.014520002 0.062947705
-0.043446809 -0.015275436 0.062941141
-0.042462476 -0.016293203 0.062973462
-0.028280126 -0.030691488 0.063164398
-0.02464645 -0.034366511 0.063214973
-0.02235318 -0.036756277 0.063305609
-0.021623218 -0.037469521 0.063296035
-0.020361833 -0.038748972 0.063308455
-0.096955009 -0.067402877 0.062127467
-0.095294289 -0.069649063 0.061919264
-0.094248995 -0.070163734 0.062178679
-0.093181089 -0.071255364 0.062208977
-0.08994893 -0.075607933 0.061727095
-0.070349284 -0.094382137 0.062476218
-0.097735889 -0.049815569 0.062332831
-0.093569875 -0.039612226 0.062076855
-0.092543729 -0.0406438 0.062126976
-0.088261291 -0.030681089 0.06224791
-0.087297969 -0.031666119 0.062279619
-0.088228628 -0.029567655 0.062724695
-0.01603353 -0.06459859 0.063753836
-0.013463109 -0.066176176 0.064349256
-0.015747029 -0.053066917 0.063989036
-0.013231435 -0.055645213 0.064052388
-0.056022178 -0.011135422 0.06397111
-0.013440202 -0.054376304 0.064593919
-0.012719575 -0.055121213 0.064633422
-0.042435244 -0.015264813 0.063531347
-0.041413553 -0.016326554 0.063563354
-0.025182173 -0.03279832 0.063787065
-0.024385378 -0.033601057 0.063794143
-0.018061457 -0.039003842 0.064481474
-0.068762742 -0.094901219 0.062992334
-0.095841005 -0.066269398 0.063075319
-0.09502843 -0.067109287 0.063068002
-0.094246492 -0.067917258 0.063069634
-0.096917287 -0.064049445 0.063451245
-0.095698982 -0.06532941 0.063526973
-0.095092341 -0.051380444 0.062848501
-0.092723288 -0.038210843 0.063060127
-0.085588135 -0.030128427 0.063823111
-0.015865142 -0.074583583 0.064909339
-0.016040226 -0.073359869 0.065427631
-0.015299709 -0.074099883 0.065454081
-0.064662524 -0.012150235 0.064741254
-0.01468637 -0.062802546 0.065428264
-0.013928621 -0.063565053 0.065434046
-0.012893671 -0.064628154 0.065441497
-0.055027448 -0.011101442 0.064554222
-0.020511696 -0.046178985 0.065095663
-0.016739158 -0.050026439 0.065170921
-0.01593045 -0.050775524 0.065107398
-0.014959322 -0.05174173 0.065107964
-0.013622802 -0.053145621 0.065154821
-0.018015917 -0.047675431 0.065694623
-0.041670889 -0.014000651 0.064728357
-0.030003551 -0.025822824 0.064864933
-0.023416378 -0.031482995 0.065561615
-0.016033569 -0.039014738 0.065692745
-0.09783747 -0.060901992 0.064399727
-0.097431593 -0.062430926 0.06397447
-0.095792197 -0.062934317 0.064392559
-0.095358595 -0.064522743 0.063975625
-0.064694703 -0.095673665 0.064434811
-0.064253412 -0.096106291 0.064449713
-0.096747711 -0.047541738 0.063833795
-0.094991669 -0.049263865 0.063820742
-0.095832825 -0.046202503 0.06479343
-0.091736808 -0.036449824 0.06427563
-0.022533113 -0.07868322 0.065568089
-0.02126248 -0.079439603 0.065860063
-0.021099729 -0.080170728 0.06564334
-0.018295417 -0.069986068 0.065907098
-0.015691064 -0.059710894 0.066548519
-0.019524736 -0.045074798 0.0662487
-0.015462541 -0.049258798 0.066330098
-0.014153515 -0.050480325 0.066260248
-0.012417185 -0.040568009 0.066856496
-0.063777342 -0.094372645 0.065380402
-0.097455472 -0.059047632 0.065353692
-0.096647918 -0.059885141 0.065364033
-0.095426761 -0.061119553 0.065387875
-0.061472192 -0.095568508 0.065882467
-0.060691584 -0.096374564 0.065890215
-0.094882235 -0.044897076 0.065685011
-0.034629632 -0.092781335 0.065878429
-0.090809941 -0.034671869 0.065565087
-0.083926938 -0.028495504 0.065341607
-0.015445795 -0.07183554 0.066514432
-0.014414606 -0.071810126 0.067065015
-0.016672868 -0.057678506 0.067094848
-0.013628389 -0.06071407 0.067106135
-0.012846128 -0.061499413 0.067109808
-0.012568242 -0.061773874 0.067107618
-0.021481173 -0.042013761 0.066740423
-0.020234706 -0.043280203 0.066759907
-0.019452235 -0.044122975 0.066804029
-0.017943375 -0.045637973 0.066822767
-0.015486395 -0.048163027 0.066878855
-0.051201567 -0.010821597 0.066905834
-0.02377932 -0.038680915 0.067310318
-0.01830456 -0.033583213 0.067397781
-0.09007065 -0.082219727 0.065938875
-0.088344656 -0.083933651 0.065954722
-0.08755555 -0.084741399 0.0659514
-0.088257268 -0.082898863 0.066409051
-0.084194288 -0.087074824 0.066495359
-0.083195955 -0.088066883 0.066474527
-0.082459301 -0.088778257 0.066477604
-0.081383198 -0.089928105 0.066526622
-0.095067255 -0.060356908 0.065850429
-0.09854465 -0.055694204 0.066257335
-0.0977716 -0.05651705 0.066308551
-0.097017087 -0.057296026 0.066314995
-0.096290439 -0.057987254 0.066294737
-0.058770984 -0.096082211 0.06683363
-0.094556905 -0.043581344 0.066421166
-0.093828924 -0.044877946 0.066201456
-0.027711118 -0.082246706 0.067639314
-0.023669863 -0.086373672 0.067716509
-0.016286371 -0.079690665 0.06833455
-0.016145067 -0.068965778 0.067554928
-0.014933839 -0.070170961 0.06756784
-0.016915252 -0.067097776 0.068105653
-0.013879482 -0.059444074 0.067693435
-0.025480999 -0.035922568 0.067860745
-0.015490988 -0.046035845 0.06797684
-0.022656303 -0.027147617 0.068514422
-0.094939485 -0.073857628 0.067188881
-0.09501715 -0.074933968 0.066766411
-0.093857124 -0.074986495 0.067224078
-0.092768446 -0.077220164 0.066818081
-0.091621011 -0.077278018 0.067280151
-0.091742598 -0.078301892 0.066844426
-0.090710171 -0.079353601 0.066861659
-0.089983784 -0.080053695 0.066861391
-0.08894819 -0.081103221 0.066867456
-0.088144951 -0.081902809 0.066856951
-0.086337909 -0.082564689 0.067318887
-0.085589439 -0.083915696 0.067114264
-0.084861971 -0.085230052 0.066904858
-0.084166609 -0.08592923 0.066952072
-0.080498502 -0.088509589 0.067409135
-0.080299497 -0.089894071 0.066986568
-0.079547092 -0.090653412 0.067000479
-0.077737637 -0.091326132 0.067491204
-0.077195935 -0.092980012 0.066965744
-0.057166751 -0.096546307 0.067275561
-0.096576504 -0.055485569 0.067230254
