# .PCD v0.7 - Point Cloud Data file format
VERSION 0.7
FIELDS x y z
SIZE 4 4 4
TYPE F F F
COUNT 1 1 1
WIDTH 1330
HEIGHT 1
VIEWPOINT 0 0 0 1 0 0 0
POINTS 1330
DATA ascii
0.19951239 0.022169996 -0.0079301447
0.21238825 0.022852715 -0.031232148
0.21256337 0.022846878 -0.031542584
0.21447887 0.022952521 -0.035054132
0.22091269 0.023279177 -0.04668659
0.2217465 0.023296807 -0.048271298
0.19154444 0.022123137 -0.0076027364
0.19776596 0.022368778 -0.01902549
0.19794604 0.022375645 -0.019377649
0.19832191 0.022426449 -0.019991964
0.20316012 0.022680178 -0.028771281
0.2047147 0.022727221 -0.031653032
0.20558383 0.022792242 -0.033191204
0.20945422 0.02301823 -0.040115863
0.2135618 0.023189094 -0.047687635
0.21378924 0.023159113 -0.04816252
0.21449088 0.023198882 -0.049454436
0.21479253 0.02324876 -0.049913898
0.19263959 0.022809267 -0.011079863
0.19321425 0.022852235 -0.012073413
0.19770905 0.023062978 -0.020307824
0.19825816 0.023125241 -0.021228299
0.20375207 0.023326274 -0.03133671
0.20409609 0.023369251 -0.031959116
0.20453264 0.0234085 -0.032710612
0.20536904 0.023482086 -0.0341575
0.20589365 0.023512647 -0.035086051
0.20607246 0.023523241 -0.035387039
0.21103796 0.023706557 -0.044550896
0.21187016 0.023794604 -0.045949638
0.18198729 0.022106033 -0.0044827163
0.18252355 0.022129903 -0.0054221004
0.1828742 0.022167224 -0.0060641617
0.1829547 0.022893362 -0.0075854063
0.1854766 0.022271793 -0.010863513
0.19069377 0.022508416 -0.020377606
0.19115825 0.023264099 -0.022522703
0.19153145 0.023301519 -0.023148745
0.19185273 0.023317914 -0.023745313
0.19625777 0.022816522 -0.030422762
0.20452645 0.023964247 -0.046736047
0.20645981 0.023292616 -0.049033687
0.18743266 0.023028912 -0.015857354
0.18998492 0.023180656 -0.020471618
0.19049799 0.023190906 -0.021441877
0.19074334 0.023213642 -0.021875009
0.19617514 0.023516871 -0.031682387
0.18292382 0.022902343 -0.020165816
0.18356445 0.022849442 -0.021512628
0.18429732 0.022929933 -0.022762343
0.19788276 0.023638206 -0.047362357
0.19805169 0.023643721 -0.047684848
0.16498253 0.022937639 -0.0014721751
0.16795738 0.02235011 -0.0055533797
0.16834924 0.023025431 -0.007799089
0.17476374 0.023024879 -0.018669173
0.17499739 0.023417573 -0.019734338
0.17534879 0.023431012 -0.020362526
0.18242362 0.023489153 -0.032900229
0.18337831 0.0230543 -0.033757582
0.18357545 0.023080301 -0.034064084
0.18415186 0.023143871 -0.035017848
0.1846655 0.023171714 -0.035940528
0.18467438 0.023907451 -0.037299544
0.1895833 0.024094213 -0.046307445
0.1898234 0.024118124 -0.046717152
0.1902566 0.024143875 -0.047511622
0.16614991 0.023360025 -0.016087905
0.16665825 0.02338738 -0.017049998
0.16747837 0.023378093 -0.018672481
0.18318667 0.024226962 -0.047082305
0.18361744 0.024237989 -0.047853246
0.15294349 0.023224676 -0.0045861751
0.15641585 0.023397494 -0.010861456
0.15717411 0.023474045 -0.012152791
0.16115332 0.023621669 -0.019548982
0.16766147 0.023619868 -0.030598789
0.16815183 0.023290722 -0.030810058
0.16807257 0.024023423 -0.031973124
0.16975689 0.024068005 -0.03516075
0.17706029 0.023716994 -0.046989948
0.14842278 0.023037333 -0.0072079003
0.14875001 0.023039911 -0.0078180581
0.14960882 0.023059558 -0.009450987
0.15004455 0.023838758 -0.011520013
0.15127318 0.023898013 -0.013767436
0.15268561 0.023189019 -0.015088528
0.15451404 0.023357155 -0.018248454
0.15480539 0.023355534 -0.018849909
0.15579242 0.023363851 -0.020722046
0.15600938 0.02417252 -0.022237703
0.156242 0.02419256 -0.022683561
0.16018863 0.023595948 -0.028670684
0.16065449 0.023592923 -0.029598519
0.16135295 0.023674015 -0.030714303
0.16148463 0.024062295 -0.031592503
0.1617206 0.024453884 -0.032662347
0.14202474 0.023589764 -0.0078139454
0.14249 0.023647429 -0.0085612983
0.14430517 0.023711374 -0.011943206
0.15076384 0.024072407 -0.023578569
0.15485118 0.024222028 -0.031133652
0.16218983 0.024628166 -0.044385538
0.14173244 0.02355559 -0.0073450357
0.15430158 0.024174353 -0.030219063
0.15454179 0.024187403 -0.030635193
0.13493526 0.023572307 -0.0055862963
0.13699184 0.023686167 -0.0093351603
0.1425662 0.023938341 -0.01948522
0.14968354 0.024303274 -0.032393888
0.15001099 0.024334498 -0.033005118
0.1542986 0.024501279 -0.040916607
0.15506348 0.024579111 -0.04219386
0.12867767 0.023685196 -0.0049609989
0.12986958 0.023742117 -0.0071430206
0.13105938 0.023790941 -0.0093328059
0.1362879 0.024083804 -0.018760398
0.13689932 0.024108881 -0.019884333
0.14043581 0.024262566 -0.026387915
0.14058542 0.024259908 -0.026673958
0.14358237 0.024417929 -0.032068402
0.14411354 0.024467984 -0.032988623
0.14462671 0.024504384 -0.033918858
0.14509434 0.024471924 -0.034888104
0.12411763 0.024038816 -0.007331863
0.12508641 0.02407415 -0.00909172
0.13054708 0.024392648 -0.018942818
0.13450238 0.024526309 -0.026277006
0.13468307 0.024550021 -0.02658537
0.13519527 0.024617083 -0.027374431
0.13879007 0.02477116 -0.034004346
0.14281321 0.02495658 -0.041355252
0.11448836 0.023506168 0.00090159476
0.1196755 0.023707502 -0.0086233914
0.12486105 0.023971766 -0.018043861
0.12578952 0.024074512 -0.019614056
0.12597293 0.024082195 -0.019920826
0.12651923 0.024080211 -0.021045163
0.12675118 0.024066104 -0.021537364
0.12970039 0.024221206 -0.026870787
0.13405517 0.024432331 -0.034781903
0.13967521 0.024684936 -0.045031041
0.14289621 0.024900533 -0.050809592
0.11914052 0.024477495 -0.0088294894
0.12312967 0.024738174 -0.01600334
0.12505519 0.024842972 -0.019460097
0.12817585 0.024996892 -0.025108382
0.12847212 0.024977604 -0.025770709
0.12881897 0.024976602 -0.026438355
0.13715309 0.025398258 -0.041537538
0.14213251 0.025639644 -0.050641686
0.11366908 0.024310503 -0.0080583394
0.1164466 0.024396341 -0.013178408
0.11678308 0.024449242 -0.013752669
0.11939991 0.02458261 -0.018475875
0.12060289 0.024664247 -0.020648077
0.12456706 0.02487299 -0.02784206
0.1288974 0.025047598 -0.035811782
0.11388892 0.024287412 -0.0085402727
0.10198207 0.023910791 0.0040109754
0.10530421 0.024129745 -0.0018775165
0.10976778 0.024280913 -0.010174751
0.12280072 0.024952453 -0.033764601
0.12521544 0.025075627 -0.038174987
0.12632599 0.025098331 -0.040292442
0.12768087 0.025193483 -0.042650893
0.12830156 0.025181204 -0.043916866
0.12885554 0.025233097 -0.044861123
0.099501409 0.024057953 -0.00058962405
0.11090859 0.024608852 -0.021396443
0.11142691 0.02463931 -0.022302449
0.11500992 0.024845276 -0.028781846
0.11872355 0.024985798 -0.035591274
0.12168324 0.025186487 -0.040894493
0.12447091 0.025311133 -0.045943677
0.12530577 0.025334233 -0.047520086
0.095828556 0.024295904 -0.0028786063
0.098769203 0.024477432 -0.0081958175
0.099119313 0.024496065 -0.0088443607
0.099661604 0.024537785 -0.0097743869
0.10053896 0.024570337 -0.011358514
0.1034993 0.024671135 -0.016892314
0.10383224 0.024650604 -0.017593771
0.10411977 0.024679461 -0.018054262
0.10463132 0.024715582 -0.018972442
0.093880184 0.024731969 -0.0083097517
0.094373882 0.024723943 -0.0092726797
0.10532145 0.025290467 -0.029151455
0.1056268 0.025269134 -0.029787764
0.11006296 0.025524743 -0.037777036
0.110652 0.025521152 -0.038918868
0.11323959 0.025628865 -0.043650225
0.086576551 0.024127319 -0.0028451383
0.086838514 0.025020272 -0.0043596625
0.087186269 0.024993703 -0.005082041
0.087435514 0.025012568 -0.0055221319
0.089191392 0.024274822 -0.0076079071
0.090582125 0.025182625 -0.011172652
0.090959981 0.025209315 -0.011829376
0.093718156 0.024515564 -0.015789971
0.094381049 0.024543218 -0.017031536
0.094664127 0.024999507 -0.018014804
0.095454596 0.024602072 -0.018915758
0.095550083 0.025031801 -0.01961939
0.096131749 0.024640115 -0.020165518
0.096817397 0.024636818 -0.021511599
0.097306699 0.02466369 -0.022410244
0.097816542 0.024690652 -0.023320809
0.098102234 0.024699764 -0.023817867
0.099385336 0.025602989 -0.027266756
0.099735193 0.025619855 -0.027890593
0.10025059 0.025670743 -0.028766334
0.10336128 0.025773665 -0.034537613
0.10596472 0.025916206 -0.039250284
0.10630845 0.025953569 -0.039843068
0.10964655 0.02527318 -0.044840619
0.082411386 0.024630476 -0.0041607916
0.082986079 0.024652941 -0.0052701831
0.083275437 0.024684327 -0.0057405233
0.085905753 0.024831889 -0.010454819
0.086240999 0.024859907 -0.011061236
0.087689638 0.024904685 -0.013770893
0.089158922 0.024972837 -0.016433746
0.089705698 0.025012888 -0.017356619
0.098467119 0.025403049 -0.033461258
0.098662548 0.025390953 -0.033840954
0.099387012 0.025473507 -0.03505379
0.099547543 0.025467213 -0.035362512
0.10216822 0.025599249 -0.040105104
0.076398283 0.025189459 -0.0019033998
0.078557111 0.024408398 -0.0049544871
0.078612313 0.025294323 -0.0059526265
0.081721999 0.024574053 -0.01058495
0.081976295 0.024578623 -0.011089891
0.084406197 0.02470509 -0.015510216
0.084495865 0.025547139 -0.016728118
0.086062916 0.024778068 -0.018509313
0.086441055 0.024804598 -0.019166261
0.089274563 0.024968499 -0.024333954
0.089728259 0.025003238 -0.025112078
0.090150379 0.025033195 -0.025848329
0.090862863 0.025051823 -0.027157396
0.09137582 0.025092576 -0.028084755
0.091653012 0.025101187 -0.028598711
0.09261515 0.025113806 -0.030459926
0.093331121 0.025158167 -0.031700268
0.093571477 0.025166811 -0.032163367
0.094528705 0.025186228 -0.033957779
0.095229611 0.025224062 -0.035249367
0.095584698 0.025264442 -0.035830498
0.095410742 0.026135474 -0.036479682
0.071256258 0.024971126 -0.00030498207
0.073245548 0.025064986 -0.0039511323
0.075010031 0.025171317 -0.0070865601
0.07793539 0.025289454 -0.012451172
0.081261128 0.025500452 -0.018411636
0.085256882 0.025727291 -0.025609061
0.098699115 0.026309537 -0.050223038
0.070440203 0.025101185 -0.0063697398
0.073967896 0.0252728 -0.012834191
0.077796459 0.025434965 -0.019839823
0.081450619 0.025652464 -0.026382983
0.064500026 0.025041034 -0.0031726211
0.065073043 0.025060102 -0.004299596
0.065692484 0.025098754 -0.0053574294
0.066579342 0.025141645 -0.0069689155
0.070354074 0.025316779 -0.013860077
0.085306361 0.026367581 -0.048599288
0.077516645 0.026928497 -0.049204379
0.33081567 0.019189801 0.0070052147
0.33535558 0.019382015 -0.0013275445
0.33583909 0.019434042 -0.0022182167
0.33614391 0.019460022 -0.00272277
0.33013901 0.01965134 0.0065970421
0.33409369 0.019786075 -0.00067937374
0.33582824 0.019941706 -0.0037772655
0.31463701 0.019363705 0.0079106987
0.31439531 0.019877382 0.006733492
0.33103341 0.020183772 -0.021910936
0.33141786 0.020203058 -0.022646636
0.3318105 0.020166744 -0.023441136
0.33195877 0.020412799 -0.024503082
0.33196384 0.020661853 -0.025330991
0.3371639 0.020465251 -0.033079386
0.3377102 0.020483894 -0.034136176
0.33821899 0.020521499 -0.035001248
0.33854324 0.020546895 -0.035595983
0.34347194 0.020764284 -0.044589579
0.34322035 0.021273177 -0.045767486
0.34355736 0.021300666 -0.046373457
0.3474063 0.021008454 -0.051666319
0.35226107 0.021247769 -0.060548693
0.34099659 0.021594575 -0.066705793
0.34115219 0.021608349 -0.066984951
0.3484025 0.021929353 -0.080231845
0.3273114 0.021488275 -0.043407142
0.32800883 0.021519657 -0.044663921
0.3408494 0.022123463 -0.068024188
0.34343302 0.022285901 -0.072705954
0.34605521 0.022905607 -0.079137176
0.34833732 0.023015562 -0.083270207
0.29940599 0.020938758 -0.01754415
0.29277718 0.021131018 -0.0071325302
0.29502568 0.021251537 -0.011216506
0.29517993 0.021255137 -0.011515081
0.30754828 0.021892944 -0.033955216
0.32800633 0.022881657 -0.071204588
0.33150998 0.023088843 -0.07749632
0.28194004 0.02074524 -0.0089583397
0.3027159 0.021784751 -0.046727836
0.30284283 0.021787932 -0.04698047
0.3061291 0.021954667 -0.052924037
0.30633241 0.021952592 -0.053276017
0.31207916 0.022285786 -0.063683569
0.3138147 0.022380695 -0.066834554
0.28068739 0.021242028 -0.0082285404
0.28310212 0.021372598 -0.01261571
0.28979874 0.021729495 -0.024769813
0.30187467 0.022298742 -0.046772897
0.30609491 0.022501063 -0.054435119
0.30684733 0.022545163 -0.055820048
0.27990782 0.021745317 -0.028235495
0.28202373 0.021851946 -0.032053232
0.2865884 0.02210496 -0.040316626
0.28806943 0.022191688 -0.042958051
0.28999162 0.022211712 -0.046605453
0.30410737 0.02290659 -0.072245374
0.30809623 0.023145877 -0.079443783
0.31446803 0.023448521 -0.091072872
0.28169775 0.022408286 -0.03303273
0.28190184 0.022417108 -0.033399343
0.28731483 0.022721715 -0.043157071
0.30342293 0.023452908 -0.072557881
0.31368017 0.023975469 -0.091187477
0.25975639 0.021648467 -0.012706995
0.26518217 0.021849083 -0.0227357
0.27122247 0.022775048 -0.035193965
0.27160367 0.022794221 -0.035864606
0.27489567 0.022413101 -0.040248707
0.2782473 0.022499507 -0.046450645
0.27861631 0.022517696 -0.047113761
0.27882624 0.022855904 -0.048233733
0.2566523 0.022119202 -0.026584595
0.25687438 0.022132834 -0.026989177
0.25825858 0.022161506 -0.029573008
0.26097044 0.022315532 -0.03445749
0.2611084 0.022325233 -0.03475821
0.2681917 0.022651087 -0.047663048
0.25590271 0.022675736 -0.026753142
0.26080096 0.022895781 -0.035723418
0.23545764 0.02196179 -0.0074384958
0.24517412 0.022403434 -0.025240839
0.24842677 0.022600342 -0.031046271
0.2547282 0.022907384 -0.042511344
0.23895817 0.022754148 -0.015320092
0.24514131 0.023046922 -0.026651517
0.24559644 0.023071794 -0.027447775
0.24621581 0.023107633 -0.028559446
0.24762158 0.023214538 -0.031045601
0.22765923 0.022200728 -0.0109514
0.23145746 0.022360045 -0.01790823
0.23608471 0.022551356 -0.026411146
0.23693641 0.022611529 -0.027895123
0.23735638 0.022638049 -0.028658912
0.24747942 0.023147298 -0.04708086
0.24804209 0.023120522 -0.048190966
0.24846876 0.023134585 -0.04896836
0.22372605 0.022639951 -0.0053226054
0.22440419 0.022660306 -0.0065554231
0.22488284 0.022603441 -0.0075545758
0.22758847 0.022836892 -0.012285903
0.24494815 0.023687286 -0.043901145
0.24723534 0.023724496 -0.048191607
0.22195616 0.022777295 -0.018186405
0.22317158 0.02284703 -0.020430565
0.22869134 0.023105923 -0.030461103
0.22898509 0.023124369 -0.030989304
0.22921851 0.023126962 -0.031439766
0.23543772 0.02343069 -0.042798787
0.23571855 0.023441436 -0.043283761
0.23651931 0.023474017 -0.04472822
0.23737778 0.023549696 -0.046251446
0.22304238 0.023464359 -0.021732271
0.22499028 0.023562513 -0.025167048
0.23480698 0.024038058 -0.04310903
0.21118014 0.0227174 -0.014639005
0.21162978 0.022752278 -0.015442461
0.21969119 0.023101825 -0.030153096
0.22185926 0.023247654 -0.034038603
0.22702514 0.023488825 -0.043422624
0.22870548 0.023595987 -0.046501175
0.22906129 0.023603829 -0.047126397
0.22937477 0.023620501 -0.047661379
0.21373613 0.023521535 -0.020689458
0.21425892 0.023551514 -0.021616921
0.21757206 0.023735948 -0.027608439
0.21940269 0.023744358 -0.031081349
0.22164485 0.023866713 -0.035148144
0.22739165 0.02417469 -0.045547947
0.22844452 0.024228919 -0.047459319
0.19891307 0.022797314 -0.0082797706
0.19935828 0.02320944 -0.0096561015
0.19939423 0.023560682 -0.01042217
0.20056808 0.023613621 -0.012570381
0.20353359 0.023104394 -0.016533405
0.20396821 0.023096964 -0.017366856
0.21203409 0.024184115 -0.03338407
0.21612866 0.023710396 -0.039400309
0.21595362 0.024381259 -0.040517107
0.21957296 0.023895023 -0.045691907
0.21977074 0.024114294 -0.046538293
0.22085382 0.023947321 -0.048046127
0.2211531 0.023955448 -0.048595324
0.19567412 0.023332085 -0.0037867725
0.19881546 0.023495791 -0.0094667822
0.20405006 0.023773311 -0.018967301
0.20456836 0.023774911 -0.01992093
0.18946983 0.023368455 -0.006682232
0.19032258 0.023434671 -0.0081709325
0.19195315 0.023468733 -0.011226431
0.19256733 0.023498552 -0.012350023
0.19798529 0.023811487 -0.022127256
0.19825736 0.023826282 -0.022626325
0.2055383 0.023510899 -0.034445703
0.2057777 0.024196085 -0.036284462
0.20611179 0.024157532 -0.036967039
0.20625415 0.024142172 -0.037282571
0.20920636 0.02369646 -0.041077167
0.20895612 0.024370605 -0.042011946
0.21043083 0.024362953 -0.044851139
0.21077792 0.024399314 -0.045444191
0.18217564 0.023532396 -0.0075567365
0.18279892 0.02356993 -0.0086739063
0.1832087 0.023593232 -0.0094272345
0.19050369 0.023915468 -0.02277562
0.19158766 0.024016898 -0.024640158
0.19178292 0.024013665 -0.024980277
0.19555177 0.024175439 -0.031932265
0.19662127 0.024221588 -0.033852115
0.19693878 0.02422891 -0.034447253
0.19024961 0.02396832 -0.034883887
0.17473802 0.023875633 -0.0081276
0.19015945 0.024690205 -0.036075324
0.17333004 0.024022643 -0.018101439
0.17527157 0.024143638 -0.021570295
0.17589915 0.024185918 -0.022698998
0.17614144 0.024168484 -0.02318801
0.17660604 0.024175311 -0.024121895
0.17699954 0.024221804 -0.024772763
0.18143898 0.024458071 -0.032806113
0.18477887 0.0245679 -0.038961843
0.1886847 0.024779268 -0.045996621
0.15908352 0.023687404 -0.0047112852
0.16816199 0.024193205 -0.021093115
0.18241216 0.024911428 -0.047002405
0.15849844 0.024420056 -0.0049505532
0.16186202 0.024583831 -0.011054099
0.16616535 0.024807658 -0.01885435
0.16645008 0.024775229 -0.019469619
0.16701873 0.024852665 -0.02041477
0.15340289 0.024017017 -0.0066816807
0.16047366 0.024327509 -0.019607976
0.16097811 0.024364406 -0.020514116
0.16784468 0.024754353 -0.032864466
0.16854641 0.024798542 -0.034126386
0.17027688 0.024867659 -0.037320256
0.17060611 0.024892669 -0.037896022
0.17146763 0.024945542 -0.039449409
0.17185846 0.024884641 -0.040312678
0.17231324 0.02493413 -0.041115135
0.14726782 0.024492472 -0.0076709688
0.15616274 0.024942147 -0.023830533
0.16172424 0.025206283 -0.033963397
0.16202687 0.025199708 -0.034571499
0.16256338 0.02521985 -0.035552502
0.1629988 0.025245208 -0.036327049
0.16787182 0.025521034 -0.045141533
0.13750158 0.024172092 -0.0007532686
0.14071408 0.024279527 -0.0067538768
0.14110073 0.024288826 -0.007457763
0.14632118 0.024580976 -0.016865447
0.14916101 0.024697836 -0.022050574
0.15074506 0.024830066 -0.024860948
0.15501998 0.02505601 -0.032585993
0.14053476 0.02458561 -0.017164722
0.14085416 0.024629297 -0.017657146
0.14229041 0.024678443 -0.020301476
0.14438292 0.024789307 -0.024098411
0.14455044 0.024789814 -0.024438739
0.14992917 0.025096722 -0.034109905
0.15496047 0.025343541 -0.043290064
0.15595074 0.025347937 -0.045182571
0.15774736 0.025477905 -0.048347324
0.13132313 0.024927646 -0.0015895367
0.13167484 0.024954736 -0.0022190958
0.13580318 0.025172148 -0.0097075552
0.13995585 0.025321338 -0.017370448
0.14990894 0.025847107 -0.035327822
0.12995498 0.024507944 -0.008615464
0.13052803 0.02455109 -0.0095558167
0.1317136 0.024666054 -0.011591643
0.13195422 0.024629094 -0.012209624
0.1323787 0.024612848 -0.013025343
0.1346333 0.024732988 -0.017124861
0.139861 0.025000922 -0.026600152
0.14371994 0.025229072 -0.033512026
0.14454389 0.025283648 -0.035043404
0.14943564 0.025531078 -0.043887481
0.13389184 0.025508655 -0.016948894
0.12283467 0.024796382 -0.0061022043
0.12441651 0.024828095 -0.0090719014
0.12517865 0.024901951 -0.010390311
0.12965345 0.025107099 -0.018542588
0.12979335 0.025119888 -0.018811688
0.13329729 0.025323037 -0.025131986
0.13368097 0.025334874 -0.025811955
0.1230995 0.025554376 -0.017110333
0.13197252 0.026000578 -0.033196479
0.13227825 0.026005561 -0.033797994
0.13643044 0.026169255 -0.041422233
0.11415447 0.025123868 -0.010128051
0.11452213 0.025170621 -0.010753021
0.11571126 0.025214799 -0.01296398
0.1173038 0.025296161 -0.015804335
0.1181545 0.025351282 -0.017381236
0.11864609 0.025347376 -0.018274918
0.11956022 0.025416808 -0.019900694
0.12340258 0.025578821 -0.026992232
0.12665713 0.025795819 -0.032787487
0.12701732 0.025818186 -0.033392042
0.12743464 0.025834756 -0.034181759
0.12790826 0.025853161 -0.035013586
0.10531247 0.024954384 -0.0029926151
0.1056833 0.024956483 -0.0036872029
0.10659096 0.024982555 -0.005435735
0.1071525 0.025011154 -0.0064964443
0.1091586 0.025076335 -0.010160968
0.11012194 0.02512766 -0.011897355
0.10868002 0.025035108 -0.0093841851
0.11536992 0.026202943 -0.022589475
0.097593278 0.024832567 0.0018387884
0.099297829 0.024887975 -0.0013221651
0.10934914 0.025377993 -0.019609004
0.10955285 0.025394831 -0.019957796
0.10989729 0.025430184 -0.020568445
0.11539565 0.025687395 -0.030620739
0.11591408 0.025693737 -0.031588957
0.11631607 0.025729958 -0.032232791
0.1166549 0.025777239 -0.032821417
0.11756217 0.026093137 -0.03487353
0.12408204 0.026979543 -0.047433063
0.09233059 0.024957938 0.0023434609
0.09575741 0.025156038 -0.0037867427
0.10394257 0.025535628 -0.01875557
0.11193068 0.025945429 -0.033287227
0.11660971 0.026202887 -0.041717947
0.10528849 0.026413245 -0.022378474
0.10790391 0.026550703 -0.027099267
0.11014441 0.026669528 -0.03115654
0.11562753 0.026960179 -0.041064173
0.090455934 0.025427761 -0.0030836165
0.090867765 0.02544938 -0.0038496852
0.094519347 0.025656905 -0.010427967
0.11216475 0.026521783 -0.042488366
0.092118941 0.025479933 -0.0062369555
0.11065458 0.026366571 -0.039959386
0.11254806 0.026470277 -0.043435454
0.083461888 0.025695296 0.00070637465
0.08907821 0.025930688 -0.0095781833
0.090776458 0.026089836 -0.012499914
0.10467011 0.02674013 -0.037894115
0.10513979 0.026746083 -0.03873004
0.079581462 0.025376529 1.8313527e-05
0.086100183 0.025717922 -0.011804864
0.08982636 0.02593204 -0.018507048
0.074689262 0.026000077 0.00027234852
0.082099557 0.026328925 -0.013321787
0.077947028 0.026203569 -0.013446182
0.094055705 0.026986035 -0.042757913
0.089926235 0.026937963 -0.042817146
0.34686279 0.019453695 0.0064324141
0.34731644 0.019479493 0.0056190193
0.34723032 0.019980634 0.0041215718
0.34759808 0.020000862 0.0034094155
0.34695622 0.020466629 0.0029649436
0.32907242 0.020100139 0.0068550408
0.32948267 0.02011832 0.0061549842
0.33300823 0.020259008 -0.00038641691
0.33318946 0.020258324 -0.00070545077
0.33553633 0.020421633 -0.0048649311
0.33565533 0.020408019 -0.0051252842
0.34175992 0.020741411 -0.01617077
0.32816517 0.020536706 0.0068157911
0.3323493 0.020729281 -0.00081127882
0.33531269 0.020887859 -0.0061356127
0.34108138 0.021211844 -0.016560376
0.31410763 0.020385461 0.0056021512
0.33164594 0.021185672 -0.026358664
0.34307998 0.021789156 -0.047116429
0.35194057 0.02225595 -0.063165277
0.31377742 0.020887963 0.0045873374
0.331415 0.021693064 -0.027531594
0.34609258 0.022491232 -0.054125935
0.35159537 0.022762373 -0.064161986
0.3312026 0.022199616 -0.028756618
0.35357696 0.023315888 -0.069407761
0.33705077 0.022499934 -0.062697813
0.34055868 0.0226501 -0.069084406
0.30376208 0.021376494 -0.0037954003
0.31606966 0.02194945 -0.026253164
0.32530922 0.022460036 -0.042932898
0.33640254 0.022998892 -0.063118145
0.33686078 0.023022845 -0.064002708
0.31541324 0.022449287 -0.026642784
0.32518792 0.022977367 -0.04431349
0.33657444 0.023551892 -0.065049797
0.33973497 0.02366641 -0.07080251
0.3462536 0.023950556 -0.08274141
0.29242328 0.0216692 -0.0080985874
0.29882205 0.022015752 -0.019674748
0.29946122 0.022037107 -0.020824373
0.30141485 0.022177603 -0.024271652
0.30173099 0.022190724 -0.024902537
0.31634337 0.022816055 -0.051599905
0.31675434 0.022857964 -0.052347511
0.32750201 0.023409862 -0.071875885
0.32798395 0.023440551 -0.072697237
0.29881775 0.022554241 -0.021231294
0.29933411 0.022573393 -0.022161409
0.29964697 0.022601902 -0.022746831
0.30023891 0.022650756 -0.023791656
0.30060905 0.02268506 -0.024434224
0.30123514 0.022707138 -0.02558428
0.31467795 0.023298286 -0.050184056
0.28286201 0.021922268 -0.013754591
0.28679115 0.022169339 -0.020850301
0.28981197 0.022300683 -0.026380032
0.30072799 0.022835586 -0.046181425
0.30122727 0.022840705 -0.047143638
0.30593443 0.023054134 -0.055733562
0.31137434 0.023383752 -0.065526858
0.28281179 0.022486832 -0.015237108
0.28319311 0.022506382 -0.015965804
0.28648305 0.02271761 -0.021851286
0.28959972 0.022813333 -0.027587131
0.30039483 0.023374647 -0.047173694
0.31117281 0.023935899 -0.066732854
0.31353673 0.024007637 -0.071102887
0.31738374 0.024215072 -0.078060806
0.318721 0.024265643 -0.080534786
0.26792234 0.022352517 -0.0094363093
0.26827645 0.022359513 -0.010092705
0.27934861 0.022878474 -0.030290097
0.28160611 0.022976696 -0.034406468
0.28761941 0.023340926 -0.045234084
0.28858256 0.023342106 -0.047048643
0.30278355 0.023993369 -0.072954237
0.26781392 0.022914751 -0.010787129
0.26832235 0.022950413 -0.01173088
0.27146411 0.023081992 -0.017447188
0.28617704 0.023811625 -0.044228181
0.25676817 0.022652876 -0.01042217
0.25757873 0.022686906 -0.011887968
0.25832632 0.022767292 -0.013205647
0.26470864 0.023032356 -0.024880618
0.27051002 0.023332175 -0.035417855
0.27140784 0.023359418 -0.037060365
0.25548866 0.023175025 -0.0096693635
0.25593796 0.023204487 -0.010466889
0.25657651 0.023234107 -0.011600092
0.2568377 0.023239905 -0.012076586
0.25736827 0.023282439 -0.013005808
0.27128649 0.023943892 -0.038372248
0.27382135 0.024101689 -0.042925075
0.24121594 0.023128375 -0.0031764656
0.24606587 0.023057843 -0.011234328
0.24662964 0.023079148 -0.012221798
0.24681312 0.023398124 -0.01331158
0.2547527 0.023173954 -0.026287198
0.25480112 0.023513712 -0.027086496
0.25754464 0.023305897 -0.03137435
0.25723737 0.0238591 -0.03237389
0.26011467 0.024057664 -0.03751491
0.26109087 0.024092222 -0.039291009
0.2636767 0.024233337 -0.043981478
0.23819913 0.02334117 -0.015458405
0.24549164 0.02368111 -0.028748199
0.24602011 0.023705818 -0.029714122
0.24646257 0.023738272 -0.030483678
0.25398847 0.024110438 -0.044173568
0.23244426 0.023661757 -0.0065698922
0.23422171 0.023750285 -0.0097022355
0.23816203 0.023947723 -0.016911626
0.23835911 0.023952579 -0.017269775
0.22414348 0.02324936 -0.0075780302
0.22427675 0.023228534 -0.0078827292
0.22859506 0.023434561 -0.015766099
0.22876006 0.023440909 -0.016069993
0.23084208 0.023575321 -0.019812971
0.23674981 0.023872063 -0.030537456
0.23701498 0.023898907 -0.03101711
0.24390195 0.024214663 -0.043582842
0.22240405 0.023800528 -0.0059613287
0.22502878 0.023937289 -0.010711938
0.22646788 0.0240434 -0.013242126
0.2306723 0.024159025 -0.021079883
0.23685145 0.02451955 -0.032234311
0.23714733 0.024539016 -0.032758862
0.24269955 0.024778452 -0.042926222
0.24361111 0.024854723 -0.044515595
0.22474486 0.024198595 -0.026170045
0.2100293 0.024640314 -0.0168733
0.21087062 0.024666246 -0.018432692
0.21103346 0.024634434 -0.018797457
0.21345127 0.024186606 -0.021601602
0.21381103 0.024190394 -0.022230938
0.21446635 0.024168609 -0.023518249
0.21424478 0.02448906 -0.023836181
0.21438806 0.02480907 -0.024924576
0.21700418 0.025022529 -0.02948156
0.21913315 0.024411226 -0.031995773
0.22142141 0.024487842 -0.036256149
0.22132865 0.025146244 -0.037535101
0.22160178 0.025188465 -0.037996277
0.22697055 0.025483306 -0.04769747
0.1974909 0.024079533 -0.008548066
0.19964869 0.024244763 -0.012287021
0.20341668 0.024405787 -0.019238591
0.20413202 0.024434511 -0.020531148
0.21174487 0.02484628 -0.034285665
0.22055054 0.025246531 -0.050396785
0.20553625 0.024840036 -0.037266895
0.20579614 0.025506493 -0.039289325
0.20680462 0.02559761 -0.04099378
0.18046121 0.024108395 -0.0059255809
0.1831536 0.024292201 -0.010698408
0.1836586 0.024277393 -0.011712685
0.1853881 0.024398521 -0.014770389
0.18878427 0.024568878 -0.020968482
0.19166745 0.024715092 -0.026179433
0.19206023 0.024685739 -0.026975736
0.19581658 0.024869861 -0.033821821
0.19683564 0.024930146 -0.035605356
0.18232861 0.024925988 -0.010620132
0.18289536 0.024976 -0.011616036
0.18337554 0.024957277 -0.012602881
0.18390743 0.025007483 -0.013528541
0.18563819 0.025115184 -0.016615823
0.18648559 0.025102105 -0.018281862
0.1878248 0.025185931 -0.020629495
0.19186078 0.025362011 -0.028038785
0.19657716 0.025618874 -0.036537305
0.19691972 0.025643019 -0.037169293
0.19810997 0.025654998 -0.039425746
0.19990446 0.025811665 -0.042565823
0.20109175 0.025825689 -0.044771984
0.17017549 0.024401534 -0.0010965317
0.17478657 0.024610225 -0.0094956309
0.17522097 0.024645144 -0.010281011
0.18516918 0.025772601 -0.029910132
0.16277227 0.024957033 -0.0015770495
0.1629796 0.024970436 -0.0019107014
0.16352852 0.025024727 -0.0028610229
0.1649172 0.024283413 -0.0042257756
0.16738684 0.025147807 -0.01006785
0.17514579 0.024864309 -0.022721916
0.17604105 0.024872562 -0.024419233
0.17659235 0.024911689 -0.025373206
0.17711982 0.024948513 -0.026305914
0.17753878 0.024988187 -0.027034104
0.17830461 0.025029514 -0.028432384
0.17818196 0.025664289 -0.029710829
0.17887434 0.024978213 -0.029614404
0.17881927 0.025731128 -0.030815214
0.17958483 0.025765941 -0.032176793
0.18027073 0.025459889 -0.032717407
0.18404602 0.025298042 -0.038881734
0.18437865 0.025281461 -0.039548054
0.18448383 0.026009446 -0.04110451
0.18761642 0.026161503 -0.046802461
0.18827304 0.025842339 -0.04728356
0.19018632 0.026301429 -0.051448539
0.15790831 0.024898406 -0.004692927
0.1612086 0.025272887 -0.011206597
0.16212973 0.02537501 -0.012741283
0.16742325 0.024892125 -0.021049276
0.16786855 0.025648726 -0.023199603
0.16839996 0.025650948 -0.024238661
0.16873914 0.02565553 -0.024882406
0.16928744 0.025688387 -0.025832668
0.17931697 0.026225863 -0.044019058
0.15274754 0.025469907 -0.008082971
0.15414846 0.025568323 -0.010591686
0.15605012 0.024904847 -0.012738541
0.15670142 0.024965148 -0.013854861
0.15691057 0.025660424 -0.015680641
0.16135466 0.025195196 -0.022338033
0.16159689 0.025574619 -0.023420081
0.16178468 0.025948349 -0.024470717
0.1694288 0.025569927 -0.037084252
0.17071587 0.025656031 -0.039359257
0.17088436 0.025677392 -0.039679363
0.17129448 0.026352299 -0.041890442
0.17686167 0.026645068 -0.051972717
0.14703935 0.02524185 -0.0085060894
0.15605317 0.025691047 -0.024892315
0.16401181 0.026081884 -0.039387509
0.15621039 0.02566969 -0.025218368
0.15605809 0.026377093 -0.026375696
0.16294408 0.026012622 -0.037500277
0.16365096 0.026060468 -0.038752362
0.13790223 0.024908364 -0.0028950572
0.13986193 0.025050888 -0.0062954277
0.14395806 0.026012218 -0.015039653
0.14509657 0.025783822 -0.016789511
0.1457341 0.025296666 -0.017101288
0.14601204 0.02609567 -0.018823087
0.1478121 0.026171591 -0.022149473
0.14849474 0.025428506 -0.022130311
0.1553089 0.02582773 -0.034388974
0.15580006 0.025820224 -0.035365596
0.15604359 0.026594479 -0.037132323
0.15919822 0.026760194 -0.042797774
0.13144514 0.025722403 -0.0030303597
0.1505053 0.026641915 -0.037730217
0.13359785 0.025524933 -0.016296953
0.14576568 0.02613317 -0.03839615
0.15079267 0.026378417 -0.047561854
0.13306567 0.026313309 -0.01649648
0.13754115 0.026497489 -0.02471292
0.13831781 0.02652983 -0.026140705
0.14100546 0.026679602 -0.031021148
0.11935119 0.025362056 -0.0011196434
0.12043952 0.025444698 -0.0030066073
0.12061886 0.025479458 -0.003310591
0.12303431 0.025586521 -0.0077244937
0.12646316 0.025735939 -0.014033273
0.1331182 0.026109083 -0.025986031
0.13678995 0.026267365 -0.032753468
0.1370533 0.026279798 -0.033214733
0.13746038 0.026308643 -0.033909455
0.12140424 0.026292775 -0.0059753954
0.12507199 0.026503529 -0.012603417
0.12777196 0.026676459 -0.017356783
0.12789923 0.026673421 -0.01764217
0.13094616 0.026751114 -0.023390755
0.13128218 0.026776399 -0.02397193
0.13576409 0.027008116 -0.032129794
0.13965333 0.027226463 -0.039073229
0.11358844 0.025856363 -0.0010580868
0.11456633 0.025916148 -0.0027894378
0.11472698 0.025922863 -0.0030827522
0.12671971 0.026553154 -0.024813652
0.12698641 0.026573578 -0.025262028
0.13125595 0.026774265 -0.033060819
0.10960439 0.026599124 -0.0040349513
0.12141725 0.026328966 -0.024431124
0.12187843 0.026795667 -0.025759727
0.12277833 0.026380286 -0.026989073
0.12511238 0.02649688 -0.031223282
0.12547618 0.026505021 -0.031898215
0.12580207 0.026524421 -0.032492697
0.12683055 0.026619477 -0.034219414
0.13268885 0.026916277 -0.04489617
0.10958087 0.025938444 -0.01204212
0.11025896 0.025974434 -0.01327385
0.12137195 0.026549794 -0.033420905
0.12182862 0.026583165 -0.034196168
0.11003065 0.026755705 -0.014055803
0.1103925 0.026760843 -0.014741808
0.11200246 0.026898608 -0.017556593
0.11230697 0.02688906 -0.018166408
0.11282712 0.026895715 -0.019119442
0.11338545 0.026976572 -0.020023659
0.11375958 0.026985964 -0.020696521
0.11455631 0.027013192 -0.022227019
0.11474997 0.027025273 -0.022583649
0.11552663 0.027049001 -0.023988172
0.1161554 0.027090803 -0.025102913
0.11682615 0.027140729 -0.026316419
0.11719435 0.027151132 -0.026977301
0.11990216 0.027253833 -0.032033071
0.1207915 0.027349273 -0.033511251
0.099342272 0.025796633 -0.0023558885
0.10043659 0.0258557 -0.0042744428
0.11707585 0.0266668 -0.03456451
0.1000227 0.026673213 -0.0046667457
0.10156333 0.026752662 -0.0074659288
0.10281574 0.026816586 -0.0097383857
0.10450054 0.026848771 -0.01288636
0.092172131 0.025822941 0.0015750676
0.093685798 0.026686974 -0.0023267269
0.10848393 0.027472911 -0.029103562
0.10963268 0.026667688 -0.030206144
0.11085147 0.026731074 -0.032405347
0.11123131 0.026745312 -0.033082083
0.11551766 0.027835594 -0.041919425
0.087999508 0.026148591 0.00032266974
0.090919062 0.026276272 -0.0050445497
0.33169025 0.021206474 -0.0012308359
0.35218239 0.022266904 -0.038384348
0.33460256 0.021844415 -0.0080954134
0.34043431 0.022196976 -0.018635511
0.30966002 0.021166082 0.010445356
0.31350684 0.021395698 0.0034894645
0.31378448 0.021401351 0.0029971302
0.31421989 0.021412093 0.0022011697
0.31630713 0.021565655 -0.0015490055
0.32050014 0.021740595 -0.0091733038
0.32115054 0.021773344 -0.010380119
0.34247464 0.022809224 -0.049192965
0.3457576 0.022997232 -0.05514881
0.35131657 0.023261523 -0.065262169
0.3135556 0.021903981 0.0017885268
0.31372383 0.022163153 0.00067073107
0.31423819 0.022128057 4.1037798e-05
0.3143073 0.022488441 -0.0011663735
0.3147845 0.022526942 -0.0019850135
0.31580812 0.022282112 -0.0031016767
0.31576425 0.022483235 -0.0039353073
0.31607217 0.022483036 -0.0045219958
0.32034859 0.022248916 -0.010516793
0.33091345 0.022733342 -0.029847324
0.34214845 0.023308653 -0.0502083
0.3418231 0.023817763 -0.051221788
0.34541315 0.023488306 -0.056151301
0.3450703 0.023988694 -0.05714944
0.35108155 0.023764873 -0.066442996
0.35083506 0.024267774 -0.067632794
0.35404193 0.02386008 -0.071928382
0.3576833 0.024570413 -0.080177814
0.30001482 0.022274794 -0.00015109777
0.31479576 0.022954524 -0.027097583
0.32502499 0.023505718 -0.045624539
0.33575165 0.024031214 -0.065159217
0.33988857 0.024204135 -0.072720766
0.34473205 0.024426708 -0.0815465
0.30253762 0.022889355 -0.0064110607
0.32473779 0.024019552 -0.046696305
0.33581859 0.024578296 -0.06685169
0.33922389 0.02471048 -0.073108792
0.34442496 0.02493475 -0.082581684
0.29166329 0.022730388 -0.0098675787
0.29898363 0.023097012 -0.023155019
0.29944292 0.023151617 -0.023913503
0.30108744 0.023207366 -0.026949525
0.30151409 0.023171829 -0.027844593
0.30588049 0.02345412 -0.035708308
0.31501594 0.023834229 -0.052383587
0.32748058 0.024510212 -0.074920833
0.28669065 0.023063131 -0.0023621917
0.28758422 0.023098201 -0.0039479434
0.29352874 0.023360865 -0.014841527
0.30080253 0.02369567 -0.028111309
0.30122203 0.023720993 -0.028886408
0.31516364 0.024398845 -0.054206669
0.32677442 0.025028689 -0.075241238
0.32715124 0.025047734 -0.075905398
0.33021939 0.025202697 -0.081522748
0.28309339 0.023063548 -0.01732865
0.28356221 0.023076318 -0.018173009
0.28936481 0.023338536 -0.028770715
0.28962862 0.023349201 -0.029247418
0.3115052 0.024510637 -0.068936929
0.28289041 0.023599116 -0.018542498
0.28326511 0.023625396 -0.019181758
0.28577936 0.023775114 -0.02373445
0.28931358 0.023904271 -0.030240536
0.31036979 0.025005134 -0.068426117
0.31173235 0.025092836 -0.070889771
0.31455189 0.025221849 -0.076057419
0.31550658 0.025253601 -0.077794805
0.26610351 0.023397727 -0.0092766583
0.26647943 0.02341393 -0.0099255145
0.28084254 0.024095539 -0.036099017
0.26769868 0.024031643 -0.01374872
0.2706393 0.024196347 -0.019108787
0.27812117 0.024551643 -0.032680973
0.28054127 0.024668427 -0.037090734
0.25706047 0.023865085 -0.013988301
0.26404813 0.024189834 -0.026712552
0.26374668 0.024772484 -0.027692273
0.27082899 0.024519518 -0.039043024
0.27064991 0.025090141 -0.040314227
0.27365351 0.024684308 -0.04418461
0.2739045 0.024683695 -0.04465957
0.24665923 0.023993889 -0.014569625
0.24686341 0.024012439 -0.014925867
0.25341547 0.024328012 -0.026929438
0.25363591 0.024336459 -0.027298853
0.25702691 0.024459323 -0.033511668
0.25997025 0.02463847 -0.038795158
0.24043825 0.024266314 -0.004831031
0.24650966 0.0246106 -0.015832871
0.2466656 0.024611361 -0.016128495
0.25278521 0.02489109 -0.027298167
0.25679439 0.025050346 -0.034610584
0.25977814 0.025242295 -0.039959788
0.26134831 0.025365595 -0.042774871
0.23027432 0.024180682 -0.0040247738
0.23392603 0.024355419 -0.010659173
0.23807175 0.024566945 -0.018232986
0.22234723 0.024450211 -0.0072705895
0.22402044 0.024473891 -0.010447949
0.22562784 0.024625165 -0.013203159
0.23040546 0.024765249 -0.022095233
0.24258398 0.025423974 -0.044187695
0.22336707 0.025078535 -0.01077038
0.22755656 0.025299314 -0.018293142
0.2302061 0.025398247 -0.023208603
0.23641539 0.025753677 -0.034381494
0.21318498 0.024879619 -0.0081924647
0.22033024 0.02529294 -0.021072209
0.22229022 0.024670627 -0.023333147
0.22198528 0.025281567 -0.024292395
0.22440669 0.02483741 -0.027071103
0.22822078 0.025018884 -0.034010381
0.22850439 0.025030926 -0.03449899
0.22886305 0.025045015 -0.035227373
0.22863965 0.02567587 -0.036264375
0.23460267 0.02532137 -0.045650899
0.23486477 0.025978301 -0.047600076
0.21685956 0.025019806 -0.029188767
0.20509098 0.025069978 -0.0093338788
0.21162263 0.025355304 -0.021272376
0.21199387 0.02539256 -0.021913454
0.21668604 0.02565383 -0.030403763
0.2216979 0.025888337 -0.039519638
0.1926198 0.024558503 -0.00096407533
0.19723481 0.024738584 -0.0094846189
0.20411426 0.025105279 -0.021915719
0.20452136 0.025121499 -0.02264899
0.21315514 0.025511174 -0.038466766
0.19271252 0.02525286 -0.0025625825
0.19331387 0.025303133 -0.0036434084
0.19360715 0.025254469 -0.0042892545
0.1962692 0.025422551 -0.0090703517
0.20449784 0.025802072 -0.024033844
0.20474207 0.025823401 -0.024489
0.21121252 0.026178312 -0.036152691
0.2128655 0.026171004 -0.039358154
0.2151904 0.026351554 -0.04343383
0.21534634 0.02634785 -0.04373081
0.19734375 0.025835756 -0.025177181
0.18385158 0.025703192 -0.014775828
0.18470895 0.025769833 -0.016265661
0.18517905 0.025774945 -0.017211959
0.18639061 0.025811713 -0.019447103
0.18674016 0.025815316 -0.020083144
0.19198918 0.026097175 -0.029612958
0.1964606 0.026319722 -0.037734598
0.1970025 0.026360434 -0.038697734
0.19718195 0.026371997 -0.039033324
0.17515424 0.025344037 -0.011527061
0.19002862 0.026073257 -0.038621694
0.17623089 0.026073789 -0.014898047
0.18455079 0.02645923 -0.030156657
0.18530387 0.026532605 -0.031405687
0.18550485 0.026559889 -0.031716198
0.18586037 0.026576959 -0.032358497
0.18996532 0.026760487 -0.039898902
0.16341409 0.025735538 -0.0040450394
0.16604379 0.025864115 -0.0087898672
0.16719002 0.025876325 -0.011000052
0.17864059 0.026452651 -0.031813622
0.16219579 0.026108002 -0.014206097
0.16268283 0.026086133 -0.015196443
0.16982652 0.02649018 -0.028119683
0.15066335 0.026139751 -0.0055199713
0.1545954 0.026289921 -0.012767315
0.15618378 0.026425393 -0.015566662
0.15681408 0.026372686 -0.016881466
0.15751168 0.026452336 -0.018053725
0.16188435 0.026638307 -0.026045904
0.16219023 0.026664663 -0.026643053
0.16256323 0.026704932 -0.027253985
0.14554363 0.025881626 -0.0071675628
0.1458469 0.025879987 -0.0077983886
0.15591016 0.026395483 -0.026043534
0.16290459 0.02678922 -0.038676605
0.16531807 0.026888072 -0.043128416
0.14374405 0.026587503 -0.0051508099
0.13782412 0.026453741 -0.0051681548
0.13891397 0.026565446 -0.0070452094
0.14307322 0.026752319 -0.014640421
0.143381 0.026760502 -0.015257329
0.1468538 0.026930757 -0.021569654
0.15078735 0.027100805 -0.028770402
0.15136129 0.027164519 -0.029728457
0.15606335 0.027388653 -0.038310647
0.15774217 0.027446982 -0.041419908
0.13072398 0.026464716 -0.0029640198
0.13122728 0.026498089 -0.0038766712
0.13154466 0.02648739 -0.0045044273
0.13815957 0.026844559 -0.016459435
0.12617418 0.026687238 -0.0053511411
0.13211526 0.027038233 -0.016050056
0.13247411 0.027060039 -0.016654894
0.13645075 0.027224243 -0.024002999
0.12032802 0.027040804 -0.0052334815
0.12534648 0.027299719 -0.014344037
0.12587011 0.027298845 -0.015313983
0.12640601 0.027352775 -0.016234547
0.13508385 0.027779121 -0.032042697
0.1385441 0.027938657 -0.038329437
0.14060162 0.028018469 -0.042146102
0.11481509 0.02675534 -0.0043576658
0.11572786 0.02674219 -0.006159991
0.11795447 0.02769642 -0.011295438
0.11989149 0.026995098 -0.013645351
0.12040076 0.026995957 -0.014593646
0.12076329 0.027020048 -0.015249014
0.1218388 0.027105924 -0.017154574
0.13067579 0.027532162 -0.033244595
0.1057412 0.026425451 0.0030196607
0.12215302 0.027233593 -0.02679503
0.10617107 0.027286131 0.0011520982
0.10703167 0.027321048 -0.00040896237
0.10775069 0.027367234 -0.0017080158
0.10857451 0.027375026 -0.0032734871
0.10906023 0.027387144 -0.0041930974
0.10943374 0.027398448 -0.0048546344
0.11000865 0.027416941 -0.0059657395
0.10209793 0.027609635 -0.0095433295
0.10263471 0.027640183 -0.010513663
0.10295177 0.027615132 -0.011186361
0.10328115 0.027647633 -0.011744753
0.10376752 0.027659958 -0.012665033
0.087118968 0.026958553 0.00081767142
0.081553236 0.028981669 -0.044205755
0.34665024 0.021812638 -0.0015071332
0.34527022 0.022306791 -0.00059601665
0.34539753 0.022279624 -0.00088495016
0.34519792 0.02273206 -0.0021532774
0.33003333 0.022632834 -0.0030848384
0.34022039 0.022683945 -0.01987049
0.34005919 0.023170618 -0.021219939
0.3514201 0.023232877 -0.040296823
0.3516897 0.023257788 -0.040766895
0.3558439 0.023424137 -0.048358887
0.35591647 0.023949627 -0.050063223
0.35656482 0.023743723 -0.050431162
0.32932624 0.023099098 -0.0034044087
0.33335215 0.023290563 -0.010718495
0.33984286 0.023664625 -0.022447348
0.35522032 0.02442291 -0.05042997
0.35557222 0.02444143 -0.05106914
0.3147943 0.022532802 -0.0020015836
0.31514782 0.022553105 -0.0026371181
0.30837435 0.022660559 0.0079682469
0.31543943 0.022977903 -0.0049607754
0.31585282 0.023000769 -0.0057294965
0.31652588 0.023057042 -0.0068697035
0.33020383 0.023752186 -0.031758428
0.30579013 0.023086721 0.011067629
0.31564859 0.023520879 -0.0069265664
0.31638122 0.023561779 -0.0082207322
0.31709105 0.023592953 -0.0095260441
0.31818444 0.023686668 -0.011438489
0.34105307 0.024809504 -0.053031206
0.34121192 0.024824131 -0.053317308
0.35000736 0.025264511 -0.069363415
0.35173482 0.025300352 -0.072529048
0.29922345 0.023264777 -0.0019319952
0.31355074 0.023953922 -0.028030455
0.33846283 0.025201924 -0.073319539
0.33925509 0.025244808 -0.074763894
0.33982176 0.025289642 -0.075742543
0.29887402 0.023787381 -0.0029082894
0.30180013 0.023875354 -0.0083163083
0.30200902 0.023884606 -0.0086844116
0.31277472 0.024447754 -0.028232425
0.31766784 0.024677295 -0.037157282
0.32834065 0.025251653 -0.056502312
0.32871729 0.02526563 -0.057174236
0.3291842 0.025281042 -0.05801557
0.32959375 0.02530428 -0.058774471
0.33012164 0.025305048 -0.059812769
0.33060041 0.02533026 -0.060650453
0.33500206 0.025599375 -0.068569496
0.3387458 0.025752766 -0.075440466
0.33930886 0.025802314 -0.076412871
0.30099955 0.024254745 -0.030050024
0.30148339 0.024297372 -0.030872315
0.30212629 0.024334021 -0.032022581
0.30244488 0.024338692 -0.032638356
0.30870032 0.024668645 -0.043990806
0.31496716 0.024972159 -0.055423692
0.29038858 0.024313794 -0.012286127
0.2928437 0.024424944 -0.016732857
0.30134481 0.024832571 -0.032205969
0.30226994 0.024895629 -0.033910796
0.30389971 0.025003847 -0.036784962
0.30421543 0.025015015 -0.037388489
0.30706263 0.02509347 -0.04265511
0.3077054 0.025151648 -0.04375954
0.3079313 0.025175318 -0.044174448
0.30842704 0.025214802 -0.045090362
0.31467956 0.025516864 -0.056463376
0.28292876 0.024156682 -0.020191625
0.31106171 0.025610495 -0.071265072
0.31369719 0.025747202 -0.076046214
0.27551469 0.024371751 -0.0082302541
0.2825911 0.024704775 -0.0211588
0.28873056 0.025040707 -0.032266617
0.31267712 0.026227962 -0.075800017
0.31398231 0.026306486 -0.078180864
0.31427294 0.026315611 -0.078699857
0.26381016 0.024371199 -0.0083374977
0.26492018 0.024467366 -0.010282621
0.2653358 0.024519183 -0.01095891
0.26577723 0.02454832 -0.01174967
0.26740384 0.024586134 -0.014782414
0.26762339 0.024551993 -0.015249774
0.2703236 0.024737788 -0.020092174
0.27057976 0.0247369 -0.020556971
0.27108109 0.024750926 -0.021491691
0.27136081 0.02476958 -0.021982893
0.27779403 0.025129948 -0.033647493
0.28034687 0.025241021 -0.03827168
0.28057045 0.025260488 -0.038693026
0.26417923 0.024987847 -0.010516167
0.27035651 0.025282945 -0.021720126
0.27107912 0.025324846 -0.023016587
0.27195388 0.025375567 -0.024617165
0.27213168 0.025415348 -0.02490072
0.27266955 0.025470918 -0.02581206
0.25663394 0.025055654 -0.016254336
0.24036154 0.025480043 -0.007758379
0.24636045 0.025196997 -0.01710175
0.2464371 0.025503322 -0.017971799
0.24656592 0.025804628 -0.018946767
0.24688871 0.025833676 -0.019468561
0.2514118 0.025699329 -0.027108446
0.25204211 0.025446178 -0.027466282
0.256643 0.025665319 -0.035857692
0.25947922 0.025833188 -0.040929347
0.25936228 0.026422692 -0.04227446
0.26169357 0.02626376 -0.045676842
0.26292038 0.026012914 -0.047193959
0.23167381 0.024812069 -0.0082097054
0.23367143 0.024964014 -0.011681363
0.23378976 0.024980081 -0.011947095
0.23788916 0.025174547 -0.019376069
0.24928792 0.025761824 -0.040097892
0.25276357 0.025923248 -0.046434537
0.23089179 0.025437035 -0.0082332492
0.23151553 0.025405819 -0.0094633698
0.23764743 0.025784647 -0.020463258
0.24846534 0.026349623 -0.040094227
0.24868451 0.026349097 -0.040472433
0.22269937 0.025651228 -0.011069
0.22588165 0.025275337 -0.015155196
0.23036881 0.026094267 -0.024885237
0.23066279 0.026124487 -0.025375903
0.23657933 0.025764775 -0.034673482
0.23654018 0.026404148 -0.036021754
0.23695275 0.026389267 -0.036922291
0.24061428 0.026566083 -0.043551758
0.24113777 0.02658977 -0.044509575
0.21239436 0.025495032 -0.0082110763
0.21305887 0.025528856 -0.0093906522
0.21950956 0.025878081 -0.021072432
0.22003165 0.02592426 -0.021997824
0.22168519 0.025914816 -0.025203466
0.22366484 0.02608802 -0.028652966
0.22832604 0.026289025 -0.037188411
0.20824495 0.025913751 -0.0022176206
0.21088377 0.026072284 -0.0069481432
0.21139598 0.0260916 -0.0078991652
0.21169585 0.026100395 -0.0084139258
0.21212339 0.026126418 -0.0091768354
0.21278106 0.026165524 -0.010363847
0.21975365 0.026558507 -0.022956938
0.22137919 0.02656042 -0.02610755
0.22871929 0.026953859 -0.039370134
0.22945087 0.026994027 -0.040674597
0.20481148 0.025708839 -0.010257304
0.20516294 0.025742592 -0.01088509
0.20566933 0.025769662 -0.011790752
0.21277247 0.026116777 -0.024708927
0.21386488 0.026118066 -0.026812911
0.21788563 0.027009245 -0.035452396
0.22159323 0.026541259 -0.040762544
0.22130202 0.027185023 -0.041684911
0.1964879 0.026043795 -0.011016175
0.19779766 0.026163293 -0.013217777
0.19810845 0.026196428 -0.013789505
0.201902 0.026346195 -0.020758048
0.20239124 0.026374696 -0.021694958
0.2048368 0.02651388 -0.026066989
0.20517929 0.026527252 -0.026707247
0.20550619 0.026482306 -0.027388006
0.21257049 0.026843116 -0.040242448
0.193158 0.026539721 -0.006375432
0.19503161 0.026695397 -0.0096657723
0.20535812 0.027148873 -0.028584242
0.20646146 0.027246108 -0.030486047
0.19708818 0.02650469 -0.026123732
0.19738355 0.026502147 -0.02671124
0.19758067 0.02649924 -0.027087346
0.18331146 0.02646604 -0.0025543571
0.19676223 0.027169921 -0.026989296
0.18345046 0.026380209 -0.015416443
0.18572488 0.027163109 -0.020989597
0.17280777 0.0266167 -0.010144919
0.17497958 0.02671776 -0.014055237
0.1778146 0.027571123 -0.020573959
0.16313899 0.026438039 -0.0049326569
0.16637218 0.026533801 -0.010933861
0.16692211 0.026605114 -0.011859223
0.16701864 0.026999146 -0.012617916
0.1675173 0.026670808 -0.012797564
0.16746393 0.027390221 -0.014053121
0.15592687 0.026502842 -0.0041635036
0.16995287 0.027222646 -0.029638588
0.17017046 0.027222242 -0.030078784
0.17052513 0.027605809 -0.031374335
0.17085078 0.027596515 -0.032048866
0.17543097 0.02821959 -0.040949538
0.17738754 0.028315591 -0.044487864
0.14984374 0.026839744 -0.0053914338
0.15053791 0.026847275 -0.0066744983
0.15316428 0.027007183 -0.011403292
0.15399732 0.027000919 -0.013016284
0.15456438 0.027057163 -0.013956785
0.14849982 0.027535424 -0.015135735
0.14875601 0.027572796 -0.015525967
0.15152323 0.027721465 -0.02054587
0.15672491 0.028007012 -0.029942676
