# .PCD v0.7 - Point Cloud Data file format
VERSION 0.7
FIELDS x y z
SIZE 4 4 4
TYPE F F F
COUNT 1 1 1
WIDTH 1249
HEIGHT 1
VIEWPOINT 0 0 0 1 0 0 0
POINTS 1249
DATA ascii
0.0012621135 -0.033172011 0.0050548064
0.00082047284 -0.027478583 0.0047560129
-0.00063541532 -0.021816127 0.0046287221
0.0011226386 -0.02183166 0.0046653086
-0.00012810528 -0.015632439 0.0054434221
-0.13998735 -0.0039344248 0.00453887
-0.10450323 -0.0040935841 0.0048857476
-0.152743 0.0010253714 0.0041030184
-0.13213912 0.00093843031 0.0043122508
-0.12924716 0.00091752608 0.0043442301
-0.12784535 0.00099667115 0.0043045999
-0.11988086 0.00087627902 0.0044322833
-0.098888613 0.00080869719 0.0046374183
-0.097817339 0.00082509022 0.0046250466
-0.087325759 0.00069453969 0.0048024626
-0.080040827 0.00068382703 0.0048405873
-0.061602205 0.00060851459 0.0050397813
-0.051524296 0.00058772037 0.0051262686
-0.05040428 0.00055770861 0.0051653613
-0.049277008 0.00052210328 0.0052028438
-0.048260912 0.00052507006 0.005198204
-0.044969067 0.00056710263 0.0051878188
-0.043888271 0.00057479157 0.0051740138
-0.037431315 0.00050772517 0.0052758884
-0.036296621 0.00052176754 0.005273636
-0.035250023 0.00053202081 0.0052837897
-0.031320632 0.00047922769 0.0053382888
-0.020839766 0.0004079052 0.005477713
-0.016508058 0.00039462501 0.005523887
-0.0092713088 0.00036233 0.0055845808
-0.003546983 0.0003715381 0.0056159394
-0.0017842203 0.0052715261 0.0054221814
0.0014842749 -0.14420769 0.0033408981
0.0024928749 -0.123927 0.0037593727
0.0017832071 -0.11498394 0.0035969564
0.00096802413 -0.10605856 0.0036411637
0.0031548738 -0.10539946 0.0043160031
0.0012156516 -0.097236916 0.0040165456
0.002580747 -0.088495083 0.0046798815
0.0016337484 -0.080442533 0.0048713936
0.0011099577 -0.065964296 0.0047289138
-0.00031667948 -0.032585602 0.0058158492
-0.0006980747 -0.026896942 0.0055380617
-0.15031087 -0.0033660382 0.0052620731
-0.11225451 -0.0034914797 0.0056102914
-0.15429327 0.0015838611 0.0048842044
-0.15286687 0.0015407188 0.0049408162
-0.14126827 0.0015160986 0.0050226129
-0.11313539 0.0013995967 0.0053072427
-0.10728201 0.0013326076 0.0054072663
-0.10624738 0.001337242 0.005410824
-0.085994653 0.0012221022 0.0056357961
-0.082077615 0.0012996589 0.0055783833
-0.07483279 0.0012313493 0.0056964625
-0.062551782 0.001146629 0.0058496213
-0.055613965 0.0011063109 0.0059250714
-0.053469509 0.0011189249 0.0059190406
-0.05239591 0.0011491051 0.005915279
-0.046950877 0.0010339287 0.006043924
-0.010066435 0.00089993101 0.0063935639
-0.006138742 0.00084257033 0.0064702714
-0.075910471 0.0012865185 0.0056364848
0.0016145855 -0.13368754 0.0037039788
0.0031788796 -0.11357595 0.0048482306
0.0026969761 -0.09586633 0.0053059305
0.00089931488 -0.079776064 0.0055349073
0.0010039061 -0.072518572 0.0053630462
0.0014641285 -0.058131184 0.0056660795
0.00040759146 -0.04462377 0.0060867509
-0.00065775216 -0.038281605 0.0062385537
0.0011152476 -0.038235784 0.006200335
0.00046347082 -0.025711372 0.0070558209
-0.00096413493 -0.0090070339 0.0072557307
-0.15794343 -0.0027433336 0.005927925
-0.15146591 -0.0028265049 0.0060445629
-0.096149005 -0.0030813413 0.0066371015
-0.13715097 0.0020238375 0.0058974638
-0.099549733 0.0018632081 0.0062547475
-0.096633568 0.0018997083 0.0062417877
-0.095529258 0.0018615762 0.0063001513
-0.067783207 0.001714471 0.0066008428
-0.066642478 0.0017012882 0.0066106957
-0.056464612 0.0016552248 0.0067219273
-0.05428195 0.0015925155 0.0067919078
-0.027204931 0.0015197364 0.0070197089
-0.024767116 0.0015047234 0.0070521128
-0.017861068 0.0014545904 0.00714086
-0.013520852 0.0014506276 0.0071733533
-0.00044412911 0.0013932688 0.0072995196
-0.12356964 0.0024670686 0.0068702325
-0.11414418 0.0024814911 0.0069101485
-0.089168258 0.002367378 0.0071875816
-0.082711793 0.0023687459 0.0072103692
-0.07762228 0.0022556284 0.0073294472
-0.072578974 0.0022495836 0.0073753307
-0.052328646 0.0021899811 0.0075515015
-0.05017741 0.0021457092 0.0076132282
-0.039259702 0.0020720963 0.0077550532
-0.037187606 0.0020792661 0.007745604
-0.031738937 0.0020357217 0.0078161377
-0.028109312 0.0020379452 0.0078442786
-0.021954104 0.0019778903 0.0079589663
-0.016869605 0.0019600226 0.0079869777
-0.0079252869 0.0019124104 0.0080729434
-0.0039073974 0.0019641267 0.0080528632
-0.0020649433 0.0019210011 0.0081020165
0.0015069544 -0.14202055 0.0050730892
0.0024649352 -0.12178966 0.0055814311
0.00067004561 -0.087137155 0.0059746308
0.001706019 -0.086460605 0.0066440143
0.0027259439 -0.064028271 0.0068332152
4.9978495e-05 -0.050439503 0.0068799146
0.0010194033 -0.049811378 0.0076094456
-0.11485029 -0.030159321 0.0067920377
-0.11087351 -0.03027048 0.0069221975
-0.10759821 -0.03022044 0.0069194664
-0.00072149932 -0.019508218 0.0077273706
-0.0011700839 -0.013960486 0.0078173503
0.00024703145 -0.0079138633 0.0088759623
-0.14872772 -0.0022253806 0.0068233628
-0.097031973 -0.0024964307 0.0074062133
-0.060868666 -0.0026831727 0.0077860374
-0.0037441999 -0.0029524406 0.0083759669
-0.13558075 0.0030575607 0.0075439401
-0.12081868 0.003063675 0.0076526748
-0.10808087 0.002944855 0.0078396369
-0.091156036 0.0028476021 0.0079997359
-0.078467965 0.0027882147 0.0081506046
-0.073450074 0.0027974348 0.0081729461
-0.055276796 0.0026658932 0.0083916597
-0.054314628 0.0026607458 0.0084220637
-0.045621395 0.002623192 0.0085192472
-0.04444696 0.0026395007 0.0084914602
-0.020979092 0.0025027469 0.0087644244
-0.012333453 0.0024759453 0.0088549023
-0.004759416 0.002441888 0.0089421347
0.0027096719 -0.13079901 0.0060774321
0.0020220429 -0.13007866 0.0066586318
-0.022197455 -0.10176323 0.0071784058
0.0018603653 -0.093806557 0.0072583156
-0.11417706 -0.069306076 0.0068725422
-0.00016304851 -0.062695354 0.008179755
0.0016183406 -0.062723473 0.008224301
0.0012937486 -0.056218896 0.0077858828
0.00057180226 -0.055608302 0.0085134041
-0.0019723326 -0.0073524881 0.0096418802
-0.14995714 -0.0017509221 0.0076880269
-0.14601645 -0.0017359962 0.0077067357
-0.1325748 -0.0018342196 0.0078587765
-0.12651396 -0.0018791949 0.0079374313
-0.12505287 -0.0017944517 0.0078903912
-0.12216256 -0.0018847019 0.0079654548
-0.1177885 -0.0018159138 0.0079508601
-0.11416829 -0.0019153669 0.0080704596
-0.083122879 -0.0020505479 0.0083750291
-0.074054353 -0.0020899733 0.0084707309
-0.061732098 -0.002140977 0.0085908845
-0.025180906 -0.0023479385 0.0090151643
-0.15764876 -0.0011397182 0.0083755404
-0.1522831 -0.0011287046 0.0084078228
-0.14065823 -0.001240333 0.0085765794
-0.11283329 -0.0013768987 0.0088687632
-0.090450257 -0.0014607138 0.0090886028
-0.086095519 -0.0014928834 0.0091622947
-0.070973016 -0.0015332879 0.0092720268
-0.065541476 -0.0015952579 0.0093661649
-0.031213105 -0.0017584031 0.0097172558
-0.013832957 -0.001853196 0.0099262418
-0.09309978 0.0034073652 0.0088033807
-0.030570313 0.00310928 0.0094462531
-0.02332665 0.0030741487 0.0095320763
-0.010300502 0.002994786 0.0096935388
-0.0085140616 0.0029887727 0.0096856132
0.0035683215 -0.13908373 0.007400766
0.0012643039 -0.12934381 0.0072379699
0.0034370422 -0.11074709 0.0073164646
0.0019453764 -0.1100371 0.0079303328
0.0012264699 -0.10118636 0.008059727
-0.024102733 -0.10104813 0.0077792695
0.0029975474 -0.1011837 0.0080825649
0.0031809509 -0.092426836 0.0085567385
0.00023184717 -0.076414369 0.0088739293
0.0014919341 -0.069233991 0.0087956823
-0.00018972158 -0.04855372 0.0090400903
0.00075371563 -0.041511122 0.009723858
-0.00014507771 -0.029564785 0.0095562972
-0.10575511 -0.028460393 0.0092101526
0.00043313205 -0.023388389 0.010154741
0.00025005639 -0.012268689 0.01018201
-0.15362242 -0.00061860093 0.0092291189
-0.15310556 -0.0005804195 0.0092013152
-0.1444456 -0.00069068256 0.0093503287
-0.13500464 -0.00072695792 0.009426971
-0.13104731 -0.00075935386 0.0095031271
-0.12018696 -0.00082423689 0.0096153487
-0.11875708 -0.00076580793 0.0095834052
-0.11150092 -0.00078846735 0.0096573262
-0.10252459 -0.00087523402 0.0097668404
-0.088088267 -0.0009867216 0.0099772532
-0.086963765 -0.00097859034 0.0099753002
-0.078709915 -0.00093833136 0.0099917175
-0.068858281 -0.0010458119 0.01013536
-0.067495018 -0.0010371155 0.010154426
-0.066416472 -0.0010577 0.01017032
-0.062331155 -0.0010463542 0.01018926
-0.059398085 -0.0010855794 0.010232675
-0.042500719 -0.0011664863 0.01040328
-0.021531612 -0.0012790795 0.010651574
-0.017170146 -0.0012554413 0.010639916
-0.0089560151 -0.0013646075 0.010796119
0.0028835684 -0.13835454 0.007958143
-0.032730699 -0.11803031 0.0082502905
0.0030540675 -0.11820547 0.0086115506
0.0033171475 -0.10862272 0.0091733504
-0.025925457 -0.10037102 0.0084386282
0.0022625774 -0.083061248 0.0099234469
0.0024049133 -0.075767986 0.0095719565
-0.11456455 -0.06021386 0.0090673603
0.0014318228 -0.060748074 0.010292511
0.0010731816 -0.047302164 0.010498509
-0.0012046993 -0.034635842 0.010695572
0.00053408742 -0.034637302 0.010710909
-0.096513376 -0.022256684 0.0098125134
-0.00083555281 -0.017207149 0.010838564
-0.14677489 -5.2713178e-05 0.010074838
-0.14163397 -8.6860615e-05 0.010122383
-0.13624713 -0.00016151834 0.010227821
-0.1337074 -0.0001959381 0.010275725
-0.13230789 -0.00020492685 0.010284821
-0.1293731 -0.00017058916 0.010280616
-0.12752113 -0.00022235943 0.010332393
-0.12620212 -0.00025281834 0.010371413
-0.10657818 -0.00031469163 0.010548992
-0.10439996 -0.00029534262 0.010543924
-0.10327758 -0.00032639352 0.010572491
-0.092159316 -0.00034439994 0.010679075
-0.088929676 -0.00045284361 0.010775028
-0.08493226 -0.00035921246 0.010728978
-0.082760639 -0.00042221014 0.010786824
-0.0816622 -0.00046460476 0.01083323
-0.072670907 -0.00048930332 0.010911081
-0.071617924 -0.00047291175 0.01092017
-0.060320929 -0.00053138222 0.011040716
-0.055290058 -0.00059011881 0.011103693
-0.053165495 -0.00054195675 0.011089472
-0.050932989 -0.00060602603 0.011154676
-0.049836293 -0.00062823459 0.01118217
-0.04549852 -0.0005689548 0.011148002
-0.04446888 -0.00056480273 0.011152246
-0.043394163 -0.00060903362 0.011191123
-0.037923664 -0.00063727575 0.011251396
-0.034678072 -0.00071052538 0.01135358
-0.031841233 -0.00066986855 0.011329711
-0.028179139 -0.00067784672 0.011359143
-0.00051350892 0.0040127225 0.011413505
0.0034141988 -0.12645742 0.0096245073
0.0023145527 -0.11749764 0.0092422217
0.002874136 -0.099089332 0.0099757556
0.0017198324 -0.090378672 0.010493258
0.0024157465 -0.090362526 0.01048239
0.00073906779 -0.082348756 0.010552939
0.0018897951 -0.074429139 0.010912938
0.00060766935 -0.053048454 0.011364331
-0.0004697144 -0.046643119 0.011179625
-0.11194699 -0.039132331 0.010758729
-0.1108866 -0.039196089 0.010823435
0.00050993264 -0.039646838 0.011913117
-0.11455664 -0.032836385 0.01097218
-0.10901716 -0.033495199 0.010298351
-0.096890502 -0.027349267 0.010847747
-0.00077714026 -0.022198098 0.011657916
-0.0031356961 -0.0056911819 0.012034413
-0.00034146011 -0.0051612039 0.012849146
-0.15051797 0.00043343258 0.01089268
-0.14793825 0.00041805714 0.0109193
-0.14543518 0.00043644998 0.010927807
-0.14292513 0.00039517088 0.010977813
-0.12770051 0.00032497058 0.011132774
-0.1136125 0.00023283932 0.011293725
-0.10526308 0.00023965308 0.011366407
-0.099169187 0.00020138753 0.011427268
-0.094090618 0.00012627931 0.011512838
-0.073481828 5.958142e-05 0.011704179
-0.062945411 1.8479768e-06 0.01182305
-0.048560888 -9.6168078e-05 0.011998958
-0.039877728 -9.705819e-05 0.012061707
-0.03551726 -0.00012582738 0.012115854
-0.020382807 -0.00021216023 0.012290822
-0.016017616 -0.00018459081 0.012267045
-0.0048586428 -0.00023502856 0.012396799
-0.0011472553 -0.00028933916 0.012466792
-0.11722066 0.00032962469 0.011199177
-0.083640136 0.00016280368 0.011542161
0.0018573999 -0.13543221 0.010255145
0.0032916814 -0.13579872 0.0099814497
0.0030164272 -0.12499409 0.010790873
0.0022528023 -0.11535151 0.011065028
-0.025160789 -0.10706224 0.010092675
-0.023760527 -0.10638815 0.010763385
0.00044646859 -0.10720134 0.01037678
0.0022546202 -0.10721967 0.010408529
0.0017602444 -0.097693913 0.011219962
0.0034659207 -0.089679405 0.011146856
0.00052863359 -0.088983305 0.011763652
0.00041015446 -0.073747657 0.011571455
0.00095701218 -0.059445292 0.011672829
-0.11089174 -0.058187328 0.011118684
-0.1083419 -0.051236436 0.011604581
-0.10444254 -0.044876643 0.011516793
-0.10334399 -0.044806615 0.011459516
-0.0011048317 -0.039051138 0.012669425
-0.11282188 -0.032282457 0.011761593
-0.11062534 -0.032261007 0.011745544
-0.10122216 -0.032296829 0.011827279
-0.1001554 -0.032331128 0.011875894
-0.10033786 -0.026112396 0.012317528
-0.00014257431 -0.027187953 0.012584661
-0.00055986643 -0.010054018 0.013368283
-0.072085597 -0.0042388076 0.012878504
-0.0018765926 -0.00459954 0.013638916
-0.12277565 0.00090615079 0.01193503
-0.12135208 0.00080933067 0.012020066
-0.11232831 0.00077425095 0.012112435
-0.11122807 0.0008157019 0.012089682
-0.10001042 0.00073794636 0.012236766
-0.098219901 0.00077223807 0.012197673
-0.0793375 0.0005936696 0.01247162
-0.078349829 0.00064061623 0.012443536
-0.077231616 0.00069239666 0.012405248
-0.07614471 0.00063992455 0.012463359
-0.063890159 0.00056184537 0.012606733
-0.058070347 0.00054471812 0.012666452
-0.036403835 0.00045868446 0.01287077
-0.030626953 0.00039138249 0.012964564
-0.024444133 0.00035062607 0.013054455
-0.017574593 0.00031120691 0.013128039
-0.011452049 0.00030409615 0.013166229
-0.15042464 0.0015237752 0.012506312
-0.13876188 0.0014137808 0.012665195
-0.13729556 0.0014097423 0.012671337
-0.13598928 0.0014425295 0.012677556
-0.13195077 0.0014059701 0.012718707
-0.11972906 0.0013335637 0.012874832
-0.11570056 0.0013751102 0.012856319
-0.10988715 0.0013334556 0.012934608
-0.096928939 0.0012981475 0.01304484
-0.091779806 0.0012341855 0.013118296
-0.071257465 0.0011289535 0.013352606
-0.040839612 0.00097226858 0.013678504
-0.038673446 0.00095477921 0.013690975
-0.014837876 0.00087423436 0.013922288
-0.0054313242 0.00083587557 0.014016309
0.0014189929 -0.13395499 0.011413831
0.0023337752 -0.12426307 0.011355123
-0.02202414 -0.10567562 0.01137504
0.0018882155 -0.10580406 0.011630166
-0.026303455 -0.10493487 0.011911201
-0.02424258 -0.096194111 0.012240213
-0.022427425 -0.096874744 0.01159349
0.0017530173 -0.072408006 0.012913782
-0.1109367 -0.064716339 0.011703302
0.00042939186 -0.058135096 0.01304491
-0.10588387 -0.050524566 0.012266843
0.00040522218 -0.05112977 0.013486145
-0.11202976 -0.044250209 0.012201474
-0.1080036 -0.044211525 0.012165377
-0.10693702 -0.044245675 0.012214522
-0.11243467 -0.037873596 0.012215156
-0.10090028 -0.037979476 0.012355682
-0.10463294 -0.037269372 0.012982245
-0.11150026 -0.031684376 0.012515235
-0.10282325 -0.031636342 0.012538955
-0.097681805 -0.031759262 0.012659524
-0.10186765 -0.025551904 0.013082614
-0.095690548 -0.025567252 0.013107259
-0.094651043 -0.025565282 0.013141436
-0.091781169 -0.025490062 0.013080502
-0.088519678 -0.025582494 0.013183649
-0.0010801256 -0.0204427 0.013955954
-0.15671501 -0.0033170744 0.012815353
-0.13723886 -0.0033785712 0.012997178
-0.14257716 0.0019836992 0.013436654
-0.13463387 0.0019731491 0.013483178
-0.12880133 0.0019628741 0.013544977
-0.12418371 0.0018827971 0.013635553
-0.082150452 0.0017370414 0.014011777
-0.07505095 0.0016948469 0.014116811
-0.053663403 0.0016110805 0.014316117
-0.05258213 0.0016139378 0.014326978
-0.046017721 0.0015339646 0.014438556
-0.04285349 0.0015565015 0.014427561
-0.033009902 0.0014287926 0.014601195
-0.023264363 0.0014145331 0.014700893
-0.020791382 0.0014042233 0.014708582
-0.016496599 0.0014140571 0.014736809
-0.0081893206 0.0013337515 0.014840299
-0.0034672469 0.0013622497 0.014841468
0.0013298094 -0.14372891 0.011783663
0.0022637248 -0.11322009 0.012880804
0.0040236115 -0.11320717 0.012892125
-0.026704162 -0.10353167 0.013163809
-0.024983168 -0.095487826 0.012862045
0.0018522441 -0.087603331 0.01306362
0.00091767311 -0.07961569 0.013172926
0.0027432591 -0.079651654 0.0132243
0.00030642748 -0.071754359 0.013591027
-0.11212586 -0.063374169 0.013044684
0.00096555054 -0.063954592 0.014270026
-0.10813627 -0.056964394 0.012610519
-0.11166781 -0.056343786 0.013284917
-0.11068857 -0.056290973 0.013256616
-0.11176549 -0.049867406 0.012918197
-0.11068514 -0.049931355 0.01300066
-0.10949741 -0.049964316 0.013005953
-0.10673213 -0.049891718 0.012991503
-0.10451531 -0.049939841 0.013042659
-0.11290145 -0.043594271 0.012894635
-0.11033634 -0.042980917 0.013649105
-0.10959083 -0.043529082 0.01285312
-0.10824464 -0.042913817 0.013577462
-0.10554161 -0.043632157 0.012953542
-0.10444885 -0.043652393 0.012974493
-0.10346778 -0.043600824 0.01294623
-0.10205389 -0.042927235 0.013630376
-0.00042068958 -0.044093635 0.014031732
-0.10675037 -0.037314039 0.013038046
-0.11654986 -0.036627568 0.013636164
-0.11368512 -0.036679756 0.013690246
-0.10938734 -0.036728144 0.013769235
-0.10826685 -0.036731392 0.013781022
-0.10713546 -0.036738452 0.013802444
-0.10327414 -0.036715731 0.013799204
-0.1020882 -0.036747567 0.013804753
-0.10104918 -0.036745176 0.01383914
0.0005287528 -0.037177991 0.014847061
-0.10585874 -0.031096894 0.013326173
-0.10509203 -0.031120982 0.013354111
-0.10148998 -0.031043397 0.013286923
-0.095301852 -0.031055298 0.013339299
-0.00092834234 -0.031608108 0.014420418
-0.10010698 -0.030487476 0.014093709
-0.11320467 -0.024829173 0.013649723
-0.097687587 -0.024878772 0.013779948
-0.096609846 -0.024941379 0.01386017
-0.090439931 -0.024948839 0.013901311
-0.15799901 -0.0027177969 0.0135609
-0.15396072 -0.002690977 0.013559654
-0.15154378 -0.002797374 0.013699344
-0.14641523 -0.0028055757 0.013714554
-0.14099494 -0.0028308171 0.013780918
-0.12075692 -0.0029167074 0.013991544
-0.11092339 -0.0029808835 0.014098884
-0.076705821 -0.0031288404 0.014433892
-0.029296428 -0.003334658 0.014916317
-0.1421704 -0.0022445417 0.014542342
-0.12636107 -0.0023443378 0.01472313
-0.11656556 -0.002382742 0.014814472
-0.072442427 -0.0025806378 0.015269941
-0.039908707 -0.0027488903 0.015616322
-0.030876666 -0.0027952907 0.015711818
-0.015316918 -0.0028774804 0.015892928
-0.15129767 0.0026401638 0.014062728
-0.1225085 0.0025109581 0.014380541
-0.093522392 0.0022885506 0.0147555
-0.04690057 0.0020479709 0.015260056
-0.017987788 0.0019285363 0.015551726
-0.013617873 0.0019194966 0.015586881
-0.0089957267 0.0018809005 0.015635014
-0.0061053485 0.0018684663 0.015699413
0.0033019632 -0.13177344 0.013156911
0.0025627613 -0.13103984 0.013730983
0.0022769421 -0.12208711 0.013123906
0.0040155798 -0.12209667 0.013158834
-0.022740945 -0.10282785 0.013824711
0.002171576 -0.10296265 0.014090251
-0.019713774 -0.094078258 0.014143236
0.0023657382 -0.094213441 0.014394714
-0.11078796 -0.062729537 0.013762132
-0.10817094 -0.055650968 0.013978745
0.00027763844 -0.056201071 0.015143801
-0.11194704 -0.042361718 0.014367846
-0.10684592 -0.042337406 0.014361811
-0.10579126 -0.036042958 0.014468533
-0.099764645 -0.036113206 0.014560104
-0.002060771 -0.036599688 0.015593458
-0.10380629 -0.029901281 0.014842976
-0.097634919 -0.029924575 0.014893907
-0.096577995 -0.029927395 0.01489382
-0.09366972 -0.029895686 0.01489455
-0.098876439 -0.023694996 0.015312068
-0.092847615 -0.023766788 0.015403028
-0.0014392883 -0.0077920817 0.016496386
-0.156416 -0.0016595786 0.015210609
-0.14339766 -0.0016683855 0.015300604
-0.13260897 -0.0017599384 0.015455293
-0.10970121 -0.0021720815 0.015323968
-0.097821847 -0.0019156457 0.015808225
-0.094981074 -0.001968072 0.015864424
-0.09168569 -0.0019573218 0.015887583
-0.087343425 -0.0019954955 0.015957765
-0.070406333 -0.0020485946 0.016106976
-0.068951741 -0.0020643186 0.016115382
-0.067858517 -0.0020805041 0.016127853
-0.066816971 -0.0020835192 0.016156239
-0.062786445 -0.0020772859 0.016171994
-0.060985535 -0.0020915524 0.016191319
-0.053799719 -0.0021177439 0.016268987
-0.052643135 -0.0021674251 0.016313151
-0.044001311 -0.0021804671 0.016368508
-0.038581774 -0.0021842306 0.016416129
-0.036432087 -0.0022542616 0.016516404
-0.028091833 -0.00225962 0.016540699
-0.023761526 -0.0022966473 0.016603898
-0.021203235 -0.002314467 0.016639825
-0.0095755011 -0.0029423744 0.015986916
-0.1191465 -0.0017757204 0.015548482
-0.092792124 -0.0018977071 0.015846655
-0.034733355 0.0025861729 0.01614668
-0.011657625 0.0024403897 0.016430363
-0.0098213553 0.0024413159 0.016427686
0.0019333661 -0.12063995 0.014297146
-0.030630812 -0.11055425 0.014627371
-0.022672519 -0.1109535 0.014416082
-0.02531971 -0.11022274 0.015004301
0.0025412589 -0.11035672 0.015298346
-0.02823624 -0.10212219 0.014412988
-0.027116492 -0.10213555 0.014428908
-0.023478776 -0.10211439 0.014426277
-0.021311134 -0.10215264 0.01448009
-0.021434188 -0.093418024 0.014782312
-0.083156303 -0.084424138 0.014734345
0.001462236 -0.084861502 0.015631221
0.0019307584 -0.069744572 0.015618325
-0.00028516352 -0.069077142 0.016270056
0.00055354834 -0.062639445 0.015656499
-0.11293226 -0.055031363 0.014671263
-0.1089572 -0.054950111 0.014615468
-0.11153386 -0.054383464 0.015376294
-0.11156139 -0.04793714 0.015036638
-0.10757736 -0.048047502 0.01517577
-0.10440016 -0.047971066 0.015120091
-0.11024249 -0.041102584 0.015811943
-0.10545537 -0.041753564 0.015132946
-0.10407113 -0.041126162 0.015862469
-0.10039294 -0.041724756 0.015139661
-0.00026620924 -0.041578233 0.016905392
-0.10447089 -0.035402309 0.015172737
-0.10116003 -0.035505533 0.015284873
-0.099084184 -0.035475403 0.015277638
-0.098107837 -0.034808893 0.015974542
0.00024916232 -0.035356734 0.017089332
-0.10276756 -0.029290333 0.01559886
-0.10138912 -0.029211236 0.015519647
-0.11371815 -0.0285854 0.016181063
-0.095012121 -0.02864641 0.016351882
-0.0014522374 -0.023607714 0.017134508
-0.0011382401 -0.018074038 0.016999366
-0.001730144 -0.012638949 0.017085992
-0.00051958859 -0.0072280476 0.017297734
-0.14972237 -0.0011580929 0.016093088
-0.14209041 -0.0011200377 0.016122926
-0.13125697 -0.0012011229 0.01625067
-0.12942353 -0.0012091701 0.016282076
-0.12765679 -0.0012586773 0.016323803
-0.12331922 -0.0012425995 0.016356528
-0.12189651 -0.0012831439 0.016375937
-0.11641903 -0.0012710497 0.016399704
-0.11534581 -0.0013081359 0.016445782
-0.10807079 -0.0013393518 0.016528646
-0.10369942 -0.0013449101 0.016532462
-0.090391368 -0.0014439749 0.016717145
-0.089372046 -0.0014397581 0.016728038
-0.083130829 -0.0014578034 0.016773639
-0.082026444 -0.0014697816 0.016789241
-0.076369084 -0.0014754036 0.016845655
-0.061846524 -0.0015533329 0.017004557
-0.046978131 -0.001590847 0.017128477
-0.045909733 -0.001586793 0.017110189
-0.041587472 -0.0016527975 0.017233398
-0.033293039 -0.0016845929 0.017283104
0.002252683 -0.12959555 0.014895796
0.0033137351 -0.11919597 0.01549269
-0.032851353 -0.10947932 0.015538806
-0.031764165 -0.10948513 0.015554304
-0.028199703 -0.1094617 0.015544748
-0.023508534 -0.10951496 0.015620022
-0.023931831 -0.10068732 0.015641859
0.0024158359 -0.10012276 0.016561192
0.0014401674 -0.07555189 0.017127372
0.0022073388 -0.076229952 0.016475186
-0.11166073 -0.060686249 0.015733931
0.00010585785 -0.054281458 0.017268468
-0.0010366291 -0.047920104 0.017007954
0.0008546859 -0.047938924 0.017035382
0.0018527955 -0.047297273 0.017751003
-0.10781194 -0.040390667 0.016463591
-0.10170844 -0.040431172 0.016549375
-0.10056774 -0.040425234 0.016536605
-0.11113344 -0.034148894 0.016614774
-0.096752517 -0.03420138 0.01672638
-0.10978541 -0.028648416 0.016235918
-0.10282973 -0.028706854 0.016363163
-0.00069628656 -0.028540969 0.018114636
-0.088343084 -0.022586228 0.016966617
-0.0027269572 -0.017492665 0.01776569
-0.00046053529 -0.011482652 0.018631421
-0.0027529299 -0.0066632517 0.018065672
-0.15236345 -0.00052858976 0.016820129
-0.15090653 -0.00059725781 0.016877938
-0.14837638 -0.00051907502 0.016829912
-0.14690879 -0.00055288023 0.016878197
-0.13929857 -0.0006336972 0.016988495
-0.13789092 -0.00063266675 0.016991712
-0.13535494 -0.00064021442 0.017014703
-0.12782261 -0.00067357707 0.017100368
-0.12037136 -0.00075201102 0.017213911
-0.11764141 -0.00066982349 0.017164843
-0.11404292 -0.00077459437 0.017271949
-0.11294648 -0.00073063595 0.017241372
-0.11039624 -0.00078285567 0.01731053
-0.10567094 -0.00074954517 0.017316451
-0.10246061 -0.0007937256 0.017347373
-0.096618541 -0.0008099929 0.017414123
-0.087990195 -0.00091259158 0.017560275
-0.079016671 -0.00084322988 0.017546723
-0.073915586 -0.00094501907 0.017671118
-0.06337145 -0.00097031868 0.017769642
-0.058678627 -0.0010228946 0.017834933
-0.057632133 -0.0010455742 0.017866097
-0.056523249 -0.001066739 0.017887577
-0.051075831 -0.0010838564 0.017946605
-0.031330064 -0.0011381261 0.018107763
-0.029442653 -0.0011423825 0.018128769
-0.021851271 -0.0012012019 0.018227272
0.0027796626 -0.13854635 0.015732916
0.0017393678 -0.13780212 0.016274169
0.0035942495 -0.12812571 0.016059702
0.0018422455 -0.11847135 0.016093148
0.0029108524 -0.11774775 0.016676828
-0.022408366 -0.10880774 0.016234102
-0.020583242 -0.10880197 0.016240038
0.0013809502 -0.10892757 0.016508045
0.0010121018 -0.099421605 0.017155478
-0.022664666 -0.091310985 0.016677046
0.0011201054 -0.067744359 0.017627215
-0.11534368 -0.066435255 0.016994491
-0.00024054945 -0.034126539 0.018541357
-0.10491478 -0.027485302 0.017820735
-0.091941677 -0.027489493 0.017913455
-0.00017848611 -0.022431022 0.018667238
-0.0016944408 -0.021817233 0.019386975
-0.0014788806 -0.01632786 0.019310027
-0.15354595 4.420428e-05 0.017580284
-0.14448896 -7.6948316e-05 0.017748471
-0.12321378 -0.000131437 0.0179349
-0.12176716 -0.00018597223 0.017976159
-0.11627761 -0.00017660463 0.018006353
-0.11155843 -0.00017955163 0.018049888
-0.10804812 -0.00023453811 0.018131524
-0.085905261 -0.0002936229 0.018314473
-0.084858842 -0.00027284614 0.018284546
-0.074751563 -0.00039669772 0.01846025
-0.070755363 -0.00039563258 0.018484076
-0.066494972 -0.00042530138 0.018558158
-0.064184785 -0.00045459351 0.018572763
-0.06062673 -0.00044561393 0.018601261
-0.049831033 -0.0005383332 0.01874928
-0.047948912 -0.00054736267 0.018782308
-0.039317697 -0.00055522594 0.01881971
-0.03494069 -0.00062632369 0.01891838
-0.033863813 -0.00059486181 0.018889409
-0.028471068 -0.00059040287 0.018926175
-0.0267241 -0.0006116344 0.018957611
-0.024043515 -0.00066827337 0.019022077
-0.0031178296 -0.0007238324 0.019206187
-0.14029247 0.00045557547 0.018588746
-0.13340795 0.00043883864 0.018649764
-0.12444461 0.00046698548 0.018676637
-0.1150059 0.00036057571 0.018831057
-0.10334431 0.00030486108 0.018939331
-0.071609952 0.0001650427 0.019285589
-0.06724827 0.0001204724 0.019333022
-0.0058902055 -0.00012937962 0.019939788
0.0035587549 -0.13633308 0.017425688
0.0025756955 -0.12593217 0.017774079
0.0036635697 -0.12593782 0.017787555
0.0027860403 -0.10748301 0.017720172
-0.02502872 -0.098611362 0.01753854
0.0020296127 -0.098710716 0.01778933
0.0011079311 -0.089334793 0.018830426
0.0016804636 -0.082095563 0.018200213
-0.0001090318 -0.066406131 0.018960306
0.0010356307 -0.059318319 0.019047059
-6.4119697e-05 -0.0523283 0.019349875
0.0017176867 -0.052317705 0.01934409
0.00061716139 -0.046013542 0.019151645
-0.00098016858 -0.045337602 0.019816516
-0.00022500753 -0.039054371 0.0197838
-0.0017954707 -0.033512667 0.019273985
-0.10813063 -0.032392837 0.018893441
-0.00077614188 -0.032900818 0.020021761
-0.091258019 -0.026883075 0.01865373
-0.0019378811 -0.027324611 0.019595688
-0.13721929 -0.004315299 0.019008672
-0.12740782 0.00096372899 0.019509031
-0.10416687 0.00085547054 0.019748658
-0.072442286 0.0006896226 0.020083567
-0.068101749 0.00068229029 0.020122444
-0.018595248 0.00042197364 0.020669505
-0.016800478 0.00046661648 0.020624535
-0.0095798522 0.00035580515 0.020767076
-0.0085090697 0.00035731221 0.020788325
-0.0038091838 0.00037410134 0.020794198
0.0017951429 -0.13558699 0.017962692
0.0017372221 -0.13484551 0.018525815
0.0017095357 -0.10606503 0.018920217
0.0012605935 -0.096595109 0.019635711
0.0022096932 -0.088636808 0.019464308
0.00044156611 -0.080679409 0.019464616
0.0030121803 -0.080734782 0.019520689
0.0016044527 -0.072832599 0.019754326
0.00093498826 -0.065740399 0.019645294
0.00051259995 -0.057985973 0.020392379
0.0012277216 -0.051036932 0.020762593
-0.093831502 -0.031805076 0.019756377
-0.023367032 -0.032118589 0.020465029
-0.00066438317 -0.026109723 0.02108608
-0.1491024 -0.0030789354 0.020411843
-0.14782885 -0.0037222868 0.019697903
-0.14528699 -0.0037037095 0.019695118
-0.13448396 -0.0037718755 0.019817371
-0.13155092 -0.0037402122 0.019822164
-0.10654912 -0.0038977703 0.020105343
-0.10457153 -0.0033438778 0.020907005
-0.10355747 -0.0033303523 0.020927044
-0.10239806 -0.0033573222 0.020963976
-0.1008932 -0.0038544307 0.020102708
-0.099538647 -0.0033515124 0.020976178
-0.096600667 -0.0034114895 0.02102074
-0.095529914 -0.0034078509 0.0210291
-0.082899489 -0.0034698779 0.021176897
-0.081885919 -0.0034600289 0.021162994
-0.079962209 -0.0039558252 0.020330999
-0.067364842 -0.0035208883 0.021312229
-0.061526939 -0.0035445404 0.021362741
-0.055423483 -0.0035669529 0.021429118
-0.0035653561 -0.0044029085 0.021210669
-0.14890763 0.0015945734 0.02010685
-0.14702347 0.0016776602 0.020041898
-0.091715902 0.0013903233 0.020656722
-0.086267978 0.0012778747 0.020785172
-0.044034794 0.0011614719 0.021128863
-0.040738434 0.0010941888 0.021237962
-0.039666653 0.0010840839 0.021235049
-0.031425342 0.0010511896 0.021313367
-0.012188196 0.00094819139 0.02152787
-0.0064968765 0.0009419868 0.021584446
0.0014734268 -0.12370476 0.019457411
0.0018630326 -0.11413857 0.019659335
0.0013394356 -0.10463059 0.020120366
0.0023694932 -0.095893472 0.020261023
-0.082464047 -0.087507643 0.019160261
0.0018782169 -0.079322964 0.020775534
-0.013179362 -0.071440674 0.020953562
-0.001428619 -0.044031922 0.021194637
0.00039747357 -0.044088066 0.021265425
-0.00052751601 -0.037171651 0.021956019
-0.0020943135 -0.031636428 0.021444486
-0.027143151 -0.030920085 0.021938028
-0.021976903 -0.03091576 0.021958545
-0.089758687 -0.025078407 0.020908892
-0.089352407 -0.025085242 0.020918829
-0.084025487 -0.019646065 0.020790489
-0.0019633025 -0.020018725 0.021637952
-0.15368891 0.0021606863 0.020854207
-0.105868 0.0019672911 0.021322772
-0.10552603 0.0019834489 0.021317763
-0.051349774 0.0016925895 0.021916801
-0.042724997 0.0016683496 0.021981763
-0.022477463 0.0015411191 0.022225246
-0.01990439 0.0015338976 0.022248311
-0.010215834 0.0014969083 0.022336112
-0.14106052 0.0021946833 0.020928601
-0.083007239 0.0024563987 0.022309903
0.0031950474 -0.11268764 0.020855399
0.00042538345 -0.094474226 0.021508537
0.00062532723 -0.086544573 0.021346353
0.0013487488 -0.086536489 0.02135005
0.0011042058 -0.078610584 0.02139407
-0.0014019459 -0.070805527 0.021719374
0.00037671626 -0.063058704 0.022334544
0.00010250509 -0.056674618 0.02175018
-0.00072200596 -0.030432485 0.022950649
-0.082430243 -0.018429691 0.022310898
-0.02898562 -0.018710088 0.022893967
-0.028196797 -0.018676151 0.022844339
-0.046495497 -0.013195727 0.022671128
-0.0008059144 -0.0080628209 0.023322424
-0.13806048 -0.0020501059 0.022142727
-0.12764132 -0.0021412007 0.02229022
-0.10729191 -0.0021743581 0.022459084
-0.078465149 -0.0023274394 0.022760367
-0.063975796 -0.0023955505 0.022912791
-0.057101399 -0.0024398065 0.022982741
-0.047302425 -0.0024595403 0.023059247
-0.031820759 -0.0025687844 0.023262445
-0.10821306 0.0024921556 0.022138406
-0.089055397 0.0024111387 0.022315929
-0.037007496 0.0022050475 0.022826996
-0.034869522 0.0021658023 0.022896912
-0.032029569 0.002162558 0.022891698
-0.030249 0.0021504767 0.022917729
-0.026622102 0.0021424014 0.022952499
-0.023991942 0.0020999252 0.023027413
-0.021551058 0.0020922157 0.023030952
-0.019010365 0.0020875658 0.0230502
-0.010997504 0.0020581679 0.023124835
-0.0042568892 0.0020548732 0.023169275
-0.11921661 0.003097041 0.022805624
-0.083845936 0.0030241646 0.023099447
-0.063245907 0.0028545801 0.023382744
0.0024507046 -0.13113925 0.021347459
0.0025677681 -0.12078071 0.021772906
0.0017999858 -0.1119695 0.021435063
0.001275599 -0.10245833 0.021912582
0.0014649481 -0.093766682 0.022127559
0.0026298612 -0.093065523 0.022742074
5.4985285e-06 -0.070124395 0.022385452
-0.001340434 -0.041469719 0.024032515
-0.09719719 -0.035458103 0.022390174
-0.00097067654 -0.035954621 0.023435511
-0.087784857 -0.023269864 0.023166671
-0.087447561 -0.023269314 0.023181858
0.0011288077 -0.023701999 0.024091549
-0.039260566 -0.017449334 0.024275193
-0.0023063272 -0.018212285 0.023906667
-0.00044174492 -0.018241614 0.023932692
-0.0010081381 -0.012817894 0.023918152
-2.8416514e-05 -0.012235763 0.024692103
-0.0030484349 -0.0074833017 0.024073087
0.00020951033 -0.0075030522 0.024117688
-0.13927251 -0.0015008778 0.022931788
-0.092596747 -0.0017031094 0.023414943
-0.055785254 -0.0018490907 0.023770425
-0.04381004 -0.0019600694 0.023930857
-0.016057521 -0.0020979529 0.024247214
-0.0036860257 -0.0021365588 0.024347669
-0.1114002 0.0036307329 0.023673002
-0.040159091 0.0032788792 0.024445925
-0.02788429 0.003250848 0.02453283
-0.022853598 0.0031858212 0.024649628
-0.017769188 0.0031667468 0.024677854
0.00090649724 -0.10102221 0.023105357
0.0013672113 -0.075863458 0.023976227
0.001389578 -0.068767428 0.02371094
0.00027583539 -0.06103763 0.024340456
0.00094605982 -0.054037008 0.024497211
0.0019979924 -0.05403538 0.024512641
-8.8185072e-05 -0.047779135 0.024220614
-0.00037537515 -0.023097033 0.024850726
-0.079489939 -0.016661275 0.024615765
-0.035724148 -0.016889486 0.025087517
-0.033207119 -0.016916225 0.025120558
-0.0018213391 -0.0063413284 0.02564423
-0.15601502 -0.00089420757 0.023587229
-0.1336025 -0.00098180119 0.023786407
-0.11152483 -0.0010783913 0.024021637
-0.090255484 -0.0012139787 0.024270797
-0.089142829 -0.0012129582 0.024282362
-0.084150016 -0.0011986537 0.024302728
-0.064531356 -0.0013020185 0.024507983
-0.052205086 -0.0013877496 0.024671461
-0.026977956 -0.0014769461 0.024907995
-0.00093467534 -0.0016056725 0.025180794
-0.15179473 -0.0003386258 0.024387924
-0.14091185 -0.00039725614 0.024511775
-0.14027566 -0.00037600409 0.024513209
-0.13482496 -0.00041049777 0.024572007
-0.13193351 -0.00043087793 0.024603762
-0.1305308 -0.00035388311 0.024564372
-0.11857428 -0.00040443192 0.024670145
-0.1011582 -0.0008143828 0.024495494
-0.097588904 -0.00054669962 0.024937462
-0.096478365 -0.00059334026 0.024980376
-0.082726665 -0.00066647195 0.025100416
-0.079948545 -0.00060098688 0.02508666
-0.058521003 -0.00076877308 0.025362866
-0.050946996 -0.00082387187 0.025458166
-0.049856648 -0.00083962671 0.025481822
-0.047655776 -0.00078317738 0.025447519
-0.037935033 -0.00081834197 0.025543775
-0.019196108 -0.00095415814 0.025783433
-0.01736173 -0.00092370174 0.025757957
-0.0090424716 -0.001031904 0.025908535
-0.026965916 0.0038039652 0.025341216
-0.0085877776 0.0036682519 0.025565827
0.0021056235 -0.1090696 0.02379512
-0.06667605 -0.10002124 0.023031099
0.00074739754 -0.091652684 0.023984734
0.001938343 -0.083058767 0.024516229
0.0011960417 -0.046481963 0.025625203
-0.085925192 -0.021464102 0.025427829
-0.0019384921 -0.022465296 0.025567133
-0.045571297 -0.016245078 0.025750134
-0.034690619 -0.016312296 0.025880886
-0.073649712 -0.010741109 0.025460405
-0.12413323 -0.0051932074 0.025137421
-0.077545978 -0.0053837723 0.025616746
-0.15305255 0.00030661572 0.025106568
-0.149042 0.00028460234 0.025146196
-0.14799921 0.00030780912 0.025149263
-0.14579612 0.00021458574 0.025231374
-0.14393103 0.00020233166 0.025251742
-0.1428598 0.00027374356 0.025196845
-0.13600244 0.00017194386 0.025313426
-0.13353157 0.00015684403 0.025359247
-0.12874649 0.0001394196 0.025406705
-0.1147103 5.9207901e-05 0.025580985
-0.092269853 2.0416919e-06 0.025772829
-0.091219522 -2.4440698e-05 0.025787264
-0.090477973 -7.1311602e-05 0.025828347
-0.089458473 -6.7170127e-05 0.02583926
-0.086865522 -5.595095e-05 0.025860529
-0.0810178 -0.00011931942 0.025921648
-0.078571416 -2.9954477e-05 0.025865888
-0.066310868 -0.00015856698 0.02606464
-0.059346929 -0.00018500414 0.026129229
-0.052494675 -0.00024566456 0.026226183
-0.051397607 -0.00026040932 0.026255876
-0.050387546 -0.00026423839 0.026256735
-0.037322015 -0.00027689611 0.026348647
-0.033379018 -0.00031252875 0.026394375
-0.018167853 -0.00035761291 0.026526377
-0.014603168 -0.00041620288 0.026624721
-0.0040585101 -0.00044166768 0.026698815
0.0032482296 -0.12672226 0.024746655
0.0013996959 -0.11711974 0.024679206
0.00061579049 -0.10834895 0.024379775
0.0031755567 -0.10835145 0.024395417
-0.0030875206 -0.098165654 0.025519708
-0.011363804 -0.074443795 0.025142841
-0.00065143406 -0.073775925 0.025884563
0.00090804696 -0.074483916 0.025257088
0.00196971 -0.07380271 0.025912495
0.0013024956 -0.066740602 0.025692793
-0.00011946261 -0.059691641 0.025658794
-0.0010324568 -0.052078843 0.026570842
0.00085303187 -0.052088231 0.026573557
-0.016734287 -0.038862918 0.026729388
-0.0054728985 -0.039581571 0.026160797
-0.0012237132 -0.038909234 0.026860498
-0.008075133 -0.026642222 0.027238142
-0.00019668043 -0.026687119 0.027311957
-0.083074383 -0.020850932 0.026179994
-0.031731054 -0.021134572 0.026761757
-0.0064109862 -0.021218663 0.026991373
-0.081866123 -0.01546513 0.026104623
-0.075758435 -0.0154926 0.026178692
-0.052926347 -0.015597854 0.026394084
-0.046023235 -0.015621536 0.026461966
-0.037730485 -0.015660448 0.026546203
-0.037056804 -0.015673652 0.026563825
-0.002389133 -0.015236439 0.027685815
-0.10426096 -0.0093663298 0.02664135
-0.081511602 -0.0095222061 0.026909856
-0.080357701 -0.0095302984 0.026925668
-0.069375202 -0.010145229 0.026267907
-0.068063378 -0.0095691402 0.027044049
-0.062268004 -0.0096574845 0.027156698
-0.054687828 -0.009689888 0.027233593
-0.017038181 -0.010442467 0.026839029
-0.074441969 -0.0047929222 0.026386553
-0.071190335 -0.0048335353 0.026456948
-0.062045887 -0.0048806914 0.026545232
-0.059612095 -0.0043688542 0.027396614
-0.0039072931 -0.005175537 0.027178194
-0.15261835 -0.0039022029 0.026405931
-0.15114614 -0.0038199567 0.026335897
-0.15009493 -0.0038361915 0.02635731
-0.14500795 -0.0038512866 0.026424864
-0.14353296 -0.0039428575 0.026491266
-0.14206889 -0.0039337566 0.026494714
-0.11928371 -0.0040262202 0.026710337
-0.11348836 -0.0040794257 0.026801387
-0.11105444 -0.0040827962 0.026835877
-0.10556392 -0.0041010305 0.026852468
-0.10270762 -0.0040879785 0.026872829
-0.09431722 -0.0041432227 0.026986187
-0.091106318 -0.0042137392 0.027062252
-0.086113349 -0.0041995547 0.027082425
-0.034431413 -0.0044443677 0.027612766
-0.022420347 -0.0045275805 0.027769104
-0.012400851 -0.004587491 0.027879767
-0.15420607 0.00085369637 0.025894286
-0.15309939 0.00088864885 0.02586842
-0.14519881 0.00076949003 0.026028307
-0.14136538 0.00077222649 0.026057705
-0.14013381 0.00075065764 0.026089128
-0.13468973 0.00072704483 0.026141504
-0.1306929 0.00073600491 0.026162246
-0.1303556 0.00075167941 0.026146371
-0.12699722 0.00066326268 0.026238335
-0.12573351 0.00068751071 0.026229417
-0.12389632 0.00073289953 0.026207436
-0.12246162 0.00065021287 0.026267521
-0.12139199 0.00064451236 0.026304316
-0.11700409 0.00067659037 0.026286634
-0.11593939 0.00064891949 0.026320957
-0.11482152 0.00061811408 0.02634754
-0.1137645 0.00062214769 0.026354048
-0.11006262 0.00060054834 0.026407165
-0.10538198 0.00062644662 0.026409876
-0.1014456 0.00058542087 0.026478468
-0.10037699 0.00058611989 0.026480984
-0.099273041 0.0006190748 0.026440255
-0.093444906 0.00054448907 0.026547633
-0.092401333 0.00058457541 0.026551262
-0.087718241 0.0004819312 0.026653223
-0.08591418 0.00056223362 0.026594754
-0.084849373 0.00054676807 0.026595855
-0.083742455 0.00049983145 0.026652772
-0.082643859 0.00045834505 0.026698854
-0.081547305 0.00045893766 0.026705166
-0.079786003 0.00048821478 0.02668508
-0.078666918 0.00053844129 0.026646994
-0.075438224 0.00044593145 0.026751976
-0.071499467 0.00046317693 0.026762189
-0.069612607 0.00041394896 0.026813209
-0.065326557 0.00040934078 0.026848456
-0.063086092 0.00041329028 0.026867129
-0.060593992 0.00039084582 0.026895905
-0.059506431 0.00039203319 0.026908107
-0.05191423 0.00031690684 0.027020553
-0.047909498 0.00030736474 0.027055835
-0.04474555 0.00032914296 0.027044866
-0.041087523 0.00028792227 0.027115377
-0.0378398 0.00030587974 0.027112454
-0.030966848 0.00023404614 0.027221082
-0.029521331 0.00024143379 0.027229521
-0.027406022 0.00022681418 0.027250912
-0.025156409 0.00018842623 0.027318394
-0.018388212 0.00018750114 0.027353868
-0.016158909 0.00017177535 0.02737226
-0.009708792 9.6084492e-05 0.027474007
-0.0082229972 0.00010515255 0.027504981
-0.0067667216 0.00015905948 0.027429407
-0.00034411252 -0.12594724 0.02523296
0.0025726706 -0.1259855 0.025299594
0.00070510805 -0.12520985 0.02582174
0.0018274486 -0.12523431 0.025850657
0.0028685331 -0.11565429 0.02582173
0.0020501912 -0.10690057 0.025575371
0.00032906234 -0.088822693 0.026452769
0.0015278608 -0.080953412 0.026388314
-0.0047000945 -0.080195218 0.026933983
0.0011545122 -0.073112667 0.026553167
0.00040049851 -0.072408952 0.027179496
-0.0024222732 -0.058349483 0.026980538
-0.0097184479 -0.057605859 0.0275326
1.5825033e-05 -0.045182854 0.02700714
-0.0055917054 -0.044465933 0.027615998
-0.0001976341 -0.038274501 0.027580056
-0.0115567 -0.032093823 0.027617991
-0.010524958 -0.032096237 0.02763379
-0.0029838085 -0.032157507 0.027715907
-0.0052530617 -0.026052965 0.028009111
-0.0042077899 -0.026058724 0.028027544
-0.0843293 -0.020233618 0.026931582
-0.032285482 -0.01990566 0.028232472
-0.028955117 -0.020486211 0.027464768
-0.026423767 -0.020528907 0.027544457
-0.0082537532 -0.014646469 0.028401796
-0.039021149 -0.014478737 0.02805887
-0.15566427 -0.0086068166 0.026928261
-0.13114172 -0.0087035811 0.027167087
-0.084074967 -0.0088532921 0.02758394
-0.082987994 -0.0089046471 0.027642852
-0.073968701 -0.0089736814 0.02775747
-0.056562513 -0.0090912674 0.027985426
-0.037472114 -0.0091515109 0.028144132
-0.035657331 -0.0091554429 0.028155778
-0.033844039 -0.0091451369 0.02816214
-0.026219755 -0.0092235785 0.028282015
-0.015491202 -0.0092825005 0.028395882
-0.0077656507 -0.009295851 0.028457453
-0.0056149513 -0.009314145 0.028492529
-0.15453017 -0.0032770687 0.02712203
-0.15306151 -0.0033258256 0.027170908
-0.15200642 -0.0033358946 0.027181949
-0.14909284 -0.0032965362 0.0271801
-0.14690918 -0.0033542132 0.027240351
-0.14140117 -0.0033910864 0.027287012
-0.13896705 -0.0033651153 0.027286593
-0.1374763 -0.0033776637 0.027317744
-0.13605636 -0.0033946352 0.027334457
-0.12418182 -0.0034610883 0.027464926
-0.12016297 -0.0033977239 0.027451484
-0.11763044 -0.0034864265 0.027534634
-0.11656323 -0.0035015473 0.02755885
-0.11546785 -0.0034576729 0.027528036
-0.1042989 -0.0035150137 0.027653331
-0.10313968 -0.0035417443 0.027690174
-0.10139274 -0.003478911 0.027620476
-0.10028064 -0.0035361862 0.027702354
-0.088661142 -0.0035707585 0.027799135
-0.086483367 -0.0036024163 0.027815189
-0.083641835 -0.0036542369 0.027903045
-0.082628079 -0.0036444035 0.027889125
-0.081535712 -0.0035717536 0.027833527
-0.077507004 -0.0036732545 0.027945263
-0.074600436 -0.0036609839 0.027968716
-0.072456017 -0.0036777128 0.027997656
-0.066940099 -0.0037315681 0.028057754
-0.063382223 -0.0037223343 0.028086251
-0.061198637 -0.0037507131 0.028121827
-0.057255358 -0.0037167696 0.028122365
-0.056165442 -0.0037514926 0.028155355
-0.053918004 -0.0038161122 0.028232109
-0.050704911 -0.0038231267 0.028267287
-0.049611747 -0.0037727437 0.028216394
-0.047496751 -0.0037632645 0.028207842
-0.045695409 -0.0038187078 0.028267371
-0.044199467 -0.0038303437 0.02831736
-0.043128431 -0.0038401319 0.028314145
-0.042073458 -0.003832079 0.028304599
-0.037697077 -0.0039021603 0.028403459
-0.033048064 -0.0038753778 0.028405821
-0.03055276 -0.0038806263 0.02842821
-0.026173502 -0.0039325557 0.02850258
-0.025483727 -0.0039299084 0.028506435
-0.02327013 -0.0039380174 0.028525976
-0.01716505 -0.0039657429 0.028600741
-0.008188799 -0.0039677313 0.028644696
-0.0051565915 -0.0040041166 0.028699502
-0.0040655434 -0.0040263422 0.028728271
-0.0029864758 -0.0040315953 0.028737145
-0.0019062161 -0.0040382557 0.028749608
-0.10622981 0.0011858969 0.027211431
-0.10401727 0.0011568414 0.027229657
-0.10303516 0.0011452951 0.027236201
-0.080240384 0.001013085 0.027497314
-0.076285094 0.0010287592 0.027519267
-0.073409036 0.00099435635 0.027568283
-0.070179194 0.00099651457 0.027591046
-0.068005696 0.00098384637 0.027623683
-0.066928267 0.00096363953 0.0276396
-0.059909806 0.00093550654 0.027701898
-0.056027591 0.00089391042 0.027760733
-0.054942876 0.00094563066 0.027719744
-0.053902611 0.0009409826 0.027746852
-0.050575197 0.00085638242 0.027839223
-0.049526587 0.0008509648 0.027844088
-0.048457935 0.00085665466 0.027865278
-0.046238005 0.00091338507 0.027805284
-0.045207486 0.00091748819 0.02780956
-0.044133097 0.00087373587 0.027848465
-0.042260408 0.00084353145 0.027899571
-0.039804399 0.0008363587 0.027913453
-0.03398931 0.00080418884 0.027977293
-0.032578677 0.00081360893 0.027987028
-0.030006975 0.00079721463 0.028009711
-0.028191656 0.00080678094 0.028016217
-0.023127764 0.000746765 0.028099896
-0.022043422 0.00074232003 0.028120775
-0.02134873 0.00073455647 0.028135842
-0.01876983 0.00072057091 0.028160919
-0.016258433 0.00074509386 0.028143372
-0.015169531 0.00070824375 0.028200993
-0.014447734 0.00071526604 0.028190799
-0.013001442 0.00070727099 0.028208289
-0.011568576 0.00069470797 0.028209738
-0.0098373741 0.00066836702 0.028249295
-0.0087053478 0.000651157 0.028284471
-0.0075944513 0.00067482196 0.028288241
-0.0058251917 0.00071060337 0.028241972
-0.0046799481 0.00067765295 0.028270299
-0.00259839 0.0012358072 0.029081136
-0.0011025965 -0.1149305 0.026403721
8.2850456e-06 -0.11493672 0.026416846
0.0021411926 -0.11492847 0.026424224
-0.0043862164 -0.10469323 0.027255023
0.00099699199 -0.10545781 0.02674064
0.0020563155 -0.10473637 0.027349487
-0.0041754246 -0.096728832 0.026717624
-0.0013528019 -0.096736126 0.026744496
-0.00023509562 -0.096738532 0.026734365
0.0019687414 -0.096747003 0.026748497
-0.00046747923 -0.087413855 0.027680308
0.0017553866 -0.087430686 0.027714612
-0.00035217404 -0.071730286 0.027835298
0.0010958612 -0.071719527 0.027833369
-0.0039882362 -0.063971311 0.028254801
-2.1860003e-05 -0.064016208 0.028320219
-0.0043136328 -0.057687085 0.027660409
-0.0083702058 -0.056965329 0.028252533
-0.0028853118 -0.057028275 0.028348954
-0.00037436187 -0.056996658 0.028324792
-0.013821483 -0.050656691 0.027747676
0.00032897294 -0.050763406 0.02795154
-0.0014681816 -0.050100259 0.028615842
-0.0012595057 -0.043839753 0.028353985
-0.00052236021 -0.043859359 0.028374357
-0.0023134202 -0.043167721 0.029009042
-0.010775879 -0.037618738 0.028221814
-0.0085932761 -0.037630379 0.028229048
-0.0072468817 -0.036996264 0.028947821
-0.0061918497 -0.036991831 0.028953658
-0.0050376952 -0.03703608 0.029006522
-0.0028767884 -0.037029117 0.029011069
-0.0018288791 -0.037024654 0.029030059
-0.012751147 -0.030851077 0.029064868
-0.006328553 -0.030884849 0.029144403
-0.0054914653 -0.031530458 0.028433314
-0.00085736811 -0.030925298 0.02919936
-0.012291223 -0.025410697 0.028682057
-0.0014443547 -0.025450986 0.028772589
-0.082687087 -0.019007768 0.028400628
-0.034231544 -0.019288778 0.028959529
-0.033473864 -0.019289697 0.028968809
-0.03020151 -0.019311007 0.029008497
-0.02876994 -0.019270333 0.028957637
-0.011391833 -0.019395173 0.029194428
-0.010289639 -0.019409792 0.02921092
-0.0073767155 -0.019428162 0.029253595
-0.0052383989 -0.019395566 0.029239047
-0.0041632354 -0.019401724 0.029249705
-0.0030490309 -0.01939697 0.029248547
-0.0019600838 -0.019429632 0.02928438
-0.077760987 -0.013706259 0.028410653
-0.069840014 -0.013738698 0.028505135
-0.044193298 -0.013888624 0.028819069
-0.042326003 -0.013880352 0.028786182
-0.041286185 -0.013870928 0.028783754
-0.039559439 -0.013872302 0.028806496
-0.0059017092 -0.014051973 0.0291804
-0.0047622323 -0.014062945 0.029199028
-0.0036837459 -0.014058838 0.029208468
-0.15394947 -0.0079622166 0.027644528
-0.1409103 -0.0080746943 0.027811982
-0.13948962 -0.0080960225 0.0278624
-0.13365422 -0.0081073539 0.027905392
-0.13196295 -0.0081507266 0.027947409
-0.13050142 -0.0080681164 0.027899558
-0.10843033 -0.0082220165 0.028151879
-0.095063023 -0.0083354525 0.028348729
-0.093993492 -0.0083320914 0.028362926
-0.092868365 -0.0083257062 0.028360847
-0.088893816 -0.0083075464 0.028359968
-0.087794058 -0.0083492324 0.028406218
