# .PCD v0.7 - Point Cloud Data file format
VERSION 0.7
FIELDS x y z
SIZE 4 4 4
TYPE F F F
COUNT 1 1 1
WIDTH 1341
HEIGHT 1
VIEWPOINT 0 0 0 1 0 0 0
POINTS 1341
DATA ascii
-0.2738761 -0.68624705 0.017615722
-0.2907742 -0.67815495 0.017007196
-0.29290262 -0.67743731 0.017604699
-0.27888349 -0.67746484 0.017637119
-0.28264457 -0.66937321 0.017251717
-0.26947269 -0.66938543 0.017241513
-0.27300331 -0.66870183 0.01791985
-0.28147265 -0.66143376 0.017195802
-0.27024782 -0.6614759 0.017214889
-0.28361669 -0.66073257 0.017820731
-0.27810657 -0.65353298 0.017372722
-0.26985922 -0.65347975 0.017341115
-0.27081466 -0.64630187 0.017067313
-0.27305445 -0.64567697 0.017790096
-0.27297726 -0.63918746 0.017047748
-0.27048954 -0.63921094 0.017096331
-0.27591398 -0.6385501 0.017770905
-0.27141088 -0.63853669 0.017740875
-0.27069169 -0.63855088 0.017765243
-0.27414274 -0.63208884 0.017242206
-0.2708759 -0.6321497 0.017272316
-0.27645463 -0.63148713 0.017977124
-0.27092266 -0.63149327 0.017976679
-0.37256998 -0.62515628 0.017676974
-0.37036061 -0.62507814 0.017619623
-0.27471238 -0.62511867 0.017668914
-0.37080345 -0.61882168 0.017569976
-0.27947822 -0.61880141 0.017569851
-0.27406856 -0.61879915 0.017540921
-0.27883613 -0.61252695 0.017616492
-0.27704737 -0.61257541 0.017670004
-0.27206358 -0.61256397 0.017684165
-0.37184459 -0.60636395 0.017948071
-0.28983152 -0.60636336 0.017947188
-0.28837362 -0.60630882 0.017888431
-0.28575796 -0.60696083 0.017189292
-0.28299052 -0.60627604 0.017866189
-0.28185123 -0.60692096 0.017149741
-0.28076246 -0.60692817 0.017155495
-0.27904463 -0.60629207 0.017885843
-0.27784196 -0.60691756 0.017149355
-0.2761372 -0.60629565 0.017872952
-0.27496603 -0.60696083 0.017170712
-0.27291834 -0.60633004 0.017926019
-0.27112451 -0.60625887 0.0178505
-0.24404168 -0.58976233 0.017460395
-0.38520563 -0.5843392 0.017624877
-0.34618092 -0.58434194 0.017640414
-0.27578884 -0.58428603 0.01759658
-0.38213471 -0.57949579 0.017150816
-0.37854362 -0.57948625 0.017135557
-0.3535617 -0.57950151 0.01716115
-0.35112074 -0.57954735 0.017192701
-0.33909893 -0.57949191 0.017134639
-0.32357863 -0.57953727 0.017180504
-0.32181442 -0.57951444 0.01718358
-0.28382334 -0.57949555 0.0171516
-0.28272936 -0.57944167 0.017097507
-0.25677904 -0.57942981 0.017082145
-0.25325653 -0.57950884 0.017164174
-0.24924101 -0.57949114 0.017147306
-0.24624354 -0.57947701 0.017118279
-0.24331047 -0.5795089 0.01716909
-0.35879678 -0.5789628 0.017979536
-0.35588908 -0.5789507 0.017968995
-0.29623097 -0.5789144 0.017931897
-0.30002201 -0.6854943 0.018195856
-0.29640472 -0.68552142 0.01823345
-0.28523439 -0.68551695 0.01820202
-0.2805101 -0.68545747 0.018140325
-0.27835551 -0.68549418 0.01818007
-0.27136347 -0.68554872 0.018233648
-0.26958731 -0.68552071 0.018209413
-0.28743333 -0.68476117 0.018793529
-0.28205776 -0.68479347 0.018828258
-0.27987328 -0.68472052 0.018738905
-0.29256311 -0.67600787 0.018822152
-0.29007256 -0.67602962 0.018859293
-0.28785229 -0.67600369 0.018820968
-0.2853626 -0.67601734 0.018844156
-0.28360233 -0.67604393 0.018866155
-0.28143433 -0.67666078 0.018179573
-0.27893427 -0.67602271 0.01884353
-0.272753 -0.67672414 0.018215505
-0.2695933 -0.67668259 0.018192217
-0.27316007 -0.66802597 0.018560965
-0.28019467 -0.66799867 0.018528104
-0.27804595 -0.6679647 0.018512478
-0.27519476 -0.66799623 0.018524012
-0.27048397 -0.66792476 0.018459752
-0.27642751 -0.66004467 0.018474199
-0.27040619 -0.66004848 0.018473377
-0.27252322 -0.65996492 0.018383065
-0.28074858 -0.65211636 0.018643428
-0.2756916 -0.6521433 0.018668411
-0.273507 -0.65208232 0.018615814
-0.27136883 -0.6521405 0.018663069
-0.26992851 -0.65282822 0.018021256
-0.27307773 -0.64498758 0.018445076
-0.27052528 -0.64497209 0.018419769
-0.27277538 -0.63785106 0.01841389
-0.27688205 -0.63085604 0.018686477
-0.27391946 -0.63075578 0.018603602
-0.27119052 -0.63083392 0.018661227
-0.27826059 -0.624488 0.01839387
-0.27656567 -0.62441105 0.018317593
-0.2718263 -0.624466 0.018371366
-0.28133091 -0.61819029 0.018275904
-0.28095502 -0.61818057 0.018295459
-0.27955443 -0.61817497 0.018291352
-0.27776077 -0.61810392 0.018215002
-0.27411851 -0.61818534 0.018277084
-0.27239394 -0.6180985 0.018227875
-0.27242157 -0.61746341 0.018928058
-0.37174416 -0.61192286 0.018393207
-0.28795165 -0.6119343 0.018389663
-0.2864728 -0.61187303 0.01834134
-0.2828784 -0.61190444 0.018358169
-0.28040513 -0.61187994 0.01835027
-0.27535459 -0.61187202 0.018324185
-0.27361447 -0.61187953 0.018350851
-0.29825011 -0.60565764 0.018607773
-0.24344204 -0.58919072 0.018247806
-0.37964332 -0.58376861 0.01842468
-0.37779281 -0.58372653 0.018393593
-0.36835957 -0.58376294 0.018426808
-0.35248598 -0.58374953 0.018416343
-0.3477543 -0.58371043 0.018386906
-0.33042684 -0.58377045 0.018434498
-0.32647535 -0.58379769 0.018449035
-0.3066003 -0.58374405 0.018395174
-0.29754716 -0.58372623 0.018382234
-0.27118912 -0.58373314 0.018391108
-0.38346258 -0.578385 0.018729664
-0.34408587 -0.57835305 0.018719507
-0.3068127 -0.57833713 0.018684618
-0.29778621 -0.57831705 0.018668914
-0.29018357 -0.57835519 0.018724969
-0.2693035 -0.57839417 0.018749686
-0.25057498 -0.57830727 0.01867133
-0.29991731 -0.69365722 0.019084945
-0.30205712 -0.69290441 0.019631814
-0.29602602 -0.68408585 0.019426648
-0.29356235 -0.6840741 0.019413829
-0.28924018 -0.68407124 0.019408148
-0.2889359 -0.68406999 0.019419365
-0.2820484 -0.68409145 0.019434497
-0.27616784 -0.68411499 0.019444661
-0.27101496 -0.6840862 0.019428831
-0.29786456 -0.68332702 0.019978235
-0.28533694 -0.67529649 0.019442772
-0.28112069 -0.67522311 0.019364716
-0.27055743 -0.67530739 0.019460728
-0.28418568 -0.66729605 0.019160114
-0.28199908 -0.66723633 0.019106546
-0.27536917 -0.66728061 0.019144995
-0.27061194 -0.66723561 0.019090004
-0.27556944 -0.66655087 0.019750604
-0.28081131 -0.65936142 0.019128593
-0.27859265 -0.65933472 0.019091243
-0.27641487 -0.65934169 0.019100249
-0.27434069 -0.65937591 0.019135106
-0.27042732 -0.65934175 0.019105989
-0.26967189 -0.6593551 0.019113453
-0.27225089 -0.65858328 0.019687485
-0.27784282 -0.65146458 0.019333679
-0.2754786 -0.65075773 0.019986672
-0.27326229 -0.65072155 0.019934781
-0.27126735 -0.65076327 0.019978445
-0.27753228 -0.6442948 0.019101784
-0.27533937 -0.64428478 0.019071147
-0.27065 -0.64429498 0.019094419
-0.27565676 -0.63722074 0.019139446
-0.27286756 -0.63716704 0.019102205
-0.27572286 -0.63655168 0.019796573
-0.27693883 -0.63019902 0.019366292
-0.27398595 -0.63009769 0.019290946
-0.27888364 -0.62943119 0.019977489
-0.27945518 -0.62318063 0.019781264
-0.27820009 -0.62320101 0.019815506
-0.27637085 -0.62315786 0.019743653
-0.27446762 -0.62380993 0.019061171
-0.27201015 -0.62318778 0.01979918
-0.27193683 -0.62383592 0.019079082
-0.37327346 -0.61692941 0.019749802
-0.28404552 -0.61688942 0.019717777
-0.28363854 -0.61687243 0.019686701
-0.28255662 -0.61685377 0.019671397
-0.27575549 -0.61689949 0.019722173
-0.28659347 -0.61126417 0.019078201
-0.28515822 -0.61126602 0.019081255
-0.28414217 -0.61125726 0.019075735
-0.28301024 -0.61128706 0.019086724
-0.28152668 -0.61126733 0.019085048
-0.27866843 -0.61127627 0.019079696
-0.27684185 -0.61131144 0.019126507
-0.37262562 -0.61073756 0.019899482
-0.29210985 -0.61068428 0.019856468
-0.28775012 -0.61067069 0.019839348
-0.27337903 -0.61061203 0.01979506
-0.29687747 -0.60506427 0.019357149
-0.2943444 -0.60515034 0.019428322
-0.29399052 -0.60512179 0.019412572
-0.2425503 -0.58802933 0.019806415
-0.37379599 -0.58312559 0.019159097
-0.37204045 -0.58319879 0.019207038
-0.36552492 -0.58317673 0.019192867
-0.36158451 -0.58322257 0.01923232
-0.34901243 -0.583215 0.019214142
-0.34351915 -0.583175 0.019186638
-0.33196604 -0.58320451 0.019212829
-0.31324878 -0.58319223 0.019211318
-0.30816931 -0.58317852 0.019186335
-0.27377477 -0.58320862 0.019205431
-0.26695397 -0.58317566 0.019184016
-0.26263034 -0.58317363 0.019171562
-0.25183538 -0.58317071 0.019187642
-0.38632768 -0.58260524 0.019981341
-0.37697184 -0.5825941 0.019968154
-0.34690547 -0.58257216 0.019941274
-0.34469023 -0.58263475 0.019998802
-0.3429139 -0.58257818 0.019945808
-0.33929616 -0.58260119 0.019989327
-0.33541813 -0.58261788 0.019989295
-0.32775828 -0.58260512 0.019986015
-0.29484242 -0.58257955 0.019920906
-0.28689587 -0.58261818 0.019990329
-0.2761431 -0.58261985 0.019983519
-0.27464527 -0.58256346 0.019936075
-0.26927111 -0.5825929 0.019963596
-0.26530027 -0.58260226 0.019976934
-0.24866483 -0.58260757 0.019987088
-0.2995517 -0.69218296 0.02024387
-0.29699543 -0.69216895 0.020215789
-0.30177423 -0.69142598 0.020784914
-0.29708415 -0.69143605 0.020809731
-0.27210239 -0.69140363 0.020791719
-0.29793066 -0.68260109 0.020585606
-0.29572871 -0.68263692 0.020612527
-0.2906858 -0.68256962 0.020557454
-0.28678906 -0.6826272 0.020618813
-0.28425401 -0.68260223 0.020594878
-0.27070978 -0.68265498 0.020637963
-0.28973186 -0.67458946 0.020073822
-0.28333405 -0.6746096 0.020093722
-0.28116089 -0.67451936 0.020002419
-0.27534685 -0.67452878 0.020008596
-0.29196703 -0.6738497 0.020644099
-0.28727719 -0.67385978 0.020668328
-0.27320126 -0.6738404 0.020655863
-0.27030677 -0.6738894 0.020711901
-0.28394753 -0.66587293 0.020425148
-0.28172791 -0.6658386 0.020372331
-0.27959305 -0.66587299 0.020421887
-0.28049627 -0.65795708 0.020397222
-0.27837992 -0.65794188 0.020379696
-0.27409697 -0.65797836 0.020416984
-0.27759784 -0.65008742 0.020628162
-0.27757362 -0.64296502 0.020454081
-0.27506384 -0.64293259 0.020412661
-0.27252379 -0.64296812 0.02045233
-0.27575114 -0.6358915 0.02048176
-0.27257282 -0.63584989 0.020456724
-0.2785452 -0.62878811 0.020665843
-0.27668902 -0.62887508 0.020749345
-0.27408943 -0.62883133 0.020692265
-0.27377975 -0.62880266 0.020681685
-0.2797389 -0.62249494 0.020456884
-0.27828428 -0.62254405 0.020503001
-0.28445712 -0.61623645 0.020409517
-0.28267506 -0.6162138 0.020381704
-0.29324213 -0.61007547 0.020590007
-0.29147509 -0.61003953 0.020559184
-0.2888678 -0.61005682 0.020565188
-0.27488548 -0.61002809 0.020566644
-0.29435545 -0.60997343 0.0205223
-0.29039827 -0.60999209 0.020524565
-0.28498855 -0.60999286 0.020534202
-0.35931972 -0.58205831 0.020785512
-0.35051468 -0.58262473 0.02000743
-0.33693278 -0.58201814 0.020762742
-0.32162428 -0.58269608 0.020049524
-0.31913915 -0.58268362 0.020066319
-0.31627733 -0.58211666 0.020825434
-0.29648528 -0.5820179 0.020755706
-0.28925002 -0.58201575 0.020734608
-0.26060593 -0.58264792 0.020006798
-0.25682357 -0.58204734 0.020765707
-0.25467899 -0.58205968 0.020793935
-0.25061849 -0.58207136 0.020794239
-0.2447352 -0.58205158 0.020783314
-0.26364675 -0.58199883 0.020725217
-0.29028001 -0.69064993 0.021341022
-0.28779104 -0.69071913 0.021408383
-0.28480682 -0.68997812 0.02199086
-0.2926119 -0.68116903 0.021822266
-0.29038897 -0.68113661 0.021768512
-0.28859898 -0.68189359 0.02121998
-0.28424317 -0.68186677 0.021174723
-0.27700597 -0.68187994 0.021166217
-0.27218729 -0.68187678 0.021201406
-0.28473878 -0.67313981 0.021268984
-0.28084904 -0.67308754 0.021229008
-0.27143949 -0.67312783 0.021255095
-0.29164085 -0.6724233 0.0218792
-0.28909904 -0.6724593 0.02192099
-0.28695887 -0.67245674 0.021916782
-0.28791642 -0.66444743 0.021640526
-0.28136793 -0.66443777 0.021621266
-0.27709883 -0.66450936 0.021698013
-0.27494386 -0.66440654 0.02161351
-0.28524283 -0.65726858 0.02104087
-0.27808592 -0.65657532 0.021681825
-0.27591705 -0.65652114 0.021646583
-0.27382159 -0.65655828 0.021680228
-0.27516434 -0.64939368 0.021281138
-0.27765268 -0.6487003 0.02191161
-0.27798766 -0.64228165 0.021118516
-0.27807766 -0.63519472 0.021152603
-0.27580231 -0.63519961 0.021151647
-0.27817428 -0.63454467 0.021835489
-0.27967384 -0.6281808 0.021390751
-0.37472928 -0.62191629 0.021230096
-0.28262943 -0.62158871 0.021560799
-0.28118503 -0.62184113 0.021133363
-0.27976736 -0.62183303 0.021148337
-0.27800885 -0.62125641 0.021899663
-0.27435917 -0.62183702 0.021143029
-0.37228295 -0.61566889 0.021169405
-0.29143491 -0.61500686 0.021866238
-0.28959936 -0.61500651 0.021863483
-0.28599086 -0.61560822 0.021125324
-0.28491405 -0.61560154 0.021143021
-0.27729949 -0.61555862 0.021077368
-0.2882039 -0.6149354 0.021812232
-0.2870869 -0.61497885 0.021848997
-0.28603861 -0.61497843 0.021847619
-0.28899026 -0.60940897 0.021296611
-0.29518485 -0.60873967 0.021976329
-0.28908247 -0.60873926 0.02199599
-0.37193909 -0.60324574 0.021620156
-0.38333359 -0.58148402 0.02156258
-0.38149253 -0.58146435 0.021543842
-0.37829375 -0.58150572 0.021594673
-0.37097725 -0.58150578 0.021583632
-0.36700305 -0.58149195 0.021567583
-0.36444896 -0.58147061 0.021554364
-0.36230156 -0.58148932 0.021545961
-0.35617715 -0.58150101 0.021570485
-0.35371587 -0.5815081 0.021589227
-0.35111743 -0.58144253 0.021525748
-0.34970415 -0.58149296 0.021568136
-0.34385189 -0.58147973 0.02154514
-0.33265704 -0.58144164 0.021537758
-0.33085313 -0.5815028 0.021589195
-0.32911244 -0.58145612 0.021534599
-0.32694164 -0.58148813 0.021573745
-0.32078165 -0.58155721 0.0216201
-0.31824067 -0.58154255 0.021620445
-0.31571788 -0.58153653 0.021613333
-0.31391761 -0.58149195 0.021571949
-0.30706239 -0.58145028 0.021545198
-0.3052969 -0.58143443 0.021520926
-0.30345669 -0.58142722 0.021520786
-0.30165756 -0.58147383 0.021552254
-0.29402384 -0.58144557 0.021510862
-0.29043251 -0.58146322 0.021542346
-0.28750595 -0.58146507 0.021557499
-0.28176686 -0.58150893 0.0215724
-0.28035751 -0.58143669 0.021517012
-0.27922925 -0.58141524 0.021503787
-0.26982653 -0.58143067 0.021521917
-0.26733279 -0.58146936 0.021542782
-0.26159075 -0.5814693 0.021544421
-0.25619873 -0.58147722 0.021562597
-0.24746804 -0.58142924 0.021516969
-0.24416143 -0.58148032 0.021566685
-0.301074 -0.68923354 0.0225497
-0.28053397 -0.68922436 0.022538288
-0.27863955 -0.68926001 0.022583319
-0.26675147 -0.68924606 0.022576889
-0.29730129 -0.68041319 0.022392675
-0.29034808 -0.68042392 0.022363491
-0.28063765 -0.68049288 0.022444759
-0.28505564 -0.66307002 0.02291948
-0.28466448 -0.66307294 0.022931438
-0.28172374 -0.65550202 0.022604018
-0.2802836 -0.65586394 0.022331692
-0.27857393 -0.63388574 0.022540674
-0.28122991 -0.6275444 0.022126846
-0.2797097 -0.62754649 0.02210255
-0.37370595 -0.62690222 0.022813175
-0.28123915 -0.62689435 0.022806954
-0.37192604 -0.62059939 0.022619519
-0.28565326 -0.62055361 0.022568185
-0.28437078 -0.62056696 0.022560162
-0.28380805 -0.62057364 0.022562506
-0.29258022 -0.6142959 0.022526503
-0.37294436 -0.60817951 0.022763602
-0.371434 -0.60881031 0.022033945
-0.29752588 -0.60815477 0.022748487
-0.3744188 -0.58093339 0.022354992
-0.3664245 -0.58091897 0.02235017
-0.35846961 -0.58092117 0.022342343
-0.35706455 -0.5809437 0.022381127
-0.34003234 -0.58090711 0.022330994
-0.33821508 -0.58091325 0.022353066
-0.32850853 -0.58086473 0.022299411
-0.31767213 -0.58097458 0.022420436
-0.29565296 -0.58087683 0.0223234
-0.28264818 -0.58089495 0.022336723
-0.26568756 -0.58088189 0.022338375
-0.25558177 -0.58092147 0.022346528
-0.2537564 -0.58091521 0.022335684
-0.29140487 -0.68854433 0.023189234
-0.28632963 -0.68852907 0.023164213
-0.28376776 -0.68848079 0.023131598
-0.28202972 -0.68847209 0.023126306
-0.27683541 -0.68846953 0.02312059
-0.28135091 -0.64733988 0.023252249
-0.27891746 -0.64729077 0.023225037
-0.27880102 -0.64023632 0.023104051
-0.27929613 -0.63949704 0.023725608
-0.27975664 -0.63319689 0.02319172
-0.28013721 -0.63249546 0.023844607
-0.27979046 -0.63251543 0.023854628
-0.37301686 -0.62624019 0.023509491
-0.37347668 -0.61996442 0.023318369
-0.28795257 -0.61929226 0.02398451
-0.2867606 -0.61992043 0.023278814
-0.28471723 -0.61924821 0.023954907
-0.37290007 -0.6137194 0.023316933
-0.29428342 -0.6074723 0.023422422
-0.29289097 -0.60751164 0.023463247
-0.29145795 -0.60755861 0.023506636
-0.29737666 -0.6014235 0.02384595
-0.24398905 -0.5904991 0.023583774
-0.38459808 -0.58032316 0.023117388
-0.37745714 -0.58037138 0.023164542
-0.37561589 -0.58030903 0.023102704
-0.36362043 -0.58033192 0.023124021
-0.35969594 -0.58032161 0.023128688
-0.34160933 -0.58027965 0.02310662
-0.31991327 -0.58038807 0.023175152
-0.31710106 -0.58039659 0.023193002
-0.29318881 -0.58031267 0.023101369
-0.29136482 -0.58030659 0.023103885
-0.27477351 -0.58033055 0.023128839
-0.26790377 -0.58032477 0.023112956
-0.24954815 -0.58036673 0.023148159
-0.2429353 -0.58034545 0.023142999
-0.38042274 -0.5797407 0.023883523
-0.36560524 -0.5797841 0.023941759
-0.34499663 -0.57979167 0.02392718
-0.31934258 -0.57981294 0.023967545
-0.31464452 -0.57982641 0.023963979
-0.3077932 -0.57973146 0.023878483
-0.29873779 -0.5797047 0.023855327
-0.28930905 -0.5797314 0.02389507
-0.27816734 -0.57970566 0.023858726
-0.27017823 -0.5797798 0.023910441
-0.26627871 -0.57974797 0.023891073
-0.26377061 -0.57975227 0.023914654
-0.24895547 -0.57979375 0.023943173
-0.28813004 -0.66958463 0.024378646
-0.28114337 -0.65306002 0.024844788
-0.27859545 -0.64593542 0.024527956
-0.27934885 -0.63881934 0.02438743
-0.28129122 -0.63180178 0.024493573
-0.2846292 -0.62559175 0.02421643
-0.28313413 -0.62549561 0.024111515
-0.28277811 -0.62550205 0.024108542
-0.37101492 -0.61931443 0.024018303
-0.28911576 -0.61862457 0.024680471
-0.29026845 -0.61308187 0.024028301
-0.2913852 -0.61239392 0.024705384
-0.37433165 -0.60626346 0.024935087
-0.29513001 -0.60690874 0.024200384
-0.28532672 -0.60692281 0.024203597
-0.37076786 -0.5844965 0.024416059
-0.31415251 -0.58454192 0.024449976
-0.25994188 -0.58446747 0.024368512
-0.34980521 -0.57916868 0.024675062
-0.34840357 -0.57921952 0.024708042
-0.33892792 -0.57917607 0.02468018
-0.30901706 -0.57914823 0.024658281
-0.29990616 -0.57919353 0.02470386
-0.29052469 -0.57918441 0.024691567
-0.25846589 -0.57919353 0.024704942
-0.28370219 -0.65239871 0.025527013
-0.2807487 -0.64528465 0.025222279
-0.28113478 -0.64460415 0.025859447
-0.28080136 -0.64459652 0.025853433
-0.2795808 -0.63817728 0.025066571
-0.2813735 -0.63117594 0.025190735
-0.37180072 -0.62424141 0.025573745
-0.28365517 -0.62424666 0.025574751
-0.37225008 -0.6179896 0.025411908
-0.2899031 -0.6179564 0.025383724
-0.28696069 -0.61798811 0.025392517
-0.29512796 -0.61180282 0.025444891
-0.29746717 -0.6056459 0.02563403
-0.29599094 -0.60566992 0.025676625
-0.2427143 -0.58931535 0.025094882
-0.38150156 -0.58394194 0.025218096
-0.37020659 -0.58391064 0.025193874
-0.36344883 -0.58338302 0.025984859
-0.35724816 -0.58335829 0.025965428
-0.34963012 -0.58396745 0.025229001
-0.33958888 -0.58337772 0.025988979
-0.33802319 -0.58393866 0.025217485
-0.33744982 -0.58334166 0.025976388
-0.33628565 -0.58394778 0.025204927
-0.32465616 -0.5839861 0.02526395
-0.31206182 -0.58392841 0.025191547
-0.3064495 -0.58331048 0.025942469
-0.30459371 -0.58333153 0.025950193
-0.27848896 -0.58397174 0.025241692
-0.27446648 -0.58396506 0.025215315
-0.26269576 -0.58337826 0.02598053
-0.26154596 -0.58397472 0.025245076
-0.25355625 -0.58330357 0.025938721
-0.24855831 -0.58329779 0.025939893
-0.2455468 -0.58395773 0.025223488
-0.24455833 -0.58337265 0.025991356
-0.35859603 -0.57861805 0.025482902
-0.30693266 -0.57859194 0.025457155
-0.30516964 -0.57862788 0.025481479
-0.2960653 -0.57861233 0.025457902
-0.24550025 -0.57855713 0.025438296
-0.28298771 -0.65169907 0.026173253
-0.28082296 -0.65166223 0.026121395
-0.28136137 -0.63688546 0.026466453
-0.28062323 -0.6368705 0.026466209
-0.28404114 -0.62986159 0.026580269
-0.28259286 -0.62988299 0.026621476
-0.37001362 -0.6235646 0.026238395
-0.36963966 -0.62361902 0.02627578
-0.28522104 -0.6229223 0.026934875
-0.28821138 -0.61731929 0.026085673
-0.37312931 -0.6167556 0.026857844
-0.29408994 -0.6111868 0.02617188
-0.29196268 -0.61052459 0.026880026
-0.2982634 -0.6049639 0.026329102
-0.37213978 -0.59956175 0.026069392
-0.30236053 -0.59952694 0.026033722
-0.29911518 -0.59952539 0.026021397
-0.29991469 -0.59889829 0.02676036
-0.37212455 -0.58337796 0.026000861
-0.35625711 -0.58336723 0.026005032
-0.35373709 -0.5833919 0.026024083
-0.33563796 -0.5833897 0.026020626
-0.33197957 -0.58339882 0.026011497
-0.32627431 -0.58338696 0.026014691
-0.38416037 -0.58280474 0.026784424
-0.37373009 -0.5827359 0.026715729
-0.3693333 -0.58275712 0.0267647
-0.34880915 -0.58277923 0.026767939
-0.33356312 -0.58275503 0.026750175
-0.33143109 -0.58280063 0.026791925
-0.32956836 -0.58273393 0.026704609
-0.32784006 -0.58278668 0.026777582
-0.31307098 -0.58277941 0.026768053
-0.30792931 -0.58277118 0.02674149
-0.30248463 -0.58275807 0.026748173
-0.29884338 -0.58277786 0.026738411
-0.28983772 -0.58275229 0.026726127
-0.28729096 -0.58280087 0.026769171
-0.28627017 -0.58272547 0.026712636
-0.28516725 -0.5827477 0.026721323
-0.28263685 -0.58283204 0.026789883
-0.27908447 -0.58278263 0.026760193
-0.27506202 -0.58273333 0.026737384
-0.2707409 -0.58272749 0.026711121
-0.26423943 -0.58273476 0.02671924
-0.25887382 -0.58271104 0.026695676
-0.2440027 -0.58276927 0.026752835
-0.31573439 -0.5781104 0.026327765
-0.30997887 -0.57806152 0.026273631
-0.28677124 -0.57804412 0.026232289
-0.2448895 -0.57800162 0.026243104
-0.28893209 -0.66598856 0.027392033
-0.38277015 -0.65030003 0.02742287
-0.28307846 -0.6503014 0.027444741
-0.28128758 -0.64316171 0.027134126
-0.28478712 -0.62912714 0.027196527
-0.28413484 -0.62847477 0.02790333
-0.28453603 -0.6222893 0.027634254
-0.29037783 -0.61609101 0.027534312
-0.28864309 -0.61603373 0.027499544
-0.37218529 -0.60988671 0.027572708
-0.37277845 -0.60439473 0.027117014
-0.30021456 -0.60376954 0.027852342
-0.30586764 -0.59829324 0.027517619
-0.30325413 -0.59829104 0.027517466
-0.38036615 -0.58219683 0.027544305
-0.37530899 -0.58224237 0.027576774
-0.36476418 -0.58220595 0.027547508
-0.36261657 -0.58220452 0.027545681
-0.35934788 -0.58223104 0.027563078
-0.35428384 -0.58224195 0.027553862
-0.34274188 -0.58216345 0.027529094
-0.32716981 -0.58222568 0.027546987
-0.32542256 -0.5821957 0.02753913
-0.32359269 -0.58225846 0.027608695
-0.31451079 -0.58220249 0.027547332
-0.30372769 -0.58218688 0.027508015
-0.29645118 -0.58217478 0.027507011
-0.29427031 -0.58216637 0.027515646
-0.28816465 -0.58219492 0.027541241
-0.32210854 -0.57688493 0.027822761
-0.28298402 -0.63474953 0.02836355
-0.28603268 -0.62156981 0.028288553
-0.29127252 -0.61477888 0.028945087
-0.28949523 -0.61473656 0.028904544
-0.37379882 -0.60926527 0.028338309
-0.29536802 -0.6091935 0.028254822
-0.30279493 -0.603113 0.028556269
-0.29849726 -0.6031698 0.028587865
-0.37200484 -0.59771913 0.028266007
-0.34209058 -0.59705549 0.028997259
-0.30703658 -0.59708905 0.028994147
-0.2450633 -0.59231716 0.028144179
-0.38547584 -0.58160305 0.028284268
-0.38329929 -0.58165866 0.028337242
-0.37828341 -0.58161277 0.028315293
-0.36665809 -0.58165729 0.028352773
-0.33453766 -0.58163333 0.028335575
-0.33267385 -0.58162248 0.028321918
-0.30528674 -0.58153933 0.028243864
-0.29980052 -0.58156854 0.028252602
-0.29585212 -0.58158153 0.028256744
-0.28066754 -0.58156919 0.028266167
-0.27562919 -0.58159375 0.028280094
-0.27316061 -0.58162153 0.028323554
-0.26883221 -0.5815925 0.028282322
-0.26629919 -0.58157814 0.028278442
-0.26338878 -0.58158314 0.028266108
-0.25625569 -0.58162379 0.028323337
-0.25440347 -0.5816018 0.028283153
-0.24278532 -0.58157957 0.02829507
-0.28185564 -0.64045274 0.029770056
-0.28320366 -0.62715399 0.029274255
-0.3731412 -0.62648505 0.029950866
-0.37209681 -0.62098593 0.029039385
-0.28754988 -0.62094241 0.029012527
-0.37335789 -0.61411613 0.029651882
-0.36395657 -0.61412561 0.029645005
-0.29532322 -0.61414999 0.02966775
-0.29356343 -0.61407024 0.029598413
-0.29243279 -0.61411363 0.02964256
-0.37287432 -0.60801733 0.029785085
-0.3744466 -0.60253906 0.029300602
-0.30070299 -0.60251254 0.029266974
-0.2993027 -0.60252744 0.029309737
-0.3668215 -0.59648591 0.029783867
-0.32955706 -0.59652716 0.029809343
-0.30318946 -0.59644264 0.029709198
-0.38489833 -0.58102554 0.029065387
-0.37952983 -0.58102417 0.029088944
-0.37624678 -0.58102322 0.029081007
-0.3726072 -0.58100706 0.029039787
-0.34005234 -0.58101374 0.029075695
-0.32273823 -0.5810973 0.029149812
-0.31544748 -0.58108658 0.029147409
-0.31371659 -0.58104438 0.029096324
-0.28303489 -0.58102959 0.029082127
-0.27791831 -0.58107013 0.029108118
-0.38645542 -0.58042943 0.029850312
-0.38049716 -0.58043098 0.029847551
-0.37737566 -0.58043104 0.029830506
-0.37416095 -0.5804553 0.029858464
-0.3701666 -0.58046657 0.029875163
-0.36504731 -0.58043611 0.02984577
-0.36143219 -0.58049905 0.029890575
-0.35715327 -0.58049494 0.029907435
-0.35534319 -0.58045232 0.029868804
-0.34920704 -0.58049226 0.02987597
-0.34769908 -0.58099586 0.029054055
-0.33796579 -0.58046025 0.029835215
-0.32824716 -0.58040357 0.029818915
-0.31996769 -0.58048093 0.029899444
-0.31486949 -0.58050942 0.029916463
-0.30986878 -0.58039212 0.029804979
-0.29135802 -0.5804224 0.029835444
-0.28991517 -0.58041024 0.029820612
-0.28598121 -0.58047378 0.029870195
-0.28491363 -0.58038867 0.029797928
-0.28383639 -0.58044577 0.029830066
-0.28128791 -0.58047366 0.029870052
-0.27224439 -0.58046526 0.029867619
-0.27077165 -0.58047992 0.02986506
-0.26107675 -0.58045524 0.029868182
-0.25931638 -0.58043933 0.029860521
-0.28507257 -0.64679486 0.030600069
-0.2823039 -0.63978279 0.030443823
-0.28193888 -0.63978344 0.030427299
-0.28134608 -0.63274038 0.030388163
-0.37241873 -0.62580562 0.030626146
-0.2846939 -0.62584805 0.030662784
-0.28806379 -0.6196183 0.030402692
-0.37486207 -0.6134935 0.030355789
-0.29728657 -0.61276448 0.030990498
-0.29564178 -0.60730249 0.030417878
-0.30560249 -0.60124254 0.030731633
-0.30369395 -0.6018849 0.030024989
-0.37299466 -0.59585625 0.030494818
-0.30868492 -0.59579664 0.030424111
-0.29065806 -0.59589118 0.030513071
-0.26247269 -0.59048688 0.030383054
-0.26068243 -0.59049785 0.030406179
-0.2432318 -0.59049004 0.030389376
-0.24290681 -0.59048218 0.030401075
-0.37318227 -0.58517587 0.030457078
-0.34642994 -0.58516216 0.030432124
-0.32298848 -0.58520472 0.030492211
-0.31434977 -0.58516699 0.030443298
-0.30929878 -0.58516318 0.03043546
-0.25221416 -0.58516961 0.03046
-0.24528813 -0.58513641 0.030417344
-0.38220674 -0.57988608 0.030640157
-0.38181356 -0.57987666 0.03063805
-0.37867528 -0.57987434 0.030636193
-0.37131429 -0.57987547 0.030633826
-0.36739194 -0.57986838 0.030638175
-0.36521518 -0.5798763 0.030639032
-0.35653314 -0.57993656 0.030690391
-0.35437217 -0.57986718 0.030642504
-0.35169429 -0.57987058 0.030636102
-0.35039693 -0.57987392 0.030631034
-0.34678742 -0.57981652 0.030598497
-0.3431116 -0.57987934 0.030630298
-0.34142041 -0.57984102 0.030629262
-0.33342475 -0.5798552 0.03062815
-0.33124018 -0.57988089 0.030639572
-0.32550764 -0.57990259 0.030660233
-0.3236925 -0.57984966 0.030620178
-0.32113838 -0.57994211 0.030691082
-0.31932366 -0.57989705 0.030676164
-0.31428647 -0.57988644 0.030659955
-0.30780351 -0.57984596 0.03060904
-0.30032784 -0.57982463 0.030592088
-0.29873496 -0.5798288 0.030590463
-0.2928825 -0.57986522 0.030612461
-0.28790429 -0.57984364 0.030607581
-0.28211507 -0.57988459 0.030644463
-0.27853233 -0.57980466 0.030590711
-0.27709103 -0.57988936 0.030639293
-0.27601409 -0.5798856 0.030649848
-0.27458069 -0.57982123 0.030592944
-0.27165455 -0.57987219 0.030633941
-0.26878589 -0.57984143 0.030605864
-0.26012111 -0.57989573 0.030648906
-0.25870606 -0.57982117 0.030579135
-0.2551333 -0.57988584 0.030661136
-0.28405041 -0.65388006 0.031055525
-0.28332728 -0.65316224 0.031670991
-0.37724248 -0.63910711 0.031090768
-0.379145 -0.63835698 0.031681485
-0.28018609 -0.63835573 0.031687267
-0.37605348 -0.63139439 0.031736299
-0.28345519 -0.63144624 0.031788576
-0.37360704 -0.62521517 0.03135249
-0.37260306 -0.61896312 0.031079298
-0.36715972 -0.61899871 0.031112868
-0.28887713 -0.61831677 0.03177432
-0.38080344 -0.61218762 0.031739701
-0.37718698 -0.61218208 0.031763665
-0.37605584 -0.61283296 0.031073902
-0.37352097 -0.61248982 0.031399127
-0.37247866 -0.61282378 0.031063499
-0.29328308 -0.61280131 0.031016186
-0.38092124 -0.606745 0.031221727
-0.37408289 -0.60671324 0.031189116
-0.37339377 -0.60641026 0.031549469
-0.29794982 -0.60604638 0.031882841
-0.29644042 -0.60642868 0.03155721
-0.3071138 -0.60061598 0.031457547
-0.37888062 -0.59526193 0.031260051
-0.37307075 -0.59523648 0.031234352
-0.34926015 -0.59523475 0.031222962
-0.30986819 -0.59522092 0.03122402
-0.30662203 -0.59521908 0.031224437
-0.26874626 -0.59527171 0.031256218
-0.31000876 -0.59462386 0.031971194
-0.37302184 -0.58988422 0.031149941
-0.36806267 -0.58929133 0.031882573
-0.36444309 -0.58928728 0.031905856
-0.36189917 -0.58934754 0.031954262
-0.35215566 -0.58922672 0.031860638
-0.35025236 -0.58988929 0.031148039
-0.34842199 -0.58986789 0.031124642
-0.34455439 -0.58924848 0.031863604
-0.3326399 -0.58926398 0.03189132
-0.31610543 -0.58932203 0.031923309
-0.30919817 -0.58922124 0.031831667
-0.30735391 -0.58928621 0.031887628
-0.30576643 -0.5898248 0.031083653
-0.29613718 -0.58926749 0.031885371
-0.29098642 -0.58987975 0.031143729
-0.28748196 -0.58929551 0.031907715
-0.27841687 -0.58929598 0.031894814
-0.27415285 -0.58925229 0.031868163
-0.26232609 -0.5892415 0.031865731
-0.26050067 -0.58929628 0.031924613
-0.38341734 -0.58452415 0.031158431
-0.38020959 -0.58456022 0.031204415
-0.37516013 -0.58451825 0.031152451
-0.36899701 -0.58458221 0.031228183
-0.35743833 -0.58456659 0.031215787
-0.34651989 -0.5845657 0.031185394
-0.32025138 -0.58462232 0.031264745
-0.31264883 -0.58451855 0.031159516
-0.30391455 -0.58454061 0.031184953
-0.29993778 -0.58455443 0.031174334
-0.28984278 -0.58455986 0.031204209
-0.27875605 -0.58400154 0.031988323
-0.27508751 -0.58456874 0.031212633
-0.26209834 -0.58456349 0.031206204
-0.26030368 -0.58449376 0.031132413
-0.25244209 -0.58400059 0.031982034
-0.24432155 -0.58454037 0.031175371
-0.24358267 -0.58454067 0.031166762
-0.38390529 -0.58395612 0.031946689
-0.36941579 -0.58398312 0.03197065
-0.36259109 -0.58395493 0.031962302
-0.36112326 -0.58398378 0.031960882
-0.3517794 -0.58399552 0.031972554
-0.34813127 -0.58399671 0.031976223
-0.34773636 -0.58398205 0.0319723
-0.34086806 -0.58397603 0.031971496
-0.33870029 -0.58396173 0.031964824
-0.33074272 -0.58392251 0.031904202
-0.32901371 -0.5839749 0.031977307
-0.32719973 -0.58399212 0.031988222
-0.30910334 -0.58395988 0.031941146
-0.30551937 -0.58393788 0.031923678
-0.30220374 -0.58390743 0.031889185
-0.30187333 -0.58391058 0.03190368
-0.30001736 -0.58396655 0.03193799
-0.29830617 -0.58394009 0.031941477
-0.29787362 -0.58394605 0.031932581
-0.29608354 -0.58394682 0.031934712
-0.29425919 -0.58394122 0.031937398
-0.29244438 -0.58393669 0.031943705
-0.27916569 -0.58399469 0.03198909
-0.27586773 -0.58396435 0.031965163
-0.27191517 -0.58391625 0.03191071
-0.26649603 -0.58394176 0.031933416
-0.26541355 -0.58392352 0.031918779
-0.26222318 -0.58399761 0.031992365
-0.26037076 -0.58390886 0.031889841
-0.25823441 -0.58398455 0.031965092
-0.24622399 -0.5839808 0.031970866
-0.35920689 -0.57928169 0.031402804
-0.35771024 -0.57930464 0.031417582
-0.35272738 -0.57933468 0.03143689
-0.32740816 -0.57925677 0.031384021
-0.32123041 -0.57937187 0.031487141
-0.30173898 -0.57929248 0.031399097
-0.28909647 -0.57923293 0.031357132
-0.26751533 -0.57925373 0.0313752
-0.26490593 -0.57925993 0.031383812
-0.25120378 -0.57924747 0.031379662
-0.25086036 -0.57926542 0.031388421
-0.24530193 -0.57929975 0.031410616
-0.2825214 -0.63077033 0.032427471
-0.37909564 -0.62452525 0.032037087
-0.37767136 -0.62456858 0.032067671
-0.37364784 -0.6245535 0.032026544
-0.3762283 -0.62384295 0.032696154
-0.28553957 -0.62386149 0.032709945
-0.37349033 -0.61769718 0.032523412
-0.37867486 -0.61155879 0.032485381
-0.38076496 -0.60544789 0.032639865
-0.37853494 -0.60542822 0.03260586
-0.29869908 -0.60537493 0.032555386
-0.37877026 -0.60001326 0.032223914
-0.37659407 -0.60002029 0.032224227
-0.38065711 -0.59940326 0.032970507
-0.3746742 -0.59938836 0.032945346
-0.30620944 -0.59935176 0.032889459
-0.3039827 -0.59938407 0.032924399
-0.3747161 -0.59433377 0.032366972
-0.33286902 -0.59403396 0.032745808
-0.31081805 -0.59400064 0.032689542
-0.24574593 -0.59402454 0.032727957
-0.35450673 -0.59396422 0.03266966
-0.34689596 -0.59399265 0.032718863
-0.31304485 -0.59395802 0.032671537
-0.31153816 -0.59396225 0.032679483
-0.30432671 -0.59398079 0.032699492
-0.30026844 -0.59398705 0.03270204
-0.26639679 -0.59394425 0.032648768
-0.38223112 -0.58865446 0.032618567
-0.3750222 -0.58868957 0.032663912
-0.37281513 -0.58868462 0.032657061
-0.37068594 -0.58869106 0.032673072
-0.36815038 -0.58867753 0.032650627
-0.36456013 -0.58866954 0.032643497
-0.36306274 -0.58869296 0.032658592
-0.36200845 -0.58871812 0.032696668
-0.3482151 -0.58868527 0.032644812
-0.34652588 -0.58864582 0.032643713
-0.34032902 -0.58868027 0.032633629
-0.33852816 -0.5886609 0.032642443
-0.3327606 -0.5886451 0.032624487
-0.33061093 -0.58870846 0.032675344
-0.31619415 -0.5886997 0.032665771
-0.31116959 -0.5886867 0.032669876
-0.30562493 -0.5886451 0.032623563
-0.29988712 -0.58862787 0.03259648
-0.29445049 -0.58862066 0.032596622
-0.29191899 -0.58868146 0.032651983
-0.28111798 -0.58869123 0.032664459
-0.27286953 -0.58864105 0.032614823
-0.27174148 -0.5886687 0.03262534
-0.26885772 -0.58863527 0.032617055
-0.2638098 -0.58862704 0.032592282
-0.25802147 -0.58860731 0.032591257
-0.24492376 -0.58866388 0.032630458
-0.32280695 -0.58402061 0.03200968
-0.3203254 -0.58403504 0.032039516
-0.31828958 -0.58403087 0.032015145
-0.38565892 -0.58337688 0.032726984
-0.38044968 -0.58340305 0.032760739
-0.37717605 -0.58339149 0.032739982
-0.37681577 -0.58340245 0.03273648
-0.3754288 -0.58332336 0.032687157
-0.37313372 -0.58340299 0.032749504
-0.37094083 -0.58334339 0.032700147
-0.36774153 -0.58339316 0.032751646
-0.36553597 -0.58337265 0.032714222
-0.36272308 -0.58339691 0.032758862
-0.36123559 -0.58338434 0.032735959
-0.35981527 -0.58338577 0.032748751
-0.35481322 -0.58342177 0.032767683
-0.35327452 -0.58334047 0.032691523
-0.35005188 -0.5833962 0.032739103
-0.34858134 -0.58332831 0.032676473
-0.34636459 -0.58339012 0.032733932
-0.34441769 -0.58332729 0.03269219
-0.3391768 -0.58333415 0.032700393
-0.33884805 -0.58334506 0.032713346
-0.33481437 -0.58333957 0.032703497
-0.33300981 -0.58340001 0.032755055
-0.33090651 -0.58333379 0.032680217
-0.32909799 -0.58338553 0.032739706
-0.32763159 -0.58341002 0.032747019
-0.32293719 -0.58345288 0.032786332
-0.32039681 -0.58343798 0.032786887
-0.31607336 -0.58338904 0.032737982
-0.31432495 -0.58338821 0.032733981
-0.31097201 -0.58333421 0.032668494
-0.30921894 -0.58334851 0.032710891
-0.30745444 -0.58333266 0.032686476
-0.30631015 -0.58333218 0.032658122
-0.30561337 -0.58332604 0.032686427
-0.29618147 -0.5833441 0.032676507
-0.29434362 -0.58335102 0.032708634
-0.28857088 -0.5833739 0.032725532
-0.2875165 -0.58337158 0.032725703
-0.28642213 -0.58331949 0.032671962
-0.28538358 -0.58335644 0.03271449
-0.28392267 -0.58340693 0.032738443
-0.28138593 -0.58331412 0.032669436
-0.27488866 -0.58339411 0.032725472
-0.27132985 -0.5833298 0.032695327
-0.26808533 -0.58335096 0.032719214
-0.26697573 -0.58335829 0.032712162
-0.26556218 -0.58332658 0.032675631
-0.25835457 -0.58337516 0.03272853
-0.25473547 -0.58330375 0.032654952
-0.24993697 -0.58335406 0.032692526
-0.24631828 -0.58337814 0.032732476
-0.25281176 -0.57867748 0.032142248
-0.37670544 -0.63703638 0.033046331
-0.37855959 -0.63628894 0.033655941
-0.28403759 -0.63626528 0.033634335
-0.37758076 -0.63010943 0.033114798
-0.37579462 -0.63007504 0.033106506
-0.37392983 -0.63011158 0.033117339
-0.38015491 -0.62943166 0.033807397
-0.37399289 -0.62938005 0.033745941
-0.37738648 -0.62323588 0.033413623
-0.37479761 -0.62319744 0.033379998
-0.37336484 -0.62323034 0.033398982
-0.37824383 -0.61704981 0.033217818
-0.37466061 -0.61703938 0.033208627
-0.37359947 -0.61705691 0.033222843
-0.38294405 -0.61636698 0.033855285
-0.38120994 -0.61637473 0.033904132
-0.38061062 -0.61022919 0.033853278
-0.37841472 -0.61028206 0.03389902
-0.376984 -0.6108743 0.033157751
-0.37413788 -0.61027706 0.033917069
-0.38081896 -0.60480332 0.033333063
-0.37859669 -0.60478705 0.033321552
-0.29950786 -0.60478967 0.033326015
-0.29704121 -0.60478032 0.033318918
-0.29157582 -0.60482925 0.033350378
-0.38254169 -0.59877557 0.033660877
-0.37657294 -0.59878749 0.03370871
-0.37387043 -0.59876311 0.033677805
-0.34818876 -0.5987078 0.033635717
-0.31028205 -0.59870017 0.033612765
-0.30337557 -0.59874117 0.033647873
-0.38068795 -0.59331638 0.033403829
-0.37481543 -0.59340882 0.033467632
-0.37261385 -0.59338105 0.033446677
-0.34274957 -0.59339178 0.033458363
-0.32859075 -0.59347308 0.033522472
-0.31813851 -0.59337711 0.033435486
-0.31450188 -0.59338647 0.033437502
-0.31311098 -0.59335172 0.033419382
-0.31235641 -0.59331971 0.033391133
-0.37695208 -0.58804256 0.033353042
-0.37075478 -0.58810914 0.03344062
-0.36821687 -0.5880658 0.033386949
-0.36602384 -0.58811736 0.033430923
-0.36463931 -0.58806396 0.033398051
-0.35204464 -0.58803046 0.033367127
-0.35016134 -0.5880813 0.033407897
-0.34439662 -0.58804899 0.033389155
-0.34255749 -0.58807856 0.03337473
-0.33676982 -0.58807534 0.033409588
-0.33067223 -0.58810115 0.033411589
-0.32887375 -0.58804464 0.033384237
-0.32708284 -0.58813155 0.033464741
-0.3267312 -0.58812076 0.033453066
-0.32455945 -0.58809853 0.033440955
-0.32201886 -0.58812571 0.033459928
-0.31446069 -0.58801055 0.03334431
-0.31264427 -0.58804691 0.033374578
-0.30899066 -0.58802563 0.033330269
-0.30718556 -0.58804041 0.03335676
-0.30178809 -0.58806467 0.033378243
-0.29772303 -0.5880664 0.03337777
-0.29595083 -0.58804071 0.033374831
-0.29305506 -0.58806217 0.033361822
-0.28737918 -0.58806479 0.033395845
-0.28588021 -0.58809167 0.033410024
-0.28226334 -0.58810496 0.033421725
-0.27683756 -0.58808303 0.033407234
-0.27536368 -0.58809823 0.033404604
-0.26566944 -0.58807331 0.033407882
-0.26390901 -0.58805728 0.033399686
-0.25832385 -0.58804929 0.03336513
-0.24760182 -0.58805668 0.033387884
-0.38590226 -0.58278733 0.033477034
-0.37872946 -0.58274651 0.03346112
-0.37730578 -0.58278304 0.033483062
-0.37551203 -0.58274883 0.033469696
-0.37362236 -0.58279806 0.033475518
-0.37146106 -0.58279884 0.033512466
-0.3696157 -0.58279234 0.03349838
-0.36460024 -0.58279413 0.03347566
-0.36276293 -0.58281213 0.033515066
-0.35734296 -0.58276129 0.033473633
-0.35193375 -0.58278561 0.033505417
-0.35019058 -0.5828048 0.033496842
-0.34071478 -0.58276284 0.03348745
-0.3392688 -0.58273017 0.033450883
-0.33750716 -0.58278656 0.033484329
-0.33350122 -0.58280319 0.033512488
-0.33138412 -0.58278751 0.033493221
-0.32917711 -0.58276671 0.03348418
-0.32525143 -0.58279431 0.033521529
-0.32379451 -0.58283371 0.033542044
-0.32073194 -0.58282685 0.033549394
-0.31851935 -0.58284301 0.033531863
-0.31462228 -0.58278334 0.033496678
-0.31281769 -0.58281678 0.033511482
-0.31108713 -0.58273685 0.033436731
-0.30573559 -0.58272427 0.033425491
-0.30424905 -0.58275318 0.033447295
-0.30029652 -0.58276039 0.033465061
-0.2964747 -0.58273947 0.033428889
-0.29267433 -0.58277047 0.033478633
-0.29091048 -0.58274907 0.033447795
-0.28871974 -0.58278924 0.033493627
-0.28147992 -0.58272147 0.033433761
-0.2800824 -0.58276284 0.03347376
-0.27495396 -0.5827989 0.03348805
-0.27212641 -0.58275306 0.033458497
-0.26923466 -0.58277339 0.033471204
-0.26833734 -0.58277178 0.033467095
-0.26419687 -0.58276772 0.033460937
-0.25886193 -0.58274519 0.033459101
-0.25267744 -0.58277386 0.033484969
-0.246748 -0.58279067 0.033506438
-0.37642089 -0.63566476 0.034352195
-0.28290713 -0.63561559 0.03431822
-0.38131267 -0.6287536 0.034466781
-0.37870973 -0.62869298 0.034399923
-0.37729499 -0.62874365 0.03444555
-0.37549129 -0.62874591 0.0344497
-0.37597021 -0.62253922 0.034072813
-0.36907378 -0.62252933 0.034063231
-0.38069811 -0.62189907 0.034791425
-0.37923399 -0.62183386 0.034723211
-0.37817058 -0.6218518 0.034749299
-0.3749097 -0.6218189 0.034702614
-0.36841664 -0.62185919 0.034742501
-0.28828305 -0.62184185 0.034736369
-0.38071197 -0.60959202 0.034579523
-0.37674356 -0.60957843 0.034568649
-0.38086906 -0.60416925 0.034051403
-0.37616539 -0.60416853 0.034029219
-0.37504825 -0.60420626 0.03407694
-0.37457788 -0.60418248 0.03407434
-0.301772 -0.604132 0.034016956
-0.30027777 -0.60415536 0.034042612
-0.38269091 -0.60352379 0.034746978
-0.37838212 -0.60350484 0.034746345
-0.30469307 -0.60349149 0.034735024
-0.38265857 -0.59810621 0.034356266
-0.31364954 -0.59810168 0.034361739
-0.30960372 -0.59808534 0.034341734
-0.30781162 -0.59812474 0.034375634
-0.38409913 -0.59212875 0.034912039
-0.38256007 -0.59279567 0.034214333
-0.38054422 -0.59211051 0.034900416
-0.37855327 -0.59248912 0.034582548
-0.37657738 -0.59246433 0.034568951
-0.37248921 -0.59217143 0.034946114
-0.36813232 -0.5921945 0.034966826
-0.36263898 -0.59278154 0.034210283
-0.36135 -0.59216601 0.034953505
-0.3482748 -0.5921582 0.034939837
-0.34429085 -0.5921225 0.034914121
-0.34050977 -0.5927639 0.034176961
-0.33851376 -0.59217674 0.034946959
-0.33669528 -0.59246349 0.034563143
-0.33448216 -0.59278959 0.034214139
-0.33265582 -0.59281611 0.03423024
-0.33089247 -0.59279156 0.034233995
-0.32578132 -0.59284168 0.034263182
-0.32330701 -0.59222913 0.034991626
-0.31954178 -0.59278446 0.0342068
-0.31725135 -0.59211886 0.034898676
-0.3163555 -0.59273911 0.034141816
-0.30566594 -0.59214258 0.034915578
-0.30385479 -0.59212875 0.03490014
-0.30163389 -0.59212404 0.034868579
-0.29982582 -0.59214562 0.034913886
-0.29517856 -0.59213936 0.034913991
-0.28797281 -0.59216636 0.034932613
-0.28436595 -0.59218472 0.034946535
-0.27892894 -0.59216785 0.03494088
-0.27749559 -0.59213525 0.03490895
-0.27350277 -0.59214902 0.03491731
-0.26945117 -0.59276229 0.034164481
-0.2677438 -0.59218156 0.034956127
-0.37266865 -0.58743984 0.034151636
-0.36620042 -0.58746976 0.034158766
-0.36293167 -0.5874958 0.034176167
-0.35786924 -0.58750635 0.034166906
-0.35534301 -0.58743966 0.034126393
-0.34632659 -0.58742845 0.034142014
-0.34267583 -0.5874778 0.034149468
-0.34053746 -0.58744174 0.034136944
-0.33872575 -0.58748889 0.034181405
-0.33075345 -0.58749104 0.034160092
-0.31952879 -0.58751613 0.034213595
-0.30731153 -0.58745265 0.034120295
-0.30544406 -0.58746433 0.034154598
-0.30363414 -0.58741671 0.034090802
-0.29785484 -0.58743191 0.03412807
-0.2960619 -0.58745539 0.034142431
-0.28449985 -0.58741754 0.034104753
-0.28091788 -0.58749574 0.034175526
-0.27946183 -0.58744198 0.034118708
-0.27374774 -0.5874179 0.034119252
-0.27266613 -0.58744019 0.034120698
-0.26865822 -0.58743608 0.034120146
-0.26008779 -0.5874716 0.034162745
-0.25645092 -0.58741599 0.03410336
-0.25425118 -0.58749288 0.034179714
-0.24764614 -0.5874725 0.034151819
-0.24473339 -0.58745354 0.034126479
-0.38407829 -0.58685368 0.034903936
-0.38368812 -0.58685637 0.034908645
-0.38224903 -0.5868938 0.034937024
-0.38040867 -0.58683282 0.034874961
-0.37718648 -0.58678031 0.034846131
-0.37494871 -0.5868727 0.034913067
-0.37278199 -0.58682334 0.034879919
-0.37097853 -0.58686978 0.034907181
-0.36841395 -0.58685517 0.034896303
-0.36627343 -0.58687776 0.034896962
-0.36161587 -0.58689499 0.034938622
-0.36048758 -0.58688134 0.034911901
-0.35802776 -0.58688742 0.034930881
-0.35656124 -0.58688605 0.03493632
-0.35188314 -0.58685577 0.03490584
-0.35040098 -0.58683223 0.03487923
-0.34439421 -0.58685005 0.034885284
-0.33663598 -0.58683276 0.034888364
-0.32874358 -0.58685523 0.034903608
-0.3269144 -0.5869168 0.034973923
-0.31967777 -0.58691901 0.034952696
-0.31783149 -0.58686256 0.034912109
-0.31614375 -0.58685631 0.034906466
-0.31463781 -0.58684063 0.034877338
-0.31263769 -0.58682781 0.034870263
-0.29291129 -0.58683014 0.034863863
-0.290364 -0.5868786 0.034907293
-0.28934321 -0.5868035 0.034850374
-0.28824034 -0.58682585 0.034859292
-0.28720111 -0.58684665 0.034893554
-0.28570881 -0.58690941 0.034928273
-0.28320149 -0.58680093 0.034845572
-0.28215808 -0.58685988 0.034898344
-0.27956614 -0.5868538 0.034900732
-0.27813503 -0.58681142 0.034875486
-0.27521199 -0.5868746 0.03489786
-0.27131423 -0.58684236 0.034877896
-0.26552036 -0.58687341 0.03489244
-0.25852758 -0.58686852 0.034906354
-0.25657505 -0.58678627 0.034846026
-0.25101817 -0.58679354 0.034855574
-0.24772851 -0.58686835 0.034915186
-0.36469495 -0.58219141 0.034254905
-0.35027918 -0.58221728 0.034254972
-0.34644598 -0.58219463 0.034255244
-0.30909139 -0.58217561 0.034231905
-0.30771345 -0.58220124 0.034274366
-0.29859632 -0.58218354 0.034231473
-0.2823475 -0.58219051 0.03424444
-0.26540199 -0.58214951 0.034221895
-0.26211861 -0.5822053 0.034267861
-0.25892574 -0.58213735 0.034210406
-0.250413 -0.58219171 0.034258243
-0.24982804 -0.58217525 0.034247689
-0.24755187 -0.58217961 0.034246847
-0.35112381 -0.66450721 0.035546355
-0.28141102 -0.6411742 0.035705831
-0.37976977 -0.63432389 0.03567354
-0.37613025 -0.6342957 0.035664152
-0.281923 -0.63426161 0.035634667
-0.37370709 -0.62800258 0.035048701
-0.37699926 -0.62737823 0.035787079
-0.38184229 -0.62121832 0.035445109
-0.37678608 -0.62122655 0.035435274
-0.3765786 -0.61510873 0.035314005
-0.37770993 -0.61440086 0.03595715
-0.37829533 -0.60862613 0.035627719
-0.37653902 -0.60827237 0.035976339
-0.37599322 -0.6028949 0.035462637
-0.29832742 -0.6028266 0.03542307
-0.3845821 -0.59754968 0.035171162
-0.37835979 -0.5974822 0.03513255
-0.3046298 -0.59746587 0.035058603
-0.38248196 -0.59683335 0.035810038
-0.38062534 -0.59689331 0.035870686
-0.37845844 -0.59684414 0.035837259
-0.31085721 -0.5968802 0.035862841
-0.32841182 -0.59223729 0.03500076
-0.32592615 -0.59222364 0.035017949
-0.38240448 -0.59154952 0.035674408
-0.38061237 -0.59151447 0.035660472
-0.37872157 -0.59156412 0.035666477
-0.35197648 -0.59155595 0.035683636
-0.3443684 -0.59149641 0.035641558
-0.33860046 -0.5915693 0.035703778
-0.33685341 -0.59158117 0.035714883
-0.33069739 -0.59152883 0.035668127
-0.32848197 -0.59163344 0.035763144
-0.32600683 -0.59157741 0.035727616
-0.32361913 -0.59160852 0.035724338
-0.32145706 -0.5915857 0.035723567
-0.31952491 -0.59154826 0.035685919
-0.31618565 -0.59150356 0.035627175
-0.314446 -0.59153587 0.035659794
-0.31263936 -0.59152907 0.035652641
-0.29166844 -0.59148645 0.035617858
-0.2865791 -0.59148788 0.035624072
-0.28553843 -0.59148383 0.035636887
-0.28158414 -0.59150106 0.035638969
-0.27215827 -0.59152269 0.035656035
-0.27181947 -0.5915308 0.035665594
-0.38053703 -0.58622831 0.035630528
-0.37316087 -0.58625764 0.035640478
-0.36849728 -0.58624637 0.03564737
-0.36635014 -0.58626521 0.035638973
-0.35375252 -0.58626837 0.035661336
-0.34468466 -0.58624583 0.035636291
-0.3385987 -0.58625495 0.035642512
-0.33701754 -0.58623767 0.03563042
-0.33454135 -0.58628821 0.035675127
-0.32696965 -0.58629155 0.035701811
-0.30901089 -0.58620089 0.03560555
-0.30570576 -0.58625001 0.035644837
-0.30204841 -0.58622926 0.035637952
-0.30029309 -0.58622319 0.035633117
-0.29448038 -0.58623946 0.035635136
-0.29155451 -0.58624113 0.035650462
-0.28440428 -0.58621365 0.03560983
-0.27387512 -0.58620745 0.035614401
-0.27243462 -0.58624333 0.035636127
-0.26563996 -0.58624554 0.035637066
-0.25442523 -0.58627588 0.035672136
-0.25151649 -0.58620572 0.035609484
-0.34322974 -0.67169338 0.036616877
-0.34142333 -0.67165709 0.036581364
-0.38125461 -0.63357383 0.036283497
-0.37894264 -0.62051332 0.036071066
-0.38306057 -0.61983275 0.036774233
-0.37764442 -0.61985403 0.036792096
-0.38503695 -0.61373943 0.036662839
-0.38249931 -0.61372757 0.03663969
-0.38484836 -0.60761029 0.036655087
-0.38072419 -0.60225612 0.036202617
-0.3021926 -0.60220098 0.036144614
-0.30051684 -0.60223246 0.036189187
-0.38264734 -0.60162342 0.036925845
-0.30751392 -0.60156107 0.03685578
-0.30349952 -0.60159653 0.036897559
-0.38436916 -0.59627992 0.036598481
-0.33846185 -0.59620994 0.03654024
-0.33263358 -0.59628975 0.036637492
-0.32542834 -0.59630901 0.036642794
-0.31822571 -0.59622073 0.036550622
-0.31677321 -0.59622562 0.036571424
-0.30810595 -0.59623152 0.036562577
-0.38248271 -0.59092218 0.036415897
-0.38064587 -0.5909363 0.036419459
-0.35569242 -0.59097296 0.036437202
-0.34233662 -0.59093648 0.036415279
-0.34052619 -0.5909484 0.036444332
-0.33473316 -0.5908848 0.036379322
-0.32605696 -0.59095979 0.036465663
-0.3198007 -0.59093833 0.036431432
-0.30546927 -0.59089291 0.036376406
-0.2924656 -0.59095508 0.036430854
-0.29032269 -0.59092635 0.036390468
-0.26902714 -0.59091735 0.036391072
-0.26401272 -0.59088057 0.036377952
-0.25818726 -0.59089339 0.036392223
-0.35786384 -0.58565116 0.036418028
