# .PCD v0.7 - Point Cloud Data file format
VERSION 0.7
FIELDS x y z normal_x normal_y normal_z curvature
SIZE 4 4 4 4 4 4 4
TYPE F F F F F F F
COUNT 1 1 1 1 1 1 1
WIDTH 1102
HEIGHT 1
VIEWPOINT 0 0 0 1 0 0 0
POINTS 1102
DATA ascii
0.1314254 0.0254 -0.043863345 0 1 0 0
0.00026996864 -0.022168811 -0.043591626 0 0.98836237 0.15211782 0
0.35560229 -0.020951677 -0.043580081 0.99800694 -0.063103735 -9.4048193e-07 0
0.096377857 0.02216544 -0.043613195 0 -0.98699522 0.16074972 0
0.11458023 0.022166552 -0.043606311 0 -0.98836237 0.15211782 0
0.35393834 0.024263032 -0.043553133 0.64623159 0.76314139 0 0
0.28153801 0.0254 -0.043635286 0 1 0 0
0.20046026 -0.0254 -0.043279383 0 -1 0 0
0.12457991 -0.022207338 -0.043272041 0 0.99656433 0.082822949 0
0.17005712 -0.022204932 -0.043298751 0 0.99580717 0.09147729 0
0.29142258 -0.022188719 -0.043449041 0 0.99200529 0.12619656 0
0.30014932 -0.022204956 -0.04329849 0 0.99580717 0.09147729 0
0.30395436 -0.022201873 -0.0433309 0 0.99496597 0.10021368 0
0.35233486 -0.01844687 -0.043364007 -0.97873962 0.20510681 0 0
0.3524377 0.0010360945 -0.043281782 -1 0 0 0
0.10377404 0.022198822 -0.043361112 0 -0.99405688 0.10886223 0
0.064107522 0.025399998 -0.043328546 0 1 0 0
0.16282237 0.025399998 -0.043374162 0 1 0 0
0.241391 0.0254 -0.043489266 0 1 0 0
0.061208591 -0.025399998 -0.043093849 0 -1 0 0
0.13449812 -0.025400002 -0.04314946 0 -1 0 0
0.19007561 -0.025399998 -0.043162066 0 -1 0 0
0.28199872 -0.0254 -0.043052278 0 -1 0 0
0.35250965 -0.025101505 -0.043124001 0.34616652 -0.93817312 0 0
0.071671508 -0.022217844 -0.043122876 0 0.99839181 0.056691159 0
0.24559475 -0.022215277 -0.043166053 0 0.99785972 0.065391541 0
0.30031434 -0.022211671 -0.043217964 0 0.99724889 0.074125901 0
0.33629325 -0.022225 -0.04306525 0 1 0 0
0.35243767 0.0087358439 -0.043200016 -1 0 0 0
0.34914142 0.021993656 -0.043124475 -0.30488306 -0.95238984 0 0
0.32315457 0.022225 -0.043077063 0 -1 0 0
0.044978831 0.025399998 -0.043149069 0 1 0 0
0.072674669 -0.025400002 -0.042866137 0 -1 0 0
0.26275274 -0.0254 -0.042984381 0 -1 0 0
0.27166632 -0.0254 -0.04293805 0 -1 0 0
0.31655055 -0.0254 -0.042844675 0 -1 0 0
0.024976036 -0.022225 -0.042807303 0 1 0 0
0.3524377 -0.0033390271 -0.042995725 -1 0 0 0
0.035866138 0.022224469 -0.042930741 0 -0.99991441 0.013087181 0
0.24413821 0.022224845 -0.042898074 0 -0.99999058 0.0043473956 0
0.3163875 0.022225 -0.042841215 0 -1 0 0
0.076110691 0.025400002 -0.042818047 0 1 0 0
0.21246499 0.025400002 -0.042827185 0 1 0 0
0.081426606 -0.025400002 -0.042548385 0 -1 0 0
0.096027113 -0.0254 -0.04257448 0 -1 0 0
0.20354784 -0.0254 -0.042675763 0 -1 0 0
0.22821844 -0.0254 -0.042658992 0 -1 0 0
0.31520471 -0.025400002 -0.0426642 0 -1 0 0
0.085321456 -0.022225 -0.042635709 0 1 0 0
0.11093798 -0.022225 -0.042623539 0 1 0 0
0.3524377 -0.0012406061 -0.042549141 -1 0 0 0
0.3524377 0.0067692311 -0.042715576 -1 0 0 0
0.10346478 0.022225 -0.04251571 0 -1 0 0
0.12296029 0.022225 -0.042617835 0 -1 0 0
0.12503813 0.022225 -0.042684585 0 -1 0 0
0.10862474 0.025399998 -0.042602036 0 1 0 0
0.31263137 0.0254 -0.042716969 0 1 0 0
0.080023184 -0.0254 -0.042318683 0 -1 0 0
0.19832839 -0.022225 -0.042285834 0 1 0 0
0.25177389 -0.022225 -0.04242048 0 1 0 0
0.33871725 -0.022225 -0.042418897 0 1 0 0
0.3556127 -0.017243693 -0.042277597 1 0 0 0
0.3524377 0.016597457 -0.042381484 -1 0 0 0
0.11593888 0.022225 -0.042346112 0 -1 0 0
0.10337045 0.0254 -0.042476509 0 1 0 0
0.180307 0.0254 -0.042333379 0 1 0 0
0.079037517 -0.0254 -0.042204507 0 -1 0 0
0.17742798 -0.0254 -0.042055879 0 -1 0 0
0.019056227 -0.022225 -0.042236399 0 1 0 0
0.27273723 -0.022225 -0.042101078 0 1 0 0
0.27820572 -0.022225 -0.042238966 0 1 0 0
0.29799935 -0.022225002 -0.042042252 0 1 0 0
0.3556127 0.0065980065 -0.042231027 1 0 0 0
0.35533088 0.022251286 -0.042210355 0.94199318 0.33563215 9.8908208e-07 0
0.0061539044 -0.0254 -0.041901752 0 -1 0 0
0.063429669 -0.0254 -0.041836906 0 -1 0 0
0.14269935 -0.025399998 -0.041983187 0 -1 0 0
0.17277768 -0.025399998 -0.041867029 0 -1 0 0
0.21742854 -0.025400002 -0.041882362 0 -1 0 0
0.16061251 -0.022225 -0.041870225 0 1 0 0
0.35159951 -0.020160887 -0.041928295 -0.82233405 0.56900501 0 0
0.0096749365 0.022225 -0.041983914 0 -1 0 0
0.092560299 0.022225 -0.041899882 0 -1 0 0
0.11087144 0.022225 -0.041898444 0 -1 0 0
0.13232921 0.022225 -0.04188887 0 -1 0 0
0.17776595 0.022225 -0.041942276 0 -1 0 0
0.026044212 0.0254 -0.041977681 0 1 0 0
0.036375642 0.0254 -0.041984692 0 1 0 0
0.086529687 0.025399998 -0.041857693 0 1 0 0
0.15429355 0.025399998 -0.041810531 0 1 0 0
0.24161567 0.025399998 -0.04191168 0 1 0 0
0.0034815187 -0.0254 -0.041611884 0 -1 0 0
0.089131802 -0.0254 -0.041634478 0 -1 0 0
0.1094242 -0.0254 -0.041642398 0 -1 0 0
0.061418273 -0.022225 -0.041635983 0 1 0 0
0.2467982 -0.022225 -0.041529048 0 1 0 0
0.077795185 0.022225 -0.041667923 0 -1 0 0
0.22868368 0.0254 -0.041584559 0 1 0 0
0.3009668 0.0254 -0.041532766 0 1 0 0
0.10227121 -0.0254 -0.041471004 0 -1 0 0
0.13346833 -0.025400002 -0.04138096 0 -1 0 0
0.033843197 -0.022225 -0.041274555 0 1 0 0
0.2155692 0.022225 -0.041251969 0 -1 0 0
0.28568178 0.022225 -0.041337747 0 -1 0 0
5.9509954e-18 0.022960151 -0.041385237 -1 2.6898181e-15 2.6898198e-15 0
0.35281 0.024978025 -0.041371308 0.41084185 0.91170663 0 0
0.0050069573 0.025400002 -0.041310396 0 1 0 0
0.038332261 0.0254 -0.041357916 0 1 0 0
0.28595299 0.0254 -0.041299555 0 1 0 0
0.054071013 -0.025399998 -0.04109576 0 -1 0 0
0.20683563 -0.025399998 -0.041025735 0 -1 0 0
0.14987321 -0.022225 -0.041070294 0 1 0 0
0.35561007 -0.020795561 -0.041193597 0.99945581 -0.032986525 0 0
0.30434257 0.022225 -0.041026372 0 -1 0 0
0.13959469 0.025400002 -0.041081417 0 1 0 0
0.17860633 0.0254 -0.041196845 0 1 0 0
0.19393806 0.025399998 -0.04107371 0 1 0 0
0.29980293 0.0254 -0.041156609 0 1 0 0
0.083385244 -0.0254 -0.04098779 0 -1 0 0
0.15857546 -0.0254 -0.041000001 0 -1 0 0
0.18345463 0.022225 -0.040991001 0 -1 0 0
0.27485302 0.022225 -0.040971439 0 -1 0 0
0.28017145 0.022225002 -0.040926415 0 -1 0 0
0.31417289 0.022225 -0.040814832 0 -1 0 0
0.16565061 0.025400002 -0.040954739 0 1 0 0
0.32457179 0.025400002 -0.040864825 0 1 0 0
0.069429353 -0.0254 -0.04062397 0 -1 0 0
0.10926159 -0.0254 -0.040687747 0 -1 0 0
0.10648502 -0.022225 -0.040614702 0 1 0 0
0.18438175 -0.022225 -0.040562306 0 1 0 0
0.20102561 -0.022225 -0.040721711 0 1 0 0
0.22982857 -0.022225 -0.040512409 0 1 0 0
0.27369827 -0.022225 -0.040688056 0 1 0 0
0.046054147 0.022225 -0.040592894 0 -1 0 0
0.3542577 0.023964662 -0.040626667 0.71742266 0.69663823 6.7357723e-07 0
0.059501424 0.025400002 -0.040575892 0 1 0 0
0.12074947 0.0254 -0.040546283 0 1 0 0
0.32998142 0.025399998 -0.040570349 0 1 0 0
0.33584031 0.0254 -0.040612277 0 1 0 0
0.042093333 -0.0254 -0.040458422 0 -1 0 0
0.074632779 -0.0254 -0.040417902 0 -1 0 0
0.089961424 -0.025399998 -0.040293168 0 -1 0 0
0.22213833 -0.025399998 -0.040312067 0 -1 0 0
0.08429388 -0.022225 -0.040421125 0 1 0 0
0.33339921 -0.022225 -0.040336195 0 1 0 0
0.34610879 -0.022225 -0.040278461 0 1 0 0
0.034893759 0.022225 -0.040426463 0 -1 0 0
0.068955965 0.0254 -0.040372655 0 1 0 0
0.22546977 0.0254 -0.040400296 0 1 0 0
0.28684685 0.0254 -0.040277988 0 1 0 0
0.29654336 0.0254 -0.040410332 0 1 0 0
0.038298108 -0.0254 -0.040038858 0 -1 0 0
0.16429834 -0.0254 -0.04011891 0 -1 0 0
0.18881805 -0.025400002 -0.040190533 0 -1 0 0
0.29228115 -0.0254 -0.040129162 0 -1 0 0
0.041011162 -0.022225 -0.04000105 0 1 0 0
0.26076695 -0.022225002 -0.040117066 0 1 0 0
0.30478248 -0.022225 -0.040059157 0 1 0 0
0.14375302 0.022225 -0.040179621 0 -1 0 0
0.23367813 0.022225 -0.04011365 0 -1 0 0
0.29573205 0.022225 -0.040087178 0 -1 0 0
0.12758346 0.0254 -0.040177006 0 1 0 0
0.15961033 0.0254 -0.040116921 0 1 0 0
0.3436996 0.0254 -0.040128704 0 1 0 0
0.34653345 -0.0254 -0.039956108 0 -1 0 0
0.11505808 -0.022225 -0.039815109 0 1 0 0
0.25233063 -0.022225 -0.039792586 0 1 0 0
0.31466481 -0.022225 -0.039872494 0 1 0 0
0.18192258 0.022225 -0.039911389 0 -1 0 0
0.2108877 0.022225 -0.039808147 0 -1 0 0
0.14387795 -0.0254 -0.039668228 0 -1 0 0
0.22757684 -0.0254 -0.039683416 0 -1 0 0
0.27764642 -0.0254 -0.03956908 0 -1 0 0
0.29475182 -0.025400002 -0.039610799 0 -1 0 0
0.0098638963 -0.022225 -0.039639391 0 1 0 0
0.071025699 -0.022225 -0.039745398 0 1 0 0
0.32566664 -0.022225 -0.039613865 0 1 0 0
0.059400454 0.022225 -0.039542109 0 -1 0 0
0.26398495 0.022225 -0.039681181 0 -1 0 0
0.28748399 0.022225 -0.039572444 0 -1 0 0
0.29230601 0.0254 -0.039554857 0 1 0 0
0.042027917 -0.0254 -0.039426453 0 -1 0 0
0.075683996 -0.0254 -0.039478403 0 -1 0 0
0.21977311 -0.025399998 -0.039469056 0 -1 0 0
0.34429732 -0.0254 -0.039318539 0 -1 0 0
0.17059876 -0.022225 -0.03929092 0 1 0 0
0.18370531 -0.022225 -0.039472383 0 1 0 0
0.1963466 -0.022225 -0.03927793 0 1 0 0
0.23333906 -0.022224998 -0.039419767 0 1 0 0
0.3524377 0.01457708 -0.039278861 -1 0 0 0
0.0020040076 0.022225 -0.039349206 0 -1 0 0
0.16352788 0.022225 -0.039433815 0 -1 0 0
0.35525766 0.022441808 -0.039480038 0.92617238 0.3771005 7.1218227e-07 0
0.34422514 0.0254 -0.03934399 0 1 0 0
0.21914503 -0.0254 -0.039204907 0 -1 0 0
0.23990428 -0.0254 -0.039214838 0 -1 0 0
0.13304012 -0.022225 -0.039005462 0 1 0 0
0.14145543 -0.022225 -0.039148141 0 1 0 0
0.29895365 -0.022225 -0.039174557 0 1 0 0
0.34277096 -0.022225 -0.039114416 0 1 0 0
0.0022899988 0.022225 -0.039090708 0 -1 0 0
0.17474236 0.022225 -0.039125133 0 -1 0 0
0.071562022 0.025400002 -0.03905588 0 1 0 0
0.02716874 -0.0254 -0.038924787 0 -1 0 0
0.056600612 -0.025399998 -0.038997035 0 -1 0 0
0.13815832 -0.0254 -0.03877024 0 -1 0 0
0.31395629 -0.0254 -0.038921718 0 -1 0 0
0.34961912 -0.0254 -0.03894588 0 -1 0 0
0.078935906 -0.022225 -0.0389545 0 1 0 0
0.22235887 -0.022225 -0.038806666 0 1 0 0
0.11019968 0.022225 -0.038974274 0 -1 0 0
0.19185612 0.022225 -0.03885629 0 -1 0 0
0.28099284 0.022225 -0.038950875 0 -1 0 0
0.037561066 0.0254 -0.038946237 0 1 0 0
0.25462705 0.0254 -0.038980916 0 1 0 0
0.33982861 0.025400002 -0.038926102 0 1 0 0
0.098109528 -0.0254 -0.038611494 0 -1 0 0
0.10405475 -0.025400002 -0.038679067 0 -1 0 0
0.13147232 -0.0254 -0.038513541 0 -1 0 0
0.29250658 -0.0254 -0.038607758 0 -1 0 0
0.1233067 -0.022225 -0.038745955 0 1 0 0
0.18102133 -0.022225 -0.03854255 0 1 0 0
0.20340529 -0.022225002 -0.038619228 0 1 0 0
0.21012898 -0.022225 -0.038724791 0 1 0 0
0.02005359 0.022225 -0.038687531 0 -1 0 0
0.024784235 0.022225 -0.03865454 0 -1 0 0
0.11995734 0.022225 -0.038590208 0 -1 0 0
0.22674654 0.022225 -0.038728755 0 -1 0 0
0.27001658 0.022225 -0.038734782 0 -1 0 0
0.28753924 0.0254 -0.038639482 0 1 0 0
0.06911885 -0.0254 -0.038444392 0 -1 0 0
0.092353761 -0.0254 -0.038294148 0 -1 0 0
0.17827824 -0.0254 -0.038497239 0 -1 0 0
0.094244838 -0.022225 -0.038307112 0 1 0 0
0.13525379 -0.022225 -0.038407311 0 1 0 0
0.27367118 -0.022225 -0.03843933 0 1 0 0
0.3556127 0.0052359449 -0.038459055 1 0 0 0
0.30351952 0.022225 -0.03839834 0 -1 0 0
0.061074346 -0.0254 -0.03808878 0 -1 0 0
0.091674104 -0.0254 -0.038205877 0 -1 0 0
0.13292718 -0.025399998 -0.038247865 0 -1 0 0
0.27053726 -0.0254 -0.038118251 0 -1 0 0
0.021787494 -0.022225 -0.038164102 0 1 0 0
0.036188655 -0.022225 -0.0382412 0 1 0 0
0.19566385 -0.022225 -0.038061425 0 1 0 0
0.35243767 0.0041482942 -0.038214769 -1 0 0 0
0.17073953 0.022225 -0.03808162 0 -1 0 0
0.068207256 0.025400002 -0.038011681 0 1 0 0
0.072010964 0.0254 -0.038216528 0 1 0 0
0.11400519 0.025399998 -0.038020693 0 1 0 0
0.3169778 0.0254 -0.038123582 0 1 0 0
0.082619287 -0.025399998 -0.037988052 0 -1 0 0
0.066287667 -0.022225 -0.037784968 0 1 0 0
0.18686695 -0.022225 -0.037809212 0 1 0 0
0.28883469 -0.022225 -0.037914563 0 1 0 0
0.2166774 0.022225 -0.037924118 0 -1 0 0
0.23966736 0.022225 -0.037940159 0 -1 0 0
0.31039464 0.022225 -0.037886083 0 -1 0 0
0.33552006 0.022225 -0.037768614 0 -1 0 0
0.13040961 0.025399998 -0.037942637 0 1 0 0
0.037806012 -0.025400002 -0.037647672 0 -1 0 0
0.34023896 -0.0254 -0.03761287 0 -1 0 0
0.075244106 -0.022225 -0.037681509 0 1 0 0
0.3556127 -0.0040220115 -0.037574533 1 0 0 0
0.3556127 0.016319323 -0.037715621 1 0 0 0
0.28061527 0.022225 -0.037580192 0 -1 0 0
0.05759808 0.025400002 -0.037565775 0 1 0 0
0.19636419 0.0254 -0.037510995 0 1 0 0
0.34812301 0.0254 -0.037666745 0 1 0 0
0.050340679 0.022225 -0.037381258 0 -1 0 0
0.069607176 -0.025400002 -0.037050337 0 -1 0 0
0.12463454 -0.0254 -0.037193976 0 -1 0 0
0.12363997 -0.022225 -0.037246455 0 1 0 0
0.28700393 -0.022225 -0.037036262 0 1 0 0
0.3524377 0.00026780687 -0.037106253 -1 0 0 0
0.071933135 0.022225 -0.037002206 0 -1 0 0
0.19393131 0.022225 -0.037158571 0 -1 0 0
0.27752522 0.022225 -0.037141789 0 -1 0 0
0.10021345 0.0254 -0.037123151 0 1 0 0
0.23603815 0.025400002 -0.037222657 0 1 0 0
0.29503641 0.025399998 -0.037130006 0 1 0 0
0.28978166 -0.025399998 -0.036872432 0 -1 0 0
0.1366825 -0.022225 -0.036877483 0 1 0 0
0.29991207 -0.022225 -0.03676087 0 1 0 0
0.080702715 0.022225 -0.036917429 0 -1 0 0
0.13785282 0.022225 -0.036869086 0 -1 0 0
0.25268072 0.022225 -0.036924113 0 -1 0 0
0.29289284 0.022225 -0.036868192 0 -1 0 0
0.033466633 0.025400002 -0.036848504 0 1 0 0
0.22417048 0.0254 -0.036986552 0 1 0 0
0.2310797 0.0254 -0.036805127 0 1 0 0
0.0044337544 -0.0254 -0.036749363 0 -1 0 0
0.078160368 -0.0254 -0.036518358 0 -1 0 0
0.14613888 -0.025399998 -0.036686011 0 -1 0 0
0.16476893 -0.025400002 -0.036687724 0 -1 0 0
0.25044134 -0.025400002 -0.036628403 0 -1 0 0
0.28016752 -0.0254 -0.036557037 0 -1 0 0
0.31633019 -0.025399998 -0.036645137 0 -1 0 0
0.15534405 -0.022225 -0.036546111 0 1 0 0
0.17207704 -0.022225 -0.03651908 0 1 0 0
0.29999551 -0.022225 -0.036633596 0 1 0 0
0.35203663 0.019375391 -0.036717758 -0.91454935 -0.40447432 -7.2131434e-07 0
0.081583686 0.022225 -0.036521204 0 -1 0 0
0.34170121 0.022225 -0.03666234 0 -1 0 0
0.087552726 0.025400002 -0.036648024 0 1 0 0
0.2404172 0.0254 -0.036554508 0 1 0 0
0.2773664 -0.025400002 -0.036474653 0 -1 0 0
0.35320169 -0.024778955 -0.036286671 0.49610513 -0.86826247 0 0
0.1356295 -0.022225 -0.036436792 0 1 0 0
0.25740203 -0.022225 -0.036310282 0 1 0 0
0.34237552 -0.022225 -0.036384996 0 1 0 0
0.35561273 -0.0026945211 -0.036271021 1 0 0 0
0.035179809 0.022225 -0.036298096 0 -1 0 0
0.069331549 0.022225 -0.036365777 0 -1 0 0
0.27321991 0.022225 -0.036403783 0 -1 0 0
0.3058522 0.022225 -0.036477569 0 -1 0 0
0.037450101 0.025399998 -0.036477376 0 1 0 0
0.088796161 0.0254 -0.036361963 0 1 0 0
0.24551749 0.025399998 -0.036454365 0 1 0 0
0.267243 0.0254 -0.03631616 0 1 0 0
0.3082377 0.0254 -0.03645353 0 1 0 0
0.017570863 -0.0254 -0.036057346 0 -1 0 0
0.031521328 -0.0254 -0.036137003 0 -1 0 0
0.33392563 -0.0254 -0.036133502 0 -1 0 0
0.015829068 -0.022225 -0.036048848 0 1 0 0
0.19099149 -0.022225 -0.036171418 0 1 0 0
0.32697472 -0.022225 -0.036162481 0 1 0 0
0.0047444198 0.022225 -0.036182206 0 -1 0 0
0.15543556 0.022225 -0.036241911 0 -1 0 0
0.24038149 0.022225 -0.036005974 0 -1 0 0
0.038035914 0.025399998 -0.036049288 0 1 0 0
0.31792304 0.0254 -0.036088027 0 1 0 0
0.16006348 -0.025399998 -0.035883274 0 -1 0 0
0.060769632 -0.022225 -0.03584943 0 1 0 0
0.077402256 -0.022225 -0.035991132 0 1 0 0
0.10746404 -0.022225 -0.035879146 0 1 0 0
0.12349194 -0.022225 -0.035979182 0 1 0 0
0.32281825 -0.022225 -0.035834171 0 1 0 0
0.3556127 -0.011821932 -0.035992041 1 0 0 0
0.3524377 0.0074579241 -0.035914555 -1 0 0 0
0.3556127 0.018331654 -0.035751957 1 0 0 0
0.13720021 0.022225 -0.035770096 0 -1 0 0
0.18756509 0.022225 -0.035916574 0 -1 0 0
0.26267824 0.022225 -0.035794951 0 -1 0 0
0.29588529 0.022225 -0.035755198 0 -1 0 0
0.16895619 0.025400002 -0.03581778 0 1 0 0
0.2002912 0.025399998 -0.035867348 0 1 0 0
0.011113852 -0.025399998 -0.035604771 0 -1 0 0
0.13258845 -0.025399998 -0.03554168 0 -1 0 0
0.17067042 -0.025399998 -0.035572868 0 -1 0 0
0.02305226 -0.022225 -0.035686191 0 1 0 0
0.067674302 -0.022225 -0.035672963 0 1 0 0
0.12165845 -0.022225 -0.0355311 0 1 0 0
0.30541807 -0.022225 -0.035697058 0 1 0 0
0.33621049 -0.022225 -0.035536718 0 1 0 0
0.0033689106 0.022225 -0.035649877 0 -1 0 0
0.14368024 0.022225 -0.035611205 0 -1 0 0
0.2215797 0.022225 -0.035548873 0 -1 0 0
0.22700457 0.0254 -0.0357287 0 1 0 0
0.044742536 -0.0254 -0.035264917 0 -1 0 0
0.045436852 -0.0254 -0.035395533 0 -1 0 0
0.3292121 -0.0254 -0.035362136 0 -1 0 0
0.33813399 -0.0254 -0.035460357 0 -1 0 0
0.14631459 -0.022225 -0.035250843 0 1 0 0
0.21194254 -0.022225 -0.035287052 0 1 0 0
0.3524377 -0.0098558795 -0.035292383 -1 0 0 0
0.3524377 0.012194594 -0.03542906 -1 0 0 0
0.3556127 0.016598575 -0.035261899 1 0 0 0
0.012937957 0.022225 -0.035376471 0 -1 0 0
0.13753302 0.022225 -0.035308205 0 -1 0 0
0.14087987 0.022225 -0.035251867 0 -1 0 0
0.18144256 0.022225 -0.035397705 0 -1 0 0
0.27463591 0.022225 -0.035412256 0 -1 0 0
0.075530894 0.025399998 -0.035373341 0 1 0 0
0.20105559 0.0254 -0.035472255 0 1 0 0
0.2667205 0.0254 -0.035263035 0 1 0 0
0.34045416 0.0254 -0.03535945 0 1 0 0
0.025762951 -0.0254 -0.035070546 0 -1 0 0
0.1397949 -0.022225 -0.03508158 0 1 0 0
0.23848161 -0.022225 -0.03504375 0 1 0 0
0.33763933 -0.022225 -0.035053276 0 1 0 0
0.35106418 -0.020808585 -0.035049558 -0.71229082 0.70188457 0 0
0.3556127 0.00064952113 -0.035020784 1 0 0 0
0.35242176 0.017851118 -0.035058126 -0.99641353 -0.084618069 -9.4043281e-07 0
0.041568581 0.022225 -0.03507179 0 -1 0 0
0.10093537 0.022225 -0.035123907 0 -1 0 0
0.081758544 0.025400002 -0.035174076 0 1 0 0
0.31618607 0.025399998 -0.035102636 0 1 0 0
0.013624537 -0.0254 -0.034908831 0 -1 0 0
0.062620752 -0.0254 -0.034921702 0 -1 0 0
0.24757782 -0.0254 -0.034913402 0 -1 0 0
0.30903837 -0.0254 -0.034978811 0 -1 0 0
0.01902983 -0.022225 -0.034805425 0 1 0 0
0.08095628 -0.022225 -0.034969978 0 1 0 0
0.093718596 -0.022225 -0.034987353 0 1 0 0
0.13663843 0.022225 -0.034908775 0 -1 0 0
0.25969037 0.022225 -0.034776721 0 -1 0 0
0.30296654 0.022224998 -0.034899499 0 -1 0 0
0.30743966 0.022225 -0.03491649 0 -1 0 0
0.067241885 -0.025400002 -0.034726907 0 -1 0 0
0.10439108 -0.0254 -0.034670208 0 -1 0 0
0.24110821 -0.025399998 -0.034503333 0 -1 0 0
0.073432654 -0.022225 -0.03458561 0 1 0 0
0.0040217154 0.022225 -0.034654912 0 -1 0 0
0.22266737 0.022225 -0.034696765 0 -1 0 0
0.05909957 0.025400002 -0.034527481 0 1 0 0
0.10949689 0.0254 -0.034520082 0 1 0 0
0.17920521 0.025400002 -0.034622438 0 1 0 0
0.27124912 0.0254 -0.034624845 0 1 0 0
0.054168176 -0.0254 -0.034272466 0 -1 0 0
0.021750391 -0.022225 -0.034482259 0 1 0 0
0.021395622 0.022225 -0.034456003 0 -1 0 0
0.20518491 0.022225 -0.034344304 0 -1 0 0
0.22048837 0.022225 -0.034311846 0 -1 0 0
0.27898401 0.022225 -0.034445427 0 -1 0 0
0.28224182 0.025400002 -0.034432948 0 1 0 0
0.30649218 0.025400002 -0.034297638 0 1 0 0
0.036984313 -0.025400002 -0.034153711 0 -1 0 0
0.27700886 -0.025399998 -0.034019276 0 -1 0 0
0.34136301 -0.025400002 -0.034013223 0 -1 0 0
0.028098661 0.022225 -0.034059774 0 -1 0 0
0.047403693 0.022225 -0.034130819 0 -1 0 0
0.13930972 0.022225 -0.034047917 0 -1 0 0
0.15430552 0.022225 -0.034207325 0 -1 0 0
0.20373873 0.022225 -0.034102283 0 -1 0 0
0.32637152 0.022225 -0.034083448 0 -1 0 0
0.060302764 -0.0254 -0.033876199 0 -1 0 0
0.12664317 -0.022225 -0.033890061 0 1 0 0
0.015652144 0.022225 -0.033967793 0 -1 0 0
0.035102174 0.022225 -0.033855729 0 -1 0 0
0.0064691887 0.0254 -0.033921011 0 1 0 0
0.24332783 0.025399998 -0.033867449 0 1 0 0
0.27569288 0.0254 -0.033822436 0 1 0 0
0.081164055 -0.0254 -0.033509988 0 -1 0 0
0.22056124 -0.0254 -0.033732727 0 -1 0 0
0.22570334 -0.025399998 -0.033605814 0 -1 0 0
0.27408671 -0.025399998 -0.033687692 0 -1 0 0
0.10101587 -0.022225 -0.033589657 0 1 0 0
0.3556127 -0.016556898 -0.033732146 1 0 0 0
0.069540098 0.022225 -0.033692531 0 -1 0 0
0.22651207 -0.025400002 -0.033498589 0 -1 0 0
0.2353335 -0.0254 -0.033263326 0 -1 0 0
0.24179046 -0.0254 -0.033306506 0 -1 0 0
0.2215355 -0.022224998 -0.033293512 0 1 0 0
0.055206802 0.022225 -0.033321925 0 -1 0 0
0.06429895 0.022225 -0.033449668 0 -1 0 0
0.13193013 0.022225 -0.033473764 0 -1 0 0
0.15388313 0.022225 -0.033423074 0 -1 0 0
0.24908575 0.022225 -0.033293795 0 -1 0 0
0.2477209 0.025400002 -0.033444777 0 1 0 0
0.056326915 -0.0254 -0.033124689 0 -1 0 0
0.22042781 -0.025399998 -0.033240534 0 -1 0 0
0.24372281 -0.0254 -0.033154771 0 -1 0 0
0.25383431 -0.0254 -0.033135571 0 -1 0 0
0.18790804 -0.022225 -0.033001643 0 1 0 0
0.19972913 -0.022225 -0.033034325 0 1 0 0
0.0060037468 0.022225 -0.033193495 0 -1 0 0
0.17499217 0.022225 -0.033147909 0 -1 0 0
3.2097089e-17 0.024356155 -0.033060856 -1 2.6898181e-15 2.6898198e-15 0
0.23734197 -0.025399998 -0.032863446 0 -1 0 0
0.32707214 -0.0254 -0.032876588 0 -1 0 0
0.059617445 -0.022225 -0.032848462 0 1 0 0
0.17240258 -0.022225 -0.032885432 0 1 0 0
0.087028176 0.022225 -0.032859482 0 -1 0 0
0.1483852 0.022225 -0.032881029 0 -1 0 0
0.16289692 0.022225 -0.032979481 0 -1 0 0
0.24317193 0.025400002 -0.032832284 0 1 0 0
0.272214 0.025400002 -0.032847457 0 1 0 0
0.033279046 -0.025400002 -0.032593157 0 -1 0 0
0.04510437 -0.0254 -0.032660447 0 -1 0 0
0.2088221 -0.0254 -0.03270616 0 -1 0 0
0.21899121 -0.022225 -0.03255558 0 1 0 0
0.35178924 0.019861609 -0.032639027 -0.86491442 -0.50191927 7.8513722e-07 0
0.07124386 0.022225 -0.03261384 0 -1 0 0
0.13833533 0.022225 -0.03254373 0 -1 0 0
0.14656179 0.022225 -0.032511577 0 -1 0 0
0.20303135 0.022225 -0.032576595 0 -1 0 0
0.22223097 0.022225 -0.032577947 0 -1 0 0
0.015170391 0.0254 -0.032526173 0 1 0 0
0.093799323 0.025399998 -0.03263668 0 1 0 0
0.1230274 -0.025400002 -0.032399841 0 -1 0 0
0.2775898 -0.0254 -0.03231417 0 -1 0 0
0.027679648 -0.022225 -0.032279983 0 1 0 0
0.13206242 -0.022225 -0.032291185 0 1 0 0
0.13690709 -0.022225 -0.032494605 0 1 0 0
0.25365451 -0.022225 -0.032349203 0 1 0 0
0.3524377 0.0021636453 -0.032387074 -1 0 0 0
0.3524377 0.0098950872 -0.032448083 -1 0 0 0
0.031224024 0.022225 -0.032375589 0 -1 0 0
0.048917416 0.022225 -0.032325611 0 -1 0 0
0.049418513 0.022225 -0.032452822 0 -1 0 0
0.17235899 0.022225 -0.032455564 0 -1 0 0
0.035897542 0.0254 -0.032271665 0 1 0 0
0.14423981 0.025399998 -0.032392301 0 1 0 0
0.18060015 0.025400002 -0.032331612 0 1 0 0
0.18215555 0.025400002 -0.032347526 0 1 0 0
0.18446706 0.025400002 -0.03246443 0 1 0 0
0.28609368 0.0254 -0.032288339 0 1 0 0
0.068622917 -0.0254 -0.032050826 0 -1 0 0
0.19687855 -0.0254 -0.032072112 0 -1 0 0
0.2925407 -0.025399998 -0.032014702 0 -1 0 0
0.051830269 -0.022225 -0.032195196 0 1 0 0
0.1831076 -0.022225 -0.032133367 0 1 0 0
0.2030064 -0.022225 -0.03224149 0 1 0 0
0.33221558 -0.022225 -0.032103874 0 1 0 0
0.35243773 -0.00012882205 -0.032038376 -1 0 0 0
0.062056575 0.022225 -0.032211695 0 -1 0 0
0.08999797 0.022225 -0.032214001 0 -1 0 0
0.261213 0.022225 -0.032089986 0 -1 0 0
0.28816509 0.022225 -0.032038648 0 -1 0 0
0.29032347 0.022225 -0.032036912 0 -1 0 0
0.33331767 0.022225 -0.03201244 0 -1 0 0
0.093680054 0.0254 -0.032029077 0 1 0 0
0.13518769 0.025400002 -0.032155715 0 1 0 0
0.20537125 0.025399998 -0.032225046 0 1 0 0
0.32127911 0.0254 -0.03201637 0 1 0 0
0.15507433 -0.0254 -0.031879969 0 -1 0 0
0.21318537 -0.025399998 -0.031944077 0 -1 0 0
0.015685551 -0.022225 -0.031808004 0 1 0 0
0.039266892 -0.022225 -0.03189778 0 1 0 0
0.064393692 -0.022225 -0.031831644 0 1 0 0
0.078644358 -0.022225 -0.031944737 0 1 0 0
0.08630845 -0.022225 -0.031851649 0 1 0 0
0.15730353 -0.022225 -0.031877887 0 1 0 0
0.23679669 -0.022225 -0.031975664 0 1 0 0
0.27046391 -0.022225 -0.031807106 0 1 0 0
0.2819629 -0.022225 -0.031922888 0 1 0 0
0.027564652 0.025399998 -0.031856924 0 1 0 0
0.091454491 0.025399998 -0.031942718 0 1 0 0
0.15165949 0.025400002 -0.031967953 0 1 0 0
0.21476334 0.0254 -0.031751059 0 1 0 0
0.055342928 -0.0254 -0.031674713 0 -1 0 0
0.066337332 -0.0254 -0.031538982 0 -1 0 0
0.16167088 -0.025399998 -0.031730037 0 -1 0 0
0.012118302 -0.022225 -0.031659622 0 1 0 0
0.3524377 -0.017155046 -0.031554993 -1 0 0 0
0.3556127 -0.0001993617 -0.031621814 1 0 0 0
0.072945438 0.025400002 -0.031692557 0 1 0 0
0.16393696 0.025400002 -0.031610355 0 1 0 0
0.19143209 0.0254 -0.031601738 0 1 0 0
0.24467309 0.025399998 -0.031741727 0 1 0 0
0.084986962 -0.025399998 -0.031423613 0 -1 0 0
0.012926818 -0.022225 -0.031440955 0 1 0 0
0.15333766 -0.022225 -0.03132261 0 1 0 0
0.25523731 -0.022225 -0.031334206 0 1 0 0
0.3524377 -0.0026236339 -0.031447642 -1 0 0 0
0.10919149 0.022225 -0.03131564 0 -1 0 0
0.0046026548 0.0254 -0.031437557 0 1 0 0
0.17270678 0.025399998 -0.03144218 0 1 0 0
0.26866445 0.0254 -0.031377662 0 1 0 0
0.34469327 0.0254 -0.031454019 0 1 0 0
0.084930927 -0.0254 -0.031215778 0 -1 0 0
0.16829526 -0.0254 -0.031072563 0 -1 0 0
0.35161123 -0.025338756 -0.031236323 0.16076295 -0.98699307 0 0
0.22502525 -0.022225 -0.03107279 0 1 0 0
0.3491767 -0.021982074 -0.031152371 -0.3132675 0.94966495 0 0
0.3524377 0.0045383018 -0.031242881 -1 0 0 0
0.094089806 0.022225 -0.031052954 0 -1 0 0
0.023436965 0.025400002 -0.03116123 0 1 0 0
0.15920636 -0.0254 -0.030780731 0 -1 0 0
0.031654492 -0.022225 -0.030882318 0 1 0 0
0.11507551 -0.022225 -0.030850336 0 1 0 0
0.14171757 -0.022225 -0.030945789 0 1 0 0
0.17944646 0.022225 -0.030766699 0 -1 0 0
0.029779924 -0.025400002 -0.030532826 0 -1 0 0
0.13090847 -0.0254 -0.030672874 0 -1 0 0
0.34075677 -0.025399998 -0.030659914 0 -1 0 0
0.078981467 -0.022225 -0.030616147 0 1 0 0
0.18574423 -0.022225 -0.030749915 0 1 0 0
0.31101435 -0.022225 -0.030680725 0 1 0 0
0.3556127 -0.00520895 -0.030664351 1 0 0 0
0.31089777 0.022225 -0.030523049 0 -1 0 0
0.32799166 0.022225 -0.030608999 0 -1 0 0
0.34556752 0.022225 -0.030740025 0 -1 0 0
0.0045431517 0.025399998 -0.030541779 0 1 0 0
0.028025864 0.025399998 -0.030698333 0 1 0 0
0.046969209 -0.0254 -0.030408151 0 -1 0 0
0.15747041 -0.0254 -0.030464252 0 -1 0 0
0.041884784 -0.022225 -0.030397044 0 1 0 0
0.3524377 -0.013211474 -0.030358678 -1 0 0 0
0.019635387 0.022225 -0.030468883 0 -1 0 0
0.28650665 0.022225 -0.030491242 0 -1 0 0
0.056702029 0.0254 -0.030350622 0 1 0 0
0.012507096 -0.022225 -0.030244546 0 1 0 0
0.11761133 -0.022225 -0.030111879 0 1 0 0
0.19336486 -0.022225002 -0.030169724 0 1 0 0
0.21939273 -0.022225 -0.030193176 0 1 0 0
0.25287473 -0.022225 -0.030148998 0 1 0 0
0.26943967 0.022225 -0.030023858 0 -1 0 0
0.19572803 0.025400002 -0.030034438 0 1 0 0
0.29926518 0.0254 -0.030114636 0 1 0 0
0.31787145 0.0254 -0.03020435 0 1 0 0
0.091978543 -0.0254 -0.029930998 0 -1 0 0
0.13021024 -0.0254 -0.029879155 0 -1 0 0
0.17681301 -0.022225 -0.029877599 0 1 0 0
0.26933131 -0.022225 -0.029797342 0 1 0 0
0.12349409 0.022225 -0.029763948 0 -1 0 0
0.12541415 0.022225 -0.029961493 0 -1 0 0
0.14178675 0.022225 -0.02988584 0 -1 0 0
0.24938503 0.022225 -0.029826004 0 -1 0 0
0.3122541 0.022225 -0.029758422 0 -1 0 0
0.14230171 -0.0254 -0.02960192 0 -1 0 0
0.30139941 -0.025400002 -0.029633842 0 -1 0 0
0.10995834 -0.022225 -0.029522296 0 1 0 0
0.18277512 -0.022225 -0.029742347 0 1 0 0
0.20080459 -0.022225 -0.029513638 0 1 0 0
0.35243767 0.015272439 -0.029695295 -1 0 0 0
0.33280429 0.022225 -0.029662881 0 -1 0 0
0.041048311 0.0254 -0.02953312 0 1 0 0
0.17088813 0.0254 -0.029610362 0 1 0 0
0.30912772 0.0254 -0.029707702 0 1 0 0
0.061857853 -0.0254 -0.02941929 0 -1 0 0
0.22673449 -0.0254 -0.029427156 0 -1 0 0
0.12370808 -0.022225 -0.029492615 0 1 0 0
0.26399058 -0.022225 -0.029404119 0 1 0 0
0.28061339 -0.022225 -0.029464513 0 1 0 0
0.29036149 -0.022225 -0.029381394 0 1 0 0
0.33695054 -0.022225 -0.029470205 0 1 0 0
0.35243773 0.002932176 -0.029356491 -1 0 0 0
0.19754575 0.022225 -0.029336199 0 -1 0 0
0.20836878 0.022225 -0.029270425 0 -1 0 0
0.25138932 0.022225 -0.029498994 0 -1 0 0
0.15674385 0.0254 -0.029355934 0 1 0 0
0.20361511 0.025399998 -0.029370042 0 1 0 0
0.27213374 0.0254 -0.029290451 0 1 0 0
0.3554922 0.021701844 -0.029048545 0.97466236 0.22368123 0 0
0.24871549 0.022225 -0.029204655 0 -1 0 0
0.18375145 0.0254 -0.029127255 0 1 0 0
0.040490169 -0.025399998 -0.028964106 0 -1 0 0
0.19265398 -0.025400002 -0.028894903 0 -1 0 0
0.013774882 -0.022225 -0.028847151 0 1 0 0
0.14520854 -0.022225 -0.028818412 0 1 0 0
0.1688336 -0.022225 -0.028838011 0 1 0 0
0.27860394 -0.022225 -0.028897548 0 1 0 0
0.030665096 0.0254 -0.028855518 0 1 0 0
0.053916059 0.0254 -0.028837588 0 1 0 0
0.23564251 0.0254 -0.028986352 0 1 0 0
0.34526771 0.0254 -0.028781399 0 1 0 0
0.12240979 -0.0254 -0.028731111 0 -1 0 0
0.13537276 -0.0254 -0.028603839 0 -1 0 0
0.058864772 -0.022225 -0.028708737 0 1 0 0
0.059476048 -0.022225 -0.02870775 0 1 0 0
0.3268697 -0.022225 -0.028550385 0 1 0 0
0.049266692 0.022225 -0.028566793 0 -1 0 0
0.10070179 0.022225 -0.028593237 0 -1 0 0
0.25156474 0.022225 -0.028534181 0 -1 0 0
0.28016496 0.0254 -0.028640265 0 1 0 0
0.35143673 0.025363717 -0.028527653 0.12615168 0.99201095 0 0
0.01017883 -0.025400002 -0.028309591 0 -1 0 0
0.14877056 -0.0254 -0.028373634 0 -1 0 0
0.22516498 -0.0254 -0.028321929 0 -1 0 0
0.26736319 -0.025400002 -0.028363824 0 -1 0 0
0.26194704 -0.022225 -0.028254841 0 1 0 0
0.3524377 0.010288743 -0.028458286 -1 0 0 0
0.0092079183 0.022225 -0.02838167 0 -1 0 0
0.043814424 0.022225 -0.028476935 0 -1 0 0
0.2571575 0.022225 -0.02849062 0 -1 0 0
0.28677592 0.022225 -0.028384991 0 -1 0 0
0.086843751 0.0254 -0.028421136 0 1 0 0
0.2304568 0.0254 -0.028352574 0 1 0 0
0.24190597 0.025399998 -0.028314374 0 1 0 0
0.27089128 0.025400002 -0.028385896 0 1 0 0
0.32534367 0.025400002 -0.028447792 0 1 0 0
0.13501889 -0.0254 -0.028229596 0 -1 0 0
0.20409247 -0.025400002 -0.028110107 0 -1 0 0
0.22076842 -0.0254 -0.028137742 0 -1 0 0
0.2260966 -0.025400002 -0.028208166 0 -1 0 0
0.28401518 -0.025400002 -0.028116452 0 -1 0 0
0.066842601 -0.022225 -0.028210441 0 1 0 0
0.30586272 -0.022225 -0.028231861 0 1 0 0
0.16395307 0.022225 -0.028225962 0 -1 0 0
0.1192802 0.0254 -0.028127402 0 1 0 0
0.3394531 0.0254 -0.028036119 0 1 0 0
0.23300113 -0.025400002 -0.027951349 0 -1 0 0
0.26694986 -0.0254 -0.027849816 0 -1 0 0
0.039578419 -0.022225 -0.027946711 0 1 0 0
0.18760626 -0.022225 -0.027804518 0 1 0 0
0.3556127 0.019868266 -0.027854877 1 0 0 0
0.33866739 0.022225 -0.027801437 0 -1 0 0
0.15014294 0.0254 -0.027939638 0 1 0 0
0.34698579 0.025399998 -0.027821362 0 1 0 0
0.32576194 -0.0254 -0.027638761 0 -1 0 0
0.35253245 -0.025092948 -0.027583167 0.35434347 -0.93511534 0 0
0.087823942 -0.022225 -0.027572025 0 1 0 0
0.3474749 -0.022225 -0.027582344 0 1 0 0
0.3556127 -0.0098237637 -0.027585007 1 0 0 0
0.18500251 0.022225 -0.027663343 0 -1 0 0
0.17092332 0.0254 -0.027712815 0 1 0 0
0.20592414 0.0254 -0.027712416 0 1 0 0
0.056766521 -0.025400002 -0.027326752 0 -1 0 0
0.19366239 0.022225 -0.027290707 0 -1 0 0
0.29675326 0.022225 -0.02740773 0 -1 0 0
0.097574785 0.0254 -0.027420839 0 1 0 0
0.27376828 0.0254 -0.027488088 0 1 0 0
0.005487524 -0.0254 -0.027110748 0 -1 0 0
0.21068135 -0.0254 -0.027220078 0 -1 0 0
0.32774991 -0.025400002 -0.027158907 0 -1 0 0
0.35424975 -0.023972865 -0.027163178 0.71526569 -0.69885266 0 0
0.044372212 -0.022225 -0.027150981 0 1 0 0
0.19562747 -0.022225 -0.027094236 0 1 0 0
0.22774321 -0.022225 -0.02719162 0 1 0 0
0.28150913 -0.022225 -0.027065095 0 1 0 0
0.32329223 0.022225 -0.027097339 0 -1 0 0
0.032021072 0.0254 -0.027090037 0 1 0 0
0.034415741 0.0254 -0.027018884 0 1 0 0
0.26218754 0.025399998 -0.027172841 0 1 0 0
0.27757737 -0.025400002 -0.026754089 0 -1 0 0
0.30466276 -0.025399998 -0.026863409 0 -1 0 0
0.31677541 -0.025399998 -0.026999677 0 -1 0 0
0.22043058 -0.022225 -0.026971178 0 1 0 0
0.24021971 -0.022225 -0.026971448 0 1 0 0
0.35130233 0.020548813 -0.026850663 -0.76159209 -0.64805675 0 0
0.055141263 0.022225 -0.0269612 0 -1 0 0
0.13179551 0.022225 -0.026829796 0 -1 0 0
0.20943141 0.022225 -0.026798245 0 -1 0 0
0.33679375 0.022225 -0.026774805 0 -1 0 0
0.10660581 0.0254 -0.026939169 0 1 0 0
0.23448206 0.0254 -0.026889689 0 1 0 0
0.14953953 -0.0254 -0.026623195 0 -1 0 0
0.0095441611 -0.022225 -0.026637269 0 1 0 0
0.18475622 0.022225 -0.026579155 0 -1 0 0
0.19129166 0.022225 -0.026645552 0 -1 0 0
0.060274914 0.025399998 -0.026667774 0 1 0 0
0.20656408 0.0254 -0.026636451 0 1 0 0
0.046145819 -0.022225 -0.026409401 0 1 0 0
0.13859385 -0.022225 -0.026333133 0 1 0 0
0.24670073 -0.022225 -0.026383722 0 1 0 0
0.26426485 -0.022225 -0.026483083 0 1 0 0
0.28577283 -0.022225 -0.026417263 0 1 0 0
0.2278697 0.022225 -0.026472531 0 -1 0 0
0.18792184 0.0254 -0.026327496 0 1 0 0
0.32701081 0.025399998 -0.026445581 0 1 0 0
0.067409404 -0.025400002 -0.026159752 0 -1 0 0
0.211154 -0.022225 -0.026175458 0 1 0 0
0.23735248 -0.022225 -0.026208244 0 1 0 0
0.26571622 -0.022225 -0.026155414 0 1 0 0
0.1574214 0.022225 -0.026158329 0 -1 0 0
0.20636821 0.022225 -0.026119448 0 -1 0 0
0.26477608 0.022225 -0.026094798 0 -1 0 0
0.0396781 0.0254 -0.02607562 0 1 0 0
0.30046779 -0.025400002 -0.025812954 0 -1 0 0
0.33093703 -0.0254 -0.025840763 0 -1 0 0
7.3640085e-17 -0.024871577 -0.025798742 -1 3.2277837e-14 -2.6898198e-15 0
0.11536875 -0.022225 -0.025996016 0 1 0 0
0.2016007 -0.022225 -0.025863778 0 1 0 0
0.3556127 0.0084048826 -0.025867458 1 0 0 0
0.075434282 0.022225 -0.025979664 0 -1 0 0
0.11001863 0.022225 -0.025842298 0 -1 0 0
0.17239422 0.022225 -0.025827406 0 -1 0 0
0.02978473 0.0254 -0.025983045 0 1 0 0
0.18491796 0.0254 -0.025812248 0 1 0 0
0.19941314 0.025399998 -0.025810776 0 1 0 0
0.31655914 0.0254 -0.025787717 0 1 0 0
0.10330601 -0.022225 -0.02554526 0 1 0 0
0.13672079 0.022225 -0.025561631 0 -1 0 0
0.21996491 0.022225 -0.025510376 0 -1 0 0
0.28350037 0.022225 -0.025684815 0 -1 0 0
0.29479319 0.022225 -0.025519745 0 -1 0 0
0.33305272 0.022225 -0.025742328 0 -1 0 0
0.15248594 0.0254 -0.025618769 0 1 0 0
0.013433684 -0.0254 -0.025494389 0 -1 0 0
0.042054705 -0.0254 -0.025337735 0 -1 0 0
0.22538507 -0.0254 -0.02536221 0 -1 0 0
0.066078223 -0.022225 -0.025283746 0 1 0 0
0.29309866 -0.022225 -0.025380816 0 1 0 0
0.34745973 -0.022225 -0.025384745 0 1 0 0
0.3524377 0.005066202 -0.02544775 -1 0 0 0
0.13999915 0.022225 -0.025488455 0 -1 0 0
0.22753315 0.022225 -0.025343647 0 -1 0 0
0.24668974 0.022225 -0.025367931 0 -1 0 0
0.35526139 0.022432711 -0.025323775 0.92617238 0.37710047 0 0
0.21094306 0.0254 -0.02531941 0 1 0 0
0.30121607 0.0254 -0.025458969 0 1 0 0
0.30850023 0.0254 -0.025401045 0 1 0 0
0.32367018 0.025399998 -0.025269533 0 1 0 0
0.21416751 -0.022225 -0.025080554 0 1 0 0
0.053816531 0.022225 -0.025078543 0 -1 0 0
0.10234296 0.022225 -0.025011284 0 -1 0 0
0.31385791 0.022225 -0.025068976 0 -1 0 0
0.085706323 0.025400002 -0.025182536 0 1 0 0
0.14860037 0.025399998 -0.025131159 0 1 0 0
0.17118944 0.0254 -0.025114167 0 1 0 0
0.15244098 -0.0254 -0.024937669 0 -1 0 0
0.21619037 -0.0254 -0.024839573 0 -1 0 0
0.087151349 -0.022225 -0.024851982 0 1 0 0
0.090228669 -0.022225 -0.024887975 0 1 0 0
0.18547854 -0.022225 -0.024811978 0 1 0 0
0.22854179 -0.022225 -0.024819911 0 1 0 0
0.1050317 0.022225 -0.024879079 0 -1 0 0
0.17507575 0.022225 -0.024954755 0 -1 0 0
0.2135973 0.022225 -0.024842054 0 -1 0 0
0.30557096 0.022225 -0.024914345 0 -1 0 0
0.045681499 0.0254 -0.024928421 0 1 0 0
0.14560631 0.025400002 -0.024751183 0 1 0 0
0.037852693 -0.0254 -0.02466877 0 -1 0 0
0.25930959 -0.025399998 -0.024746628 0 -1 0 0
0.28647617 -0.0254 -0.0245117 0 -1 0 0
0.0048016142 -0.022225 -0.024530165 0 1 0 0
0.11100502 -0.022225 -0.02470134 0 1 0 0
0.15982169 -0.022225 -0.02456424 0 1 0 0
0.12664732 0.022225 -0.024641458 0 -1 0 0
0.14693338 0.022225 -0.02471669 0 -1 0 0
0.16508816 0.022225 -0.02460796 0 -1 0 0
0.21204752 0.022225 -0.024639508 0 -1 0 0
0.12823367 -0.0254 -0.024433823 0 -1 0 0
0.083646387 -0.022225 -0.024456661 0 1 0 0
0.2486175 -0.022225 -0.024305597 0 1 0 0
0.3524377 -0.0046087164 -0.024267549 -1 0 0 0
0.11945695 0.022225 -0.02442096 0 -1 0 0
0.12453694 0.022225 -0.024454286 0 -1 0 0
0.1272573 0.022225 -0.024383921 0 -1 0 0
0.14727291 0.022225 -0.024260968 0 -1 0 0
0.18895629 0.022225 -0.024403343 0 -1 0 0
0.19228628 0.0254 -0.024320008 0 1 0 0
0.11207215 -0.0254 -0.024242163 0 -1 0 0
0.19433859 -0.025399998 -0.02417573 0 -1 0 0
0.056252778 -0.022225 -0.024094772 0 1 0 0
0.06408564 -0.022225 -0.024184823 0 1 0 0
0.11398638 0.022225 -0.024002569 0 -1 0 0
0.12595916 0.022225 -0.024005834 0 -1 0 0
0.17319357 0.022225 -0.024097702 0 -1 0 0
0.17433889 0.022225 -0.024035083 0 -1 0 0
0.024233351 0.025399998 -0.024098875 0 1 0 0
0.25825524 0.0254 -0.024196932 0 1 0 0
0.027552567 -0.0254 -0.023999369 0 -1 0 0
0.29973835 -0.0254 -0.023817619 0 -1 0 0
0.12314698 -0.022225 -0.023965407 0 1 0 0
0.22925046 -0.022225 -0.023811795 0 1 0 0
0.34109852 -0.022225 -0.023996804 0 1 0 0
0.3556127 0.0099185295 -0.023789745 1 0 0 0
0.16342872 0.022225 -0.023772728 0 -1 0 0
0.17536047 0.022225 -0.023983743 0 -1 0 0
0.19660684 0.022225 -0.023767639 0 -1 0 0
0.26735684 0.022225 -0.023882072 0 -1 0 0
0.27530795 0.022225 -0.023824882 0 -1 0 0
5.5403935e-17 0.02388712 -0.023926981 -1 2.6898181e-15 2.6898198e-15 0
0.19812416 0.025400002 -0.02377465 0 1 0 0
0.23751284 0.025400002 -0.023959223 0 1 0 0
0.030971685 -0.0254 -0.023596684 0 -1 0 0
0.3028819 -0.0254 -0.023566831 0 -1 0 0
0.31889844 0.022225 -0.023655187 0 -1 0 0
0.033651903 0.0254 -0.023588113 0 1 0 0
0.087468095 0.025400002 -0.023595516 0 1 0 0
0.18868555 0.0254 -0.023601664 0 1 0 0
0.20960429 0.0254 -0.023617221 0 1 0 0
0.29889128 0.0254 -0.02363617 0 1 0 0
0.30836126 0.025400002 -0.023539899 0 1 0 0
0.31415156 -0.0254 -0.023463447 0 -1 0 0
0.32244092 -0.025399998 -0.023335665 0 -1 0 0
0.066802919 -0.022225 -0.023390302 0 1 0 0
0.18822527 -0.022225 -0.023392526 0 1 0 0
0.19583452 -0.022225 -0.023335058 0 1 0 0
0.29760101 -0.022225 -0.023483543 0 1 0 0
0.35243767 -0.00052112737 -0.023416894 -1 0 0 0
0.3524377 0.0092530083 -0.023459859 -1 0 0 0
0.18209094 0.022225 -0.02330932 0 -1 0 0
0.31456244 0.022225 -0.02331779 0 -1 0 0
0.13174126 0.025399998 -0.023479659 0 1 0 0
0.22582042 0.025399998 -0.023471043 0 1 0 0
0.33028653 0.025400002 -0.023357339 0 1 0 0
0.024838723 -0.0254 -0.023200257 0 -1 0 0
0.082348414 -0.0254 -0.023071812 0 -1 0 0
0.13297234 -0.025399998 -0.023008334 0 -1 0 0
0.073091522 -0.022225 -0.023242043 0 1 0 0
0.11720205 -0.022225 -0.023116549 0 1 0 0
0.27958715 -0.022225 -0.023223776 0 1 0 0
0.18504246 0.022225 -0.023009807 0 -1 0 0
0.20524976 0.022225 -0.023064945 0 -1 0 0
0.24787229 0.022225 -0.023236223 0 -1 0 0
0.33186722 0.022225 -0.02303474 0 -1 0 0
0.33034277 0.0254 -0.023069682 0 1 0 0
0.3395586 0.0254 -0.023008347 0 1 0 0
0.037785459 -0.0254 -0.02296681 0 -1 0 0
0.1787698 -0.025399998 -0.022937426 0 -1 0 0
0.31371772 -0.025400002 -0.022960411 0 -1 0 0
0.16571403 -0.022225 -0.022794332 0 1 0 0
0.20687976 -0.022225 -0.022911735 0 1 0 0
0.32432488 -0.022225 -0.022924803 0 1 0 0
0.3556127 -0.017484605 -0.022827217 1 0 0 0
0.13594826 0.022225 -0.022916863 0 -1 0 0
0.2264522 0.022225 -0.022796031 0 -1 0 0
0.14712352 0.025400002 -0.022940114 0 1 0 0
0.29973266 0.025399998 -0.022807153 0 1 0 0
0.021935927 -0.0254 -0.022681041 0 -1 0 0
0.06756027 -0.0254 -0.022593487 0 -1 0 0
0.15046415 -0.022225 -0.022548838 0 1 0 0
0.20790671 -0.022225 -0.022516564 0 1 0 0
0.27961338 -0.022225 -0.022691658 0 1 0 0
0.3524377 -0.015326219 -0.022719139 -1 0 0 0
0.3556127 0.0061118519 -0.022736343 1 0 0 0
0.056256279 0.022225 -0.022599904 0 -1 0 0
0.24501523 0.022225 -0.022736106 0 -1 0 0
0.20527986 0.0254 -0.022504885 0 1 0 0
0.018823197 -0.0254 -0.022291208 0 -1 0 0
0.16000158 -0.0254 -0.022266375 0 -1 0 0
0.35439655 -0.023816276 -0.022286024 0.74495047 -0.6671198 0 0
0.10310174 -0.022225 -0.022392156 0 1 0 0
0.08193329 0.022225 -0.022445666 0 -1 0 0
0.16311534 0.0254 -0.022276111 0 1 0 0
0.33523253 0.0254 -0.022490108 0 1 0 0
0.20943324 -0.025399998 -0.022107964 0 -1 0 0
0.24333283 -0.025400002 -0.022138845 0 -1 0 0
0.3032575 -0.0254 -0.022209443 0 -1 0 0
0.040756129 -0.022225 -0.02213845 0 1 0 0
0.074730374 -0.022225 -0.022099271 0 1 0 0
0.099255778 -0.022225 -0.022048607 0 1 0 0
0.13631505 -0.022225 -0.022144508 0 1 0 0
0.18345386 -0.022225 -0.022212476 0 1 0 0
0.29283115 -0.022225 -0.022033807 0 1 0 0
0.02082446 0.022225 -0.022051776 0 -1 0 0
0.035870977 0.022225 -0.022221595 0 -1 0 0
0.34135237 0.022225 -0.022106605 0 -1 0 0
0.15965715 0.025399998 -0.022233905 0 1 0 0
0.19748969 0.0254 -0.022084441 0 1 0 0
0.27594301 0.025399998 -0.022242183 0 1 0 0
0.31041771 0.025400002 -0.022148252 0 1 0 0
0.32487005 0.0254 -0.022029843 0 1 0 0
0.045465928 -0.0254 -0.021826807 0 -1 0 0
0.29165584 -0.0254 -0.021823641 0 -1 0 0
0.33115262 -0.025399998 -0.021935822 0 -1 0 0
0.19034652 -0.022225 -0.021835435 0 1 0 0
0.256504 -0.022225 -0.021929534 0 1 0 0
0.037106145 0.022225 -0.021860903 0 -1 0 0
0.043906372 0.022225 -0.021930112 0 -1 0 0
0.0034890778 0.0254 -0.021933397 0 1 0 0
0.060182951 0.025399998 -0.021920331 0 1 0 0
0.088562198 0.0254 -0.021754591 0 1 0 0
0.33042997 0.0254 -0.021843873 0 1 0 0
0.1083394 -0.025400002 -0.021523111 0 -1 0 0
0.07576175 -0.022225 -0.021529065 0 1 0 0
0.23336871 -0.022225 -0.021704551 0 1 0 0
0.3524377 -0.0093487538 -0.021503957 -1 0 0 0
0.09696909 0.022225 -0.021561928 0 -1 0 0
0.14136903 0.022225 -0.021607056 0 -1 0 0
0.32933015 0.022225 -0.021730058 0 -1 0 0
0.13318072 -0.022225 -0.021368038 0 1 0 0
0.3556127 -0.0018902877 -0.021474559 1 0 0 0
0.3556127 0.0096445624 -0.021354999 1 0 0 0
0.018223623 0.022225 -0.021310039 0 -1 0 0
0.17098245 0.022225 -0.021276714 0 -1 0 0
0.35329446 0.024724877 -0.021279691 0.51111835 0.85951036 0 0
0.11479713 0.0254 -0.021272436 0 1 0 0
0.14426287 0.0254 -0.021299232 0 1 0 0
0.23992264 0.0254 -0.021281747 0 1 0 0
0.048291512 -0.025400002 -0.021229155 0 -1 0 0
0.061443564 -0.0254 -0.021041172 0 -1 0 0
0.21302 -0.025399998 -0.021113854 0 -1 0 0
0.24928582 -0.025399998 -0.021175474 0 -1 0 0
0.33845428 -0.025400002 -0.021148708 0 -1 0 0
0.23402187 -0.022225 -0.021167975 0 1 0 0
0.28434753 -0.022225 -0.021125093 0 1 0 0
0.15401441 0.022225 -0.021232588 0 -1 0 0
0.16317864 0.022225 -0.021225981 0 -1 0 0
0.18696994 0.022225 -0.021184901 0 -1 0 0
0.10185235 0.025399998 -0.021146201 0 1 0 0
0.15899867 0.0254 -0.021091878 0 1 0 0
0.2924903 0.025399998 -0.021075914 0 1 0 0
0.31268013 0.025399998 -0.021119691 0 1 0 0
0.19007398 -0.0254 -0.020938165 0 -1 0 0
0.033678651 -0.022225 -0.020778036 0 1 0 0
0.17142262 -0.022225 -0.02084347 0 1 0 0
0.24182673 -0.022225 -0.020868141 0 1 0 0
0.3386834 -0.022225 -0.020897105 0 1 0 0
0.3524377 -0.012273089 -0.0208604 -1 0 0 0
0.3556127 -0.0024546548 -0.020878041 1 0 0 0
0.29095918 0.022225 -0.020818446 0 -1 0 0
0.024610318 0.0254 -0.020845337 0 1 0 0
0.090169296 0.025400002 -0.020798482 0 1 0 0
0.13382009 0.025400002 -0.020824105 0 1 0 0
0.15564598 0.0254 -0.020809894 0 1 0 0
0.27388811 0.0254 -0.020911919 0 1 0 0
0.34836656 0.025399998 -0.020875772 0 1 0 0
0.0070259725 -0.0254 -0.02072276 0 -1 0 0
0.33427331 -0.025400002 -0.020737879 0 -1 0 0
0.28535026 0.022225 -0.020571163 0 -1 0 0
0.35505393 0.022875777 -0.020719156 0.88173699 0.47174138 0 0
0.12726462 0.0254 -0.020748449 0 1 0 0
0.16361725 0.025400002 -0.020604631 0 1 0 0
0.17154384 0.025400002 -0.020580078 0 1 0 0
0.33798972 0.0254 -0.020711247 0 1 0 0
0.0022096445 -0.025400002 -0.020358168 0 -1 0 0
0.16218157 -0.0254 -0.020366196 0 -1 0 0
0.21096358 -0.025399998 -0.020382235 0 -1 0 0
0.23273568 -0.0254 -0.020443054 0 -1 0 0
0.14320061 -0.022225 -0.020439949 0 1 0 0
0.24323514 -0.022225 -0.020428678 0 1 0 0
0.03515321 0.022225 -0.020391233 0 -1 0 0
0.050815046 0.022225 -0.020270525 0 -1 0 0
0.13921642 0.022225 -0.020337241 0 -1 0 0
0.30153733 0.022224998 -0.020385081 0 -1 0 0
0.15444402 0.0254 -0.02041151 0 1 0 0
0.28333062 0.0254 -0.020470683 0 1 0 0
0.29498807 0.0254 -0.020290431 0 1 0 0
0.0068012071 -0.0254 -0.020235345 0 -1 0 0
0.070339434 -0.025399998 -0.020246916 0 -1 0 0
0.18615799 -0.025399998 -0.020046236 0 -1 0 0
0.27836227 -0.025400002 -0.02018515 0 -1 0 0
0.01703492 -0.022225 -0.020202544 0 1 0 0
0.059628155 -0.022225 -0.020233558 0 1 0 0
0.18076888 -0.022225 -0.020087622 0 1 0 0
0.3524377 -0.010460427 -0.020021982 -1 0 0 0
0.3556127 -0.0064373105 -0.020181622 1 0 0 0
0.35243767 -0.0016132575 -0.020037267 -1 0 0 0
0.3524377 0.016626565 -0.020135028 -1 0 0 0
0.16683985 0.022225 -0.020143718 0 -1 0 0
0.1778969 0.022225 -0.020142298 0 -1 0 0
0.057725511 0.025400002 -0.020122454 0 1 0 0
0.18447489 0.025400002 -0.020036422 0 1 0 0
0.034801569 -0.025399998 -0.019766172 0 -1 0 0
0.037052508 -0.025399998 -0.019987723 0 -1 0 0
0.046824429 -0.0254 -0.01988674 0 -1 0 0
0.061650414 -0.025400002 -0.019985659 0 -1 0 0
0.14126858 -0.025400002 -0.019801574 0 -1 0 0
0.14641067 -0.025400002 -0.019891653 0 -1 0 0
0.18909997 -0.025400002 -0.01992703 0 -1 0 0
0.32739043 -0.022225 -0.01983868 0 1 0 0
0.3556127 -0.018614793 -0.019766359 1 0 0 0
0.13688114 0.0254 -0.019781582 0 1 0 0
0.14728446 0.025399998 -0.019935008 0 1 0 0
0.1592098 0.0254 -0.01992052 0 1 0 0
0.16050035 0.025399998 -0.01992216 0 1 0 0
0.30001208 0.025400002 -0.01996842 0 1 0 0
0.3437776 0.0254 -0.019851265 0 1 0 0
0.02194041 -0.0254 -0.019610329 0 -1 0 0
0.16493034 -0.0254 -0.019600065 0 -1 0 0
0.24055579 -0.022225 -0.019723432 0 1 0 0
0.35243773 0.0056834789 -0.019589882 -1 0 0 0
0.092578344 0.022225 -0.019683581 0 -1 0 0
0.1198597 0.022225 -0.01968402 0 -1 0 0
0.062835351 0.025400002 -0.019740231 0 1 0 0
0.13148004 0.0254 -0.019720407 0 1 0 0
0.17671612 0.025399998 -0.019555425 0 1 0 0
0.22958687 0.025400002 -0.019549949 0 1 0 0
0.23523815 0.025400002 -0.019624734 0 1 0 0
0.16365166 -0.0254 -0.019497732 0 -1 0 0
0.29197922 -0.025400002 -0.019368518 0 -1 0 0
0.041625187 -0.022225 -0.01926434 0 1 0 0
0.23769508 -0.022225 -0.019385386 0 1 0 0
0.35060346 -0.021218339 -0.019269822 -0.61243725 0.79051924 0 0
0.3524377 -0.0099639595 -0.019432813 -1 0 0 0
0.025321249 0.022225 -0.0194901 0 -1 0 0
0.13504998 0.0254 -0.019346692 0 1 0 0
0.14614412 0.025399998 -0.01927801 0 1 0 0
0.19245362 0.0254 -0.019490618 0 1 0 0
0.14791562 -0.0254 -0.019068871 0 -1 0 0
0.16763531 -0.0254 -0.019014863 0 -1 0 0
0.17082712 -0.0254 -0.019177629 0 -1 0 0
0.29132858 -0.025400002 -0.019172309 0 -1 0 0
0.35363042 -0.024504185 -0.019132435 0.58416784 -0.81163293 0 0
0.14462355 -0.022225 -0.019128524 0 1 0 0
0.15539077 -0.022225 -0.019149439 0 1 0 0
0.18256645 0.022225 -0.019097956 0 -1 0 0
0.0046241339 0.025400002 -0.019128175 0 1 0 0
0.016853219 0.0254 -0.019074026 0 1 0 0
0.056117419 0.025399998 -0.019040652 0 1 0 0
0.23841503 0.0254 -0.019143939 0 1 0 0
0.20070939 -0.025399998 -0.018811438 0 -1 0 0
0.055298306 -0.022225 -0.018955132 0 1 0 0
0.081599422 -0.022225 -0.01880667 0 1 0 0
0.26757216 -0.022225 -0.018769694 0 1 0 0
0.32216698 -0.022225 -0.018830623 0 1 0 0
0.22156684 0.022225 -0.018965214 0 -1 0 0
0.041249409 0.0254 -0.01898131 0 1 0 0
0.087310165 0.025399998 -0.018867534 0 1 0 0
0.065940328 -0.0254 -0.018707396 0 -1 0 0
0.10954376 -0.0254 -0.018603342 0 -1 0 0
0.25299206 -0.025399998 -0.018616777 0 -1 0 0
0.12553267 -0.022225 -0.018624112 0 1 0 0
0.14025052 -0.022225 -0.018563827 0 1 0 0
0.26168367 -0.022225 -0.018705087 0 1 0 0
0.022926755 0.022225 -0.018696442 0 -1 0 0
0.056785408 0.022225 -0.018622231 0 -1 0 0
0.16347231 0.0254 -0.01859517 0 1 0 0
0.17887755 0.0254 -0.0185604 0 1 0 0
0.26800159 0.0254 -0.018541371 0 1 0 0
0.32118437 0.0254 -0.018713985 0 1 0 0
0.34174603 0.025399998 -0.018640203 0 1 0 0
0.11563323 -0.0254 -0.018430814 0 -1 0 0
0.20704994 -0.025400002 -0.018392254 0 -1 0 0
0.19035158 -0.022225 -0.018293684 0 1 0 0
0.20061305 -0.022225 -0.018325664 0 1 0 0
0.3556127 -0.0024341214 -0.018329971 1 0 0 0
0.3556127 0.018003771 -0.018489214 1 0 0 0
0.31229594 0.022225002 -0.018345963 0 -1 0 0
0.21315251 0.0254 -0.018251294 0 1 0 0
0.21863995 0.025399998 -0.018448634 0 1 0 0
0.27275431 0.025400002 -0.018344266 0 1 0 0
0.052896615 -0.025400002 -0.018216331 0 -1 0 0
0.27460462 -0.025399998 -0.018027833 0 -1 0 0
0.074322768 -0.022225 -0.018241018 0 1 0 0
0.20844495 -0.022225 -0.018064547 0 1 0 0
0.33544087 -0.022225 -0.018211422 0 1 0 0
0.34210098 0.022225 -0.0180372 0 -1 0 0
0.018716117 0.025400002 -0.018190235 0 1 0 0
0.11225855 0.025400002 -0.018017223 0 1 0 0
0.22389589 0.0254 -0.018074423 0 1 0 0
0.11478008 -0.025400002 -0.01799926 0 -1 0 0
0.23654534 -0.0254 -0.017888885 0 -1 0 0
0.23851907 -0.0254 -0.017956521 0 -1 0 0
0.24887653 0.022225 -0.017754946 0 -1 0 0
0.21709329 -0.0254 -0.0175384 0 -1 0 0
0.32050222 -0.025400002 -0.017662734 0 -1 0 0
