# .PCD v0.7 - Point Cloud Data file format
VERSION 0.7
FIELDS x y z normal_x normal_y normal_z curvature
SIZE 4 4 4 4 4 4 4
TYPE F F F F F F F
COUNT 1 1 1 1 1 1 1
WIDTH 1153
HEIGHT 1
VIEWPOINT 0 0 0 1 0 0 0
POINTS 1153
DATA ascii
0.10414961 0.018960442 0.012700001 0 0 -1 0
0.035439864 0.019249002 0.0127 0 0 1 0
0.107965 0.019203365 0.0127 0 0 -1 0
0.0127 0.019257369 0.012513798 1 0 0 0
0.092882521 0.019447608 0.012700001 0 0 -1 0
0.10622077 0.019310709 0.0127 0 0 -1 0
0.085253954 0.0201599 0.012700001 0 0 -1 0
0.069422029 0.020742202 0.0127 0 0 -1 0
0.059874289 0.021660216 0.012699999 0 0 -1 0
0.031219419 0.022140052 0.0127 0 0 1 0
0.030218799 0.022973605 0.0127 0 0 1 0
0.034748543 0.022902384 0.0127 0 0 1 0
0.058972456 0.023240577 0.0127 0 0 -1 0
0.036959808 0.023491781 0.012688305 0.51129335 0.85940623 0 0
0.095053345 0.023349898 0.0127 0 0 -1 0
0.099760987 0.023444945 0.012700001 0 0 -1 0
0.050047375 0.024156664 0.0127 0 0 -1 0
0.064177148 0.024827631 0.0127 0 0 -1 0
0.06748265 0.024986101 0.012700001 0 0 -1 0
0.11164162 0.024925295 0.0127 0 0 -1 0
0.030345056 0.025765155 0.0127 0 0 1 0
0.11113423 0.025913298 0.012699999 0 0 -1 0
0.047375508 0.026147289 0.0127 0 0 -1 0
0.060319461 0.026091129 0.0127 0 0 -1 0
0.050020229 0.026888628 0.0127 0 0 -1 0
0.091928482 0.02675282 0.0127 0 0 -1 0
0.10324334 0.027133808 0.0127 0 0 -1 0
0.1122807 0.027013656 0.0127 0 0 -1 0
0.049149465 0.027501563 0.0127 0 0 -1 0
0.094451234 0.028596744 0.0127 0 0 -1 0
0.049263611 0.028940419 0.0127 0 0 -1 0
0.11271756 0.029205058 0.012700001 0 0 -1 0
0.071493268 0.029321814 0.0127 0 0 -1 0
0.055498235 0.029522246 0.0127 0 0 -1 0
0.094627954 0.029576387 0.012700001 0 0 -1 0
0.10381462 0.029531818 0.012699999 0 0 -1 0
0.10564598 0.029629922 0.0127 0 0 -1 0
0.046226267 0.030269476 0.0127 0 0 -1 0
0.056048635 0.030406635 0.0127 0 0 -1 0
0.049473893 0.030529615 0.0127 0 0 -1 0
0.05569816 0.030781832 0.0127 0 0 -1 0
0.082575649 0.030856492 0.012699999 0 0 -1 0
0.059444886 0.031385478 0.012700001 0 0 -1 0
0.11153506 0.03133893 0.0127 0 0 -1 0
0.040109217 0.031582743 0.012699999 0 0 -1 0
0.053106025 0.031650919 0.012699999 0 0 -1 0
0.083386518 0.032120958 0.0127 0 0 -1 0
0.062057965 0.03244758 0.012700001 0 0 -1 0
0.097479895 0.032424126 0.012700001 0 0 -1 0
0.10094275 0.032999184 0.012700001 0 0 -1 0
0.073875703 0.033037648 0.0127 0 0 -1 0
0.097422883 0.033487841 0.0127 0 0 -1 0
0.10115703 0.033290725 0.012700001 0 0 -1 0
0.10407962 0.033448104 0.012699999 0 0 -1 0
0.10299278 0.034226622 0.012699999 0 0 -1 0
0.061679468 0.034422323 0.0127 0 0 -1 0
0.072065257 0.034420554 0.0127 0 0 -1 0
0.038922824 0.034643576 0.0127 0 0 -1 0
0.10264049 0.034669533 0.0127 0 0 -1 0
0.056523785 0.034851499 0.0127 0 0 -1 0
0.070025064 0.035378642 0.012699999 0 0 -1 0
0.057177782 0.035523102 0.012699999 0 0 -1 0
0.098958701 0.0355938 0.0127 0 0 -1 0
0.071341835 0.036151081 0.012700001 0 0 -1 0
0.020424064 0.036601469 0.0127 0 0 1 0
0.076868057 0.03695868 0.0127 0 0 -1 0
0.11112219 0.036763564 0.012699999 0 0 -1 0
0.019017294 0.037239235 0.012699999 0 0 1 0
0.063248158 0.037050996 0.0127 0 0 -1 0
0.087635331 0.037068691 0.0127 0 0 -1 0
0.059423607 0.037390988 0.0127 0 0 -1 0
0.078343585 0.037251461 0.0127 0 0 -1 0
0.10508712 0.037270188 0.012700001 0 0 -1 0
0.0127 0.037925836 0.012579771 1 0 0 0
0.019458283 0.037883651 0.012699999 0 0 1 0
0.054737192 0.037930042 0.0127 0 0 -1 0
0.089784309 0.038184278 0.0127 0 0 -1 0
0.033382077 0.038593788 0.0127 0 0 -1 0
0.037112549 0.038693577 0.0127 0 0 -1 0
0.054377735 0.03899591 0.0127 0 0 -1 0
0.07953883 0.038926996 0.012699999 0 0 -1 0
0 0.039416291 0.012500335 -1 0 0 0
0.081855662 0.039463833 0.0127 0 0 -1 0
0.041252088 0.039608613 0.0127 0 0 -1 0
0.057816233 0.039529789 0.0127 0 0 -1 0
0.061532937 0.039515577 0.0127 0 0 -1 0
0.037706167 0.040163621 0.0127 0 0 -1 0
0.047754295 0.040107861 0.0127 0 0 -1 0
0.051870912 0.040083349 0.012699999 0 0 -1 0
0.050962821 0.040659014 0.0127 0 0 -1 0
0.018553842 0.041057624 0.012700001 0 0 1 0
0.017750915 0.04173851 0.0127 0 0 1 0
0.036752544 0.041545346 0.0127 0 0 -1 0
0.082586385 0.041881837 0.0127 0 0 -1 0
0.034274813 0.042502902 0.012700001 0 0 -1 0
0.041529376 0.042743772 0.012700001 0 0 -1 0
0.046456117 0.04252379 0.0127 0 0 -1 0
0.062107615 0.042572904 0.0127 0 0 -1 0
0.087928168 0.042615324 0.012699999 0 0 -1 0
0.050303504 0.043414257 0.0127 0 0 -1 0
0.075519033 0.043373976 0.012699999 0 0 -1 0
0.017946187 0.044294409 0.012699999 0 0 1 0
0.044568099 0.044622369 0.0127 0 0 -1 0
0.035064816 0.044973988 0.012699999 0 0 -1 0
0.018649276 0.045956481 0.012699999 0 0 1 0
0.058068801 0.046137497 0.0127 0 0 -1 0
0.042621728 0.046353355 0.012700001 0 0 -1 0
0.062921695 0.04627623 0.012699999 0 0 -1 0
0.064885736 0.046345599 0.012699999 0 0 -1 0
0.10143692 0.046397362 0.012699999 0 0 -1 0
0.029799659 0.046733294 0.0127 0 0 -1 0
0.1030153 0.046505399 0.012699999 0 0 -1 0
0.10764463 0.046954609 0.012699999 0 0 -1 0
0.10554135 0.047213808 0.0127 0 0 -1 0
0.11086354 0.047225744 0.012699999 0 0 -1 0
0.037573766 0.047671668 0.0127 0 0 -1 0
0.051461972 0.047903482 0.012699999 0 0 -1 0
0.065588318 0.047992211 0.0127 0 0 -1 0
0.090041459 0.047904287 0.0127 0 0 -1 0
0.023223462 0.04828652 0.0127 0 0 -1 0
0.031892575 0.048270568 0.0127 0 0 -1 0
0.026132302 0.048524037 0.012700001 0 0 -1 0
0.053027231 0.048784252 0.0127 0 0 -1 0
0.035011865 0.049221613 0.012700001 0 0 -1 0
0.051475894 0.049105983 0.0127 0 0 -1 0
0.08525265 0.049132511 0.0127 0 0 -1 0
0.09414047 0.049224809 0.0127 0 0 -1 0
0.058964841 0.049616456 0.012699999 0 0 -1 0
0.07181932 0.049722806 0.0127 0 0 -1 0
0.023634352 0.049915712 0.0127 0 0 -1 0
0.04820472 0.050393108 0.0127 0 0 -1 0
0.061120987 0.050659228 0.012700001 0 0 -1 0
0.10291366 0.050581045 0.0127 0 0 -1 0
0.064263687 0.050806269 0.0127 0 0 -1 0
0.071879387 0.050767235 0.0127 0 0 -1 0
0.041846845 0.051249385 0.0127 0 0 -1 0
0.069023438 0.051672589 0.012700001 0 0 -1 0
0.028116506 0.052159965 0.012700001 0 0 -1 0
0.045472443 0.052342474 0.0127 0 0 -1 0
0.10616049 0.052423276 0.012700001 0 0 -1 0
0.10762645 0.052250691 0.012700001 0 0 -1 0
0.087965913 0.052666236 0.0127 0 0 -1 0
0.056129776 0.052863535 0.0127 0 0 -1 0
0.078527257 0.053147815 0.012699999 0 0 -1 0
0.066214792 0.053345975 0.012700001 0 0 -1 0
0.082300738 0.053314459 0.012699999 0 0 -1 0
0.016235048 0.053629719 0.0127 0 0 1 0
0.027892884 0.053676881 0.012700001 0 0 -1 0
0.05236825 0.05371803 0.0127 0 0 -1 0
0.068888932 0.053989403 0.0127 0 0 -1 0
0.10799421 0.054181628 0.0127 0 0 -1 0
0.067388326 0.05435238 0.0127 0 0 -1 0
0.031242417 0.054688655 0.012700001 0 0 -1 0
0.05602923 0.054753453 0.0127 0 0 -1 0
0.05196289 0.055075865 0.0127 0 0 -1 0
0.018147169 0.055368185 0.012700001 0 0 -1 0
0.018851977 0.055679165 0.0127 0 0 -1 0
0.04213446 0.055505347 0.0127 0 0 -1 0
0.083672002 0.055974752 0.012699999 0 0 -1 0
0.049648184 0.056202017 0.0127 0 0 -1 0
0.08565484 0.05607181 0.012699999 0 0 -1 0
0.054087128 0.056640636 0.0127 0 0 -1 0
0.07900659 0.056878313 0.012700001 0 0 -1 0
0.066609003 0.057315957 0.012699999 0 0 -1 0
0.10541426 0.057261113 0.012700001 0 0 -1 0
0.10500452 0.058126692 0.012700001 0 0 -1 0
0.091924697 0.0584905 0.0127 0 0 -1 0
0.11065099 0.058418173 0.012700001 0 0 -1 0
0.04786494 0.058556795 0.0127 0 0 -1 0
0.070984982 0.058600508 0.012700001 0 0 -1 0
0.043649405 0.058989257 0.0127 0 0 -1 0
0.044449635 0.058907084 0.0127 0 0 -1 0
0.066944718 0.058990549 0.0127 0 0 -1 0
0.094200045 0.059452876 0.012700001 0 0 -1 0
0.039812453 0.060329478 0.0127 0 0 -1 0
0.10857631 0.060393848 0.0127 0 0 -1 0
0.10204685 0.060664319 0.0127 0 0 -1 0
0.032535311 0.061490797 0.012699999 0 0 -1 0
0.065729491 0.061379686 0.012699999 0 0 -1 0
0.078528643 0.062098723 0.012700001 0 0 -1 0
0.10372954 0.062458858 0.0127 0 0 -1 0
0.052059919 0.062613048 0.012700001 0 0 -1 0
0.05623126 0.062508158 0.0127 0 0 -1 0
0.024942849 0.062755294 0.0127 0 0 -1 0
0.057571441 0.062839054 0.0127 0 0 -1 0
0.044457559 0.063741513 0.012700001 0 0 -1 0
0.059172925 0.063505262 0.0127 0 0 -1 0
0.065516785 0.063569054 0.012699999 0 0 -1 0
0.019847024 0.06375663 0.012699999 0 0 -1 0
0.066842079 0.063931331 0.012699999 0 0 -1 0
0.04161825 0.064155899 0.012699999 0 0 -1 0
0.070246272 0.064554349 0.012700001 0 0 -1 0
0.078908965 0.064625084 0.012700001 0 0 -1 0
0.042359386 0.065082997 0.0127 0 0 -1 0
0.094930395 0.065236159 0.0127 0 0 -1 0
0.03836586 0.065432481 0.0127 0 0 -1 0
0.082923703 0.06547457 0.012700001 0 0 -1 0
0.11122092 0.065335304 0.0127 0 0 -1 0
0.069719292 0.065607235 0.012700001 0 0 -1 0
0.070144966 0.065519392 0.012700001 0 0 -1 0
0.024134614 0.066133052 0.0127 0 0 -1 0
0.10204826 0.066278189 0.0127 0 0 -1 0
0.060348392 0.066514932 0.0127 0 0 -1 0
0.022661086 0.066843599 0.012699999 0 0 -1 0
0.091117218 0.066770047 0.0127 0 0 -1 0
0.068035476 0.067024544 0.0127 0 0 -1 0
0.025858829 0.067490339 0.0127 0 0 -1 0
0.1059925 0.067496479 0.0127 0 0 -1 0
0.053932369 0.067630678 0.012699999 0 0 -1 0
0.022401687 0.067929938 0.0127 0 0 -1 0
0.065855108 0.067942299 0.0127 0 0 -1 0
0.076821215 0.067928992 0.0127 0 0 -1 0
0.083237886 0.067828082 0.0127 0 0 -1 0
0.10101309 0.068423197 0.0127 0 0 -1 0
0.073265247 0.068895109 0.0127 0 0 -1 0
0.013969703 0.069490664 0.0127 0 0 -1 0
0.048848741 0.069407821 0.012699999 0 0 -1 0
0.075737156 0.069463156 0.012699999 0 0 -1 0
0.11015589 0.069662429 0.0127 0 0 -1 0
0.10200377 0.070373207 0.0127 0 0 -1 0
0.11182271 0.070356138 0.012699999 0 0 -1 0
0.11215985 0.070365459 0.0127 0 0 -1 0
0.080802076 0.070757203 0.0127 0 0 -1 0
0.092059605 0.070752598 0.0127 0 0 -1 0
0.0575886 0.07122048 0.0127 0 0 -1 0
0.10941365 0.071109459 0.012700001 0 0 -1 0
0.0422897 0.071734317 0.0127 0 0 -1 0
0.10223708 0.071660675 0.012699999 0 0 -1 0
0.073363647 0.071846478 0.0127 0 0 -1 0
0.014708805 0.072001375 0.012700001 0 0 -1 0
0.07604064 0.072444811 0.012699999 0 0 -1 0
0.02160849 0.073102809 0.012699999 0 0 -1 0
0.062541172 0.073122486 0.012699999 0 0 -1 0
0.079630435 0.073354855 0.0127 0 0 -1 0
0.10478406 0.073382385 0.0127 0 0 -1 0
0.032626275 0.073706552 0.0127 0 0 -1 0
0.067194492 0.073583834 0.0127 0 0 -1 0
0.10782191 0.073656231 0.0127 0 0 -1 0
0.06709864 0.073973201 0.0127 0 0 -1 0
0.036477819 0.074005105 0.012699999 0 0 -1 0
0.058400098 0.074098051 0.0127 0 0 -1 0
0.055980429 0.074861027 0.0127 0 0 -1 0
0.10227215 0.074905775 0.0127 0 0 -1 0
0.047085404 0.075053282 0.012699999 0 0 -1 0
0.063644186 0.07500153 0.0127 0 0 -1 0
0.086983651 0.075173669 0.0127 0 0 -1 0
0.10158449 0.075057656 0.012699999 0 0 -1 0
0.098743558 0.075848699 0.0127 0 0 -1 0
0.10155268 0.075832754 0.0127 0 0 -1 0
0.029750818 0.076085292 0.0127 0 0 -1 0
0.035989985 0.076139636 0.012699999 0 0 -1 0
0.086573444 0.07611189 0.0127 0 0 -1 0
0.056352988 0.076268487 0.0127 0 0 -1 0
0.039840322 0.076551706 0.0127 0 0 -1 0
0.067414895 0.076637067 0.0127 0 0 -1 0
0.085593693 0.076689564 0.0127 0 0 -1 0
0.078331396 0.077052563 0.0127 0 0 -1 0
0.024674749 0.077286489 0.012699999 0 0 -1 0
0.04781381 0.077385455 0.012700001 0 0 -1 0
0.031928632 0.077924274 0.0127 0 0 -1 0
0.014999126 0.078159794 0.0127 0 0 -1 0
0.11253524 0.078378268 0.0127 0 0 -1 0
0.048844896 0.078523882 0.0127 0 0 -1 0
0.052665707 0.078694709 0.012699999 0 0 -1 0
0.032653619 0.078758836 0.0127 0 0 -1 0
0.037264392 0.078960434 0.0127 0 0 -1 0
0.06605567 0.07889802 0.0127 0 0 -1 0
0.08939603 0.078934893 0.012700001 0 0 -1 0
0.084996134 0.079605579 0.0127 0 0 -1 0
0.10946278 0.079729006 0.012699999 0 0 -1 0
0.07562001 0.08027178 0.0127 0 0 -1 0
0.061418451 0.080526844 0.0127 0 0 -1 0
0.069833294 0.080762252 0.012700001 0 0 -1 0
0.053677615 0.08141721 0.012699999 0 0 -1 0
0.068237141 0.081829168 0.012700001 0 0 -1 0
0.07988748 0.081832066 0.0127 0 0 -1 0
0.035386723 0.082437366 0.0127 0 0 -1 0
0.066482991 0.082252525 0.0127 0 0 -1 0
0.039335344 0.082885019 0.0127 0 0 -1 0
0.052356575 0.082823783 0.0127 0 0 -1 0
0.11004543 0.083242968 0.012699999 0 0 -1 0
0.036415834 0.08350458 0.0127 0 0 -1 0
0.10735369 0.083691292 0.0127 0 0 -1 0
0.066775165 0.083796576 0.0127 0 0 -1 0
0.098332323 0.083974354 0.012699999 0 0 -1 0
0.11295582 0.083820529 0.0127 0 0 -1 0
0.043235358 0.084131926 0.012699999 0 0 -1 0
0.071461946 0.084066167 0.0127 0 0 -1 0
0.076305889 0.084909588 0.012700001 0 0 -1 0
0.062586769 0.085186705 0.012699999 0 0 -1 0
0.093965173 0.08556731 0.012699999 0 0 -1 0
0.030422369 0.085991427 0.012655406 0.67880034 -0.73432297 0 0
0.091821477 0.085944772 0.0127 0 0 -1 0
0.061858509 0.086107105 0.012699999 0 0 -1 0
0.072935507 0.087013274 0.012699999 0 0 -1 0
0.033357531 0.087369695 0.0127 0 0 -1 0
0.045749728 0.087312743 0.0127 0 0 -1 0
0.072877772 0.087262832 0.0127 0 0 -1 0
0.1127933 0.087461963 0.0127 0 0 -1 0
0.10798797 0.087815024 0.0127 0 0 -1 0
0.017655876 0.088548638 0.012700001 0 0 -1 0
0.10940731 0.089180738 0.0127 0 0 -1 0
0.074898422 0.089342691 0.0127 0 0 -1 0
0.079965711 0.089253597 0.012700001 0 0 -1 0
0.11151037 0.089347146 0.0127 0 0 -1 0
0.068117045 0.09015388 0.0127 0 0 -1 0
0.10924448 0.090184346 0.012699999 0 0 -1 0
0.039126452 0.090407491 0.0127 0 0 -1 0
0.070651881 0.090656683 0.012699999 0 0 -1 0
0.020288188 0.091182634 0.0127 0 0 -1 0
0.047462359 0.091021195 0.0127 0 0 -1 0
0.086842328 0.091201104 0.0127 0 0 -1 0
0.038246777 0.09143652 0.0127 0 0 -1 0
0.055919159 0.091667935 0.0127 0 0 -1 0
0.094081149 0.09161742 0.012700001 0 0 -1 0
0.10053018 0.091714732 0.0127 0 0 -1 0
0.10852169 0.091701716 0.0127 0 0 -1 0
0.11155088 0.092016734 0.0127 0 0 -1 0
0.048163153 0.092493445 0.0127 0 0 -1 0
0.085716397 0.092808738 0.0127 0 0 -1 0
0.10939897 0.093623795 0.012700001 0 0 -1 0
0.020246999 0.093810886 0.012700001 0 0 -1 0
0.083951965 0.093942054 0.0127 0 0 -1 0
0.094973102 0.093933262 0.012700001 0 0 -1 0
0.1068908 0.093775094 0.0127 0 0 -1 0
0.024368867 0.095522039 0.0127 0 0 -1 0
0.084494844 0.095706224 0.0127 0 0 -1 0
0.095539376 0.095578179 0.012699999 0 0 -1 0
0.049506433 0.095759422 0.012590609 0.19510132 -0.9807831 0 0
0.057774805 0.096336149 0.0127 0 0 -1 0
0.014239927 0.096590243 0.012700001 0 0 -1 0
0.031078495 0.096577175 0.0127 0 0 -1 0
0.026912741 0.09703774 0.0127 0 0 -1 0
0.079960212 0.097021967 0.0127 0 0 -1 0
0.096512511 0.097228512 0.012699999 0 0 -1 0
0.01893435 0.097985998 0.0127 0 0 -1 0
0.07887879 0.097954467 0.012699999 0 0 -1 0
0.098209091 0.098162524 0.012700001 0 0 -1 0
0.014350601 0.098736241 0.0127 0 0 -1 0
0.073586963 0.098519892 0.012622144 0.370556 0.92881012 0 0
0.090724781 0.099043153 0.012699999 0 0 -1 0
0.012864121 0.09955506 0.012700001 0 0 -1 0
0.014036326 0.099737041 0.012700001 0 0 -1 0
0.084855147 0.099886648 0.012699999 0 0 -1 0
0.037396159 0.10000674 0.012700001 0 0 -1 0
0.093346573 0.1001412 0.0127 0 0 -1 0
0.086088404 0.10048278 0.0127 0 0 -1 0
0.03102871 0.10071185 0.012700001 0 0 -1 0
0.078187905 0.10064871 0.0127 0 0 -1 0
0.094862908 0.10079806 0.012700001 0 0 -1 0
0.10593404 0.10075328 0.0127 0 0 -1 0
0.10376503 0.10105465 0.012700001 0 0 -1 0
0.018022759 0.1012629 0.0127 0 0 -1 0
0.046265721 0.10166285 0.0127 0 0 -1 0
0.066066816 0.10161523 0.0127 0 0 -1 0
0.10106482 0.10180736 0.0127 0 0 -1 0
0.062420264 0.10204489 0.0127 0 0 -1 0
0.070274033 0.10236707 0.0127 0 0 -1 0
0 0.10251427 0.012740484 -1 0 0 0
0.057470679 0.10251269 0.0127 0 0 -1 0
0.058483683 0.10313089 0.0127 0 0 -1 0
0.022403667 0.10410126 0.012699999 0 0 -1 0
0.027907925 0.10410837 0.0127 0 0 -1 0
0.013239707 0.10489555 0.012700001 0 0 -1 0
0.10151599 0.10480306 0.012699999 0 0 -1 0
0.018536191 0.10502219 0.0127 0 0 -1 0
0.021611817 0.10537679 0.0127 0 0 -1 0
0.10441085 0.10572442 0.0127 0 0 -1 0
0.043211307 0.10639726 0.012699999 0 0 -1 0
0.063567102 0.10671657 0.012699999 0 0 -1 0
0.060727112 0.10693604 0.0127 0 0 -1 0
0.023373427 0.10708285 0.0127 0 0 -1 0
0.087604925 0.10745872 0.0127 0 0 -1 0
0.092741981 0.1074412 0.012700001 0 0 -1 0
0.061061587 0.10773347 0.012699999 0 0 -1 0
0.078531049 0.10768966 0.0127 0 0 -1 0
0.051267799 0.10794801 0.012699999 0 0 -1 0
0.01632884 0.10834611 0.012700001 0 0 -1 0
0.042791985 0.10884798 0.012699999 0 0 -1 0
0.099920578 0.10942274 0.0127 0 0 -1 0
0.01634047 0.10995494 0.012700001 0 0 -1 0
0.030282037 0.1102606 0.012700001 0 0 -1 0
0.044173531 0.11064787 0.0127 0 0 -1 0
0.083619192 0.11060815 0.0127 0 0 -1 0
0.049363334 0.11092454 0.0127 0 0 -1 0
0.049826611 0.11107905 0.012699999 0 0 -1 0
0.040161878 0.11141178 0.012700001 0 0 -1 0
0.072659299 0.1113292 0.012699999 0 0 -1 0
0.097985499 0.11186667 0.0127 0 0 -1 0
0.046062142 0.1123424 0.012699999 0 0 -1 0
0.10285328 0.1123848 0.0127 0 0 -1 0
0.077029683 0.11263061 0.012700001 0 0 -1 0
0.069335759 0.11283407 0.0127 0 0 -1 0
0.091938533 0.11322328 0.0127 0 0 -1 0
0.054203298 0.11349708 0.0127 0 0 -1 0
0.084298916 0.11370034 0.0127 0 0 -1 0
0.10316971 0.11366275 0.0127 0 0 -1 0
0.04653478 0 0.012844685 0 -1 0 0
0.05550088 0.012700001 0.012974975 0 1 0 0
0.11862735 0.0127 0.012974433 0 1 0 0
0.017541904 0.1137412 0.012937582 0 1 0 0
0.0127 0.11549126 0.012880647 1 0 0 0
0.0051289145 0.142875 0.012942662 0 1 0 0
0.15557501 0.0070166737 0.013178248 1 0 0 0
0.053472366 0.012699999 0.013240192 0 1 0 0
0.055789873 0.015330128 0.013024775 -0.70710671 -0.70710683 -1.0867272e-07 0
0 0.023111392 0.013019929 -1 0 0 0
0 0.025776351 0.013176978 -1 0 0 0
0.023212548 0.047907453 0.013123061 -0.70710683 -0.70710683 -7.2527492e-08 0
0.11333479 0.089107238 0.013105297 1 0 0 0
0.14808886 0 0.01344587 0 -1 0 0
0.046529323 0.024590675 0.013457064 -0.70710683 -0.70710683 -7.2527492e-08 0
0.041724231 0.02939577 0.013385277 -0.70710683 -0.70710683 -7.2527492e-08 0
0.0127 0.030525237 0.013473803 1 0 0 0
0.11333479 0.054772351 0.013403558 1 0 0 0
0.022831436 0.1137412 0.013322197 0 1 0 0
0.034012247 0.1137412 0.013293754 0 1 0 0
0.062692761 0.11374119 0.013413132 0 1 0 0
0.0127 0.12263204 0.013406209 1 0 0 0
0 0.12295046 0.013265416 -1 0 0 0
0.0088635534 0 0.013730614 0 -1 0 0
0.1363343 0 0.01359718 0 -1 0 0
0.15549356 0 0.013634292 0 -1 0 0
0.15557501 0.0025984431 0.013515097 1 0 0 0
0.1133348 0.050820917 0.013735665 1 0 0 0
0 0.13159412 0.013568951 -1 0 0 0
0 0.13463466 0.013693641 -1 0 0 0
0.0127 0.14158712 0.013709545 1 0 0 0
0.00095132564 0 0.013765013 0 -1 0 0
0.044039596 0 0.013777034 0 -1 0 0
0.10975062 0 0.0139124 0 -1 0 0
0.14545985 0 0.013770512 0 -1 0 0
0.1310644 0.012700001 0.013790112 0 1 0 0
0.012699999 0.016676789 0.013760641 1 0 0 0
0 0.023896651 0.013987301 -1 0 0 0
0 0.032880768 0.013837212 -1 0 0 0
0 0.045232173 0.013759734 -1 0 0 0
0 0.085522227 0.013765553 -1 0 0 0
0 0.13242052 0.013833793 -1 0 0 0
0.089570217 0 0.014033039 0 -1 0 0
0.13479254 0 0.014022577 0 -1 0 0
0 0.0050542373 0.014096939 -1 0 0 0
0.031730007 0.03938999 0.014170224 -0.70710683 -0.70710683 -7.2527492e-08 0
0.1133348 0.047961041 0.014189227 1 0 0 0
0.1133348 0.050849918 0.014042284 1 0 0 0
0.1133348 0.054283809 0.014019353 1 0 0 0
0.11333479 0.060401477 0.014169738 1 0 0 0
0 0.068911344 0.01422068 -1 0 0 0
0.019853832 0.1137412 0.01407609 0 1 0 0
0.02573424 0.11374119 0.014117735 0 1 0 0
0 0.1153662 0.014079088 -1 0 0 0
0.012699999 0.13152683 0.014150861 1 0 0 0
0.012700001 0.14252944 0.014033726 1 0 0 0
0.038988642 0 0.014329433 0 -1 0 0
0.11126504 0 0.01426292 0 -1 0 0
0.15245466 0 0.01434123 0 -1 0 0
0.0516873 0.012700001 0.014390647 0 1 0 0
0.1133348 0.017622788 0.014341963 1 0 0 0
0 0.035937309 0.014367764 -1 0 0 0
0.1133348 0.053609535 0.014288099 1 0 0 0
0 0.097714014 0.014318438 -1 0 0 0
0.0127 0.12173922 0.014381551 1 0 0 0
0.012699999 0.13685873 0.014321777 1 0 0 0
0.011437965 0.142875 0.014381684 0 1 0 0
0.12368259 0 0.014557473 0 -1 0 0
0.12496085 0.0127 0.01462229 0 1 0 0
0.12912863 0.0127 0.014695697 0 1 0 0
0.0127 0.017744279 0.014551448 1 0 0 0
0 0.037558675 0.014727247 -1 0 0 0
0.027620252 0.043499745 0.014601707 -0.70710683 -0.70710683 -7.2527492e-08 0
0 0.086249538 0.014719537 -1 0 0 0
0.0127 0.12013412 0.014604067 1 0 0 0
0.10744131 0 0.0149171 0 -1 0 0
0.15557501 0.00043904479 0.014878996 1 0 0 0
0.11686745 0.0127 0.014840138 0 1 0 0
0.12116694 0.0127 0.014895288 0 1 0 0
0.15179595 0.0127 0.014750584 0 1 0 0
0 0.015541342 0.014764531 -1 0 0 0
0.0127 0.029030118 0.014838397 1 0 0 0
0.0127 0.036750298 0.014955881 1 0 0 0
0.012699999 0.040821638 0.014937742 1 0 0 0
0.027558707 0.043561291 0.014848995 -0.70710683 -0.70710683 -7.2527492e-08 0
0 0.049780834 0.014978042 -1 0 0 0
0.1133348 0.053457551 0.014914457 1 0 0 0
0.1133348 0.060538583 0.014901042 1 0 0 0
0 0.069946349 0.014813579 -1 0 0 0
0.021887878 0.1137412 0.014883895 0 1 0 0
0.1129018 0.1137412 0.014806908 0 1 0 0
0.0087128403 0.142875 0.014915734 0 1 0 0
0.016557235 0 0.015221072 0 -1 0 0
0.064849466 0 0.015141116 0 -1 0 0
0.12354057 0 0.015078035 0 -1 0 0
0 0.0065384908 0.015220633 -1 0 0 0
0.015100101 0.012700001 0.015215916 0 1 0 0
0.04978871 0.021331294 0.015248726 -0.70710683 -0.70710683 -7.2527492e-08 0
0.0127 0.033754651 0.015144529 1 0 0 0
0 0.036368802 0.015189228 -1 0 0 0
0 0.049304023 0.015136897 -1 0 0 0
0.1133348 0.074175932 0.015159152 1 0 0 0
0.1133348 0.076830275 0.015068373 1 0 0 0
0.049171526 0.1137412 0.015178695 0 1 0 0
0.05473401 0.1137412 0.015173773 0 1 0 0
0.0127 0.13085556 0.015125929 1 0 0 0
0.06030627 0 0.015259497 0 -1 0 0
0.058141597 0.0127 0.015393529 0 1 0 0
0.15509146 0.0127 0.015360931 0 1 0 0
0.012699999 0.027712643 0.015480252 1 0 0 0
0 0.060140759 0.015446798 -1 0 0 0
0.047445927 0.1137412 0.015385659 0 1 0 0
0.00074496446 0 0.015552742 0 -1 0 0
0.077666491 0 0.015658768 0 -1 0 0
0.10509297 0 0.015519517 0 -1 0 0
0.11163428 0 0.015616633 0 -1 0 0
0.12236989 0 0.015725035 0 -1 0 0
0.12755451 0 0.015613656 0 -1 0 0
0.12937574 0 0.015589465 0 -1 0 0
0.11960191 0.0127 0.015584268 0 1 0 0
0.045420654 0.025699347 0.015698854 -0.70710683 -0.70710683 -7.2527492e-08 0
0 0.027166704 0.015649714 -1 0 0 0
0.1133348 0.02950412 0.015501209 1 0 0 0
0 0.046381909 0.01561583 -1 0 0 0
0.1133348 0.063015752 0.015643587 1 0 0 0
0 0.097180784 0.015706792 -1 0 0 0
0 0.11289538 0.015631922 -1 0 0 0
0.017683197 0.11374119 0.015712051 0 1 0 0
0.03763552 0.1137412 0.015748698 0 1 0 0
0.042277776 0.1137412 0.015607115 0 1 0 0
0.012699999 0.13676518 0.01574257 1 0 0 0
0.0033627497 0.142875 0.015668435 0 1 0 0
0.0034429603 0 0.015982797 0 -1 0 0
0.04618746 0 0.01596142 0 -1 0 0
0.095624551 0 0.015977457 0 -1 0 0
0.13211408 0 0.015757469 0 -1 0 0
0.14012158 0 0.015964529 0 -1 0 0
0.13866954 0.0127 0.015900342 0 1 0 0
0.13892883 0.0127 0.01580758 0 1 0 0
0.13980281 0.012700001 0.015875665 0 1 0 0
0.15239543 0.012700001 0.015970105 0 1 0 0
0.15441063 0.0127 0.015898749 0 1 0 0
0 0.01688917 0.015771205 -1 0 0 0
0.012699999 0.019451618 0.015938865 1 0 0 0
0.1133348 0.026575826 0.015881844 1 0 0 0
0.11333479 0.091084629 0.015979223 1 0 0 0
0.012563997 0 0.016189676 0 -1 0 0
0.05819625 0.012923746 0.016205356 -0.70710671 -0.70710683 -1.0867272e-07 0
0.11333479 0.098335125 0.016015634 1 0 0 0
0.040739968 0.1137412 0.016108276 0 1 0 0
0.0127 0.12805496 0.016143896 1 0 0 0
0.036776274 0 0.016442504 0 -1 0 0
0.1133348 0.028706614 0.016476821 1 0 0 0
0.027795181 0.043324817 0.016350096 -0.70710683 -0.70710683 0 0
0 0.075951658 0.016311482 -1 0 0 0
0.047999971 0.1137412 0.016255053 0 1 0 0
0.058212865 0.1137412 0.016497826 0 1 0 0
0.0024991273 0 0.016559703 0 -1 0 0
0.15557501 0.0069950302 0.0165908 1 0 0 0
0.12159367 0.012699999 0.01665533 0 1 0 0
0.12317796 0.0127 0.016667051 0 1 0 0
0.02969439 0.041425612 0.016606832 -0.70710683 -0.70710683 0 0
0.1133348 0.05378785 0.016588127 1 0 0 0
0 0.084955409 0.016600624 -1 0 0 0
0.079670466 0.1137412 0.016664054 0 1 0 0
0.10015101 0.1137412 0.016743205 0 1 0 0
0.11333479 0.11369064 0.016542276 1 0 0 0
0.13072827 0 0.016803775 0 -1 0 0
0.12412448 0.0127 0.016951073 0 1 0 0
0 0.017467992 0.016887449 -1 0 0 0
0.1133348 0.019311592 0.016924422 1 0 0 0
0.0127 0.019530594 0.016916351 1 0 0 0
0.039422903 0.031697098 0.016895013 -0.70710683 -0.70710683 -7.2527492e-08 0
0.0127 0.044562653 0.016809586 1 0 0 0
0.012699999 0.047179453 0.016828191 1 0 0 0
0.0127 0.057218943 0.016846754 1 0 0 0
0.1133348 0.080556571 0.016937423 1 0 0 0
0.1133348 0.084704541 0.016998092 1 0 0 0
0.057266295 0.1137412 0.016915485 0 1 0 0
0.080109864 0 0.017139142 0 -1 0 0
0.12272944 0 0.017011149 0 -1 0 0
0.14440554 0 0.017009044 0 -1 0 0
0.15557501 0.012266273 0.017220773 1 0 0 0
0.150783 0.0127 0.017051535 0 1 0 0
0 0.013839215 0.017021216 -1 0 0 0
0.012699999 0.039174937 0.017249422 1 0 0 0
0 0.040997051 0.017099025 -1 0 0 0
0.1133348 0.075437985 0.017003812 1 0 0 0
0.013892738 0.11374119 0.01702264 0 1 0 0
0.0127 0.12273552 0.017019518 1 0 0 0
0.14624779 0.0127 0.017317135 0 1 0 0
0.0127 0.023753818 0.017427349 1 0 0 0
0 0.024851324 0.017350286 -1 0 0 0
0 0.063081183 0.017470635 -1 0 0 0
0.13573204 0 0.01762419 0 -1 0 0
0.044058066 0.0127 0.017580135 0 1 0 0
0 0.032914877 0.017540533 -1 0 0 0
0.1133348 0.050194763 0.017738802 1 0 0 0
0.11333479 0.052926008 0.017594358 1 0 0 0
0 0.06016393 0.017627476 -1 0 0 0
0.11333479 0.095529675 0.017517406 1 0 0 0
0.012718381 0.1137412 0.01757329 0 1 0 0
0.054210376 0.11374119 0.017725624 0 1 0 0
0 0.14084116 0.017595911 -1 0 0 0
0.017004946 0.05411505 0.01789861 -0.70710683 -0.70710683 0 0
0.1133348 0.089526385 0.017922321 1 0 0 0
0.1133348 0.095050663 0.017779022 1 0 0 0
0 0.098977223 0.017781153 -1 0 0 0
0.019430768 0.1137412 0.017836032 0 1 0 0
0.062425159 0.1137412 0.017758515 0 1 0 0
0.074625947 0.1137412 0.017841764 0 1 0 0
0 0.13103846 0.017928954 -1 0 0 0
0.012700001 0.14183664 0.017942127 1 0 0 0
0.0052446406 0.14287499 0.017867729 0 1 0 0
0.12343251 0 0.018141657 0 -1 0 0
0.013521741 0.0127 0.018104507 0 1 0 0
0.014759928 0.056360073 0.018001864 -0.70710683 -0.70710671 -1.1855206e-07 0
0.1133348 0.057595029 0.018149558 1 0 0 0
0.1133348 0.067186542 0.018035781 1 0 0 0
0.076705314 0 0.018378558 0 -1 0 0
0.018680921 0.012699999 0.018306078 0 1 0 0
0.012699999 0.038565066 0.018402498 1 0 0 0
0 0.045381829 0.018346835 -1 0 0 0
0.11333479 0.053353287 0.018492319 1 0 0 0
0.0127 0.11887047 0.018349091 1 0 0 0
0 0.12244163 0.018477725 -1 0 0 0
0 0.12486497 0.018393641 -1 0 0 0
0.012700001 0.12567106 0.018385237 1 0 0 0
0.0039929599 0 0.01857393 0 -1 0 0
0.064941667 0 0.018543471 0 -1 0 0
0.15557501 0.0037018973 0.01858829 1 0 0 0
0.030304722 0.0127 0.01870117 0 1 0 0
0.044674281 0.012699999 0.018610945 0 1 0 0
0.038340479 0.032779522 0.018671608 -0.70710683 -0.70710683 -7.2527492e-08 0
0.0127 0.055209961 0.01874768 1 0 0 0
0 0.073545344 0.018535977 -1 0 0 0
0.1133348 0.096327618 0.018736759 1 0 0 0
0 0.008081886 0.018797422 -1 0 0 0
0 0.0098984838 0.018982248 -1 0 0 0
0.016290149 0.0127 0.0187867 0 1 0 0
0.11333479 0.053850107 0.018778168 1 0 0 0
0 0.054258868 0.0188905 -1 0 0 0
0 0.064854391 0.018965578 -1 0 0 0
0.033663757 0.1137412 0.018798001 0 1 0 0
0.0427095 0.1137412 0.018922918 0 1 0 0
0.067491956 0.1137412 0.018863887 0 1 0 0
0.11257485 0.1137412 0.018818999 0 1 0 0
0 0.12142579 0.018775044 -1 0 0 0
0.059215248 0 0.019195855 0 -1 0 0
0.096370578 0 0.019233225 0 -1 0 0
0.12074716 0 0.019131677 0 -1 0 0
0.13946807 0 0.019142291 0 -1 0 0
0.02718159 0.0127 0.019089904 0 1 0 0
0.15163356 0.012700001 0.019118711 0 1 0 0
0.042111456 0.029008545 0.019068887 -0.70710683 -0.70710683 -7.2527492e-08 0
0.1133348 0.037149873 0.019188227 1 0 0 0
0.1133348 0.038060911 0.019006334 1 0 0 0
0.0127 0.049593456 0.019170148 1 0 0 0
0.1133348 0.058266036 0.019047398 1 0 0 0
0.1133348 0.1084395 0.019078739 1 0 0 0
0.0063448693 0 0.019271977 0 -1 0 0
0.064634293 0 0.019256052 0 -1 0 0
0.093863979 0 0.019263562 0 -1 0 0
0.024446936 0.012700001 0.019343577 0 1 0 0
0.1229006 0.0127 0.019251188 0 1 0 0
0.034735356 0.036384642 0.01934085 -0.70710683 -0.70710683 0 0
0.027827291 0.043292709 0.019453654 -0.70710683 -0.70710683 0 0
0.1133348 0.063823499 0.019396443 1 0 0 0
0 0.064682841 0.019411702 -1 0 0 0
0 0.069822572 0.019319642 -1 0 0 0
0.086470619 0.1137412 0.019275337 0 1 0 0
0.0127 0.11406579 0.019354211 1 0 0 0
0.062829971 0 0.019696366 0 -1 0 0
0.064697996 0 0.019516218 0 -1 0 0
0.067747943 0 0.019654753 0 -1 0 0
0.12770654 0 0.019578313 0 -1 0 0
0.034673277 0.0127 0.019636983 0 1 0 0
0.056663442 0.012700001 0.019681323 0 1 0 0
0 0.034328423 0.019720428 -1 0 0 0
0.032467186 0.038652807 0.0196396 -0.70710683 -0.70710683 0 0
0.0127 0.055010729 0.019612458 1 0 0 0
0.1133348 0.062593229 0.01963561 1 0 0 0
0 0.078820989 0.019624272 -1 0 0 0
0.1133348 0.10105936 0.019665269 1 0 0 0
0.015583143 0.11374119 0.019699529 0 1 0 0
0.042069118 0.11374119 0.019500736 0 1 0 0
0.043117166 0.11374119 0.019528557 0 1 0 0
0.059682969 0 0.019846871 0 -1 0 0
0.078378297 0 0.019809518 0 -1 0 0
0.15436667 0 0.019911844 0 -1 0 0
0 0.0020862054 0.019806288 -1 0 0 0
0 0.0036173374 0.019925388 -1 0 0 0
0.15557501 0.0080885328 0.019907113 1 0 0 0
0.046603758 0.024516242 0.019869717 -0.70710683 -0.70710683 -7.2527492e-08 0
0.1133348 0.033062961 0.019788101 1 0 0 0
0.012700001 0.055009056 0.019980498 1 0 0 0
0 0.095059261 0.019983169 -1 0 0 0
0.078837276 0.1137412 0.019874543 0 1 0 0
0.084894627 0.11374119 0.019934628 0 1 0 0
0.089535676 0.11374119 0.019775676 0 1 0 0
0.012699999 0.13780583 0.01997073 1 0 0 0
0.0044622105 0 0.020231808 0 -1 0 0
0.15004964 0.0127 0.020218633 0 1 0 0
0.1133348 0.082958579 0.020206118 1 0 0 0
0 0.099073291 0.020013683 -1 0 0 0
0.11333479 0.11167908 0.020028688 1 0 0 0
0.027473897 0.1137412 0.020144206 0 1 0 0
0.097424805 0.1137412 0.020007458 0 1 0 0
0 0.11644346 0.020140294 -1 0 0 0
0.012700001 0.12345373 0.020135472 1 0 0 0
0 0.13544677 0.020054154 -1 0 0 0
0 0.1356988 0.020227477 -1 0 0 0
0.0029408464 0 0.020338472 0 -1 0 0
0.019234719 0 0.02026315 0 -1 0 0
0.03700427 0.012699999 0.020458449 0 1 0 0
0.038842831 0.012700001 0.020442462 0 1 0 0
0.043295573 0.0127 0.020486005 0 1 0 0
0.12262381 0.012700001 0.020366665 0 1 0 0
0.012700001 0.040212929 0.020316241 1 0 0 0
0.1133348 0.047801998 0.020453826 1 0 0 0
0 0.048521519 0.020339534 -1 0 0 0
0 0.066500232 0.02047733 -1 0 0 0
0.051237494 0.1137412 0.020471407 0 1 0 0
0.055407148 0.11374119 0.020427253 0 1 0 0
0.064524591 0.11374119 0.020421278 0 1 0 0
0.094319575 0.1137412 0.020477949 0 1 0 0
0.0013848061 0.142875 0.020436723 0 1 0 0
0 0.0048470702 0.020547546 -1 0 0 0
0 0.0068387035 0.020667933 -1 0 0 0
0.035871752 0.012700001 0.020738572 0 1 0 0
0.012699999 0.017105915 0.020617057 1 0 0 0
0 0.025349798 0.020724056 -1 0 0 0
0.11333479 0.083105341 0.020630781 1 0 0 0
0.033465087 0.1137412 0.020645425 0 1 0 0
0.043448348 0.1137412 0.020604039 0 1 0 0
0.10145207 0 0.020953786 0 -1 0 0
0.012700001 0.028569387 0.020772912 1 0 0 0
0.1133348 0.038809381 0.020784175 1 0 0 0
0.0127 0.041158825 0.020829886 1 0 0 0
0.1133348 0.10084767 0.020947967 1 0 0 0
0.055178076 0.11374119 0.020977588 0 1 0 0
0.12478097 0.0127 0.021220084 0 1 0 0
0.041567713 0.029552283 0.021140562 -0.70710683 -0.70710683 0 0
0.012700001 0.036797523 0.021106191 1 0 0 0
0.1133348 0.08921016 0.021248156 1 0 0 0
0 0.10516787 0.021062423 -1 0 0 0
0 0.10530508 0.021107873 -1 0 0 0
0.045885783 0 0.021295413 0 -1 0 0
0.13560456 0 0.021396358 0 -1 0 0
0.15557501 0.0048427433 0.02139196 1 0 0 0
0.15557501 0.0056195138 0.021410044 1 0 0 0
0.1439314 0.0127 0.021480232 0 1 0 0
0.041635498 0.029484497 0.02144135 -0.70710683 -0.70710683 0 0
0.0255867 0.045533299 0.021333341 -0.70710683 -0.70710683 0 0
0.0127 0.057749487 0.021430351 1 0 0 0
0.1133348 0.069767796 0.021333791 1 0 0 0
0.10679066 0.11374119 0.021493528 0 1 0 0
0.02888963 0 0.021506362 0 -1 0 0
0.051696036 0 0.021500219 0 -1 0 0
0.0221065 0.012699999 0.021617375 0 1 0 0
0.1133348 0.075237475 0.021525694 1 0 0 0
0 0.11347997 0.021546347 -1 0 0 0
0.15557501 0.0031690674 0.021841353 1 0 0 0
0.12643339 0.012700001 0.021760777 0 1 0 0
0.0127 0.038233314 0.021765908 1 0 0 0
0.028066322 0.043053679 0.021955509 -0.70710683 -0.70710683 0 0
0.020971831 0.050148167 0.021967009 -0.70710683 -0.70710683 0 0
0.0127 0.057019189 0.021967668 1 0 0 0
0.1133348 0.091077998 0.021961862 1 0 0 0
0 0.13112466 0.021830641 -1 0 0 0
0.052057359 0 0.022109106 0 -1 0 0
0.053282879 0 0.022237051 0 -1 0 0
0.078715675 0 0.022121187 0 -1 0 0
0.012700001 0.033196274 0.022007717 1 0 0 0
0 0.056462277 0.022243474 -1 0 0 0
0.013506828 0.057613172 0.022102404 -0.70710683 -0.70710671 -1.1855206e-07 0
0.085060939 0.1137412 0.022035327 0 1 0 0
0.0074952282 0.142875 0.022232154 0 1 0 0
0.0078566736 0 0.022464801 0 -1 0 0
0.012188653 0 0.022274096 0 -1 0 0
0.033222936 0 0.022392515 0 -1 0 0
0.088846318 0 0.022303417 0 -1 0 0
0.12753145 0 0.022275943 0 -1 0 0
0.13715084 0.0127 0.022445822 0 1 0 0
0.11333479 0.016557287 0.022424238 1 0 0 0
0 0.031592429 0.022467572 -1 0 0 0
0.11333479 0.032346535 0.022404436 1 0 0 0
0.024707837 0.046412166 0.022252247 -0.70710683 -0.70710683 0 0
0 0.065113373 0.022293529 -1 0 0 0
0.016269375 0.1137412 0.022335235 0 1 0 0
0.15199225 0 0.022705562 0 -1 0 0
0 0.0081896512 0.022579953 -1 0 0 0
0.12723003 0.0127 0.022579232 0 1 0 0
0.12803932 0.012700001 0.02258542 0 1 0 0
0.012699999 0.034581944 0.022513952 1 0 0 0
0.020592468 0.1137412 0.022699559 0 1 0 0
0.097014546 0.11374119 0.022673042 0 1 0 0
0.058856752 0 0.022839665 0 -1 0 0
0.069596708 0 0.022928691 0 -1 0 0
0.093772918 0 0.022964893 0 -1 0 0
0.14487717 0 0.022971204 0 -1 0 0
0 0.01312835 0.022795709 -1 0 0 0
0.057867873 0.013252127 0.02277012 -0.70710671 -0.70710683 -1.0867272e-07 0
0.025573609 0.045546394 0.022844255 -0.70710683 -0.70710683 0 0
0 0.073118202 0.022759505 -1 0 0 0
0 0.088606574 0.022961622 -1 0 0 0
0.1133348 0.103049 0.022986695 1 0 0 0
0.061381735 0 0.023137446 0 -1 0 0
0.076634079 0 0.023054365 0 -1 0 0
0.097089566 0 0.023080677 0 -1 0 0
0.021310391 0.0127 0.023205373 0 1 0 0
0.1143566 0.012699999 0.023117876 0 1 0 0
0.053386565 0.017733436 0.023091404 -0.70710683 -0.70710683 -7.2527492e-08 0
0 0.052384693 0.0230668 -1 0 0 0
0 0.11343226 0.023245927 -1 0 0 0
0 0.11486811 0.023219479 -1 0 0 0
0.15557501 0.010335839 0.023421297 1 0 0 0
0.12704228 0.0127 0.023418527 0 1 0 0
0.012700001 0.023699246 0.023275301 1 0 0 0
0.0127 0.037222818 0.02346278 1 0 0 0
0.032860853 0.038259149 0.023337472 -0.70710683 -0.70710683 0 0
0 0.081100196 0.023426082 -1 0 0 0
0 0.084496081 0.023322692 -1 0 0 0
0.024983015 0.1137412 0.023274966 0 1 0 0
0.084036425 0.1137412 0.023428271 0 1 0 0
0.11058323 0.1137412 0.023404339 0 1 0 0
0.042369641 0 0.023598231 0 -1 0 0
0.023488758 0.0127 0.023564076 0 1 0 0
0.1133348 0.012906747 0.023513794 1 0 0 0
0.11333479 0.063426904 0.023716852 1 0 0 0
0.1133348 0.080155201 0.023637155 1 0 0 0
0.06656225 0.1137412 0.023570277 0 1 0 0
0 0.13180886 0.023732945 -1 0 0 0
0.025202669 0.0127 0.023918932 0 1 0 0
0.14797835 0.012699999 0.023881432 0 1 0 0
0.14893404 0 0.024149684 0 -1 0 0
0.15557501 0.0065239659 0.024203423 1 0 0 0
0 0.010534044 0.024185667 -1 0 0 0
0.057201952 0.013918047 0.024088813 -0.70710683 -0.70710683 -7.2527492e-08 0
0.044687927 0.026432071 0.024090793 -0.70710683 -0.70710683 0 0
0 0.028630016 0.024077963 -1 0 0 0
0 0.050001219 0.024222683 -1 0 0 0
0.1133348 0.062444814 0.024001874 1 0 0 0
0.030712832 0.11374119 0.024189156 0 1 0 0
0.037032213 0.1137412 0.024215017 0 1 0 0
0.046773054 0.1137412 0.024089972 0 1 0 0
0.073174611 0.1137412 0.024248861 0 1 0 0
0.069320157 0 0.024335731 0 -1 0 0
0.1540395 0 0.024308179 0 -1 0 0
0.11720944 0.012700001 0.024259694 0 1 0 0
0.015608892 0.055511106 0.024423229 -0.70710683 -0.70710683 0 0
0.1133348 0.068433851 0.024370778 1 0 0 0
0.10429683 0.1137412 0.024391098 0 1 0 0
0.11333479 0.041446432 0.024720706 1 0 0 0
0.012699999 0.047944941 0.024508862 1 0 0 0
0 0.081878394 0.02463977 -1 0 0 0
0 0.098402984 0.024663191 -1 0 0 0
0.11333479 0.10003191 0.024723191 1 0 0 0
0 0.1116305 0.024729826 -1 0 0 0
0.012699999 0.14076425 0.024693709 1 0 0 0
0.065022662 0 0.024926318 0 -1 0 0
0.15551259 0 0.024786992 0 -1 0 0
0.15557501 0.0033391372 0.02484086 1 0 0 0
0.013045852 0.012699999 0.024977719 0 1 0 0
0.052065019 0.0127 0.024852931 0 1 0 0
0.058462486 0.0127 0.024954192 0 1 0 0
0.12582265 0.012699999 0.024806999 0 1 0 0
0.10777159 0.013032323 0.024891999 0 0 1 0
0.086996838 0.013253802 0.024892 0 0 1 0
0.080358058 0.013614453 0.024892 0 0 1 0
0.11056967 0.013837148 0.024892 0 0 1 0
0.092423514 0.015288305 0.024891999 0 0 1 0
0.1036026 0.015364977 0.024892002 0 0 1 0
0.069700383 0.015635882 0.024891999 0 0 1 0
0.10430025 0.015796481 0.024892 0 0 1 0
0.082161568 0.016242437 0.024892 0 0 1 0
0.064556226 0.016443344 0.024892 0 0 1 0
0.073381051 0.016312696 0.024891999 0 0 1 0
0.09285406 0.016504634 0.024892 0 0 1 0
0.094024435 0.016526818 0.024891999 0 0 1 0
0.11153223 0.01697734 0.024892 0 0 1 0
0.07475175 0.017163932 0.024892002 0 0 1 0
0.10850476 0.017412642 0.024892 0 0 1 0
0.078558646 0.018136716 0.024892 0 0 1 0
0.089886494 0.018188193 0.024891999 0 0 1 0
0.053772811 0.018837444 0.024892 0 0 1 0
0.056599043 0.018793423 0.024892 0 0 1 0
0.089507349 0.018789474 0.024892 0 0 1 0
0.06920068 0.019373979 0.024892 0 0 1 0
0.092446983 0.020470865 0.024891999 0 0 1 0
0.10176064 0.020997627 0.024892 0 0 1 0
0.08849974 0.021129102 0.024891999 0 0 1 0
0.10354306 0.021007417 0.024892 0 0 1 0
0.09041024 0.021526333 0.024892 0 0 1 0
0.065810665 0.021784896 0.024892 0 0 1 0
0.081222028 0.023104407 0.024892 0 0 1 0
0.08458858 0.02305137 0.024891999 0 0 1 0
0.086508647 0.023027731 0.024892 0 0 1 0
0.11179525 0.023253934 0.024892002 0 0 1 0
0.052005682 0.023639547 0.024892002 0 0 1 0
0.057587214 0.02387156 0.024892002 0 0 1 0
0.051407661 0.024068253 0.024892 0 0 1 0
0.079326473 0.0242249 0.024892 0 0 1 0
0.066486388 0.024630152 0.024892002 0 0 1 0
0.050463583 0.024922526 0.024892 0 0 1 0
0.095996857 0.025070775 0.024892 0 0 1 0
0.07991571 0.025445929 0.024892 0 0 1 0
0.10084005 0.026339002 0.024892 0 0 1 0
0.10778525 0.026332118 0.024892 0 0 1 0
0.050734498 0.026588634 0.024892 0 0 1 0
0.06171276 0.026871648 0.024892002 0 0 1 0
0.065541692 0.026839515 0.024892 0 0 1 0
0.090971448 0.026860202 0.024892 0 0 1 0
0.097147971 0.027005935 0.024892 0 0 1 0
0.062459767 0.027494535 0.024891999 0 0 1 0
0.068791464 0.028187972 0.024892 0 0 1 0
0.10688612 0.028331328 0.024892 0 0 1 0
0.084493414 0.028705649 0.024892 0 0 1 0
0.10020989 0.028838946 0.024892 0 0 1 0
0.0765111 0.029037353 0.024892 0 0 1 0
0.051485822 0.029276967 0.024892 0 0 1 0
0.1052781 0.0293756 0.024892 0 0 1 0
0.11013359 0.029447136 0.024892 0 0 1 0
0.046632919 0.02984298 0.024892 0 0 1 0
0.061347932 0.029867712 0.024891999 0 0 1 0
0.088688396 0.030219812 0.024892 0 0 1 0
0.049680196 0.030321984 0.024891999 0 0 1 0
0.091775857 0.030388582 0.024891999 0 0 1 0
0.054884344 0.030670455 0.024892002 0 0 1 0
0.048722975 0.031135831 0.024892 0 0 1 0
0.063550621 0.031154528 0.024892 0 0 1 0
0.092907153 0.031169575 0.024892 0 0 1 0
0.10883941 0.031024985 0.024892 0 0 1 0
0.056000918 0.031360861 0.024892 0 0 1 0
0.068013482 0.031685594 0.024892 0 0 1 0
0.089901879 0.031731833 0.024892 0 0 1 0
0.071120672 0.031968743 0.024892 0 0 1 0
0.049698595 0.032551911 0.024892002 0 0 1 0
0.046960529 0.033377253 0.024892 0 0 1 0
0.098736063 0.033467412 0.024892 0 0 1 0
0.10187352 0.033496421 0.024892 0 0 1 0
0.086546011 0.033735376 0.024892002 0 0 1 0
0.10225086 0.033874132 0.024892 0 0 1 0
0.041863028 0.034195639 0.024892 0 0 1 0
0.05211474 0.03434081 0.024892 0 0 1 0
0.08565072 0.034635253 0.024892 0 0 1 0
0.098268658 0.034509353 0.024891999 0 0 1 0
0.080046415 0.034871299 0.024892002 0 0 1 0
0.059576221 0.03520399 0.024892 0 0 1 0
0.061674654 0.035170101 0.024892 0 0 1 0
0.10654174 0.035122611 0.024891999 0 0 1 0
0.054349646 0.035629574 0.024892002 0 0 1 0
0.059504405 0.035736386 0.024892 0 0 1 0
0.084650025 0.035568882 0.024891999 0 0 1 0
0.048884548 0.036232386 0.024891999 0 0 1 0
0.094098851 0.036423378 0.024892 0 0 1 0
0.070003763 0.036684759 0.024892 0 0 1 0
0.081181936 0.036788542 0.024891999 0 0 1 0
0.0396467 0.037031345 0.024892 0 0 1 0
0.034012597 0.037304264 0.024892 0 0 1 0
0.11101111 0.037416793 0.024892002 0 0 1 0
0.06349948 0.038221791 0.024892 0 0 1 0
0.10255367 0.038217999 0.024892 0 0 1 0
0.088608459 0.039158639 0.024891999 0 0 1 0
0.075736046 0.039364405 0.024892 0 0 1 0
0.089020163 0.039388821 0.024892002 0 0 1 0
0.074792281 0.03961974 0.024891999 0 0 1 0
0.08148367 0.039548233 0.024892 0 0 1 0
0.043578096 0.040297326 0.024891999 0 0 1 0
0.077028953 0.040630464 0.024892002 0 0 1 0
0.086627215 0.040662833 0.024891999 0 0 1 0
0.030246874 0.041058246 0.024892002 0 0 1 0
0.037301145 0.041164957 0.024891999 0 0 1 0
0.036260962 0.041641727 0.024892 0 0 1 0
0.10039783 0.041673873 0.024892002 0 0 1 0
0.069880046 0.041788328 0.024892 0 0 1 0
0.082984753 0.042470306 0.024892002 0 0 1 0
0.090251669 0.042303607 0.024892 0 0 1 0
0.090292983 0.04267912 0.024892002 0 0 1 0
0.066043332 0.042751301 0.024892002 0 0 1 0
0.098526888 0.042835455 0.024891999 0 0 1 0
0.10989024 0.042908076 0.024892 0 0 1 0
0.048058584 0.0430924 0.024892 0 0 1 0
0.048471291 0.043010257 0.024891999 0 0 1 0
0.10181976 0.043262817 0.024892002 0 0 1 0
0.052437183 0.043714952 0.024891999 0 0 1 0
0.029802734 0.044071194 0.024892 0 0 1 0
0.062482111 0.04447563 0.024892 0 0 1 0
0.049006004 0.045057755 0.024892002 0 0 1 0
0.070561856 0.045073539 0.024892 0 0 1 0
0.073350132 0.045000046 0.024892002 0 0 1 0
0.081651405 0.045095861 0.024892 0 0 1 0
0.098301128 0.045050472 0.024892 0 0 1 0
0.038735248 0.045719691 0.024892 0 0 1 0
0.074785344 0.045745105 0.024892 0 0 1 0
0.10428932 0.045649432 0.024892 0 0 1 0
0.060677234 0.045807969 0.024892002 0 0 1 0
0.070479631 0.046225727 0.024892 0 0 1 0
0.072158776 0.046134435 0.024892 0 0 1 0
0.081386909 0.046242092 0.024892 0 0 1 0
0.094509825 0.046216752 0.024892002 0 0 1 0
0.035766143 0.046270918 0.024891999 0 0 1 0
0.08763358 0.046403117 0.024892 0 0 1 0
0.065929145 0.046580702 0.024891999 0 0 1 0
0.066768244 0.046635851 0.024892 0 0 1 0
0.061093114 0.047283251 0.024892 0 0 1 0
0.053334419 0.047633946 0.024892 0 0 1 0
0.096948035 0.047547486 0.024892002 0 0 1 0
0.10163929 0.047628984 0.024892 0 0 1 0
0.043836974 0.048108943 0.024891999 0 0 1 0
0.0973702 0.048072696 0.024892 0 0 1 0
0.028754458 0.048989762 0.024891999 0 0 1 0
0.045235209 0.049275987 0.024891999 0 0 1 0
0.056359559 0.049250208 0.024891999 0 0 1 0
0.1009057 0.049500357 0.024891999 0 0 1 0
0.088118717 0.049888507 0.024892 0 0 1 0
0.023887802 0.050120901 0.024892 0 0 1 0
0.054979581 0.050757237 0.024892002 0 0 1 0
0.076862693 0.050942473 0.024892 0 0 1 0
0.085033804 0.051086213 0.024892 0 0 1 0
0.069470659 0.051378459 0.024892002 0 0 1 0
0.045209453 0.051662106 0.024891999 0 0 1 0
0.048011869 0.052108783 0.024892 0 0 1 0
0.025660241 0.052550625 0.024892 0 0 1 0
0.032532912 0.05267993 0.024892 0 0 1 0
0.089928761 0.052601837 0.024892002 0 0 1 0
0.081875667 0.052930333 0.024892 0 0 1 0
0.069307193 0.053058818 0.024892 0 0 1 0
0.079757601 0.0533306 0.024892 0 0 1 0
0.10673665 0.053382918 0.024891999 0 0 1 0
0.099381082 0.053513616 0.024892002 0 0 1 0
0 0.053839415 0.024982728 -1 0 0 0
0.042698029 0.053888012 0.024892 0 0 1 0
0.020673431 0.054225333 0.024892 0 0 1 0
0.062933102 0.054284118 0.024892 0 0 1 0
0.06617485 0.054299556 0.024892002 0 0 1 0
0.066629112 0.054480512 0.024892002 0 0 1 0
0.10509397 0.054890662 0.024892 0 0 1 0
0.070356183 0.055047169 0.024892 0 0 1 0
0.10916996 0.055157401 0.024892 0 0 1 0
0.097397245 0.055482697 0.024891999 0 0 1 0
0.099679783 0.055639617 0.024892002 0 0 1 0
0.059500463 0.055894949 0.024892002 0 0 1 0
0.026137136 0.056156144 0.024892 0 0 1 0
0.072139345 0.056083679 0.024892002 0 0 1 0
0.020281089 0.056575991 0.024892002 0 0 1 0
0.016387844 0.056847174 0.024892 0 0 1 0
0.018097535 0.056882344 0.024891999 0 0 1 0
0.043115165 0.057160631 0.024891999 0 0 1 0
0.038305029 0.05736395 0.024892 0 0 1 0
0.05395795 0.057506822 0.024892 0 0 1 0
0.0593789 0.0577733 0.024891999 0 0 1 0
0.072974749 0.057987541 0.024891999 0 0 1 0
0.10942875 0.057930544 0.024892 0 0 1 0
0.079212472 0.058076285 0.024892002 0 0 1 0
0.048012756 0.058885515 0.024892 0 0 1 0
0.054927826 0.058775187 0.024892 0 0 1 0
0.057583496 0.058848597 0.024892002 0 0 1 0
0.10757497 0.059197485 0.024892 0 0 1 0
0.042117849 0.059573032 0.024891999 0 0 1 0
0.032064959 0.059815951 0.024891999 0 0 1 0
0.081565216 0.059966929 0.024892 0 0 1 0
0.095458984 0.059884839 0.024891999 0 0 1 0
0.028249018 0.060246497 0.024892 0 0 1 0
0.10265929 0.06038411 0.024892 0 0 1 0
0.073385783 0.06069921 0.024891999 0 0 1 0
0.096309036 0.060670428 0.024892002 0 0 1 0
0.10151617 0.060682364 0.024892 0 0 1 0
0.064037904 0.060847241 0.024892002 0 0 1 0
0.10715757 0.060811184 0.024892 0 0 1 0
0.08283706 0.061402723 0.024892 0 0 1 0
0.014218866 0.061502319 0.024892 0 0 1 0
0.031972185 0.061893072 0.024892 0 0 1 0
0.017685866 0.062023383 0.024892 0 0 1 0
0.04176484 0.06217429 0.024892002 0 0 1 0
0.062190227 0.062115215 0.024892 0 0 1 0
0.0822841 0.062358454 0.024892 0 0 1 0
0.013564409 0.062878832 0.024892 0 0 1 0
0.014376398 0.063029185 0.024892 0 0 1 0
0.014538353 0.063185751 0.024892 0 0 1 0
0.061142422 0.063195646 0.024891999 0 0 1 0
0.073392272 0.063348964 0.024892002 0 0 1 0
0.094578162 0.063288465 0.024892 0 0 1 0
0.027356308 0.06379167 0.024891999 0 0 1 0
0.056776568 0.063822627 0.024891999 0 0 1 0
0.090162642 0.063870877 0.024892 0 0 1 0
0.10505398 0.06380704 0.024892 0 0 1 0
0.063528597 0.064439513 0.024892002 0 0 1 0
0.098730847 0.06453687 0.024892 0 0 1 0
0.076415539 0.065058574 0.024892002 0 0 1 0
0.082169101 0.065247275 0.024892 0 0 1 0
0.09548156 0.065852374 0.024892002 0 0 1 0
0.014328364 0.066522844 0.024892 0 0 1 0
0.046084747 0.066520691 0.024892002 0 0 1 0
0.050194971 0.06719546 0.024892002 0 0 1 0
0.083389521 0.067100011 0.024892 0 0 1 0
0.086147174 0.067642301 0.024892 0 0 1 0
0.032864943 0.068084754 0.024892 0 0 1 0
0.051241077 0.06819503 0.024892 0 0 1 0
0.06075684 0.068718478 0.024892002 0 0 1 0
0.013307731 0.069054626 0.024892 0 0 1 0
0.024427542 0.069986381 0.024892 0 0 1 0
0.032911655 0.070200816 0.024892 0 0 1 0
0.098196864 0.070091665 0.024892 0 0 1 0
0.10753515 0.070116527 0.024892 0 0 1 0
0.031791814 0.070376292 0.024892 0 0 1 0
0.092314959 0.070575878 0.024892 0 0 1 0
0.021830115 0.07109949 0.024892 0 0 1 0
0.039405059 0.071079597 0.024892002 0 0 1 0
0.06612011 0.071593575 0.024892002 0 0 1 0
0.042763583 0.071977973 0.024892002 0 0 1 0
0.046893943 0.071947962 0.024891999 0 0 1 0
0.021783978 0.072586015 0.024892 0 0 1 0
0.1113182 0.072724104 0.024892 0 0 1 0
0.065325454 0.072799817 0.024891999 0 0 1 0
0.078612179 0.072938606 0.024892 0 0 1 0
0.033895858 0.073008172 0.024892 0 0 1 0
0.041582838 0.073493645 0.024891999 0 0 1 0
0.026888587 0.073720038 0.024892 0 0 1 0
0.054589212 0.073539823 0.024891999 0 0 1 0
0.030909188 0.074234143 0.024892 0 0 1 0
0.11221087 0.074259177 0.024891999 0 0 1 0
0.072740294 0.074723572 0.024892 0 0 1 0
0.092106789 0.074592158 0.024892002 0 0 1 0
0.081187755 0.07504306 0.024892 0 0 1 0
0.040826619 0.075282373 0.024892 0 0 1 0
0.070213288 0.075264513 0.024891999 0 0 1 0
0.056706633 0.076099686 0.024892 0 0 1 0
0.087560952 0.076011732 0.024892 0 0 1 0
0.063517943 0.076345757 0.024891999 0 0 1 0
0.043344349 0.076783173 0.024892 0 0 1 0
0.057208329 0.076799862 0.024892002 0 0 1 0
0.018749442 0.077426665 0.024891999 0 0 1 0
0.080329441 0.077360235 0.024892 0 0 1 0
0.089772537 0.077453271 0.024891999 0 0 1 0
0.10285181 0.077272266 0.024891999 0 0 1 0
0.034531146 0.07771197 0.024892002 0 0 1 0
0.088100657 0.077692017 0.024891999 0 0 1 0
0.071430981 0.077977508 0.024892 0 0 1 0
0.075749665 0.078047127 0.024892 0 0 1 0
0.064733014 0.078558639 0.024892002 0 0 1 0
0.066260144 0.078850314 0.024892 0 0 1 0
0.087998927 0.078776523 0.024891999 0 0 1 0
0.02748345 0.079245508 0.024892 0 0 1 0
0.052333903 0.079015426 0.024891999 0 0 1 0
0.079808541 0.079028614 0.024892002 0 0 1 0
0.1092148 0.079008169 0.024891999 0 0 1 0
0.061225526 0.079914138 0.024892 0 0 1 0
0.048911251 0.080046281 0.024892 0 0 1 0
0.030969568 0.080482572 0.024892 0 0 1 0
0.078276716 0.080363244 0.024891999 0 0 1 0
0.082628287 0.080293678 0.024892002 0 0 1 0
0.091031268 0.08121819 0.024892002 0 0 1 0
0.11059599 0.081214644 0.024892 0 0 1 0
0.039859306 0.081575893 0.024892 0 0 1 0
0.042526692 0.081774764 0.024892002 0 0 1 0
