# .PCD v0.7 - Point Cloud Data file format
VERSION 0.7
FIELDS x y z
SIZE 4 4 4
TYPE F F F
COUNT 1 1 1
WIDTH 1330
HEIGHT 1
VIEWPOINT 0 0 0 1 0 0 0
POINTS 1330
DATA ascii
0.11952972 0.020159345 -0.046555825
0.11222198 0.023415515 -0.021033324
0.11331841 0.022446044 -0.02882944
0.10960161 0.02554835 -0.0030397251
0.10966083 0.025524378 -0.0033535138
0.11320113 0.022512844 -0.028146692
0.11394797 0.021882212 -0.033391431
0.1140847 0.021721702 -0.034487195
0.11452688 0.021393213 -0.037390195
0.11458518 0.021363446 -0.037732258
0.11464939 0.02123148 -0.038503259
0.11589243 0.020091772 -0.047509901
0.10647908 0.025306789 -0.0069079325
0.10698384 0.02486302 -0.010438971
0.10767972 0.024270238 -0.015368752
0.10782277 0.024109501 -0.016440459
0.10863169 0.023458505 -0.02195736
0.10906555 0.023016093 -0.025311798
0.10968564 0.022480784 -0.029594257
0.11031749 0.021972232 -0.033887602
0.11039744 0.021911688 -0.034393579
0.11102139 0.021367896 -0.038803384
0.11106408 0.02132679 -0.039133377
0.11159219 0.020887611 -0.042770162
0.11169267 0.020812528 -0.043456234
0.11232527 0.020292679 -0.047744684
0.11238548 0.020268321 -0.048068695
0.11269861 0.019918306 -0.050561227
0.10502347 0.023107801 -0.019366324
0.10622244 0.022064222 -0.027856179
0.10647105 0.021930899 -0.029314868
0.10706176 0.02139594 -0.033541627
0.10763633 0.020861641 -0.037792616
0.10778936 0.020721775 -0.038865
0.10838378 0.020219928 -0.043003872
0.10291397 0.025424078 -0.0076889694
0.10345373 0.02493111 -0.011718355
0.10355263 0.024906266 -0.012215786
0.10391141 0.024582805 -0.014756784
0.10396973 0.024498139 -0.015286975
0.10495619 0.023710217 -0.021824293
0.10500199 0.023679035 -0.022155873
0.10516819 0.023554511 -0.023249477
0.10677622 0.022149332 -0.034600638
0.1067921 0.022047373 -0.035123922
0.1074558 0.021546861 -0.039509557
0.10754025 0.021499095 -0.039928325
0.10806946 0.020985823 -0.043892629
0.10864644 0.020500239 -0.047956951
0.099467315 0.025049895 -0.0062666833
0.10015438 0.024482287 -0.010903046
0.10026014 0.024426974 -0.011597477
0.10072503 0.024031788 -0.014805384
0.10146184 0.02339064 -0.020059384
0.10241275 0.02257889 -0.026646703
0.10273548 0.022286978 -0.028927974
0.10279156 0.02215711 -0.029673874
0.10328642 0.02179035 -0.032908961
0.10337005 0.021670446 -0.033619121
0.10346729 0.02160147 -0.034284793
0.10408892 0.021089094 -0.038562261
0.10420001 0.021007782 -0.039256446
0.10479808 0.020483598 -0.043496072
0.10537373 0.020008359 -0.047460131
0.09590511 0.025497314 -0.0063316375
0.096059233 0.025319524 -0.0075498
0.096682884 0.024725188 -0.012151033
0.096852258 0.024638832 -0.013038993
0.097248212 0.024233764 -0.016227528
0.097751215 0.023844212 -0.019594453
0.097862683 0.023756146 -0.02032236
0.097966865 0.023727126 -0.020815521
0.098719634 0.023044109 -0.026122406
0.098901361 0.022940649 -0.027199514
0.098989397 0.022843825 -0.0279129
0.099348687 0.022558961 -0.030337192
0.099456877 0.022482051 -0.031057768
0.099873535 0.022116119 -0.034078442
0.099985734 0.022026399 -0.034811974
0.10044208 0.021604102 -0.038153693
0.10053894 0.02153367 -0.038718201
0.10122705 0.020886298 -0.043828137
0.10136171 0.020788636 -0.0445925
0.10191773 0.020230746 -0.048871011
0.10240961 0.01992647 -0.051864006
0.092680201 0.025027614 -0.0063753426
0.09331356 0.024479127 -0.010951504
0.093450479 0.024414904 -0.011672653
0.094066627 0.023879495 -0.016076192
0.094151117 0.02383852 -0.016571864
0.094475493 0.023509521 -0.019056655
0.094584174 0.023447674 -0.019621536
0.095260516 0.022914428 -0.024090506
0.09530627 0.022822501 -0.024731189
0.096167058 0.022067586 -0.030835785
0.096219949 0.022032468 -0.031132728
0.096621677 0.021580778 -0.034336939
0.097125575 0.021230793 -0.037563324
0.097210862 0.021118404 -0.038278677
0.097759828 0.020576699 -0.042511962
0.097928017 0.020529728 -0.043216892
0.098039389 0.020448346 -0.043911159
0.098684192 0.019888205 -0.048476703
0.089145109 0.025640227 -0.0064888746
0.08925283 0.025539018 -0.0072332844
0.089751713 0.02516529 -0.010589041
0.089847617 0.025051968 -0.011320107
0.090546332 0.024452943 -0.01626341
0.090625234 0.02428082 -0.017148219
0.091092102 0.023881234 -0.020535655
0.091636069 0.023450103 -0.024219424
0.091747254 0.023361847 -0.024947405
0.092684507 0.022589529 -0.031278305
0.092841551 0.022504656 -0.032188818
0.093300045 0.022133363 -0.03534653
0.093367793 0.022109786 -0.035672531
0.093789496 0.021697801 -0.038898312
0.094327137 0.021209601 -0.042779185
0.094481558 0.021013172 -0.044047832
0.095050767 0.020542031 -0.048098005
0.095246881 0.020394513 -0.049217969
0.095272534 0.020354191 -0.049544811
0.085996762 0.025250934 -0.0071631074
0.086500742 0.02486483 -0.010336556
0.08654926 0.024797242 -0.010686517
0.086661212 0.0247644 -0.011362925
0.087142356 0.024282668 -0.015063062
0.087253928 0.024220526 -0.015738413
0.087916434 0.023690607 -0.020144328
0.087974511 0.023633428 -0.020688891
0.088383213 0.023263603 -0.023669049
0.088511772 0.023177521 -0.024395257
0.088638142 0.023099897 -0.025122531
0.089018479 0.022752702 -0.02793289
0.089147292 0.02265753 -0.028691843
0.089229688 0.022553496 -0.029514685
0.089352265 0.022427341 -0.030411787
0.089481838 0.022340229 -0.031129502
0.090069711 0.021820726 -0.035413727
0.090216585 0.021731358 -0.03627342
0.090493537 0.021390039 -0.038606219
0.090600647 0.02132123 -0.039278589
0.09118931 0.020808736 -0.0434044
0.091266543 0.020778244 -0.043869399
0.09175767 0.020312455 -0.047466837
0.091925591 0.020227579 -0.048349902
0.092016473 0.020148586 -0.049072996
0.092851609 0.019415382 -0.054979354
0.091667354 0.020331662 -0.047124386
0.082656644 0.025230143 -0.005766362
0.082451932 0.026127469 -0.0065042675
0.082546599 0.02604574 -0.0070810169
0.083230004 0.02500328 -0.010407388
0.083138861 0.025546104 -0.011227556
0.083232403 0.025430931 -0.01198829
0.083906181 0.024206623 -0.014381424
0.084079757 0.02407806 -0.015485264
0.084175691 0.023976756 -0.016167127
0.083911166 0.024806105 -0.016927727
0.084757149 0.023506805 -0.020230427
0.085256532 0.023037676 -0.023909837
0.085867852 0.02250357 -0.028178476
0.08590994 0.022417806 -0.028718263
0.08593224 0.02280093 -0.029741526
0.086710021 0.021764804 -0.034057915
0.086807504 0.021689352 -0.034716509
0.086979777 0.021572785 -0.035792202
0.086803764 0.022426395 -0.03676223
0.087423407 0.021201283 -0.038947739
0.087374404 0.021603985 -0.039607473
0.08761467 0.021014456 -0.040356055
0.087967962 0.020737732 -0.042819388
0.088083223 0.020670051 -0.043425687
0.088559121 0.020216079 -0.046945594
0.088679165 0.020134682 -0.047668263
0.088738129 0.020040799 -0.048215061
0.089210302 0.019629007 -0.051702395
0.089307278 0.01953743 -0.05242487
0.089312106 0.019874364 -0.053461134
0.079854764 0.025530174 -0.010268934
0.079895347 0.025449656 -0.010792613
0.079950906 0.025369115 -0.011387378
0.080535047 0.024859749 -0.015248917
0.080634438 0.024820615 -0.015910618
0.081311814 0.024244545 -0.02067674
0.08146283 0.024144169 -0.02156996
0.083340086 0.022487046 -0.034962989
0.08411321 0.021848144 -0.040307425
0.085935213 0.020274857 -0.053101748
0.076452173 0.025692388 -0.0084822774
0.076534718 0.025586836 -0.009228006
0.076664954 0.025436908 -0.010308333
0.076829568 0.025368754 -0.011161163
0.077504098 0.024765644 -0.015928395
0.078129314 0.024264526 -0.020232737
0.078206569 0.024163922 -0.020869538
0.079405569 0.023042159 -0.029725052
0.08086738 0.02185009 -0.039628468
0.08107511 0.02175504 -0.040713578
0.082723483 0.020315131 -0.052416161
0.074282244 0.024792448 -0.015667744
0.074978322 0.024249261 -0.020205647
0.0755729 0.023705535 -0.024583586
0.075676933 0.023653923 -0.025130108
0.076376297 0.023076145 -0.030026987
0.076850332 0.022643134 -0.03340397
0.077517331 0.022087986 -0.038011707
0.077617086 0.021969764 -0.038893633
0.07851015 0.021243924 -0.044925958
0.078910254 0.020816335 -0.048111834
0.079480961 0.020306556 -0.05209928
0.070854619 0.025205385 -0.013131402
0.071805269 0.024390994 -0.019788429
0.07241381 0.023863353 -0.024095058
0.072481766 0.023823263 -0.024501696
0.076427124 0.020458987 -0.052049533
0.067087866 0.025905516 -0.0085101277
0.067259863 0.025737731 -0.0098825321
0.067300811 0.025675148 -0.010229163
0.068634875 0.024513584 -0.019713745
0.069193438 0.024045099 -0.023434967
0.073285699 0.020510111 -0.052367575
0.026681162 0.025732487 -0.013961114
0.027392002 0.021260707 -0.059677899
0.34188363 0.021994952 0.015474029
0.34751594 0.017144546 -0.023973763
0.35237953 0.012907112 -0.058266446
0.35303691 0.0124272 -0.062779739
0.33847502 0.024678709 0.033661917
0.33985874 0.023513133 0.023908809
0.33996522 0.023511909 0.023482174
0.34014794 0.023189783 0.021671981
0.3474226 0.016917244 -0.029378891
0.35196757 0.013059985 -0.060982406
0.32556534 0.024452224 0.027098596
0.3279807 0.02240709 0.010158181
0.32948029 0.021078167 -0.0004503876
0.33014646 0.020491185 -0.0051337928
0.33142352 0.019512648 -0.0088027269
0.33394516 0.017440403 -0.026102409
0.33398217 0.017243151 -0.031829223
0.33465242 0.016756503 -0.036322877
0.33703041 0.014881628 -0.047457308
0.33634606 0.015267897 -0.048336163
0.33728981 0.01438316 -0.055100188
0.33851227 0.013531806 -0.058023006
0.33736041 0.014288854 -0.055793196
0.33846858 0.01330993 -0.063623577
0.31491166 0.023097768 0.011187986
0.31749028 0.020971449 -0.0017235279
0.31700495 0.021332772 -0.0033774823
0.31706068 0.021291986 -0.0037025064
0.31823117 0.020265557 -0.012043789
0.32468829 0.014773054 -0.052140906
0.32411081 0.015108323 -0.053664297
0.31537136 0.013043815 -0.066138446
0.29161415 0.024397504 0.022521079
0.29246226 0.023532294 0.01614628
0.30011186 0.01696061 -0.037441432
0.30075973 0.016447665 -0.041866511
0.30108666 0.016059678 -0.044660121
0.30116874 0.016012233 -0.045073986
0.3030993 0.014378967 -0.058570117
0.30316046 0.014356086 -0.058889046
0.30390218 0.013708193 -0.064028069
0.30479369 0.012940552 -0.07028091
0.30486953 0.012924775 -0.070649877
0.29117006 0.024576528 0.01990521
0.2978372 0.01882237 -0.026846468
0.2986297 0.01819382 -0.032191589
0.29868266 0.018045811 -0.032911181
0.29872575 0.017904332 -0.033606023
0.29934657 0.017529396 -0.037443265
0.30313015 0.014238562 -0.064059898
0.30331352 0.014131365 -0.065171376
0.272302 0.023916058 0.012608021
0.27415794 0.022283424 -0.00041888654
0.27666709 0.020079257 -0.018157974
0.27910665 0.017991012 -0.035213158
0.273191 0.022936828 0.00075472891
0.27395034 0.022283351 -0.0045513362
0.27402163 0.022251086 -0.004937157
0.27471316 0.021643065 -0.0098449141
0.27608678 0.020495681 -0.019374698
0.26855919 0.019107955 -0.028169692
0.25148511 0.019330334 -0.029394224
0.23918772 0.023179354 -0.0030605346
0.23937052 0.023094891 -0.0040771216
0.242761 0.020096617 -0.028140962
0.24421731 0.018852301 -0.038367286
0.23189268 0.023067668 -0.0010397285
0.23356399 0.021747237 -0.017504364
0.22466265 0.02309566 -0.0046076924
0.22593221 0.022008736 -0.013478532
0.22886939 0.019481752 -0.033989675
0.21574722 0.024869278 0.0042656064
0.21695809 0.023752388 0.00053468347
0.21704015 0.023793852 -0.0048058927
0.2171406 0.023722218 -0.0053764284
0.21764098 0.023229923 -0.0091287047
0.21936931 0.021849364 -0.015696019
0.22108868 0.020414451 -0.027682006
0.2136963 0.021039927 -0.024331853
0.2053678 0.022774627 -0.014093786
0.20641856 0.021939162 -0.021191031
0.20759512 0.020838153 -0.024595
0.20931552 0.019400662 -0.036582798
0.19735515 0.024433803 -0.00059625506
0.19776566 0.024082707 -0.0034816861
0.20015255 0.021970347 -0.020429656
0.20068689 0.021566244 -0.023942843
0.20309633 0.019589126 -0.040546641
0.20313981 0.019540861 -0.040920019
0.19067067 0.025147997 0.0037205145
0.19442886 0.021872301 -0.022741318
0.1960545 0.020497268 -0.034082897
0.18576062 0.024360653 0.00040806085
0.18629006 0.024105929 -0.0077469051
0.18736041 0.02326199 -0.014889404
0.18872778 0.022002131 -0.024763972
0.19038473 0.020650292 -0.0361
0.19187959 0.019158218 -0.042302884
0.17958929 0.025187459 0.0023725256
0.18187302 0.023175979 -0.013927437
0.18231139 0.022793684 -0.017061189
0.18363699 0.021647103 -0.026269406
0.1842865 0.021075988 -0.030856833
0.18474917 0.020619536 -0.034378357
0.17490648 0.024437701 -0.0026723817
0.17979273 0.020350769 -0.036416084
0.16896762 0.025241256 0.0025729984
0.17051508 0.02395295 -0.0080199093
0.17067985 0.023852663 -0.0090566427
0.17094269 0.02356511 -0.011193141
0.1713285 0.023193154 -0.014011331
0.17280839 0.021984803 -0.024244264
0.17470452 0.020290239 -0.037659585
0.17530872 0.019781133 -0.04194054
0.16554065 0.0239162 -0.010149196
0.16641992 0.023265885 -0.015799135
0.16647352 0.023227602 -0.01613237
0.16687611 0.022874873 -0.019028403
0.16739713 0.022375204 -0.022874787
0.1674661 0.0223538 -0.023205459
0.16793633 0.021879232 -0.026778951
0.16904086 0.021010639 -0.034199938
0.16911654 0.020837005 -0.035261579
0.1697267 0.020382633 -0.039124668
0.15941885 0.025232729 -0.0030358508
0.16126011 0.02367414 -0.015818
0.16159171 0.023366423 -0.018278874
0.16478369 0.020654263 -0.040511698
0.15625392 0.023757534 -0.012844101
0.1567971 0.023274377 -0.016763687
0.15824877 0.022147464 -0.026319817
0.15872191 0.021711351 -0.029818572
0.1597476 0.02085403 -0.036898315
0.1603729 0.020195466 -0.04187575
0.16075155 0.019950321 -0.044148639
0.15045983 0.024804909 -0.0035308376
0.15177289 0.023680869 -0.012770697
0.15258025 0.023066275 -0.018044069
0.15343699 0.022253482 -0.024429202
0.15385142 0.021865204 -0.027445048
0.15438843 0.021484325 -0.030803666
0.1562324 0.019874005 -0.043881208
0.15138146 0.024364937 -0.013872862
0.15301841 0.022948584 -0.02534987
0.15397264 0.022104112 -0.032203272
0.15562025 0.020708919 -0.043544844
0.15566874 0.02067388 -0.043949589
0.14659813 0.024608191 -0.011739902
0.1471311 0.02416935 -0.01551719
0.14773551 0.023615694 -0.019764751
0.14836866 0.023112031 -0.023992397
0.14917973 0.022471722 -0.02960331
0.15079975 0.020722631 -0.037028469
0.151604 0.020061184 -0.0426379
0.15123978 0.020559689 -0.044521809
0.14390878 0.022951268 -0.019912295
0.14348197 0.02369708 -0.020651847
0.14453475 0.022444537 -0.024125822
0.14463982 0.022696307 -0.02876997
0.14634265 0.020862857 -0.036885321
0.14701912 0.020658113 -0.045414127
0.14280914 0.024251528 -0.016032167
0.14408585 0.02301785 -0.02557148
0.14543526 0.021984275 -0.034472086
0.13823283 0.024131272 -0.01156538
0.14025123 0.02246999 -0.025405563
0.14169669 0.021325488 -0.035244964
0.14219657 0.020845158 -0.038812384
0.13594842 0.026593901 0.0012198538
0.13721228 0.025452271 -0.0078809038
0.13920026 0.023785194 -0.021718867
0.14049548 0.022674698 -0.030732155
0.14086869 0.022311306 -0.033577941
0.14181401 0.021564314 -0.039919108
0.13288367 0.025461957 -0.004225798
0.13391022 0.024535216 -0.01163286
0.13479652 0.023822231 -0.017636731
0.13750973 0.021472586 -0.036688842
0.12923458 0.025250997 -0.009342283
0.12990309 0.024683045 -0.01398731
0.13000375 0.024641965 -0.014599822
0.13039733 0.024209755 -0.017691515
0.13129196 0.023546295 -0.023497336
0.1318607 0.023066243 -0.027462162
0.13196117 0.022991592 -0.028147832
0.13312401 0.021982312 -0.03630162
0.13451588 0.020829096 -0.045851626
0.12550828 0.025027905 -0.0093989447
0.12567331 0.024895962 -0.010441154
0.12879433 0.022124279 -0.032726988
0.13124314 0.020041406 -0.049836628
0.12096426 0.02548253 -0.0040393844
0.12111422 0.025350746 -0.0052087381
0.12293302 0.023795411 -0.017851196
0.12298676 0.023695124 -0.018422052
0.12561341 0.021431634 -0.036837116
0.1210559 0.02582594 -0.0081359968
0.1216673 0.025354922 -0.012322001
0.12347168 0.023766922 -0.025142819
0.12469577 0.022721928 -0.033650883
0.12481663 0.022646815 -0.034382515
0.12544042 0.022101669 -0.038787447
0.12545703 0.021989118 -0.039329857
0.12592492 0.021682683 -0.042143218
0.11697076 0.026019964 -0.0059021115
0.11793128 0.02523257 -0.012400098
0.11810612 0.025049163 -0.013839737
0.11858769 0.024770077 -0.016625822
0.119027 0.024360036 -0.019868411
0.11954851 0.023868563 -0.023731984
0.11971518 0.023633135 -0.025192879
0.1197665 0.023523845 -0.025913894
0.12048106 0.02303154 -0.030334212
0.12158121 0.022026496 -0.038364515
0.12171478 0.021919858 -0.03921371
0.1218255 0.021853214 -0.039903387
0.12232393 0.021428589 -0.043306418
0.12273133 0.021093443 -0.046156429
0.12274548 0.021021925 -0.046509422
0.12315412 0.020765733 -0.04892391
0.11329456 0.026030475 -0.0060563758
0.11347102 0.025890574 -0.0071552992
0.11390808 0.02555884 -0.010031737
0.11400685 0.025393225 -0.011194967
0.11415073 0.025268223 -0.012097299
0.11436938 0.025089219 -0.013537094
0.11493032 0.024649723 -0.017409988
0.11545426 0.02416754 -0.021144457
0.1159516 0.023687232 -0.024882838
0.11671013 0.023076639 -0.03004089
0.11679806 0.022999542 -0.030719221
0.11733122 0.022531025 -0.034417786
0.11795236 0.022010325 -0.038742431
0.11807932 0.021941418 -0.039470404
0.1187502 0.021234233 -0.044739313
0.11923096 0.020930246 -0.047610678
0.10966258 0.025981613 -0.0068651065
0.10978479 0.025939051 -0.0075211674
0.11022339 0.025502171 -0.010774799
0.11037438 0.025465073 -0.011465602
0.1104921 0.025356881 -0.012221903
0.11128332 0.024702143 -0.017662302
0.11139096 0.024588769 -0.01855161
0.11189208 0.024248905 -0.021688268
0.11188355 0.024156203 -0.022047333
0.11237463 0.023793291 -0.025279351
0.11243539 0.023659628 -0.026028685
0.11300838 0.023181543 -0.029905997
0.1131609 0.022985745 -0.031320296
0.11364809 0.022629101 -0.034478627
0.11377218 0.022531498 -0.035233364
0.11431527 0.021995343 -0.039355353
0.11488504 0.021506201 -0.043426946
0.11496028 0.021443652 -0.043919094
0.11599851 0.02063068 -0.0508167
0.10559207 0.026612524 -0.0035672337
0.10569772 0.026563693 -0.0042509288
0.10574362 0.026450317 -0.0047930479
0.10614575 0.02614476 -0.0075465962
0.10621059 0.026056528 -0.0081093237
0.10668411 0.025672084 -0.011287987
0.10680351 0.025585748 -0.012015186
0.10761055 0.024852091 -0.017843179
0.10774183 0.0247305 -0.018734358
0.10835078 0.024237849 -0.022983059
0.10883646 0.023810465 -0.02637589
0.10889629 0.023788359 -0.026698261
0.10920441 0.02341566 -0.029248461
0.10945015 0.023263223 -0.03078182
0.10953805 0.023223896 -0.031304568
0.11012419 0.022685904 -0.035583317
0.11025964 0.022555634 -0.03662055
0.11073628 0.022152692 -0.039860167
0.11084402 0.022111947 -0.040398061
0.11138566 0.021613596 -0.044304833
0.10193741 0.026798844 -0.0039160922
0.10249492 0.026270764 -0.0079672635
0.10271298 0.026207764 -0.00900089
0.10301223 0.025860362 -0.011554256
0.10379405 0.025291394 -0.016625516
0.10388661 0.025198983 -0.017225362
0.10509934 0.023659522 -0.022556938
0.10497211 0.023993513 -0.023400441
0.10487192 0.024339113 -0.024304323
0.10552694 0.023269968 -0.025672771
0.10562678 0.023227725 -0.026219562
0.10614547 0.022756973 -0.029999226
0.10587344 0.023448182 -0.031390309
0.10674664 0.022217831 -0.034258425
0.10646486 0.022847045 -0.03598021
0.10719325 0.022333452 -0.04056444
0.10724196 0.022281507 -0.040907882
0.10772398 0.021815712 -0.044516683
0.10835535 0.021286234 -0.048923068
0.098768473 0.026316907 -0.0037864968
0.099216677 0.025871128 -0.00714463
0.099323496 0.025812566 -0.0076774284
0.099951364 0.025281783 -0.012217574
0.10001664 0.025193917 -0.012780853
0.10040444 0.024866536 -0.015428498
0.10048939 0.024809256 -0.015958734
0.10059346 0.02475632 -0.016512267
0.10116297 0.02419237 -0.020903826
0.10130534 0.02406757 -0.021804176
0.10146925 0.023939146 -0.022878148
0.10215728 0.023375072 -0.027655549
0.10260722 0.022966575 -0.0308493
0.10315746 0.022466753 -0.034900256
0.10321682 0.022417519 -0.035251223
0.10388759 0.021861646 -0.039935775
0.10395131 0.021798791 -0.04042501
0.10454162 0.021290243 -0.044531263
0.10510694 0.020809609 -0.048449501
0.095625758 0.02634827 -0.007028915
0.095672667 0.02628646 -0.0073496848
0.095768295 0.026127793 -0.0084078461
0.096559152 0.025513424 -0.013646245
0.096954636 0.025098685 -0.016829386
0.097696647 0.024540039 -0.021652848
0.098650336 0.023676677 -0.028550141
0.09913604 0.023212152 -0.03210742
0.10024968 0.02233028 -0.039555438
0.10026556 0.0222288 -0.040078565
0.10154296 0.021166954 -0.048847735
0.092282146 0.025975134 -0.0061809272
0.092436381 0.025891455 -0.007198438
0.092532121 0.025818981 -0.0078896135
0.093187898 0.025268763 -0.012313537
0.093282446 0.025194135 -0.013036624
0.093880758 0.024689198 -0.017246559
0.093882389 0.024610706 -0.017588377
0.094388194 0.024247438 -0.020779118
0.095109433 0.023569666 -0.026068181
0.09522146 0.0234812 -0.02680321
0.095361322 0.023360819 -0.027722158
0.095972836 0.022876291 -0.031942002
0.096047997 0.022813838 -0.032454133
0.096471369 0.022422591 -0.035485245
0.096997291 0.021931916 -0.039380021
0.097773485 0.021293228 -0.044742391
0.097836077 0.021241259 -0.045210049
0.098202229 0.02090974 -0.047720917
0.098484039 0.020720199 -0.04953368
0.088752493 0.026617222 -0.0062499866
0.089629978 0.025796186 -0.012621373
0.090865046 0.024719689 -0.021436438
0.09152928 0.024239013 -0.02571331
0.093036048 0.022925476 -0.036303058
0.085589185 0.026327817 -0.0063165724
0.085632533 0.026247505 -0.0068791732
0.085759237 0.026131913 -0.0077495873
0.08638747 0.025642885 -0.011957884
0.08656621 0.025541615 -0.01301612
0.087149113 0.025016595 -0.017104566
0.087212749 0.024954334 -0.017634027
0.08774887 0.024505984 -0.02144707
0.088390633 0.023980809 -0.025741339
0.092184022 0.020623416 -0.052703418
0.092239454 0.020597458 -0.053022884
0.082289554 0.026933994 -0.0076384917
0.082893893 0.026400175 -0.011890188
0.088786654 0.021328729 -0.053298801
0.076522909 0.02102186 -0.05506105
0.04709911 0.02199639 -0.05775746
0.33690286 0.025389802 0.027802117
0.34938234 0.014717104 -0.05946508
0.34964576 0.014345882 -0.06192264
0.32733104 0.022800524 0.0092598051
0.33006319 0.020302085 -0.010322988
0.33195871 0.018852819 -0.023023143
0.33260006 0.018248681 -0.027622312
0.33471948 0.01651744 -0.042208508
0.3361614 0.015246483 -0.052473113
0.32419702 0.025241544 0.025592126
0.32475975 0.024817858 0.021741733
0.32480106 0.024771493 0.021419846
0.32672065 0.023223666 0.0082824975
0.32811731 0.021864681 -0.0019758344
0.32939324 0.020709528 -0.011168092
0.33041942 0.019962117 -0.017892182
0.33326608 0.017560501 -0.037760973
0.33590144 0.015190044 -0.056547284
0.33642295 0.014774567 -0.060071558
0.31426385 0.023508493 0.010258973
0.31813353 0.020232415 -0.016650796
0.32057843 0.018041711 -0.03426604
0.32261238 0.01627812 -0.048553839
0.31146163 0.025674216 0.02419772
0.31285152 0.024543792 0.01465077
0.31571585 0.022139428 -0.0052017421
0.31822151 0.019961836 -0.022976846
0.32060143 0.017867172 -0.039782628
0.30547282 0.021364534 -0.0072845072
0.30889273 0.018350504 -0.031448513
0.31140462 0.016231975 -0.048924118
0.31159949 0.016060211 -0.050309435
0.31381592 0.014139431 -0.065966547
0.30686924 0.019935943 -0.02278021
0.30749911 0.019324213 -0.02741079
0.30857089 0.018557597 -0.034424156
0.31359589 0.014265703 -0.069558457
0.29111442 0.024418416 0.014725477
0.29317015 0.022635059 0.00022321939
0.29795223 0.01862186 -0.033032864
0.3026728 0.014566695 -0.066058323
0.29122588 0.02418761 0.0084940493
0.29325959 0.022485508 -0.0056440979
0.29420209 0.021747218 -0.011963755
0.29515344 0.020788942 -0.01917249
0.29649258 0.019700805 -0.028327048
0.29656729 0.01959729 -0.028992802
0.2814264 0.023886964 0.0042832047
0.28315637 0.02263842 -0.0019355863
0.28609577 0.020165889 -0.022446617
0.27405652 0.022080533 -0.010711968
0.26493368 0.022228898 -0.007820189
0.26599211 0.021382675 -0.014916852
0.26826787 0.019478653 -0.030783817
0.26573187 0.021385238 -0.018923596
0.26815793 0.019427676 -0.035542771
0.26834229 0.019311203 -0.036652431
0.25356001 0.024639443 0.0062695965
0.25518698 0.023305552 -0.0048872232
0.25625598 0.022252711 -0.012842119
0.25698078 0.021640951 -0.017843992
0.25638926 0.022081908 -0.019038498
0.25775519 0.020960577 -0.0234548
0.25656426 0.021842007 -0.020505503
0.2469556 0.023362139 -0.0073964447
0.24806549 0.022212591 -0.015902162
0.24979524 0.020835154 -0.02756007
0.25016528 0.020354126 -0.030706197
0.23741056 0.024793286 0.0045892373
0.23858967 0.023716256 -0.0039292797
0.24044767 0.022200456 -0.016660795
0.24145582 0.021235056 -0.024036601
0.24221931 0.020595677 -0.029345974
0.24243265 0.02029537 -0.031179778
0.23679644 0.025297148 0.0037551001
0.23736759 0.024816388 -0.00019507855
0.23810796 0.024180107 -0.0054363459
0.23824443 0.024085067 -0.0061894059
0.24169137 0.021001711 -0.030941993
0.24181889 0.02084008 -0.032000899
0.22971474 0.024919115 0.0039415136
0.22955534 0.025036391 -0.00014676899
0.23296252 0.022273593 -0.018380806
0.23301843 0.022252943 -0.018687345
0.23401056 0.02125377 -0.026118159
0.23343021 0.021697244 -0.027365521
0.23351026 0.021650935 -0.027751163
0.23478547 0.020494862 -0.031813845
0.23424019 0.020997973 -0.03302446
0.22310814 0.024502618 0.0015814751
0.22303961 0.024556141 -0.003147535
0.22411709 0.023673892 -0.0054589808
0.22352032 0.024206569 -0.0062825084
0.22417533 0.023669971 -0.010738924
0.22496691 0.022994127 -0.016225614
0.22665949 0.021534834 -0.028222024
0.22673494 0.021444021 -0.028876513
0.22772412 0.020536928 -0.036005832
0.220507 0.020963248 -0.028501824
0.22093409 0.020526245 -0.031764716
0.21594839 0.024865277 -0.0016626939
0.21665961 0.024217315 -0.006805256
0.21715651 0.023790063 -0.010318622
0.21815844 0.022913644 -0.017386079
0.22096843 0.020447088 -0.037225828
0.20998569 0.024296882 -0.0032396242
0.21110645 0.023283597 -0.011347495
0.21313548 0.021614075 -0.025156163
0.21320866 0.021552179 -0.02583155
0.2150736 0.019937517 -0.03887105
0.20824496 0.025835415 0.0040189028
0.21015742 0.024162252 -0.0096704662
0.21066532 0.023779048 -0.01291319
0.21173798 0.022879777 -0.020321354
0.21265952 0.022049576 -0.027002171
0.21298301 0.021890782 -0.02879785
0.21328847 0.021596707 -0.031098478
0.21439125 0.020583639 -0.039032243
0.2145602 0.020486133 -0.040057212
0.20295428 0.024975114 -0.0018843487
0.20342715 0.0245097 -0.0053012818
0.20487617 0.023311418 -0.015304595
0.20527498 0.022877349 -0.018497556
0.2064383 0.021876646 -0.026609622
0.19709682 0.024855763 -0.003214255
0.20011403 0.022164853 -0.024702832
0.20155229 0.020987744 -0.034657046
0.20162092 0.020869525 -0.03533899
0.19558793 0.02622206 0.0024688616
0.1958157 0.026031177 0.00089761615
0.19622654 0.025665142 -0.0019564331
0.19680208 0.025177605 -0.0061427727
0.19776393 0.02429579 -0.013032526
0.19841744 0.023748236 -0.017468706
0.19845414 0.023666857 -0.017999947
0.19902599 0.02324269 -0.021725006
0.18981622 0.026092786 0.0053884611
0.19150609 0.024607345 -0.0066645965
0.19205602 0.024140403 -0.010498576
0.19262183 0.023643756 -0.014422484
0.19485115 0.021763954 -0.029960468
0.19500677 0.021629067 -0.036140054
0.19507036 0.021615038 -0.036476091
0.19562803 0.021153871 -0.040350392
0.18466638 0.025680289 -0.00084961951
0.18489006 0.025518004 -0.0022286251
0.18601337 0.024558792 -0.010057226
0.186345 0.024195682 -0.01271446
0.18686864 0.023862079 -0.016006596
0.18691112 0.023786712 -0.016387373
0.18931538 0.021700094 -0.033302844
0.18949081 0.02148113 -0.034833066
0.17954201 0.025364291 -0.0020031631
0.18025948 0.024683762 -0.0072831064
0.18136349 0.023820931 -0.014715135
0.18185207 0.023391441 -0.018217742
0.18244837 0.022870414 -0.022325382
0.18375941 0.021708721 -0.031688005
0.17892677 0.026092688 -0.0020826012
0.1808603 0.024479417 -0.015516341
0.18137041 0.024038875 -0.019041717
0.18327162 0.022300312 -0.03281372
0.18366785 0.021954678 -0.035666943
0.18375674 0.021943199 -0.036016151
0.17528607 0.024463065 -0.0091085285
0.17859432 0.021579435 -0.032436274
0.1798116 0.020554982 -0.040923223
0.17437768 0.025372095 -0.0074858889
0.17518122 0.024767237 -0.012787193
0.17529923 0.024682119 -0.013466924
0.17679596 0.023315087 -0.024434954
0.17748116 0.022678908 -0.029379204
0.17932513 0.021241672 -0.041721985
0.1695264 0.025006399 -0.0056307688
0.16898879 0.025638301 -0.0064134821
0.1701647 0.024494171 -0.0098603517
0.17194843 0.023012651 -0.022229999
0.17147176 0.023640594 -0.023215905
0.17186233 0.023297515 -0.026012957
0.17195195 0.023230644 -0.026578039
0.17299679 0.02206202 -0.029680476
0.17358193 0.021560498 -0.033866495
0.17363955 0.021474905 -0.03442014
0.17317307 0.022115042 -0.035392262
0.16278359 0.02685602 0.0010735765
0.16454063 0.025076669 -0.0070645586
0.16404381 0.025761515 -0.0078244209
0.16510461 0.024606945 -0.010952152
0.16463077 0.025292858 -0.011725098
0.16552992 0.024200082 -0.014160201
0.165031 0.024893617 -0.014903627
0.16543986 0.024653753 -0.017334446
0.16590917 0.024229517 -0.020574093
0.16790791 0.022290595 -0.03034012
0.1675033 0.022740029 -0.032255717
0.16809183 0.022227284 -0.036487736
0.15957652 0.025418244 -0.0081048235
0.15966991 0.025334826 -0.0087857023
0.16159318 0.023673117 -0.022270776
0.16208386 0.023255453 -0.025760815
0.16313004 0.022397367 -0.032828331
0.16375333 0.021798389 -0.037409566
0.16458157 0.020983191 -0.043770805
0.15564013 0.024586268 -0.012611501
0.15776184 0.022833694 -0.027069777
0.15838043 0.022332361 -0.03132911
0.15983385 0.021004586 -0.041897118
0.15463175 0.025762543 -0.0095075592
0.15536366 0.025158249 -0.01457043
0.15679638 0.023921041 -0.024658501
0.15884596 0.022137821 -0.039037101
0.15107512 0.024858847 -0.01608222
0.15218946 0.023985328 -0.023476154
0.15300669 0.023298385 -0.02916117
0.15351503 0.022803454 -0.033025071
0.14545086 0.025948577 -0.0075535551
0.14650412 0.024975251 -0.01520548
0.14732757 0.024329435 -0.020820796
0.14922634 0.022708906 -0.033962332
0.15019827 0.021849051 -0.041025072
0.13971841 0.027240895 0.0016950965
0.14042766 0.026661983 -0.0032203346
0.14175709 0.025456741 -0.012810886
0.14242248 0.02494291 -0.017117903
0.14313208 0.024242494 -0.02246917
0.14422353 0.023350094 -0.0299275
0.14570372 0.022095101 -0.040168114
0.13542368 0.027412601 0.0011655614
0.13582574 0.027105909 -0.001637049
0.13616493 0.026677407 -0.0045023561
0.13748138 0.025631253 -0.013398968
0.13767469 0.025468392 -0.014798678
0.13808069 0.025107129 -0.017607808
0.13889146 0.024418257 -0.0232969
0.13960159 0.023891496 -0.027910814
0.14143389 0.022256054 -0.041044086
0.14209227 0.021738878 -0.045436472
0.14214848 0.021569561 -0.046327092
0.1326042 0.026156563 -0.0056563169
0.13378879 0.025061663 -0.014204174
0.13446701 0.024459613 -0.019111112
0.1350235 0.024007855 -0.022917643
0.13565281 0.023439661 -0.027395956
0.13616143 0.022950601 -0.031238005
0.13677962 0.02251224 -0.035116546
0.1371828 0.022166103 -0.037947752
0.13763487 0.021775084 -0.041171506
0.13826159 0.021226324 -0.045554437
0.13283341 0.026217943 -0.011416577
0.13331985 0.025794286 -0.014900871
0.13411093 0.025170354 -0.020235777
0.13467735 0.024634788 -0.024385445
0.13537425 0.024057468 -0.029152669
0.13594051 0.023587905 -0.033043735
0.1277499 0.027009506 -0.0022404417
0.12896796 0.025970284 -0.010728657
0.13028203 0.024845852 -0.020011172
0.13154288 0.023746775 -0.028850079
0.13225257 0.023219725 -0.033462711
0.13273515 0.022761814 -0.037011705
0.13318449 0.022369588 -0.040201105
0.12482426 0.02608311 -0.0078602284
0.1248723 0.025998969 -0.008382991
0.1253583 0.025614738 -0.011694498
0.12536553 0.025473941 -0.012283571
0.12584923 0.025203275 -0.015131004
0.1264798 0.024592463 -0.019732878
0.12724321 0.023942817 -0.025059476
0.12777287 0.023428416 -0.029023983
0.12853208 0.02278902 -0.034302644
0.12909891 0.022319488 -0.038194664
0.1295139 0.0219486 -0.041222148
0.1295649 0.02188592 -0.041707762
0.13000481 0.021556413 -0.044557802
0.12614353 0.025224924 -0.021337293
0.12692307 0.024614012 -0.026480176
0.11968345 0.027525514 -0.0017179623
0.11978576 0.027363926 -0.0028036535
0.1198237 0.02730703 -0.0031525046
0.12028497 0.026946276 -0.0062844604
0.12039272 0.02684805 -0.0069882795
0.12056728 0.026724447 -0.0080752671
0.12067425 0.026623495 -0.0088028535
0.12127972 0.026127923 -0.013050169
0.12175915 0.025702013 -0.016410418
0.12185311 0.025661733 -0.016929917
0.1223661 0.025152406 -0.020809256
0.12310276 0.024533911 -0.025984667
0.12321411 0.024427967 -0.026848868
0.1238308 0.023969941 -0.030801751
0.12444685 0.023444381 -0.035080716
0.12505382 0.022768011 -0.040003724
0.12594137 0.022119751 -0.045686185
0.12604564 0.022033302 -0.046393082
0.11669575 0.026787378 -0.0070698559
0.11715784 0.026375044 -0.010263257
0.11767582 0.025946772 -0.013838336
0.117805 0.025821926 -0.014879845
0.11815834 0.025515661 -0.017330095
0.11943667 0.024344899 -0.026603281
0.12022637 0.023717187 -0.031894356
0.12060446 0.023331825 -0.034795798
0.12073314 0.023290269 -0.035513386
0.12079618 0.02323701 -0.03586027
0.12121928 0.022825239 -0.039044663
0.12153056 0.022642767 -0.040836029
0.11245327 0.027203301 -0.0035809055
0.11246071 0.027143644 -0.0039330125
0.11310977 0.026621403 -0.0082225576
0.11385355 0.026038544 -0.01314541
0.11405168 0.025847893 -0.014587492
0.11461868 0.025407642 -0.018444978
0.1151393 0.024975311 -0.022000246
0.1156531 0.024466472 -0.025880471
0.11578085 0.024410624 -0.026606105
0.11650155 0.023742078 -0.03192091
0.11773326 0.022757955 -0.040151305
0.1177823 0.022664957 -0.04069683
0.11829565 0.022283357 -0.044016741
0.10894554 0.027179182 -0.0046907812
0.10947673 0.026759025 -0.0082520172
0.11017344 0.026201647 -0.012883224
0.11149737 0.024920681 -0.022784613
0.11153412 0.024866432 -0.023127727
0.11208165 0.024463031 -0.026714131
0.11260936 0.023973899 -0.030550562
0.11264532 0.023899307 -0.030962788
0.11347431 0.023268566 -0.036425225
0.11403082 0.022792194 -0.040395163
0.11267305 0.023861503 -0.031303421
0.10513294 0.027541311 -0.0033247471
0.10728133 0.025649294 -0.018576637
0.10742351 0.025527775 -0.019603856
0.10150094 0.027743489 -0.0036788657
0.10742003 0.02265618 -0.045217849
0.098338574 0.027229115 -0.0037473291
0.099019393 0.026653472 -0.0083728582
0.09914276 0.026583977 -0.0092221349
0.10026394 0.025572967 -0.017159671
0.10425961 0.02214738 -0.045198046
0.10487235 0.021623068 -0.049476258
0.10108021 0.022259653 -0.047998711
0.10114612 0.022128858 -0.048771583
0.098478839 0.021299843 -0.052331626
0.098251686 0.022104809 -0.053326368
0.095062271 0.02184101 -0.052933112
0.08536502 0.022119533 -0.053573214
0.06325151 0.028209653 -0.0070681423
0.33628741 0.02574221 0.026546024
0.33715796 0.025078584 0.020855986
0.34016985 0.022465015 -0.00043204427
0.34084255 0.021880822 -0.0052799284
0.34123704 0.021394346 -0.0084861517
0.34162846 0.021191802 -0.0106695
0.34192339 0.020781925 -0.013430938
0.34255508 0.020303067 -0.017657265
0.34328887 0.019689048 -0.022624001
0.34537959 0.017806798 -0.037608355
0.34667912 0.016799416 -0.046419322
0.34716368 0.016373467 -0.049705833
0.34827 0.015389899 -0.057559073
0.33552182 0.026177106 0.02630461
0.33646509 0.025441935 0.019982465
0.33768213 0.024369098 0.011396363
0.33768097 0.02431106 0.011108518
0.34016079 0.022221528 -0.0061801821
0.34323451 0.019518759 -0.027927205
0.34390041 0.018922165 -0.032691658
0.34454459 0.018269219 -0.037518442
0.34473261 0.018197937 -0.038562819
0.3448272 0.018164525 -0.038948864
0.34546989 0.017536683 -0.043824211
0.34650815 0.016734308 -0.050622344
0.34685928 0.01637473 -0.05339396
0.34720924 0.015988214 -0.055999681
0.34829801 0.015127694 -0.063438237
0.32414153 0.025123918 0.020449877
0.32806867 0.021732138 -0.0071390122
0.33006749 0.020068366 -0.020953923
0.33122298 0.019067226 -0.029072702
0.3333261 0.017338559 -0.043680415
0.3342382 0.016446114 -0.050395057
0.3343952 0.016234353 -0.051801875
0.33478397 0.016053651 -0.053961128
0.33488253 0.015981091 -0.054635525
0.33525884 0.015531335 -0.057791203
0.3357518 0.015138689 -0.060977787
0.33612701 0.014834689 -0.063545018
0.33640879 0.014552856 -0.065690473
0.32424465 0.024776522 0.013900191
0.325353 0.023999957 0.0067907274
0.32537779 0.023955101 0.0064701587
0.32678312 0.022677142 -0.0034887344
0.32862782 0.020993935 -0.016894817
0.32986286 0.020080427 -0.025023758
0.33057225 0.019431047 -0.030156896
0.33186042 0.018324338 -0.039227605
0.33264634 0.017689023 -0.044584423
0.33536369 0.015321448 -0.06375742
0.31084839 0.026071891 0.023100197
0.31021106 0.026467644 0.022050604
0.3104203 0.026160398 0.020224288
0.31288937 0.024359405 0.0088380128
0.31294811 0.024302488 0.0084704757
0.31440833 0.022857172 -0.00735116
0.31544384 0.021936743 -0.014744401
0.31718501 0.020411793 -0.027085721
0.31825787 0.019760298 -0.028695017
0.31858295 0.019370893 -0.031485811
0.31886062 0.019066978 -0.03613095
0.31984961 0.018167915 -0.04562825
0.32125646 0.017107738 -0.050026834
0.32215014 0.016375128 -0.056096837
0.32221532 0.016348863 -0.056428105
0.32154971 0.016744196 -0.05730626
0.30123258 0.024743749 0.011711754
0.30164677 0.024294499 0.0085117817
0.3031241 0.022982098 -0.0020672977
0.30623493 0.020360935 -0.023665041
0.30750695 0.019199528 -0.032861844
0.31001914 0.017090131 -0.050322995
0.31245995 0.014944166 -0.067571431
0.30803868 0.018739011 -0.041536778
0.30871695 0.018102955 -0.046474412
0.30935508 0.01749659 -0.051204368
0.31004682 0.016897706 -0.056131572
0.31078699 0.016418939 -0.060749665
0.29131746 0.023954351 0.00232476
0.29190779 0.023497494 -0.0016262531
0.29266575 0.02287142 -0.006871298
0.29353124 0.022135826 -0.01288873
0.29354092 0.022075728 -0.013221368
0.29465112 0.021178555 -0.020699337
0.29474494 0.021093948 -0.021407783
0.29204118 0.023320865 -0.0078072995
0.29288495 0.022478374 -0.014157549
0.2929104 0.022392539 -0.014569044
0.29418147 0.021442601 -0.022872403
0.29425451 0.02137579 -0.023402095
0.29519966 0.020477202 -0.030451193
0.2800014 0.025179334 0.0094576403
0.28009439 0.024956733 0.0083113089
0.28218931 0.023094432 -0.0064853877
0.28286874 0.022583436 -0.011106521
0.28366983 0.021849474 -0.016790822
0.27936623 0.025510054 0.0081906393
0.280081 0.024797844 0.0028718412
0.28414848 0.02143836 -0.025136337
0.27015758 0.025441565 0.0065919757
0.27269498 0.023224825 -0.0063090771
0.27205047 0.023663601 -0.007207185
0.27274799 0.023073476 -0.012144551
0.27495551 0.021135375 -0.027716324
0.2619459 0.024847163 0.0031804144
0.26469004 0.02238401 -0.016309723
0.26521868 0.021828147 -0.020346403
0.26443672 0.022395663 -0.020306468
0.25459921 0.023727376 -0.0061519891
0.25769827 0.02096045 -0.028206557
0.2549924 0.023267752 -0.014290452
0.25581086 0.022522911 -0.020280749
0.25584391 0.022450693 -0.020624116
0.25800973 0.020582298 -0.035848752
0.24636522 0.023849575 -0.0084358603
0.2475954 0.022617375 -0.017527029
0.24819571 0.02202555 -0.022110477
0.24405611 0.025671601 0.0021793619
0.24687076 0.023203984 -0.017666116
0.24853605 0.02186388 -0.028973386
0.24916336 0.021286512 -0.033557519
0.23678873 0.025347326 -0.0010502189
0.2376439 0.024625685 -0.0070216209
0.23766237 0.024584036 -0.0073725879
0.23834625 0.024051482 -0.011976376
0.23983313 0.022712555 -0.017498285
0.23989436 0.022661407 -0.017862462
0.23932679 0.023151636 -0.0190202
0.24104317 0.021564476 -0.031455316
0.24237718 0.020464798 -0.040618822
0.23241955 0.022773245 -0.019518629
0.23251151 0.022731075 -0.019959047
0.2335757 0.021609509 -0.028130099
0.2283909 0.026139503 0.0032742769
0.23010169 0.024582135 -0.0089680105
0.23297876 0.02216655 -0.028932564
0.22118621 0.026238434 0.0050335005
0.22293559 0.024741422 -0.0071570575
0.22438353 0.023562886 -0.01704669
0.22450097 0.023369785 -0.018288612
0.22476165 0.023256684 -0.019710019
0.22487748 0.023174688 -0.020433277
0.22503825 0.023053871 -0.021463767
0.22508591 0.022986976 -0.02200146
0.22619273 0.021962058 -0.029955596
0.22130428 0.026109319 -0.0010861382
0.2218435 0.025719183 -0.004493922
0.2239396 0.02388487 -0.0193239
0.21358876 0.027072411 0.0053070933
0.21434124 0.026316877 0.0021667555
0.21481204 0.02592 0.0015499443
0.21485999 0.025903966 -0.0038951337
0.21651626 0.024383496 -0.010826215
0.21641621 0.024527725 -0.014919192
0.21757837 0.023406694 -0.018433139
0.21937542 0.022070663 -0.030270502
0.21885082 0.022590254 -0.031468526
0.21982701 0.021610025 -0.03376475
0.2193146 0.022111993 -0.035011999
0.22045437 0.020990562 -0.038396433
0.21704115 0.023936111 -0.019495964
0.20876221 0.02547691 -0.004535079
0.21010229 0.024339182 -0.013743713
0.21053277 0.023961043 -0.016851306
0.21221687 0.022561105 -0.028565377
0.21229759 0.022531705 -0.028951421
0.2124971 0.022395236 -0.030196965
0.2127206 0.022135353 -0.032090202
0.20140439 0.026417237 0.0043115392
0.20240405 0.025575727 -0.0026909187
0.20242585 0.025658771 -0.0074699223
0.20304745 0.025089186 -0.012045354
0.20370285 0.024521407 -0.016644225
0.20418531 0.02408503 -0.020170107
0.20588672 0.022452176 -0.02750209
0.20567416 0.022714356 -0.028274149
0.20552792 0.022980448 -0.029363245
0.20753297 0.021236802 -0.038353644
0.20710972 0.021729644 -0.039967895
0.20788421 0.020912737 -0.040879428
0.19508481 0.02679974 0.0014732853
0.19713931 0.024939662 -0.0082490519
0.19797547 0.024231471 -0.019284219
0.1995945 0.022925355 -0.030176148
0.20059693 0.022050692 -0.037366241
0.20109898 0.021624064 -0.040888555
0.18933918 0.026711751 -0.00089658052
0.19051032 0.025619339 -0.0042696446
0.19140562 0.024826517 -0.010641724
0.19209471 0.02425066 -0.015262693
0.19215038 0.024213389 -0.015586779
0.19275732 0.023644902 -0.020165473
0.19223286 0.024252053 -0.021004103
0.19280942 0.023724684 -0.025240794
0.19326301 0.023333736 -0.02843149
0.19335218 0.023322526 -0.028781168
0.19382609 0.022847284 -0.032349937
0.19396098 0.02278685 -0.033054434
0.19512415 0.021589871 -0.036834612
0.1954276 0.021397514 -0.03857851
0.18348323 0.026845787 0.002921477
0.18391021 0.02643884 -0.00028881431
0.18435924 0.026174285 -0.0030274764
0.1848664 0.025691207 -0.006602332
0.18491173 0.025643507 -0.0069878548
0.18447831 0.026197249 -0.008519277
0.18530233 0.025313422 -0.0097661391
0.18490319 0.025861179 -0.011323527
0.18528236 0.02547358 -0.014346823
0.18632784 0.024382081 -0.017237276
0.18610886 0.024625137 -0.017998777
0.18701309 0.023745129 -0.022181138
0.18662062 0.024373217 -0.023383364
0.18766707 0.023218954 -0.026703924
0.18724445 0.023779647 -0.028063968
0.18932095 0.021894902 -0.037761405
0.18896207 0.022234298 -0.040334418
0.19016811 0.021105677 -0.044033125
0.17846671 0.026709057 -0.0032382458
0.18035732 0.025033869 -0.016713798
0.18142253 0.024121108 -0.024079002
0.18274486 0.022922073 -0.033663109
0.17199901 0.027732987 0.0052253306
0.17264922 0.027071625 0.00021332502
0.17287129 0.02690915 -0.0011645108
0.17308229 0.026830867 -0.002241537
0.17337662 0.026472576 -0.0047145262
0.17477144 0.025319472 -0.014246628
0.17540331 0.024799559 -0.018689737
0.17699942 0.023345323 -0.030171677
0.17763063 0.022809122 -0.034676179
0.17857 0.022029106 -0.041047096
0.16939388 0.025605764 -0.01318229
0.17030899 0.02484541 -0.019570127
0.16371226 0.026402295 -0.0093343779
0.1641397 0.025971768 -0.012540117
0.16495687 0.025235444 -0.018508419
0.16544701 0.024843674 -0.021725774
0.16773731 0.022904109 -0.037659191
0.1597202 0.025432799 -0.013833046
0.16162649 0.023869608 -0.026903868
0.16264264 0.023079727 -0.033635706
0.16398999 0.021844286 -0.043345429
0.15756726 0.027641201 -0.0025201514
0.15838842 0.026954778 -0.0082210824
0.16066743 0.025007071 -0.024155639
0.1611467 0.024546864 -0.02768299
0.16172117 0.024043322 -0.031777009
0.16280629 0.023130914 -0.039332405
0.16383842 0.022264613 -0.046405658
0.15306009 0.027444631 -0.0023981035
0.15384439 0.026820756 -0.0077426434
0.15502918 0.025830643 -0.015901685
0.15549541 0.025362378 -0.019437775
0.14840072 0.027512912 -0.0011319667
0.1486854 0.027221456 -0.0032918602
0.1487508 0.027109351 -0.0040428638
0.14973119 0.026385523 -0.010418035
0.1517147 0.024681585 -0.024287358
0.15172946 0.024609625 -0.024638891
0.15257594 0.023964047 -0.030260354
0.15312454 0.023482382 -0.034118399
0.15319467 0.02342692 -0.034527287
0.15419355 0.022493336 -0.041934475
0.15477602 0.021967091 -0.046175979
0.14752422 0.024535451 -0.025850564
0.14834122 0.023775943 -0.031901643
0.14949721 0.022903673 -0.039456695
0.15014425 0.022214554 -0.044616736
0.14146987 0.026085973 -0.014334463
0.14209686 0.025492907 -0.019006141
0.14280522 0.024896778 -0.023905367
0.14341845 0.024407906 -0.027997226
0.14374885 0.024055835 -0.030674264
0.14459538 0.023409773 -0.03629569
0.14471038 0.023311578 -0.037013605
0.13508889 0.028152211 4.4949353e-05
0.13598078 0.027357165 -0.006440863
0.13655785 0.026829204 -0.010561168
0.13723625 0.026230201 -0.015480697
0.13784705 0.025721999 -0.019624963
0.13849744 0.025186582 -0.024084702
0.13856007 0.025154833 -0.024429314
0.1391187 0.024601812 -0.028683014
0.13916484 0.02447634 -0.029349737
0.13968349 0.024164516 -0.032385729
0.14042258 0.023462296 -0.037897587
0.14051306 0.023442233 -0.038249113
0.14146975 0.022630172 -0.044934243
0.13100508 0.027840715 0.0014337674
0.1313505 0.02795954 -0.004504323
0.13219577 0.026836211 -0.0067243204
0.13177761 0.027487233 -0.007854633
0.13232638 0.027084013 -0.011443779
0.13309392 0.026440937 -0.016751066
0.13369331 0.025916938 -0.020959809
0.13389806 0.025755646 -0.022406019
0.13510217 0.024763279 -0.030608997
0.13605884 0.023512455 -0.033762529
0.13637896 0.023624055 -0.03978534
0.13720995 0.022534663 -0.041869812
0.12753199 0.02761687 -0.0042090714
0.12809178 0.027170323 -0.0080953836
0.12825295 0.027082577 -0.0089851692
0.12865439 0.026706181 -0.01197695
0.12925664 0.02616735 -0.016259216
0.12935069 0.026111573 -0.016784109
0.12986991 0.025606396 -0.020721808
0.1300001 0.025486959 -0.02173236
0.13061845 0.025029231 -0.02568756
0.13124928 0.024478711 -0.03013286
0.1317928 0.023951404 -0.034219638
0.13182527 0.023851896 -0.034727365
0.13235708 0.02351377 -0.037922114
0.13242806 0.023438668 -0.038444571
0.13276459 0.023135044 -0.040889978
0.13328336 0.022701483 -0.044499829
0.12359829 0.02757613 -0.0027454942
0.12443734 0.026759766 -0.0090911537
0.12453105 0.026711181 -0.0096376762
0.12510262 0.026588891 -0.01729019
0.12627465 0.025192995 -0.021884613
0.12692627 0.02462892 -0.026446767
0.12657696 0.025366973 -0.027493387
0.12751617 0.024135174 -0.0305923
0.12823142 0.023534851 -0.035529874
0.12834318 0.023490772 -0.036066741
0.12874711 0.023084166 -0.039083697
0.12836622 0.023843978 -0.03996674
0.12959175 0.022327481 -0.045245409
0.12001471 0.027624661 -0.0077302679
0.1203329 0.027363133 -0.0098706186
0.12039849 0.02732092 -0.010225102
0.12054177 0.027271187 -0.010958441
0.12096719 0.026881607 -0.014071397
0.12144844 0.026460804 -0.017606676
0.12213074 0.02588176 -0.022252023
0.12344338 0.02474343 -0.031502947
0.12406324 0.024180247 -0.035980135
0.11563918 0.028137807 -0.0031487569
0.11574807 0.028076209 -0.0037136897
0.11781769 0.026205922 -0.018587574
0.11833347 0.025803871 -0.022014789
0.11837378 0.025737261 -0.022366591
0.11161963 0.028338622 -0.0011113063
0.11204363 0.02813134 -0.0035768971
0.11370809 0.026653931 -0.015277922
0.11675321 0.024076495 -0.03655529
0.1149513 0.022547299 -0.049740799
0.1077098 0.022969896 -0.050098322
0.10422882 0.022710985 -0.048013613
0.33490363 0.026500247 0.025058351
0.3342956 0.026870903 0.023922078
0.33576855 0.025765974 0.019041322
0.33659226 0.024943816 0.010432824
0.33675539 0.024804669 0.009319216
0.33808348 0.023762027 0.002719596
0.33877978 0.023234783 -0.0018897951
0.33877349 0.022978727 -0.0076995492
0.33912614 0.02257744 -0.010502994
0.34021392 0.021958681 -0.012107909
0.34053642 0.021567488 -0.01489526
0.34114239 0.021069299 -0.019091681
0.34188902 0.020475388 -0.024055764
0.34254584 0.019890053 -0.028800696
0.34327331 0.019278238 -0.033748895
0.34417138 0.018546188 -0.039840817
0.34386989 0.018679874 -0.040623441
0.34482571 0.01793756 -0.044727758
0.34527642 0.017547451 -0.047883794
0.34509182 0.017513605 -0.052051306
0.34650305 0.016367069 -0.056825101
0.34684446 0.01615731 -0.058972865
0.34724417 0.01589953 -0.061440349
0.32204187 0.026443344 0.023659229
0.3246972 0.024307502 0.0055360496
0.3266924 0.022547135 -0.0085790306
0.32729527 0.021967087 -0.013122544
0.32734177 0.021932673 -0.013442412
0.33046329 0.019260144 -0.035246328
0.33115453 0.018662037 -0.040173009
0.32201129 0.026358919 0.018474475
0.32285309 0.025581799 0.012483716
0.32537612 0.023472417 -0.0049368441
0.32602054 0.022937413 -0.0094682574
0.32761616 0.021635151 -0.020442799
0.32795572 0.021275384 -0.022965431
0.32921624 0.020223953 -0.031786934
0.33123976 0.018468374 -0.046040967
0.33210385 0.017666748 -0.052341804
0.32134888 0.026724268 0.017567649
0.32651937 0.022228943 -0.018868342
0.32908645 0.020074004 -0.036735564
