# .PCD v0.7 - Point Cloud Data file format
VERSION 0.7
FIELDS x y z normal_x normal_y normal_z curvature
SIZE 4 4 4 4 4 4 4
TYPE F F F F F F F
COUNT 1 1 1 1 1 1 1
WIDTH 740
HEIGHT 1
VIEWPOINT 0 0 0 1 0 0 0
POINTS 740
DATA ascii
-0.01840722 -0.078899287 0.046880607 0.87249786 -0.48861802 0 0
-0.088861451 -0.026001684 0.046798572 -0.71018529 0.70401484 0 0
-0.027729549 -0.023925597 0.046779394 0.66588342 0.74605584 0 0
-0.041016158 -0.015802391 0.046867229 0.36244115 0.93200666 0 0
-0.049005896 -0.10088854 0.047175311 0.18652336 -0.98245054 0 0
-0.032331713 -0.094042704 0.047206722 0.56280303 -0.82659107 0 0
-0.032407913 -0.087717928 0.047248814 -0.6327067 0.77439153 0 0
-0.09493953 -0.068235241 0.047046926 0.96004939 0.27983072 0 0
-0.095164016 -0.067436814 0.047132067 0.9647904 0.26302007 0 0
-0.099185795 -0.042605311 0.047113404 -0.94409889 0.32966244 0 0
-0.090368651 -0.036084715 0.047032442 0.84573442 -0.53360409 0 0
-0.091329344 -0.028722517 0.047027849 -0.76884127 0.6394397 0 0
-0.078443184 -0.024114067 0.047035202 0.54098207 -0.84103417 0 0
-0.035138391 -0.018613046 0.047151111 0.49621654 0.86819881 0 0
-0.073496208 -0.092984259 0.047344193 0.41071677 0.91176295 0 0
-0.089662224 -0.079387069 0.047355123 0.82658875 0.56280643 0 0
-0.017896501 -0.056124657 0.047406726 -0.99953371 -0.030535154 0 0
-0.095757954 -0.049499094 0.04740867 0.98078316 -0.19510131 0 0
-0.093995742 -0.043340519 0.047287926 0.93513703 -0.35428634 0 0
-0.095797293 -0.035153687 0.047331989 -0.86820298 0.49620926 0 0
-0.037506696 -0.023169497 0.047415331 -0.50377041 -0.8638376 0 0
-0.052117839 -0.018211722 0.047394618 -0.1261965 -0.99200529 0 0
-0.030025059 -0.085616462 0.047572244 -0.6915105 0.72236639 0 0
-0.021205466 -0.073021881 0.047653858 -0.91531163 0.40274647 0 0
-0.058579028 -0.017905794 0.047634292 0.039258685 -0.99922907 0 0
-0.038692445 -0.01678771 0.047628269 0.41865802 0.908144 0 0
-0.053340741 -0.012918785 0.047536049 0.082808629 0.99656546 0 0
-0.04367397 -0.094119675 0.047807977 -0.34611893 0.93819064 0 0
-0.083639592 -0.092933036 0.047932681 -0.59130454 -0.8064484 0 0
-0.087322451 -0.089888051 0.04784701 -0.67879689 -0.73432606 0 0
-0.019181166 -0.080228478 0.047900915 0.85491168 -0.51877367 0 0
-0.092096232 -0.075319715 0.047975432 0.88902169 0.45786506 0 0
-0.017542437 -0.03712631 0.047818117 0.89298004 0.45009628 0 0
-0.092779063 -0.030555807 0.047849424 -0.80124861 0.59833151 0 0
-0.057888687 -0.01788763 0.047763679 0.021817036 -0.999762 0 0
-0.078074582 -0.090521529 0.048124734 0.53359914 0.84573752 0 0
-0.099118128 -0.042411536 0.048110195 -0.94409889 0.32966244 0 0
-0.092795573 -0.040497862 0.048181564 0.90445572 -0.42656758 0 0
-0.096282013 -0.036024209 0.04814554 -0.88089514 0.4733116 0 0
-0.062049992 -0.018181987 0.048226725 0.1261965 -0.99200529 0 0
-0.046504762 -0.014057116 0.048020441 0.23768553 0.97134215 0 0
-0.059743296 -0.012823998 0.048156723 -0.056691229 0.99839181 0 0
-0.059450511 -0.012808044 0.048014957 -0.047977973 0.99884844 0 0
-0.047812864 -0.10064772 0.0482843 0.21216688 -0.97723347 0 0
-0.069034636 -0.094696887 0.048265792 0.30486396 0.95239592 0 0
-0.088837251 -0.088424347 0.048277467 -0.71018291 -0.70401728 0 0
-0.021091945 -0.072761089 0.048477203 -0.91879004 0.39474666 0 0
-0.016441733 -0.039466731 0.048309825 0.91531175 0.40274602 0 0
-0.09125825 -0.037551753 0.048490949 0.86819369 -0.49622545 0 0
-0.033084907 -0.088255547 0.048508778 -0.61222619 0.79068273 0 0
-0.02320187 -0.037451182 0.048604958 -0.8638376 -0.50377041 0 0
-0.082717232 -0.027285878 0.048683666 0.64612937 -0.76322794 0 0
-0.043364756 -0.014959396 0.048570968 0.31316492 0.94969875 0 0
-0.06626375 -0.10071664 0.048775621 -0.20365664 -0.97904241 0 0
-0.037122201 -0.091006435 0.048895486 -0.5112974 0.85940385 0 0
-0.099076979 -0.072106019 0.048750311 -0.94117481 -0.33792019 0 0
-0.094298884 -0.044173677 0.048932783 0.94409156 -0.32968345 0 0
-0.02008364 -0.044228252 0.048764557 -0.94408983 -0.32968828 0 0
-0.027656147 -0.031256936 0.04877219 -0.75184047 -0.65934509 0 0
-0.086559057 -0.023826236 0.0489076 -0.65934324 0.75184214 0 0
-0.083242662 -0.02117867 0.0488915 -0.5842458 0.81157678 0 0
-0.07132405 -0.0938958 0.049186151 0.36244836 0.93200386 0 0
-0.096215054 -0.062085841 0.049089603 0.99200463 0.12620184 0 0
-0.091360807 -0.028760355 0.049034286 -0.76884127 0.6394397 0 0
-0.086308844 -0.023607627 0.049204443 -0.65275931 0.75756544 0 0
-0.091801271 -0.085103899 0.049265578 -0.7798878 -0.62591934 0 0
-0.015053619 -0.071322113 0.049366806 0.94693071 -0.32143787 0 0
-0.013566318 -0.065676212 0.049392108 0.98245019 -0.18652512 0 0
-0.017883377 -0.056835905 0.049451821 -0.99991435 -0.013088055 0 0
-0.098721422 -0.041331973 0.049256779 -0.93513823 0.35428306 0 0
-0.081183843 -0.01977643 0.049342267 -0.54097456 0.841039 0 0
-0.076116309 -0.016976798 0.049372539 -0.42657438 0.9044525 0 0
-0.038328245 -0.016956534 0.049348734 0.42657065 0.90445423 0 0
-0.06284979 -0.01311163 0.049392588 -0.12619749 0.99200517 0 0
-0.063086703 -0.1012591 0.049678143 -0.13485692 -0.99086511 0 0
-0.057502352 -0.096518688 0.049553543 0.0043644952 0.99999052 0 0
-0.013650564 -0.066098392 0.049538344 0.97904527 -0.20364285 0 0
-0.10093053 -0.049233451 0.04950621 -0.98404127 0.1779405 0 0
-0.091275536 -0.028657828 0.049689494 -0.76884127 0.6394397 0 0
-0.071794502 -0.099186435 0.049844667 -0.32967958 -0.94409287 0 0
-0.097289681 -0.076401331 0.049958188 -0.900702 -0.43443754 0 0
-0.068451636 -0.014198617 0.049839161 -0.25460178 0.96704596 0 0
-0.051366642 -0.10126615 0.050148506 0.13485692 -0.99086511 0 0
-0.043788143 -0.099578723 0.050082337 0.30486494 -0.95239562 0 0
-0.051361337 -0.09608385 0.05018156 -0.15212736 0.98836094 0 0
-0.09413936 -0.081925459 0.050047256 -0.83146769 -0.55557311 0 0
-0.095833115 -0.049885459 0.05022911 0.9824506 -0.18652338 0 0
-0.08358781 -0.028051192 0.050015841 0.67237258 -0.74021292 0 0
-0.061491363 -0.10144312 0.050330348 -0.10018643 -0.99496871 0 0
-0.027469587 -0.090243988 0.050334565 0.66588604 -0.74605346 0 0
-0.02554 -0.088399783 0.050372634 0.71018291 -0.70401728 0 0
-0.093791537 -0.082437634 0.050292086 -0.8216421 -0.57000375 0 0
-0.022304598 -0.075318262 0.050331324 -0.88901728 0.45787364 0 0
-0.020839101 -0.072160862 0.050301932 -0.92554313 0.37864217 0 0
-0.10076392 -0.066035226 0.05031031 -0.98078477 -0.19509284 0 0
-0.072558954 -0.021005161 0.050283298 0.38671747 -0.9221983 0 0
-0.069577731 -0.019880759 0.050300866 0.31316283 -0.94969946 0 0
-0.046995308 -0.01393866 0.050328579 0.22920084 0.97337919 0 0
-0.062005576 -0.013011664 0.050278142 -0.1088682 0.99405622 0 0
-0.047287185 -0.10053089 0.050626069 0.22069535 -0.97534281 0 0
-0.020144572 -0.081749365 0.050505929 0.83147216 -0.55556649 0 0
-0.017224569 -0.076634914 0.05064575 0.90069824 -0.43444529 0 0
-0.016430048 -0.074907921 0.050629754 0.91879326 -0.39473921 0 0
-0.096501768 -0.058385495 0.05068003 0.99953318 0.030551756 0 0
-0.091251664 -0.028629119 0.050516918 -0.76884127 0.6394397 0 0
-0.051797532 -0.096146725 0.050988253 -0.13486563 0.99086392 0 0
-0.024844302 -0.079539895 0.050976221 -0.82164997 0.56999248 0 0
-0.096376151 -0.053843476 0.050838742 0.99656481 -0.082817256 0 0
-0.012922311 -0.053300932 0.050898589 0.99580479 0.091503158 0 0
-0.10103348 -0.049819518 0.05090671 -0.98555559 0.16935246 0 0
-0.10048086 -0.047071427 0.050794259 -0.97337866 0.22920312 0 0
-0.06301488 -0.01313274 0.05091545 -0.13485222 0.99086571 0 0
-0.022272889 -0.084692754 0.051226158 0.78531861 -0.61909193 0 0
-0.027643863 -0.083130673 0.051214326 -0.75184047 0.65934509 0 0
-0.088703319 -0.08072868 0.05112917 0.80124903 0.59833109 0 0
-0.02068099 -0.042631183 0.051137313 -0.92880988 -0.37055662 0 0
-0.01602483 -0.040458225 0.051023755 0.92553991 0.37865004 0 0
-0.022755664 -0.038240157 0.05113757 -0.8767271 -0.48098823 0 0
-0.097184479 -0.037782155 0.051244389 -0.90070021 0.43444127 0 0
-0.089972243 -0.035474729 0.051211014 0.83146858 -0.55557179 0 0
-0.034768779 -0.089492835 0.051449701 -0.56999391 0.82164896 0 0
-0.096420541 -0.054408617 0.05135078 0.99725008 -0.074110039 0 0
-0.012938637 -0.053123251 0.051409118 0.99580479 0.091503158 0 0
-0.093063511 -0.041081332 0.051270664 0.91176116 -0.41072085 0 0
-0.020149268 -0.032645207 0.051429871 0.83146918 0.5555709 0 0
-0.028280925 -0.023445483 0.051343769 0.65275931 0.75756544 0 0
-0.029193303 -0.02268461 0.051352598 0.63270396 0.7743938 0 0
-0.028170666 -0.083719358 0.051672705 -0.74021292 0.67237258 0 0
-0.040514011 -0.016002016 0.051513694 0.37865004 0.92553991 0 0
-0.056937486 -0.012751954 0.051690288 0.0043649045 0.99999046 0 0
-0.068755053 -0.10012265 0.051828563 -0.26302642 -0.96478868 0 0
-0.06036352 -0.096392341 0.051966019 0.082816362 0.99656487 0 0
-0.094175376 -0.081871554 0.051906444 -0.83146769 -0.55557311 0 0
-0.022369789 -0.07544297 0.051912978 -0.88499033 0.46560955 0 0
-0.014938104 -0.070972309 0.051997282 0.94969875 -0.31316492 0 0
-0.015085492 -0.042985603 0.051795661 0.94693071 0.32143787 0 0
-0.072848879 -0.021129671 0.051759273 0.39474666 -0.91879004 0 0
-0.076190472 -0.017011778 0.051882558 -0.42657438 0.9044525 0 0
-0.088733867 -0.080687769 0.052130062 0.80124903 0.59833109 0 0
-0.017292636 -0.076774068 0.052048992 0.89687413 -0.44228587 0 0
-0.058463335 -0.10163255 0.052397676 -0.030540049 -0.99953353 0 0
-0.01896912 -0.048017286 0.052464135 -0.97134191 -0.23768656 0 0
-0.067572415 -0.019274553 0.052290902 0.26303014 -0.96478766 0 0
-0.040944338 -0.015830319 0.052372839 0.36244115 0.93200666 0 0
-0.042847805 -0.015132274 0.052319556 0.32143787 0.94693071 0 0
-0.053570062 -0.096351653 0.052538037 -0.091502875 0.99580485 0 0
-0.039244749 -0.092180133 0.05261787 -0.45786506 0.88902169 0 0
-0.078601025 -0.090186015 0.052515045 0.54098588 0.84103173 0 0
-0.025475636 -0.088334478 0.052523945 0.71630418 -0.69778824 0 0
-0.023203034 -0.037449185 0.052700743 -0.8638376 -0.50377041 0 0
-0.052193068 -0.013033891 0.05253534 0.1088682 0.99405622 0 0
-0.099519059 -0.070799783 0.052888528 -0.95239562 -0.30486494 0 0
-0.096367359 -0.060660444 0.052882526 0.99580485 0.091502875 0 0
-0.091262236 -0.037558731 0.052876182 0.86819369 -0.49622545 0 0
-0.088701546 -0.033670556 0.052817166 0.8012529 -0.59832585 0 0
-0.033385593 -0.019669302 0.052806918 0.53361899 0.84572506 0 0
-0.027886499 -0.083404675 0.053143892 -0.74605405 0.66588539 0 0
-0.018004393 -0.060304895 0.05320248 -0.99656576 0.082805581 0 0
-0.10163826 -0.056160811 0.053102933 -0.99976194 0.021819973 0 0
-0.018800613 -0.048750471 0.053026848 -0.97723198 -0.21217385 0 0
-0.095317453 -0.047552396 0.053182572 0.96923208 -0.24614866 0 0
-0.080307066 -0.019228872 0.053013589 -0.51877367 0.85491168 0 0
-0.060315378 -0.018005276 0.053161193 0.082805581 -0.99656576 0 0
-0.033554673 -0.094838992 0.053463981 0.53362584 -0.84572071 0 0
-0.024125919 -0.086896501 0.053345174 0.74605793 -0.66588104 0 0
-0.095831193 -0.079188615 0.053445444 -0.86819828 -0.49621752 0 0
-0.096154734 -0.051856481 0.053347744 0.99086392 -0.13486563 0 0
-0.021369211 -0.041012242 0.053460442 -0.91175932 -0.41072491 0 0
-0.064199567 -0.095891729 0.053651173 0.17794713 0.98404002 0 0
-0.087149099 -0.090046972 0.053625997 -0.67236203 -0.74022251 0 0
-0.017995544 -0.054213535 0.053586688 -0.99725008 -0.074110039 0 0
-0.07417234 -0.098283097 0.053994708 -0.37865832 -0.92553657 0 0
-0.019556785 -0.045847431 0.053883195 -0.95757163 -0.28819543 0 0
-0.029617637 -0.029180126 0.053825617 -0.70401669 -0.7101835 0 0
-0.033281095 -0.019735685 0.053928822 0.54097456 0.841039 0 0
-0.057811968 -0.096515 0.054204382 0.013093625 0.99991429 0 0
-0.038367108 -0.091715589 0.054169774 -0.48100495 0.87671793 0 0
-0.022692457 -0.076046236 0.054073561 -0.87673205 0.48097908 0 0
-0.10076589 -0.066025309 0.05420028 -0.98078477 -0.19509284 0 0
-0.018589273 -0.049775921 0.05410067 -0.9824506 -0.18652338 0 0
-0.019557819 -0.033562265 0.054109454 0.84572506 0.53361899 0 0
-0.024966463 -0.026594501 0.054090124 0.72236449 0.69151247 0 0
-0.041449722 -0.021174673 0.054021921 -0.40274647 -0.91531163 0 0
-0.086164333 -0.090918511 0.054307844 -0.6527648 -0.75756061 0 0
-0.017881684 -0.03646981 0.05446231 0.88498753 0.46561483 0 0
-0.077408209 -0.096791863 0.054748163 -0.45787653 -0.88901579 0 0
-0.021312261 -0.083426416 0.054691844 0.80644608 -0.5913077 0 0
-0.10113472 -0.050449882 0.054559279 -0.98836124 0.15212502 0 0
-0.092415422 -0.030076873 0.05451902 -0.79068714 0.61222047 0 0
-0.032547954 -0.026570583 0.054711092 -0.62591964 -0.77988756 0 0
-0.029106908 -0.022755198 0.054536566 0.63270396 0.7743938 0 0
-0.062564619 -0.10132579 0.054989591 -0.11753219 -0.99306911 0 0
-0.040326968 -0.09832307 0.054772727 0.37865832 -0.92553657 0 0
-0.061118346 -0.096323989 0.054794345 0.10018844 0.99496847 0 0
-0.095778592 -0.07928063 0.054853901 -0.86819828 -0.49621752 0 0
-0.017882235 -0.057347529 0.054820903 -0.99999052 0.0043644952 0 0
-0.017900605 -0.055990335 0.054979324 -0.99953371 -0.030535154 0 0
-0.092629261 -0.040148087 0.054868083 0.90070319 -0.4344351 0 0
-0.088055335 -0.032829329 0.054937154 0.78532088 -0.61908901 0 0
-0.036463082 -0.023795407 0.054963741 -0.52621597 -0.85035098 0 0
-0.053823967 -0.101522 0.055137262 0.074121431 -0.99724925 0 0
-0.053042013 -0.10145549 0.05510971 0.091505542 -0.99580461 0 0
-0.043881573 -0.094194993 0.055070478 -0.33791506 0.94117665 0 0
-0.02102234 -0.031376086 0.055185534 0.81157517 0.58424801 0 0
-0.079232186 -0.018595321 0.055129789 -0.49622479 0.8681941 0 0
-0.038595289 -0.091839008 0.055439912 -0.47330326 0.88089955 0 0
-0.092677742 -0.074153006 0.055349108 0.90070319 0.4344351 0 0
-0.018161198 -0.061878741 0.055279847 -0.99306846 0.11753792 0 0
-0.017932381 -0.059194069 0.05546245 -0.9988482 0.047982715 0 0
-0.096466117 -0.0551432 0.055281375 0.99884897 -0.047965944 0 0
-0.10120076 -0.050894208 0.055252533 -0.98965061 0.14349833 0 0
-0.026230421 -0.032976262 0.055485915 -0.7853182 -0.61909235 0 0
-0.040648777 -0.015947888 0.055469994 0.3705568 0.92880982 0 0
-0.056523427 -0.10164534 0.055628583 0.013080318 -0.99991447 0 0
-0.1007921 -0.048508078 0.055654537 -0.98078519 0.19509102 0 0
-0.020585045 -0.032000035 0.055714522 0.82164747 0.56999606 0 0
-0.085185297 -0.029581146 0.055513024 0.71018618 -0.70401394 0 0
-0.042806197 -0.020611335 0.055567011 -0.36243892 -0.93200755 0 0
-0.031875536 -0.020671418 0.055552281 0.56998956 0.82165194 0 0
-0.080803938 -0.019535499 0.055587154 -0.53361464 0.8457278 0 0
-0.026221136 -0.089075997 0.055929177 0.69779301 -0.71629947 0 0
-0.029566912 -0.085171193 0.055774845 -0.70401394 0.71018618 0 0
-0.09565638 -0.079493098 0.055968471 -0.86383605 -0.50377315 0 0
-0.082338363 -0.026967175 0.055824891 0.63943553 -0.76884478 0 0
-0.070124269 -0.020066511 0.055945344 0.32968491 -0.94409102 0 0
-0.069735214 -0.014555017 0.055842534 -0.27982962 0.96004969 0 0
-0.049235173 -0.10093085 0.056044467 0.1779405 -0.98404127 0 0
-0.042205945 -0.0990448 0.056086302 0.33792019 -0.94117481 0 0
-0.041638732 -0.093308896 0.056195673 -0.39475644 0.91878581 0 0
-0.08688017 -0.090290248 0.056075271 -0.66588372 -0.7460556 0 0
-0.088078059 -0.089175753 0.056237392 -0.69151479 -0.72236234 0 0
-0.019900389 -0.044764299 0.056009501 -0.94969845 -0.31316608 0 0
-0.040455259 -0.021626122 0.0561998 -0.42656758 -0.90445572 0 0
-0.059727501 -0.012823101 0.056087997 -0.056691229 0.99839181 0 0
-0.04429853 -0.0943425 0.05633444 -0.32968345 0.94409156 0 0
-0.073781781 -0.092852712 0.056256704 0.41866571 0.90814042 0 0
-0.077011697 -0.091164 0.056293499 0.50376165 0.86384267 0 0
-0.056876693 -0.1016494 0.056707926 0.004360103 -0.99999052 0 0
-0.10145423 -0.061373245 0.056602702 -0.99580467 -0.091504663 0 0
-0.060494795 -0.01287345 0.056579974 -0.074107811 0.99725026 0 0
-0.095636107 -0.079527847 0.056930028 -0.86383605 -0.50377315 0 0
-0.01834356 -0.078785613 0.056956448 0.87249786 -0.48861802 0 0
-0.01276535 -0.058333337 0.056898948 0.99976206 -0.021814963 0 0
-0.10125844 -0.051310182 0.056978021 -0.99086511 0.13485692 0 0
-0.025611211 -0.033789515 0.056976955 -0.80125552 -0.59832239 0 0
-0.079399154 -0.02474761 0.056972422 0.56280643 -0.82658875 0 0
-0.061338831 -0.018100072 0.056904607 0.10886858 -0.99405617 0 0
-0.047775924 -0.013761921 0.056763139 0.21217376 0.97723198 0 0
-0.055852108 -0.012771692 0.056903269 0.030540049 0.99953353 0 0
-0.047868602 -0.10065982 0.057134885 0.21216688 -0.97723347 0 0
-0.098778605 -0.04148294 0.057209965 -0.93513823 0.35428306 0 0
-0.035119727 -0.095777892 0.057366706 0.49620926 -0.86820298 0 0
-0.087995335 -0.08164838 0.05736009 0.78532505 0.6190837 0 0
-0.099450722 -0.071011037 0.057275314 -0.94969451 -0.31317791 0 0
-0.099548757 -0.070707001 0.05746324 -0.95239562 -0.30486494 0 0
-0.020045934 -0.070065372 0.05747623 -0.94409102 0.32968491 0 0
-0.017881909 -0.057272706 0.05742405 -0.99999052 0.0043644952 0 0
-0.093382701 -0.041810535 0.057408907 0.91878581 -0.39475644 0 0
-0.09058173 -0.027849805 0.057491567 -0.75184447 0.6593405 0 0
-0.068945356 -0.10007077 0.057670973 -0.26302642 -0.96478868 0 0
-0.083287038 -0.093190983 0.057547539 -0.58425212 -0.81157225 0 0
-0.097816698 -0.075260237 0.057593562 -0.9153102 -0.4027496 0 0
-0.030656777 -0.028193804 0.057585172 -0.67236716 -0.7402178 0 0
-0.082429975 -0.027043356 0.057523385 0.63943553 -0.76884478 0 0
-0.033168443 -0.019808143 0.057567928 0.54097456 0.841039 0 0
-0.076193899 -0.097388223 0.057881415 -0.42658225 -0.90444887 0 0
-0.081376396 -0.094501331 0.057920255 -0.54096437 -0.84104556 0 0
-0.085026525 -0.091863379 0.05799358 -0.62591934 -0.7798878 0 0
-0.03118578 -0.086683057 0.057858661 -0.65934473 0.75184083 0 0
-0.019370247 -0.067916289 0.057946488 -0.96245474 0.27144226 0 0
-0.09378238 -0.042786062 0.057752073 0.92881924 -0.37053317 0 0
-0.094966099 -0.033758305 0.057832353 -0.85035521 0.52620918 0 0
-0.033337802 -0.025951257 0.057872891 -0.60529375 -0.79600227 0 0
-0.063853063 -0.018448804 0.057898629 0.16934772 -0.98555636 0 0
-0.05295606 -0.01295401 0.05779158 0.091503158 0.99580479 0 0
-0.037799172 -0.09139967 0.058170427 -0.49622545 0.86819369 0 0
-0.090403467 -0.078261711 0.058003202 0.84573752 0.53359914 0 0
-0.018477356 -0.064019293 0.058041193 -0.98555636 0.16934772 0 0
-0.10152647 -0.060517419 0.058165953 -0.99724919 -0.074122138 0 0
-0.095093161 -0.046704896 0.058096774 0.96478963 -0.26302281 0 0
-0.099792838 -0.04448498 0.058117524 -0.95757246 0.28819272 0 0
-0.043497305 -0.020347115 0.058112793 -0.34611413 -0.93819243 0 0
-0.033182357 -0.019799195 0.058059525 0.54097456 0.841039 0 0
-0.061028786 -0.018068606 0.058069721 0.10018844 -0.99496847 0 0
-0.087909892 -0.089336738 0.058253013 -0.69151479 -0.72236234 0 0
-0.013886563 -0.067184478 0.058269933 0.97534227 -0.22069764 0 0
-0.095333703 -0.0476164 0.058319602 0.96923208 -0.24614866 0 0
-0.024354778 -0.027252331 0.058266267 0.74022007 0.67236465 0 0
-0.062014952 -0.018177528 0.058308203 0.1261965 -0.99200529 0 0
-0.05873473 -0.017911911 0.058458306 0.039258685 -0.99922907 0 0
-0.06157615 -0.10143459 0.058602445 -0.10018643 -0.99496871 0 0
-0.045991775 -0.10021401 0.058741063 0.25459492 -0.96704781 0 0
-0.042141993 -0.093521982 0.058588699 -0.38670823 0.92220211 0 0
-0.028236875 -0.083791763 0.05864374 -0.73432297 0.67880034 0 0
-0.096484609 -0.05886396 0.058675788 0.99922907 0.039258685 0 0
-0.077864371 -0.02374953 0.05867862 0.5262208 -0.850348 0 0
-0.028310698 -0.023419831 0.058574777 0.65275931 0.75756544 0 0
-0.032763436 -0.020071484 0.058525402 0.54829323 0.83628613 0 0
-0.043657556 -0.014864702 0.058656503 0.30486712 0.9523949 0 0
-0.091889367 -0.08499413 0.058804817 -0.7798878 -0.62591934 0 0
-0.10083008 -0.065702595 0.058883138 -0.98078477 -0.19509284 0 0
-0.012990156 -0.061805975 0.058908612 0.99496871 -0.10018643 0 0
-0.10164051 -0.058137462 0.058767714 -0.99976194 -0.021819763 0 0
-0.099510431 -0.043574903 0.058864787 -0.95239562 0.30486494 0 0
-0.088996127 -0.034069695 0.058921725 0.80644262 -0.59131241 0 0
-0.068543844 -0.094847925 0.059026577 0.28819045 0.95757312 0 0
-0.087802611 -0.081889048 0.059196811 0.77988064 0.62592828 0 0
-0.092895679 -0.073688567 0.059019431 0.90814042 0.41866571 0 0
-0.065510511 -0.10086675 0.059439246 -0.18652512 -0.98245019 0 0
-0.045696676 -0.10013631 0.059340563 0.25459492 -0.96704781 0 0
-0.025630014 -0.08849059 0.059449401 0.71018291 -0.70401728 0 0
-0.029070284 -0.084671631 0.05928532 -0.71630186 0.69779062 0 0
-0.028706547 -0.084294438 0.059283108 -0.72236103 0.69151622 0 0
-0.097746015 -0.075417601 0.059340306 -0.91175652 -0.41073123 0 0
-0.072948188 -0.098767437 0.059620015 -0.35428306 -0.93513823 0 0
-0.027438994 -0.090216383 0.059667204 0.67236203 -0.74022251 0 0
-0.084042862 -0.08593218 0.059588827 0.68518251 0.72837144 0 0
-0.020389775 -0.043382939 0.059637703 -0.93513525 -0.35429108 0 0
-0.02712976 -0.031868774 0.059671856 -0.76322794 -0.64612937 0 0
-0.037184838 -0.091043711 0.059946291 -0.5112974 0.85940385 0 0
-0.025897415 -0.080992997 0.059822761 -0.7960062 0.60528845 0 0
-0.012955988 -0.052934967 0.059913319 0.99496871 0.10018643 0 0
-0.089081958 -0.034188535 0.059962135 0.81156898 -0.58425671 0 0
-0.051413231 -0.10127236 0.060227916 0.12619399 -0.99200559 0 0
-0.067537278 -0.095136642 0.060028177 0.26302007 0.9647904 0 0
-0.085674316 -0.08431609 0.060110275 0.72236639 0.6915105 0 0
-0.023570675 -0.07757201 0.060070999 -0.85491449 0.51876909 0 0
-0.018123893 -0.052844331 0.060233336 -0.99394995 -0.1098339 0 0
-0.094911836 -0.033670623 0.06016155 -0.85035521 0.52620918 0 0
-0.082992569 -0.027522834 0.060154803 0.65274996 -0.75757343 0 0
-0.071521863 -0.015121436 0.060185373 -0.32143787 0.94693071 0 0
-0.040482618 -0.09838675 0.060492005 0.37865832 -0.92553657 0 0
-0.06651254 -0.095401116 0.060320139 0.23767895 0.97134382 0 0
-0.037856374 -0.091432169 0.060408223 -0.48860931 0.87250274 0 0
-0.10162859 -0.058592692 0.060471341 -0.99953353 -0.030540049 0 0
-0.095663533 -0.049039103 0.060298618 0.9790473 -0.203633 0 0
-0.086270966 -0.030726332 0.060480028 0.74021512 -0.67237014 0 0
-0.070269115 -0.020117095 0.060252801 0.32968491 -0.94409102 0 0
-0.045212787 -0.10000336 0.060669675 0.27144191 -0.96245486 0 0
-0.082482502 -0.093760408 0.060547549 -0.57000375 -0.8216421 0 0
-0.031504706 -0.093470328 0.060539626 0.57713628 -0.81664783 0 0
-0.084810652 -0.092035748 0.060669981 -0.61909485 -0.78531623 0 0
-0.017060086 -0.076292932 0.060561534 0.9044525 -0.42657438 0 0
-0.022114551 -0.029911064 0.060698427 0.79068947 0.61221749 0 0
-0.080979452 -0.025887124 0.060658414 0.60528845 -0.7960062 0 0
-0.041798655 -0.021024007 0.060725883 -0.39474273 -0.91879171 0 0
-0.065076984 -0.013454584 0.060552232 -0.17794347 0.98404074 0 0
-0.10008062 -0.068909198 0.060898744 -0.96478868 -0.26302642 0 0
-0.10158189 -0.059667923 0.060911801 -0.99839234 -0.056681655 0 0
-0.017882029 -0.057300232 0.060792074 -0.99999052 0.0043644952 0 0
-0.080570556 -0.019390494 0.060834471 -0.52620918 0.85035521 0 0
-0.066930026 -0.019104678 0.060972124 0.24615638 -0.96923018 0 0
-0.032816797 -0.094365112 0.061071999 0.54829663 -0.83628392 0 0
-0.032083504 -0.093873695 0.061074905 0.56280303 -0.82659107 0 0
-0.024680763 -0.087503344 0.061137512 0.73432368 -0.67879951 0 0
-0.020401813 -0.071050435 0.061048601 -0.93513525 0.35429108 0 0
-0.019032799 -0.066644557 0.061161622 -0.97134256 0.23768406 0 0
-0.096063964 -0.051232208 0.061225481 0.98836094 -0.15212736 0 0
-0.021764252 -0.040164839 0.061048768 -0.9006989 -0.43444389 0 0
-0.086638592 -0.031135295 0.061036833 0.74605644 -0.66588277 0 0
-0.072131217 -0.020826984 0.061234534 0.37864217 -0.92554313 0 0
-0.058936164 -0.012785116 0.061185878 -0.039260402 0.99922901 0 0
-0.028639149 -0.091260016 0.061254673 0.6394397 -0.76884127 0 0
-0.085538387 -0.08445809 0.061481163 0.72236639 0.6915105 0 0
-0.099284515 -0.071509033 0.061355758 -0.94693071 -0.32143787 0 0
-0.018389028 -0.050906561 0.06138232 -0.98699635 -0.16074289 0 0
-0.10006876 -0.04544891 0.061480332 -0.96478796 0.26302886 0 0
-0.025839981 -0.025700437 0.061450463 0.70401484 0.71018529 0 0
-0.067251243 -0.10049946 0.061686326 -0.22920312 -0.97337866 0 0
-0.094821893 -0.080874003 0.061630625 -0.84572345 -0.53362149 0 0
-0.093606248 -0.072053879 0.061624758 0.92554313 0.37864217 0 0
-0.012793391 -0.059145719 0.061727721 0.99884844 -0.047977973 0 0
-0.053563718 -0.01805054 0.061632525 -0.091502875 -0.99580485 0 0
-0.052085359 -0.013046426 0.061560556 0.11753579 0.9930687 0 0
-0.03983815 -0.098119482 0.061896581 0.38670588 -0.92220312 0 0
-0.084427141 -0.092336133 0.061772946 -0.61222512 -0.79068357 0 0
-0.029772487 -0.085372739 0.061937653 -0.69779348 0.716299 0 0
-0.099853799 -0.069710471 0.061875436 -0.96004838 -0.27983403 0 0
-0.10120153 -0.050899513 0.061797325 -0.98965061 0.14349833 0 0
-0.02742191 -0.024200745 0.061793271 0.67236465 0.74022007 0 0
-0.077390119 -0.023461049 0.06181068 0.51129818 -0.85940343 0 0
-0.040303461 -0.098313451 0.062167004 0.37865832 -0.92553657 0 0
-0.018444449 -0.078965761 0.06219051 0.87249786 -0.48861802 0 0
-0.023537114 -0.077516705 0.062229544 -0.85491449 0.51876909 0 0
-0.092718445 -0.030474642 0.062056024 -0.80124861 0.59833151 0 0
-0.081461057 -0.026258592 0.062151998 0.61908704 -0.78532237 0 0
-0.086110257 -0.023436513 0.062150322 -0.65275931 0.75756544 0 0
-0.043245099 -0.020442005 0.06204636 -0.35429108 -0.93513525 0 0
-0.075285144 -0.016595922 0.062091675 -0.41071925 0.91176188 0 0
-0.047961779 -0.0954189 0.062453371 -0.23768143 0.97134316 0 0
-0.10121956 -0.051024504 0.06226385 -0.99086511 0.13485692 0 0
-0.09522815 -0.047206283 0.062355097 0.96704179 -0.25461784 0 0
-0.097419024 -0.038273018 0.062377315 -0.90445054 0.42657849 0 0
-0.02965365 -0.022316407 0.062256828 0.61909425 0.78531671 0 0
-0.032117333 -0.087479442 0.062657103 -0.63943231 0.76884747 0 0
-0.08667358 -0.083226629 0.062591024 0.75184315 0.65934205 0 0
-0.012751888 -0.057451367 0.062621459 0.99999046 -0.0043649464 0 0
-0.030737428 -0.028120544 0.062636286 -0.67236716 -0.7402178 0 0
-0.040894285 -0.021422366 0.062586799 -0.41865677 -0.90814453 0 0
-0.049057465 -0.013503281 0.062576242 0.18652336 0.98245054 0 0
-0.060371581 -0.012864293 0.062744565 -0.074107811 0.99725026 0 0
-0.044539765 -0.099809349 0.062767424 0.28819272 -0.95757246 0 0
-0.014436956 -0.069326103 0.062987201 0.96245611 -0.27143747 0 0
-0.014013153 -0.046684399 0.062956236 0.97134215 0.23768553 0 0
-0.056504119 -0.012756539 0.06296137 0.01308752 0.99991441 0 0
-0.071047977 -0.094000712 0.063010663 0.35428634 0.93513703 0 0
-0.093832187 -0.082379028 0.063187964 -0.8216421 -0.57000375 0 0
-0.10109833 -0.050215319 0.063145429 -0.98699862 0.16072869 0 0
-0.014781279 -0.043920733 0.063118316 0.95502096 0.29653829 0 0
-0.018943518 -0.034569886 0.06301444 0.85940462 0.51129615 0 0
-0.094857991 -0.033584807 0.063086919 -0.84572071 0.53362584 0 0
-0.027089741 -0.031916045 0.063102864 -0.76322794 -0.64612937 0 0
-0.068600222 -0.019570656 0.063132286 0.28819543 -0.95757163 0 0
-0.059331499 -0.017939631 0.063149408 0.056689426 -0.99839187 0 0
-0.04898113 -0.095651075 0.063304223 -0.21218939 0.97722858 0 0
-0.089714326 -0.035091057 0.063250057 0.82659215 -0.56280142 0 0
-0.08460179 -0.029002255 0.06340874 0.69779062 -0.71630186 0 0
-0.039252225 -0.022217628 0.0633865 -0.45787364 -0.88901728 0 0
-0.063938588 -0.10113676 0.063597009 -0.15212359 -0.98836148 0 0
-0.028006412 -0.083538532 0.063722074 -0.74021292 0.67237258 0 0
-0.037206143 -0.02334523 0.06362465 -0.51129335 -0.85940623 0 0
-0.046567611 -0.019347046 0.063562788 -0.27143943 -0.96245557 0 0
-0.040671609 -0.015938777 0.063657403 0.3705568 0.92880982 0 0
-0.085913375 -0.091132395 0.063777313 -0.64612389 -0.76323253 0 0
-0.01877011 -0.079535782 0.063935414 0.86383808 -0.50376952 0 0
-0.017885599 -0.056666054 0.06386096 -0.99991435 -0.013088055 0 0
-0.094844811 -0.045847464 0.063860618 0.95757312 -0.28819045 0 0
-0.017959155 -0.03632278 0.063874595 0.88089311 0.47331533 0 0
-0.092930138 -0.030758124 0.063850015 -0.80124861 0.59833151 0 0
-0.042343777 -0.099094287 0.064013474 0.33792019 -0.94117481 0 0
-0.079240635 -0.089761928 0.064072758 0.56280643 0.82658875 0 0
-0.098013088 -0.074811198 0.064060643 -0.91879499 -0.39473516 0 0
-0.10164984 -0.056983292 0.06413874 -0.99999052 0.004360103 0 0
-0.018018469 -0.053927302 0.064227179 -0.99656564 -0.082806475 0 0
-0.087076485 -0.024288675 0.06412679 -0.67236465 0.74022007 0 0
-0.084268063 -0.021942299 0.064052671 -0.61222214 0.79068583 0 0
-0.01381983 -0.066889569 0.064354494 0.97534227 -0.22069764 0 0
-0.019026123 -0.066617265 0.064339183 -0.97134256 0.23768406 0 0
-0.018304426 -0.035686597 0.064485937 0.87672418 0.48099348 0 0
-0.032051489 -0.020549707 0.064490043 0.56280631 0.82658881 0 0
-0.043736991 -0.014839274 0.064400643 0.30486712 0.9523949 0 0
-0.048236072 -0.013664538 0.064492598 0.20364475 0.97904485 0 0
-0.062560007 -0.013075277 0.064342052 -0.11753691 0.99306852 0 0
-0.061237268 -0.10146674 0.064744025 -0.091504663 -0.99580467 0 0
-0.064273469 -0.10108414 0.064555429 -0.16072869 -0.98699862 0 0
-0.02512477 -0.079940677 0.064511545 -0.81664068 0.57714641 0 0
-0.095970258 -0.063751452 0.064516947 0.98555636 0.16934772 0 0
-0.01830714 -0.062968805 0.064625695 -0.98965096 0.1434958 0 0
-0.10132134 -0.062602095 0.064619943 -0.99306911 -0.11753219 0 0
-0.013089987 -0.062679753 0.064681336 0.99200517 -0.12619749 0 0
-0.013713596 -0.048000179 0.064621098 0.97904485 0.20364475 0 0
-0.08848244 -0.025621949 0.064689092 -0.70401728 0.71018291 0 0
-0.045981556 -0.014190298 0.064740792 0.25459942 0.96704662 0 0
-0.059033912 -0.012788957 0.064575814 -0.039260402 0.99922901 0 0
-0.054795258 -0.012816221 0.064576983 0.056690685 0.99839181 0 0
-0.061948881 -0.096232101 0.064918406 0.11753792 0.99306846 0 0
-0.083940409 -0.092708409 0.064909808 -0.59832698 -0.80125213 0 0
-0.090924397 -0.077417292 0.064844213 0.85940105 0.51130223 0 0
-0.093931466 -0.071230739 0.064982332 0.93513703 0.35428634 0 0
-0.061439812 -0.012953485 0.064782634 -0.091502279 0.99580491 0 0
-0.04715354 -0.10050021 0.065108687 0.22920312 -0.97337866 0 0
-0.073980592 -0.098361537 0.065089658 -0.37865832 -0.92553657 0 0
-0.063265689 -0.09604916 0.06513992 0.15212899 0.9883607 0 0
-0.087171003 -0.090027079 0.065151721 -0.67236203 -0.74022251 0 0
-0.083706617 -0.086242504 0.065072425 0.67237556 0.74021024 0 0
-0.017882142 -0.057075165 0.065061122 -0.99999052 -0.0043644952 0 0
-0.068849206 -0.019647047 0.065087929 0.29654109 -0.95502013 0 0
-0.05669973 -0.096516445 0.065267034 -0.013093483 0.99991429 0 0
-0.026405778 -0.089254484 0.065302044 0.69150996 -0.72236693 0 0
-0.015368911 -0.072229393 0.065433376 0.94117552 -0.33791801 0 0
-0.10096313 -0.04941377 0.065481424 -0.98404127 0.1779405 0 0
-0.024896389 -0.034786627 0.065369308 -0.82164639 -0.56999755 0 0
-0.027551923 -0.031375781 0.065403908 -0.75184047 -0.65934509 0 0
-0.078438036 -0.024110759 0.065458484 0.54098207 -0.84103417 0 0
-0.049083315 -0.013498373 0.065271579 0.18652336 0.98245054 0 0
-0.021723773 -0.083980843 0.065585442 0.79600185 -0.60529423 0 0
-0.098865286 -0.072687797 0.06563247 -0.93819052 -0.34611923 0 0
-0.014675831 -0.07013952 0.065502331 0.95757198 -0.28819451 0 0
-0.096501455 -0.058395986 0.065624326 0.99953318 0.030551756 0 0
-0.10068433 -0.047982607 0.065633528 -0.97904199 0.20365857 0 0
-0.022489619 -0.038731106 0.065656804 -0.88089055 -0.47332013 0 0
-0.018179143 -0.035914958 0.065630533 0.87672418 0.48099348 0 0
-0.08855021 -0.033469141 0.065535784 0.79601008 -0.60528344 0 0
-0.047457676 -0.019108204 0.065549962 -0.24615376 -0.96923077 0 0
-0.052524082 -0.018161062 0.065749928 -0.11753665 -0.99306858 0 0
-0.072921216 -0.098777652 0.065986723 -0.35428306 -0.93513823 0 0
-0.089232884 -0.088018373 0.065833569 -0.72236234 -0.69151479 0 0
-0.10072774 -0.066210344 0.065870509 -0.97904241 -0.20365664 0 0
-0.096093901 -0.062972561 0.06599395 0.98965251 0.14348517 0 0
-0.025936399 -0.025604855 0.065861657 0.70401484 0.71018529 0 0
-0.068200372 -0.10026794 0.066040412 -0.24614498 -0.9692331 0 0
-0.021767877 -0.074244283 0.06623435 -0.9006989 0.43444389 0 0
-0.091433004 -0.037857875 0.066176534 0.87250274 -0.48860931 0 0
-0.08440344 -0.028810903 0.066129811 0.69151622 -0.72236103 0 0
-0.062322136 -0.096184999 0.066264607 0.12620184 0.99200463 0 0
-0.081175826 -0.088364616 0.066255629 0.61223143 0.79067862 0 0
-0.01794767 -0.059473298 0.066462405 -0.99839187 0.056689426 0 0
-0.070497289 -0.020198461 0.066486239 0.33791989 -0.94117492 0 0
-0.086419679 -0.030890048 0.066663243 0.74021512 -0.67237014 0 0
-0.084317923 -0.021980911 0.066589087 -0.61222214 0.79068583 0 0
-0.058012098 -0.10164326 0.066890366 -0.021819763 -0.99976194 0 0
-0.070124656 -0.099730246 0.066997714 -0.2881901 -0.95757329 0 0
-0.071341932 -0.093888849 0.066791624 0.36244836 0.93200386 0 0
-0.089068145 -0.080232248 0.066941172 0.81156528 0.58426183 0 0
-0.021928955 -0.074575141 0.066962063 -0.89687389 0.44228643 0 0
-0.020309612 -0.070802674 0.066782452 -0.93819243 0.34611413 0 0
-0.096426748 -0.059904952 0.066936962 0.99785894 0.065402769 0 0
-0.018954858 -0.048077676 0.06699679 -0.97337979 -0.22919819 0 0
-0.021632858 -0.040440973 0.066826925 -0.90445572 -0.42656758 0 0
-0.025567345 -0.02597424 0.066993333 0.71018529 0.70401484 0 0
-0.082082301 -0.020367362 0.066982344 -0.56280184 0.82659185 0 0
-0.074811533 -0.016388655 0.066777304 -0.39474732 0.91878974 0 0
-0.03934776 -0.097907521 0.067138232 0.40274602 -0.91531175 0 0
-0.085053951 -0.084952958 0.067089401 0.71019429 0.70400584 0 0
-0.013659051 -0.04826241 0.067029953 0.97904485 0.20364475 0 0
-0.07219556 -0.020853307 0.067073703 0.37864217 -0.92554313 0 0
-0.045583628 -0.014296116 0.067149416 0.26303333 0.96478677 0 0
-0.066037737 -0.10076343 0.067333125 -0.19509284 -0.98078477 0 0
-0.069271289 -0.099980108 0.067427628 -0.27144191 -0.96245486 0 0
-0.043183345 -0.099382401 0.067409523 0.31317791 -0.94969451 0 0
-0.096176043 -0.052013021 0.067283139 0.99086392 -0.13486563 0 0
-0.042133253 -0.020883296 0.06726411 -0.38671747 -0.9221983 0 0
-0.046405241 -0.019392839 0.067348085 -0.27143943 -0.96245557 0 0
-0.081103347 -0.094676957 0.067533441 -0.54096437 -0.84104556 0 0
-0.077276714 -0.091008037 0.067617923 0.51130223 0.85940105 0 0
-0.096501037 -0.055992022 0.067717962 0.99953318 -0.030551424 0 0
-0.018872056 -0.048432305 0.067623705 -0.97534192 -0.2206994 0 0
-0.10063016 -0.047732133 0.067513853 -0.97723347 0.21216688 0 0
-0.020689096 -0.042610861 0.06771405 -0.92880988 -0.37055662 0 0
-0.024200568 -0.035823926 0.067690834 -0.84103733 -0.54097706 0 0
-0.095904633 -0.035342086 0.067522556 -0.87249553 0.48862207 0 0
-0.027321912 -0.031642202 0.06771259 -0.75756884 -0.65275538 0 0
-0.091299109 -0.028686166 0.067644864 -0.76884127 0.6394397 0 0
-0.06777332 -0.095071681 0.067993015 0.2714473 0.96245331 0 0
-0.031745415 -0.09363991 0.067979686 0.56999928 -0.8216452 0 0
-0.030794524 -0.086332925 0.067934528 -0.67237014 0.74021512 0 0
-0.095660359 -0.049023937 0.067776211 0.97722858 -0.21218939 0 0
-0.094368272 -0.044372365 0.067946054 0.94409156 -0.32968345 0 0
-0.055507202 -0.012783475 0.067829184 0.039260019 0.99922901 0 0
-0.070274666 -0.094282582 0.068205789 0.32968009 0.94409275 0 0
-0.019281283 -0.067597136 0.068205751 -0.96478766 0.26303014 0 0
-0.082352795 -0.020551536 0.068060964 -0.56280184 0.82659185 0 0
-0.057899736 -0.012756568 0.068007849 -0.01308752 0.99991441 0 0
-0.017719015 -0.036781214 0.068316922 0.88901585 0.45787641 0 0
-0.095687196 -0.034961335 0.068335392 -0.86383605 0.50377315 0 0
-0.054453429 -0.10156569 0.068621539 0.06540221 -0.997859 0 0
-0.042192966 -0.093542948 0.068551987 -0.37864596 0.92554164 0 0
-0.085682429 -0.091326565 0.06863261 -0.6394397 -0.76884127 0 0
-0.013299802 -0.050236523 0.068592072 0.98699635 0.16074273 0 0
-0.020236002 -0.043799721 0.068740316 -0.94117492 -0.33791989 0 0
-0.024213795 -0.086994067 0.068818107 0.74022007 -0.67236465 0 0
-0.096445605 -0.054784417 0.068968028 0.997859 -0.065402053 0 0
-0.09638986 -0.054008417 0.068984099 0.99656481 -0.082817256 0 0
-0.09831842 -0.040315598 0.068914272 -0.92553657 0.37865832 0 0
-0.046836194 -0.013976127 0.068812102 0.22920084 0.97337919 0 0
-0.063438483 -0.096021786 0.069063894 0.16072531 0.98699921 0 0
-0.092872292 -0.073739298 0.069227777 0.90814042 0.41866571 0 0
-0.10072359 -0.066230275 0.069135055 -0.97904241 -0.20365664 0 0
-0.08791776 -0.089329198 0.069426671 -0.69151479 -0.72236234 0 0
-0.086170614 -0.083785377 0.069386557 0.73432297 0.67880034 0 0
-0.10021413 -0.068409279 0.069457315 -0.96704721 -0.25459731 0 0
-0.017000943 -0.03823407 0.069338709 0.90445423 0.42657065 0 0
-0.092598453 -0.030316383 0.069267333 -0.7960059 0.60528892 0 0
-0.028080048 -0.023618571 0.069250226 0.65275931 0.75756544 0 0
-0.05947312 -0.10159248 0.069658183 -0.047980368 -0.99884832 0 0
-0.085295491 -0.091645747 0.069605619 -0.6327011 -0.77439618 0 0
-0.016935311 -0.076028377 0.069547862 0.9044525 -0.42657438 0 0
-0.019626316 -0.068782479 0.0696605 -0.95502013 0.29654109 0 0
-0.018678851 -0.049323782 0.069621123 -0.97904515 -0.2036434 0 0
-0.10048404 -0.047084901 0.069608316 -0.97337866 0.22920312 0 0
-0.033295088 -0.02598374 0.069576919 -0.60529375 -0.79600227 0 0
-0.066705346 -0.013779219 0.069669537 -0.21217807 0.97723109 0 0
-0.020387901 -0.071013719 0.069802299 -0.93513525 0.35429108 0 0
-0.020094734 -0.070205115 0.069831207 -0.94409102 0.32968491 0 0
-0.095634803 -0.048906274 0.069754183 0.97722858 -0.21218939 0 0
-0.038259216 -0.022745213 0.069848657 -0.48098823 -0.8767271 0 0
-0.068731308 -0.019610438 0.069903426 0.29654109 -0.95502013 0 0
-0.068499811 -0.019540435 0.069925606 0.28819543 -0.95757163 0 0
-0.076824509 -0.091272742 0.070213981 0.49623013 0.86819106 0 0
-0.096342124 -0.053466558 0.070035256 0.99580485 -0.091502875 0 0
-0.096084401 -0.051364996 0.070215911 0.98836094 -0.15212736 0 0
-0.10099768 -0.049611218 0.070172898 -0.98555559 0.16935246 0 0
-0.090651132 -0.027928934 0.070067137 -0.75184447 0.6593405 0 0
-0.081797242 -0.020176576 0.070040308 -0.55556649 0.83147216 0 0
-0.051134869 -0.013167014 0.070212573 0.13485222 0.99086571 0 0
-0.023584649 -0.07759504 0.070418917 -0.85491449 0.51876909 0 0
-0.021815162 -0.07434231 0.070421807 -0.9006989 0.43444389 0 0
-0.018663708 -0.049398188 0.070270225 -0.98078519 -0.19509086 0 0
-0.057228919 -0.096519887 0.070738703 0.0043644952 0.99999052 0 0
-0.026143711 -0.089000583 0.07074967 0.69779301 -0.71629947 0 0
-0.019766595 -0.081168577 0.070720188 0.841039 -0.54097456 0 0
-0.024970448 -0.079721741 0.070592217 -0.82164997 0.56999248 0 0
-0.013131286 -0.051397324 0.070645228 0.99086571 0.13485222 0 0
-0.020199601 -0.043901108 0.070628501 -0.94117492 -0.33791989 0 0
-0.016347121 -0.03968671 0.070556365 0.91879147 0.39474326 0 0
-0.096635938 -0.036690645 0.07099887 -0.88901782 0.45787263 0 0
-0.062073842 -0.013019141 0.07086546 -0.1088682 0.99405622 0 0
-0.053924523 -0.10152949 0.0712258 0.074121431 -0.99724925 0 0
-0.080621712 -0.094979465 0.071032129 -0.52620918 -0.85035521 0 0
-0.098342486 -0.074027166 0.07102102 -0.92553657 -0.37865832 0 0
-0.020313293 -0.032399729 0.07120911 0.83146918 0.5555709 0 0
-0.034690551 -0.024963042 0.071078412 -0.56999755 -0.82164639 0 0
-0.067155331 -0.019162919 0.071168482 0.25459993 -0.9670465 0 0
-0.065229364 -0.01348214 0.071136825 -0.17794347 0.98404074 0 0
-0.032810476 -0.09436097 0.07149262 0.54829663 -0.83628392 0 0
-0.072059579 -0.093603931 0.071283959 0.37864217 0.92554313 0 0
-0.097880699 -0.075114772 0.071304873 -0.9153102 -0.4027496 0 0
-0.096504837 -0.058285158 0.071455918 0.99953318 0.030551756 0 0
-0.019184094 -0.034168296 0.071479663 0.85491168 0.51877367 0 0
-0.031452976 -0.027484953 0.07141237 -0.65275538 -0.75756884 0 0
-0.028166339 -0.023544218 0.071289115 0.65275931 0.75756544 0 0
-0.098407477 -0.073868297 0.071598314 -0.92553657 -0.37865832 0 0
-0.017963203 -0.059727356 0.071732014 -0.99785894 0.065402769 0 0
-0.10164987 -0.056991793 0.071639314 -0.99999052 0.004360103 0 0
-0.012915513 -0.053380013 0.071596593 0.99656546 0.082808629 0 0
-0.023084842 -0.037654106 0.071716763 -0.86819839 -0.49621725 0 0
-0.096587539 -0.036598355 0.071632504 -0.88498157 0.46562615 0 0
-0.079660267 -0.024927817 0.07163766 0.56999248 -0.82164997 0 0
-0.084257737 -0.021934338 0.071569338 -0.60529423 0.79600185 0 0
-0.075650737 -0.016760785 0.071647182 -0.41865435 0.90814567 0 0
-0.052849866 -0.012964565 0.071540296 0.10018643 0.99496871 0 0
-0.034886848 -0.089574739 0.071926266 -0.56999391 0.82164896 0 0
-0.021155527 -0.083210528 0.071780972 0.81157678 -0.5842458 0 0
-0.016914869 -0.038416602 0.07176064 0.908144 0.41865802 0 0
-0.025526779 -0.033904236 0.071860716 -0.80644524 -0.59130883 0 0
-0.083508417 -0.027979104 0.071994632 0.66588539 -0.74605405 0 0
-0.030119143 -0.021953441 0.071849532 0.61221749 0.79068947 0 0
-0.021008179 -0.083005711 0.072005562 0.81663555 -0.57715368 0 0
-0.018165506 -0.061915137 0.072099127 -0.99306846 0.11753792 0 0
-0.013065986 -0.051920012 0.07214269 0.9930687 0.11753579 0 0
-0.021300012 -0.041165855 0.072018109 -0.91175932 -0.41072491 0 0
-0.089625716 -0.034960918 0.072056964 0.82659215 -0.56280142 0 0
-0.086075097 -0.023406224 0.072196774 -0.65275931 0.75756544 0 0
-0.053090248 -0.018097062 0.072041273 -0.10886858 -0.99405617 0 0
-0.06345927 -0.013193863 0.072197005 -0.14349264 0.98965138 0 0
-0.060536832 -0.096377939 0.072362207 0.082816362 0.99656487 0 0
-0.022817791 -0.029030297 0.072297834 0.7743938 0.63270396 0 0
-0.079439119 -0.024774816 0.072416499 0.56280643 -0.82658875 0 0
-0.05780651 -0.10164626 0.07255318 -0.013080318 -0.99991447 0 0
-0.032895062 -0.094416425 0.072665885 0.54829663 -0.83628392 0 0
-0.025592742 -0.088452995 0.072637454 0.71018291 -0.70401728 0 0
-0.10128149 -0.051485207 0.072651632 -0.99200559 0.12619399 0 0
-0.013323836 -0.05008895 0.072581738 0.98699635 0.16074273 0 0
-0.019434493 -0.046260931 0.07263647 -0.96005023 -0.27982783 0 0
-0.09291508 -0.040755134 0.072626501 0.90814042 -0.41866571 0 0
-0.090368852 -0.027609497 0.072696775 -0.74605346 0.66588604 0 0
-0.039393332 -0.022145426 0.072673805 -0.45009926 -0.89297855 0 0
-0.030871008 -0.02138865 0.072737627 0.59130996 0.80644441 0 0
-0.054777101 -0.10158436 0.0727688 0.056681108 -0.99839234 0 0
-0.083088428 -0.086794779 0.072985545 0.65934205 0.75184315 0 0
-0.023989845 -0.036153022 0.072974823 -0.84572953 -0.53361189 0 0
-0.07902804 -0.024496952 0.072979063 0.5555681 -0.83147109 0 0
-0.040291067 -0.016093226 0.07289046 0.37865004 0.92553991 0 0
-0.049097419 -0.013495697 0.072930314 0.18652336 0.98245054 0 0
-0.041881181 -0.098927051 0.073226109 0.34611923 -0.93819052 0 0
-0.026524259 -0.081795938 0.073163971 -0.77988333 0.62592494 0 0
-0.024012368 -0.078284279 0.073183119 -0.84573263 0.53360695 0 0
-0.098490953 -0.07365948 0.073234916 -0.92881012 -0.37055597 0 0
-0.027076006 -0.031932361 0.073191136 -0.7688421 -0.63943875 0 0
-0.025784058 -0.025755875 0.073119015 0.70401484 0.71018529 0 0
-0.083526373 -0.093016058 0.073463447 -0.59130454 -0.8064484 0 0
-0.038691889 -0.091890909 0.073259234 -0.47330326 0.88089955 0 0
-0.021676105 -0.040349271 0.073356204 -0.90445572 -0.42656758 0 0
-0.034672894 -0.024975291 0.073296629 -0.56999755 -0.82164639 0 0
-0.068220876 -0.01945788 0.073268138 0.27983072 -0.96004939 0 0
-0.051333115 -0.018322101 0.073262468 -0.15212205 -0.98836172 0 0
-0.077288404 -0.091001064 0.073629782 0.51130223 0.85940105 0 0
-0.025967786 -0.081085548 0.073586173 -0.7960062 0.60528845 0 0
-0.017228896 -0.076643892 0.07359086 0.90069824 -0.43444529 0 0
-0.10164193 -0.05807291 0.073654905 -0.99976194 -0.021819763 0 0
-0.094811842 -0.045737915 0.073623434 0.95757312 -0.28819045 0 0
-0.034618534 -0.025013383 0.073743187 -0.57714641 -0.81664068 0 0
-0.071121216 -0.014987219 0.073658958 -0.31316492 0.94969875 0 0
-0.070922419 -0.014921803 0.073686257 -0.30486712 0.9523949 0 0
-0.069239035 -0.094631463 0.073979259 0.30486396 0.95239592 0 0
-0.028929792 -0.091501705 0.073883466 0.6327011 -0.77439618 0 0
-0.017578665 -0.077347174 0.073930353 0.89298004 -0.45009628 0 0
-0.09864001 -0.041121069 0.073762469 -0.93200505 0.36244532 0 0
-0.025188787 -0.034370348 0.07393261 -0.81664068 -0.57714641 0 0
-0.084604308 -0.02900471 0.07378386 0.69779062 -0.71630186 0 0
-0.073225319 -0.015740123 0.073984489 -0.36244115 0.93200666 0 0
-0.062743038 -0.01309805 0.073881686 -0.12619749 0.99200517 0 0
-0.057428248 -0.012751797 0.073821224 -0.0043649464 0.99999046 0 0
-0.052469373 -0.10139799 0.074065842 0.1088682 -0.99405622 0 0
-0.041913632 -0.098939009 0.074076019 0.34611923 -0.93819052 0 0
-0.080851726 -0.088611439 0.07407131 0.59833109 0.80124903 0 0
-0.030149769 -0.085735604 0.074208923 -0.68518251 0.72837144 0 0
-0.014621457 -0.044442758 0.074058101 0.95757109 0.28819713 0 0
-0.028029533 -0.030837625 0.074045703 -0.7402178 -0.67236716 0 0
-0.081003375 -0.025905322 0.074064583 0.60528845 -0.7960062 0 0
-0.025624838 -0.025916241 0.07401973 0.71018529 0.70401484 0 0
-0.059711911 -0.017962202 0.074048959 0.065402769 -0.99785894 0 0
-0.097102769 -0.076786622 0.074284643 -0.89687228 -0.44228974 0 0
-0.093161777 -0.073099926 0.074434631 0.9153176 0.40273279 0 0
-0.093520269 -0.072263673 0.074315384 0.92220211 0.38670823 0 0
-0.095955953 -0.063834719 0.074321546 0.98555636 0.16934772 0 0
-0.012795097 -0.059181239 0.074255906 0.99884844 -0.047977973 0 0
-0.029088503 -0.029711269 0.074452385 -0.71630442 -0.69778788 0 0
-0.043585751 -0.014887686 0.074258894 0.30486712 0.9523949 0 0
-0.058760982 -0.096488662 0.074696332 0.039258685 0.99922907 0 0
-0.048027486 -0.095434926 0.074668556 -0.22919303 0.97338098 0 0
-0.073945671 -0.092775807 0.074684247 0.42657176 0.90445375 0 0
-0.01986064 -0.033086821 0.074570358 0.841039 0.54097456 0 0
-0.087512262 -0.024689024 0.074655473 -0.67879951 0.73432368 0 0
-0.035645954 -0.018326793 0.074558243 0.48862207 0.87249553 0 0
-0.082415164 -0.087370567 0.074752398 0.63943231 0.76884747 0 0
-0.095034406 -0.067905456 0.0747848 0.96245331 0.2714473 0 0
-0.013064299 -0.05193428 0.07479272 0.9930687 0.11753579 0 0
-0.10080141 -0.048554853 0.07488028 -0.98078519 0.19509102 0 0
-0.049772583 -0.018589914 0.074919328 -0.18652338 -0.9824506 0 0
-0.059002776 -0.017923202 0.074804179 0.047982715 -0.9988482 0 0
-0.056622691 -0.096515432 0.075123586 -0.013093483 0.99991429 0 0
-0.036716659 -0.096649341 0.075011589 0.45787263 -0.88901782 0 0
-0.034036584 -0.095137581 0.07501068 0.51877713 -0.85490948 0 0
-0.014012142 -0.067713082 0.0750608 0.97134215 -0.23768553 0 0
-0.094449826 -0.044611823 0.075212657 0.94692641 -0.32145059 0 0
-0.094077468 -0.043559618 0.075156391 0.93819064 -0.34611893 0 0
-0.025768898 -0.025770918 0.075170003 0.71018529 0.70401484 0 0
-0.038942661 -0.016674206 0.075119123 0.41071925 0.91176188 0 0
-0.090304181 -0.086864561 0.075288378 -0.7460556 -0.66588372 0 0
-0.10023176 -0.068342336 0.075496733 -0.96704721 -0.25459731 0 0
-0.094033495 -0.043440424 0.075445905 0.93819064 -0.34611893 0 0
-0.08379449 -0.028239407 0.075338252 0.67880034 -0.73432297 0 0
-0.07614091 -0.022744406 0.075430758 0.48097908 -0.87673205 0 0
-0.083674133 -0.021494361 0.075351082 -0.59832072 0.80125672 0 0
-0.064043343 -0.095919982 0.075733811 0.17794713 0.98404002 0 0
-0.065283716 -0.095679924 0.075715683 0.20363517 0.97904688 0 0
-0.093194366 -0.07302586 0.075662628 0.9153176 0.40273279 0 0
-0.013881519 -0.067162193 0.075569339 0.97534227 -0.22069764 0 0
-0.081473559 -0.01996357 0.07560192 -0.5482977 0.83628327 0 0
-0.071804352 -0.015218618 0.075593174 -0.32969031 0.94408917 0 0
-0.019018572 -0.079957865 0.075879216 0.85940462 -0.51129615 0 0
-0.10104751 -0.064498395 0.075861104 -0.98699862 -0.16072869 0 0
-0.10116495 -0.063754335 0.075769514 -0.98965037 -0.14349969 0 0
-0.018618589 -0.049624998 0.075808853 -0.98078519 -0.19509086 0 0
-0.10041688 -0.04680068 0.075790934 -0.97134054 0.23769234 0 0
-0.019907646 -0.044742301 0.075836949 -0.94969845 -0.31316608 0 0
-0.029705416 -0.029094202 0.075853512 -0.69778788 -0.71630442 0 0
-0.070533931 -0.020211618 0.07589671 0.33791989 -0.94117492 0 0
-0.026994269 -0.089809597 0.076157659 0.67879927 -0.73432386 0 0
