# .PCD v0.7 - Point Cloud Data file format
VERSION 0.7
FIELDS x y z
SIZE 4 4 4
TYPE F F F
COUNT 1 1 1
WIDTH 1324
HEIGHT 1
VIEWPOINT 0 0 0 1 0 0 0
POINTS 1324
DATA ascii
0.090884998 0.012186119 -0.050362948
0.09413214 0.012108645 -0.05041201
0.099281691 0.012073815 -0.050371826
0.10241428 0.012038376 -0.05036547
0.10278741 0.012028046 -0.050385278
0.1359117 0.011702385 -0.050362531
0.13662148 0.011701546 -0.050352592
0.14064404 0.011657842 -0.05034351
0.16508931 0.011427975 -0.050339181
0.16761263 0.011411716 -0.050333377
0.17626518 0.011328466 -0.050329417
0.17662664 0.011332779 -0.050320417
0.18309236 0.011278019 -0.05031817
0.18790787 0.01125436 -0.050275721
0.19258937 0.011184856 -0.050291657
0.22181079 0.010935033 -0.050261702
0.22792697 0.010866681 -0.050252441
0.23327772 0.010818997 -0.050256547
0.233815 0.010817287 -0.050254438
0.25125486 0.010668813 -0.050225586
0.25882915 0.010626413 -0.050197985
0.28598407 0.010344358 -0.050207425
0.077146545 0.012219857 -0.050454255
0.13736349 0.012355972 -0.051028285
0.15215267 0.012172601 -0.051047493
0.15284149 0.012177676 -0.051033765
0.15636167 0.012104417 -0.051107366
0.15693092 0.012121307 -0.051068235
0.17333068 0.011963693 -0.051045768
0.18024696 0.011939525 -0.051014751
0.18063608 0.011927078 -0.051003218
0.18399474 0.011847736 -0.051064014
0.18456554 0.011820883 -0.051076677
0.18860789 0.011883114 -0.050967138
0.1932729 0.011803167 -0.050992273
0.19474919 0.011827697 -0.050976831
0.19723555 0.011756748 -0.051036995
0.20819491 0.011689386 -0.050986145
0.20908281 0.011659121 -0.05099573
0.20967579 0.011603681 -0.051027175
0.2157978 0.011565421 -0.051002916
0.22285889 0.011521418 -0.050999478
0.22383624 0.011459669 -0.051043916
0.22895728 0.011480267 -0.050961863
0.23475248 0.01144789 -0.050938997
0.23866503 0.011383558 -0.050969023
0.24333219 0.011356609 -0.050951123
0.24373883 0.011352632 -0.05094821
0.25197178 0.011317693 -0.050913766
0.25990295 0.011247002 -0.05089654
0.26102787 0.011232819 -0.050905138
0.26527092 0.011133447 -0.050935827
0.26566949 0.01114211 -0.05092857
0.27002826 0.011108641 -0.050916001
0.27536988 0.011067579 -0.050907336
0.27788964 0.011039355 -0.050921418
0.28164524 0.010998374 -0.050925937
0.28689706 0.010971289 -0.05089201
0.35252744 0.010148519 -0.057882342
0.355625 0.0088354656 0.0023380187
0.35524881 0.0090623703 -0.0076002837
0.35122904 0.010023274 -0.017784821
0.35484794 0.0099858921 -0.017788813
0.35397214 0.0099720042 -0.026509486
0.35092351 0.010927468 -0.035831228
0.35319287 0.01084532 -0.043681204
0.22963232 0.012108498 -0.051662371
0.23561633 0.012077516 -0.051625099
0.23723355 0.012053284 -0.051659502
0.24448362 0.011983999 -0.051616598
0.25268802 0.011964811 -0.051584158
0.25624269 0.011877085 -0.051635459
0.26637492 0.0117785 -0.051612563
0.27321103 0.01175344 -0.051601488
0.27354479 0.011763015 -0.051579494
0.28276461 0.011633717 -0.051600508
0.28879309 0.011600696 -0.051554006
0.23671888 0.012714742 -0.052303925
0.24983813 0.012583647 -0.052308578
0.25338867 0.012595409 -0.052266635
0.26709494 0.012442278 -0.0522811
0.26767761 0.012441685 -0.052279264
0.27172372 0.012364855 -0.052326303
0.27893379 0.012331165 -0.052276976
0.27970585 0.012313657 -0.052273642
0.35139993 0.012159484 -0.066908926
0.35176906 0.012150323 -0.066909388
0.35048366 0.012195257 -0.080028832
0.35044602 0.012886614 -0.08068379
0.30230579 0.013249217 -0.086941317
0.34778133 0.012872069 -0.086862028
0.35140646 0.012772352 -0.086910091
0.35317162 0.0097213807 0.0012534729
0.35202694 0.010289147 -0.0090495171
0.35350147 0.01024475 -0.0090503488
0.35347477 0.010836586 -0.0097809909
0.35492527 0.011160523 -0.019231765
0.35197055 0.012156939 -0.037239775
0.35244089 0.012150257 -0.037227817
0.014017161 0.014570381 -0.044749055
0.042521298 0.014889072 -0.045458194
0.04573746 0.014850399 -0.045455258
0.35129604 0.012087001 -0.045117285
0.35716897 0.012069345 -0.045073319
0.27463105 0.013054463 -0.052933786
0.35053125 0.012795836 -0.060591802
0.3503845 0.013570837 -0.081346102
0.30305851 0.013961373 -0.087564401
0.35138953 0.013486733 -0.087544225
0.30371869 0.01467656 -0.088191934
0.35358793 0.011119939 -0.00059321185
0.029994268 0.014374599 -0.010823729
0.16473314 0.013118833 -0.010707026
0.35305846 0.011777831 -0.01995109
0.35305187 0.012368879 -0.020668358
0.35228309 0.011793109 -0.028635588
0.35263038 0.011787356 -0.028636945
0.02704405 0.015660586 -0.046165235
0.034190964 0.015565924 -0.046194572
0.043213036 0.015506427 -0.04614548
0.077464871 0.015194511 -0.046104562
0.14157495 0.01459883 -0.046070475
0.00016359985 0.016530607 -0.046893928
0.0060783997 0.016486444 -0.046862129
0.012936734 0.016385807 -0.046898652
0.013664655 0.016404778 -0.046879277
0.018324338 0.01636258 -0.046889994
0.018682979 0.016350811 -0.046889249
0.025548477 0.016297773 -0.046870571
0.027718067 0.0163057 -0.046844795
0.030935094 0.016246708 -0.046868112
0.031814374 0.01626361 -0.04685631
0.034886215 0.016206069 -0.046881914
0.037398711 0.016207993 -0.046837114
0.03979931 0.016178105 -0.046824031
0.048581436 0.016092982 -0.046822868
0.055114858 0.016046308 -0.046802696
0.07816197 0.015800029 -0.046831004
0.086444661 0.015779687 -0.046777908
0.09325695 0.015781013 -0.046721559
0.10990503 0.015540455 -0.046780284
0.12392282 0.015418475 -0.046758898
0.12521209 0.015418443 -0.046717089
0.13619104 0.015299123 -0.046738099
0.14406298 0.015212134 -0.046748001
0.14628014 0.015240247 -0.046696298
0.22233073 0.014475411 -0.046680234
0.35165083 0.013342089 -0.046515517
0.29873246 0.013453316 -0.053618114
0.35196522 0.013587752 -0.054273158
0.35012636 0.014487748 -0.075786635
0.30436194 0.015400813 -0.088822685
0.35386944 0.011996442 -0.011240565
0.35057017 0.012948033 -0.021424092
0.35237122 0.012947549 -0.021399008
0.35072339 0.013040625 -0.030069791
0.35257167 0.013303457 -0.030423442
-0.0029593892 0.017133743 -0.047669031
-0.0018779822 0.017799707 -0.048325676
0.0012334436 0.017139411 -0.047605511
0.0071747862 0.017092694 -0.047560629
0.014373336 0.017037274 -0.047560342
0.015092056 0.017059179 -0.047552958
0.019807328 0.017029645 -0.047519054
0.026262525 0.016935226 -0.047545999
0.02699928 0.016911155 -0.047559783
0.029201902 0.017548585 -0.048211858
0.037109792 0.016866021 -0.047488634
0.046074722 0.016776662 -0.047508452
0.048582315 0.016734 -0.047519267
0.049699455 0.017325504 -0.048214018
0.05175915 0.017335737 -0.048234411
0.05328963 0.01670674 -0.047486417
0.055818055 0.016649798 -0.047526326
0.056723826 0.017286584 -0.048222337
0.059773404 0.016633654 -0.0475071
0.063348651 0.016606605 -0.04748879
0.063684903 0.016609514 -0.04750083
0.065746069 0.016572488 -0.047487665
0.06893874 0.016524773 -0.047522277
0.071963996 0.017154055 -0.04819468
0.074878708 0.016494613 -0.04750815
0.075916588 0.016489495 -0.047486927
0.077101275 0.016908027 -0.047945119
0.077768259 0.016496886 -0.04746864
0.082405843 0.016718715 -0.047858201
0.086161017 0.016405527 -0.047441162
0.089352801 0.016449131 -0.047419839
0.092959784 0.016411595 -0.047412548
0.097694717 0.016308321 -0.047451582
0.10119534 0.0162635 -0.047464412
0.1019101 0.016853249 -0.048203912
0.10620585 0.016817929 -0.048185188
0.10918057 0.01616157 -0.047473885
0.11008468 0.016783681 -0.048156962
0.11097333 0.016787777 -0.048166752
0.11524262 0.016110936 -0.047469452
0.11598197 0.01673934 -0.048173491
0.1169045 0.016705297 -0.048169207
0.11795513 0.016695077 -0.048179381
0.1246298 0.016045537 -0.047439281
0.1357971 0.01658608 -0.048098508
0.13971308 0.016548915 -0.048105165
0.1443481 0.016466385 -0.04814503
0.14655998 0.016456792 -0.048129663
0.15022019 0.015791912 -0.047414944
0.15134001 0.015827848 -0.047371302
0.15166199 0.015819142 -0.047378771
0.15517792 0.015761694 -0.047408689
0.1584692 0.016326135 -0.04813255
0.1653143 0.015670689 -0.047411121
0.17198698 0.016223025 -0.048094932
0.17597616 0.016203072 -0.04808607
0.17920509 0.016173625 -0.048087768
0.18777126 0.016090702 -0.048077706
0.19347508 0.016071685 -0.048040222
0.20110218 0.015958028 -0.048085008
0.20900109 0.015894346 -0.048059978
0.20976309 0.01589187 -0.048049264
0.21587588 0.01552162 -0.047685564
0.22845933 0.015041537 -0.047389202
0.24607818 0.015567647 -0.048013419
0.24668816 0.015565258 -0.047999959
0.25511226 0.015511094 -0.047976173
0.26845747 0.015352598 -0.047985334
0.35024124 0.014605762 -0.047898762
0.11737806 0.016689815 -0.048192028
0.15897276 0.016306192 -0.048165109
0.15954679 0.016292293 -0.048166446
0.16493219 0.016261524 -0.048148282
0.18296662 0.016089039 -0.048138324
0.18920249 0.016034484 -0.048133098
0.20822889 0.015840221 -0.048111323
0.20860015 0.015873376 -0.048097037
0.21442807 0.015812809 -0.048086382
0.22158296 0.015722312 -0.048110493
0.22811186 0.015665788 -0.048093483
0.23563239 0.015637996 -0.048058223
0.29764497 0.014755866 -0.054992735
0.2990897 0.014742576 -0.054986302
0.35196853 0.014231258 -0.054956291
0.35016415 0.01552764 -0.070226431
0.35041225 0.015854506 -0.077101856
0.30544639 0.016105944 -0.089448303
0.30631036 0.016797394 -0.090079747
0.3518849 0.016307652 -0.090099677
0.35136685 0.012259912 0.0078641213
0.35420859 0.013147963 -0.012706075
0.35310018 0.013542106 -0.022116559
0.02051324 0.01764041 -0.048220541
0.05395589 0.01734216 -0.048190929
0.066570856 0.017225346 -0.048162963
0.086815476 0.017044175 -0.048148997
0.090067431 0.017071767 -0.048097353
0.093648486 0.017042991 -0.048096232
0.094711483 0.017028539 -0.048099983
0.13937929 0.016561905 -0.048090499
0.19750273 0.016055148 -0.048030119
-0.0011849329 0.018453179 -0.048985183
0.0024519302 0.018399829 -0.048987158
0.0081986189 0.018336007 -0.048965149
0.0089449249 0.018359054 -0.0489369
0.021228842 0.018235333 -0.048916917
0.036367815 0.018086476 -0.048934143
0.041695666 0.018068578 -0.048908267
0.077336051 0.017721822 -0.048893552
0.098735228 0.017560694 -0.048833579
0.10621567 0.017485309 -0.048854843
0.13649203 0.017212555 -0.048795745
0.14546666 0.017095491 -0.048837632
0.15160254 0.017069558 -0.04879953
0.16680112 0.016935935 -0.048751745
0.17308536 0.016875805 -0.048766222
0.18389672 0.016736027 -0.048801016
0.18740013 0.016764928 -0.04874181
0.18773416 0.016746549 -0.048759367
0.18990491 0.016661027 -0.048812799
0.19210604 0.016709996 -0.048732478
0.19347575 0.016707717 -0.048743203
0.19602762 0.016648797 -0.048767947
0.19822226 0.016671477 -0.048714723
0.19861332 0.016654482 -0.048724104
0.20089725 0.016601708 -0.0487758
0.20201108 0.01657323 -0.048770908
0.20970874 0.016523967 -0.048751447
0.21512848 0.016430536 -0.048789989
0.2157038 0.016452333 -0.048758481
0.22122958 0.016416399 -0.048756514
0.2226484 0.016343875 -0.048789717
0.22803849 0.016301265 -0.048779983
0.23604144 0.016257461 -0.048743986
0.23676115 0.016260363 -0.048731532
0.24289241 0.01621823 -0.04869758
0.25184938 0.016133912 -0.048708048
0.25492975 0.016133485 -0.048681755
0.25588563 0.016149675 -0.048656482
0.25904846 0.016128365 -0.048653577
0.26002169 0.016070157 -0.04868342
0.26629525 0.016032439 -0.048677016
0.26915249 0.015961284 -0.048698992
0.27422652 0.015935892 -0.048661757
0.27703586 0.01593649 -0.048657175
0.27783853 0.015893605 -0.048668496
0.281416 0.015887268 -0.048655428
0.28607652 0.015858945 -0.048638638
0.29928371 0.01602133 -0.056361888
0.3523581 0.015533013 -0.056309268
0.319621 0.016654681 -0.083957709
0.35159945 0.017033791 -0.084589086
0.35434327 0.014191007 -0.0046699019
0.35209164 0.014754058 -0.0054087127
-0.00047406182 0.019090028 -0.049647592
0.0039084665 0.019051274 -0.049621377
0.010203633 0.018998135 -0.049622104
0.010744169 0.018962486 -0.049658105
0.017218415 0.018969977 -0.049591657
0.023720592 0.018841887 -0.049657021
0.034125265 0.018778436 -0.049598884
0.034513202 0.018782903 -0.049602997
0.039157558 0.018670067 -0.049687821
0.055748582 0.018609006 -0.049556326
0.057918351 0.018566379 -0.049589228
0.061164819 0.018493302 -0.049615819
0.061526619 0.018462373 -0.049636025
0.067626879 0.018470988 -0.049580589
0.070468575 0.018406579 -0.049624905
0.073063068 0.018384326 -0.049602184
0.10304948 0.018097108 -0.049586035
0.10805462 0.01802003 -0.049608782
0.11921739 0.017955298 -0.04956485
0.11957856 0.017959209 -0.049548995
0.17398968 0.017510178 -0.049459193
0.19061016 0.017316155 -0.049488328
0.19926368 0.017281955 -0.049422942
0.21727489 0.017072411 -0.049438849
0.22915393 0.01690858 -0.049489308
0.23526454 0.016928464 -0.049418066
0.2377834 0.01689765 -0.049422402
0.24360557 0.016851284 -0.049382813
0.2522243 0.016771333 -0.049389619
0.26090834 0.016674249 -0.049410503
0.26625225 0.016668512 -0.049365688
0.28643537 0.016486328 -0.049329765
0.28750351 0.016461557 -0.04934084
0.3553274 0.015867217 -0.04924367
0.0039183199 0.019678863 -0.050324142
0.023027159 0.019416749 -0.050396271
0.030584794 0.019452313 -0.050292306
0.042783279 0.01933383 -0.050295308
0.051261362 0.019236775 -0.05029083
0.053229213 0.019197958 -0.050322745
0.058642093 0.019177083 -0.050297458
0.062323999 0.019091614 -0.050311297
0.06834323 0.019085515 -0.050275296
0.073923156 0.019016454 -0.050288975
0.088598862 0.018903138 -0.050268412
0.096109912 0.018897055 -0.050190963
0.1000654 0.018823378 -0.050244603
0.10375296 0.018704223 -0.050285794
0.11241737 0.018658329 -0.050266292
0.12856904 0.018468412 -0.050278474
0.15448584 0.018224472 -0.050253671
0.16089529 0.018186988 -0.050249971
0.22447148 0.017638987 -0.05014411
0.23876965 0.017500518 -0.050104905
0.24434082 0.017480318 -0.050083369
0.28244948 0.01716206 -0.050040565
0.28290865 0.017165491 -0.050021857
0.28821054 0.017095743 -0.050023817
0.35089675 0.016500873 -0.049986247
0.35132852 0.016177941 -0.056992847
0.35046935 0.016882846 -0.071550392
0.35355151 0.017198168 -0.078405172
0.12044075 0.016860489 -0.0056859767
0.019153345 0.018379228 -0.0064765178
0.039125159 0.018206947 -0.0064388737
0.10867497 0.017512081 -0.0064658942
0.11841354 0.017442422 -0.0064060516
0.12739763 0.017383637 -0.0063703549
0.13131128 0.017325444 -0.0064136721
0.14869858 0.01716888 -0.0063633039
0.15227878 0.017172568 -0.0063503524
0.15912317 0.01702489 -0.0064119846
0.16960314 0.017036833 -0.0063234223
0.17178866 0.016961917 -0.0063749021
0.17719398 0.016927548 -0.0063722129
0.18293373 0.01690089 -0.0063278913
0.19838591 0.016661212 -0.0063839136
0.21040179 0.016651299 -0.0062671448
0.22297241 0.016518138 -0.0062850369
0.25675082 0.016195528 -0.0062620714
0.31516731 0.015661409 -0.0061868099
0.35550269 0.015304552 -0.0061420938
0.35292539 0.015466394 -0.015605888
0.021479867 0.019451715 -0.042571656
0.11227572 0.018595217 -0.042477548
0.1357443 0.018407958 -0.042406157
0.16100074 0.018131556 -0.042412035
0.23889774 0.017451836 -0.042305928
0.036977109 0.019878739 -0.043264929
0.045971874 0.019832512 -0.043231726
0.086342648 0.019551737 -0.043131325
0.192349 0.01847945 -0.043117121
0.35412571 0.017065022 -0.042878896
0.037744813 0.019980323 -0.05101981
0.056086395 0.019857381 -0.050974213
0.085638247 0.01953071 -0.051002257
0.10012569 0.019443048 -0.050933897
0.10445507 0.019339608 -0.050962996
0.10796715 0.01930709 -0.050987076
0.12064317 0.019212775 -0.050924473
0.1278519 0.019175101 -0.050908703
0.13863459 0.019033389 -0.050934352
0.14223012 0.019036658 -0.050894175
0.14481314 0.018998884 -0.050900314
0.1490521 0.018979736 -0.050882131
0.15448779 0.01888686 -0.050913885
0.15802412 0.018914606 -0.050872523
0.16235858 0.018880986 -0.05086511
0.16273734 0.018873757 -0.050845988
0.16847745 0.018826352 -0.050856262
0.16908439 0.018804485 -0.050850078
0.1703271 0.018783031 -0.050852012
0.17062923 0.018761514 -0.050886475
0.17538424 0.018739955 -0.050859261
0.17796578 0.018689582 -0.050882928
0.18544097 0.018645765 -0.050860833
0.19368041 0.018596608 -0.050809931
0.19524926 0.01854977 -0.050851244
0.19747341 0.018562274 -0.050829783
0.1981685 0.018555302 -0.050817031
0.20497742 0.018448936 -0.050828725
0.22407652 0.018239375 -0.050850861
0.23963763 0.018128363 -0.050794493
0.24899438 0.018057156 -0.050789986
0.25796208 0.018029727 -0.050734371
0.27558047 0.017815806 -0.050757796
0.28894627 0.017720537 -0.050728187
0.28998119 0.017707031 -0.050742283
0.31745651 0.017412962 -0.050719794
0.15426998 0.019571166 -0.051572032
0.16197142 0.019452659 -0.051608328
0.1685085 0.01944086 -0.051549766
0.18218201 0.019327419 -0.051526032
0.20060922 0.019148275 -0.051535558
0.22549053 0.018887419 -0.05153919
0.24034943 0.018759754 -0.051496655
0.24069838 0.018761599 -0.051483557
0.24171394 0.018758951 -0.051492728
0.25763622 0.018651972 -0.051433947
0.26284564 0.018508352 -0.051518265
0.27127436 0.018461118 -0.051491138
0.27200261 0.018467445 -0.051461361
0.27624208 0.018439543 -0.051459003
0.27956903 0.018402198 -0.05145257
0.28410113 0.018412039 -0.051416915
0.28500885 0.018386941 -0.05141408
0.28981805 0.018346045 -0.051415801
0.29361403 0.018313315 -0.051408861
0.29758567 0.018268149 -0.051409405
0.29863182 0.018276796 -0.051393028
0.35160694 0.017466635 -0.05836327
0.30916893 0.018941715 -0.079789177
0.32471448 0.018802099 -0.079762034
0.30328497 0.019593365 -0.086555712
0.34975103 0.018393459 -0.085926168
0.35184225 0.018400019 -0.085901402
0.31274205 0.015946314 0.0033920575
0.35402513 0.015511603 0.003381839
0.0071247183 0.019031426 -0.0072538182
0.10612066 0.018692473 -0.0079037771
0.10814998 0.018707057 -0.0078642424
0.10994309 0.018059574 -0.0071963528
0.11043733 0.018079584 -0.0071744444
0.12088065 0.017979298 -0.0071608168
0.13128814 0.017866397 -0.0071871951
0.1396405 0.018445102 -0.0078135487
0.14810243 0.017725537 -0.0071225571
0.15209903 0.017728696 -0.0070921974
0.15887016 0.017820748 -0.007366288
0.16318901 0.017661717 -0.007036488
0.16623203 0.017541936 -0.0071410695
0.17180441 0.017512951 -0.0071304091
0.17436242 0.017569492 -0.0070427903
0.17473398 0.017557856 -0.0070313648
0.19110969 0.017883224 -0.0078179454
0.19781223 0.01767423 -0.0075496496
0.19843814 0.017229851 -0.0071253418
0.20459545 0.017787747 -0.0077945795
0.21004447 0.017486341 -0.0073868828
0.21077546 0.017758263 -0.0077448031
0.21828017 0.017682411 -0.0077726827
0.21864429 0.017678555 -0.0077668387
0.27165338 0.016658492 -0.0069436608
0.35340121 0.015862813 -0.0068881228
0.063200526 0.019818123 -0.018102227
0.1305787 0.018590603 -0.017354919
0.14464542 0.01909975 -0.018002544
0.19482175 0.01804412 -0.017227426
0.067950308 0.019773897 -0.018127711
0.34826696 0.017216749 -0.017819516
0.35255525 0.017203473 -0.017801963
0.3520965 0.017063944 -0.026468033
0.06476023 0.020273793 -0.027511034
0.094032995 0.020007845 -0.027485488
0.31889284 0.017928634 -0.027259482
0.34850183 0.017720087 -0.027179994
0.016010817 0.020870205 -0.03617578
0.20158857 0.019156037 -0.036007341
0.016018365 0.020690324 -0.044017993
0.041982111 0.020465778 -0.043956954
0.05103571 0.02041935 -0.043903295
0.057088979 0.020387739 -0.043902095
0.11265837 0.019832987 -0.043877892
0.16131631 0.019391436 -0.043822531
0.17610666 0.019263716 -0.043787554
0.18659741 0.019118754 -0.043854635
0.23131308 0.018779645 -0.043716446
0.35109472 0.017692268 -0.043593306
0.011919674 0.021344537 -0.044713933
0.022863969 0.021275226 -0.044693619
0.054322161 0.020970322 -0.044653658
0.073317915 0.020811986 -0.044629153
0.095032521 0.020667946 -0.044546433
0.10694908 0.020496424 -0.044591337
0.29358575 0.018829204 -0.044358913
0.31742883 0.018606003 -0.044338588
0.31774041 0.018596249 -0.044345081
0.350833 0.018303087 -0.044312119
0.20432332 0.019706959 -0.052231576
0.21274813 0.019648293 -0.05222141
0.23237817 0.019500388 -0.052180406
0.24608943 0.019328024 -0.052199636
0.2509819 0.019302046 -0.052160013
0.25835255 0.019289922 -0.052113872
0.26839259 0.019147836 -0.052152179
0.27451566 0.019095933 -0.052126098
0.29137668 0.018905463 -0.052163541
0.29214898 0.018889202 -0.052157789
0.29327178 0.018920453 -0.052123565
0.29825765 0.01890769 -0.052095849
0.29860985 0.018908946 -0.052086443
0.29967135 0.018908875 -0.052087959
0.35194647 0.018751349 -0.059737109
0.35075346 0.019351481 -0.067381218
0.35228431 0.019372607 -0.067350097
0.35112572 0.018894181 -0.073546775
0.30726027 0.019595638 -0.08049234
0.30915073 0.019608174 -0.080455616
0.31414175 0.01959346 -0.080425061
0.31882998 0.02018013 -0.081126064
0.32967991 0.020129794 -0.08107242
0.35206562 0.019939099 -0.081030473
0.34185651 0.01668537 0.012245257
0.12599282 0.019057231 -0.0086359885
0.16275732 0.018727327 -0.0085801929
0.190955 0.018476591 -0.0085212877
0.27127075 0.017789695 -0.0084305964
0.0046091564 0.020748422 -0.009470487
0.0058188476 0.020855991 -0.018960489
0.017112128 0.020832669 -0.018886516
0.038350198 0.020659955 -0.018838441
0.083003029 0.020236105 -0.018829245
0.087086886 0.020146945 -0.018832847
0.095902123 0.020017587 -0.018882014
0.15252452 0.019552935 -0.018780928
0.27616349 0.018459534 -0.018630063
0.35361755 0.017765082 -0.018537011
0.0052830726 0.021398943 -0.019713862
0.0056145266 0.021387503 -0.019736277
0.03154777 0.021257458 -0.019619724
0.051317997 0.021063061 -0.019606452
0.053801294 0.02104215 -0.019638248
0.057067409 0.021025443 -0.019588167
0.071915105 0.020887533 -0.019595327
0.087099478 0.020714751 -0.019580372
0.17220983 0.019909907 -0.019515857
0.18044323 0.019919926 -0.019438708
0.23699015 0.019368654 -0.01941731
0.31272805 0.018640433 -0.019348947
0.34979457 0.018367013 -0.019263031
0.0079217702 0.021342672 -0.028325696
0.015891403 0.021268534 -0.028298113
0.032082643 0.02114531 -0.028287273
0.070928156 0.020786649 -0.028237063
0.075355485 0.02078234 -0.028194524
0.086243376 0.020706672 -0.028166227
0.098454326 0.020525079 -0.028184297
0.11281385 0.020395564 -0.028196907
0.13082685 0.020215256 -0.028209653
0.1971343 0.020160567 -0.028879233
0.035085384 0.021335758 -0.036831815
0.048402123 0.021238867 -0.03678799
0.058126565 0.021076966 -0.036856908
0.066746078 0.021033797 -0.03680715
0.077956602 0.020922514 -0.036811531
0.081595831 0.020895174 -0.036813412
0.084512256 0.020928765 -0.036729343
0.088842541 0.020884607 -0.036720324
0.10107461 0.020632783 -0.036836237
0.10580742 0.020587474 -0.036833521
0.14678845 0.020223416 -0.036789965
0.077951685 0.021504104 -0.037556928
0.14174256 0.020916736 -0.037476808
0.17092939 0.020647973 -0.037463877
0.17849526 0.020595942 -0.037410773
0.21202363 0.02032784 -0.037340533
0.0039522164 0.022059586 -0.045401193
0.022235569 0.022514325 -0.046073221
0.041343447 0.02233289 -0.046051417
0.054280248 0.022228004 -0.046028025
0.073337555 0.021434864 -0.045333546
0.08461982 0.021345904 -0.045266677
0.092444673 0.021359077 -0.045249335
0.13316722 0.021515379 -0.045943245
0.15406203 0.020715969 -0.045213949
0.15691675 0.020618828 -0.045286711
0.21503532 0.020154286 -0.045152817
0.25287852 0.019821707 -0.045107547
0.29353878 0.019454297 -0.045067761
0.34687132 0.018923694 -0.045042861
0.0029910095 0.022691712 -0.046143286
0.011720486 0.022600194 -0.046121266
0.01973537 0.022493789 -0.046119258
0.022568583 0.022515979 -0.046076562
0.038046736 0.022329912 -0.046112649
0.047060538 0.022299049 -0.04605671
0.073342785 0.022021348 -0.046066772
0.13894333 0.021445768 -0.045952227
0.22615293 0.020600038 -0.045919027
0.27451479 0.01975229 -0.052805036
0.28058463 0.019656643 -0.052852184
0.30367017 0.019427281 -0.052846443
0.3192769 0.019932494 -0.053486388
0.35112154 0.019655351 -0.053468667
0.35191458 0.019405624 -0.060418971
0.35074967 0.020007029 -0.068053685
0.35379425 0.020010469 -0.068023413
0.35027355 0.020904709 -0.075562418
0.32489958 0.020848352 -0.081743903
0.32968971 0.020818356 -0.08171612
0.35194948 0.020619007 -0.081691809
0.3053242 0.020947693 -0.087849364
0.32476556 0.020730034 -0.087863259
0.34998938 0.020483095 -0.087869503
0.30549946 0.017562015 0.011456192
0.31011191 0.017557489 0.011478828
0.31668663 0.017459447 0.011468949
0.35197031 0.017124716 0.011494784
0.30193436 0.018172702 0.010721886
0.31158447 0.018070437 0.010725687
0.31450433 0.018041667 0.010723155
0.33795136 0.017836371 0.010757209
0.34678274 0.017729834 0.010753152
0.064181507 0.020983331 -0.00056843716
0.34732503 0.018343166 -0.00033384009
0.35490593 0.01825357 -0.00032998153
0.005381491 0.021296643 -0.010210638
0.019054249 0.021738894 -0.010919425
0.025152773 0.021104297 -0.010209345
0.0384489 0.021606278 -0.010886887
0.044638332 0.020947166 -0.010144039
0.047687024 0.021461386 -0.010912409
0.050352059 0.021441873 -0.010904774
0.061142605 0.021350194 -0.010898108
0.071287699 0.020785969 -0.010102149
0.088288411 0.021087335 -0.01087281
0.088671125 0.021087656 -0.010843878
0.095800787 0.021000149 -0.010885005
0.10301414 0.020687263 -0.010486657
0.13354185 0.020116858 -0.010097502
0.13684653 0.020066617 -0.010098875
0.13751277 0.020045727 -0.010140663
0.14405455 0.020566199 -0.010848468
0.15013796 0.019971956 -0.010064824
0.16134554 0.019829875 -0.010103542
0.17184995 0.019815072 -0.010008663
0.1766392 0.019770583 -0.009995359
0.18659936 0.019578321 -0.010080934
0.19374874 0.019838516 -0.010400157
0.074833304 0.020923413 -0.019510332
0.32063296 0.018658414 -0.019272445
0.00056643039 0.02216468 -0.020335086
0.017472375 0.021971708 -0.020342583
0.025779493 0.021899922 -0.020343311
0.048478521 0.021654706 -0.020357862
0.079103485 0.0214669 -0.020241709
0.083060443 0.02139082 -0.020293888
0.096107051 0.021167422 -0.020337574
0.11116254 0.021047195 -0.020318208
0.1782501 0.02045149 -0.020218549
0.25135693 0.019796841 -0.020134239
0.2856099 0.019473623 -0.020111589
0.34765887 0.018947424 -0.019990265
0.2466938 0.020392142 -0.020900715
0.0028785169 0.021953965 -0.029073033
0.020565592 0.021835629 -0.029022111
0.05516956 0.021526756 -0.028944757
0.060506906 0.02146418 -0.028965153
0.081819579 0.021361258 -0.028902359
0.094466768 0.021170091 -0.028919596
0.09844026 0.021110754 -0.02893495
0.10581103 0.021026257 -0.028936818
0.1128405 0.02097976 -0.02892245
0.13982484 0.020751875 -0.028863216
0.2580187 0.019657163 -0.028784435
0.0082986429 0.022526277 -0.029770926
0.02421714 0.022364579 -0.029746393
0.029212911 0.022316325 -0.029736934
0.040684614 0.022262985 -0.029710557
0.042916898 0.022244209 -0.029670252
0.045445725 0.022186039 -0.029710099
0.048581552 0.022235826 -0.029666608
0.052234001 0.022150166 -0.029669039
0.055209551 0.022104932 -0.029675113
0.064842805 0.022022268 -0.029691774
0.071012199 0.021986235 -0.029649252
0.081827536 0.021915009 -0.029651379
0.10525726 0.021647032 -0.029662794
0.1398465 0.021327199 -0.029598569
0.16103697 0.021138662 -0.029586878
0.18062447 0.020963382 -0.029543567
0.18999103 0.02088188 -0.02958587
0.20486158 0.020743541 -0.029524039
0.2111848 0.020617837 -0.029596137
0.23181987 0.020498727 -0.029489869
0.23650256 0.020462284 -0.029487567
0.24910973 0.020339204 -0.029490903
0.25482813 0.020321576 -0.029463861
0.27580255 0.020120587 -0.029418027
0.28543031 0.020052487 -0.029413775
0.28578299 0.020053705 -0.029404338
0.31322527 0.019793363 -0.029381054
0.31502935 0.019776724 -0.029392501
0.34925187 0.019482015 -0.029342858
0.0041215234 0.022791501 -0.038316123
0.015348315 0.02265045 -0.038333599
0.023280103 0.022632826 -0.03826037
0.023612306 0.022654023 -0.038254984
0.032532372 0.022498293 -0.038347181
0.035423279 0.022525333 -0.03826198
0.041607395 0.022430856 -0.038298983
0.046253979 0.02239909 -0.038286559
0.051667999 0.022378765 -0.038260821
0.055351369 0.02229248 -0.038273528
0.05851138 0.022292415 -0.038271256
0.064207658 0.022250751 -0.038282238
0.067121968 0.022220952 -0.038244303
0.081961662 0.022069497 -0.038264405
0.084889993 0.02214268 -0.0381434
0.08878766 0.022114575 -0.038150825
0.10397112 0.022472549 -0.038930494
0.10613863 0.021807352 -0.038251266
0.11384875 0.022087267 -0.038561407
0.12119269 0.021685837 -0.038232796
0.13162889 0.02159672 -0.038225941
0.14716436 0.021458922 -0.038181346
0.1550346 0.021454966 -0.038133018
0.16300324 0.02135634 -0.03811983
0.17099026 0.021259237 -0.038154751
0.19330087 0.02110208 -0.038102072
0.19666184 0.021624524 -0.038821235
0.20526934 0.021271583 -0.038448818
0.21902621 0.020854311 -0.038044289
0.25617412 0.020451488 -0.038088575
0.26143789 0.021051876 -0.038745821
0.27299467 0.020937301 -0.038742203
0.016049106 0.023210527 -0.039071951
0.097142354 0.022504846 -0.038961411
0.10100386 0.022479637 -0.038968965
0.10580511 0.022458479 -0.038942832
-0.001951851 0.022743944 -0.046098802
0.0020047948 0.022734346 -0.04605341
0.049266417 0.022287127 -0.046020161
0.049588788 0.022299308 -0.046016779
0.060751826 0.022189919 -0.046020977
0.099298231 0.021858731 -0.045950282
0.25716239 0.020427423 -0.045793369
-0.001996994 0.023355817 -0.046808455
-0.0012600236 0.023375027 -0.046774168
0.0012600198 0.023349363 -0.04680109
0.0023305789 0.022734374 -0.046105903
0.0026481077 0.022712337 -0.046124637
0.004134208 0.023270188 -0.046845727
0.0092218816 0.023263574 -0.046792053
0.0099015832 0.023265855 -0.046798304
0.010961793 0.023259399 -0.04677929
0.011660628 0.023265168 -0.046764117
0.016517136 0.023141669 -0.04681186
0.021137677 0.02308335 -0.046837732
0.022262562 0.023131678 -0.046777606
0.023256514 0.023111567 -0.046806678
0.033004679 0.023049606 -0.04676247
0.035922889 0.023031723 -0.046743877
0.041100454 0.022995697 -0.046719663
0.044487499 0.022959979 -0.046735007
0.05212396 0.022873973 -0.046721965
0.054274999 0.022889994 -0.046699218
0.057120308 0.022845395 -0.04671951
0.061464727 0.02279038 -0.046704363
0.063782111 0.022722239 -0.04678195
0.064753056 0.022736939 -0.046726052
0.067032918 0.022722963 -0.04673719
0.069308788 0.022720227 -0.04674118
0.069656387 0.022703346 -0.046749275
0.073319241 0.022632254 -0.046759292
0.079116046 0.022635106 -0.046698216
0.079991475 0.022639526 -0.046688803
0.080556452 0.022617321 -0.046699803
0.08473973 0.022581711 -0.046687439
0.087466344 0.022579338 -0.046687242
0.087771013 0.022609442 -0.046671841
0.091016218 0.021929564 -0.04599712
0.09503457 0.022545327 -0.046637502
0.095746756 0.022537088 -0.04663093
0.098207429 0.022466373 -0.046688471
0.098929718 0.022468563 -0.046680693
0.10761043 0.022328105 -0.046720359
0.11127594 0.022245813 -0.046749447
0.11226312 0.022284701 -0.046726733
0.11305025 0.02229215 -0.046686634
0.12110569 0.022190716 -0.046715278
0.129198 0.022200331 -0.046612095
0.1299054 0.02216297 -0.046664506
0.13101515 0.022099648 -0.046716869
0.13748172 0.022102272 -0.046644412
0.1403856 0.022062883 -0.046659302
0.14504719 0.022005316 -0.046664651
0.14719671 0.021972386 -0.046684433
0.15311846 0.021881882 -0.046709936
0.15692312 0.021896603 -0.046628747
0.16166297 0.021891745 -0.046600688
0.17386574 0.021766357 -0.046609141
0.18089154 0.021640198 -0.046665139
0.19616096 0.02158998 -0.046569861
0.19919902 0.021514812 -0.046603043
0.21324891 0.02135315 -0.046624921
0.21992242 0.021300441 -0.046614569
0.22618313 0.021259803 -0.046578735
0.275507 0.020849464 -0.046500731
0.32853895 0.020316159 -0.046476148
0.31601262 0.020602446 -0.054198474
0.32710129 0.02053234 -0.054149888
0.34976915 0.020313803 -0.054141201
0.30798054 0.021297881 -0.054905005
0.32786614 0.021145333 -0.054847758
0.34514362 0.021005444 -0.054833282
0.35047752 0.020930821 -0.054837767
0.3072128 0.021101881 -0.061854485
0.35219342 0.020686643 -0.061793115
0.3088617 0.021741807 -0.069416761
0.31110024 0.021049198 -0.068764091
0.31254229 0.020986926 -0.068799593
0.32378113 0.020899776 -0.068771303
0.32845002 0.021186944 -0.069090024
0.34320569 0.020762471 -0.068709023
0.34390131 0.02141846 -0.06937699
0.35003376 0.021331005 -0.069395989
0.35071957 0.021318005 -0.069405064
0.349989 0.020909924 -0.075552553
0.35100704 0.0209054 -0.075553045
0.33723593 0.021657225 -0.076262504
0.33763015 0.021654384 -0.076267295
0.31982666 0.021533566 -0.082441717
0.30751792 0.022379199 -0.083071254
0.30936185 0.022302313 -0.083110608
0.32997075 0.022166803 -0.083046421
0.30627871 0.022314213 -0.089156926
0.30729204 0.022322828 -0.08915364
0.32143643 0.022224216 -0.089101501
0.34304214 0.021960918 -0.089130186
0.34444714 0.021957174 -0.089122638
0.34553593 0.021959808 -0.089113839
0.3495031 0.021918274 -0.089136474
0.34770429 0.018253446 0.0099993749
0.074963585 0.021199109 0.0088835098
0.29871428 0.019238558 0.0091778841
0.34844807 0.018778464 0.0092488509
0.10052127 0.021072796 -0.0013930805
0.30961463 0.01925992 -0.0010870949
0.33166054 0.019064536 -0.0010528694
0.33518919 0.018999273 -0.0010738918
0.32841998 0.019629117 -0.0018071264
0.35503727 0.019356897 -0.0018035981
0.0042405128 0.022434289 -0.011715048
0.0049893782 0.022413569 -0.011716538
0.010790411 0.022370717 -0.011699772
0.01407595 0.022313254 -0.011701227
0.016238119 0.022351444 -0.011647712
0.016599044 0.022354547 -0.01162551
0.022677835 0.02226712 -0.01168579
0.025557734 0.022263141 -0.011649566
0.028067324 0.022220159 -0.011658323
0.030260228 0.022233028 -0.011625276
0.035305042 0.022135051 -0.011664934
0.038438234 0.022187175 -0.011622726
0.042092223 0.022099955 -0.011624262
0.055083323 0.02197786 -0.011639643
0.061185837 0.021949207 -0.011607688
0.068835668 0.021942299 -0.011561193
0.080335081 0.021782313 -0.011582765
0.084691294 0.021705089 -0.011597497
0.094920576 0.021594929 -0.011613979
0.095485315 0.021563245 -0.011625963
0.10306624 0.021514028 -0.011599693
0.13794425 0.021161515 -0.011599777
0.14305735 0.021163031 -0.01154396
0.15711467 0.021030864 -0.011536714
0.15784852 0.021035297 -0.011508568
0.16618535 0.020996692 -0.011490099
0.21476331 0.020493109 -0.011504567
0.2213527 0.020451814 -0.011435007
0.22167966 0.020447144 -0.011444166
0.28981748 0.019849041 -0.011362368
0.33553356 0.019466661 -0.011290941
0.0041289814 0.02299881 -0.012446353
0.010451023 0.022899633 -0.012464868
0.010799926 0.022907125 -0.012455495
0.014065392 0.022874378 -0.012433399
0.019448958 0.022822479 -0.012431242
0.022712298 0.022808513 -0.012435285
0.025518917 0.022829387 -0.012389371
0.028109215 0.02278886 -0.012404622
0.030920237 0.022770263 -0.012405342
0.035331968 0.022717686 -0.012374741
0.038504634 0.022722285 -0.012357075
0.045448322 0.022611286 -0.012367988
0.054912601 0.022533704 -0.012385143
0.06602674 0.022450529 -0.012317991
0.068814233 0.022502631 -0.012299279
0.076796636 0.022389198 -0.012302438
0.080343619 0.022351198 -0.0123007
0.11386765 0.021981893 -0.01231522
0.11455554 0.022011708 -0.012283999
0.11888946 0.021977346 -0.012275035
0.1441157 0.021675512 -0.0123171
0.16619886 0.021551704 -0.012211962
0.17086259 0.021469273 -0.01223698
0.23428428 0.020925179 -0.012159579
0.24506605 0.020827735 -0.012157542
0.25620046 0.020725561 -0.012144309
0.26667431 0.020628436 -0.012120275
0.27601978 0.020561434 -0.012098616
0.28292298 0.020447692 -0.012123851
0.29408714 0.02034854 -0.012136631
0.32648882 0.020070981 -0.012066527
0.3473559 0.019907787 -0.012028387
0.00054943562 0.022726238 -0.021070188
0.075233817 0.022080911 -0.020958694
0.0005643554 0.023301097 -0.021820331
0.0060653314 0.02315568 -0.021879429
0.013624508 0.022567989 -0.021075159
0.020439532 0.022477644 -0.021102494
0.021138851 0.023061223 -0.021832565
0.022872448 0.022432176 -0.021164507
0.023597933 0.02299834 -0.021897737
0.026140559 0.023032544 -0.021807753
0.029006068 0.022399629 -0.021100299
0.029748332 0.0224203 -0.021073634
0.032324214 0.02293722 -0.021844575
0.03445299 0.022365713 -0.021078935
0.039106008 0.022368299 -0.021057416
0.042365205 0.022325721 -0.021053953
0.045248356 0.022224434 -0.021109337
0.051713552 0.022221986 -0.021053808
0.054562092 0.022742039 -0.021829382
0.057120353 0.022148991 -0.021075018
0.063284874 0.022072501 -0.021085011
0.068325177 0.02229809 -0.021457927
0.068656623 0.022038758 -0.021085817
0.072303712 0.022004543 -0.021080537
0.083517656 0.022526324 -0.021748085
0.087476775 0.021846542 -0.021045003
0.091412321 0.021801027 -0.021068297
0.095944978 0.021775292 -0.021054009
0.10414074 0.021906227 -0.021271024
0.11124536 0.022254642 -0.021722324
0.11154699 0.022218095 -0.021770077
0.12167111 0.021841686 -0.021369919
0.12489919 0.021536803 -0.020982189
0.12777777 0.022073019 -0.021740176
0.13207258 0.021486618 -0.02096545
0.13786846 0.021970155 -0.021729428
0.14111178 0.022005331 -0.02166489
0.14501065 0.021903425 -0.021728639
0.15337089 0.021877494 -0.021664634
0.1537202 0.021862563 -0.021665663
0.15808403 0.021554383 -0.021291493
0.16135998 0.021768279 -0.0216958
0.16489862 0.021785388 -0.021641232
0.16914974 0.021721616 -0.021682253
0.17295869 0.021637145 -0.021710105
0.1751318 0.021661956 -0.021660361
0.18124852 0.021625534 -0.021629285
0.18364315 0.021318486 -0.02128865
0.18731835 0.021540655 -0.021659505
0.21469693 0.020755142 -0.020873288
0.23345143 0.020558329 -0.020850876
0.24171448 0.021122806 -0.021541229
0.25504848 0.020919181 -0.021578088
0.25720862 0.020919887 -0.021548923
0.2824502 0.020161554 -0.020765468
0.29292122 0.020608399 -0.021509957
0.30192214 0.020499621 -0.021523325
0.343366 0.020169832 -0.021448154
0.35158294 0.020077027 -0.021449672
0.014440268 0.023089968 -0.030470133
0.015086398 0.023063004 -0.030490249
0.020756103 0.022983596 -0.030488357
0.026746921 0.022987185 -0.030415047
0.048637129 0.022800056 -0.03038431
0.052288461 0.022745464 -0.030375805
0.060892746 0.022644453 -0.030411983
0.064874083 0.022617374 -0.030413618
0.070993677 0.022602182 -0.030353779
0.098841995 0.02229191 -0.030375682
0.12380026 0.022079531 -0.030334936
0.13157538 0.021983396 -0.030343074
0.13366994 0.021963319 -0.030355975
0.13987026 0.021918356 -0.030321494
0.14811417 0.02181988 -0.03034265
0.15396301 0.021768386 -0.030309139
0.1650863 0.021702321 -0.030294131
0.17228633 0.021566473 -0.030348409
0.17632827 0.021630751 -0.030240631
0.1827687 0.02157563 -0.030259158
0.18751751 0.021539245 -0.030229749
0.19002295 0.021468494 -0.030274542
0.20476983 0.021308256 -0.030298924
0.22420791 0.021168439 -0.030238651
0.22460711 0.021158762 -0.030247934
0.24874657 0.020979803 -0.030179674
0.25844705 0.020827912 -0.030213602
0.26352215 0.020803407 -0.030176008
0.29990798 0.020506063 -0.030122021
0.33949092 0.020112947 -0.030110717
0.0032679513 0.023754641 -0.031219415
0.0081766732 0.023675114 -0.031233272
0.014115795 0.023660429 -0.031185472
0.015121747 0.023657409 -0.031201687
0.029592112 0.023483483 -0.031211635
0.036019135 0.023493957 -0.031138329
0.038607921 0.023453848 -0.031154713
0.04113704 0.023454716 -0.031114483
0.043315504 0.023415191 -0.031115428
0.045829002 0.023382738 -0.031125462
0.058390919 0.023254531 -0.031134512
0.064701237 0.023173848 -0.031158287
0.071006015 0.023173437 -0.031088071
0.076119892 0.023131752 -0.031066792
0.079314604 0.023164313 -0.031048177
0.082241289 0.023109192 -0.031069148
0.098802336 0.022867605 -0.031113699
0.10423493 0.022814892 -0.031093514
0.1049547 0.022813024 -0.031092476
0.11284512 0.022733223 -0.031112339
0.12039036 0.022741843 -0.031005347
0.120739 0.02272654 -0.03104494
0.12294994 0.022628589 -0.03110566
0.12359464 0.022648843 -0.031091565
0.14444543 0.022436287 -0.031104077
0.15317923 0.022399724 -0.031029241
0.15352125 0.022401676 -0.03102077
0.1650551 0.022306453 -0.031004095
0.16833524 0.022272289 -0.031009549
0.17921242 0.022113366 -0.031066082
0.19646612 0.022025708 -0.030986067
0.19717136 0.021991372 -0.030991154
0.20423691 0.021891447 -0.031017752
0.210556 0.02189596 -0.030966295
0.21704043 0.021812486 -0.030959351
0.22373912 0.021772528 -0.030926857
0.2365042 0.021643911 -0.030943273
0.24478258 0.021590326 -0.030909792
0.24870899 0.021582263 -0.030892149
0.26633158 0.021383164 -0.030901352
0.27072838 0.021329537 -0.030902479
0.32944989 0.020786628 -0.03084719
0.33368903 0.020780139 -0.03081491
0.0041387528 0.023415647 -0.039006121
0.010209274 0.023392837 -0.038988061
0.01056746 0.023389634 -0.038968336
0.023227517 0.023248894 -0.038967591
0.039025974 0.02306499 -0.038997583
0.044471763 0.023030806 -0.038976874
0.058474492 0.022921057 -0.038958993
0.06173227 0.022886984 -0.038951539
0.081987366 0.022704853 -0.038945246
0.088775165 0.022731956 -0.038882107
0.10541341 0.022471109 -0.038928535
0.12089038 0.022348484 -0.038889728
0.1305822 0.022269098 -0.038862422
0.13491838 0.022202872 -0.038879771
0.1420909 0.022152802 -0.038863152
0.15504929 0.02201828 -0.038879316
0.17454639 0.021878475 -0.038807292
0.17879759 0.021815589 -0.038848013
0.18477756 0.021756373 -0.038827617
0.21206339 0.021541735 -0.03876726
0.21895404 0.021455696 -0.038770545
0.24347168 0.021225054 -0.038747981
0.28698552 0.020851865 -0.038703084
0.33098477 0.020471614 -0.038635872
0.33608097 0.020413822 -0.038641945
0.004110381 0.024039457 -0.039694507
0.010244537 0.023971485 -0.039723728
0.015681535 0.023891591 -0.039696891
0.023059111 0.023836341 -0.039718423
0.027873207 0.023794577 -0.039701603
0.030389845 0.023745259 -0.039747305
0.032577131 0.023778968 -0.039669115
0.035503596 0.023712547 -0.039690655
0.039066363 0.023673175 -0.03970642
0.048957702 0.023627097 -0.039665654
0.055096179 0.023533776 -0.039689269
0.058500648 0.023518434 -0.039659712
0.061728273 0.023500238 -0.039665584
0.064207792 0.022835491 -0.038996425
0.072915882 0.023383802 -0.039651934
0.077961355 0.023278667 -0.039689653
0.081947736 0.023319384 -0.039644405
0.088112734 0.023325272 -0.039584454
0.088759981 0.023322115 -0.039589308
0.1047148 0.023073182 -0.039614979
0.1121781 0.022972912 -0.039667848
0.1133181 0.022983463 -0.039649516
0.1208764 0.022965649 -0.039583251
0.13135189 0.022862667 -0.039578676
0.13491471 0.02282027 -0.039593756
0.13742776 0.02276518 -0.039631151
0.13778515 0.022767806 -0.039620664
0.14712718 0.022726804 -0.039564528
0.14751378 0.022706967 -0.039577466
0.15111852 0.022697918 -0.039546035
0.15502031 0.022598144 -0.039607964
0.168091 0.0225392 -0.039544068
0.17776987 0.02237267 -0.039612595
0.18689294 0.022368938 -0.039513316
0.19365653 0.022294307 -0.039536122
0.19667906 0.022233792 -0.039535556
0.21204528 0.022127101 -0.039492764
0.22468817 0.022006461 -0.039502736
0.24352856 0.021814106 -0.039466128
0.24736844 0.021752879 -0.039513733
0.25641668 0.02165328 -0.039511193
0.2697024 0.021592427 -0.039447404
0.27293503 0.021547154 -0.039460246
0.29968354 0.021303622 -0.039416093
0.31192982 0.021194583 -0.039403725
0.34069815 0.020951919 -0.039355636
0.35049775 0.020897791 -0.03932314
0.016265605 0.023802534 -0.047482532
0.029241644 0.023685619 -0.047476146
0.02978348 0.023639077 -0.047512893
0.035854064 0.023634372 -0.047463987
0.038162757 0.023552945 -0.047547154
0.044299576 0.023561485 -0.047458921
0.047064353 0.023512116 -0.047471438
0.052060314 0.023492349 -0.047433726
0.060922422 0.023400802 -0.047444243
0.063612409 0.023363251 -0.047464803
0.066821411 0.023342457 -0.047445964
0.069308661 0.023321088 -0.047476053
0.072796315 0.023298662 -0.047412694
0.078434147 0.023213519 -0.047451191
0.079098061 0.023235766 -0.047423813
0.083106086 0.023154566 -0.047464158
0.084581479 0.023192169 -0.047401361
0.087420836 0.0231652 -0.047433969
0.090336293 0.023197383 -0.047350764
0.091094658 0.023182921 -0.047376655
0.09502764 0.023156872 -0.047338113
0.098881908 0.023084605 -0.047398306
0.1029542 0.022992298 -0.04741149
0.10367349 0.022974761 -0.047426544
0.10708503 0.02291864 -0.04744925
0.10763568 0.02294185 -0.04741491
0.11105208 0.022888927 -0.047441844
0.11210629 0.022887481 -0.04743696
0.1192962 0.022856914 -0.047407806
0.12003174 0.022849686 -0.047397688
0.12074059 0.022833079 -0.047406793
0.1259307 0.022783436 -0.047418062
0.12734847 0.022761218 -0.047409095
0.12807006 0.022781562 -0.047391783
0.1290307 0.022807937 -0.047342334
0.1322626 0.022704246 -0.047425598
0.13276282 0.022723058 -0.047400821
0.14304921 0.022632428 -0.047384039
0.14830002 0.022567971 -0.04738567
0.14864022 0.022567611 -0.047371477
0.15687537 0.022556555 -0.047326304
0.16196048 0.022500064 -0.047323357
0.16377494 0.022407029 -0.047391567
0.16931015 0.022394888 -0.047356244
0.17006445 0.0223697 -0.047353435
0.17058223 0.022370247 -0.047351707
0.17370488 0.022385154 -0.047315948
0.17639157 0.022319252 -0.04737132
0.17715555 0.022328597 -0.047337327
0.17995235 0.02235092 -0.047282215
0.18414074 0.022261612 -0.047323756
0.19018517 0.022232298 -0.04728397
0.19200099 0.02223452 -0.047283545
0.1941275 0.022157211 -0.047357652
0.19919392 0.022129331 -0.047303081
0.20311958 0.022104172 -0.04728711
0.20491326 0.022102136 -0.04728942
0.21144703 0.022040527 -0.047257446
0.21176285 0.022034783 -0.047263131
0.21270868 0.021992052 -0.047281083
0.21940695 0.021982687 -0.047254045
0.23087347 0.021866739 -0.04724934
0.240224 0.021767408 -0.047261648
0.24058437 0.02176326 -0.047257535
0.24525577 0.021722099 -0.047256619
0.25973052 0.021548966 -0.047272522
0.26328278 0.021544121 -0.047232453
0.29427642 0.021303151 -0.047176789
0.33861762 0.020861542 -0.047156569
0.047406957 0.024150241 -0.048164163
0.052040979 0.0241013 -0.048169129
0.084136985 0.023806959 -0.048136778
0.084558107 0.023810236 -0.048132092
0.087418534 0.023753786 -0.048162796
0.090345927 0.023825116 -0.048042532
0.091050245 0.023821214 -0.048049498
0.1065269 0.023553358 -0.048150137
0.11913918 0.02345667 -0.048125453
0.12703167 0.023371661 -0.048121832
0.13708505 0.023281921 -0.048124421
0.13768737 0.023298712 -0.04809133
0.14077225 0.0233017 -0.048050489
0.1454332 0.023231324 -0.048074167
0.14791891 0.023190588 -0.048090018
0.15338239 0.023096504 -0.048113246
0.15671231 0.023151994 -0.048050545
0.16014415 0.023102859 -0.048064381
0.16125296 0.023136016 -0.048007131
0.16158825 0.023128849 -0.048009366
0.16913363 0.023021193 -0.04805994
0.17319639 0.023012614 -0.048003219
0.17708734 0.022931628 -0.048068315
0.17785546 0.022960026 -0.048025291
0.18068901 0.022960061 -0.047999103
0.18528888 0.022891905 -0.048004556
0.1882267 0.022802461 -0.048068669
0.19021502 0.022848159 -0.047993239
0.19265918 0.022848533 -0.047995634
0.19921613 0.022766495 -0.047994033
0.20247808 0.022715714 -0.04799578
0.20399739 0.022716619 -0.047991406
0.204574 0.022711717 -0.047994822
0.21123153 0.022664713 -0.047967892
0.21732283 0.022624103 -0.047951624
0.21916956 0.022608655 -0.047943443
0.22007659 0.022583675 -0.047981795
0.2244817 0.022539197 -0.047943275
0.22481075 0.022529121 -0.047947694
0.2255508 0.022536267 -0.047944605
0.23031226 0.022497907 -0.047958095
0.2319756 0.022474762 -0.047948755
0.23269552 0.022457993 -0.047955971
0.23561549 0.022387268 -0.047993045
0.24920698 0.022330474 -0.047922678
0.24958012 0.022338485 -0.047925021
0.25210044 0.022237472 -0.047985859
0.25316775 0.022256574 -0.047964629
0.25695455 0.022286369 -0.047897201
0.26287934 0.022153944 -0.047945976
0.26763684 0.022129199 -0.047926478
0.27080747 0.022142649 -0.0479053
0.27264264 0.022092612 -0.047912657
0.27549815 0.022060098 -0.047932222
0.27909097 0.022014895 -0.047938537
0.27980781 0.022009555 -0.047932733
0.28490341 0.022001233 -0.047895472
0.29432267 0.021914177 -0.047881357
0.30186409 0.021813493 -0.047887888
0.30256334 0.021809019 -0.047892623
0.30597985 0.021798845 -0.047874823
0.32026887 0.021641392 -0.047872137
0.33395571 0.021564402 -0.047829404
0.34362513 0.021460796 -0.047826298
0.34977531 0.021374164 -0.047845755
0.31158051 0.021921184 -0.055568699
0.31506756 0.021903763 -0.055554751
0.31596893 0.021849934 -0.055598445
0.32856509 0.021757748 -0.055550862
0.3408117 0.021684995 -0.055517778
0.35015899 0.021564312 -0.055530034
0.30724514 0.021761041 -0.062524714
0.33389232 0.021509845 -0.062501661
0.34219873 0.021441476 -0.062480632
0.34973946 0.021376111 -0.062480487
0.31404197 0.022315215 -0.063222118
0.32233879 0.022220522 -0.063238747
0.32779858 0.022193277 -0.063197397
0.32903612 0.022157829 -0.063205592
0.33005783 0.022159275 -0.063206501
0.33884874 0.02206639 -0.063216895
0.30888128 0.022398256 -0.070089772
0.31286335 0.022299478 -0.070144542
0.32336834 0.022256656 -0.07008858
0.34063768 0.022033 -0.070129335
0.34997314 0.02199671 -0.070067517
0.35144156 0.021969419 -0.070086055
0.35432461 0.021995807 -0.070043929
0.32339081 0.022919403 -0.070751548
0.34138498 0.02268672 -0.070798889
0.34530014 0.022728344 -0.070726477
0.30768755 0.022625243 -0.076944113
0.3100301 0.022937652 -0.077284202
0.31523973 0.023251425 -0.077599049
0.3172248 0.022483634 -0.076984875
0.31775808 0.02247517 -0.076976009
0.32000652 0.022476623 -0.07695359
0.32170129 0.0231511 -0.077608071
0.32324237 0.022462429 -0.076932721
0.32479641 0.022800269 -0.077256314
0.32970676 0.022387039 -0.076967672
0.33545104 0.022701193 -0.077257976
0.3383055 0.022327144 -0.076922201
0.33865526 0.022326976 -0.076921202
