# .PCD v0.7 - Point Cloud Data file format
VERSION 0.7
FIELDS x y z
SIZE 4 4 4
TYPE F F F
COUNT 1 1 1
WIDTH 1288
HEIGHT 1
VIEWPOINT 0 0 0 1 0 0 0
POINTS 1288
DATA ascii
-0.20768814 -0.66735488 0.053288005
-0.19725895 -0.6673491 0.05328837
-0.19649133 -0.66735774 0.053280476
-0.19541745 -0.66734946 0.0532621
-0.19180664 -0.66735256 0.053297721
-0.21952233 -0.65888476 0.053275563
-0.20874432 -0.65816146 0.053873699
-0.20430471 -0.65884912 0.053268895
-0.18311287 -0.65814561 0.053864017
-0.1824753 -0.65887916 0.053295072
-0.171877 -0.65890563 0.053305902
-0.23354635 -0.65121585 0.05300479
-0.216324 -0.65045774 0.053558555
-0.2326622 -0.63603026 0.053174622
-0.25532508 -0.63597697 0.053123329
-0.24868119 -0.62922871 0.053021725
-0.28572157 -0.60348457 0.053394347
-0.26873985 -0.60377157 0.053008355
-0.26772207 -0.60375154 0.053011201
-0.29647502 -0.59788507 0.053171039
-0.31967559 -0.58191204 0.053393755
-0.27415597 -0.56301266 0.053099915
0.21390283 -0.23887911 0.053469252
-0.030366046 -0.07288263 0.053644627
-0.013710947 -0.072833315 0.053676549
-0.054583602 -0.05479417 0.053830907
-0.053492006 -0.054760948 0.053826138
-0.057557628 -0.053229529 0.053080939
-0.055074081 -0.053568978 0.053278759
-0.054347847 -0.053204045 0.053088024
-0.06759619 -0.034210537 0.053585991
-0.066901825 -0.034160703 0.053581636
-0.066392325 -0.033375621 0.053225167
-0.063622668 -0.033477459 0.053245969
-0.061733603 -0.033400871 0.053235374
-0.12958336 -0.76872212 0.054084677
-0.12783232 -0.76866049 0.054025333
-0.13338777 -0.7671029 0.054894693
-0.12050213 -0.76790601 0.054469265
-0.11687384 -0.7679711 0.054568946
-0.14411253 -0.7542302 0.05407903
-0.14758851 -0.75341868 0.054482762
-0.14158611 -0.75341523 0.054521989
-0.10376636 -0.75346905 0.054581165
-0.10920724 -0.75263101 0.054983485
-0.14150894 -0.74057597 0.05409079
-0.13543019 -0.74059045 0.054122023
-0.11180038 -0.74048674 0.054014638
-0.093790226 -0.74060237 0.05417978
-0.084045902 -0.74058557 0.054132026
-0.15415752 -0.72702575 0.054663256
-0.13794121 -0.72781581 0.054174453
-0.13515875 -0.72700286 0.054638788
-0.10359298 -0.72770476 0.054038838
-0.075033464 -0.72703367 0.054631062
-0.16474271 -0.71590936 0.054187089
-0.16041364 -0.71586269 0.054123212
-0.15293089 -0.71591634 0.05421615
-0.15082881 -0.71587032 0.054161966
-0.14861587 -0.71588087 0.054183904
-0.12346949 -0.71509558 0.054658536
-0.11956607 -0.71588045 0.054190639
-0.11663425 -0.71509165 0.054669153
-0.096201524 -0.7157945 0.054059926
-0.081733674 -0.71594304 0.054261621
-0.062664255 -0.71515244 0.054684941
-0.18316507 -0.70478445 0.054071315
-0.17703712 -0.70483303 0.054127224
-0.16442618 -0.70405567 0.054647114
-0.15534468 -0.70478529 0.05405622
-0.15034732 -0.70485276 0.054153293
-0.13273288 -0.70481527 0.054105617
-0.10793401 -0.70403039 0.054587811
-0.07450176 -0.70487624 0.054209337
-0.18249239 -0.70399332 0.054569367
-0.085127525 -0.68365031 0.054606207
-0.21065591 -0.6751489 0.054131325
-0.20853001 -0.67515314 0.054157954
-0.20781913 -0.67512494 0.054115072
-0.16405506 -0.67511177 0.054071605
-0.21526624 -0.66510141 0.054942492
-0.19532889 -0.66586524 0.054380804
-0.18346173 -0.65740854 0.054415125
-0.23321378 -0.64977902 0.054208811
-0.22610627 -0.64973313 0.054155428
-0.23192522 -0.64213604 0.054148346
-0.23117198 -0.64144194 0.054773688
-0.24636292 -0.62106222 0.054320201
-0.20904674 -0.62030274 0.054889638
-0.23714057 -0.5966543 0.054647665
-0.31591752 -0.58059484 0.05481182
-0.32527158 -0.57619542 0.054222059
-0.2621021 -0.57613701 0.054150816
0.21092466 -0.24017064 0.054715965
0.21379709 -0.24020514 0.054695453
-0.027096251 -0.075247131 0.054853164
-0.026363384 -0.075193651 0.054841109
-0.021233173 -0.075159661 0.054854997
-0.020518741 -0.075148404 0.054845471
0.021287145 -0.075133577 0.054823175
0.028241673 -0.075195603 0.054832086
-0.032593109 -0.074431166 0.054410044
-0.025865668 -0.074406445 0.054451667
0.015984407 -0.074345306 0.054444116
0.017139599 -0.074412003 0.054461449
-0.031563312 -0.073677868 0.054030277
-0.029817045 -0.073559798 0.054024566
-0.014502818 -0.073621206 0.054065932
-0.013819637 -0.073606052 0.054065689
0.021867305 -0.073530264 0.054041538
0.053571153 -0.057121936 0.054951631
-0.053030249 -0.056333829 0.054565649
-0.055060487 -0.05559263 0.054204777
-0.05433346 -0.055564873 0.05420123
-0.053445868 -0.055557232 0.054196991
-0.052884929 -0.05556161 0.054194983
-0.051379908 -0.055613536 0.054206487
-0.067136765 -0.035797335 0.054298773
-0.066794053 -0.035801291 0.05430118
-0.065630302 -0.035882849 0.054319616
-0.13558689 -0.76627433 0.055319626
-0.13053943 -0.76627052 0.055316489
-0.11026786 -0.76637924 0.055446904
-0.13726145 -0.76549852 0.055767402
-0.13219309 -0.76547563 0.055729598
-0.095486872 -0.75265092 0.055082705
-0.13249268 -0.72621882 0.055072729
-0.080394723 -0.72546703 0.05569933
-0.12480802 -0.71431392 0.055129945
-0.12090477 -0.71433491 0.055166207
-0.17875722 -0.70325905 0.055098008
-0.16115817 -0.70326614 0.055110388
-0.15927446 -0.70329642 0.055140764
-0.15896201 -0.70329195 0.055141643
-0.10320149 -0.7032634 0.055101525
-0.067646347 -0.70332426 0.055268649
-0.093708545 -0.68289965 0.05512337
-0.26446879 -0.57050604 0.055164732
0.024843715 -0.077494897 0.055986434
0.025280293 -0.07753104 0.055993814
-0.029202703 -0.076732427 0.055610158
-0.023006054 -0.076740243 0.055634327
-0.011665592 -0.076737851 0.055619977
-0.0054234704 -0.076791652 0.05561094
0.01602233 -0.076774508 0.055630658
0.018117441 -0.076778248 0.055633765
0.019216182 -0.07669501 0.055620864
0.02610964 -0.076747537 0.055607162
0.029317636 -0.076747507 0.055618245
-0.027978905 -0.075995982 0.05523232
-0.021366915 -0.075936906 0.055239193
-0.016530816 -0.075959384 0.055232197
0.015817927 -0.075966969 0.055237316
0.018936181 -0.075981848 0.055242255
0.019323969 -0.075936958 0.055236794
0.026913811 -0.075968698 0.05521892
0.027274041 -0.075974077 0.055219222
0.028506674 -0.075972363 0.055219002
0.029400069 -0.075960644 0.055224381
0.052993882 -0.058698311 0.055699073
-0.064016894 -0.039013725 0.055737089
-0.063624553 -0.039015599 0.055735618
-0.063895144 -0.0382175 0.055383008
-0.1543823 -0.72382551 0.056469698
-0.10768739 -0.72380018 0.056447513
-0.12194172 -0.71275258 0.056113519
-0.10169169 -0.70093286 0.056597441
-0.20762999 -0.65519917 0.056139324
-0.22363006 -0.64674288 0.056431469
-0.020466736 -0.079091802 0.056789432
-0.013776741 -0.07910797 0.056789473
-0.0074201818 -0.079101071 0.056772325
0.0026422853 -0.079068601 0.056779075
0.0098480238 -0.079115301 0.056797996
0.010378893 -0.079094179 0.056796227
0.011974301 -0.079112358 0.056800202
0.012736918 -0.079089075 0.056785773
-0.019455928 -0.078317903 0.056402639
-0.018871183 -0.078319207 0.056402665
0.015760744 -0.078334197 0.056407895
0.016288206 -0.078332312 0.056408167
-0.024186995 -0.077536315 0.056022823
-0.023440091 -0.077528492 0.056023717
-0.018067306 -0.077521436 0.056009825
0.0039322944 -0.077519633 0.05600673
0.0045343703 -0.07759209 0.056020882
0.012562964 -0.077535227 0.056022253
0.013282731 -0.077529021 0.056013621
0.014428054 -0.077505134 0.056006979
0.015910225 -0.077557087 0.056019943
0.017313942 -0.077562131 0.05602219
-0.051567491 -0.061117608 0.056814793
-0.050821222 -0.061080497 0.056811687
0.049286701 -0.061169297 0.056834564
0.050843507 -0.061104044 0.056823265
-0.049993608 -0.060294047 0.05644032
0.052395362 -0.060284466 0.056447655
-0.049175072 -0.059513487 0.056069039
0.04893693 -0.059551004 0.056078877
0.05078876 -0.059593868 0.056092039
0.05109575 -0.059581779 0.056092035
-0.064402848 -0.041420631 0.056808997
-0.06331826 -0.041412205 0.056809161
-0.064247467 -0.040617995 0.056451179
-0.072567396 -0.019943632 0.056865085
-0.071582407 -0.019524187 0.056696326
0.21549787 -0.23605578 0.057441231
-0.0053214361 -0.081437327 0.057933595
-0.0047362344 -0.081405975 0.057932813
0.00010614425 -0.081433944 0.05794448
-0.015295512 -0.080681995 0.057565659
-0.010209229 -0.080707401 0.057577632
-0.0095041208 -0.080658637 0.057558298
-0.0087626232 -0.080636859 0.057548728
-0.0037443496 -0.080608919 0.057548143
-0.00033720376 -0.080699801 0.057559393
0.00058973266 -0.080654733 0.057555705
0.0013285466 -0.080642805 0.05755556
-0.012886377 -0.079916179 0.057182267
-0.002847763 -0.079844587 0.057165254
0.0090461699 -0.079924971 0.057189852
0.010576553 -0.079890177 0.05718831
-0.047768719 -0.063475356 0.057941493
0.043987066 -0.063506939 0.057948925
-0.047834933 -0.062700503 0.057569347
-0.046401594 -0.062714398 0.05757181
-0.039594274 -0.062758669 0.057558518
-0.044867642 -0.061931901 0.057199478
0.045328189 -0.06191266 0.057201955
0.047836673 -0.061930407 0.057194471
-0.063280724 -0.043306302 0.0576468
-0.062570572 -0.043839935 0.057880998
-0.061851531 -0.043826267 0.057878185
-0.064309701 -0.042211875 0.057166897
-0.063378334 -0.042240556 0.057171829
-0.072174683 -0.022373863 0.057893813
-0.07144627 -0.022392679 0.05788815
-0.070576251 -0.022381941 0.057880804
-0.072440572 -0.021541702 0.05754897
-0.15453401 -0.70962161 0.058055937
-0.006620558 -0.083052777 0.058719959
-0.0018224422 -0.082291655 0.058337677
-0.042813156 -0.065103203 0.05868132
-0.041735731 -0.065102436 0.05867891
-0.061397631 -0.045431267 0.058596801
-0.061825503 -0.044627655 0.058238015
-0.071057707 -0.024007494 0.05856343
-0.071906157 -0.023200192 0.058229208
-0.070499398 -0.023970716 0.058561474
-0.069934726 -0.023945771 0.05855795
0.0058606556 -0.084661312 0.059531048
-0.044462748 -0.066668615 0.059427805
0.041767266 -0.066701159 0.059447322
0.042807326 -0.066677563 0.059446465
0.043882295 -0.066670328 0.059449591
-0.042773057 -0.065902367 0.05905439
-0.040583685 -0.069535941 0.060719661
-0.039429519 -0.06965629 0.060764093
-0.038442381 -0.069487818 0.060690749
-0.037503783 -0.069627717 0.06074794
-0.036467023 -0.069947295 0.060884632
-0.035908945 -0.069972962 0.060895283
0.036531787 -0.069859855 0.060947128
0.042361461 -0.068257645 0.060193919
0.043272089 -0.068270355 0.060198192
-0.058848593 -0.050188869 0.060736649
-0.057768516 -0.050198521 0.06073441
-0.059290122 -0.049439825 0.060378816
-0.058382038 -0.049387313 0.060377408
-0.057677843 -0.049384069 0.06037629
-0.068423174 -0.028819319 0.060618754
-0.067508608 -0.028422875 0.060446799
-0.072273359 -0.0064362511 0.060969543
-0.036168296 -0.071533635 0.061643891
-0.035520718 -0.07150913 0.061645981
-0.034044355 -0.071459249 0.061649859
-0.033351794 -0.071431249 0.061642151
-0.032619148 -0.071459353 0.06164521
0.033863444 -0.071441725 0.061698429
-0.037873536 -0.070696123 0.061246574
-0.03605466 -0.070758432 0.061270904
-0.035361052 -0.070721671 0.06126979
-0.034645855 -0.070714608 0.061275996
-0.03214328 -0.070675828 0.061272196
0.036821187 -0.070657387 0.061321013
-0.06794326 -0.032059167 0.061976656
-0.068360463 -0.031242516 0.061636642
-0.06714014 -0.031257376 0.061634533
-0.067315459 -0.03043431 0.061295014
-0.071009055 -0.0081189526 0.061624251
-0.073476091 -0.0071956292 0.061288875
-0.03538575 -0.073069915 0.062401313
-0.028637318 -0.073818639 0.062803358
-0.02747667 -0.073027134 0.062435344
0.025877718 -0.073772609 0.062790245
0.02944015 -0.073831208 0.06280423
0.031415921 -0.073014326 0.062438101
0.032187007 -0.073026508 0.062441334
0.033237249 -0.07303337 0.062447857
0.034292679 -0.073040076 0.062443577
-0.035243783 -0.072297774 0.062027238
-0.03416254 -0.072223522 0.062017161
-0.070675969 -0.033664405 0.062666968
-0.070164159 -0.011310267 0.062914707
-0.071396455 -0.010535938 0.062600017
-0.074613392 -0.009659633 0.062264707
-0.025697518 -0.076179914 0.063933253
-0.021346554 -0.076207899 0.06394095
-0.020459689 -0.076221474 0.063944295
-0.025557607 -0.075382069 0.063558631
-0.024475142 -0.075396724 0.063566767
0.02456666 -0.075372361 0.063540258
0.032509927 -0.075422063 0.063565619
-0.030195747 -0.074604005 0.063167393
-0.029687246 -0.074608505 0.063172147
-0.052158818 -0.057440486 0.063967541
-0.051288579 -0.057398606 0.063960157
0.053612765 -0.057374902 0.063968778
-0.05115512 -0.05661054 0.063606173
-0.073478401 -0.012165167 0.063247591
-0.072320424 -0.012420237 0.063353531
-0.071469463 -0.012928924 0.063563854
-0.070430115 -0.012937464 0.063563295
-0.027330667 -0.077748843 0.064676583
-0.022619208 -0.077777237 0.064686507
-0.021932039 -0.077810392 0.064692363
-0.015329192 -0.0777632 0.064681225
-0.010005178 -0.077826925 0.064694859
0.02172431 -0.077432446 0.064480543
0.022856139 -0.077005148 0.064291283
0.030133016 -0.077003725 0.064314194
-0.027248068 -0.076941885 0.064294994
-0.020422224 -0.07699614 0.064313099
0.023198593 -0.076987594 0.064289778
-0.051901996 -0.059011858 0.064678304
-0.053317048 -0.058265727 0.064329281
-0.071665183 -0.016181055 0.064864397
-0.075709522 -0.014557362 0.064213298
-0.07278619 -0.01455798 0.064212874
-0.071375653 -0.014566013 0.064212456
-0.013220176 -0.080192924 0.065806106
0.0022751065 -0.080251105 0.065820046
0.0065615731 -0.080181986 0.065808788
0.018800555 -0.080217861 0.065787487
-0.017846204 -0.079386391 0.065435857
-0.016788894 -0.079365499 0.06543237
-0.013072361 -0.079407364 0.065434188
-0.012057058 -0.079393454 0.065432675
-0.0059934589 -0.079426169 0.065418109
0.0070352782 -0.079381801 0.065432712
0.019987559 -0.079405569 0.06541165
-0.023433706 -0.078568794 0.06506294
-0.017024787 -0.078588709 0.06506259
-0.016644536 -0.078580849 0.065061286
-0.015225352 -0.078571804 0.065053649
-0.01123935 -0.078604996 0.065060847
-0.010506194 -0.0786165 0.065066248
-0.00082103006 -0.078631811 0.065049976
0.0082783606 -0.078633592 0.065070316
0.020118628 -0.078616023 0.065036282
0.021553854 -0.078624398 0.065042414
-0.050048642 -0.0614568 0.065755509
-0.0495065 -0.061486796 0.065756284
-0.048813157 -0.061481461 0.065760076
-0.047797583 -0.060645364 0.065402009
-0.0049055638 -0.082567841 0.066923812
0.0013506783 -0.082610369 0.066937268
0.00328433 -0.082542636 0.066918872
-0.0081003429 -0.081809014 0.066543192
-0.0076344162 -0.081017107 0.066168651
-0.0065599424 -0.081005424 0.066164032
-0.0034302974 -0.081035376 0.066185907
-0.0027322043 -0.08103779 0.066182241
0.0034230682 -0.081766479 0.066547215
0.004519044 -0.081738658 0.066546775
-0.013346189 -0.080983743 0.06618049
0.0053578271 -0.080958016 0.066176564
-0.046499651 -0.063832939 0.066834979
-0.045579277 -0.063845769 0.066833884
-0.044636697 -0.063815042 0.066825114
-0.04309969 -0.062996939 0.066461071
-0.066985816 -0.02108163 0.066802591
0.0031372549 -0.083317824 0.067289881
-0.042533614 -0.066244751 0.067891285
-0.041039426 -0.066215672 0.067883171
-0.040311728 -0.066293254 0.067891605
-0.039471205 -0.066287108 0.067873485
-0.04511578 -0.064610526 0.06718237
-0.060654078 -0.045734685 0.067776933
-0.059921306 -0.04578859 0.067784458
-0.068309866 -0.022692082 0.067450702
0.03681346 -0.06860768 0.068987101
-0.04228491 -0.067024425 0.068242326
-0.041535817 -0.067031689 0.068243086
0.038408805 -0.067830786 0.068624325
-0.060282234 -0.048239 0.068805121
-0.060321689 -0.047432169 0.068469509
-0.059505612 -0.047431376 0.068459556
-0.060774714 -0.046561267 0.068121523
-0.071549289 -0.025096523 0.068425849
-0.070675731 -0.025104333 0.068423733
-0.069183454 -0.025931275 0.068747886
-0.06839928 -0.025947362 0.068755068
-0.069673821 -0.024297519 0.068098299
-0.074669547 -0.0011062986 0.068622872
-0.072533458 -0.0019157329 0.068937629
0.036588706 -0.070232816 0.069702923
0.03817632 -0.069442317 0.069340348
-0.057047822 -0.050607059 0.069834992
-0.056684695 -0.050623462 0.069841228
-0.055770133 -0.049814198 0.069505125
-0.070547372 -0.027587334 0.069400661
-0.068939365 -0.027563985 0.069412641
-0.069274515 -0.026744314 0.069075428
-0.074037991 -0.0035754377 0.06955304
-0.032474838 -0.072698519 0.070748612
-0.03161893 -0.072659425 0.0707478
-0.030567007 -0.072580174 0.07074444
0.03734066 -0.07263644 0.070773043
-0.030080965 -0.07176958 0.070386387
0.036832463 -0.071034633 0.070051163
0.037496205 -0.0718593 0.070418917
-0.055439252 -0.053023037 0.070858777
-0.055834085 -0.052183412 0.070526004
-0.05418212 -0.052984167 0.070853241
-0.053458191 -0.052994475 0.070849426
-0.057880491 -0.051419694 0.070173137
-0.056219518 -0.0513914 0.070185453
-0.055030763 -0.051401649 0.070179977
-0.053973563 -0.051395997 0.07017348
-0.075710647 -0.0052371421 0.070171766
-0.028503584 -0.075084448 0.071861498
-0.022827972 -0.075006522 0.071864299
0.020769218 -0.075060673 0.071834214
-0.027285397 -0.074221581 0.071488239
-0.026767418 -0.074164979 0.071475305
-0.022483952 -0.074996665 0.071858801
-0.033699926 -0.073462471 0.071094066
-0.053424373 -0.055427358 0.071876988
0.056883316 -0.0554328 0.071880333
0.057213433 -0.055426266 0.071876124
-0.053727016 -0.054582205 0.071527913
-0.052936625 -0.054619189 0.071534775
-0.057135008 -0.053782862 0.071206972
-0.055027295 -0.053800169 0.071195863
-0.054337859 -0.053784885 0.071192518
-0.068240359 -0.034020364 0.071997501
-0.067905672 -0.03404364 0.071997859
-0.068317324 -0.033205442 0.07167159
-0.065185554 -0.033307128 0.071691655
-0.068359368 -0.032433614 0.071350425
0.34454811 -0.0093108956 0.071708865
-0.019999465 -0.077416532 0.072925553
-0.018181322 -0.077443227 0.072928064
-0.01374929 -0.077410482 0.072922491
-0.0076975138 -0.077454753 0.072912872
0.012086061 -0.077399381 0.072918892
0.014797847 -0.077428378 0.072930321
0.015357297 -0.077432312 0.072932117
0.016035175 -0.077449165 0.072936423
0.018602042 -0.077418588 0.072911389
0.023674661 -0.07741607 0.072906516
0.024027303 -0.077420138 0.07290975
-0.02531164 -0.076620065 0.072577834
-0.024786308 -0.076614782 0.072578892
-0.019190906 -0.076606043 0.072564967
-0.018411716 -0.076627351 0.07256794
-0.012968878 -0.076623484 0.072567225
0.014437123 -0.076644748 0.07257545
0.016523801 -0.076642826 0.072577171
0.017604129 -0.076572947 0.072563477
0.019480696 -0.076653726 0.072553903
0.024835657 -0.076627977 0.072553769
0.025523268 -0.076638617 0.072556034
0.026254842 -0.076631896 0.072554313
-0.029576423 -0.075853892 0.072209492
-0.02368357 -0.075806603 0.072221406
-0.016849857 -0.075827807 0.072212346
0.01883807 -0.075753644 0.072188206
0.019212632 -0.075781122 0.072190188
-0.049353372 -0.057556923 0.072787702
0.055048283 -0.057874095 0.072913066
-0.055026952 -0.056216288 0.072213858
-0.065401502 -0.036484089 0.072982386
-0.066314548 -0.035713878 0.072663143
-0.065250069 -0.035659149 0.072656244
-0.0645371 -0.035680797 0.072660431
-0.0673225 -0.034340534 0.072114006
-0.066202283 -0.034127988 0.072018906
-0.065025009 -0.03406227 0.072009087
-0.064645097 -0.034035839 0.072005197
-0.015389889 -0.079017878 0.073637754
-0.010812988 -0.079808608 0.073989451
-0.0082770819 -0.079072803 0.073629543
-0.0079429643 -0.079065822 0.073629506
-0.005219223 -0.079750925 0.073970653
-0.00072386896 -0.079792187 0.073982731
0.0013642897 -0.079004131 0.073634662
0.0033690948 -0.079295941 0.073752992
0.0097967517 -0.07901895 0.073649019
-0.021598676 -0.07820195 0.073280089
-0.020885091 -0.078218572 0.073283456
-0.013541789 -0.078239009 0.073283069
-0.0096220244 -0.078969441 0.073617265
-0.0085515874 -0.078211494 0.073263012
-0.0044026622 -0.078945175 0.073616765
-0.0035030569 -0.078167759 0.073266074
0.00047107233 -0.078978404 0.073622815
0.0010288553 -0.078978948 0.073627286
0.0022641674 -0.078260578 0.073287904
0.010842337 -0.078221679 0.07329081
0.011592237 -0.078197867 0.073278815
0.012558256 -0.078208908 0.073282175
0.022757713 -0.078180775 0.073256798
-0.045912962 -0.060268387 0.073935404
0.052734219 -0.060267933 0.073941894
-0.051541392 -0.059402864 0.073579155
-0.051454138 -0.058615804 0.073238492
-0.050709553 -0.058603555 0.073240198
0.054241654 -0.058687657 0.073253691
-0.065161742 -0.03852731 0.073792286
-0.064802572 -0.038529236 0.073791593
-0.065160096 -0.037310619 0.073308967
-0.0033496181 -0.081459962 0.074702956
-0.0027955517 -0.081447154 0.074699402
-0.0062612016 -0.080572903 0.074326545
-0.0017744723 -0.080627508 0.074344769
0.0069473716 -0.080648385 0.074363433
0.0084566846 -0.079805814 0.074002445
-0.049182288 -0.062640533 0.074952565
0.049789924 -0.062638372 0.074956208
-0.048301499 -0.061833698 0.074611776
-0.047612291 -0.061866131 0.07461559
0.050827365 -0.061849292 0.074624524
0.051641706 -0.061026465 0.074284323
-0.064459153 -0.041393138 0.074934363
-0.063915938 -0.0413878 0.074932195
-0.064764626 -0.040551588 0.074604183
-0.064796478 -0.03974212 0.074280068
-0.045194656 -0.065072693 0.07596714
-0.044522554 -0.065095514 0.075968795
0.046572976 -0.065085568 0.075984463
0.047073118 -0.065058611 0.075977445
-0.043347828 -0.064296268 0.075625934
-0.042956576 -0.064291328 0.075625412
-0.041769564 -0.063522093 0.075285323
0.048600145 -0.063433558 0.075294979
-0.063313864 -0.043272737 0.07568527
-0.062576294 -0.043824255 0.075903356
-0.061456103 -0.043787528 0.075902574
-0.064073175 -0.042206775 0.075256139
-0.06354171 -0.042209089 0.075253859
-0.060263403 -0.04296945 0.075577989
-0.073203862 -0.019079097 0.075417362
-0.072565399 -0.019925119 0.075727418
-0.073251963 -0.018278144 0.075108305
0.044598676 -0.066761121 0.076679423
0.045068476 -0.066747144 0.076679379
-0.046012364 -0.06587524 0.076309778
-0.071188495 -0.022350814 0.076638222
-0.070499115 -0.022334537 0.076636918
-0.07143981 -0.021564882 0.076332882
-0.072304867 -0.020763731 0.076031744
-0.071809635 -0.020754598 0.076026276
-0.070972778 -0.020763617 0.076024368
-0.038005725 -0.070026331 0.077981718
-0.037468262 -0.070034444 0.077989191
-0.040301323 -0.069164023 0.077634439
-0.039387405 -0.069141217 0.077624887
-0.038600296 -0.06971284 0.077855028
0.039468303 -0.069117017 0.077692464
0.040344741 -0.069104455 0.0776935
-0.041408297 -0.068379879 0.077310786
-0.040512793 -0.068377823 0.077300638
0.038384896 -0.068363436 0.07735543
0.040456682 -0.068307661 0.077351667
0.041567143 -0.068315826 0.077353567
0.042462789 -0.068320066 0.077342629
0.043515731 -0.067535743 0.077010177
-0.061166812 -0.048748393 0.077852383
-0.06042634 -0.048686281 0.077848151
-0.059501089 -0.048642486 0.077846318
-0.058989555 -0.048643336 0.077844895
0.063786484 -0.04782556 0.0775337
-0.037254572 -0.0708092 0.078330532
-0.036387041 -0.070791826 0.078336433
-0.035486132 -0.070756227 0.078338385
-0.034584239 -0.070726454 0.078330435
-0.033695273 -0.070751674 0.078332469
0.038425788 -0.069928966 0.078032464
-0.060900569 -0.049493365 0.078170627
-0.059083957 -0.049469348 0.078170359
-0.058545854 -0.049503345 0.078175999
-0.057972636 -0.049524616 0.078183308
0.063211292 -0.049493868 0.078191966
-0.031290237 -0.073943511 0.079726174
-0.030783679 -0.073946677 0.079730377
-0.029554291 -0.073142655 0.079395436
0.027536523 -0.073966607 0.079734862
0.028774839 -0.073153168 0.079400882
0.029504802 -0.073741645 0.079658091
0.030305468 -0.073959269 0.079749785
0.031333089 -0.073421389 0.07952363
0.032068565 -0.073965028 0.079748183
0.060954347 -0.05187045 0.079150282
-0.069200896 -0.030552059 0.079727128
-0.068701595 -0.030566029 0.079725638
-0.069445238 -0.029737299 0.079419814
-0.070302784 -0.028915199 0.079116553
-0.069810055 -0.028922025 0.079117
-0.022729103 -0.076390512 0.080778137
-0.015185442 -0.076375604 0.080766454
0.022508586 -0.076330245 0.080746323
-0.028041065 -0.075511567 0.080413401
-0.027476948 -0.075531289 0.080422826
-0.026969934 -0.075542629 0.080425352
-0.021559708 -0.075576864 0.080434717
-0.020475008 -0.075564355 0.08043135
-0.032329407 -0.074728556 0.080058612
-0.026090266 -0.074746467 0.08008799
-0.025571283 -0.074746937 0.080092929
0.031573854 -0.074769363 0.080089286
0.058321591 -0.055092316 0.080437861
0.059156559 -0.054294016 0.080118723
-0.074682295 -0.0082135461 0.080825433
-0.075131148 -0.0073538665 0.080528013
-0.074730381 -0.0073786946 0.080532677
-0.074960865 -0.0065041226 0.080235191
-0.018426299 -0.078785814 0.081796862
-0.01402819 -0.078810543 0.08179456
-0.013341434 -0.078806959 0.08179564
-0.012138671 -0.078006282 0.081457235
-0.011604697 -0.078020811 0.081463948
-0.0067068795 -0.078815356 0.081776857
0.0067089964 -0.078837857 0.081806481
0.01870247 -0.078816228 0.081774019
0.019723559 -0.078021556 0.081436217
0.020272145 -0.078022748 0.081437238
-0.023585072 -0.077182919 0.081115663
-0.017263552 -0.077958964 0.081450857
-0.016473044 -0.077559322 0.081277862
-0.010583481 -0.077205949 0.081119567
0.008036159 -0.077997603 0.081461206
0.021269513 -0.077177435 0.081091657
-0.054374896 -0.056844134 0.081114173
-0.053664789 -0.056826413 0.081110656
-0.052633062 -0.056784835 0.081104301
-0.051724661 -0.056792356 0.081105247
-0.074243076 -0.011542604 0.081998929
-0.073867537 -0.011532291 0.081997804
-0.074076951 -0.010727294 0.081708059
-0.074451365 -0.0093059465 0.081209518
-0.073959827 -0.0099049881 0.081413165
0.0017436085 -0.081220433 0.082812116
0.0024627163 -0.081196502 0.082809724
-0.0094399806 -0.080454499 0.082467884
-0.0047251848 -0.080470264 0.082483143
0.0037031185 -0.080380812 0.082470275
0.0044159391 -0.080400616 0.08247634
-0.014843047 -0.079625204 0.082137726
-0.0082567278 -0.079644248 0.082124375
-0.007761904 -0.079642922 0.082121901
-0.0035434111 -0.079666287 0.082138181
0.0056547243 -0.079615578 0.0821409
0.017511597 -0.079641297 0.082117409
-0.051356632 -0.060470849 0.082570687
-0.050383635 -0.060111336 0.082409881
-0.049512357 -0.060093522 0.082413472
-0.048797779 -0.060026754 0.082410842
0.055181045 -0.059198599 0.08206667
-0.074178755 -0.013149748 0.082572594
-0.073535867 -0.013550853 0.082716569
-0.072884738 -0.013970304 0.082861178
-0.074020408 -0.012342034 0.082283489
-0.047346495 -0.063313752 0.083716616
-0.046358261 -0.063299686 0.083708607
-0.045680374 -0.063275091 0.083702736
-0.072161555 -0.016411329 0.083741717
-0.073040985 -0.014790581 0.08315327
-0.07269223 -0.014783908 0.083155006
-0.044019736 -0.066568919 0.084997095
-0.043185577 -0.065731309 0.084667206
-0.042432517 -0.065733142 0.084667146
-0.041362766 -0.065800697 0.08466778
-0.040350534 -0.065781891 0.084646769
-0.063084096 -0.046884492 0.085893027
-0.062846705 -0.046480455 0.085740618
-0.06148842 -0.046140999 0.085593395
-0.060776122 -0.046152003 0.085588351
0.033866592 -0.071412824 0.086973913
-0.071453176 -0.025508443 0.086937271
-0.070730336 -0.025487587 0.086933792
-0.071702458 -0.024655497 0.086642228
-0.071904875 -0.023822086 0.086352557
-0.034910191 -0.073089719 0.087586828
-0.028528919 -0.073830284 0.087939836
0.034548752 -0.073068805 0.087619305
0.036130846 -0.073027663 0.087616444
-0.034074362 -0.072297297 0.087267719
-0.033354461 -0.072290078 0.08727213
-0.032519262 -0.072199553 0.087262504
-0.031970669 -0.072173208 0.087265275
0.032997329 -0.072211422 0.087296575
0.033735167 -0.072235912 0.087297037
0.034286112 -0.072235987 0.087289616
-0.059184842 -0.051010527 0.087443613
-0.058308873 -0.051413104 0.087608382
-0.057484344 -0.051783171 0.087761089
-0.056995295 -0.051813528 0.087757461
-0.070421696 -0.026319407 0.087233774
-0.02638823 -0.076277874 0.088936307
-0.020253984 -0.076268919 0.08892329
-0.019463053 -0.076302104 0.088927388
-0.018596441 -0.076285779 0.088927232
-0.025108255 -0.075456887 0.088611819
-0.024561573 -0.075452805 0.088609517
-0.030110307 -0.074728675 0.088285543
-0.029737277 -0.074714929 0.088283613
-0.023365475 -0.074636072 0.088276625
0.057151534 -0.055013608 0.0889633
-0.054430496 -0.054260675 0.088672757
-0.056152724 -0.053419642 0.088364944
-0.055439632 -0.053423602 0.08836136
-0.054731045 -0.053405527 0.088356927
-0.057092518 -0.05264182 0.088062808
-0.056402624 -0.052625258 0.088059448
-0.069441944 -0.031253781 0.088979818
-0.077382199 -0.0040127174 0.088803925
-0.07670863 -0.0040095542 0.088804483
-0.077899635 -0.0039987233 0.088801272
-0.076169275 -0.0039899182 0.088803008
-0.075445026 -0.0039522317 0.088804506
-0.074711904 -0.0039035147 0.088803634
-0.084903322 -0.0023324203 0.088245571
-0.01704086 -0.078722492 0.089898244
-0.010282768 -0.078731224 0.089884154
-0.0052263178 -0.078694433 0.089888833
-0.00040792837 -0.07867644 0.08988703
0.00052806287 -0.078771293 0.089908481
0.0014008781 -0.078754358 0.089904249
0.0020880336 -0.078723148 0.089891747
0.0085435491 -0.078716829 0.089907914
0.0096866488 -0.078698017 0.08989393
0.010246828 -0.078684822 0.089892805
0.011555844 -0.078743003 0.089907967
0.012585244 -0.078727327 0.089905977
0.01347318 -0.078744315 0.08991079
0.014548363 -0.078681439 0.089901246
0.020840414 -0.078679405 0.08987423
-0.02145493 -0.077087648 0.08924982
-0.016127324 -0.077895306 0.089571908
-0.015664795 -0.077896804 0.089572512
-0.01468562 -0.077105328 0.089250252
-0.0092283376 -0.077957794 0.08956442
0.014461916 -0.077925578 0.089584939
0.015759561 -0.077841744 0.089557096
0.016511708 -0.077886708 0.089558423
0.017491087 -0.077537231 0.08939711
0.018568816 -0.077116415 0.089226104
0.022113143 -0.077906445 0.089559831
0.023481488 -0.077923648 0.089564025
0.055466536 -0.056711163 0.089592978
-0.068535581 -0.03374495 0.089863449
-0.067976855 -0.033791427 0.08987353
-0.069570377 -0.032045696 0.089268409
-0.068828203 -0.032604467 0.089464426
-0.087044924 -0.0073505826 0.089905649
-0.080513865 -0.0064155185 0.08961606
-0.086474657 -0.0056797927 0.089351639
-0.079177402 -0.0047669453 0.0890681
-0.078749776 -0.004802214 0.089073159
-0.0083904499 -0.081119962 0.090847261
-0.0044150855 -0.081183404 0.090861291
0.0053435285 -0.081160344 0.090880744
-0.0075012986 -0.08028163 0.090519972
-0.0032175053 -0.080348141 0.090539217
-0.0024765658 -0.080309324 0.090533637
-0.0017367287 -0.080300458 0.090533726
0.0063597718 -0.080326371 0.090554163
-0.012067792 -0.079503 0.090210192
-0.011542685 -0.079479992 0.090202063
-0.0064910282 -0.079458654 0.090199657
-0.00055709883 -0.079512909 0.090219341
0.0073612924 -0.079516828 0.090230271
0.0084332796 -0.079526678 0.090230688
0.010371277 -0.079537079 0.090229273
-0.053446509 -0.059131209 0.090520047
0.052638106 -0.05998775 0.090833783
-0.052390605 -0.058297575 0.090212047
-0.051693313 -0.058320194 0.090215355
0.054100219 -0.05836245 0.090214662
-0.067319006 -0.036168069 0.090737112
-0.066795982 -0.036184818 0.090739787
-0.067385949 -0.035359293 0.090446085
-0.068067975 -0.034614023 0.090166286
-0.067571029 -0.034590784 0.090161949
-0.084252179 -0.010626939 0.090990096
-0.087662853 -0.0095622968 0.090633072
-0.083242483 -0.009774222 0.090717919
-0.081861541 -0.0080827912 0.090167463
0.004534354 -0.081993677 0.091207698
0.05030423 -0.06247244 0.091769241
-0.049483985 -0.061591685 0.091455273
0.051114492 -0.06164813 0.091461435
-0.048278421 -0.060806219 0.09115006
-0.047565728 -0.06080411 0.09115053
-0.06604331 -0.039478034 0.091902532
-0.065706678 -0.039480008 0.091903038
-0.066304013 -0.038666058 0.091610946
-0.065904848 -0.038659167 0.091611736
-0.066440456 -0.03742845 0.091174394
-0.086454235 -0.01225438 0.091540456
-0.085778929 -0.012269412 0.091540068
-0.046397034 -0.064872243 0.09267804
-0.045208026 -0.064073339 0.092371054
-0.044495896 -0.06407363 0.092369102
-0.043779768 -0.064102925 0.092369772
0.047529493 -0.064854257 0.092700452
0.048589941 -0.064055257 0.092390887
0.049476486 -0.063277744 0.092083804
-0.065338641 -0.041429404 0.092585765
-0.064626552 -0.041969169 0.092776388
-0.065572992 -0.040331349 0.092199862
-0.042613152 -0.068204924 0.093884282
-0.041360535 -0.06818755 0.093871526
0.042558182 -0.068191856 0.093940563
0.043413192 -0.067341231 0.093624257
0.044273641 -0.067294046 0.093612701
0.045477487 -0.06647262 0.093304947
0.046515137 -0.065667182 0.093000874
-0.06317576 -0.044396307 0.09365198
-0.064178959 -0.04361831 0.093360722
-0.063440397 -0.043597668 0.0933621
-0.064237759 -0.042785496 0.093068957
-0.03832287 -0.070657365 0.094812572
-0.037567295 -0.070652477 0.094819821
-0.036495347 -0.070591815 0.094811879
-0.035420112 -0.070611745 0.09481208
0.035760183 -0.070642754 0.094860226
0.036389969 -0.070602439 0.094853714
0.037454598 -0.070593812 0.094855577
0.038564891 -0.070601262 0.094857581
0.03928208 -0.070611894 0.094847694
-0.040182054 -0.06900312 0.09416993
-0.039628983 -0.069657624 0.09441334
-0.038497485 -0.069864102 0.094502099
-0.037442282 -0.069838911 0.094507895
-0.036744077 -0.069814213 0.094511382
-0.034561306 -0.069807813 0.094505787
0.040126696 -0.069781527 0.094537348
0.041601509 -0.069023073 0.09424907
-0.041292537 -0.068978801 0.094172947
-0.040752888 -0.068984441 0.094169497
0.041002464 -0.068991959 0.094238468
-0.06156069 -0.047720432 0.094815262
-0.060469121 -0.047679406 0.094813816
-0.059199445 -0.047726665 0.09481886
0.064546123 -0.046521921 0.094407186
-0.076110005 -0.022180675 0.094860815
-0.075531468 -0.022213113 0.094863683
-0.071475349 -0.022176716 0.094842255
-0.074488081 -0.021395583 0.094583452
-0.072399154 -0.021347936 0.094572976
-0.071709402 -0.021331917 0.09457165
-0.073503777 -0.020558469 0.094302766
-0.072653763 -0.02055615 0.094300859
-0.071544357 -0.020508027 0.094295666
-0.032198336 -0.073040515 0.095767915
-0.031477187 -0.073041983 0.095773548
-0.030778699 -0.073046856 0.095779903
-0.029877795 -0.072270364 0.095479451
0.03560036 -0.071437769 0.09516526
0.036640882 -0.07141494 0.095164329
0.037339557 -0.071401857 0.095164582
0.061474629 -0.050236244 0.095719755
0.062340863 -0.049424034 0.095430814
-0.060225155 -0.048516147 0.095105246
-0.05911392 -0.048570666 0.095118113
-0.079434089 -0.024664067 0.095685661
-0.078659378 -0.024674404 0.09568727
-0.077441588 -0.023817934 0.095412321
-0.023302861 -0.075517833 0.096719049
-0.022593437 -0.075494885 0.096712731
0.023072273 -0.075516403 0.096700259
0.025160359 -0.07550972 0.096700646
0.026304897 -0.075499438 0.096710056
0.027405957 -0.075496919 0.096710734
-0.028392553 -0.07465151 0.09639746
-0.027480843 -0.074670017 0.096405089
-0.021559941 -0.074681811 0.096405528
0.023918564 -0.074703418 0.09639214
0.025326282 -0.074700728 0.096391618
0.026240395 -0.074689329 0.096399128
0.027114473 -0.074664235 0.096398853
0.028793482 -0.074686535 0.096408159
-0.033025015 -0.073853903 0.09607283
-0.026490284 -0.073854789 0.096101701
0.058752205 -0.05343606 0.096869893
0.059145577 -0.053479232 0.096878208
-0.06945987 -0.027995698 0.096778728
-0.020546041 -0.078776374 0.09794949
-0.015258215 -0.078787029 0.097946241
-0.014927288 -0.078784607 0.097946092
-0.013835076 -0.078804426 0.097955815
-0.0082891956 -0.078795418 0.097928174
-0.0034413191 -0.078798555 0.097933836
0.018207395 -0.078808792 0.097929977
-0.019341238 -0.077944607 0.097638682
-0.018428968 -0.077516943 0.097479589
-0.017603617 -0.077122636 0.097323976
-0.014102936 -0.077971593 0.097639546
-0.013370425 -0.077982694 0.097644918
-0.012647272 -0.077980503 0.097645
-0.011808866 -0.077145621 0.097328812
0.018347686 -0.07799165 0.097621419
0.019207403 -0.07795319 0.097617209
0.020448834 -0.077095553 0.097304642
-0.02448995 -0.076330021 0.09702599
-0.016759364 -0.076322071 0.097016253
0.021905219 -0.076322451 0.097003818
-0.05534653 -0.055988025 0.097750902
-0.054669105 -0.055963509 0.097746864
-0.053072166 -0.0559416 0.097742952
-0.052708209 -0.055932958 0.097742252
-0.07334663 -0.030474663 0.097610012
-0.072511531 -0.029650683 0.097335622
-0.07186535 -0.029657654 0.097335763
-0.070097126 -0.029662995 0.097328149
-0.069776356 -0.029667119 0.097327456
-0.068671905 -0.029594544 0.097318776
-0.071016684 -0.028828643 0.097057141
-0.070509851 -0.028825719 0.097054258
0.00051183754 -0.081222892 0.098863557
0.0014158844 -0.081197336 0.098861888
0.0023269369 -0.081222989 0.09887132
-0.011178968 -0.080458581 0.098554023
-0.0061543696 -0.080482908 0.098571211
0.0024734787 -0.080396883 0.098559245
0.0031917263 -0.080408849 0.098563053
-0.010017141 -0.079634808 0.098243684
-0.0095069408 -0.079634607 0.098241121
-0.0052957265 -0.079665184 0.098260559
-0.0048094988 -0.079640895 0.098249227
0.0044478946 -0.079626344 0.098263681
0.016969904 -0.079623155 0.098236606
-0.05210299 -0.059269231 0.098914154
-0.051383916 -0.059297815 0.098915569
-0.05051795 -0.059273914 0.098919347
-0.049802285 -0.059205733 0.098914906
0.055075858 -0.058345754 0.098606594
-0.054460142 -0.056750782 0.098033309
-0.053937133 -0.05675672 0.098034158
0.056394644 -0.056712333 0.098029345
-0.087139249 -0.0094075296 0.099855661
-0.086677641 -0.0098283533 0.099982888
-0.085448228 -0.009007629 0.099725813
-0.087119617 -0.0082120625 0.099471241
-0.086868025 -0.0089757228 0.099726498
-0.043224309 -0.065031491 0.10094583
0.044332955 -0.06496875 0.10096081
-0.049238492 -0.062532574 0.10008769
-0.048534628 -0.062543809 0.10008931
-0.047547072 -0.062531419 0.10008138
-0.046672851 -0.062502921 0.1000745
-0.045218632 -0.065842539 0.10123762
-0.044502646 -0.065806977 0.10123092
-0.043219224 -0.065886922 0.10123707
-0.042536601 -0.065875933 0.10122162
-0.041475691 -0.065868273 0.10120735
-0.098358259 -0.015693396 0.10179675
-0.098380759 -0.014869057 0.10154455
-0.062388781 -0.045453519 0.10256323
-0.063030005 -0.044553772 0.10228261
-0.062475063 -0.044598825 0.10228866
-0.061422668 -0.044617657 0.10228135
-0.098783568 -0.018166557 0.10256788
-0.10186531 -0.017362278 0.10231826
-0.097751535 -0.017328849 0.10230965
-0.098528177 -0.016513627 0.10205226
-0.030096594 -0.073240116 0.10389224
-0.02940248 -0.073177092 0.10387733
0.02975242 -0.073222123 0.10389345
0.030440718 -0.073215939 0.10389137
0.031549055 -0.073228195 0.10388868
-0.027825262 -0.07236173 0.10359479
0.029858392 -0.072397292 0.10360355
-0.035467483 -0.071636751 0.10327376
-0.034571916 -0.071639664 0.10328121
-0.033553988 -0.071542151 0.10327258
-0.032840416 -0.071534529 0.10327829
-0.060349617 -0.04954588 0.10393733
-0.059434772 -0.049546558 0.10394663
-0.077819221 -0.022318317 0.10387912
-0.078051522 -0.021501046 0.10361969
-0.098680057 -0.019829893 0.10308579
-0.02682719 -0.075674377 0.10478038
-0.030964902 -0.074098133 0.10419344
-0.025792595 -0.074847996 0.10448624
-0.024593091 -0.074020557 0.10418648
0.031780023 -0.074056484 0.10417256
0.032540962 -0.074073143 0.10417949
-0.058420338 -0.052012943 0.10476804
-0.057725962 -0.052004594 0.10476398
-0.058785513 -0.051151749 0.10449871
-0.057618976 -0.051591046 0.10462706
-0.056969024 -0.051980961 0.10476091
-0.059163038 -0.050359648 0.10422613
-0.058833342 -0.050329722 0.10422411
-0.084212989 -0.025698718 0.10492209
-0.082988732 -0.025657114 0.10490975
-0.082151636 -0.024819728 0.10465193
-0.081325568 -0.023991402 0.10439467
-0.080542445 -0.023578923 0.10426429
-0.079776369 -0.023162998 0.10413461
0.0094944872 -0.07900548 0.10594453
0.010175257 -0.07900016 0.10594393
0.011581559 -0.079002388 0.10594641
-0.018455818 -0.078155875 0.10564065
-0.017445059 -0.078150749 0.1056425
-0.012589651 -0.078943342 0.10591468
-0.011337382 -0.078190632 0.10563236
-0.010635783 -0.078202121 0.10563324
-0.006760031 -0.07898289 0.10593057
-0.0059167026 -0.078203306 0.1056456
2.4088329e-05 -0.078994006 0.10593382
0.0010895735 -0.07897523 0.10592786
0.007576989 -0.07896921 0.10593753
0.010835632 -0.07898365 0.10594139
0.012441816 -0.078976974 0.10594349
0.0133656 -0.078920402 0.10592382
0.0142987 -0.078960158 0.10591969
0.015524011 -0.078192875 0.10562919
0.016001139 -0.078192152 0.10562424
0.021567822 -0.078175522 0.10563449
0.022134488 -0.078167312 0.10563181
-0.023915535 -0.077324115 0.10535287
-0.016215291 -0.077352166 0.10535304
0.016847881 -0.077355012 0.10532887
0.017196691 -0.077349752 0.10533024
-0.023068968 -0.076508164 0.10506165
-0.022501096 -0.076501794 0.1050599
-0.021559641 -0.076518707 0.10506126
-0.020663092 -0.0765265 0.10506354
-0.015215755 -0.076526783 0.10505976
-0.055844255 -0.054521661 0.10559297
-0.056123585 -0.053627867 0.10530423
-0.055734262 -0.053658489 0.10531016
-0.057129737 -0.052803658 0.1050341
-0.056379277 -0.052810255 0.10503066
-0.073774882 -0.029007347 0.10593629
-0.0893685 -0.027270859 0.1054261
-0.088701867 -0.027297363 0.10542805
-0.086708821 -0.027335275 0.10543042
-0.071682662 -0.0273454 0.10542824
-0.087276556 -0.026500411 0.10517576
-0.086746752 -0.026480451 0.10516986
-0.085398495 -0.026543321 0.10518077
-0.084178232 -0.026514195 0.10517401
-0.083849028 -0.026499337 0.10517107
-0.0058028917 -0.081466995 0.10679857
0.00344424 -0.081464469 0.1068189
-0.009234813 -0.080565006 0.10649032
-0.0045718462 -0.080607638 0.10650661
-0.0034711743 -0.08058323 0.10650395
0.0046256986 -0.080608904 0.10652442
-0.014168303 -0.079803638 0.10622656
-0.0082217865 -0.07973136 0.10620298
-0.0076383776 -0.07975059 0.10621151
-0.0033796923 -0.079760134 0.1062096
-0.0024562497 -0.079771973 0.10621892
-0.0015105736 -0.079854406 0.10623718
-0.00047881808 -0.079822101 0.10622688
0.0057885181 -0.07979317 0.10623472
0.0063410252 -0.079800315 0.10623824
0.0074583823 -0.079780594 0.10622451
0.0084230676 -0.079791114 0.10622761
0.0093230037 -0.079828568 0.10623623
0.010379924 -0.079812624 0.10623479
0.01142098 -0.079828441 0.10623996
-0.0531969 -0.057765167 0.10668743
0.053888842 -0.057737436 0.10666899
-0.053222276 -0.056921281 0.10640851
-0.052341081 -0.056949235 0.10641136
-0.051956408 -0.056968801 0.10641351
0.054761514 -0.056889452 0.1063941
-0.076907665 -0.032352384 0.10696681
-0.076025039 -0.031489614 0.10670533
-0.075143196 -0.030657727 0.10644888
-0.11927083 -9.8711726e-06 0.10629739
-0.11541975 -0.00079353858 0.10654984
-0.11380277 -6.9191745e-05 0.10631606
-0.11219327 -0.00085760123 0.10654451
-0.050323911 -0.060253847 0.10751858
-0.049612582 -0.060282107 0.10752185
0.051512655 -0.060289621 0.10750999
0.052578814 -0.059417985 0.10722397
-0.080623075 -0.035634283 0.10799991
-0.079615131 -0.034812145 0.10773876
-0.078559011 -0.03399634 0.10748373
-0.077713825 -0.033177454 0.10722718
-0.10903092 -0.004223506 0.10751854
-0.11292093 -0.003350561 0.1072659
0.047505967 -0.064458951 0.10890045
-0.047268711 -0.063577063 0.10860808
-0.046551879 -0.063593552 0.10860919
-0.045467693 -0.063606374 0.10860834
0.04831909 -0.063624755 0.10862584
0.049193121 -0.062775806 0.10834199
0.050014216 -0.061940484 0.10806281
-0.073476605 -0.038146362 0.10877532
-0.069483407 -0.038153816 0.10878532
-0.073328204 -0.037309546 0.10851453
-0.072576724 -0.037332322 0.10852109
-0.071827419 -0.037391473 0.10853482
-0.069373041 -0.037313055 0.10852371
-0.071704581 -0.036526956 0.10826986
-0.070609719 -0.036543284 0.10827427
-0.069588885 -0.036481455 0.10826549
-0.06909214 -0.03563685 0.10800451
-0.041810345 -0.067735709 0.1099347
-0.040709771 -0.067766227 0.10993514
0.042987172 -0.067680292 0.10999438
0.043322451 -0.06768702 0.10999459
-0.0430848 -0.066951044 0.10967748
-0.042421397 -0.066942126 0.10967136
-0.04166653 -0.066905789 0.10966159
0.044194855 -0.066867337 0.10972369
0.045045942 -0.066051692 0.10945595
0.0464748 -0.06525436 0.10918097
-0.068591915 -0.041484199 0.10981345
-0.077119589 -0.040678721 0.10955621
-0.076710977 -0.040655829 0.1095512
-0.06918709 -0.040660638 0.10955472
-0.068613783 -0.040651843 0.10955492
-0.070115604 -0.039824881 0.10930097
-0.06919466 -0.039825831 0.10929589
-0.075203836 -0.038950872 0.10903017
-0.074643463 -0.03895285 0.10903101
-0.069267839 -0.038990259 0.10903876
-0.11285819 -0.012626 0.10993735
-0.11387791 -0.011739173 0.10968626
-0.11273963 -0.011787157 0.10969462
-0.036602661 -0.070222527 0.11078551
0.038672242 -0.070232779 0.11082829
0.039107744 -0.070265606 0.11083891
-0.039675638 -0.069447726 0.11050788
-0.03844405 -0.069422238 0.11051625
-0.037363786 -0.069368511 0.11050948
-0.036637835 -0.069386885 0.11050981
-0.035539713 -0.069406033 0.1105134
0.039922241 -0.069433406 0.11056359
0.040230349 -0.069422193 0.11056365
-0.041533634 -0.068585426 0.11020934
-0.040051583 -0.068654753 0.11023171
-0.039716583 -0.068646334 0.11023344
0.041257665 -0.068547472 0.1102763
-0.066479556 -0.044000257 0.1105867
0.065201044 -0.044826675 0.11085795
-0.06915234 -0.043176241 0.11033536
-0.068412222 -0.043177735 0.11033344
-0.067379296 -0.04317702 0.11032934
-0.066732295 -0.043577142 0.11045712
-0.065606579 -0.043172862 0.11032838
-0.064573869 -0.042330913 0.11007172
-0.063636832 -0.042297769 0.11006993
-0.062921681 -0.042307772 0.11006965
-0.11311252 -0.015962079 0.11090037
-0.1064545 -0.015647976 0.11080292
-0.10556688 -0.015939973 0.11088251
-0.10447031 -0.015900824 0.11088513
-0.10337006 -0.015924869 0.11089095
-0.10217955 -0.015093211 0.11064658
-0.10179691 -0.015108769 0.11064718
-0.11244963 -0.014269606 0.1104181
-0.10035419 -0.014307685 0.11041705
-0.099767677 -0.01431357 0.11041809
-0.097723953 -0.014256923 0.11040083
-0.11301813 -0.013452875 0.11017648
-0.11251315 -0.013434168 0.1101726
-0.098937884 -0.01346264 0.11017298
-0.028362405 -0.07350035 0.11193652
-0.027665408 -0.073511183 0.11194431
-0.033903424 -0.072673663 0.11163754
-0.032472946 -0.072676815 0.11164937
-0.026457962 -0.072685987 0.11167289
-0.032537691 -0.071852759 0.11137018
-0.031447593 -0.071876228 0.11138182
-0.030835798 -0.071934052 0.11139636
0.0333988 -0.07189624 0.11138134
0.034427609 -0.07186123 0.11137787
0.035492375 -0.071851246 0.11138026
0.036704101 -0.071034268 0.11110824
0.037442472 -0.071042009 0.11109725
-0.063481256 -0.04815438 0.11187273
0.062746041 -0.048169825 0.11190065
-0.062642559 -0.047298219 0.11161545
-0.060811643 -0.047320485 0.11161716
-0.061418384 -0.046451733 0.11135586
-0.060686994 -0.046464898 0.11135531
-0.059974618 -0.046507947 0.11136303
-0.09801092 -0.018467449 0.11161229
-0.10951716 -0.017599322 0.11137361
-0.10896404 -0.017585542 0.11137096
-0.097924143 -0.017609391 0.11136769
-0.11602724 -0.016801139 0.11114307
-0.10814034 -0.016742729 0.1111286
-0.10780773 -0.016752444 0.11112668
-0.10495301 -0.016733699 0.11112617
-0.025678784 -0.076015256 0.11276802
0.020884337 -0.076005943 0.11274727
0.021571828 -0.076017179 0.11274933
0.023498539 -0.076004051 0.11275187
0.026777558 -0.076004118 0.11276542
0.027323892 -0.07600835 0.11276273
-0.02450279 -0.075179994 0.11249086
-0.023773104 -0.075158797 0.11248478
0.0234688 -0.075186417 0.11247361
0.024596365 -0.075716831 0.11266583
0.025363464 -0.075988621 0.11275718
0.026580319 -0.075172901 0.11248862
-0.030100243 -0.074301302 0.11220198
-0.029424779 -0.074319422 0.11220626
0.06008422 -0.051517729 0.1129362
0.061919078 -0.04900432 0.11216017
-0.099367104 -0.022608977 0.11282106
-0.09925732 -0.021788409 0.1125806
-0.09862338 -0.020137327 0.11209929
-0.011050408 -0.079354517 0.11384918
-0.010729913 -0.079352938 0.11384762
-0.0060386914 -0.079352394 0.11385324
-0.0056592501 -0.07934396 0.11384968
0.0034505024 -0.079355359 0.11387334
0.015419704 -0.079337545 0.11384257
-0.016640574 -0.078496531 0.11358664
-0.0094953477 -0.078488141 0.11356602
0.01665367 -0.078518078 0.11357053
0.017340332 -0.078480862 0.11356625
-0.021269245 -0.077656284 0.11331492
-0.020555191 -0.077638656 0.1133111
-0.019879868 -0.077623077 0.11330643
-0.015467507 -0.077669799 0.11331312
-0.014386036 -0.077684395 0.11332057
0.018583558 -0.077613741 0.11328685
-0.018981162 -0.07681188 0.11303092
-0.012816257 -0.076806195 0.11302306
0.01960773 -0.076795317 0.11301202
0.020382103 -0.076835193 0.11302164
-0.056510378 -0.054859303 0.11395938
-0.055507328 -0.054624535 0.11389007
-0.054594293 -0.054798633 0.11394878
-0.053678587 -0.054803833 0.11395013
0.057280131 -0.054872416 0.11397225
0.058792584 -0.053197905 0.11345676
-0.099825002 -0.026037682 0.11380155
-0.091599688 -0.026017327 0.11380178
-0.099739656 -0.025186228 0.11355659
-0.092633992 -0.025999378 0.11379654
-0.090542279 -0.02597866 0.11380023
-0.099629447 -0.02431472 0.11331043
-0.087394908 -0.02429495 0.11332112
-0.099512823 -0.023455584 0.11306344
-0.0013468064 -0.081796877 0.11468051
-0.011889575 -0.080182001 0.11412624
-0.0073557198 -0.080211945 0.114144
-0.0068366667 -0.080195367 0.114135
-0.00035050168 -0.080943003 0.11440179
0.00059016887 -0.080953844 0.11440832
0.0018041619 -0.080139183 0.11413696
0.0023794181 -0.080169804 0.11414467
-0.052362788 -0.058207277 0.11498971
-0.051497169 -0.058182936 0.11499344
-0.050592285 -0.058112409 0.11498887
0.054361302 -0.05810757 0.11498729
0.055243611 -0.05731716 0.1147371
-0.057343747 -0.055684123 0.11421616
-0.054532014 -0.055644736 0.11420935
-0.053825505 -0.055616643 0.11420557
-0.09791927 -0.02932805 0.11475292
-0.098502383 -0.028476126 0.11450857
-0.097427547 -0.028495472 0.11451043
-0.096369021 -0.028508581 0.11451218
-0.095617644 -0.028459527 0.11451239
-0.099097647 -0.027644875 0.11426976
-0.094757207 -0.027611097 0.11426902
-0.099627405 -0.026879996 0.11403706
-0.093697533 -0.026797045 0.11403164
-0.092605725 -0.026850831 0.11404158
-0.091767281 -0.02684271 0.11404309
