# .PCD v0.7 - Point Cloud Data file format
VERSION 0.7
FIELDS x y z
SIZE 4 4 4
TYPE F F F
COUNT 1 1 1
WIDTH 1353
HEIGHT 1
VIEWPOINT 0 0 0 1 0 0 0
POINTS 1353
DATA ascii
0.044038367 0.11375475 0.018471666
0.063699342 0.11256835 0.015814234
0.07265605 0.11202116 0.014615226
0.09873569 0.11036871 0.011170121
-0.01196376 0.12270983 0.026249109
0.026996668 0.12028375 0.021079453
0.063871592 0.11797331 0.016160827
0.072801732 0.11743011 0.014962579
0.080328733 0.11691664 0.014021704
0.10098842 0.11557394 0.011309933
0.11951393 0.11449262 0.0087786522
0.063395247 0.0024536359 0.014975563
0.061397385 0.0033307308 0.015802529
0.067899987 0.011757626 0.014860736
0.07033664 0.011615729 0.014525267
0.074612483 0.011348843 0.013953291
0.074915096 0.011330942 0.013924545
0.081730247 0.010879356 0.013036911
0.087548375 0.010488618 0.012276281
0.09264645 0.0101959 0.011585543
0.066201217 0.012621844 0.015652936
0.079038233 0.01986146 0.013527784
0.083204351 0.019672576 0.012898352
0.093662888 0.018927693 0.011608873
0.080650434 0.027777612 0.013143788
0.082810685 0.027701478 0.012804512
0.08937259 0.02724286 0.011973608
0.094075136 0.026991582 0.011295991
0.089299925 0.027975028 0.012604523
0.084490746 0.035485771 0.012717064
0.086682737 0.03537444 0.012389472
0.088838175 0.035231408 0.012112992
0.090892762 0.035067294 0.011875549
0.094763078 0.034857489 0.011334093
0.095510624 0.034796905 0.011242425
0.093082994 0.035720006 0.012153983
0.087957919 0.043178197 0.012577867
0.090427294 0.043726765 0.012919582
0.092615686 0.043625243 0.012577934
0.094592527 0.043458439 0.012359565
0.08869195 0.050317172 0.012349473
0.090858288 0.050190717 0.012031808
0.09550038 0.049887467 0.011440342
0.091003448 0.057259109 0.012182675
0.093761683 0.057139114 0.011780584
0.091066375 0.057921607 0.012846723
0.090212137 0.064343251 0.012616877
0.093130365 0.064261101 0.012155848
0.088416561 0.065222241 0.013482153
0.088223904 0.071498454 0.013399297
0.089468881 0.071399271 0.013268661
0.091272123 0.071329162 0.012957983
0.093024641 0.070569284 0.012028171
0.095591992 0.071026295 0.012441447
0.09552931 0.070385113 0.011714147
-0.0042064823 0.083593942 0.025698481
0.084074937 0.078064211 0.013974876
0.084474631 0.078056201 0.013890841
0.085544281 0.078007497 0.01373401
0.092277095 0.077536583 0.012892881
0.081829138 0.083846048 0.013707803
0.083249465 0.083754562 0.013522751
0.0842546 0.083699957 0.013384189
0.085374072 0.083599404 0.013246586
0.086842962 0.083526492 0.01305064
0.089669675 0.083339214 0.012670746
0.091480777 0.083189435 0.012477599
-0.0031512883 0.089730538 0.025798414
0.076509625 0.084758081 0.015205601
0.080821812 0.084499724 0.014617428
0.095038697 0.083661757 0.012690734
0.072085619 0.090671249 0.015368399
0.074595667 0.090426221 0.015106528
0.074945554 0.090432845 0.01504471
0.12698194 0.1042735 0.0087951943
-0.0026457198 0.11736944 0.025380265
-0.00090719014 0.11718612 0.02519732
0.005538905 0.1168016 0.024329633
0.0094397999 0.11650931 0.023852138
0.02187686 0.1157323 0.022186767
0.02731093 0.11542968 0.021439917
0.038743231 0.11467865 0.019951832
0.05726286 0.1135225 0.017497767
0.062286172 0.11321944 0.016807485
0.096317045 0.11104203 0.012319308
0.10306491 0.11064943 0.011404503
0.10734127 0.11038173 0.010825615
0.1180242 0.10971054 0.0094270408
-0.01490432 0.11865936 0.027840573
-0.0056485627 0.11808662 0.026601613
0.024097309 0.11623198 0.022635307
0.026292594 0.11603042 0.022401694
0.028046817 0.11597674 0.022116726
0.031630449 0.11572731 0.02168568
0.035466336 0.11546858 0.021177389
0.043045461 0.11500318 0.020170495
0.075605884 0.11297482 0.015792929
0.083474874 0.11243924 0.01482024
0.094112784 0.11176641 0.013404476
0.095592171 0.11172985 0.013161503
0.10091113 0.11136459 0.012484405
0.10484105 0.11110719 0.011977248
0.12130132 0.11006326 0.0098074377
0.064002082 0.0038856128 0.016085241
0.066528499 0.0037404238 0.015722524
0.06192188 0.0047721262 0.016917299
0.066564888 0.0044689439 0.016327273
0.091281816 0.0029420452 0.013036087
0.066261292 0.013341792 0.016267993
0.068441145 0.013168214 0.016005939
0.073427767 0.012921342 0.015290932
0.07728757 0.012619754 0.014840807
0.079794243 0.012486774 0.014485043
0.093197301 0.011588011 0.012752663
0.074817225 0.020832444 0.014733435
0.081148595 0.020412672 0.013914701
0.083292581 0.020368356 0.013539955
0.089045264 0.019995933 0.012784172
0.072727233 0.021702126 0.015596029
0.077369928 0.021398975 0.015005451
0.091296412 0.020539779 0.013148749
0.094164431 0.020309402 0.012824729
0.081141733 0.029165018 0.014375059
0.083333164 0.029061461 0.014032052
0.085449681 0.028893173 0.01380123
0.085057393 0.036849596 0.013941716
0.087150015 0.036732893 0.013647113
0.091390148 0.036428597 0.013122644
0.088456869 0.044518888 0.013837172
0.088912159 0.051627643 0.013703329
0.091392025 0.051503915 0.013333585
0.093908086 0.051309343 0.013039865
0.091169834 0.058572486 0.013533581
0.094313897 0.058415957 0.013092531
0.088882171 0.065833122 0.014123995
0.090724036 0.065629281 0.01396304
0.093291447 0.065511465 0.013566066
0.093598291 0.065520898 0.013515169
0.088075012 0.072190858 0.014110293
0.089517102 0.072050385 0.013965115
0.083799519 0.078731723 0.014718418
0.085560523 0.078643478 0.014457465
0.075523794 0.085425921 0.016084757
0.077270404 0.085351914 0.015822865
0.07984975 0.085171811 0.015487068
0.093686029 0.084327616 0.013656488
0.074419931 0.085598215 0.016164122
0.078334332 0.085332535 0.015647722
0.083687961 0.084993921 0.014948403
0.011957366 0.11750779 0.025101993
0.020531591 0.11640389 0.02317352
0.034106825 0.11615067 0.022146158
0.049116995 0.11452858 0.019429144
0.05157879 0.11438565 0.019120224
0.054545436 0.11476204 0.019501114
0.074125096 0.11362606 0.016839094
0.081281118 0.11317683 0.015870113
0.10948667 0.11076815 0.011391457
0.11336622 0.11112062 0.011651717
0.11549098 0.11097403 0.011398608
0.11950777 0.11070888 0.010866771
0.1253286 0.11036152 0.010085132
0.10661311 0.11159555 0.012505947
0.073416367 0.0048211752 0.015967008
0.075883344 0.0045957714 0.015707236
0.078959167 0.0051407167 0.015897997
0.071776271 0.014421367 0.016805446
0.073970705 0.01431571 0.016461063
0.07562197 0.013456319 0.015678264
0.079927474 0.013211815 0.015062785
0.087086082 0.012747004 0.01410594
0.091858521 0.012448855 0.013509423
0.080005683 0.02195047 0.015272524
0.083852351 0.021760385 0.014723506
0.093163088 0.021132421 0.013516143
0.073301949 0.023087732 0.01678611
0.075819999 0.022892544 0.016494256
0.077937111 0.02276155 0.016209658
0.077464223 0.030818131 0.016108397
0.083941475 0.030419253 0.015231266
0.088170804 0.030080229 0.014747525
0.090298489 0.030049497 0.014381975
0.08048892 0.037823852 0.015205822
0.087697804 0.038059827 0.014907505
0.089842558 0.03797901 0.014588689
0.091917858 0.037810661 0.014347246
0.090993986 0.045050044 0.01416971
0.088658407 0.045888413 0.015124876
0.088632703 0.052326031 0.014420297
0.088999838 0.059403576 0.014507584
0.091250658 0.059256658 0.01420846
0.089034729 0.060048632 0.01520106
0.087898716 0.06649936 0.014994107
-0.005771732 0.078687198 0.027327407
0.085416809 0.073260039 0.015588768
0.086774088 0.07292401 0.014974268
0.088179201 0.072843395 0.014803393
0.090053827 0.073298402 0.015321195
0.09352918 0.072501875 0.014089439
-0.002960993 0.084769934 0.026983444
0.07716395 0.080373742 0.017084131
0.078979731 0.080259547 0.016840879
0.082415402 0.079444274 0.015632715
0.083483547 0.07938347 0.015509196
0.091011636 0.07895188 0.014446581
0.080358267 0.080244124 0.016607635
0.081465453 0.08013051 0.016497456
0.082502499 0.080065504 0.016358729
0.079865269 0.085815609 0.016232025
0.073867574 0.086860597 0.017721528
0.079907924 0.086479791 0.016941387
-0.0017700996 0.097139753 0.027458346
-0.011664269 0.11956897 0.029022416
-0.0098438878 0.11947393 0.028762706
-0.0066750012 0.11923224 0.028393699
0.00056257844 0.11877561 0.027424028
0.0044934787 0.11854154 0.026887435
0.0070201568 0.11840358 0.026539776
0.0091425367 0.11825096 0.026249949
0.015204538 0.11785664 0.025471672
0.017641751 0.11769564 0.025167696
0.020208569 0.11759977 0.024764661
0.0216092 0.11746062 0.024621194
0.027397323 0.11710882 0.023831617
0.038475096 0.11644809 0.022357592
0.040262703 0.11627372 0.022171848
0.041980822 0.11621241 0.021889903
0.044131704 0.11604439 0.021644071
0.050228097 0.11559026 0.020882435
0.052743148 0.11544626 0.020549905
0.055238683 0.11529489 0.020212315
0.057017334 0.11522759 0.019935649
0.06379912 0.1148416 0.019011091
0.065543763 0.11474755 0.018755777
0.067364924 0.11463988 0.018514547
0.069146134 0.11448059 0.018309716
0.076695405 0.11403283 0.017268557
0.080251694 0.1137906 0.01682907
0.08314912 0.11360584 0.016460598
0.088826582 0.11320359 0.015723083
0.090218402 0.11318848 0.01548392
0.091334343 0.11313965 0.015323097
0.10063887 0.11253702 0.014108881
0.10310647 0.11234245 0.013802564
0.10878792 0.11198404 0.013051778
0.11412469 0.11163928 0.012363195
0.12276004 0.11114278 0.011174209
0.12603487 0.11088468 0.010789914
0.062984586 0.0068913396 0.01858798
0.083306193 0.0056184358 0.015885236
0.085184149 0.0054639811 0.015681431
0.096946403 0.0047358591 0.014117368
0.067259103 0.015460318 0.017989855
0.074134193 0.015015963 0.017049739
0.083747983 0.014339801 0.015857482
0.080549285 0.031995989 0.017009541
0.080937669 0.031968497 0.016970122
0.084287181 0.039344955 0.016304735
0.085653499 0.038897738 0.015843922
0.08877328 0.060721159 0.015956394
0.086495675 0.067221172 0.015931491
0.08799649 0.067124523 0.015708189
-0.0048706289 0.07362517 0.028733376
0.08661665 0.067860812 0.01661076
-0.0027330518 0.079806723 0.02834525
0.082622334 0.07446748 0.016989768
0.08388935 0.074374221 0.016813684
0.084445991 0.074332394 0.016742231
0.076162189 0.081145383 0.017892953
-0.0029301103 0.092262648 0.028694607
-0.0015711077 0.091549203 0.027769631
0.071689308 0.087579504 0.018797215
-0.0027054492 0.11955072 0.028643057
0.0052044801 0.11906613 0.027590821
0.013073975 0.11856744 0.026540671
0.014467776 0.1184567 0.02639487
0.031315409 0.11743069 0.024113549
0.033115909 0.11731081 0.023897268
0.042715773 0.11675405 0.022572454
0.053446185 0.11596623 0.021271827
0.07522577 0.1146906 0.018290896
0.088093415 0.11386051 0.016599897
0.10487546 0.11281473 0.014379159
0.11487278 0.11214425 0.013062781
0.11667779 0.11203671 0.012812883
0.07267864 0.0069664712 0.01795904
0.077697851 0.0066652177 0.017269284
0.080231428 0.0065539433 0.016901542
0.081950918 0.006454207 0.016668595
0.087089628 0.0061325799 0.015982302
0.085260883 0.047457885 0.016946539
0.087668128 0.047355372 0.016600983
0.088217244 0.054389797 0.016507292
0.087855563 0.05514966 0.017192708
0.087731898 0.061473209 0.016760848
0.087485202 0.062187698 0.017462092
0.087828308 0.062145986 0.017426476
-0.0040558353 0.074232958 0.029337278
-0.004135672 0.080527268 0.029244987
0.080612466 0.075849719 0.018702574
0.081659757 0.075158417 0.017843084
0.08381249 0.075692132 0.018249538
-0.0031672679 0.086723514 0.029204752
0.075028822 0.088048607 0.019044463
0.07640934 0.087921843 0.018902242
0.077829838 0.087784909 0.018757205
0.072409138 0.094272085 0.019905254
0.12589356 0.10184504 0.012713918
-0.01263862 0.12078434 0.030736312
-0.0055702291 0.12028977 0.029847052
-0.0037525706 0.12023792 0.029544847
0.008117184 0.11946595 0.027994003
0.012001384 0.11923119 0.027484443
0.029896256 0.11814431 0.025092814
0.051364586 0.11668076 0.022317145
0.054148801 0.11649644 0.021966286
0.077801228 0.11508875 0.018742569
0.079606622 0.11498092 0.018506091
0.096023954 0.11392093 0.016356623
0.10281923 0.11349808 0.015440732
0.12098239 0.11230984 0.013070127
0.1275259 0.11191835 0.012198616
-0.0083704665 0.12109409 0.030952135
0.0062949546 0.12012497 0.029067986
0.02668293 0.11883112 0.026353009
0.052069217 0.11720785 0.023031294
0.056716207 0.11690116 0.022412062
0.063489877 0.11656944 0.02143009
0.072448067 0.11603119 0.020220706
0.081780449 0.11541537 0.019024447
0.092801079 0.11474606 0.017528599
0.1007076 0.11417261 0.016532565
0.10456532 0.11396122 0.016002577
0.10704967 0.11380003 0.015697274
0.12170898 0.11283337 0.01378398
0.077282444 0.025665987 0.018820619
0.085309267 0.041713957 0.018464465
0.088243037 0.048669379 0.017858425
0.0879329 0.055819876 0.017859709
0.086472258 0.062942795 0.018260747
0.083529338 0.069352396 0.018459938
0.085001022 0.069356501 0.018160587
0.085352466 0.069327883 0.018110951
-0.0015672743 0.081012338 0.02962012
0.07959491 0.076578788 0.019548867
0.078722693 0.082191318 0.019085996
0.077749923 0.082937971 0.019907612
-0.0038974155 0.094230577 0.031040393
0.074328564 0.088652834 0.019929957
0.084027559 0.088026769 0.018648468
0.00094846077 0.11573779 0.030186947
0.056965798 0.11215772 0.02280164
0.11059647 0.10884904 0.015617764
0.022062516 0.11974241 0.027728196
0.023450365 0.1196037 0.027576922
0.032824803 0.11905593 0.026307907
0.062417839 0.11721682 0.022366958
0.071435302 0.1166022 0.021218017
0.080716401 0.11602584 0.019976575
0.11243688 0.11401525 0.015788911
0.08290866 0.04252398 0.019479986
0.086244613 0.049443379 0.018832734
0.08598908 0.050137568 0.01951899
0.086318679 0.050124452 0.019469382
0.087832883 0.05646548 0.018567152
0.086521663 0.063562609 0.018966353
-0.0024559852 0.076122463 0.031236101
0.084755927 0.070614673 0.019686807
-0.0025231764 0.082391791 0.031171329
0.078950197 0.077284768 0.020353148
0.081860572 0.077069312 0.01997612
0.074180916 0.083751023 0.021134643
0.072283581 0.090038665 0.021664899
0.073748216 0.089921944 0.021513544
0.12742731 0.10292538 0.014051894
-0.0095316283 0.1169499 0.032391816
0.0016425569 0.11627638 0.030887943
0.0084655341 0.11636984 0.030789685
0.014599588 0.11600773 0.029958054
0.022002092 0.11493469 0.028226167
0.032073684 0.11488561 0.027667284
0.033486441 0.11423901 0.026693992
0.034190752 0.11478823 0.027374718
0.035203356 0.11412163 0.02645381
0.04671495 0.11335657 0.024988212
0.059170157 0.11262896 0.023266457
0.064860344 0.11288462 0.023279108
0.066696152 0.11274766 0.023043472
0.092391253 0.1104892 0.018916659
0.096368127 0.11024512 0.018363453
0.10815139 0.11008509 0.017583119
0.10915509 0.1094285 0.016699845
0.11719342 0.10958968 0.016344504
0.12213895 0.10928343 0.015690792
0.12498309 0.108447 0.014582075
0.12609851 0.1089583 0.015217226
0.013505228 0.12082922 0.029684212
0.064619802 0.11763053 0.02288907
0.066365026 0.11748425 0.022681952
0.075370878 0.11693177 0.02146567
0.12540141 0.11383057 0.014820708
0.083744437 0.043168414 0.020031136
0.085881844 0.043070771 0.019696278
0.086336061 0.05784595 0.02019586
0.087067306 0.057814803 0.020098988
0.084147245 0.065021083 0.02070117
0.085584186 0.064908735 0.020552123
-0.00055800192 0.076676905 0.031664811
-0.0001865942 0.076598719 0.031652551
0.083468422 0.072014779 0.021248158
0.080756165 0.077805012 0.020831101
-0.0031258855 0.083657652 0.032727245
0.075342 0.084290668 0.021722956
0.077581286 0.084808692 0.022150137
0.071629912 0.090759106 0.022462312
-0.0011536535 0.10076565 0.031917114
0.067884222 0.096444868 0.022738352
0.071093686 0.096244007 0.02230088
0.070438989 0.096909255 0.023141915
-0.00011590868 0.11691626 0.031942412
0.01558473 0.11593638 0.029867399
0.018078981 0.11575416 0.029555928
0.035986133 0.11462656 0.027180869
0.039604004 0.11438921 0.026692387
0.045250028 0.11404486 0.025948029
-0.01188555 0.11822854 0.034299709
-0.0015702937 0.1176471 0.032865267
0.0027849711 0.11735076 0.032337554
0.02309078 0.11604741 0.029651228
0.038174588 0.11512008 0.027635973
0.040286582 0.11494089 0.02739772
0.04212245 0.11489241 0.027067468
0.043838598 0.11473083 0.026913032
0.058450498 0.11381625 0.024968341
0.063534781 0.11350387 0.024268311
0.068923503 0.11317697 0.023561567
0.072523661 0.11293006 0.023074634
0.081433982 0.11239356 0.02188254
0.083956301 0.11218549 0.021591205
0.084963694 0.11219781 0.021401845
0.086054668 0.11210666 0.021265801
0.088561825 0.11186355 0.0210017
0.092075862 0.11169152 0.020507066
0.096055888 0.11148994 0.019957662
0.10032821 0.11122639 0.019365435
0.10676141 0.11081316 0.018521514
0.11206864 0.11050221 0.017795203
0.12678602 0.10951494 0.015902868
0.056055501 0.11864819 0.024908334
0.061746124 0.11833844 0.024100777
0.084703714 0.11690764 0.021018852
0.12614605 0.11433541 0.015541798
0.07711108 0.029262032 0.021934234
-0.014729202 0.05077586 0.034353301
0.083909534 0.044550866 0.021311754
0.086096071 0.051568508 0.020811163
0.083536342 0.06579186 0.021414179
0.084315464 0.066392168 0.022033241
0.084277719 0.072593808 0.021855459
0.078879848 0.079145476 0.022558339
0.080595322 0.079094835 0.022296894
-0.0016607977 0.090443395 0.033352651
-0.0019570142 0.095967591 0.033010934
0.069974177 0.09205123 0.024235094
0.064686388 0.097873934 0.024676241
0.06727235 0.097712986 0.024333643
-0.0079936683 0.11858758 0.034559421
-0.0029887334 0.11822598 0.03392867
0.0074429084 0.11760446 0.032518119
0.0095676333 0.11747186 0.032234896
0.012802284 0.11724108 0.031823676
0.017810805 0.11691421 0.031150898
0.029232316 0.11627238 0.029614396
0.044637848 0.11523794 0.027591262
0.046367478 0.11515889 0.027354695
0.048183039 0.11498104 0.02718351
0.057164326 0.11447082 0.025932949
0.067829117 0.11381381 0.024481088
0.075029194 0.11337167 0.02352668
0.077188641 0.1132438 0.023249518
0.083231159 0.11283378 0.02247466
0.050021917 0.12024787 0.02723287
0.085114136 0.060051911 0.02230176
0.082928106 0.073395967 0.022704449
0.078262232 0.080490768 0.024081886
0.080018133 0.08042264 0.023809049
-0.0031177867 0.091153443 0.034326725
0.074476138 0.086330153 0.023967108
0.067554772 0.09285754 0.025274923
0.071807429 0.092532121 0.02474276
-0.00061623938 0.10256492 0.034087915
0.029118888 0.10134942 0.0308969
0.063799128 0.09912771 0.026300276
0.12530945 0.10003313 0.017364986
-0.012914913 0.11948863 0.035966035
-0.010758048 0.11929651 0.035733018
-0.0057952199 0.1190295 0.035054266
0.0057090409 0.11825881 0.033567823
0.037488613 0.11627783 0.029341977
0.039331593 0.11617251 0.029084276
0.066423804 0.11454692 0.02541868
0.071851201 0.11417518 0.02470828
0.075757489 0.11391567 0.024194926
0.090783283 0.11297994 0.02221461
0.095768534 0.11264072 0.021568067
0.098214872 0.11245829 0.021287512
0.10249391 0.11221763 0.020679632
0.10500051 0.11207391 0.020343954
0.10787818 0.11188739 0.019950325
0.11494061 0.11140072 0.019072132
0.11676936 0.11130762 0.018789714
0.12826747 0.11060437 0.017279262
0.086050421 0.054270018 0.023514695
0.085499734 0.067632675 0.023278078
-0.0033545122 0.073905066 0.03573785
-0.0020894986 0.079340637 0.034729749
0.081561364 0.074106537 0.023624672
-0.0028194562 0.086266376 0.035542626
0.0064808056 0.085670143 0.03430384
0.074388757 0.081360996 0.025332794
0.076125965 0.081331715 0.025033923
0.07724762 0.0812172 0.024929283
-0.0019348748 0.092320599 0.035647199
-0.0032044761 0.097892649 0.035405166
0.069755509 0.093316093 0.025708899
0.071145594 0.093213208 0.025567718
0.0047887452 0.10345054 0.034920711
0.041659258 0.10108274 0.030062731
0.067739964 0.099522509 0.026508838
-0.012204848 0.12001782 0.036668133
-0.0068900399 0.11968373 0.035988025
-0.0036427267 0.11947985 0.035549961
-4.6037138e-05 0.11926935 0.03503228
0.032168336 0.11722992 0.030801971
0.049303427 0.11606462 0.02860618
0.056517337 0.11562024 0.027648509
0.058225926 0.11555503 0.027371306
0.088581815 0.11365466 0.023336904
0.093645014 0.11329444 0.022691976
-0.013605087 0.12069878 0.037653815
-0.0077103861 0.12032533 0.036870327
-0.0046241749 0.12013066 0.036444396
-0.0014414005 0.11990537 0.036050722
0.0025121067 0.11964455 0.035543814
0.0075752977 0.11935577 0.034844041
0.011153953 0.11906666 0.034414373
0.015390031 0.11880339 0.033870421
0.017178614 0.11873349 0.033595186
0.023248173 0.11831047 0.032798
0.024600891 0.11772542 0.031782623
0.034367111 0.11764126 0.031284772
0.043984309 0.11709137 0.029995454
0.052181676 0.11649617 0.028989922
0.057226282 0.11614922 0.028338578
0.062166974 0.11595569 0.027573472
0.08048375 0.11476949 0.025177918
0.081910163 0.11469178 0.02497422
0.085804887 0.11438209 0.024507508
0.086857162 0.11440141 0.024296477
0.087923534 0.11427672 0.024186844
0.090448469 0.11408924 0.023892373
0.099396437 0.11353309 0.022704987
0.10085233 0.11342656 0.022509381
0.11044654 0.11284593 0.021242239
0.11218827 0.11275204 0.021004066
0.082571529 0.048129968 0.024721751
0.085737474 0.054957036 0.024245322
0.086096436 0.054933824 0.024181107
0.087126806 0.061926 0.024106074
-0.0025083255 0.074528426 0.036316622
0.084289595 0.069009274 0.024857566
0.081318572 0.075440317 0.025077958
-0.004176233 0.086971641 0.036441218
0.072707012 0.082847476 0.026909534
0.074607879 0.088203698 0.026158474
0.06517984 0.094868571 0.027810395
0.066935077 0.094118416 0.026855983
-0.0011861995 0.10445418 0.03643813
0.062437102 0.10050009 0.02794148
0.080278635 0.099279158 0.025666945
0.10849306 0.10291472 0.021876551
0.11026666 0.10279168 0.021664819
0.12753081 0.10171035 0.019361546
0.12785439 0.10169774 0.019330602
-0.00069593266 0.1151249 0.036488146
0.025770707 0.1134689 0.032957971
0.04896906 0.11196224 0.029945601
0.057512306 0.11146131 0.028765351
0.06250903 0.11114991 0.028095741
0.11899192 0.1075796 0.020639881
0.12584116 0.10718096 0.019690225
-0.0092637744 0.12096461 0.037883304
-0.0088744275 0.12094948 0.037829749
-0.00576948 0.12075593 0.037416697
0.0015131813 0.12029531 0.036449786
0.0053950064 0.12005747 0.03594017
0.007548321 0.11991367 0.035655737
0.016141281 0.11931083 0.034568638
0.018277541 0.11924583 0.034238406
0.020926017 0.11907537 0.033881143
0.022208761 0.11899112 0.033706099
0.02577946 0.11882354 0.033201199
0.029416494 0.11853093 0.032750692
0.031092085 0.11846361 0.032528289
0.039002027 0.11795034 0.031479374
0.041163318 0.11778817 0.031204291
0.046836458 0.11740837 0.030473474
0.048630524 0.11734845 0.030196229
0.05116095 0.11709574 0.029931292
0.052957386 0.11702763 0.029678976
0.05793979 0.11672401 0.029002914
0.064350039 0.11636041 0.028103177
0.071745694 0.11591527 0.027106915
0.073321223 0.1158117 0.026896555
0.079112247 0.1154097 0.026151266
0.084038481 0.11512053 0.025494229
0.089768596 0.11471774 0.024771949
0.093311496 0.11457462 0.024249662
0.094738469 0.11439943 0.02410846
0.095805615 0.11433581 0.023977833
0.097220525 0.11431137 0.023733974
0.10011777 0.11407726 0.023390884
0.10295434 0.11392927 0.022987334
0.11152953 0.11333358 0.021894282
0.11292524 0.11332065 0.021640133
0.11646674 0.11303192 0.021252885
0.08319062 0.040989023 0.024997644
0.084032096 0.041651517 0.025517266
-0.0080682896 0.061548755 0.037331045
-0.0098258164 0.062407736 0.038170375
0.088085972 0.056231335 0.025208915
-0.0063160695 0.069162279 0.037860587
0.085305139 0.063329302 0.025778379
-0.0035516974 0.075181544 0.03719588
-0.0021954458 0.081361964 0.03683028
0.003192354 0.080986179 0.036150075
0.080775678 0.076770499 0.026551973
-0.00979097 0.088626131 0.038599391
-0.0062093362 0.088405557 0.038149297
-0.0052216034 0.087695181 0.037313439
-0.0026492998 0.087874755 0.037305716
-0.0016830824 0.087481171 0.036834441
0.076669097 0.082560435 0.026410181
-0.0096281413 0.094072282 0.038133357
-0.0028644353 0.093677551 0.037205141
-0.0021163113 0.093931779 0.037473865
0.07259538 0.089580551 0.027920606
0.074021958 0.089109428 0.027397756
0.063819133 0.095577911 0.028731758
-0.0068721566 0.10540387 0.037971526
-0.0011255369 0.10506696 0.037184894
0.022431534 0.10358244 0.034053564
0.061407365 0.10113715 0.028892918
0.064619325 0.10093635 0.028467979
0.10209478 0.098518953 0.02353608
0.061403766 0.10173117 0.029655568
-0.00074698403 0.11040638 0.037126295
0.0042929947 0.11067808 0.037206259
0.007877538 0.11045584 0.03675507
0.010396995 0.11023621 0.036469355
0.020032819 0.10974985 0.035100497
0.021780802 0.10897995 0.034140754
0.023590101 0.10888737 0.033877842
0.027552584 0.10925359 0.034107272
0.039343532 0.10849396 0.032573424
0.055703387 0.1074034 0.030438181
0.062531963 0.1070741 0.029442824
0.064359851 0.10689335 0.029256253
0.065791339 0.10626816 0.028248038
0.075458691 0.10621183 0.027784329
0.080419175 0.1052898 0.026370555
0.084023386 0.10564326 0.026672171
0.092990763 0.10507707 0.025471523
0.097208947 0.10485487 0.024886616
0.10891084 0.10412737 0.023334535
0.1107211 0.10395792 0.023153387
-0.010689618 0.11640427 0.038528439
-0.0075121447 0.11616739 0.038153484
-0.002520252 0.11589478 0.037440553
0.0035833996 0.11544514 0.036707666
0.015019057 0.11473935 0.035180859
0.025817968 0.11405908 0.033720024
0.051815033 0.11236162 0.030356232
0.059329964 0.11199207 0.029256314
0.067973658 0.11142446 0.028136894
0.071906053 0.11116256 0.027605183
0.081897706 0.11052654 0.02631196
0.093004867 0.1103805 0.025639823
0.096497253 0.10959645 0.024386784
0.10934836 0.10879092 0.022678388
0.11111884 0.10874953 0.022370478
0.11903939 0.10873888 0.022185508
0.12693435 0.1077047 0.020318557
0.12766427 0.1076584 0.020213198
-0.011033408 0.11699042 0.039377172
0.0033040568 0.11605863 0.037502117
0.0100572 0.11566085 0.036599725
0.011507452 0.11554044 0.036405809
0.020753141 0.11494526 0.035192925
0.024363041 0.11471628 0.034718521
0.024754195 0.11470631 0.034662969
0.031550042 0.11428358 0.033762213
0.033694886 0.11416263 0.033471625
0.041562788 0.11370587 0.032369029
0.043279689 0.11354461 0.03221463
0.045074776 0.11341403 0.031987652
0.062975444 0.11231719 0.02956989
0.066520587 0.11211566 0.029083073
0.069798544 0.11193956 0.028614594
0.070127152 0.11191559 0.028585646
0.071964376 0.11174338 0.028376129
0.073659584 0.11166292 0.028155513
0.07408601 0.11163009 0.028089982
0.075857371 0.11151756 0.027857522
0.077663109 0.11140921 0.027621163
0.079459801 0.11130035 0.027389634
0.092600107 0.1104129 0.025694301
0.095861949 0.11023764 0.025238603
0.099768616 0.11003967 0.02466698
0.1051317 0.1096756 0.023979232
0.10620198 0.10962643 0.023822987
0.10936342 0.10935231 0.023477446
0.11118852 0.10932668 0.023133596
0.11330724 0.10911671 0.022927815
0.12519147 0.10837061 0.02135976
0.013630494 0.12012117 0.035629109
0.015111748 0.12000463 0.035447508
0.020042442 0.11966332 0.034813542
0.045091614 0.11816124 0.031443849
0.051210053 0.11765927 0.030735891
0.070488654 0.11652299 0.02809499
0.082995601 0.11579379 0.026397115
0.10434923 0.11442555 0.023586992
0.10693173 0.11425634 0.023253569
0.12048903 0.11341348 0.021454046
0.12082881 0.11337401 0.021417627
0.12632909 0.11299245 0.020711072
0.086355433 0.063936479 0.026293367
-0.0088489279 0.076202981 0.03859783
-0.0074385032 0.076070398 0.038441259
-0.0034619924 0.075834855 0.03787335
-0.0058825165 0.076695539 0.038879491
0.083846457 0.071015552 0.027009543
-0.0028043147 0.082660235 0.03838563
-0.0075476188 0.089110218 0.039063409
-0.0092059076 0.095336877 0.039526399
-0.0070026815 0.095217772 0.039200589
0.071984552 0.090287864 0.028689472
-0.0069401469 0.10064173 0.03888464
-0.004787406 0.10049886 0.038599752
-0.0086707715 0.10135768 0.039875619
-0.0027535558 0.10099943 0.039066784
0.064981222 0.096762784 0.030040234
0.067186877 0.09659104 0.029782899
-0.0025482327 0.10605446 0.03852864
0.038924206 0.10373596 0.033422485
0.060736451 0.10239346 0.030477425
0.12512296 0.098306902 0.021988563
0.017510153 0.10515738 0.036182728
0.025044927 0.1046532 0.035234053
0.058533609 0.10257526 0.030751619
0.060025103 0.10247687 0.030562041
0.067161605 0.10200791 0.029636806
0.071176842 0.10174829 0.029107515
0.10468557 0.099677294 0.024616545
-0.0095888339 0.11218769 0.039796218
-0.0024525877 0.11170198 0.038896341
-0.00026946701 0.11156925 0.03860037
0.0018388592 0.11142968 0.038337201
0.0043454953 0.11128522 0.037982784
0.00789731 0.11106917 0.037505306
0.0093793161 0.11095209 0.037323918
0.0104258 0.11086064 0.037223373
0.024068413 0.1100331 0.035364728
0.025742123 0.10996703 0.035142522
0.031869844 0.10954595 0.034320306
0.033654019 0.10945273 0.034093183
0.039359163 0.10910871 0.033319715
0.041488666 0.10891057 0.033088077
0.055752091 0.10801948 0.031189516
0.060724795 0.10771872 0.030535262
0.066207349 0.10741477 0.029763043
0.07188198 0.10707416 0.028984435
0.0772615 0.10674196 0.028272226
0.079769537 0.10652248 0.027995031
0.090457179 0.10583829 0.02659202
0.098614998 0.10537416 0.02546226
0.099730715 0.105276 0.025324708
0.10258499 0.10512946 0.024938814
0.10757674 0.1048229 0.024252845
0.11330489 0.10448126 0.023493463
0.12626542 0.10360663 0.021815715
0.049422018 0.11311107 0.031433146
0.051880263 0.11294134 0.031137466
0.053891614 0.11281876 0.030846562
-0.012629788 0.11766688 0.040383924
-0.0074729845 0.11731511 0.039734632
-0.0042359829 0.11712258 0.039285161
-0.0038806759 0.1170892 0.039234411
-0.0025097821 0.11708225 0.039004236
-0.00023595616 0.11685862 0.038764838
0.0019310694 0.11678191 0.03842891
0.0051000416 0.11653178 0.038060449
0.0072786622 0.11641511 0.03773446
0.010066044 0.11621467 0.037409984
0.011535596 0.11613467 0.037192438
0.012942456 0.1160444 0.037018996
0.017891709 0.11569595 0.036382101
0.019409359 0.11568212 0.036105454
0.022600528 0.11542465 0.035730012
0.024051655 0.11540148 0.03547563
0.026248485 0.11520061 0.035241753
0.028173327 0.11514235 0.034945626
0.033359349 0.11480823 0.034266971
0.033685606 0.11477665 0.03423667
0.037675641 0.11453045 0.033698384
0.03946396 0.11435675 0.033512674
0.041539453 0.11429259 0.033163264
0.043333281 0.11412722 0.032984953
0.04478354 0.11401114 0.032799907
0.049430624 0.11367476 0.032223497
0.051945124 0.11353105 0.031891249
0.056219533 0.11331067 0.031276524
0.057948966 0.11320242 0.031043459
0.061261296 0.11304793 0.030539498
0.063000411 0.11292361 0.03035173
0.064744063 0.11282963 0.030096402
0.065872565 0.11275908 0.029918354
0.06656605 0.1127213 0.029855151
0.07589563 0.11211463 0.028609287
0.077717766 0.11199255 0.028400268
0.083430119 0.1116091 0.02766045
0.084473491 0.11154559 0.027522473
0.085552588 0.11153002 0.0273261
0.086583324 0.11142771 0.027231956
0.088028669 0.11128578 0.027063973
0.090535469 0.11122102 0.026663706
0.09696614 0.11073481 0.025867406
0.10048743 0.11057726 0.025371568
0.10369936 0.11035327 0.024969978
0.10479583 0.11027678 0.024817543
0.10619166 0.1102207 0.024596289
0.11332674 0.10972153 0.023703987
0.11690247 0.10956791 0.023157232
0.12165186 0.10921763 0.022565406
0.12523589 0.10896713 0.022130692
0.11903386 0.11407188 0.022424106
-0.0071499366 0.063553996 0.03921153
-0.0088573135 0.064407006 0.040063228
0.084662415 0.058530331 0.027656145
-0.0075655114 0.070520416 0.039434861
-0.005797172 0.070443347 0.039192796
-0.0039530471 0.070290327 0.038958967
-0.0099788792 0.071347654 0.040462773
-0.0038868412 0.071015373 0.039594702
-0.0068961754 0.077363491 0.039746094
-0.004336657 0.077240728 0.039373752
-0.0029186774 0.077118188 0.039204631
-0.0073756594 0.083593167 0.039700728
-0.0038309172 0.083380036 0.039222144
-0.0027802754 0.083296098 0.039097086
-0.011899447 0.084558979 0.040952604
-0.010177828 0.084442303 0.040773749
-0.0091997404 0.090538539 0.040680964
-0.007024508 0.090348043 0.040438261
-0.0057433527 0.089678228 0.039512429
-0.0027902853 0.090085812 0.039895762
-0.0091278553 0.095973656 0.040224474
-0.006929582 0.095851339 0.039921962
0.071322136 0.090911485 0.029562868
0.073762335 0.090766944 0.029232668
0.079170831 0.090376481 0.028547406
-0.010405356 0.10209196 0.040810667
-0.0044943374 0.10170677 0.040075891
-0.0018229298 0.10156284 0.039691269
0.023584822 0.10001543 0.036284644
0.061087601 0.097657025 0.031294782
0.067922905 0.097184464 0.030424349
-0.0082567856 0.10742787 0.040345054
-0.0024440289 0.10696811 0.039638251
-0.00026671588 0.10685869 0.039329149
0.029282149 0.10498353 0.035427369
0.043294199 0.10401762 0.033635132
0.053630527 0.10346212 0.032179836
0.057228312 0.10322573 0.031705257
0.058604337 0.10317384 0.031505238
0.059349272 0.10315908 0.031378541
-0.0042309258 0.11245837 0.039836209
0.0019079279 0.11200382 0.039110564
0.0044147186 0.11188941 0.038725056
0.0065869763 0.11170042 0.038480978
0.0079559609 0.11166775 0.038267281
0.020415358 0.11091539 0.036586463
0.022280786 0.11074651 0.036379803
0.027984079 0.11041914 0.035606027
0.029799968 0.11027504 0.035350557
0.035531104 0.10991646 0.034626737
0.041562729 0.10951002 0.033829566
0.043342199 0.10945454 0.033567119
0.045119099 0.10925487 0.033411738
0.045466177 0.10924385 0.033354152
0.047614779 0.10913064 0.033057697
0.050129205 0.10894465 0.032743439
0.057599597 0.10858938 0.031639103
0.059398405 0.10843927 0.031430881
0.063008912 0.10823306 0.030908324
0.064797401 0.10810524 0.030697964
0.070138969 0.10774378 0.030011855
0.074160814 0.10748831 0.029478703
0.075915508 0.10740336 0.029243721
0.078777544 0.10720135 0.028851248
0.084397592 0.10684393 0.028141215
0.085880816 0.10672334 0.027958691
0.08946006 0.10648412 0.027496273
0.094827898 0.10616751 0.026771065
0.096284851 0.10606037 0.026575238
0.10587846 0.10548002 0.025308333
0.10762018 0.10538623 0.025069626
0.11314221 0.10504603 0.024303554
0.12375318 0.10436901 0.0229211
-0.012735161 0.11825978 0.041162848
-0.0056378022 0.11785299 0.040207416
-0.0042286608 0.11772734 0.0400424
-0.0024534743 0.1176497 0.039794303
-0.00058618933 0.11748251 0.039552167
0.0015569869 0.11734631 0.039305586
0.0033813845 0.11723779 0.039049849
0.008340653 0.11692324 0.03837011
0.010162503 0.11679 0.038168319
0.015522912 0.11650299 0.037417326
0.020877436 0.1161406 0.036739893
0.022599803 0.11601274 0.036502857
0.031976707 0.11546323 0.035252124
0.033404686 0.11540607 0.035026588
0.035148442 0.11523936 0.034828573
0.039114568 0.11497229 0.034331471
0.041207738 0.11485604 0.034035042
0.043391522 0.11473916 0.033737004
0.04727874 0.11446603 0.033259466
0.04872039 0.11433547 0.033088662
0.051751927 0.11415102 0.032694675
0.053937774 0.11399703 0.032387275
0.05779279 0.11381379 0.031842086
0.059578069 0.11366756 0.0316201
0.061285648 0.11364035 0.0313197
0.066579856 0.11331899 0.03060738
0.068051651 0.11319703 0.030434042
0.071964189 0.11294284 0.029933684
0.075742155 0.11272565 0.029397152
0.079506777 0.11245678 0.028948296
0.081249297 0.11236847 0.028686725
0.083420247 0.11219096 0.028444856
0.090579912 0.1118075 0.027437229
0.091965213 0.11167841 0.027293513
0.097038917 0.11132208 0.026635457
0.09983559 0.11119172 0.026235918
0.10269707 0.11099073 0.025869468
0.10358447 0.11093639 0.025747824
0.10768054 0.11068204 0.025199194
0.11296019 0.11037152 0.024498435
0.11908073 0.10995647 0.02371352
0.12494911 0.10956924 0.022957735
-0.0066106785 0.064886518 0.040476892
0.085911497 0.059098419 0.028189816
-0.010995174 0.072087258 0.041272156
-0.0084246602 0.071986213 0.040865161
-0.0070221759 0.071846694 0.04072471
-0.0052371807 0.071731776 0.04049246
-0.0053645447 0.077960975 0.040218107
0.0014582444 0.077540465 0.039304983
-0.009907864 0.078884766 0.041553803
-0.008463975 0.078859396 0.041294709
-0.0074095726 0.07877475 0.041181121
-0.0041872133 0.078604683 0.040707741
0.002239719 0.07815858 0.03989622
0.081525028 0.073173583 0.029389836
-0.0091647077 0.091170438 0.041417968
-0.0052388702 0.09093643 0.040887259
-0.0090433322 0.096599385 0.040946908
-0.0043923222 0.096306786 0.040308565
-0.0032831896 0.096198715 0.040209267
-0.0028166249 0.09619312 0.040145196
0.069213994 0.091699362 0.030548394
0.070694253 0.091582403 0.030377895
-0.010714037 0.097347386 0.041878998
-0.0064497534 0.097097337 0.041313872
0.066458315 0.092510737 0.031646792
-0.010387659 0.10275739 0.041519303
0.057891592 0.098453894 0.032482073
0.061892994 0.098217912 0.031932186
0.063668028 0.098066241 0.03173073
-0.011359461 0.10880462 0.042294208
-0.0099701993 0.10805289 0.041396938
-0.0078425463 0.10860106 0.041816972
-0.0059382711 0.10810345 0.041238736
-0.0039834939 0.10800505 0.040966492
0.00012922846 0.10803679 0.04080642
0.0044412129 0.1077415 0.040255912
0.0097403079 0.10682346 0.038782619
0.011151792 0.10734673 0.039354142
0.024087243 0.10653849 0.03762731
0.028027922 0.10632578 0.037079986
0.031631954 0.10546011 0.035849962
0.033744663 0.10591055 0.036355216
0.035475556 0.1055163 0.035734739
0.037598938 0.10505766 0.035096832
0.039406352 0.10491695 0.034873322
0.041153081 0.10483133 0.034646124
0.046210721 0.10446183 0.03400502
0.048792858 0.10490835 0.03440655
0.052380476 0.10413022 0.033131856
0.054779295 0.10464167 0.033521544
0.055527437 0.10397751 0.03265018
0.066242717 0.10389453 0.032020055
0.068033546 0.10379549 0.031767499
0.070227116 0.10366199 0.031445224
0.072020575 0.10352695 0.031253092
0.076619036 0.10324308 0.03064427
0.08374919 0.10276605 0.029718358
0.08731848 0.10252237 0.029259425
0.092698269 0.10219987 0.02854147
0.094114348 0.10214339 0.028322186
0.098065093 0.10188028 0.027807189
0.10193653 0.10102601 0.026526352
0.10376608 0.10148774 0.027090847
0.00014969707 0.11278114 0.040070161
0.0065484606 0.11234739 0.039229482
0.0097832028 0.1121171 0.038818251
0.014790144 0.11179069 0.03814565
0.017288584 0.11170012 0.037774853
0.026212275 0.11114822 0.036608927
0.029822195 0.11087097 0.036137644
0.03193859 0.11077365 0.035845235
0.033733912 0.11061286 0.035651632
0.041618869 0.11011335 0.034585834
0.052730039 0.10938685 0.033167891
0.064809799 0.10868884 0.03147487
0.066661224 0.10856012 0.0312641
0.068446696 0.10849556 0.030963965
0.074168682 0.10811909 0.030243527
0.075943008 0.10798353 0.030022688
0.087380111 0.10730006 0.028470511
0.090928398 0.10699741 0.028070847
0.092365064 0.10696098 0.027824037
0.098020233 0.10662828 0.027075963
0.099089161 0.1065385 0.026935536
0.10305482 0.10629243 0.026409833
0.11153778 0.10572136 0.025328822
0.11513193 0.10555066 0.024793714
0.11731344 0.10533553 0.024580708
0.1238462 0.10494394 0.023687674
0.126726 0.10478138 0.023280991
-0.011003651 0.1140677 0.042314492
-0.010617169 0.11404059 0.042268012
-0.0091919992 0.11391299 0.042107351
-0.0073753428 0.11385985 0.041805036
-0.0041876808 0.11371151 0.041354537
-0.0019707717 0.11347866 0.041127123
0.00017182529 0.11339313 0.040810633
0.0019567795 0.11323382 0.040601067
0.0044937152 0.11308845 0.040254313
0.0066102147 0.11293228 0.039974354
0.011222791 0.11262374 0.039405238
0.012336519 0.1125673 0.039230984
0.014772382 0.11240741 0.038927436
0.016224157 0.11231716 0.038740672
0.020850673 0.11205578 0.038097631
0.022315167 0.11198713 0.037877176
0.028257988 0.11159427 0.037095964
0.035935562 0.11112717 0.036082514
0.043744944 0.11061184 0.0350633
0.045559995 0.1104352 0.034892958
0.052717078 0.10998157 0.033923645
0.054542117 0.10992321 0.033641811
0.056211639 0.10982418 0.033415098
0.057698838 0.10974623 0.033188976
0.059677675 0.10963426 0.032919955
0.079194181 0.10840059 0.030328725
0.081717074 0.1081926 0.030037701
0.08272443 0.10820463 0.029847957
0.083815351 0.10811336 0.029712152
0.08484672 0.10802723 0.029609818
0.086323738 0.10787094 0.029448323
0.088800646 0.10782386 0.029038424
0.089836128 0.10769916 0.028953671
0.092401318 0.10754339 0.028616436
0.093816668 0.10749669 0.028404133
0.096707657 0.10725085 0.028042914
0.10056359 0.10703999 0.027512567
0.10629602 0.1066471 0.026767595
0.11321688 0.10621526 0.025865106
0.1151461 0.10617631 0.025549933
0.12064492 0.10582203 0.024831206
0.12390275 0.10554118 0.0244588
0.0083869789 0.11751958 0.039158579
0.02264845 0.11659386 0.037269507
0.026442539 0.11637716 0.036767621
0.063399717 0.11406459 0.03184979
0.064766973 0.11395238 0.031711176
0.073783085 0.11340152 0.030474082
0.089861095 0.11238004 0.028357713
0.10662682 0.11136344 0.026115125
0.10987787 0.11110215 0.025730127
0.11303376 0.11097146 0.025255188
0.12145913 0.11038511 0.024186814
0.12203757 0.11036517 0.024099799
0.12428924 0.11021874 0.023800679
0.016735699 0.034507114 0.038176183
0.087218359 0.053438157 0.029336687
-0.0096663274 0.066414967 0.042233538
-0.0060647782 0.066216037 0.041747488
0.087143175 0.060369529 0.029373899
-0.0033463798 0.072353706 0.040856864
-0.006467605 0.073171832 0.042023927
-0.010911284 0.079626277 0.042355768
-0.0059104301 0.079302572 0.041683428
-0.0053309854 0.08539661 0.041572023
-0.0063213427 0.086164527 0.042362019
-0.0065754075 0.091968648 0.042146124
-0.0047696866 0.092207082 0.042263668
-0.0039538704 0.097546741 0.04171453
0.072888657 0.092767119 0.031498678
-0.012149081 0.10342129 0.042582486
-0.0059934016 0.10310075 0.041729253
0.066947207 0.098515444 0.031994745
-0.0099422112 0.10399599 0.04294486
-0.0081011616 0.1038194 0.042761344
-0.0059584342 0.10373367 0.042444557
0.06092795 0.099477276 0.033611495
0.043742783 0.10521873 0.035084471
0.046205234 0.10507695 0.034775883
-0.0095464233 0.10926608 0.042831339
-0.0077728797 0.10918937 0.042582903
-0.0059044752 0.10902171 0.042340796
0.020560138 0.10736004 0.03885328
0.028085966 0.10694512 0.037814982
0.033796288 0.10651142 0.037120428
0.035525527 0.10639036 0.036902443
0.041613601 0.10605896 0.036049735
0.043811277 0.10581493 0.035853017
0.04625915 0.10571683 0.035493791
0.048619151 0.10553677 0.035177484
0.050759681 0.10542459 0.034893543
0.05266884 0.10534187 0.03460326
0.055967934 0.10517886 0.034107722
0.057691354 0.10503756 0.033911914
0.059478365 0.10493165 0.033668127
0.080225378 0.10366555 0.030885946
0.085261554 0.10334635 0.030225208
0.086293131 0.10328523 0.030101571
0.090204716 0.10302116 0.02958538
0.099531621 0.10241091 0.028367039
0.099867553 0.10238153 0.028332073
-0.0073652826 0.11446042 0.04257445
-6.7800283e-05 0.11397055 0.041617595
0.0045480169 0.11369056 0.041013394
0.0066701174 0.11353785 0.040723607
0.019137051 0.11274797 0.039095014
0.028107058 0.11220473 0.037882101
0.0341288 0.11181562 0.037090734
0.035692744 0.11173434 0.036871657
0.038145315 0.11152869 0.036591209
0.045640096 0.11105231 0.03562548
0.063401908 0.11002307 0.033177331
0.066674031 0.10976718 0.032782897
0.070293069 0.10955966 0.032296952
0.072029561 0.10945621 0.032062184
0.077779934 0.10907708 0.031302415
0.080676727 0.10889255 0.0309342
0.087747686 0.1084742 0.029957144
0.098166332 0.10782303 0.02858201
0.099592119 0.10769699 0.028414579
0.10631482 0.10727061 0.027525149
0.11741343 0.10653974 0.026090203
0.12028766 0.10642906 0.025647355
0.024227697 0.026827717 0.03816076
0.026012659 0.026751675 0.037889063
-0.011008093 0.067247532 0.043037206
-0.0079157762 0.08013995 0.042600513
-0.011855029 0.081066214 0.043841206
-0.0064952578 0.080706619 0.043149076
-0.013436586 0.087271988 0.044025607
-0.010928085 0.087125748 0.043670207
-0.012860314 0.093376912 0.044029273
-0.0084975287 0.098469056 0.043071806
0.069198385 0.093622506 0.03272415
0.0708602 0.093485855 0.032548565
-0.010265667 0.099210262 0.04404451
0.064066932 0.094583221 0.034130219
0.06804201 0.094296634 0.033645395
-0.011671335 0.10465492 0.043977037
0.033746697 0.10185979 0.037904192
0.039520837 0.10141493 0.037236422
0.046649247 0.10094585 0.036297414
0.053769201 0.10058562 0.035262756
0.055208731 0.10048978 0.035093017
0.063782677 0.099942945 0.033948489
-0.0094871409 0.1098865 0.043580364
-0.0076701958 0.10975769 0.043343123
0.017018985 0.10816313 0.040090691
0.030232809 0.10736609 0.038319077
0.032027096 0.10724076 0.03811058
0.037754361 0.10694353 0.037287407
0.046345163 0.10632585 0.036235668
0.052532066 0.1059572 0.035382062
0.066707447 0.10510866 0.033449844
0.079576552 0.10423408 0.031799495
0.081693329 0.10412955 0.031478837
0.10276403 0.10280913 0.028688999
0.10772597 0.10253299 0.028019136
0.11349078 0.10215635 0.027269864
0.015207283 0.11360983 0.04038753
0.028143313 0.11280113 0.038660925
0.034145065 0.11242054 0.037864458
0.039561227 0.11206895 0.037161484
0.072088599 0.11005867 0.032801777
0.092792206 0.10871746 0.030091567
0.0942702 0.10867997 0.029848589
0.097101837 0.1084316 0.029535528
0.10639544 0.10787607 0.028262453
0.10994983 0.10770236 0.027756745
0.12363005 0.10676906 0.026022531
0.02122568 0.028493898 0.039732032
0.022913963 0.027666951 0.038918894
0.015026733 0.037477702 0.040889151
-0.0099679567 0.08158052 0.044284888
0.075819075 0.088454977 0.032973334
0.076847568 0.088395566 0.032850292
0.07060422 0.094787352 0.034009233
0.073129222 0.094578087 0.033719145
-0.0057758577 0.10492992 0.04391576
0.036288738 0.10227461 0.038372349
0.044888396 0.10167305 0.037297692
0.056450132 0.10099887 0.03569755
0.058900431 0.10151963 0.036037151
0.0027690195 0.10970899 0.042726185
0.03599602 0.10760047 0.038344409
0.041693464 0.10726403 0.03756316
0.070698231 0.10546451 0.0336641
0.079308398 0.10488862 0.032578763
0.081430674 0.10480934 0.032244094
0.092131056 0.10408293 0.030883076
-0.0072578751 0.1109179 0.044838816
0.11863372 0.10308488 0.028076326
0.063527942 0.11118358 0.034714676
0.076472104 0.110367 0.033001423
0.12330794 0.10738609 0.026821181
0.014092645 0.14735395 0.041674525
0.019580919 0.02930172 0.040557951
0.022033863 0.029185023 0.040199019
0.018200118 0.030182177 0.04130175
0.020380545 0.029986678 0.041052409
-0.011824219 0.062364079 0.04513067
0.071934767 0.089317903 0.034220301
0.074795939 0.089081161 0.033896446
0.013071602 0.093640499 0.042763598
0.062760897 0.095890597 0.035797153
0.049248923 0.10207208 0.037397712
0.049640421 0.10205688 0.037344083
0.055289868 0.10172633 0.036560304
0.079608075 0.10019109 0.033352435
0.046259232 0.020468516 0.038156036
0.012313152 0.039026987 0.042526763
0.083220869 0.070902571 0.033515874
0.080137536 0.0839867 0.034432396
0.073110238 0.090506606 0.03551678
0.074154727 0.090438567 0.035405934
0.076741487 0.090316638 0.035019659
0.072047532 0.09062843 0.035624832
0.061404176 0.096646041 0.036685862
0.063536897 0.0965074 0.036407243
0.064290054 0.097089857 0.037058607
0.067890041 0.096222155 0.035852734
0.068641581 0.096812122 0.036476493
0.069625922 0.096102595 0.035622377
0.050752223 0.10322769 0.038684919
0.0013704766 0.14526112 0.045688346
0.025449529 0.023250515 0.042068288
0.026847966 0.023145335 0.041931413
0.027919188 0.023061888 0.041795742
0.032893926 0.022771284 0.041118748
0.047797184 0.021119459 0.038536828
0.048607666 0.021797406 0.039027493
0.017381597 0.031652249 0.042661935
0.018228289 0.032304429 0.043171231
0.080572873 0.072434254 0.035222538
0.076251149 0.084883258 0.035662472
0.080878004 0.084608324 0.035054844
0.082381584 0.084500059 0.03483947
0.074997038 0.091008343 0.03602878
0.051467981 0.098560169 0.039454233
0.058664631 0.098075867 0.038512982
0.060471043 0.097963102 0.03829179
0.033720091 0.10491193 0.041701108
0.046851128 0.10405128 0.039998561
0.031322241 0.024378842 0.042495035
0.032793049 0.024221126 0.042329211
0.015102088 0.03402232 0.044729758
0.016477264 0.033176392 0.043956365
0.017316174 0.033832647 0.044455696
0.087445699 0.05959123 0.035264883
0.076025851 0.086249389 0.037083413
0.078526542 0.086070165 0.036760919
0.046207499 0.099408537 0.040989555
0.053354144 0.099046975 0.039963447
0.063801318 0.099016547 0.039322883
0.024010278 0.025575344 0.044034805
0.02621508 0.0262051 0.04429777
0.027181827 0.025373038 0.043612752
0.015987512 0.034713332 0.045192089
0.011973778 0.043393672 0.046247452
0.075420536 0.086981207 0.037828289
0.074392907 0.087638184 0.038722232
0.078304037 0.087368697 0.03823901
0.079407372 0.087318003 0.038073897
0.071434624 0.093181923 0.038650431
0.064893022 0.094274327 0.040180545
0.050931722 0.10043069 0.041780751
0.058439545 0.1000218 0.040715568
0.02273643 0.026364556 0.044791076
0.029138321 0.025961922 0.043967858
0.02131277 0.027245678 0.045530953
0.023533635 0.027070839 0.045267574
0.025296047 0.026953388 0.045052335
0.028529786 0.026750326 0.044633269
0.012239156 0.035638925 0.046303399
0.014339644 0.035477508 0.046062391
0.013004106 0.036315594 0.046825893
0.0064162835 0.052190207 0.047703166
0.06927228 0.094643004 0.0403511
0.034617178 0.10214961 0.04460695
0.051677771 0.10100093 0.042426184
0.057405844 0.10070342 0.041609664
0.018034078 0.028925167 0.047130145
0.020138435 0.028744062 0.046895221
0.022672743 0.028629119 0.046502568
0.01214147 0.037821561 0.048155423
0.086964518 0.069305576 0.038071226
0.078011408 0.082748644 0.039521832
0.086294495 0.08284989 0.039152272
0.059686754 0.095918775 0.042297937
0.062531643 0.095687419 0.041956432
0.033346638 0.020850627 0.046337225
0.01882986 0.02960347 0.047630593
0.020964056 0.029464478 0.047352593
0.017542308 0.030413214 0.048405569
0.010797096 0.038602017 0.048973318
0.086461917 0.056908716 0.039363321
0.082482293 0.083710961 0.040380143
0.083653569 0.083716482 0.040176757
0.085203156 0.083604321 0.039980635
0.086323202 0.08350385 0.039842822
0.056831378 0.096732929 0.043417115
