# .PCD v0.7 - Point Cloud Data file format
VERSION 0.7
FIELDS x y z
SIZE 4 4 4
TYPE F F F
COUNT 1 1 1
WIDTH 1363
HEIGHT 1
VIEWPOINT 0 0 0 1 0 0 0
POINTS 1363
DATA ascii
0.3064588 0.032726228 0.023439977
0.29902673 0.021140099 0.024037696
0.29708016 0.018062383 0.024166934
0.29529703 0.015218049 0.024289099
0.29091361 0.008449018 0.024658334
0.3167097 0.042861342 0.022532351
0.31610039 0.04195109 0.022590388
0.31176603 0.035161763 0.022924993
0.31128761 0.034337491 0.022929717
0.31070894 0.033451736 0.022986226
0.31030169 0.032842815 0.023020262
0.30952442 0.031658173 0.023096204
0.30686182 0.027526051 0.023313355
0.30663189 0.027092546 0.023307655
0.30306485 0.021553904 0.023606513
0.29976588 0.016394466 0.023848098
0.29824388 0.013970971 0.023970678
0.29804736 0.013654351 0.023964055
0.29570618 0.010014534 0.024152469
0.29514563 0.0091001391 0.024189647
0.32133257 0.043591917 0.023059014
0.32054964 0.042410851 0.023152165
0.32025307 0.041955799 0.023173779
0.31950036 0.040700883 0.023195868
0.30989832 0.025731713 0.023951199
0.29868385 0.0080964565 0.02480818
0.29088742 -0.0040694028 0.02542695
0.32534605 0.044040531 0.022781445
0.3249689 0.043458104 0.0228194
0.32458702 0.042868495 0.022854324
0.32001483 0.035735518 0.023205187
0.31962049 0.035127908 0.02324364
0.31472459 0.027365744 0.023586234
0.31391966 0.026175141 0.023664547
0.310386 0.020729661 0.023977708
0.29876786 0.002439335 0.024834141
0.30811498 -0.00090095401 0.025526963
0.021998376 0.066895455 0.016608655
0.036391318 0.063917667 0.016869303
0.032131426 0.057236776 0.017205626
0.026090875 0.047762498 0.017659612
0.02575919 0.04728502 0.017700769
0.018973976 0.036698356 0.018262338
0.047013357 0.079037204 0.016584937
0.034491725 0.059546471 0.017589632
0.03380046 0.058405936 0.017632524
0.025785558 0.045899212 0.018248254
0.019147359 0.035531953 0.01879213
0.014827959 0.028745189 0.019107839
0.014221169 0.027794302 0.019140005
0.013448417 0.026572421 0.019204384
0.052921064 0.065862611 0.016886273
0.034129106 0.036434606 0.018315488
0.028311573 0.027369812 0.018801317
0.0014392212 -0.014706127 0.020869782
0.00046247989 -0.016266219 0.020918604
-0.002046369 -0.02019494 0.021120068
0.028542727 0.026338965 0.01935738
0.02047278 -0.0071914047 0.020588182
0.025185779 -0.0012697652 0.020747066
0.024662778 -0.0021278039 0.020790134
0.020509779 -0.0085354522 0.021160441
0.014177136 -0.018474087 0.021635449
0.013889067 -0.018929109 0.021661041
0.061709896 0.054475069 0.018517084
0.057399079 0.047737926 0.018848769
0.046725646 0.031040907 0.019674856
0.040145464 0.020746827 0.020177737
0.039958052 0.02044706 0.020186245
0.039184675 0.019241005 0.020262673
0.038660392 0.018389672 0.020312002
0.050026909 0.016825274 0.01980041
0.049841374 0.016541153 0.019820951
0.048518427 0.014492825 0.019987177
0.078836158 0.060474411 0.018168502
0.055062845 0.023381621 0.020049384
0.033538021 -0.010326102 0.021712005
0.073347978 0.032775074 0.019423878
0.062255174 0.015396357 0.02025691
0.061787657 0.014650494 0.020295264
0.047349185 -0.0078891963 0.021439089
0.076329231 0.036000177 0.019757051
0.062856756 0.014982715 0.020819593
0.05163528 -0.0025697351 0.021693224
0.049556769 -0.0059250593 0.021795303
0.043759793 -0.014943987 0.022293998
0.043599874 -0.015213504 0.02231157
0.086719677 0.033231512 0.020105284
0.086023189 0.032211065 0.020223204
0.085514084 0.031457379 0.020261392
0.11443573 0.059005514 0.018795386
0.083078712 0.010074243 0.021283437
0.093703121 0.010625094 0.020980911
0.10119691 0.020938531 0.020989075
0.12761471 0.046332479 0.019771336
0.12044679 0.033893436 0.021028854
0.10402942 0.0095993876 0.021682892
0.11094879 0.018998742 0.021761391
0.11627083 0.014299378 0.021193083
0.1310368 0.036034942 0.020669211
0.12797596 0.031175718 0.020888561
0.12774955 0.030889139 0.020929437
0.12093789 0.020252079 0.021446992
0.12454394 0.011523679 0.021867355
0.14592293 0.043686658 0.020887623
0.14379673 0.040289879 0.021029847
0.13414916 0.025319517 0.021818276
0.12907809 0.017314196 0.022184972
0.12878782 0.016856268 0.022211298
0.12846413 0.016377017 0.02224287
0.12511328 0.011207134 0.022523575
0.13915125 0.020223171 0.021694364
0.16636068 0.049977392 0.020080585
0.15440439 0.029928133 0.021674238
0.15339828 0.028376728 0.021763746
0.14618078 0.018415332 0.021645632
0.14194548 0.011740401 0.021960367
0.14171928 0.011398003 0.021969393
0.14096263 0.0088107586 0.022668179
0.17455724 0.048794329 0.02084884
0.17229217 0.045135304 0.020976577
0.15070531 0.011504635 0.02268273
0.17417422 0.036811024 0.021057913
0.17120446 0.03209579 0.021242673
0.17048964 0.031038508 0.021329939
0.16606784 0.024002194 0.021625098
0.15611322 0.0085575879 0.022429224
0.15572479 0.0078149438 0.022410823
0.1553203 0.0071893185 0.022461817
0.17287509 0.033430293 0.021813314
0.16562845 0.022214741 0.022436403
0.16064441 0.014383972 0.022819385
0.15996069 0.013313994 0.022869617
0.15948282 0.012494519 0.022844672
0.1568176 0.0084684938 0.023131188
0.18254191 0.037351489 0.021476313
0.16760793 0.014008313 0.022668939
0.16392803 0.0082340837 0.022938831
0.16372126 0.0079276562 0.022957999
0.19660439 0.048198685 0.020959115
0.19021995 0.038228557 0.021473767
0.18988293 0.037622407 0.021455478
0.18002899 0.02217935 0.022219334
0.17844632 0.019727886 0.022336029
0.16660479 0.0012386739 0.023300346
0.19588442 0.045815155 0.021732509
0.19570081 0.04547064 0.021723419
0.17899001 0.019426525 0.023051146
0.17215969 0.0087804198 0.023618542
0.20276012 0.046712935 0.021199049
0.20241749 0.04611142 0.021215331
0.19964105 0.041893974 0.021477211
0.19037929 0.027368933 0.022190869
0.18924645 0.025531277 0.02224059
0.17795119 0.0079205632 0.023141883
0.20360835 0.046820939 0.021877846
0.19637217 0.035583854 0.022461332
0.18905088 0.024077266 0.023033414
0.20831524 0.044441998 0.021690506
0.20486602 0.038975284 0.021939129
0.20471005 0.038694218 0.021950629
0.20160262 0.033799812 0.022149703
0.20121083 0.03321977 0.022206627
0.19670242 0.02627714 0.022609521
0.19636503 0.025670975 0.022592161
0.2133389 0.042421252 0.021566588
0.21297193 0.041836098 0.021591865
0.20867755 0.035175428 0.021936711
0.19434461 0.012784898 0.023066565
0.19395958 0.01218529 0.023114804
0.19107521 0.0076823086 0.023317084
0.19062966 0.0069825351 0.023361567
0.19025896 0.0064184666 0.023392122
0.18935074 0.0049031824 0.023427632
0.21474916 0.043599352 0.022276474
0.21424836 0.042839274 0.022316001
0.19391154 0.011009738 0.023891762
0.19265898 0.0089959353 0.02396604
0.19230935 0.0084020197 0.023984546
0.19199692 0.007924825 0.024009086
0.219465 0.042371601 0.021548506
0.20672086 0.02237612 0.022520471
0.20253046 0.015969619 0.022897266
0.20203179 0.015077263 0.022885287
0.21453479 0.033616006 0.022744047
0.21089633 0.027857125 0.02300236
0.2025722 0.014875054 0.023675244
0.20164481 0.013308182 0.023700718
0.20042437 0.011529356 0.023838742
0.19812208 0.0079013705 0.02398875
0.22863072 0.047099188 0.021414347
0.22691329 0.043283299 0.022333328
0.22390719 0.039177239 0.022182815
0.22009769 0.033789933 0.022097722
0.21923281 0.032420889 0.022149641
0.21556456 0.025566563 0.023238871
0.21465537 0.025266707 0.022506094
0.20757407 0.014122695 0.023038408
0.2073753 0.012681723 0.023842851
0.22488634 0.031660423 0.022421461
0.22035886 0.023615733 0.023627179
0.21616399 0.018060967 0.023125883
0.21287672 0.012848631 0.023326691
0.21211798 0.011732072 0.023424841
0.21102932 0.009071365 0.02436199
0.20658255 0.0020681024 0.024698379
0.24023709 0.046256691 0.022093434
0.23982948 0.045658529 0.022153109
0.23942184 0.045025945 0.022176454
0.22968663 0.029735729 0.02290618
0.22627696 0.024485961 0.023227474
0.22123808 0.01657249 0.023597147
0.21764858 0.010987982 0.023878684
0.21692364 0.0099208504 0.023964724
0.21176131 0.0017896146 0.024352856
0.24554543 0.046209782 0.021848477
0.24515207 0.045681506 0.021912437
0.22520865 0.014505565 0.02347644
0.2247811 0.013865426 0.023508847
0.22170809 0.0090286136 0.023751549
0.22098987 0.0078067183 0.023758434
0.24471022 0.043967485 0.022788016
0.22713855 0.016405702 0.024121603
0.22627354 0.015215635 0.024243515
0.22591846 0.014617145 0.024253055
0.22531109 0.013683587 0.02431122
0.24419349 0.034938768 0.023138545
0.2372788 0.024061069 0.023638412
0.23664697 0.02316539 0.023735512
0.23578335 0.021918684 0.023828991
0.23551558 0.021358237 0.023820043
0.23163505 0.015258461 0.024094548
0.25392288 0.042107493 0.022852458
0.25145495 0.038192719 0.023017572
0.24972132 0.0353809 0.023110466
0.24910574 0.03448832 0.023188841
0.24505924 0.028096467 0.023488369
0.24276152 0.024487004 0.023630247
0.23613431 0.014220715 0.024207691
0.23598081 0.0058593452 0.024736458
0.2576901 0.031781524 0.023701791
0.25483441 0.027232245 0.023895657
0.25292629 0.024190739 0.024014745
0.2523098 0.023285851 0.024081416
0.25192484 0.022688568 0.024110828
0.25131565 0.021753281 0.024169829
0.25077248 0.020858854 0.024201067
0.24938782 0.018799931 0.024345975
0.2486136 0.017524198 0.024379479
0.24728438 0.015414327 0.024465837
0.24591638 0.01331456 0.024603942
0.24275796 0.0084713399 0.02487516
0.27172053 0.046683908 0.022487955
0.26901391 0.042445242 0.022693936
0.26709443 0.03942126 0.022842998
0.26436833 0.035239875 0.023085013
0.26365769 0.034161568 0.023147976
0.26162779 0.030987114 0.023307936
0.24643108 0.0070079416 0.02439902
0.24466951 0.0043067783 0.024579652
0.24431832 0.0036499202 0.024563989
0.27148259 0.045389384 0.023370748
0.2685886 0.040836811 0.023587782
0.25806826 0.024306223 0.024388451
0.25765082 0.023658782 0.024411853
0.2571786 0.02294445 0.024470624
0.25578123 0.013785422 0.024555553
0.25538856 0.013176054 0.024601307
0.25436935 0.011547431 0.024652204
0.2535257 0.010305166 0.024741873
0.25308329 0.0095591545 0.024766009
0.25037014 0.0053228885 0.024989355
0.25009727 0.0049029142 0.025010385
0.25767782 0.016678154 0.024377609
0.25709099 0.015739858 0.024415389
0.25668976 0.015146971 0.024476124
0.25504181 0.012573466 0.024599537
0.24953541 0.0039779395 0.025037829
0.28170288 0.047342658 0.022606084
0.27607155 0.038625598 0.023074584
0.27127141 0.031091243 0.023447273
0.26849952 0.026851475 0.023697365
0.26823342 0.0264301 0.023712751
0.26773065 0.025638103 0.02374696
0.26588774 0.022782862 0.023895845
0.26521766 0.021700174 0.023940725
0.2642594 0.020117894 0.023981176
0.26373327 0.01926443 0.024028759
0.263152 0.018399954 0.024077611
0.26292634 0.018058419 0.024081975
0.26219419 0.016822696 0.024117984
0.27992415 0.043697029 0.023637999
0.26220554 0.01593487 0.024995111
0.26151663 0.014913827 0.025074774
0.26122761 0.014472291 0.025094345
0.26071686 0.013695687 0.025134433
0.28306484 0.04176867 0.023587886
0.2797693 0.036616921 0.023840122
0.27615112 0.030998737 0.024132101
0.27386066 0.027354836 0.024296749
0.27222055 0.024781078 0.024423167
0.27182224 0.024181902 0.024444956
0.26199687 0.0087205321 0.02517388
0.26061291 0.0066043288 0.025300024
0.25990403 0.0055235624 0.025378697
0.28772521 0.042250216 0.02348581
0.285586 0.038913578 0.02364856
0.28400534 0.036332101 0.023740254
0.28353667 0.035603493 0.023801398
0.28078967 0.031337649 0.024011794
0.28028187 0.030604631 0.024060592
0.27962524 0.029569179 0.024110124
0.27672747 0.024957538 0.024308095
0.27167428 0.017148346 0.024747772
0.2710813 0.01625438 0.024804577
0.27051249 0.01539205 0.024855249
0.27000833 0.014607921 0.02488758
0.26960194 0.013955057 0.024911024
0.26894611 0.01289387 0.02496298
0.26828516 0.011832967 0.024997272
0.26783895 0.011098608 0.025026005
0.26745135 0.010519519 0.02506138
0.26677054 0.0094600618 0.025113922
0.26640868 0.0087749213 0.025101015
0.26589119 0.0079932809 0.025141383
0.2645216 0.0059354901 0.025286702
0.29525 0.047104806 0.023207778
0.29461482 0.046173602 0.023266241
0.29410046 0.04538396 0.023335904
0.29365683 0.044757068 0.023392227
0.29311568 0.043801308 0.023384843
0.29162306 0.041598648 0.023539465
0.28859591 0.03670004 0.023731958
0.28704602 0.034313768 0.023859743
0.28471959 0.030679762 0.024046674
0.284428 0.030222178 0.024073567
0.28395545 0.029472083 0.024102323
0.28338081 0.028533995 0.024120606
0.28005451 0.023429453 0.024427667
0.27795911 0.020056844 0.024565509
0.27580863 0.016746625 0.024731399
0.298722 0.045846164 0.023387279
0.28955561 0.031548262 0.024111316
0.28789318 0.028826803 0.024208404
0.28750759 0.028246433 0.024257988
0.28339946 0.021920919 0.024599627
0.28089589 0.017939031 0.024763647
0.28069574 0.017591506 0.024771471
0.27902925 0.015072241 0.024926672
0.27339923 0.0063229203 0.025395891
0.2727434 0.0052116215 0.025421832
0.27006215 0.00089497864 0.025571156
0.30008817 0.041297674 0.023806455
0.29919893 0.039811015 0.02384476
0.29845929 0.038733244 0.023916498
0.29805058 0.038090914 0.02397229
0.29735216 0.037016958 0.024025582
0.29698008 0.036333323 0.024024449
0.29622856 0.035195649 0.024098188
0.28733096 0.02124092 0.024757819
0.30867153 0.042123258 0.023480006
0.3081609 0.04132697 0.023509525
0.30731186 0.039963633 0.023573909
0.30596703 0.037870437 0.023698833
0.30266759 0.032675236 0.023925044
0.29988277 0.028334171 0.024148256
0.29967022 0.0280599 0.024189569
0.2962845 0.022722185 0.024425354
0.29175407 0.015612155 0.024772335
0.28556398 0.0059022456 0.025252337
0.31310686 0.042488754 0.023880007
0.3122738 0.035338223 0.023831297
0.30959868 0.03111583 0.024055107
0.28648114 -0.0055570155 0.026819728
0.32117379 0.042761207 0.024055716
0.32573903 0.044100851 0.023717351
0.011291072 0.075795442 0.016556701
0.023738474 0.065251589 0.018036999
0.015322179 0.05211769 0.018734902
0.033879377 0.057092637 0.018172111
0.033234626 0.056106642 0.018212795
0.026467092 0.04551293 0.018724693
0.019262373 0.034294575 0.019327607
0.016586259 0.030097961 0.019547677
0.016256928 0.029536858 0.019555684
0.013494492 0.025143683 0.019718541
0.012859076 0.024188876 0.019770494
0.0076608956 0.016120225 0.020226687
0.035793617 0.058702677 0.018565901
0.03407342 0.055985764 0.018702792
0.018822074 0.032087907 0.019852616
0.017289177 0.029752746 0.020018691
0.01651793 0.028504148 0.020064048
0.016348988 0.028230757 0.020079477
0.013003789 0.022982508 0.020309197
0.012581639 0.022340342 0.020329962
0.0079069436 0.015075639 0.020744421
-0.003658101 -0.0030706152 0.021593768
0.053330921 0.063662782 0.017978262
0.038550265 0.040451854 0.019092169
0.035199694 0.035287872 0.01934858
0.0066006258 -0.0094929188 0.021602588
0.0048542321 -0.012237512 0.021684887
0.0015590489 -0.017408289 0.021951903
0.056395911 0.067051336 0.0183248
0.053465039 0.062444106 0.018516898
0.039174519 0.040011227 0.019600842
0.035200663 0.033836305 0.019904781
0.027599193 0.021999076 0.02054923
0.027292423 0.02153565 0.020576172
0.0066405162 -0.010837637 0.022147525
0.002940163 -0.01661361 0.022426303
0.06243448 0.052747846 0.01960016
0.058105789 0.046025828 0.019948844
0.047446921 0.030775219 0.020199623
0.039594933 0.018481657 0.020797759
0.038895354 0.017330065 0.020850701
0.038977869 0.01599659 0.021367222
0.030519418 0.0043134987 0.021544283
0.030361257 0.0040377229 0.021538079
0.025788352 -0.0046024919 0.022420827
0.02167505 -0.010952242 0.022782715
0.015602253 -0.019082032 0.022678753
0.075132884 0.053359792 0.019081511
0.051536731 0.016367778 0.020873111
0.048737675 0.012081668 0.021127209
0.046836801 0.0090705901 0.021247983
0.045848921 0.0075550079 0.021332489
0.034396723 -0.010349825 0.022230016
0.032932609 -0.01270625 0.022316838
0.052346103 0.016247138 0.021406509
0.042424589 0.00082848966 0.022215128
0.041026846 -0.0013534725 0.022324257
0.069732763 0.02436389 0.020912938
0.068163931 0.021901667 0.021022256
0.06788487 0.021459773 0.021041431
0.066861413 0.019898862 0.021160791
0.065660372 0.018001541 0.021240175
0.064025767 0.015395716 0.021318281
0.063723445 0.014940366 0.021345027
0.048410967 -0.0090022087 0.02255189
0.047806166 -0.0099127442 0.022618059
0.043533854 -0.016636953 0.022923769
0.076805457 0.033997655 0.020931233
0.069632947 0.022800967 0.021522645
0.068785883 0.0214912 0.021580663
0.065753572 0.016670629 0.021770157
0.065007046 0.015486956 0.021818286
0.06478177 0.015173838 0.021851495
0.051766574 -0.0051325262 0.022912089
0.09709987 0.04809536 0.019904098
0.08736331 0.032849729 0.020657595
0.085728697 0.030421361 0.020843845
0.077242069 0.017103627 0.021501809
0.075473398 0.014332235 0.021623766
0.097379461 0.047122538 0.0204792
0.085994519 0.029451862 0.021432802
0.085626043 0.028825894 0.021429263
0.085064881 0.027941033 0.021473978
0.077283822 0.015763462 0.022072479
0.099319406 0.032827482 0.021305319
0.098952159 0.032240316 0.021345664
0.098649144 0.03177385 0.021371072
0.095125139 0.027568817 0.020974083
0.087435208 0.015485927 0.021545436
0.086443931 0.013962388 0.021648534
0.086552635 0.012813523 0.022280965
0.085949682 0.012559429 0.02203301
0.11890769 0.047390118 0.020320226
0.10127579 0.01975508 0.021655742
0.11976527 0.047306165 0.020848319
0.11884294 0.045989946 0.020983797
0.11194173 0.035145134 0.021490814
0.10136788 0.018598944 0.022305034
0.1298991 0.048777506 0.02034102
0.12565625 0.042097971 0.020654291
0.12087052 0.034559324 0.021016862
0.13321988 0.052648023 0.020728108
0.12811208 0.044488102 0.0210602
0.1258506 0.041095659 0.021284863
0.11202142 0.019330621 0.022304256
0.10969475 0.015844405 0.022569429
0.10689007 0.011309847 0.022692999
0.12093165 0.018987179 0.022136291
0.1206168 0.018387794 0.022132143
0.11768308 0.013879284 0.022392053
0.11733352 0.013340861 0.02243715
0.13163415 0.034415439 0.021972168
0.1204769 0.016871825 0.022820059
0.15124929 0.050709277 0.021151613
0.14445378 0.039993614 0.021643143
0.12817357 0.014661282 0.022947658
0.12730595 0.013307333 0.023023136
0.15370856 0.041732296 0.021289909
0.14403583 0.026531041 0.021985922
0.15864292 0.048029408 0.021523852
0.14426686 0.025641367 0.022681318
0.14407174 0.025343075 0.022681816
0.1419301 0.021967575 0.022859
0.13474742 0.010791495 0.023422655
0.13381144 0.0092655718 0.023472575
0.16661508 0.047832146 0.021469815
0.15965787 0.036849722 0.021948194
0.15945508 0.036510333 0.021962233
0.15903981 0.035923138 0.022025555
0.15363635 0.027487278 0.022458147
0.1518961 0.024715304 0.022563908
0.15092802 0.023239136 0.022660267
0.14661193 0.016589433 0.023027334
0.14201665 0.0093085766 0.023352467
0.14175859 0.0088491887 0.023332166
0.14097363 0.0076071024 0.023398258
0.14064258 0.0071695447 0.023457488
0.16529514 0.044449091 0.022226619
0.16465664 0.043496445 0.022289816
0.15963154 0.035580769 0.022668336
0.15902328 0.034699723 0.02274934
0.15287827 0.024979889 0.023156337
0.15249419 0.024382383 0.023211995
0.15200935 0.02366209 0.023266548
0.15107992 0.022275031 0.023369607
0.1504955 0.021383718 0.023419093
0.15029737 0.021095335 0.023435814
0.14474151 0.012282744 0.023805844
0.14381953 0.010943756 0.023922388
0.17635633 0.050317287 0.021388613
0.17575964 0.049415827 0.021431625
0.17536768 0.048799038 0.021482021
0.17518859 0.047301427 0.022238966
0.17245619 0.044183955 0.021684378
0.16662635 0.035039499 0.022114847
0.16602314 0.032945305 0.022914041
0.16560972 0.03234601 0.022964213
0.16525 0.031772226 0.022992769
0.16041566 0.025389478 0.022627607
0.15109605 0.0096806586 0.024107506
0.14901514 0.0075017512 0.023482885
0.17017777 0.039345622 0.02254306
0.16732842 0.03491284 0.022788811
0.1667528 0.03397879 0.022818834
0.16647962 0.033563182 0.022850391
0.16041644 0.024141654 0.023353431
0.17439394 0.034748852 0.022503871
0.17366624 0.033446223 0.02247842
0.17285313 0.032249212 0.022584364
0.15768385 0.008613199 0.023793839
0.1574942 0.0083027035 0.023805924
0.19352318 0.052221626 0.022157688
0.19028609 0.048333362 0.021653499
0.1897487 0.046132371 0.02237439
0.18263485 0.035708949 0.022595394
0.18233235 0.034669578 0.023009691
0.1819405 0.0340662 0.023035936
0.17405835 0.022023603 0.023349587
0.17304894 0.021222129 0.02293233
0.17283207 0.020929798 0.022964573
0.17219442 0.020017445 0.023047574
0.17162138 0.019131184 0.023094213
0.17152436 0.017790928 0.023857445
0.16603529 0.0091301948 0.024227746
0.16576892 0.008737728 0.024260003
0.16528445 0.0079740584 0.024301939
0.1913999 0.037725613 0.022877391
0.19082962 0.036799699 0.022924349
0.1899047 0.035234705 0.022948124
0.17236744 0.0079400539 0.024375807
0.17188711 0.0071994513 0.024402544
0.20533237 0.048330739 0.022507221
0.20145592 0.042301595 0.022807891
0.20061474 0.04106465 0.022910751
0.19615902 0.03395009 0.023209065
0.18893987 0.023353457 0.023432491
0.18843627 0.023168176 0.023107737
0.18844002 0.022017568 0.023863945
0.18655023 0.018948883 0.023973474
0.17848602 0.0076198131 0.023863662
0.20967101 0.045414716 0.022372948
0.20930444 0.044827506 0.022387965
0.20834042 0.04325521 0.022440879
0.20777093 0.041235447 0.023262048
0.20639758 0.039075211 0.023367085
0.20490049 0.037835523 0.022685207
0.20286891 0.03480646 0.022917714
0.20253874 0.034225509 0.022928346
0.20143102 0.032422751 0.022974817
0.20111622 0.030941322 0.02381416
0.20085491 0.030512169 0.023843285
0.19652306 0.0247861 0.023368854
0.19599733 0.023891002 0.023384735
0.1952273 0.022825345 0.023488557
0.19503886 0.021965742 0.023894623
0.19473372 0.020921811 0.024307916
0.21601629 0.044401392 0.022937179
0.21550308 0.043687522 0.023010066
0.21347001 0.040434077 0.023142915
0.20626234 0.029257327 0.023740999
0.20168829 0.021991402 0.024044555
0.19349654 0.0092606992 0.02472068
0.21633866 0.044849336 0.022893447
0.20229661 0.022866786 0.023978252
0.20202969 0.022467643 0.023999775
0.22323656 0.046158195 0.022873932
0.22093861 0.042555436 0.023064177
0.21471068 0.032800332 0.023523156
0.20676225 0.020396665 0.024151083
0.2063954 0.019808993 0.024194758
0.20159817 0.012200952 0.024522739
0.20075126 0.010978505 0.024626588
0.2295219 0.046373591 0.022973672
0.22818947 0.044276133 0.023075048
0.22685863 0.042170569 0.023168489
0.2210232 0.033114344 0.023653433
0.22033937 0.032033697 0.023701398
0.21638405 0.025780708 0.023987599
0.21621592 0.025505081 0.023990765
0.21287179 0.020323247 0.024258696
0.21228142 0.019441098 0.024327494
0.21170837 0.018547446 0.024382845
0.21117817 0.01761055 0.024370138
0.233917 0.043716282 0.02337515
0.23283496 0.042024866 0.02344634
0.22674017 0.032561868 0.023965536
0.22231236 0.025507271 0.024248637
0.22211184 0.025212035 0.024278626
0.22154908 0.024459749 0.024361767
0.21752718 0.018084541 0.024650922
0.21303073 0.011018842 0.024986103
0.24406499 0.051287562 0.022674479
0.23826443 0.042129517 0.023069885
0.23247224 0.033077016 0.023526078
0.23144288 0.031573534 0.023660816
0.23123984 0.031279668 0.023674745
0.23062091 0.030193806 0.023695674
0.23035716 0.029717728 0.023691598
0.22706458 0.024593592 0.023955356
0.22220035 0.016991198 0.024327669
0.21592037 0.0071402788 0.024789093
0.21232747 0.0015910864 0.025122419
0.2387858 0.041904479 0.023843877
0.23433484 0.0350146 0.024250705
0.23218685 0.031694531 0.024425928
0.22870256 0.026267543 0.024694925
0.22836342 0.025625825 0.024689142
0.22797354 0.024982497 0.024701741
0.21866725 0.010474473 0.025431029
0.21310155 0.0017234683 0.025857903
0.24429573 0.042311341 0.023660872
0.24118844 0.037387371 0.023851037
0.24081507 0.036837608 0.023915626
0.23789418 0.032299981 0.024145227
0.23655134 0.030213535 0.024271114
0.23212402 0.023300976 0.024626426
0.22728035 0.01563777 0.024963424
0.24404474 0.041844517 0.023647603
0.25674888 0.053577006 0.023014938
0.25304791 0.047924876 0.023353864
0.24804975 0.039943248 0.023674089
0.23349805 0.01727812 0.024826249
0.23079933 0.013039097 0.025039271
0.2295523 0.010999992 0.025105126
0.22804573 0.0087379515 0.025248324
0.22734329 0.0075154305 0.025261845
0.2267286 0.0066108555 0.025332972
0.25892258 0.04882744 0.023255501
0.24617562 0.028829589 0.024230322
0.245599 0.02796036 0.024279244
0.24159886 0.021735609 0.02461721
0.23744664 0.015188843 0.024896473
0.23414564 0.010096416 0.025205202
0.23103288 0.0052446872 0.025432728
0.23009644 0.0037272871 0.025487948
0.2624377 0.046307683 0.023539726
0.25915474 0.041199684 0.023829585
0.25876284 0.040576041 0.023861431
0.25816074 0.039684653 0.023922097
0.25718147 0.0381625 0.023986924
0.25386459 0.032838136 0.024200469
0.25348622 0.032159716 0.024194241
0.25316918 0.031719789 0.024232479
0.25259852 0.030838132 0.024287306
0.26402608 0.040770382 0.024086066
0.26347029 0.03984195 0.024097657
0.25124282 0.020740077 0.025069196
0.25089628 0.020124853 0.025060825
0.24594586 0.01245077 0.025479199
0.24528322 0.011350229 0.025498884
0.2423909 0.0068020821 0.025702994
0.27167171 0.045730472 0.023369893
0.27131218 0.04425478 0.024293484
0.27091771 0.043556482 0.024281643
0.27064019 0.043134153 0.024309468
0.26875019 0.04115355 0.023614425
0.26712984 0.037706912 0.02459465
0.26670974 0.037077099 0.024634719
0.26369667 0.033292741 0.02402186
0.26295382 0.032098204 0.024074811
0.26260746 0.031145096 0.024551034
0.26175898 0.030290127 0.02417206
0.26161817 0.029603124 0.024616018
0.26100138 0.029088527 0.024235565
0.26022893 0.027790487 0.024259694
0.2596817 0.026926666 0.024304874
0.25911325 0.026052237 0.02435039
0.25879556 0.02557534 0.024369635
0.25729018 0.022237062 0.025342919
0.25690019 0.021637991 0.025372492
0.25632858 0.020799205 0.025441216
0.25284606 0.015247807 0.025661737
0.24993914 0.01072 0.025900289
0.24955738 0.010151967 0.025949722
0.24589756 0.0053714663 0.02537136
0.27574223 0.044154733 0.023899432
0.275096 0.043086171 0.023944497
0.27477652 0.042636573 0.023985464
0.27184272 0.038109034 0.024229079
0.27146843 0.037526667 0.024269439
0.26984525 0.034919351 0.02436943
0.26820451 0.032360554 0.024491839
0.26759839 0.031476587 0.024550691
0.2577998 0.015992895 0.025268972
0.25757977 0.015626684 0.025264621
0.25677744 0.014465928 0.025371874
0.25659698 0.014168352 0.025371876
0.25367099 0.0096116066 0.025600538
0.28189129 0.046023548 0.024411984
0.27953586 0.043105513 0.02369329
0.2794165 0.042131335 0.02459934
0.27600861 0.037699401 0.023973664
0.27572173 0.037212431 0.023988519
0.27300718 0.032964617 0.024205048
0.27283895 0.031772554 0.025071701
0.27115735 0.030082762 0.024339132
0.27073699 0.029452741 0.024379047
0.26757073 0.024486542 0.024648231
0.26706702 0.023740754 0.024698824
0.26659757 0.023034528 0.024743779
0.26580071 0.021775708 0.02478908
0.26522809 0.02088502 0.024848722
0.26491782 0.02039066 0.024867805
0.26383561 0.018597201 0.024918351
0.26303983 0.0174077 0.024987977
0.26276967 0.016961679 0.025006056
0.26169676 0.015234739 0.025062041
0.26091269 0.013992921 0.025126193
0.26052034 0.013437301 0.025178406
0.26065254 0.01279591 0.026062451
0.28712681 0.047276318 0.024160832
0.28490272 0.043771237 0.024328982
0.28293645 0.040761143 0.0244992
0.27966559 0.035603613 0.024726637
0.27595621 0.029879779 0.025059059
0.27149713 0.022966176 0.025432542
0.25646976 -0.00069567561 0.026516285
0.28754336 0.041174948 0.024414185
0.28359938 0.034960777 0.02471751
0.27931958 0.028226256 0.025022417
0.27524436 0.021942794 0.025373222
0.29368037 0.043973416 0.024288625
0.29303473 0.042887151 0.024330653
0.29234725 0.041873246 0.024390858
0.29135662 0.040324658 0.024466578
0.28713813 0.033701092 0.024782114
0.26994023 4.6536326e-05 0.026540402
0.27767426 -0.0010570139 0.027113002
0.028598465 0.071486175 0.018249076
0.023521915 0.063474894 0.01861107
0.022981003 0.062619165 0.018681237
0.022643857 0.062136248 0.018717494
0.02924756 0.071043834 0.018718783
0.02482421 0.064046904 0.019001774
0.022890307 0.061073303 0.019220512
0.044801928 0.071331233 0.018403459
0.044966646 0.070151404 0.018940963
0.026485369 0.042672709 0.019831108
0.026053533 0.041964456 0.019865384
0.025609493 0.041196793 0.019845271
0.025392227 0.040152103 0.020112883
0.025333203 0.039331555 0.020378737
0.019635722 0.031938687 0.020340152
0.019021198 0.030920669 0.020380318
0.018456832 0.030091807 0.020435542
0.018094331 0.029520258 0.020473056
0.012586445 0.020875767 0.020873686
0.012760907 0.019694477 0.021406418
0.012384921 0.019112542 0.021446252
0.0081966296 0.0140789 0.021262029
0.0027697906 0.0055409968 0.021682311
0.013606496 -0.0013337731 0.022153566
0.013432935 -0.0016018152 0.022173025
0.0053295195 -0.014335044 0.022763925
0.028790735 0.021009564 0.021572411
0.028012395 0.019802123 0.021629395
0.013667695 -0.0026480108 0.022709152
0.010782592 -0.0071458593 0.02296697
0.0077449903 -0.01337719 0.023717554
0.0051968098 -0.017348453 0.023911716
0.058332145 0.044968933 0.020495031
0.065630071 0.054924831 0.020475
0.063118629 0.051000461 0.020678729
0.062945113 0.050712824 0.020688411
0.049131967 0.029150367 0.021783408
0.026275426 -0.0066483617 0.023531046
0.022366807 -0.012691118 0.023866417
0.076323561 0.052384287 0.020125736
0.053115785 0.01608856 0.021934757
0.052972496 0.015844926 0.02194309
0.049303584 0.010134473 0.022230916
0.049077593 0.0097965896 0.022236019
0.042660892 -0.00020244718 0.022781244
0.040722452 -0.0032302141 0.022940354
0.077622026 0.053040236 0.020607483
0.074924856 0.048824564 0.020827437
0.067445733 0.037145883 0.02143196
0.053952873 0.015998811 0.022449508
0.049239382 0.0086357743 0.022807939
0.048397742 0.0073043853 0.022880254
0.077087954 0.0330396 0.021517631
0.074726291 0.029371917 0.021702044
0.069629639 0.021432742 0.022123419
0.067978553 0.018896505 0.022263955
0.065821186 0.015384227 0.022358308
0.050054573 -0.0092546344 0.023575572
0.045602374 -0.016169421 0.023961514
0.038481735 -0.027346671 0.024501091
0.074988045 0.028384611 0.022278178
0.074760392 0.028032437 0.022294471
0.068719216 0.018659234 0.022797871
0.050717793 -0.0096001774 0.024128092
0.039261125 -0.02750203 0.025030212
0.098214731 0.047206968 0.021103572
0.092142828 0.037562057 0.021508526
0.085299455 0.025548443 0.022688143
0.084875084 0.024904773 0.022720976
0.081302069 0.020739391 0.022429336
0.077550732 0.014773801 0.022642113
0.077139065 0.014136866 0.022673812
0.07685668 0.013040185 0.023034751
0.10040218 0.033167973 0.021856323
0.10015404 0.032779202 0.021878198
0.098603368 0.030292898 0.021959521
0.095577061 0.025601059 0.022213059
0.09541963 0.025310293 0.022228889
0.087505341 0.012907416 0.022817671
0.10113987 0.03296192 0.022416119
0.095663898 0.024338767 0.02281893
0.12280712 0.05087471 0.021308051
0.11194418 0.033761069 0.022112405
0.1083179 0.028186798 0.022427587
0.10127828 0.017168567 0.022968218
0.11879815 0.043257505 0.02226082
0.11188529 0.032364562 0.022784453
0.11137889 0.031600624 0.022825548
0.11068799 0.030532971 0.022884037
0.10912225 0.028146997 0.023041598
0.13035861 0.046863139 0.021617889
0.12611233 0.040175274 0.021918956
0.1209374 0.031999931 0.022283509
0.11999033 0.030576617 0.022373911
0.11952113 0.029842764 0.022415992
0.10821187 0.012138978 0.02330057
0.10757761 0.011067867 0.023296421
0.10710081 0.010320649 0.023326321
0.13465318 0.052229449 0.021942256
0.13389567 0.051044449 0.021987732
0.1333524 0.050077915 0.021951241
0.13034247 0.045540079 0.022281069
0.11094707 0.015156031 0.023775594
0.10838334 0.011026561 0.023900231
0.13557544 0.039282665 0.022341151
0.13421549 0.037124991 0.022456603
0.12804991 0.027485624 0.02291986
0.12772211 0.026978344 0.022949073
0.12745968 0.026544318 0.022960842
0.120509 0.015626431 0.023496
0.12019698 0.015161276 0.023516625
0.11930319 0.013773456 0.023578636
0.11834677 0.012311727 0.023685351
0.13425988 0.035830364 0.023100283
0.13209099 0.032533556 0.023268413
0.12111885 0.015287861 0.024109507
0.14656092 0.042113259 0.022208387
0.14605963 0.041341931 0.022259636
0.13705087 0.027202174 0.022908904
0.13463266 0.023471087 0.023133893
0.12886262 0.014453158 0.023566259
0.12698403 0.011494324 0.023736138
0.12658799 0.01089415 0.02375672
0.1262401 0.010381296 0.023784291
0.14361462 0.036261171 0.023135616
0.14303209 0.035370797 0.023184486
0.13933325 0.029614612 0.023490991
0.13727877 0.026270196 0.023570172
0.13477471 0.022362664 0.023775384
0.12835844 0.012370855 0.024295241
0.12718247 0.010534167 0.024388414
0.15921891 0.047654092 0.022158116
0.15868492 0.046318501 0.022598185
0.1585993 0.045563743 0.022964938
0.15728706 0.043498725 0.023061646
0.1540672 0.039729387 0.02263334
0.15357886 0.038926274 0.022642892
0.14448094 0.023498297 0.024056204
0.13999975 0.017755374 0.02370524
0.14010218 0.01664333 0.024398677
0.13615036 0.011708438 0.024018046
0.13589779 0.010881424 0.024254503
0.1347179 0.0094448924 0.024118319
0.13438326 0.0089168102 0.024137631
0.16274635 0.051934704 0.022601157
0.15923937 0.046477586 0.022880588
0.15339309 0.037348658 0.023351664
0.15281335 0.036431357 0.023372697
0.1687474 0.048639655 0.022696018
0.16779894 0.047211811 0.022792559
0.16597143 0.044271201 0.022888875
0.1652849 0.04319115 0.022941589
0.15923755 0.033798948 0.023453722
0.15893331 0.03331922 0.023478683
0.15089217 0.02199921 0.023404293
0.15053362 0.020194441 0.024126753
0.15015537 0.019534603 0.02410212
0.14999261 0.019228861 0.024093196
0.14679715 0.015627876 0.023724962
0.14698645 0.014692545 0.024417974
0.14532864 0.011956722 0.024468176
0.14494345 0.011388525 0.024516616
0.17596871 0.047291845 0.022877229
0.17527351 0.046218932 0.022937527
0.17481521 0.045494825 0.022976171
0.16666064 0.032663241 0.023570381
0.16545674 0.030876279 0.023709789
0.16523962 0.030549705 0.023713488
0.16102305 0.023864761 0.024016902
0.15982999 0.022020563 0.024102177
0.15947403 0.021447897 0.024121618
0.16611977 0.020567968 0.023869529
0.18335329 0.046241179 0.023231525
0.16613257 0.019388065 0.024615496
0.18410413 0.036201462 0.023581304
0.18193927 0.032870725 0.023772974
0.18123905 0.031786725 0.02383825
0.18096519 0.031314403 0.023830786
0.18044037 0.030413359 0.023856642
0.1800051 0.029790789 0.02391639
0.1750484 0.022072569 0.024316333
0.17131199 0.016152799 0.024551582
0.16695333 0.009395197 0.024906278
0.19919798 0.048618242 0.0229728
0.18906496 0.032881171 0.023812361
0.17314652 0.0079828799 0.025058456
0.1997671 0.048355982 0.02371013
0.1960105 0.042490929 0.02399826
0.19120507 0.034996077 0.024381012
0.19088052 0.034400344 0.024361119
0.19025117 0.03349632 0.024457809
0.20473751 0.046286404 0.023342054
0.19683434 0.033860922 0.023915917
0.19627155 0.032990828 0.023971269
0.18860999 0.021128207 0.024612844
0.18782702 0.019916221 0.024682742
0.18589085 0.016844824 0.02481693
0.18552457 0.016292542 0.024853665
0.18456307 0.014800459 0.024938185
0.18411633 0.013963655 0.024894886
0.18360999 0.01319392 0.024960719
0.21079509 0.044906452 0.023837136
0.20085976 0.029377967 0.024616038
0.19464576 0.019639358 0.025086626
0.19430389 0.019052461 0.025092445
0.19370419 0.018109396 0.025132578
0.19321896 0.017365694 0.025173716
0.18777844 0.0088974386 0.025629122
0.22099374 0.05116035 0.023375448
0.21739462 0.045386955 0.023605147
0.21696259 0.044710279 0.02362879
0.21113661 0.035673365 0.024112608
0.20796278 0.03068924 0.024335112
0.20619796 0.027992129 0.02452459
0.20142575 0.020570472 0.024907921
0.21689092 0.034995154 0.024122946
0.21653992 0.034525737 0.024176657
0.21493334 0.031982869 0.024279689
0.21259636 0.028334513 0.024467908
0.21240689 0.028006002 0.024475345
0.20640565 0.018716887 0.024979293
0.20078325 0.009893626 0.025413154
0.1996709 0.0080706775 0.025456112
0.19767067 0.0050339401 0.025650555
0.2271051 0.049935967 0.024147447
0.22671285 0.049331531 0.024187367
0.22210239 0.042136073 0.024557348
0.21745613 0.034766853 0.024862668
0.20634697 0.017515764 0.025754299
0.22800867 0.042828307 0.023870677
0.22737524 0.041928694 0.023932986
0.22605883 0.039977759 0.024089415
0.22577815 0.039376274 0.024065048
0.22530103 0.038589999 0.024065431
0.22278248 0.034650624 0.024269089
0.21694471 0.025546268 0.024730075
0.21264088 0.01890856 0.02509905
0.21171832 0.017435983 0.025184816
0.20625715 0.0089388043 0.02561244
0.22353499 0.034793228 0.025040967
0.23527896 0.044874221 0.02410746
0.23350574 0.042016 0.024199687
0.23265885 0.040752187 0.024300398
0.22765906 0.032917008 0.024671644
0.22750182 0.032658011 0.024689913
0.22359104 0.026586697 0.025021829
0.22316359 0.025933728 0.02504752
0.23429349 0.033924863 0.025089256
0.2243848 0.018468082 0.0258632
0.22404024 0.017888129 0.025880434
0.21939698 0.010557681 0.026199475
0.24367675 0.040294856 0.024516203
0.243269 0.039696485 0.024575688
0.24193735 0.037569657 0.024664916
0.24016203 0.034842193 0.024804145
0.23920977 0.03332597 0.024891388
0.23866063 0.032466546 0.024905697
0.23764187 0.030906036 0.025008246
0.23334269 0.024086669 0.025314748
0.22971527 0.018523112 0.02564982
0.22931623 0.017944083 0.025684502
0.22884804 0.017183945 0.025717158
0.22832085 0.01638554 0.025752507
0.25296766 0.04682976 0.024201013
0.252552 0.046161175 0.02421727
0.2515316 0.044476867 0.024278965
0.25090176 0.043456107 0.024329174
0.24865963 0.039933205 0.024469025
0.24758452 0.038265169 0.024555724
0.24918808 0.040675849 0.024411973
0.24164784 0.027964517 0.025848648
0.26098704 0.051140666 0.023980428
0.25907886 0.048100114 0.024100248
0.24785006 0.030526116 0.024962839
0.24762385 0.030191869 0.024986787
0.24724019 0.029605925 0.025034569
0.24109447 0.019943461 0.025496587
0.24051364 0.019011706 0.025522666
0.2400703 0.018396482 0.025572
0.23969369 0.017832413 0.025631268
0.23865424 0.015851155 0.025988912
0.23132554 0.0037671477 0.027131069
0.26627165 0.051301241 0.024095166
0.26245028 0.045414507 0.024418147
0.25330114 0.031025857 0.02510272
0.24437736 0.017061085 0.025808595
0.23915565 0.0089626312 0.026237814
0.25172171 0.027517691 0.026053954
0.24880236 0.022982478 0.026287582
0.24630061 0.0190842 0.026489081
0.24017963 0.0095657408 0.026981581
0.26778686 0.045773536 0.024675164
0.2673257 0.045036793 0.024712397
0.26325065 0.038717836 0.025053948
0.24354093 0.0079087168 0.026572019
0.26592058 0.042737871 0.024791587
0.24521357 0.010329515 0.026365295
0.24309622 0.0069880337 0.026539825
0.27501482 0.049101025 0.024865087
0.26873618 0.039214164 0.025310028
0.26685008 0.036413968 0.025528684
0.25132114 0.012004748 0.026696365
0.25079763 0.011201754 0.026719358
0.27884132 0.0481534 0.024560133
0.27156141 0.036792874 0.025142401
0.26740378 0.030355483 0.02549307
0.28374052 0.048098475 0.025178056
0.2754547 0.035029411 0.025783878
0.27958995 0.034630239 0.025660805
0.26159388 0.0064608604 0.027040469
0.2657105 0.0061297417 0.026993344
0.012548715 0.071973205 0.01852563
0.012042716 0.071192011 0.018567994
0.012031108 0.06970261 0.019099493
0.011617519 0.06901665 0.019134225
0.01222942 0.068540573 0.019608896
0.030329362 0.071240366 0.019162172
0.029874071 0.070569277 0.019194614
0.025927186 0.06427756 0.019468576
0.025725424 0.063971177 0.019474393
0.023110941 0.059978843 0.019722451
0.022975042 0.059726685 0.019714132
0.016159341 0.0491146 0.020272568
0.031232722 0.071150526 0.019599384
0.026557438 0.063819945 0.019947354
0.023251295 0.058705971 0.020214409
0.01681152 0.048691005 0.020750783
0.045180112 0.069014162 0.019471936
0.025583699 0.038296074 0.02092333
0.012813225 0.018349975 0.021949731
0.0029193833 0.002929993 0.022743493
0.045443773 0.067990258 0.019994963
0.025737941 0.037121043 0.021454461
0.0093481615 0.011568964 0.02279445
0.0031991005 0.001923278 0.023270072
0.025870167 0.035895243 0.021985816
0.00087839365 -0.0031687915 0.023930317
0.017808132 0.002424106 0.022976942
0.013888896 -0.0037140846 0.023257228
0.054888129 0.058979943 0.020653259
0.041134469 0.037394568 0.02168378
0.03082113 0.021370992 0.022534192
0.01842805 0.0019723997 0.023484306
0.017912723 0.0011204928 0.023526277
0.041764542 0.03697297 0.022191394
0.030852273 0.019996196 0.023079487
0.018130556 6.7844987e-05 0.024076492
0.014599517 -0.005461596 0.024308231
0.0073119625 -0.016938724 0.02483562
0.065920599 0.05394876 0.021032698
0.058776557 0.042826876 0.021615105
0.058063403 0.041722387 0.021659879
0.055887982 0.038414285 0.021870606
0.055531085 0.037805915 0.02189658
0.039199397 0.012143254 0.023065854
0.038740396 0.011425301 0.023122996
0.026735343 -0.007340394 0.024072763
0.026200593 -0.0081276149 0.024120186
0.058679476 0.04128468 0.022185139
0.058103271 0.040391043 0.022223249
0.057752661 0.039828077 0.02226368
0.057093516 0.038825586 0.022333818
0.056682073 0.038209513 0.022381214
0.055981874 0.037103713 0.022426724
0.040954798 0.0134563 0.023519088
0.07509049 0.047683746 0.021400146
0.070704617 0.040867701 0.021791779
0.067327604 0.035551906 0.022035792
0.055136651 0.016524568 0.022974126
0.054575384 0.015597463 0.022998862
0.049315058 0.007341072 0.023387302
0.043244809 -0.0020654052 0.02391644
0.075044163 0.046212897 0.021994764
0.074615829 0.04551138 0.02202915
0.070947111 0.039859936 0.022360284
0.067460947 0.034344181 0.022572875
0.055404849 0.015523687 0.023533244
0.043367505 -0.0032705665 0.02449299
0.040722035 -0.0074736327 0.02465377
0.036427088 -0.014158472 0.025002964
0.034930505 -0.016537763 0.025103938
0.090281896 0.051020086 0.021741483
0.089885496 0.050388649 0.02176185
0.077512749 0.030976132 0.022692315
0.074990153 0.027019635 0.022874404
0.0682799 0.016619667 0.023459228
0.067199796 0.014872581 0.023497391
0.051330596 -0.010026634 0.024676463
0.090302221 0.049676731 0.022331065
0.089733057 0.04876928 0.022385959
0.086223163 0.043275431 0.022634003
0.069785781 0.017538011 0.023909267
0.10134773 0.04931064 0.022061097
0.10044277 0.047902226 0.022124991
0.099610478 0.04663834 0.022232216
0.092476271 0.035415173 0.022735156
0.085996404 0.025289685 0.023249663
0.084992796 0.023710489 0.023310367
0.10267461 0.0499883 0.022567742
0.10217402 0.049222723 0.022613451
0.10146252 0.048134744 0.022666156
0.10117064 0.047676623 0.022681668
0.10058026 0.046785325 0.022743128
0.085028671 0.02240558 0.023921402
0.082200781 0.018033072 0.024171956
0.11734256 0.055528253 0.022388071
0.11197422 0.047806263 0.022481792
0.11134693 0.046858564 0.022523221
0.11109281 0.045789853 0.022864312
0.10231862 0.033361405 0.022904677
0.10221837 0.032574087 0.023260634
0.099199101 0.02847214 0.02314027
0.099440955 0.027466074 0.023713678
0.096232899 0.022530064 0.024016976
0.095142305 0.020822883 0.024087725
0.092254423 0.016316101 0.0243244
0.11954734 0.043081641 0.022850476
0.11139901 0.030308709 0.023461191
0.11080834 0.029380247 0.023505574
0.11031632 0.028642237 0.02355371
0.10190899 0.015486181 0.024204794
0.12587336 0.051577985 0.022989798
0.12389438 0.048571497 0.023142148
0.11948983 0.041641712 0.023486469
0.11926965 0.04129748 0.023498623
0.13408959 0.050019071 0.022597451
0.13393657 0.049723461 0.022582831
0.12911057 0.04214628 0.022949476
0.12892605 0.041854054 0.022962017
0.12660311 0.038259327 0.023172684
0.12000482 0.027953848 0.023687929
0.11970886 0.027493268 0.023724545
0.11201266 0.015415624 0.024296314
0.13593206 0.051529035 0.023115501
0.13300149 0.046964645 0.023349047
0.13139966 0.044537023 0.023506703
0.12669018 0.036996067 0.023782033
0.11979296 0.026280805 0.024369806
0.11946335 0.025777385 0.024399962
0.11325638 0.016003206 0.024846548
0.11224259 0.014478996 0.024955202
0.13227096 0.031529739 0.023924753
0.14756536 0.039847732 0.024176285
0.1466236 0.038347766 0.024233995
0.14643712 0.037993908 0.024209619
0.14383993 0.035346016 0.023819085
0.14343965 0.034741804 0.023835694
0.14270122 0.03350012 0.023840148
0.14290191 0.033174902 0.024166994
0.14268798 0.032104924 0.024509087
0.13977879 0.027734756 0.024815373
0.1374886 0.025353804 0.024255482
0.13492589 0.02125521 0.024418913
0.13493539 0.01998657 0.025103189
0.13463268 0.019545317 0.025154801
0.12863934 0.010225326 0.02564729
0.16062219 0.047319099 0.023445427
0.15822394 0.043733925 0.02368683
0.15400827 0.037049294 0.023989491
0.15320967 0.035807312 0.024044553
0.14471132 0.022593275 0.024736544
0.1348681 0.0071062297 0.025465056
0.1507109 0.019211546 0.024790548
0.15031984 0.017224431 0.025498021
0.14920181 0.015592068 0.025623865
0.17778723 0.04881829 0.023419812
0.17478777 0.044237226 0.023700852
0.1742173 0.043258145 0.023706721
0.17229111 0.040323615 0.023890134
0.16849576 0.034366533 0.024186777
0.16527712 0.029360071 0.024439158
0.1648329 0.028590828 0.024426039
0.16063578 0.022011176 0.024749644
0.159502 0.020299941 0.024846263
0.17561704 0.044273987 0.024332866
0.17498623 0.043318689 0.024403164
0.17444234 0.042365268 0.024404556
0.17385088 0.04147777 0.024473613
0.17192145 0.038513526 0.024644211
0.17096654 0.036906764 0.024665084
0.1694763 0.034654275 0.024796745
0.16496313 0.027530923 0.025123779
0.15969966 0.019367248 0.025553789
0.15931642 0.018759727 0.025590807
0.15798074 0.01658693 0.025648771
0.15598428 0.013575241 0.025869407
0.15465483 0.011452466 0.025928382
0.18836805 0.052966893 0.023613982
0.18321618 0.044894502 0.023993796
0.18273117 0.04414019 0.024044707
0.17151806 0.025233209 0.02557192
0.19572456 0.05201292 0.02417865
0.19549586 0.051693976 0.024198845
0.19488586 0.050783008 0.0242725
0.19340959 0.04949753 0.023559192
0.19056316 0.043848932 0.024542421
0.18199028 0.031728134 0.024516914
0.1809856 0.030093819 0.024559762
0.18037291 0.029179052 0.024618318
0.17978542 0.028283879 0.024674147
0.17931968 0.02758573 0.024728652
0.17846383 0.026241794 0.024798468
0.1785032 0.024971232 0.025459111
0.17781764 0.025098979 0.024771262
0.17779487 0.023912638 0.025548443
0.17694169 0.022605225 0.025610998
0.17622136 0.022104681 0.025316052
0.17204946 0.01619941 0.025279898
0.17167386 0.015556186 0.02527689
0.17146784 0.014025062 0.026036402
0.16796835 0.0085492432 0.026304552
0.16728112 0.0081058592 0.025995281
0.16509932 0.0040856451 0.026539128
0.20037356 0.048584044 0.024183098
0.19665353 0.042309895 0.024690229
0.19563387 0.040841401 0.024823617
0.18980592 0.032890603 0.02451019
0.18922153 0.030789971 0.02531041
0.18862307 0.029788241 0.025333809
0.18824244 0.029168367 0.025351509
0.18763304 0.028257027 0.025403719
0.17643259 0.010782719 0.026311722
0.2053016 0.044874892 0.024823107
0.20373918 0.042466059 0.024972636
0.20169987 0.040435553 0.024353098
0.20097676 0.039365813 0.024436135
0.20064931 0.037572265 0.025168423
0.19577733 0.031212762 0.024839021
0.19546512 0.030156896 0.02524039
0.19520934 0.029128656 0.025635429
0.1867536 0.017038867 0.025514197
0.18532014 0.014855459 0.025646644
0.18513098 0.014547572 0.025674528
0.18457761 0.012382373 0.0263943
0.17836133 0.0026952326 0.026892483
0.21096934 0.044073507 0.024603335
0.20090044 0.028326675 0.025386384
0.19200847 0.014395967 0.026072547
0.20072216 0.028011292 0.025371671
0.20079921 0.026861042 0.026102461
0.19319761 0.016207293 0.025964836
0.19241025 0.015005499 0.026038192
0.22045448 0.049064919 0.02415517
0.21827611 0.045804083 0.024366966
0.21361637 0.037368789 0.025506254
0.21236521 0.035693184 0.025313575
0.21170792 0.03541407 0.024832904
0.2113187 0.033730835 0.02566679
0.20930444 0.030531943 0.025810486
0.20862347 0.030580789 0.025067208
0.20102023 0.018806383 0.025716186
0.20046607 0.017864153 0.025728583
0.20010822 0.016133308 0.026538635
0.19658886 0.010691598 0.026819769
0.22688991 0.048522621 0.024971366
0.20559539 0.015174285 0.026597852
0.22387111 0.035424635 0.025043968
0.21028037 0.014188573 0.026102446
0.20466317 0.0053793937 0.026534442
0.22439016 0.035206676 0.025836205
0.21938546 0.027307108 0.026187792
0.21851687 0.025934353 0.026249222
0.21551499 0.021244839 0.02649842
0.23908266 0.049627841 0.02457143
0.23787297 0.047818452 0.024692502
0.23767415 0.047527671 0.024733454
0.23497446 0.043284848 0.024930447
0.23113924 0.037219033 0.02520841
0.2237148 0.025738895 0.025825066
0.21960717 0.019231588 0.026121233
0.21931414 0.018788949 0.026143065
0.21886237 0.01812315 0.026186062
0.23671672 0.044937193 0.025600867
0.23262227 0.038569838 0.025946654
0.22961654 0.034008399 0.026216425
0.2294708 0.033731967 0.026219202
0.22605336 0.028198481 0.026414033
0.22567995 0.027641237 0.026451156
0.22067277 0.019801512 0.026849076
0.21633662 0.013134152 0.027208893
0.2448377 0.049321115 0.025063999
0.24374846 0.047659218 0.025159054
0.24356887 0.047377318 0.025171746
0.23017709 0.026497588 0.026244782
0.22988155 0.026068226 0.026274338
0.22510976 0.018572092 0.026633915
0.24861889 0.046104848 0.0258669
0.2354929 0.026526615 0.026012512
0.23494618 0.025240943 0.026506171
0.23396692 0.024065122 0.026115943
0.23136027 0.019996479 0.026318803
0.23095301 0.019347161 0.026340701
0.23058884 0.018775851 0.026372211
0.22944944 0.017122671 0.02650244
0.22290362 0.0068616122 0.02701677
0.24811609 0.038101643 0.025369249
0.24735868 0.036918104 0.025430333
0.23494853 0.017559618 0.026416168
0.23444207 0.01681684 0.026465336
