# .PCD v0.7 - Point Cloud Data file format
VERSION 0.7
FIELDS x y z
SIZE 4 4 4
TYPE F F F
COUNT 1 1 1
WIDTH 1341
HEIGHT 1
VIEWPOINT 0 0 0 1 0 0 0
POINTS 1341
DATA ascii
-0.182385 -0.6980989 0.023037679
-0.18185401 -0.69810712 0.023035936
-0.13939115 -0.69811255 0.023050083
-0.13865806 -0.69808877 0.023020079
-0.18276048 -0.69736409 0.023615941
-0.13868785 -0.69735622 0.023593919
-0.18863419 -0.68852699 0.023161083
-0.18885542 -0.68780535 0.023777815
-0.19782127 -0.67029464 0.023726255
-0.19477433 -0.67064035 0.023412649
-0.20143911 -0.66237587 0.023560883
-0.20040706 -0.66238225 0.023574265
-0.19965361 -0.66238499 0.023564558
-0.2092513 -0.64664096 0.023874601
-0.21271524 -0.63957101 0.023776408
-0.22050531 -0.62621248 0.02347042
-0.22501954 -0.61922461 0.023938112
-0.22471482 -0.61989772 0.023258694
-0.23529297 -0.6013515 0.023792621
-0.23469049 -0.60164833 0.023411786
-0.236412 -0.59590566 0.023603022
-0.24166349 -0.59051687 0.023584414
-0.24442829 -0.58034807 0.023137312
-0.25145414 -0.57504171 0.023532584
-0.25728899 -0.56560433 0.023069214
-0.25554237 -0.56542355 0.023346702
-0.25376725 -0.56532454 0.023456443
-0.26783466 -0.54313433 0.023241684
-0.2711812 -0.53866094 0.023803962
-0.28357539 -0.5190419 0.023785681
-0.28307799 -0.50780958 0.023830848
-0.28835678 -0.49721694 0.023779405
-0.13150324 -0.75146389 0.024239128
-0.13260776 -0.75068259 0.024773629
-0.13144369 -0.75069273 0.024749395
-0.17615674 -0.70622319 0.024328504
-0.18296537 -0.69662142 0.024193911
-0.18851025 -0.68633825 0.024945214
-0.19786742 -0.66956878 0.024335461
-0.20166597 -0.66165626 0.024183838
-0.20321645 -0.66090423 0.02476096
-0.20247279 -0.66091281 0.024767751
-0.20175445 -0.66092855 0.024784921
-0.20631151 -0.65305376 0.024860516
-0.20573126 -0.65376103 0.02421744
-0.20961422 -0.64595288 0.024524361
-0.21294765 -0.63889569 0.024438674
-0.21761897 -0.63183218 0.024495477
-0.21475163 -0.63187194 0.024557063
-0.22056293 -0.62555093 0.024176328
-0.22058079 -0.62488413 0.024847044
-0.2250189 -0.618595 0.024635039
-0.22910951 -0.61241329 0.024706034
-0.23069856 -0.60656184 0.024541654
-0.23701736 -0.60078037 0.024556583
-0.23596151 -0.60079145 0.024592219
-0.23649535 -0.59527421 0.024335397
-0.24251373 -0.58992583 0.024344986
-0.24635644 -0.58454168 0.024453916
-0.24560009 -0.58454275 0.024448229
-0.25425655 -0.56979078 0.024066331
-0.27209345 -0.5382089 0.024698541
-0.26591441 -0.53819108 0.02467498
-0.27124712 -0.53424603 0.024487829
-0.2709136 -0.53424555 0.024500411
-0.28378397 -0.51864177 0.024690105
-0.28666124 -0.50062215 0.024047889
-0.29219869 -0.49685156 0.024704337
-0.13254039 -0.74952728 0.025518708
-0.13168165 -0.74990821 0.025263499
-0.12818642 -0.74911708 0.025711237
-0.17604358 -0.70473284 0.0254215
-0.18303423 -0.69513184 0.02533
-0.18269351 -0.69513214 0.025331149
-0.18295182 -0.69440472 0.02589401
-0.1954813 -0.67645741 0.025667246
-0.19755149 -0.66812748 0.025548436
-0.20442002 -0.66018659 0.025354939
-0.20325845 -0.66019058 0.025377627
-0.20653832 -0.65235925 0.02549386
-0.20998698 -0.64526725 0.025169948
-0.21295939 -0.63821584 0.025104964
-0.22509585 -0.61794448 0.025345623
-0.23820055 -0.60015655 0.025286175
-0.23712935 -0.60014516 0.025289044
-0.23707335 -0.59405172 0.025811518
-0.236977 -0.59465861 0.025059005
-0.24234363 -0.58872676 0.025862398
-0.24109823 -0.58394331 0.025212329
-0.2514725 -0.57336259 0.025911581
-0.2479118 -0.57329035 0.025849812
-0.25475496 -0.56866598 0.025650166
-0.2725881 -0.53775692 0.025569974
-0.27971417 -0.52596217 0.025296384
-0.12819973 -0.74834424 0.026211534
-0.12518179 -0.7475909 0.02673682
-0.14837946 -0.70325947 0.026569426
-0.14729205 -0.70327705 0.026597273
-0.14650939 -0.70327741 0.026595159
-0.18300021 -0.69366521 0.026472576
-0.18813848 -0.68487155 0.026111025
-0.19762133 -0.66740257 0.026150906
-0.20671785 -0.65164912 0.026117541
-0.2103164 -0.64387709 0.026485238
-0.20979789 -0.64387614 0.026477495
-0.21694887 -0.63686752 0.026434161
-0.21990091 -0.62990403 0.026619434
-0.22038764 -0.62355506 0.026225559
-0.22520214 -0.61733091 0.026091065
-0.22527455 -0.61669666 0.026831757
-0.22890423 -0.61114597 0.026139833
-0.22898126 -0.61051148 0.026863184
-0.23723228 -0.59347373 0.026600996
-0.24945579 -0.57805109 0.026273692
-0.25155079 -0.57281727 0.026706688
-0.25829017 -0.56810218 0.026458209
-0.25611994 -0.56807178 0.026415007
-0.25501662 -0.56811744 0.026445929
-0.28392336 -0.51783949 0.026503973
-0.28779441 -0.50674629 0.026619354
-0.12525257 -0.74640191 0.027473006
-0.12256964 -0.7467972 0.027236298
-0.12561077 -0.74599701 0.027706549
-0.14836305 -0.70250481 0.027120516
-0.14745909 -0.7025249 0.027142655
-0.14654368 -0.70253217 0.027148534
-0.14563388 -0.70252419 0.027142636
-0.14460137 -0.70251572 0.02714761
-0.14330727 -0.70177823 0.027707273
-0.18332562 -0.69253206 0.027298046
-0.1878244 -0.68340153 0.027272176
-0.19141072 -0.6826542 0.027813161
-0.19628263 -0.67466104 0.027171927
-0.19701159 -0.67393643 0.027759053
-0.19628905 -0.67393464 0.027769584
-0.19728507 -0.66596049 0.0273668
-0.20661667 -0.65024489 0.027389526
-0.21025398 -0.64249068 0.027766354
-0.21704857 -0.6361838 0.027108228
-0.22050385 -0.62221026 0.027593251
-0.22551109 -0.61604917 0.027524974
-0.2293056 -0.60988456 0.02759916
-0.23103805 -0.6043576 0.027068963
-0.23885004 -0.59826028 0.027471714
-0.23730972 -0.59291673 0.027399942
-0.24222277 -0.58753961 0.027391484
-0.24641764 -0.58221895 0.027544396
-0.24957588 -0.57745081 0.027039548
-0.24966267 -0.5768801 0.027805084
-0.27470571 -0.52510548 0.027073067
-0.2749812 -0.52470911 0.027983816
-0.28411809 -0.51744139 0.027407443
-0.12231121 -0.74525547 0.028240552
-0.12014918 -0.74523121 0.028208977
-0.11981774 -0.74523115 0.028214058
-0.11759125 -0.74445081 0.028702889
-0.11589265 -0.7444337 0.028707478
-0.17711663 -0.71066213 0.02863463
-0.17636733 -0.71066606 0.028642388
-0.17537731 -0.71065253 0.028637806
-0.17453815 -0.71063328 0.028632604
-0.17353037 -0.71064925 0.02863129
-0.16173692 -0.71062225 0.028596764
-0.15910164 -0.71064907 0.028621435
-0.15881629 -0.71064097 0.02863968
-0.18747601 -0.69144821 0.028173745
-0.19184217 -0.68191826 0.028401839
-0.2069281 -0.64957863 0.028050534
-0.21321128 -0.63476181 0.028371975
-0.21936865 -0.62789154 0.028653475
-0.22578016 -0.61539489 0.028223775
-0.23281598 -0.60856032 0.028975084
-0.23120436 -0.60314834 0.028573349
-0.23810902 -0.59233546 0.028156316
-0.23820651 -0.59170902 0.028896021
-0.24473412 -0.57627702 0.028575743
-0.24785407 -0.5715968 0.02823008
-0.26787215 -0.54030037 0.028443003
-0.27313709 -0.53640515 0.028198587
-0.27985191 -0.52430534 0.028889274
-0.28434691 -0.51703566 0.028314184
-0.28265691 -0.51325047 0.028610326
-0.2854937 -0.50607085 0.028513359
-0.1197563 -0.74366963 0.029207544
-0.11717454 -0.74290138 0.029690282
-0.17825739 -0.70987588 0.029175242
-0.17768209 -0.70989215 0.029175723
-0.1763887 -0.70991033 0.029184317
-0.17566848 -0.70991015 0.029182065
-0.17313644 -0.70990551 0.029174877
-0.1723996 -0.7098828 0.029158965
-0.15773645 -0.70912999 0.029726056
-0.15588221 -0.70908374 0.029641099
-0.15480821 -0.70908427 0.029651873
-0.18734774 -0.68957877 0.029582445
-0.19185565 -0.68119133 0.029001029
-0.19671997 -0.67177129 0.029574959
-0.21028857 -0.64112908 0.029090144
-0.21507157 -0.64047199 0.029782083
-0.21076117 -0.64044386 0.029762821
-0.21676335 -0.6341722 0.029101726
-0.21946743 -0.63340819 0.029708862
-0.2194711 -0.62722564 0.029326469
-0.2210016 -0.6203106 0.029703133
-0.22551486 -0.61410671 0.029625949
-0.22920941 -0.60863215 0.02904276
-0.23292534 -0.60793674 0.029694753
-0.22931954 -0.60799432 0.029761715
-0.24627629 -0.58103591 0.029087881
-0.24643555 -0.58042049 0.029835301
-0.24992605 -0.57570416 0.02934981
-0.27339956 -0.53594893 0.029084565
-0.2770569 -0.51662213 0.029205054
-0.17823699 -0.70835716 0.030237189
-0.16019522 -0.70836729 0.030228725
-0.1535396 -0.70834047 0.030195842
-0.1785745 -0.70759743 0.030763753
-0.15443319 -0.70756841 0.03071538
-0.1873782 -0.68845934 0.03043836
-0.19221382 -0.67900276 0.030750707
-0.1915521 -0.67971253 0.030164992
-0.19174218 -0.67899132 0.03074825
-0.19671568 -0.67104888 0.030188024
-0.21512589 -0.63976294 0.030412605
-0.2165671 -0.63280874 0.03043066
-0.22242635 -0.62580627 0.030607279
-0.21922843 -0.62589061 0.030681934
-0.24655367 -0.57981539 0.030606795
-0.2533907 -0.57462019 0.03096075
-0.25153446 -0.56994689 0.030638846
-0.28030008 -0.52344793 0.030675547
-0.28274065 -0.51250815 0.030455874
-0.28464186 -0.50870001 0.03080567
-0.29024786 -0.5053795 0.030372737
-0.13503203 -0.75196606 0.031990945
-0.17865187 -0.70635444 0.031673685
-0.15520181 -0.70681483 0.031277977
-0.15441743 -0.70682019 0.031268723
-0.15297347 -0.70607072 0.031819656
-0.15195355 -0.70607311 0.031842574
-0.18708403 -0.68697906 0.031581506
-0.19219604 -0.67826921 0.031329121
-0.19637133 -0.6696043 0.031404689
-0.20716205 -0.64610749 0.031254057
-0.21529779 -0.6390599 0.031050596
-0.21915334 -0.63204932 0.031026082
-0.21660063 -0.63212782 0.031095076
-0.22274853 -0.6244626 0.031947713
-0.2262581 -0.61248481 0.031374354
-0.22569427 -0.61280632 0.031021599
-0.23304015 -0.60669625 0.03115231
-0.23953117 -0.59526098 0.031262323
-0.24443802 -0.58988678 0.03115873
-0.23845707 -0.58928347 0.031890094
-0.24285854 -0.58396316 0.031936456
-0.24702837 -0.57921749 0.031340368
-0.25355664 -0.57403201 0.031736474
-0.24992804 -0.57399023 0.031699188
-0.27129683 -0.54282123 0.031381946
-0.26987585 -0.54282969 0.031375878
-0.27683279 -0.52684897 0.031518985
-0.27138957 -0.5268268 0.031511348
-0.279742 -0.52303374 0.031558469
-0.27945143 -0.5192396 0.031716865
-0.28486359 -0.51552045 0.031978536
-0.29178688 -0.50135177 0.03186195
-0.13460444 -0.75040787 0.032955222
-0.1789173 -0.7053476 0.032397218
-0.15126005 -0.70532572 0.032397982
-0.15086365 -0.70533687 0.032410353
-0.18022907 -0.7045511 0.032912906
-0.17946365 -0.70457608 0.032926708
-0.18506624 -0.69578141 0.032135803
-0.18706207 -0.68624824 0.03215697
-0.18707544 -0.68550754 0.032738753
-0.19223985 -0.6768108 0.032503553
-0.19191094 -0.67680049 0.032494958
-0.19927607 -0.66811389 0.032511216
-0.19637984 -0.66854066 0.032301515
-0.20866613 -0.65243685 0.03227092
-0.20897876 -0.65179789 0.032943543
-0.21229844 -0.6446957 0.032518182
-0.21554895 -0.63764727 0.032307219
-0.21559982 -0.63696051 0.032956451
-0.21884951 -0.63068902 0.032355946
-0.21935217 -0.6245451 0.032024201
-0.22294749 -0.62383586 0.032655187
-0.24481367 -0.58866459 0.032638393
-0.247078 -0.57866001 0.032124747
-0.25242046 -0.56880331 0.032196488
-0.25969103 -0.5546611 0.032950893
-0.2579585 -0.55467492 0.032967854
-0.27006745 -0.54233718 0.032243419
-0.26839951 -0.53795332 0.032774717
-0.27322996 -0.53408504 0.032555681
-0.27303675 -0.53019547 0.032399897
-0.28036296 -0.52260089 0.032458588
-0.29375005 -0.49766913 0.032500919
-0.29369554 -0.49109867 0.032143574
-0.12991564 -0.7495988 0.033388652
-0.12982063 -0.74881917 0.033867642
-0.18039975 -0.70341808 0.033719718
-0.17857291 -0.70382744 0.033483591
-0.18560863 -0.69424963 0.033196803
-0.18575342 -0.69350189 0.033751335
-0.18915997 -0.68404812 0.033881862
-0.18670054 -0.68404633 0.033886313
-0.19224685 -0.67536956 0.033688962
-0.1993227 -0.66739136 0.033115644
-0.21229215 -0.64332145 0.033822242
-0.21889825 -0.63003314 0.033043265
-0.21640486 -0.63007128 0.033081919
-0.22759463 -0.61633629 0.033850286
-0.23324229 -0.60481119 0.033349361
-0.23292162 -0.60480726 0.033342753
-0.23993653 -0.59340894 0.033473983
-0.24491063 -0.58804905 0.033383463
-0.24055056 -0.58805865 0.033380028
-0.24805441 -0.57755393 0.033745069
-0.26734382 -0.54583496 0.033545051
-0.26349807 -0.54579669 0.033528417
-0.27007413 -0.54136586 0.033943828
-0.27178738 -0.52974439 0.033259846
-0.29029262 -0.50428659 0.033155393
-0.29407081 -0.49736241 0.033455811
-0.35996372 -0.47142574 0.033747058
-0.12770173 -0.74801952 0.034345943
-0.12457563 -0.7472589 0.034860034
-0.17418127 -0.71344763 0.034062706
-0.16437465 -0.71342784 0.034042735
-0.17340641 -0.71267807 0.03458102
-0.17206855 -0.71265799 0.034579169
-0.16560052 -0.71268177 0.034582593
-0.16487721 -0.71268398 0.034576353
-0.18545079 -0.69200259 0.034865949
-0.18939413 -0.68328643 0.034444213
-0.19933099 -0.66522193 0.034909334
-0.19895932 -0.66558409 0.034615636
-0.20866215 -0.65039045 0.03419118
-0.20873176 -0.64965713 0.034799017
-0.2127535 -0.64264047 0.034473721
-0.21538116 -0.63559484 0.034275986
-0.21538463 -0.63493603 0.034951873
-0.21864296 -0.62869406 0.034423042
-0.22329468 -0.62187284 0.034745816
-0.22279015 -0.62186813 0.034749638
-0.2310279 -0.6096012 0.034596361
-0.23303811 -0.60353827 0.034761731
-0.24038939 -0.59256583 0.034438033
-0.24120128 -0.58685315 0.034906019
-0.24316697 -0.5821678 0.034226697
-0.24363679 -0.58157134 0.034990229
-0.25066951 -0.57235646 0.034127925
-0.25323758 -0.57173038 0.034859676
-0.24963018 -0.57177752 0.03488493
-0.2587347 -0.55812019 0.034496441
-0.27344456 -0.53314108 0.034267262
-0.28075707 -0.52173936 0.034249295
-0.28735781 -0.50394416 0.034067985
-0.12474933 -0.74647492 0.035344161
-0.11800892 -0.74643058 0.03532654
-0.12195055 -0.74564964 0.035805952
-0.11792968 -0.74565554 0.035808746
-0.17381202 -0.71191269 0.035112329
-0.17254367 -0.71191072 0.035114802
-0.17166811 -0.71113575 0.035640214
-0.16637503 -0.71143144 0.035503145
-0.16556937 -0.71192575 0.03511462
-0.16419548 -0.71190977 0.035103392
-0.158792 -0.71188438 0.035098139
-0.18104583 -0.70159924 0.035176959
-0.18051063 -0.70158124 0.035142925
-0.17998849 -0.70153564 0.035086501
-0.13608629 -0.7015757 0.03513008
-0.18929413 -0.68179536 0.035578925
-0.19935967 -0.66451681 0.035545744
-0.20276111 -0.65595514 0.035938494
-0.20882061 -0.64894897 0.03543245
-0.21312001 -0.64195234 0.035110667
-0.21272272 -0.64195377 0.035110544
-0.22121532 -0.62808245 0.035119232
-0.21866488 -0.62802738 0.035086755
-0.22352909 -0.62120676 0.035426918
-0.2280626 -0.61503792 0.035221759
-0.23349117 -0.60288876 0.03547512
-0.23782149 -0.59685105 0.035832915
-0.23544398 -0.59687233 0.035845548
-0.23454003 -0.59686589 0.035860509
-0.24231148 -0.59151363 0.035649683
-0.24518391 -0.58623159 0.035625979
-0.2448528 -0.58623844 0.035629369
-0.24442989 -0.58101106 0.035790943
-0.25338352 -0.57112521 0.035608504
-0.26048109 -0.55759984 0.035336383
-0.26836127 -0.54864198 0.0356654
-0.26642922 -0.54866701 0.035663851
-0.26204157 -0.54861075 0.035627849
-0.27125865 -0.54039782 0.035641655
-0.26535502 -0.54041755 0.035668608
-0.27431583 -0.53266484 0.035134301
-0.27391267 -0.53266126 0.035106767
-0.27849317 -0.52843279 0.035926335
-0.29173946 -0.4999958 0.035615757
-0.12190533 -0.74487108 0.036297869
-0.11927187 -0.74449432 0.036525689
-0.17042933 -0.71036685 0.036156848
-0.16703276 -0.71039033 0.03619178
-0.16907498 -0.70962065 0.036668457
-0.167703 -0.70963383 0.036705405
-0.18069239 -0.70010459 0.036270887
-0.1810503 -0.69934642 0.036809683
-0.18064909 -0.69935817 0.03680744
-0.1360855 -0.69930947 0.036774497
-0.18506594 -0.69052893 0.036005616
-0.18511006 -0.68978399 0.036597479
-0.19411701 -0.67165619 0.036569908
-0.19332181 -0.67167962 0.036592528
-0.19955629 -0.66346741 0.036492515
-0.20308676 -0.65526593 0.036568686
-0.20276591 -0.65524352 0.036549099
-0.20930189 -0.64752048 0.036687162
-0.20887674 -0.64752752 0.036694396
-0.21283482 -0.64054763 0.036391769
-0.2182834 -0.63360912 0.036302604
-0.215461 -0.6335963 0.036287326
-0.21547748 -0.63291526 0.036952671
-0.22328836 -0.61986017 0.036796384
-0.22812214 -0.61370069 0.036594506
-0.23079064 -0.60829729 0.036001258
-0.23123166 -0.60764909 0.036694515
-0.23350912 -0.60226083 0.036190536
-0.23361661 -0.60161507 0.036911529
-0.23712645 -0.59623885 0.036553144
-0.23605523 -0.59622747 0.036556017
-0.24280034 -0.59094548 0.036431622
-0.24960238 -0.58040601 0.036546268
-0.25167885 -0.57575768 0.036015693
-0.24782524 -0.5752241 0.036827471
-0.24621724 -0.57576692 0.036032777
-0.26276851 -0.56604004 0.036210589
-0.26108378 -0.56101251 0.036940493
-0.26520798 -0.54370964 0.036836728
-0.26444325 -0.54373831 0.036834192
-0.27057526 -0.53989929 0.036496256
-0.28624418 -0.50979787 0.036840089
-0.28469577 -0.50655472 0.036378395
-0.35136157 -0.48963541 0.03693122
-0.30332297 -0.47395161 0.036387384
-0.1173459 -0.74329972 0.037252028
-0.11880496 -0.74253064 0.037731424
-0.11455937 -0.74253273 0.037751492
-0.18129905 -0.69857562 0.037340932
-0.14104854 -0.69856685 0.037314713
-0.13701196 -0.69856471 0.037319023
-0.13637678 -0.69857222 0.037336532
-0.18143323 -0.69781643 0.037867494
-0.14033347 -0.69779539 0.037829831
-0.13568966 -0.69780356 0.037858594
-0.18509778 -0.68905365 0.03716103
-0.19425483 -0.67885727 0.037857972
-0.19875874 -0.67096412 0.037196331
-0.20052713 -0.66240376 0.037409842
-0.20426205 -0.6545952 0.037252277
-0.20348161 -0.6546033 0.037249949
-0.20527107 -0.65386319 0.037820268
-0.2047461 -0.6538766 0.037843473
-0.20948608 -0.64682245 0.037321717
-0.21274622 -0.6391477 0.037663653
-0.22101441 -0.62603617 0.037097584
-0.22123046 -0.62533766 0.03774954
-0.22374694 -0.61915833 0.037436698
-0.22814748 -0.61305046 0.037295427
-0.22837865 -0.6123926 0.037986912
-0.2312794 -0.60699481 0.037383005
-0.23444517 -0.60093421 0.037589777
-0.24054083 -0.59028375 0.037137371
-0.24116553 -0.5896582 0.037865903
-0.24085949 -0.58964747 0.037861589
-0.25000191 -0.57984638 0.037329316
-0.24898182 -0.57978839 0.037272599
-0.25944975 -0.56039989 0.037697587
-0.25835472 -0.56042945 0.03772451
-0.26790956 -0.55154186 0.037931316
-0.26678851 -0.55157578 0.03794032
-0.26313812 -0.55151743 0.037896659
-0.26024535 -0.55156231 0.037926875
-0.25971353 -0.55151236 0.037892178
-0.26286316 -0.54329109 0.037739843
-0.28393954 -0.50947303 0.037798312
-0.28672743 -0.50615758 0.037282541
-0.17586291 -0.70660847 0.038839169
-0.18313615 -0.69704288 0.038383286
-0.18244503 -0.69704175 0.03838535
-0.18156284 -0.69706666 0.038409494
-0.13855141 -0.69701558 0.038356937
-0.18906671 -0.68680829 0.038819175
-0.18557629 -0.68681359 0.038817048
-0.19462386 -0.67814285 0.038463738
-0.2015914 -0.66168344 0.038013041
-0.20068648 -0.66168654 0.038004126
-0.20841318 -0.65312696 0.038434669
-0.20528474 -0.65313721 0.038438588
-0.2103577 -0.64542365 0.03856181
-0.20947385 -0.64542121 0.038563929
-0.21293929 -0.63846719 0.03831093
-0.212998 -0.63776517 0.038960818
-0.21809553 -0.63151628 0.038229462
-0.21829161 -0.6308105 0.038861096
-0.22146364 -0.62465036 0.038421854
-0.2242983 -0.61848861 0.038104348
-0.22377639 -0.61848998 0.038107965
-0.22472765 -0.61781114 0.038777903
-0.22921547 -0.61171067 0.038682759
-0.22862802 -0.61171418 0.038667947
-0.23504086 -0.60571063 0.038807679
-0.23143376 -0.60567331 0.038772088
-0.23467758 -0.60026973 0.038280908
-0.23545843 -0.59963608 0.03899885
-0.2456412 -0.58382064 0.038644746
-0.25420848 -0.56892473 0.038840249
-0.25869164 -0.55985665 0.038509361
-0.26215827 -0.54708588 0.038140412
-0.26663387 -0.54657537 0.038968001
-0.26965439 -0.53462088 0.03877921
-0.27441293 -0.52708453 0.038570642
-0.28123093 -0.5196507 0.038726158
-0.28440532 -0.51274168 0.038347121
-0.29396605 -0.49573341 0.038154248
-0.31199294 -0.461256 0.038881026
-0.12951817 -0.73942482 0.039718036
-0.17585675 -0.70507079 0.03989378
-0.13778834 -0.70506573 0.039887253
-0.18532287 -0.6955359 0.03948009
-0.18491952 -0.69553566 0.039472502
-0.18330455 -0.69553566 0.039478
-0.18274516 -0.69553012 0.039473932
-0.18901055 -0.68606496 0.039369337
-0.18906631 -0.68532383 0.039960358
-0.19423521 -0.67667389 0.039611451
-0.19776395 -0.66803843 0.039533928
-0.2009121 -0.66023725 0.039210852
-0.20258543 -0.65946758 0.039757311
-0.20199832 -0.65949452 0.039794169
-0.20640731 -0.65243006 0.039049633
-0.20551622 -0.65242893 0.03905344
-0.20646992 -0.65170747 0.039667796
-0.21072742 -0.64471453 0.039185423
-0.21736827 -0.6370464 0.039579906
-0.21342315 -0.63707179 0.0395923
-0.22565438 -0.61712587 0.039413575
-0.22960748 -0.6110642 0.039379656
-0.23851961 -0.59903431 0.039735142
-0.24568996 -0.58323377 0.039404687
-0.23917036 -0.58324277 0.039422467
-0.25505668 -0.57281965 0.039851509
-0.25432175 -0.56380475 0.039378949
-0.25212997 -0.56386375 0.039442215
-0.26411563 -0.55492896 0.039417028
-0.2685982 -0.54614633 0.039874062
-0.26572087 -0.54611742 0.039835617
-0.26134437 -0.5460583 0.039810069
-0.33320397 -0.51924741 0.039626613
-0.28055209 -0.5192343 0.03962322
-0.28477827 -0.51234537 0.03925379
-0.29559174 -0.48876008 0.039782498
-0.29637837 -0.48558915 0.039761987
-0.12518606 -0.73861998 0.040151212
-0.16357706 -0.71465427 0.040624149
-0.17665517 -0.70427674 0.040398609
-0.13779299 -0.70429844 0.040415268
-0.18371716 -0.69477212 0.04002481
-0.19452216 -0.67568803 0.040392857
-0.19776675 -0.66730225 0.040111754
-0.19780025 -0.66655934 0.040693123
-0.20429876 -0.65873384 0.040328454
-0.20354711 -0.65872276 0.040344153
-0.2027688 -0.65873891 0.040353265
-0.20128421 -0.65878451 0.040401094
-0.20686188 -0.65098256 0.040281836
-0.2134213 -0.63637316 0.040232394
-0.22037318 -0.62947255 0.040236969
-0.22037977 -0.62881017 0.040903233
-0.2255324 -0.62263077 0.040431254
-0.23271362 -0.610439 0.040098172
-0.28342718 -0.60436368 0.040157259
-0.23573402 -0.60375726 0.040894646
-0.292371 -0.59243876 0.040895786
-0.23620029 -0.59246492 0.040930178
-0.24702401 -0.58719492 0.040819671
-0.26345822 -0.56326467 0.040213812
-0.25626835 -0.56327045 0.040221389
-0.25585538 -0.56325454 0.040193729
-0.26859078 -0.55440557 0.040237576
-0.25952473 -0.55440223 0.040233891
-0.2584846 -0.55437672 0.040216438
-0.26764727 -0.54564613 0.040724795
-0.26267618 -0.54559928 0.040683974
-0.27265307 -0.54178399 0.040255237
-0.27753186 -0.53369087 0.040518131
-0.28984928 -0.50146163 0.040572669
-0.2951549 -0.49159923 0.040815469
-0.34894121 -0.48530605 0.040718243
-0.29666039 -0.48531762 0.040712655
-0.3025848 -0.4790315 0.040855426
-0.30609855 -0.47302344 0.040260464
-0.30354956 -0.47307125 0.04028232
-0.30407187 -0.46992701 0.040556516
-0.30925509 -0.46688566 0.040941484
-0.30872992 -0.46689022 0.040946778
-0.30792338 -0.46400496 0.040383197
-0.13086449 -0.73629117 0.041659035
-0.17150998 -0.71307743 0.041600324
-0.16935419 -0.71309561 0.041643452
-0.16870554 -0.71309578 0.041669872
-0.16147031 -0.71310216 0.041665651
-0.16008753 -0.71305734 0.041611046
-0.13778159 -0.70238835 0.041736174
-0.13589169 -0.70201373 0.041996274
-0.18317495 -0.69250017 0.041647602
-0.19768302 -0.68383038 0.0410388
-0.1915888 -0.68379045 0.041014198
-0.19572669 -0.67439878 0.041270562
-0.19481367 -0.67442864 0.041319437
-0.19624588 -0.67365396 0.041840471
-0.202108 -0.66513073 0.041925613
-0.20155516 -0.66548675 0.041608587
-0.19781013 -0.66581541 0.041265488
-0.20795752 -0.64953834 0.041476626
-0.21738645 -0.63498724 0.041509051
-0.27175671 -0.62188441 0.041025642
-0.2671212 -0.62193805 0.041081514
-0.26530015 -0.6212526 0.041734133
-0.23321149 -0.60911292 0.041480545
-0.27888888 -0.59711981 0.041892894
-0.26188844 -0.56660205 0.041935444
-0.26083338 -0.56659847 0.041923653
-0.25681648 -0.56658363 0.041915853
-0.25541934 -0.56661975 0.041954361
-0.26389852 -0.56272721 0.041021325
-0.27094972 -0.533207 0.041384459
-0.32535651 -0.52951562 0.041303895
-0.27525273 -0.52947021 0.041245699
-0.27969876 -0.5147872 0.041678783
-0.28900829 -0.50433594 0.041907299
-0.28793195 -0.50429618 0.041870091
-0.29541767 -0.49128878 0.041767381
-0.29214758 -0.49129739 0.041757334
-0.31543586 -0.48813841 0.041697685
-0.30449572 -0.48815027 0.041694097
-0.29724398 -0.48811629 0.041659284
-0.29613668 -0.48811364 0.041658647
-0.29577845 -0.48813993 0.041671216
-0.29407346 -0.48813877 0.041675176
-0.29906082 -0.48497438 0.041625477
-0.29810137 -0.4818773 0.041694447
-0.30326563 -0.47878706 0.041797947
-0.35634267 -0.47567859 0.041994993
-0.35545057 -0.47567743 0.041992582
-0.30706 -0.47566456 0.041986037
-0.30127111 -0.47593018 0.041009415
-0.36019608 -0.46976444 0.041560061
-0.35931748 -0.46978289 0.041600741
-0.35871664 -0.4697375 0.041550431
-0.35190254 -0.46974674 0.041564561
-0.35350034 -0.46668229 0.041934066
-0.34954733 -0.46672109 0.041944008
-0.324357 -0.46668634 0.041930582
-0.31825644 -0.46667239 0.041921016
-0.31678328 -0.46669322 0.041933678
-0.30819339 -0.46669939 0.041947931
-0.3074404 -0.46668643 0.041918445
-0.30900249 -0.46376267 0.04133046
-0.30845803 -0.46380705 0.041346684
-0.34443688 -0.46077991 0.041867506
-0.33401552 -0.4608334 0.041900635
-0.32929239 -0.46076241 0.041848727
-0.32643038 -0.46082163 0.04189121
-0.32285455 -0.460798 0.04186755
-0.3142384 -0.46077797 0.041871477
-0.31368744 -0.46079105 0.041868784
-0.31364062 -0.45789257 0.041409768
-0.32625535 -0.45204657 0.041736737
-0.32552961 -0.45205632 0.041747164
-0.31776619 -0.44910684 0.041422009
-0.12640993 -0.74756837 0.042459026
-0.12390608 -0.74675643 0.042913746
-0.16283885 -0.73552519 0.042157784
-0.16138057 -0.73549294 0.042109758
-0.22048229 -0.7346921 0.042572264
-0.16203205 -0.73474383 0.042636704
-0.16137375 -0.73471677 0.042595576
-0.1584335 -0.73471665 0.042599481
-0.15768267 -0.73473185 0.042628355
-0.17021227 -0.71232784 0.042136408
-0.16932748 -0.71232301 0.042146325
-0.15853097 -0.71229094 0.042095933
-0.15611003 -0.71230608 0.042141516
-0.15571409 -0.71231687 0.042153869
-0.14951782 -0.71235889 0.042192027
-0.14811687 -0.70203143 0.042023052
-0.14773054 -0.70203459 0.042017855
-0.1457893 -0.7020179 0.042016804
-0.14661942 -0.70126534 0.042542279
-0.1458692 -0.70126754 0.042541508
-0.14449584 -0.7012592 0.042542771
-0.14379244 -0.70126891 0.042552751
-0.1409893 -0.70121026 0.042499509
-0.13869746 -0.701262 0.042546887
-0.18742634 -0.69100213 0.042726953
-0.1917436 -0.68228829 0.042116381
-0.19189338 -0.68156576 0.042687479
-0.24737085 -0.67296439 0.042459916
-0.19789536 -0.67293191 0.04241138
-0.19656636 -0.67244023 0.042801157
-0.20619856 -0.65660477 0.042189907
-0.26492074 -0.6411317 0.042268142
-0.21532533 -0.64049506 0.042965833
-0.22718851 -0.63426793 0.042145595
-0.2174722 -0.63428444 0.042156763
-0.22006997 -0.62744987 0.042214718
-0.21762425 -0.62734848 0.042107493
-0.27667916 -0.62676215 0.042867668
-0.22336321 -0.62670493 0.042807277
-0.22164412 -0.62674564 0.042840794
-0.22033784 -0.62675452 0.042862002
-0.22821543 -0.62054175 0.042358179
-0.23795313 -0.60846925 0.042171802
-0.22975896 -0.60845375 0.042163864
-0.22897388 -0.60844195 0.042143855
-0.28524005 -0.60778415 0.042841967
-0.23863874 -0.60246503 0.042325299
-0.23789528 -0.60242599 0.042276446
-0.23679516 -0.60239244 0.042253423
-0.2394042 -0.60180742 0.042993493
-0.2393252 -0.59644866 0.042569935
-0.23858003 -0.59125996 0.042428654
-0.25258109 -0.58080876 0.042422213
-0.2529186 -0.57568258 0.042656951
-0.25547317 -0.56605721 0.042731412
-0.25440741 -0.56607312 0.042752516
-0.2602528 -0.56154513 0.042567648
-0.26419729 -0.55718046 0.042579148
-0.26260746 -0.55711234 0.042532243
-0.26166257 -0.55717587 0.04258357
-0.26063666 -0.54893392 0.042051855
-0.25997448 -0.54893577 0.042059951
-0.26814699 -0.54024708 0.04274755
-0.27180126 -0.53647995 0.042442109
-0.27127615 -0.53273898 0.042250089
-0.27602357 -0.52852005 0.042980406
-0.27531606 -0.52853918 0.042979956
-0.33378464 -0.52486467 0.042975858
-0.28304842 -0.5180158 0.042340335
-0.28261191 -0.51801437 0.042326707
-0.31542671 -0.51798528 0.042310469
-0.31703356 -0.51435173 0.042566754
-0.31659651 -0.51433533 0.042542189
-0.29521409 -0.51069564 0.042831451
-0.31633827 -0.50748008 0.042313766
-0.29144508 -0.50393355 0.042798482
-0.28963453 -0.50396913 0.042825494
-0.28677318 -0.50391811 0.042780749
-0.33186755 -0.50079644 0.042468276
-0.31485483 -0.50077802 0.04246204
-0.31012282 -0.50083315 0.042479392
-0.29053706 -0.50077176 0.042450681
-0.34687603 -0.49408048 0.04283502
-0.31664503 -0.49411327 0.042862453
-0.3100403 -0.49416518 0.042905968
-0.30970654 -0.49413499 0.042882096
-0.30614257 -0.49416322 0.042900775
-0.3058112 -0.49414602 0.042902119
-0.30319944 -0.49413151 0.042877581
-0.29889476 -0.49414369 0.042878177
-0.29639277 -0.49410689 0.04285343
-0.29570302 -0.49408078 0.042839814
-0.29462329 -0.49412224 0.04287577
-0.34371248 -0.49100411 0.042742241
-0.30002689 -0.49100491 0.042730547
-0.34910086 -0.49097064 0.042712148
-0.34870154 -0.49097568 0.042712543
-0.33717123 -0.49099067 0.042715725
-0.31993985 -0.49094278 0.042698961
-0.29932043 -0.49099496 0.042725146
-0.33225635 -0.48786017 0.042654738
-0.32575735 -0.48783392 0.042610228
-0.30652428 -0.48789394 0.042667639
-0.30185756 -0.48785785 0.042640187
-0.30007386 -0.48784751 0.042638145
-0.29968348 -0.48786002 0.042639382
-0.29868519 -0.48786983 0.042639621
-0.34057078 -0.48472038 0.042603739
-0.33481681 -0.48472714 0.042623002
-0.30920342 -0.48474929 0.042624813
-0.30334845 -0.4847008 0.04260657
-0.30011818 -0.48473823 0.042622443
-0.34890106 -0.48164874 0.042675536
-0.34176141 -0.48165774 0.042708978
-0.33055064 -0.48160696 0.042647164
-0.32965854 -0.48162222 0.042670742
-0.32821506 -0.48162591 0.042664036
-0.32728431 -0.48159415 0.04263784
-0.31828895 -0.48161992 0.042639475
-0.31731093 -0.48162135 0.042662032
-0.30999392 -0.4816035 0.042641096
-0.35404509 -0.47852638 0.042788059
-0.35349053 -0.47854513 0.042787962
-0.35279137 -0.4785406 0.042790741
-0.34469238 -0.4785459 0.04279859
-0.3432616 -0.47849414 0.042740237
-0.34038553 -0.47853315 0.042793795
-0.33550036 -0.47851127 0.042760778
-0.33458325 -0.47845891 0.042724106
-0.33350801 -0.47851506 0.042777758
-0.33228365 -0.47850701 0.042780489
-0.33176956 -0.47852907 0.042793393
-0.32346067 -0.47852996 0.042785801
-0.32256615 -0.47854334 0.042798318
-0.3151921 -0.47854042 0.042782564
-0.31338212 -0.47848845 0.042755216
-0.31268093 -0.47851366 0.04277534
-0.3115907 -0.47854325 0.04278503
-0.31067881 -0.47854707 0.042790294
-0.3060976 -0.47854197 0.042783957
-0.30402997 -0.47850379 0.042765912
-0.35927537 -0.47569045 0.042009056
-0.35889041 -0.47546488 0.042977601
-0.35595694 -0.47543126 0.042950258
-0.3545129 -0.47545949 0.042974789
-0.34641469 -0.47544226 0.04294676
-0.3456549 -0.47548532 0.042979211
-0.34474599 -0.47542781 0.04295288
-0.34367925 -0.47546169 0.042978477
-0.34228885 -0.47548997 0.042997099
-0.33756137 -0.475436 0.04294917
-0.33666751 -0.47540557 0.042914942
-0.32747433 -0.47543138 0.042934738
-0.32624888 -0.47544757 0.042966835
-0.3255524 -0.47545576 0.042979367
-0.32480547 -0.47545147 0.042960454
-0.32371449 -0.4754191 0.04293713
-0.30658409 -0.47542891 0.042937506
-0.30550134 -0.47544977 0.04295364
-0.35648471 -0.47256646 0.042213958
-0.35051712 -0.47261158 0.042237349
-0.34100768 -0.4726404 0.042249363
-0.33990976 -0.47257251 0.04219282
-0.3326658 -0.47264525 0.042261526
-0.32909027 -0.47257927 0.042219114
-0.32768261 -0.47260085 0.04223454
-0.30932873 -0.47259185 0.042227473
-0.30860648 -0.47261098 0.042232592
-0.30788264 -0.47263464 0.042241387
-0.35818511 -0.46949515 0.042493597
-0.35762426 -0.46950793 0.042497162
-0.35656789 -0.46952924 0.042537902
-0.35262886 -0.46953133 0.042536955
-0.35155568 -0.46955961 0.042553499
-0.34976411 -0.46951658 0.042537581
-0.34401113 -0.46953124 0.042520639
-0.3434329 -0.46953332 0.042514376
-0.34252059 -0.46956715 0.042550188
-0.34144697 -0.46955174 0.04254986
-0.34053937 -0.4695555 0.042553902
-0.33999538 -0.46954018 0.04253938
-0.33535776 -0.46955821 0.042563956
-0.3345764 -0.46955568 0.042549126
-0.33351922 -0.46950817 0.042499121
-0.32414407 -0.46952665 0.042512964
-0.3234618 -0.46952942 0.042531598
-0.32239196 -0.46954894 0.042554423
-0.32147539 -0.46954682 0.042538613
-0.32057214 -0.46950722 0.042506635
-0.31949496 -0.4695347 0.042525828
-0.31447965 -0.4695617 0.042546477
-0.3134082 -0.46952099 0.04252179
-0.31263629 -0.46948677 0.042492446
-0.35352457 -0.46648666 0.04290833
-0.352393 -0.46644631 0.042871829
-0.3473531 -0.46650028 0.042912275
-0.34643871 -0.46652529 0.042926021
-0.34556878 -0.46648526 0.042909015
-0.34446898 -0.46647608 0.042887613
-0.34376159 -0.46650085 0.042899497
-0.34268385 -0.46649131 0.042895336
-0.34159839 -0.46648854 0.042882666
-0.33800256 -0.46651644 0.04292741
-0.33748484 -0.46653628 0.042935401
-0.33654177 -0.4664799 0.042888612
-0.33545718 -0.46648082 0.042897526
-0.33474609 -0.46651027 0.042925779
-0.33119816 -0.46646833 0.042887524
-0.33046603 -0.46649733 0.042908724
-0.32954171 -0.46653187 0.042936701
-0.32861781 -0.46646491 0.042876989
-0.32754448 -0.46643963 0.042873085
-0.32647493 -0.46649754 0.042909365
-0.32542452 -0.46648398 0.042913903
-0.32468757 -0.46649665 0.042917039
-0.32399338 -0.46648526 0.042913355
-0.31734467 -0.46649089 0.042912617
-0.31626767 -0.4665156 0.042928867
-0.31547278 -0.46649271 0.042901263
-0.31463167 -0.46645275 0.042878002
-0.31389248 -0.46648133 0.042886481
-0.35832459 -0.46361521 0.042337354
-0.35721472 -0.4636696 0.042349949
-0.3565093 -0.46365896 0.042369913
-0.35542476 -0.463649 0.042360693
-0.34950012 -0.46363711 0.042355575
-0.34860671 -0.46364892 0.042364817
-0.34751138 -0.46364084 0.042363275
-0.34679461 -0.46359497 0.042329486
-0.34121192 -0.46363869 0.042338639
-0.34030762 -0.46363828 0.042336628
-0.33995759 -0.46364015 0.042332448
-0.33886066 -0.46367523 0.042368919
-0.33222479 -0.46365374 0.042374548
-0.33149889 -0.46367311 0.042385183
-0.33022395 -0.46360356 0.042302787
-0.32984734 -0.46361083 0.042324148
-0.32123718 -0.46363682 0.042344287
-0.32067436 -0.46363235 0.042339716
-0.3194423 -0.46365055 0.042367849
-0.31854951 -0.46365923 0.042374134
-0.3174454 -0.46360964 0.042321425
-0.31676322 -0.46362522 0.04234504
-0.31135434 -0.46365523 0.042362783
-0.3104634 -0.46366361 0.042367995
-0.35021317 -0.46061811 0.0428579
-0.34949103 -0.46057868 0.042820398
-0.34859431 -0.4605853 0.042826131
-0.34335235 -0.46064886 0.042863857
-0.34247231 -0.46062058 0.042859316
-0.34155771 -0.46060094 0.042828362
-0.34083325 -0.46061751 0.042844992
-0.33505753 -0.46062464 0.0428528
-0.33456022 -0.4606536 0.042869352
-0.3334741 -0.46061879 0.042838611
-0.33252847 -0.46059904 0.042831287
-0.33180839 -0.4606213 0.042845562
-0.32737517 -0.4606145 0.042840175
-0.3264766 -0.46065599 0.0428776
-0.3255372 -0.46061009 0.042834137
-0.32462013 -0.46055722 0.042798433
-0.32354447 -0.4606134 0.042850297
-0.32231987 -0.46060538 0.042852551
-0.32142827 -0.46062562 0.042860057
-0.32049641 -0.46062624 0.04285356
-0.31994912 -0.46062139 0.04284275
-0.31315368 -0.46064615 0.042864934
-0.31282935 -0.46064305 0.042878076
-0.34640798 -0.457766 0.04242276
-0.345516 -0.4577648 0.042420343
-0.34480873 -0.45779595 0.042433303
-0.3384769 -0.45776972 0.042405117
-0.33742058 -0.45776346 0.042400729
-0.33651805 -0.45776695 0.042404376
-0.33542746 -0.45778999 0.042425402
-0.3345038 -0.45777258 0.042425752
-0.33377922 -0.45778853 0.042435948
-0.32932144 -0.45777798 0.042434707
-0.3286224 -0.4577933 0.042445641
-0.32749236 -0.45774853 0.042396583
-0.32660839 -0.45773602 0.042381633
-0.31653896 -0.45776823 0.042418394
-0.31565553 -0.45778042 0.042436525
-0.31333655 -0.45775494 0.042411778
-0.33793443 -0.45473894 0.042996299
-0.33146188 -0.45492902 0.042053983
-0.33039331 -0.45492068 0.042045008
-0.32942492 -0.45487499 0.042014547
-0.3287462 -0.45490319 0.042035714
-0.32432082 -0.4548957 0.042030301
-0.32355654 -0.4549264 0.042054195
-0.32261199 -0.4549315 0.042050816
-0.3213807 -0.45470825 0.042980265
-0.3204518 -0.4548949 0.042039849
-0.31958497 -0.45490217 0.042038787
-0.31852886 -0.45490661 0.042053912
-0.31742355 -0.45490995 0.04204439
-0.31668577 -0.45490608 0.042033304
-0.31594574 -0.45489451 0.042017568
-0.33542937 -0.45192498 0.042708624
-0.33438134 -0.45191383 0.04270009
-0.33346388 -0.45191514 0.042699128
-0.33236399 -0.45194983 0.042728338
-0.32660964 -0.45193508 0.04273133
-0.32443658 -0.4519107 0.042704761
-0.32353926 -0.45188186 0.042671606
-0.33000228 -0.44904089 0.042447425
-0.32127008 -0.44904038 0.042439237
-0.32051051 -0.44907004 0.042460829
-0.31978637 -0.44909543 0.042482365
-0.32321215 -0.4462027 0.042266898
-0.12132116 -0.74517047 0.043837495
-0.11774161 -0.7459507 0.043365795
-0.15774514 -0.73392147 0.043085687
-0.17616165 -0.71001995 0.043705352
-0.17503266 -0.71003008 0.043713395
-0.14411007 -0.7005018 0.043074671
-0.14300291 -0.70050782 0.04307675
-0.14161915 -0.70047259 0.043027632
-0.14020059 -0.70046437 0.043035306
-0.13941967 -0.70047516 0.043041952
-0.14158455 -0.69971162 0.043562662
-0.13902976 -0.69971812 0.043570478
-0.20655724 -0.67222703 0.043048389
-0.19750734 -0.66359717 0.043000523
-0.21193388 -0.64743012 0.043336194
-0.21747321 -0.63291264 0.043431669
-0.22816005 -0.62601477 0.043474413
-0.27872947 -0.61994511 0.043125153
-0.22724508 -0.61984891 0.043025203
-0.22682242 -0.61986905 0.04304361
-0.2263587 -0.61316311 0.043550141
-0.22528909 -0.61316061 0.043562301
-0.27132154 -0.6071648 0.043573011
-0.2295313 -0.60713941 0.043560468
-0.24705689 -0.59586573 0.043358512
-0.23864268 -0.59064376 0.043158948
-0.24401061 -0.58537918 0.043070648
-0.2433898 -0.58476949 0.04381597
-0.26098198 -0.57962465 0.043948248
-0.250534 -0.57963246 0.043946128
-0.2987237 -0.57501447 0.043364119
-0.2545557 -0.5699296 0.043749284
-0.25310722 -0.56992632 0.043748345
-0.26639301 -0.5654977 0.043540772
-0.27976918 -0.5609957 0.043346014
-0.30801076 -0.55228215 0.043529261
-0.27235809 -0.55225682 0.043496616
-0.27892807 -0.5478493 0.043685738
-0.31935725 -0.53979635 0.043628894
-0.30786648 -0.53976458 0.043615736
-0.27869081 -0.53973961 0.043576144
-0.26976311 -0.53977662 0.04364378
-0.26864269 -0.53974384 0.043598142
-0.27191013 -0.53601187 0.043305952
-0.32273585 -0.53230637 0.04315079
-0.27557054 -0.53227818 0.043130293
-0.30668545 -0.53180182 0.043994866
-0.30240849 -0.53178126 0.043953937
-0.27940813 -0.53175819 0.043947686
-0.27468535 -0.53176862 0.043954507
-0.33243659 -0.52808332 0.043861963
-0.32294148 -0.5280903 0.043862868
-0.31937963 -0.52807581 0.043856725
-0.30862364 -0.5281111 0.043894075
-0.29928488 -0.5281136 0.043893412
-0.29887679 -0.52812761 0.043890718
-0.29309371 -0.52818364 0.043931492
-0.28699324 -0.528157 0.043925557
-0.28091136 -0.52809602 0.043863885
-0.27750337 -0.52805221 0.043834098
-0.27656528 -0.52804869 0.043824334
-0.3151989 -0.52441382 0.043872546
-0.31124589 -0.52442431 0.043860517
-0.31081513 -0.52442825 0.043850172
-0.29540765 -0.52445626 0.043889705
-0.28386402 -0.52443022 0.043870535
-0.28049415 -0.52440655 0.043851189
-0.28231773 -0.52119535 0.043045335
-0.33124888 -0.52075934 0.043921936
-0.31962243 -0.52073306 0.043906324
-0.31849706 -0.52075684 0.043928437
-0.31781051 -0.52077401 0.043949239
-0.31137201 -0.52075559 0.043923195
-0.28900537 -0.52083391 0.043981314
-0.2863754 -0.52081388 0.043980472
-0.28328195 -0.52081293 0.043982994
-0.31487018 -0.51756918 0.043211807
-0.28183064 -0.51759475 0.043241583
-0.32772893 -0.51391286 0.043427967
-0.314282 -0.51393181 0.043444499
-0.2992259 -0.51392621 0.043428626
-0.28734571 -0.51396292 0.043477826
-0.28593621 -0.51396817 0.04347368
-0.28201094 -0.51397407 0.043480583
-0.33121446 -0.51026851 0.043733593
-0.33014369 -0.51032108 0.043757629
-0.32974991 -0.51032102 0.043756887
-0.31951076 -0.5103581 0.043798536
-0.31755298 -0.51029795 0.0437603
-0.31559935 -0.51036566 0.043785665
-0.31492424 -0.51034826 0.043794036
-0.30042556 -0.5103237 0.043735784
-0.29796875 -0.51034248 0.043763399
-0.29360816 -0.51034749 0.043779667
-0.28754318 -0.51035649 0.04378619
-0.28626031 -0.51030058 0.043736957
-0.31087691 -0.50713694 0.043260761
-0.30728692 -0.50708538 0.043215528
-0.30404773 -0.50713742 0.043247089
-0.29688144 -0.50713772 0.043264877
-0.29582092 -0.50716865 0.043262996
-0.29474196 -0.50716347 0.043272078
-0.29286572 -0.50711977 0.043256607
-0.29144976 -0.50715131 0.043261781
-0.29071057 -0.50715148 0.043267101
-0.28641936 -0.50715798 0.043258447
-0.33537331 -0.50354487 0.043709308
-0.33463329 -0.50357449 0.04371921
-0.33063254 -0.50358659 0.043716151
-0.32981426 -0.50358963 0.043738231
-0.32529265 -0.50361502 0.043751504
-0.32489657 -0.5036099 0.043751117
-0.31842017 -0.50356174 0.043720156
-0.31746316 -0.50358331 0.043718956
-0.31694686 -0.50359684 0.043732643
-0.31575808 -0.50362349 0.043778401
-0.31428817 -0.5035513 0.043717995
-0.31256944 -0.50359607 0.043745108
-0.31150365 -0.50363135 0.04377282
-0.3060526 -0.50355875 0.043719806
-0.30570382 -0.50355685 0.043717667
-0.30266947 -0.50358593 0.043737926
-0.29711032 -0.50358272 0.043740496
-0.29635036 -0.50356781 0.043711256
-0.29438359 -0.50360769 0.043748766
-0.2902624 -0.50360173 0.043755356
-0.28918764 -0.50360733 0.043765936
-0.3400231 -0.50043803 0.043391146
-0.33719128 -0.50040656 0.043374103
-0.33252111 -0.50040752 0.043371797
-0.32959381 -0.50035828 0.043334525
-0.3085919 -0.50041443 0.043374527
-0.30715176 -0.5004251 0.043388095
-0.3026216 -0.50043583 0.043381363
-0.29315627 -0.50042588 0.043392248
-0.29118425 -0.50044596 0.04339318
-0.28986844 -0.50039309 0.043354195
-0.3346847 -0.49725452 0.043098211
-0.32131127 -0.49729079 0.043101143
-0.320658 -0.49726206 0.04310948
-0.3162342 -0.49729019 0.043102425
-0.31256351 -0.49728006 0.043103728
-0.30286103 -0.49728397 0.043099169
-0.29530239 -0.49726036 0.043084607
-0.2934818 -0.49725738 0.043069847
-0.29277697 -0.49723172 0.043053135
-0.29136971 -0.49726906 0.043101877
-0.33203533 -0.49689695 0.04399899
-0.33171663 -0.49687284 0.043981545
-0.32825744 -0.4968735 0.043979574
-0.32753986 -0.49687707 0.043987345
-0.31473416 -0.49689853 0.043997403
-0.31397149 -0.49691156 0.043997411
-0.30593321 -0.4968949 0.043995433
-0.3016777 -0.49687889 0.043989789
-0.34649754 -0.49376446 0.043790385
-0.34573993 -0.49378636 0.043801099
-0.34123823 -0.49378717 0.043806769
-0.34055316 -0.49378932 0.0438269
-0.33946687 -0.4937855 0.043815382
-0.33834511 -0.49378741 0.043799225
-0.33744618 -0.49378175 0.043792702
-0.33568397 -0.49380714 0.043834597
-0.33456567 -0.49376884 0.043782238
-0.33349645 -0.49377638 0.043795019
-0.3207463 -0.49379313 0.043808039
-0.3162193 -0.49379399 0.043800458
-0.3158046 -0.49379879 0.043805633
-0.30243933 -0.49381742 0.043821752
-0.30135906 -0.49381077 0.04383206
-0.29913586 -0.49379113 0.043803312
-0.29845572 -0.49380574 0.043821242
-0.29530206 -0.49374425 0.043780599
-0.29454005 -0.49378324 0.043808311
-0.2905809 -0.49375269 0.043776795
-0.34740394 -0.49067503 0.043683149
-0.3294155 -0.49068534 0.04368417
-0.32851186 -0.4906311 0.043631513
-0.32745945 -0.4906396 0.0436492
-0.32635638 -0.49068695 0.043680493
-0.32529101 -0.4906632 0.043660667
-0.32455042 -0.4906095 0.043617677
-0.32345763 -0.49065527 0.043642923
-0.32242107 -0.49067423 0.043663736
-0.32153779 -0.49068153 0.043680143
-0.32058641 -0.49064204 0.043643918
-0.31737179 -0.49068457 0.043677647
-0.31644821 -0.49064761 0.043646924
-0.31574047 -0.49064338 0.043649644
-0.31229436 -0.49070907 0.043703604
-0.31157628 -0.49064884 0.043647517
-0.31088057 -0.49064526 0.043651097
-0.30934379 -0.49066877 0.043674435
-0.30874953 -0.49069175 0.043688446
-0.30747423 -0.49066368 0.043657426
-0.30659601 -0.49064356 0.043663513
-0.30536413 -0.49067718 0.04366798
-0.30445439 -0.49071857 0.0436932
-0.30396736 -0.49069545 0.043696318
-0.30243799 -0.49064097 0.043638524
-0.29600608 -0.49065557 0.043651521
-0.35013437 -0.4875488 0.043586437
-0.34963417 -0.48757905 0.04360418
-0.34419197 -0.48753029 0.043562513
-0.34328744 -0.4875139 0.043550033
-0.34265894 -0.48753518 0.043572944
-0.34188923 -0.48757759 0.04360966
-0.34060648 -0.48753697 0.043565877
-0.33651018 -0.48755068 0.043593444
-0.33538568 -0.48755077 0.043582592
-0.33447507 -0.4875395 0.04356445
-0.33359602 -0.48754025 0.043578271
-0.33269984 -0.48756236 0.043597993
-0.33143374 -0.48753941 0.043567989
-0.33035952 -0.48752818 0.043566819
-0.32947648 -0.48754132 0.043581925
-0.32896322 -0.48755181 0.04358672
-0.31322306 -0.48754054 0.04356961
-0.31251287 -0.48755363 0.04357601
-0.31157744 -0.48757058 0.043587364
-0.29928032 -0.48756549 0.043598916
-0.29892546 -0.48758486 0.043592311
-0.35343298 -0.48444936 0.043568172
-0.35258052 -0.48443949 0.043556832
-0.34641275 -0.48441312 0.04353556
-0.34550694 -0.48442867 0.043559007
-0.34446433 -0.48445597 0.043590739
-0.34376138 -0.48445374 0.043587357
-0.32633084 -0.48446614 0.043593682
-0.32536948 -0.4844338 0.043558013
-0.3245239 -0.48439842 0.043539278
-0.32361057 -0.48443553 0.043560121
-0.32270604 -0.48447725 0.043591209
-0.32144389 -0.48440862 0.043539818
-0.32054013 -0.48439503 0.043533124
-0.31946081 -0.48444831 0.043566164
-0.31840694 -0.48445877 0.043584757
-0.31747761 -0.48444402 0.043563601
-0.31640911 -0.4844124 0.04355593
-0.31551629 -0.48444504 0.043568123
-0.31459928 -0.4844718 0.043582857
-0.31354547 -0.48444581 0.043578397
-0.31226623 -0.48442173 0.043557379
-0.30846289 -0.48445138 0.043578025
-0.30757028 -0.48442018 0.043550659
-0.30662158 -0.48444211 0.04355276
-0.30547339 -0.48446235 0.043590959
-0.30437124 -0.4844695 0.043584377
-0.30328014 -0.48441514 0.043562982
-0.30243179 -0.48444217 0.043575987
-0.30152169 -0.48448202 0.043592434
-0.30065805 -0.48448282 0.04360272
-0.29936346 -0.48442018 0.043545891
-0.35604188 -0.48135278 0.043626457
-0.34917372 -0.48140422 0.043653309
-0.34830728 -0.48134929 0.043624874
-0.34740138 -0.4813664 0.043643478
-0.34635174 -0.48137 0.043635983
-0.34545884 -0.48138431 0.04365094
-0.34126198 -0.48136777 0.043637402
-0.34056625 -0.48132434 0.043592468
-0.33953166 -0.48132595 0.04360345
-0.33844289 -0.48137006 0.043639671
-0.33303627 -0.48135284 0.043634381
-0.33251756 -0.48134553 0.043629736
-0.33156478 -0.48135301 0.043617513
-0.32907778 -0.48136139 0.043642871
-0.32873785 -0.48136553 0.043648217
-0.32763445 -0.48130521 0.043575976
-0.32656208 -0.481336 0.043612722
-0.32569242 -0.4813475 0.043630276
-0.30944097 -0.48135018 0.0436166
-0.30850789 -0.48136476 0.04362464
-0.30742368 -0.48137441 0.04363592
-0.35221583 -0.47826695 0.0437603
-0.3514792 -0.47824803 0.043721709
-0.35038957 -0.47827372 0.043739349
-0.34949541 -0.47826517 0.043726072
-0.34879172 -0.4782643 0.043726139
-0.34244636 -0.47824833 0.043725494
-0.34139347 -0.47827986 0.043755244
-0.34067616 -0.47827992 0.043766305
-0.33597216 -0.47831452 0.04377589
-0.33277795 -0.47828346 0.043748118
-0.32307231 -0.47829503 0.043760184
-0.32161641 -0.47823647 0.043713238
-0.32055458 -0.47824964 0.043728139
-0.31946144 -0.47829345 0.043756697
-0.31839252 -0.47825837 0.043733526
-0.31745386 -0.4782137 0.043699935
-0.31656113 -0.47826114 0.043724541
-0.31571475 -0.47827557 0.043742388
-0.31443807 -0.47828183 0.043753091
-0.31229433 -0.47827163 0.043741908
-0.31014109 -0.47826901 0.043763578
-0.30937371 -0.47824979 0.043725565
-0.30523378 -0.47829181 0.043763705
-0.30448467 -0.4782483 0.04372159
-0.30355147 -0.47825614 0.043716162
-0.30204904 -0.47828513 0.043756768
-0.35339388 -0.47516909 0.043917138
-0.34512079 -0.47521764 0.043935273
-0.34419155 -0.47521996 0.043947302
-0.34329036 -0.4752064 0.043932103
-0.34295738 -0.47522819 0.043949973
-0.3383522 -0.4754833 0.043004598
-0.33615324 -0.47517994 0.043909565
-0.32854405 -0.47520757 0.043928791
-0.32746559 -0.47519568 0.043917447
-0.32677478 -0.47519687 0.043918621
-0.32424185 -0.47515994 0.043881241
-0.32319903 -0.47519106 0.043924004
-0.32263309 -0.47519881 0.043927882
-0.30621675 -0.47520223 0.043923259
-0.30588034 -0.47520739 0.043919448
-0.35644689 -0.47235459 0.043193109
-0.35550287 -0.47232977 0.043166589
-0.35100296 -0.47238067 0.043206099
-0.34957632 -0.472399 0.043218132
-0.34851608 -0.47236726 0.043199528
-0.34741554 -0.47236761 0.043188319
-0.34650329 -0.47237632 0.043190848
-0.34599116 -0.47237688 0.043192718
-0.34023347 -0.4724001 0.043218229
-0.33927095 -0.4723472 0.043178312
-0.33841228 -0.4723824 0.043208122
-0.33773082 -0.47238836 0.043221127
-0.33417016 -0.47236603 0.043194186
-0.33340383 -0.47239804 0.043219123
-0.33227649 -0.4723855 0.043193933
-0.33156797 -0.47232103 0.043157116
-0.33048823 -0.47235379 0.043190822
-0.32961541 -0.47238341 0.043207157
-0.32856676 -0.47237623 0.043220341
-0.32799599 -0.47238156 0.04321437
-0.32027757 -0.47238368 0.043209933
-0.31957492 -0.47240102 0.043226637
-0.31861374 -0.47236845 0.043191988
-0.31757841 -0.4723444 0.043176886
-0.31650639 -0.47238117 0.043208115
-0.31506014 -0.47237718 0.04320224
-0.3135865 -0.47234741 0.043172449
-0.3123796 -0.47238326 0.043202475
-0.31147575 -0.47239506 0.043216784
-0.31035674 -0.4723548 0.043185472
-0.30962938 -0.47234526 0.043187454
