# .PCD v0.7 - Point Cloud Data file format
VERSION 0.7
FIELDS x y z
SIZE 4 4 4
TYPE F F F
COUNT 1 1 1
WIDTH 1322
HEIGHT 1
VIEWPOINT 0 0 0 1 0 0 0
POINTS 1322
DATA ascii
0.035895646 0.023784176 -0.036018461
0.038867131 0.023987522 -0.04142718
0.005192183 0.022610772 -0.0045759231
0.025295079 0.023963898 -0.041606277
0.028038718 0.024165459 -0.046631739
0.028177634 0.02418226 -0.046934575
0.011600412 0.02472499 -0.047211424
-0.0019083619 0.024756195 -0.040317938
0.35622406 0.018017195 -0.055915773
0.32757908 0.016620187 -0.0047424734
0.35591254 0.018526513 -0.056977123
0.35660166 0.018562354 -0.058259308
0.33944544 0.020024758 -0.080504566
0.32933843 0.019887542 -0.063506544
0.33037347 0.019944556 -0.065425903
0.33090341 0.0199611 -0.066421971
0.28235492 0.017562188 -0.00026299059
0.28491381 0.01715247 -0.003403753
0.28674954 0.01734091 -0.0066975355
0.28701037 0.017350167 -0.0071664602
0.31044877 0.019423075 -0.052163363
0.31619883 0.019868955 -0.062652245
0.29647464 0.019154709 -0.048007205
0.31307977 0.020257527 -0.078683466
0.31362414 0.020332325 -0.079619735
0.29460099 0.019582134 -0.046151206
0.29510874 0.019618008 -0.047110334
0.29579523 0.019700505 -0.048350841
0.30624205 0.020327855 -0.067711249
0.3083427 0.020548563 -0.071444437
0.31090969 0.02071847 -0.076191768
0.31206411 0.020768754 -0.07839632
0.31283003 0.020851579 -0.07973963
0.27099219 0.01970366 -0.043984622
0.27305114 0.020463917 -0.049323648
0.27343607 0.020488076 -0.050017998
0.2638306 0.02025038 -0.050448924
0.25362989 0.020263918 -0.049617767
0.24747939 0.020479649 -0.039806455
0.24873884 0.020614823 -0.042015657
0.25300014 0.020884752 -0.049950957
0.22432992 0.019241784 -0.013454318
0.22505096 0.019315138 -0.014709219
0.24012455 0.020305179 -0.042551771
0.22823055 0.020768851 -0.03828758
0.21836993 0.020914327 -0.036220551
0.22127761 0.021113228 -0.041592211
0.19509184 0.019718368 -0.0078234226
0.19698477 0.019834442 -0.01133655
0.21738352 0.021241464 -0.048895165
0.18371677 0.020246726 -0.0026559234
0.19761235 0.020518625 -0.026801467
0.20539241 0.020942632 -0.041360274
0.20584066 0.021367133 -0.042785227
0.20838796 0.021201439 -0.046773836
0.20809458 0.021894217 -0.047657564
0.20840859 0.021850934 -0.04831849
0.21297286 0.021506427 -0.055220723
0.18310417 0.020293221 -0.014379963
0.19937596 0.021379175 -0.04444252
0.17459197 0.020009547 -0.011442274
0.17550614 0.020795427 -0.014487684
0.18985471 0.021044157 -0.039588377
0.18960977 0.021758206 -0.040496841
0.1900961 0.021762524 -0.041463643
0.16235608 0.020338748 -0.0029761791
0.16345623 0.020472737 -0.0048717707
0.17662326 0.021329314 -0.029261872
0.17731437 0.021397507 -0.030451149
0.17746755 0.021407045 -0.030755624
0.179959 0.021534983 -0.035423934
0.18412636 0.021788903 -0.043211162
0.15554881 0.020530451 -0.0030308217
0.16812097 0.021396581 -0.026114389
0.17932273 0.022153616 -0.046758041
0.17964365 0.022185061 -0.047367126
0.18003473 0.022164766 -0.048168376
0.16073543 0.020923384 -0.023723841
0.16047791 0.021694075 -0.024541155
0.16898263 0.021474782 -0.038968265
0.16957565 0.021539189 -0.039963484
0.16997644 0.022355817 -0.041941792
0.17058253 0.02235065 -0.043212414
0.1709328 0.022337744 -0.043911323
0.15061007 0.021248383 -0.017361745
0.16619676 0.022284137 -0.046135664
0.16707434 0.022380803 -0.047686189
0.16753791 0.022319548 -0.048715368
0.14931005 0.021515405 -0.025891602
0.1498512 0.021576952 -0.026843965
0.15051255 0.021933902 -0.028887793
0.15053758 0.022322714 -0.029581591
0.15425135 0.021857563 -0.035031199
0.1547832 0.021889813 -0.035977468
0.15545189 0.022665629 -0.038615823
0.15993574 0.022245452 -0.045507714
0.13083261 0.020772394 -0.0027407408
0.13974655 0.021356286 -0.01924029
0.14373952 0.021635311 -0.026522413
0.1442188 0.021681095 -0.027437776
0.14957276 0.022054117 -0.037228093
0.15551212 0.02241689 -0.048293695
0.14292794 0.022360876 -0.026316762
0.14977027 0.022806879 -0.039025798
0.130803 0.021445019 -0.013401687
0.1389643 0.021941276 -0.028610647
0.14239949 0.022171551 -0.034907758
0.14458841 0.022287689 -0.039037481
0.1448016 0.022334501 -0.039358854
0.14918368 0.022643395 -0.047413856
0.14974162 0.022662135 -0.048521996
0.11972544 0.021457314 -0.0037797093
0.12216371 0.021651391 -0.0081655383
0.12267131 0.021653226 -0.0091523081
0.12299354 0.021689776 -0.0097585022
0.12505105 0.021829411 -0.013550103
0.13210197 0.022318404 -0.026496425
0.1325243 0.022344228 -0.02729705
0.13701713 0.022605481 -0.035665184
0.13756549 0.022659753 -0.036647782
0.14219207 0.022972915 -0.045157805
0.14367357 0.02303182 -0.048018411
0.11805528 0.021468366 -0.010060057
0.13568404 0.022633892 -0.042610064
0.13966925 0.022928718 -0.049855351
0.13980575 0.022939535 -0.050136551
0.11306465 0.021363417 -0.010165066
0.11905438 0.021746112 -0.021279186
0.11927853 0.021767449 -0.021648839
0.12384211 0.022061281 -0.030099437
0.12788981 0.022323668 -0.037611723
0.11352896 0.022173878 -0.012300938
0.11388543 0.022228682 -0.012921229
0.11444253 0.022269491 -0.013886124
0.11542699 0.022323053 -0.015771315
0.11649108 0.022439726 -0.0176
0.11699044 0.022448439 -0.018588394
0.1173166 0.022473639 -0.019211367
0.11990284 0.022662448 -0.023953632
0.12031113 0.022655319 -0.024769306
0.12055996 0.022664813 -0.02525723
0.12324234 0.02284563 -0.030142814
0.12626305 0.023089245 -0.03563875
0.1037012 0.021952886 -0.003229931
0.10395777 0.021978766 -0.0036842078
0.1045786 0.022032633 -0.0047731847
0.10691024 0.022143934 -0.0092202276
0.10797708 0.021373475 -0.010030106
0.10844822 0.022188131 -0.012175679
0.10913564 0.02226378 -0.013378173
0.099296346 0.022115618 -0.0042719096
0.11144738 0.022052418 -0.02567704
0.10868259 0.022701783 -0.021722451
0.10920627 0.022722036 -0.022690862
0.11177186 0.022906002 -0.02742447
0.11500739 0.023100704 -0.0334526
0.11586541 0.023176763 -0.034977823
0.11633351 0.023238594 -0.035780072
0.095259517 0.02153457 -0.004923135
0.097662665 0.021727849 -0.0092919767
0.098683909 0.021785978 -0.01122658
0.099742591 0.021876916 -0.013097182
0.10057128 0.021927865 -0.014654383
0.10206416 0.021992156 -0.017518222
0.1044777 0.022129839 -0.022022948
0.093674637 0.022264924 -0.0031497478
0.093838044 0.022257108 -0.0034705997
0.10071909 0.022773718 -0.016079783
0.10225091 0.022878023 -0.018866733
0.10392895 0.022952968 -0.022074997
0.10439127 0.02299998 -0.022875428
0.10979041 0.023335431 -0.032877952
0.11008753 0.023345185 -0.033447966
0.11046389 0.023388568 -0.034116969
0.11578421 0.023778733 -0.04387781
0.090113074 0.02187367 -0.004482016
0.093405329 0.022088882 -0.01060155
0.093947254 0.022111412 -0.011593059
0.10349885 0.022731818 -0.029330313
0.10405511 0.022773033 -0.030294314
0.10439583 0.022813551 -0.030906811
0.10555378 0.022865459 -0.033089429
0.11142653 0.02330065 -0.043834388
0.11276533 0.023332192 -0.046421885
0.090295099 0.022678966 -0.013761982
0.099173643 0.023245167 -0.030252442
0.09952455 0.02329102 -0.030835092
0.10309941 0.023515813 -0.03750442
0.1050465 0.023611585 -0.041121021
0.10618181 0.023717059 -0.043188184
0.10705999 0.023776164 -0.044781089
0.10753404 0.023782758 -0.045756623
0.10786953 0.023799937 -0.046349764
0.081622355 0.022078373 -0.0057600141
0.082300447 0.022098828 -0.0070449412
0.083006412 0.022194963 -0.0082633346
0.088817604 0.022559548 -0.019041777
0.099119328 0.023239732 -0.038051218
0.10166682 0.023417741 -0.042752936
0.078317918 0.021972679 -0.0074753314
0.081757508 0.022213541 -0.013767302
0.085375838 0.022445742 -0.020460099
0.089325517 0.022745166 -0.027684763
0.091183946 0.022839442 -0.031210065
0.092181012 0.022898868 -0.033047944
0.093728915 0.022966664 -0.035991088
0.096108891 0.02311584 -0.040402815
0.097651385 0.023233332 -0.043250263
0.098894514 0.023346454 -0.045434386
0.099222243 0.023339048 -0.046098426
0.074935451 0.022646327 -0.002147764
0.076456532 0.02273035 -0.0050062835
0.078598626 0.022885337 -0.0089474022
0.078939922 0.022899054 -0.0096068382
0.081690237 0.023092089 -0.014653146
0.082105972 0.023103105 -0.015450448
0.084141701 0.023202818 -0.01927872
0.085569568 0.023371357 -0.021735027
0.085866161 0.02337792 -0.022351772
0.094952688 0.023970429 -0.039152786
0.095519811 0.023961278 -0.040313497
0.097692184 0.024104724 -0.04428789
0.097930431 0.024142154 -0.044700265
0.098201737 0.024192352 -0.045165911
0.070623212 0.022555616 -0.0019777119
0.071119376 0.022550762 -0.0029860139
0.071468182 0.022611152 -0.0035529584
0.073238082 0.02269436 -0.0069103837
0.074871562 0.022821212 -0.0098472834
0.077427126 0.022965979 -0.014633179
0.081081413 0.023259472 -0.021265626
0.081310861 0.023266956 -0.021706447
0.084846169 0.023534728 -0.028143018
0.085197784 0.023564413 -0.028781265
0.0857144 0.023593955 -0.029750809
0.088784643 0.023762707 -0.035512164
0.090050235 0.023852821 -0.037807062
0.092006721 0.023964869 -0.041508958
0.092180543 0.023969552 -0.041819856
0.064834096 0.022431295 0.00090166926
0.070240609 0.022824401 -0.008988142
0.070409417 0.022821916 -0.009306863
0.077585876 0.02328388 -0.022626728
0.077971473 0.023330668 -0.023250088
0.07953763 0.023380022 -0.026276588
0.079787605 0.023410119 -0.026721641
0.081063136 0.02353129 -0.028937832
0.081428915 0.023554491 -0.029694378
0.090248726 0.024148021 -0.045930311
0.064894661 0.022833016 -0.0068183392
0.066788137 0.022933943 -0.010362521
0.067501865 0.02299783 -0.011574328
0.068732962 0.02304792 -0.014003724
0.069037437 0.023086427 -0.014483154
0.070214011 0.023167327 -0.016647249
0.070539035 0.023171604 -0.017304346
0.073542282 0.023400787 -0.022804812
0.073992871 0.023433184 -0.023575798
0.074406289 0.023453262 -0.024366945
0.076576233 0.023612296 -0.028359145
0.076736279 0.023634687 -0.028635904
0.078179322 0.023715919 -0.03132607
0.08026094 0.023885038 -0.03508307
0.080692641 0.023916075 -0.035874605
0.081278913 0.023945192 -0.036992714
0.081616126 0.0239604 -0.03765139
0.081965201 0.023992972 -0.038261175
0.082665667 0.024050372 -0.039499283
0.083006538 0.024065271 -0.040137112
0.084917173 0.024162889 -0.043794975
0.085464194 0.024192259 -0.044759005
0.086800747 0.024260022 -0.047336698
0.057525836 0.02278566 -0.000875175
0.059390098 0.022913055 -0.0042563528
0.059874043 0.022945115 -0.0051796734
0.062312357 0.023097003 -0.009751752
0.062477022 0.023123458 -0.010024473
0.063204974 0.023180898 -0.011262164
0.0635463 0.023213662 -0.011871472
0.065759607 0.02335256 -0.016013086
0.066002354 0.023342729 -0.016514823
0.067361064 0.023439536 -0.019025028
0.069507517 0.023578383 -0.022984624
0.069846548 0.023601955 -0.023620054
0.070267722 0.0236267 -0.024397805
0.073104151 0.023812378 -0.029651314
0.073655702 0.023874518 -0.030578732
0.07505703 0.023909055 -0.033301741
0.075395405 0.023955375 -0.033909008
0.077037014 0.02408416 -0.03690289
0.077296413 0.024084358 -0.037387431
0.055906706 0.023213724 -0.0054606199
0.056115858 0.023207806 -0.0058428794
0.059575461 0.022560641 -0.011311129
0.059755407 0.022570882 -0.011621356
0.063094094 0.023238815 -0.01823397
0.066225961 0.023879997 -0.024547905
0.066571817 0.023928583 -0.025165334
0.069656685 0.023211859 -0.029954985
0.07021115 0.024189476 -0.031763822
0.072306849 0.023395991 -0.034848675
0.07249137 0.023863189 -0.035610661
0.073906578 0.024421267 -0.038608313
0.075946145 0.024126939 -0.041894212
0.076379865 0.024160745 -0.042686358
0.077039145 0.023727633 -0.043515086
0.07742992 0.024057044 -0.044560641
0.078060679 0.023801453 -0.045396939
0.078596711 0.023842089 -0.046348929
0.078754477 0.023844182 -0.046651006
0.051584974 0.02258566 -0.0042121112
0.051913418 0.022618465 -0.004845798
0.05306787 0.022720184 -0.0068630874
0.053459987 0.022725018 -0.0076566786
0.054976597 0.022838218 -0.010390282
0.05533424 0.02286892 -0.011040762
0.055719353 0.022893567 -0.011787876
0.061604522 0.023300884 -0.022621214
0.063118972 0.023393301 -0.025468141
0.063292429 0.023382878 -0.025797993
0.065011501 0.023507018 -0.028938219
0.065286495 0.023518639 -0.029454559
0.065609746 0.023548365 -0.030069798
0.06620355 0.02358944 -0.031154707
0.069233321 0.023798762 -0.036733374
0.069481231 0.02382211 -0.037162617
0.070985086 0.023867965 -0.040058151
0.072426163 0.024007393 -0.0425708
0.072792947 0.024030903 -0.043327138
0.046277247 0.022950113 -0.0018583685
0.052149817 0.023344006 -0.012672752
0.058728032 0.023805305 -0.02477017
0.060447894 0.023898283 -0.027981356
0.062021516 0.023986924 -0.030947879
0.065905891 0.024276499 -0.038018823
0.042656362 0.022552334 -0.0018158257
0.043198496 0.022599675 -0.0027681887
0.047032505 0.022854328 -0.0098555088
0.047450438 0.02284931 -0.010712072
0.047963753 0.022895394 -0.011637732
0.048326097 0.022922277 -0.012274772
0.049015962 0.022984277 -0.013513148
0.051374003 0.023152791 -0.017828509
0.051572099 0.023141945 -0.018277317
0.054730877 0.023375601 -0.024061561
0.057649642 0.023556426 -0.029447615
0.058993116 0.023650447 -0.031975612
0.059166364 0.023640096 -0.032305509
0.061239243 0.023785649 -0.036106393
0.061732493 0.023812056 -0.037059128
0.038097076 0.023083776 -0.0007610023
0.038792849 0.023163052 -0.0019964129
0.039055839 0.023179309 -0.0024718493
0.039716281 0.023186579 -0.0037778616
0.048215128 0.023765659 -0.019407347
0.058130167 0.024414914 -0.037813067
0.065030001 0.024890441 -0.05051513
0.034126796 0.022808135 -2.1323562e-05
0.034461044 0.02283923 -0.00062984228
0.034799442 0.02286721 -0.0012457967
0.038845979 0.023134088 -0.0086930841
0.039195515 0.023165394 -0.0093279332
0.043519527 0.023416528 -0.01742588
0.044236623 0.023480851 -0.018672198
0.047368787 0.023729939 -0.024361253
0.057639278 0.024370912 -0.043449402
0.048074841 0.025013931 -0.046116635
0.33834326 0.017193817 0.0010181963
0.32377288 0.017404579 -0.00091910362
0.32754049 0.01766221 -0.0078928173
0.33288288 0.018004619 -0.017782092
0.3331793 0.018040175 -0.018282741
0.33918419 0.018477093 -0.029336214
0.31426674 0.017297354 0.014927998
0.32535177 0.018072577 -0.0054241717
0.32595915 0.018102001 -0.006611973
0.33305234 0.018570475 -0.019669592
0.3389264 0.018992268 -0.030493557
0.34274575 0.019228049 -0.037576973
0.34328252 0.019249015 -0.038569361
0.3439652 0.019298995 -0.039844394
0.30742592 0.017430548 0.0022099912
0.32404935 0.018513201 -0.028509408
0.32919872 0.018892299 -0.037974566
0.35297045 0.020465262 -0.081897438
0.3538323 0.020495696 -0.083524257
0.35605162 0.020650893 -0.087625533
0.32889307 0.019435376 -0.038992822
0.33452737 0.020259216 -0.073029578
0.33025244 0.020486955 -0.066786513
0.33071226 0.020519895 -0.067680418
0.33439279 0.020814791 -0.074374408
0.33999312 0.021172747 -0.084748045
0.3402476 0.021192979 -0.085222915
0.29783767 0.018912576 -0.0085346848
0.30165201 0.019164931 -0.015568137
0.31109494 0.01979439 -0.03299886
0.31691653 0.020176049 -0.043745145
0.3170819 0.020181023 -0.044057697
0.31776637 0.020243254 -0.045317173
0.31822792 0.020282533 -0.046204552
0.30677933 0.019741327 -0.046940476
0.30694377 0.019758523 -0.047237441
0.3081156 0.019900639 -0.049377561
0.28118807 0.018622562 -0.0013146102
0.30222762 0.020066697 -0.040042296
0.32126847 0.021332353 -0.075229481
0.2846669 0.019540656 -0.029350355
0.29447904 0.020169029 -0.047491193
0.29489166 0.020198587 -0.048269197
0.30766892 0.021077013 -0.071801797
0.28192484 0.019910935 -0.025923431
0.29384831 0.02072601 -0.047867343
0.3037762 0.021392945 -0.066191226
0.3056078 0.021455456 -0.06968838
0.31073999 0.021847967 -0.079106539
0.31088004 0.021862358 -0.079387099
0.27136144 0.020215498 -0.027941212
0.27198249 0.020321434 -0.029010475
0.27243602 0.020350778 -0.029799297
0.245574 0.019198906 -0.00022536516
0.27332479 0.021110808 -0.051313177
0.26276809 0.020805459 -0.049995497
0.25603572 0.020934211 -0.039170429
0.23151563 0.020006256 -0.011928126
0.23776783 0.021116532 -0.024865225
0.25239351 0.021485325 -0.050283998
0.24616821 0.02167364 -0.04041265
0.24052292 0.021042492 -0.044709504
0.22735998 0.020773742 -0.021963
0.23006292 0.02093583 -0.027032182
0.23026805 0.020973369 -0.02733478
0.23629576 0.021365676 -0.038439989
0.23207037 0.021674905 -0.046890751
0.21306255 0.021073133 -0.013263077
0.2149386 0.021175314 -0.0168055
0.22348271 0.02178752 -0.032439873
0.22796398 0.022059903 -0.040793285
0.22822048 0.022080841 -0.04127121
0.22850882 0.022106782 -0.041772887
0.23147853 0.022326648 -0.04717353
0.21812706 0.021596115 -0.037161157
0.19313189 0.020325296 -0.0055084378
0.20361179 0.021682024 -0.026384145
0.20450354 0.02175327 -0.028004915
0.21098585 0.02151867 -0.038457721
0.21472932 0.021754775 -0.045423463
0.21493034 0.021759771 -0.045781389
0.2154976 0.022427235 -0.048424706
0.18487005 0.02107143 -0.0061079264
0.18686579 0.021156013 -0.0099217296
0.20597401 0.022466207 -0.045037061
0.18438959 0.021132803 -0.018089339
0.18701203 0.021261998 -0.023008004
0.18764877 0.021336844 -0.024114981
0.19155239 0.02154908 -0.031454384
0.20036845 0.022171406 -0.047583938
0.20070256 0.022144187 -0.048352361
0.20106089 0.022187807 -0.04900606
0.18544072 0.021847557 -0.021563813
0.1918605 0.022338642 -0.033278599
0.19626762 0.022629388 -0.041451842
0.19687243 0.022667021 -0.042568818
0.19729018 0.022632388 -0.043420166
0.19965826 0.022871569 -0.047630712
0.17608172 0.021550244 -0.016953275
0.18929532 0.022467986 -0.041323543
0.19254978 0.02266987 -0.047350466
0.19273388 0.022685442 -0.047671184
0.1628371 0.021154299 -0.0051166862
0.16848668 0.021551549 -0.015525982
0.16877922 0.02152608 -0.016154572
0.17749521 0.022108067 -0.032274932
0.17889714 0.022195904 -0.034835175
0.18937604 0.022942508 -0.054139033
0.16338226 0.021898843 -0.0075551718
0.16354063 0.021885667 -0.0079119056
0.17833194 0.022906754 -0.035105363
0.18437757 0.02334879 -0.046221524
0.15658993 0.021370271 -0.006158486
0.15688841 0.021379421 -0.006783247
0.15935373 0.021591719 -0.011192396
0.16754511 0.022134304 -0.026353985
0.16854274 0.02216235 -0.028268814
0.17854007 0.022856291 -0.046656445
0.15575045 0.022049582 -0.0059979856
0.16215834 0.022500781 -0.017732993
0.16863172 0.022937326 -0.029742777
0.15088494 0.021828586 -0.0080296099
0.15393144 0.022012794 -0.013733029
0.15406682 0.022020962 -0.014024675
0.15681365 0.022162383 -0.019132063
0.15716258 0.022212496 -0.019739434
0.16115913 0.022533694 -0.026992932
0.16145205 0.02250915 -0.027621552
0.14572915 0.021675151 -0.0096819103
0.14605302 0.021693531 -0.010292232
0.14985648 0.021959972 -0.017248362
0.16253927 0.022826178 -0.04062444
0.16288009 0.022867348 -0.04125078
0.16543265 0.023016613 -0.045951813
0.16582662 0.023052856 -0.046682298
0.1661557 0.023076769 -0.047271937
0.16695243 0.023094382 -0.048848942
0.14440608 0.022398254 -0.0084141642
0.14485079 0.022428844 -0.0092087239
0.16284204 0.023629768 -0.042436182
0.16394633 0.0236803 -0.044535637
0.16425227 0.023691786 -0.04515335
0.16452949 0.023710713 -0.045652047
0.1396154 0.021650888 -0.0092903227
0.15088615 0.022387356 -0.030161545
0.15460408 0.022688782 -0.036857098
0.15503725 0.022666238 -0.037782833
0.14390069 0.022742663 -0.018392026
0.14711501 0.022933125 -0.024400592
0.15448229 0.023453144 -0.037955284
0.15529451 0.023460105 -0.039584994
0.15638354 0.023577251 -0.041448608
0.15841852 0.023684524 -0.045234412
0.13081385 0.021566804 -0.0039141476
0.13225061 0.022440145 -0.007854715
0.13495377 0.022241652 -0.012164265
0.13836595 0.022093477 -0.01781033
0.13912998 0.022129264 -0.019238621
0.1422936 0.02313707 -0.026351914
0.14318019 0.022401474 -0.026707456
0.14944038 0.022802517 -0.038337842
0.14953354 0.023589281 -0.039799169
0.1334359 0.022386536 -0.019593522
0.13737068 0.0234969 -0.02795729
0.14115593 0.022930834 -0.033793017
0.14405929 0.023070224 -0.039230421
0.14473554 0.023155265 -0.040399835
0.1456283 0.024060454 -0.043143287
0.1495591 0.024314351 -0.050451994
0.11917569 0.022224888 -0.0039274544
0.11953913 0.022277541 -0.0045541227
0.11990017 0.022293439 -0.0052146465
0.12850873 0.022843078 -0.021173567
0.13153125 0.023102595 -0.026658624
0.13598704 0.023379058 -0.034918129
0.13916498 0.023594858 -0.04074949
0.13981107 0.023668356 -0.041866988
0.14437434 0.023960713 -0.050352812
0.11387819 0.021974549 -0.0035892427
0.11423243 0.022032335 -0.0041451454
0.13187833 0.023229226 -0.036692277
0.13225862 0.023254111 -0.03736195
0.13497528 0.023439834 -0.042409956
0.13560367 0.023432273 -0.043680355
0.11454828 0.02288707 -0.0058971643
0.13008898 0.023896057 -0.034666255
0.13086593 0.024004044 -0.03591691
0.13117698 0.02400651 -0.03653951
0.13171549 0.024053687 -0.037514955
0.11441345 0.02312652 -0.014943272
0.12052669 0.023498254 -0.026295692
0.12109223 0.023584854 -0.027235612
0.12186373 0.023663707 -0.02854228
0.1220905 0.023648091 -0.02912043
0.12552166 0.023850746 -0.035486519
0.10522552 0.022920165 -0.0070900023
0.10740511 0.023039144 -0.011173978
0.10893182 0.023098875 -0.014104158
0.10948143 0.023166778 -0.015039623
0.11305701 0.023391001 -0.021709338
0.11508884 0.023490369 -0.025476217
0.12095918 0.023946976 -0.036199108
0.12050976 0.024372548 -0.044555679
0.10072365 0.023638448 -0.017127737
0.10324425 0.023778696 -0.021872744
0.10492844 0.023861939 -0.025044918
0.10547808 0.02391799 -0.025992587
0.10581902 0.023940373 -0.026616305
0.10635924 0.02398837 -0.027593687
0.10683656 0.024009043 -0.028525144
0.10806924 0.024129767 -0.030680031
0.10874964 0.024148207 -0.032008454
0.10992342 0.024209704 -0.03420946
0.11113658 0.02432311 -0.036403775
0.11393787 0.024537342 -0.041464686
0.08780399 0.022596046 -0.0012405366
0.090198264 0.022752117 -0.0056652427
0.091894895 0.022865549 -0.0088210553
0.09431266 0.02305837 -0.013190418
0.094943777 0.023108657 -0.014317825
0.096739694 0.023231233 -0.017631844
0.1101698 0.024039822 -0.042653993
0.11173216 0.024188675 -0.045476928
0.1120352 0.024165217 -0.046157151
0.087946616 0.023462996 -0.0025595278
0.090505168 0.023626402 -0.0073109269
0.099807374 0.024232367 -0.024564281
0.10017714 0.024248157 -0.025240362
0.10059664 0.024298523 -0.025987431
0.10133126 0.02427157 -0.035223603
0.10167897 0.024310149 -0.035860211
0.10257826 0.024341853 -0.037558421
0.10333018 0.024416942 -0.038859189
0.10371777 0.024432257 -0.039635345
0.10611872 0.024605718 -0.044058338
0.10636063 0.024621809 -0.044497073
0.099648058 0.024127649 -0.032200009
0.10016575 0.024154371 -0.033178434
0.10052318 0.024208143 -0.033799365
0.10198153 0.024301253 -0.036486149
0.10685441 0.024638336 -0.045460358
0.07789468 0.022713229 0.0001333952
0.08288338 0.023079135 -0.0089714527
0.087128334 0.023363087 -0.016835675
0.089587577 0.023563301 -0.021266639
0.089822672 0.023573719 -0.021706313
0.090267032 0.0235986 -0.022532731
0.091899499 0.023713881 -0.025514841
0.092489891 0.023745988 -0.026643395
0.093331732 0.023767767 -0.028290898
0.093795024 0.023805274 -0.029180527
0.094312429 0.023843972 -0.030085132
0.094513029 0.02384432 -0.030442074
0.095154256 0.023865728 -0.031727612
0.079404742 0.023701651 -0.00364317
0.09507747 0.024731815 -0.032623038
0.095690981 0.024799483 -0.033691868
0.095947452 0.024813861 -0.034153283
0.096400917 0.024844818 -0.034965038
0.076133482 0.023624869 -0.0053397715
0.079049341 0.02381644 -0.010718003
0.082253419 0.024042286 -0.016585141
0.08427541 0.024163984 -0.020386219
0.085725926 0.024260085 -0.023072675
0.08607994 0.024274841 -0.023699209
0.094766274 0.024821639 -0.039835259
0.095994122 0.024922889 -0.042046994
0.096623279 0.024988845 -0.04317683
0.07152003 0.02352451 -0.0045228451
0.07341335 0.023647979 -0.008006528
0.074803993 0.023709208 -0.010696009
0.075218923 0.023761772 -0.011457175
0.077651538 0.023921957 -0.015911907
0.078105122 0.023962157 -0.016680107
0.078685507 0.02399949 -0.017760664
0.08124359 0.024143107 -0.022570938
0.085721061 0.024490876 -0.030728355
0.086248048 0.024537178 -0.031663254
0.086753264 0.024577705 -0.032564849
0.087199681 0.024600804 -0.033383593
0.087557986 0.024616562 -0.034064218
0.088135615 0.024655988 -0.035170421
0.088718541 0.024677772 -0.03627643
0.089110635 0.024697846 -0.037041366
0.089455523 0.024726415 -0.037647188
0.090058252 0.024766479 -0.038753465
0.090369895 0.024745438 -0.039462641
0.090829723 0.024776615 -0.04027994
0.092047468 0.024897756 -0.042432606
0.064364515 0.023299631 0.0008636713
0.064930931 0.023347165 -0.00011150539
0.065387018 0.023407537 -0.00093686581
0.065784305 0.023456518 -0.0015946925
0.066255279 0.023437809 -0.002586782
0.067585275 0.02356657 -0.0048927963
0.070251815 0.023701292 -0.0099985749
0.071625769 0.023800999 -0.012491554
0.073684387 0.02394513 -0.016285613
0.073942199 0.023966637 -0.01676333
0.074359514 0.023986556 -0.017545789
0.074865147 0.023993766 -0.018522874
0.077814981 0.024240777 -0.023856983
0.079662144 0.024338849 -0.027373105
0.081568494 0.024465788 -0.030831292
0.060810633 0.023460418 -0.00014391541
0.068923265 0.02401611 -0.015072182
0.070385441 0.024081079 -0.017907232
0.070728146 0.024123838 -0.018514425
0.07436996 0.024391042 -0.025122866
0.076580234 0.024508139 -0.029276356
0.076754838 0.024511851 -0.029637441
0.07823547 0.024637435 -0.032271758
0.083220497 0.025003649 -0.041408703
0.083794706 0.025016457 -0.042564541
0.086158134 0.025114877 -0.047064409
0.05911997 0.023822131 -0.0045871139
0.059899919 0.023842879 -0.0061342865
0.060559958 0.023901967 -0.0072632879
0.060921289 0.023950193 -0.007934019
0.061540522 0.023990851 -0.0090560168
0.061862461 0.02398161 -0.009764567
0.062530033 0.024041969 -0.010954186
0.070399404 0.024537254 -0.025520071
0.050618924 0.023498105 -0.003142029
0.051070869 0.023518242 -0.0039733201
0.051819451 0.023566559 -0.0053949207
0.053009987 0.023666833 -0.0075808167
0.055926718 0.023831852 -0.013002366
0.058391564 0.024003945 -0.017535046
0.058583781 0.024042074 -0.017824322
0.061576292 0.024214979 -0.023394346
0.065582789 0.024478216 -0.030815691
0.071057335 0.024843857 -0.040951014
0.046220638 0.023898557 -0.0024632663
0.046537168 0.023762284 -0.0096540898
0.048901156 0.023936346 -0.014060438
0.069315255 0.026268743 -0.052332982
0.038193911 0.024070287 -0.0016131848
0.033737481 0.023744347 5.5655837e-05
0.34966326 0.017261539 0.0091245174
0.33648682 0.018600151 -0.00051361322
0.3439351 0.01914341 -0.014226675
0.32578498 0.018625252 -0.0079226494
0.32635707 0.018654343 -0.0089529455
0.33234388 0.019041486 -0.020011693
0.33872169 0.019512314 -0.031725943
0.34108853 0.019682959 -0.036106676
0.34137669 0.019684333 -0.036690056
0.34381557 0.019795422 -0.041272342
0.34438062 0.019836152 -0.042270929
0.34898391 0.020197356 -0.050697714
0.32399082 0.019037165 -0.0061839819
0.32551086 0.019142043 -0.0090191066
0.33900118 0.020010425 -0.033964813
0.34036177 0.020149037 -0.03640613
0.34104115 0.02017967 -0.037707478
0.34118992 0.020191874 -0.037992477
0.34414846 0.020359783 -0.043470263
0.34452328 0.020372994 -0.044141382
0.34866241 0.020701926 -0.051728129
0.35889035 0.021337554 -0.070668638
0.30685693 0.018494908 3.2171607e-05
0.31992725 0.019335434 -0.024194196
0.3228972 0.019531079 -0.02958867
0.34819621 0.021257715 -0.076335639
0.34974042 0.021307692 -0.079199627
0.35265458 0.021513809 -0.084597006
0.30404302 0.018880494 0.0036280304
0.30663452 0.019018324 -0.0011802614
0.31927204 0.019838057 -0.024594933
0.32279083 0.020069301 -0.031043068
0.32951963 0.020574383 -0.043403655
0.32979226 0.020595871 -0.043888271
0.34805867 0.021785963 -0.077680618
0.35133335 0.021996737 -0.083710939
0.29698876 0.019973569 -0.010218397
0.30082199 0.020243123 -0.017238349
0.31035542 0.02031518 -0.033218339
0.31730157 0.020768544 -0.046051502
0.31791639 0.020807885 -0.047250986
0.31773722 0.021307819 -0.048581287
0.32533288 0.021348236 -0.060844108
0.32547081 0.021338772 -0.061130464
0.32940859 0.02211887 -0.070087507
0.33305371 0.02240603 -0.076720774
0.33852601 0.022207169 -0.085264638
0.28436822 0.019450981 -0.0086879283
0.30523852 0.020806922 -0.047301278
0.30772147 0.021010596 -0.051780522
0.30940056 0.021095891 -0.054921821
0.31027675 0.021162566 -0.056505501
0.32040939 0.021849252 -0.075197697
0.32170001 0.021908294 -0.077654213
0.3044216 0.021338053 -0.047369868
0.31320658 0.021965154 -0.063471273
0.31444356 0.022048596 -0.065749392
0.28766495 0.020928983 -0.038017511
0.28905234 0.021009307 -0.040587425
0.28929886 0.021023273 -0.041048393
0.29020709 0.021124272 -0.042680323
0.29126832 0.021181302 -0.044659942
0.29271114 0.021228701 -0.047377422
0.29297987 0.021250091 -0.047853664
0.30652785 0.02217501 -0.07284908
0.30706543 0.022230478 -0.073801562
0.31084239 0.022456987 -0.080819011
0.28130361 0.02105986 -0.027900741
0.28765091 0.02151943 -0.039590925
0.28840148 0.021562036 -0.040958852
0.29107869 0.021694724 -0.045987085
0.29173803 0.021728901 -0.047221959
0.29194021 0.021758446 -0.047550857
0.30345869 0.02257994 -0.068752646
0.26207793 0.020188516 -0.012367606
0.27069101 0.02076247 -0.028282449
0.27214643 0.020920191 -0.030824229
0.27965167 0.021421298 -0.044725195
0.28121614 0.021510623 -0.047618002
0.26172805 0.020751299 -0.013324708
0.27181041 0.021496881 -0.031779245
0.27213293 0.021485947 -0.032430038
0.2726289 0.021520242 -0.033353478
0.27951258 0.021975338 -0.046065778
0.25876319 0.021398999 -0.027452186
0.25908718 0.021432431 -0.028064668
0.25935584 0.021452347 -0.02855204
0.26256883 0.02100664 -0.032994539
0.26936847 0.021435682 -0.04560563
0.2702474 0.021520849 -0.047197714
0.27005517 0.022138942 -0.048343405
0.2706387 0.021888413 -0.048637152
0.24027517 0.020576077 -0.011506677
0.25587079 0.021586135 -0.040353194
0.23941295 0.021102315 -0.011535123
0.24023786 0.021222357 -0.012915835
0.24634002 0.021601643 -0.024234653
0.25569457 0.022221014 -0.041507587
0.22941208 0.020604022 -0.0093322247
0.23316279 0.020838611 -0.016303107
0.23739311 0.021112379 -0.024170473
0.2263777 0.021035871 -0.0052378327
0.23088464 0.021271788 -0.013747618
0.2328957 0.021456579 -0.017296508
0.24512123 0.022219587 -0.040011197
0.24719067 0.022443794 -0.043658763
0.24966154 0.022513891 -0.048384562
0.23620974 0.022039298 -0.039710432
0.23648065 0.022028038 -0.040330812
0.2390819 0.022234896 -0.045041561
0.23939168 0.022273656 -0.045604289
0.22664535 0.022056047 -0.023551121
0.23650993 0.022697296 -0.041861266
0.20825481 0.021419015 -0.0058791041
0.21426083 0.021784313 -0.017061234
0.22867391 0.022790585 -0.043513596
0.22944176 0.022850124 -0.044927239
0.20515582 0.021444174 -0.014656842
0.21370849 0.021961132 -0.030522183
0.20068687 0.021751396 -0.0080243051
0.21341281 0.02264528 -0.031401396
0.21358593 0.022642266 -0.031712949
0.21547882 0.022779685 -0.035235643
0.22183783 0.023211766 -0.046905771
0.2226615 0.023243684 -0.048495531
0.19272125 0.021687688 -0.0076466352
0.19886941 0.022036681 -0.019106343
0.19904725 0.022046715 -0.019459575
0.1994191 0.022103151 -0.020075828
0.20420083 0.022436418 -0.028883368
0.20573695 0.022509504 -0.031774476
0.20659612 0.022588499 -0.033317581
0.21042193 0.022877317 -0.040264651
0.21448089 0.023116659 -0.047860742
0.2147053 0.023090925 -0.048337281
0.2153987 0.023142375 -0.049633265
0.21569732 0.0231965 -0.050094217
0.19379304 0.022403836 -0.011124969
0.19436127 0.022455845 -0.012121782
0.19880316 0.022741117 -0.020382628
0.19934627 0.022811789 -0.021306023
0.20477529 0.023104265 -0.031447202
0.20511526 0.023152884 -0.032071412
0.205547 0.023198981 -0.032825336
0.20637402 0.023285743 -0.034276888
0.20689264 0.023324739 -0.035208464
0.20706952 0.023338083 -0.03551051
0.21197622 0.02360427 -0.044703946
0.21279933 0.023705097 -0.046107173
0.18318424 0.021628335 -0.0044661313
0.18371448 0.021660751 -0.0054086745
0.18406098 0.02170388 -0.006052658
0.18413046 0.02244243 -0.0075684339
0.18663251 0.021851856 -0.010867432
0.19178851 0.022174627 -0.020412296
0.19223803 0.022948436 -0.0225541
0.19260713 0.022991579 -0.023182198
0.19292463 0.023013368 -0.023780644
0.19728789 0.022573784 -0.030489802
0.20545046 0.023867987 -0.046845496
0.20737031 0.023218388 -0.049160734
0.18855537 0.022652775 -0.015867338
0.19107792 0.022846339 -0.020496354
0.19158478 0.02286534 -0.021469727
0.19182736 0.022892013 -0.02190423
0.19719604 0.023284137 -0.031743169
0.18401946 0.022552975 -0.02014792
0.18465157 0.022512093 -0.021499157
0.18537633 0.022603987 -0.022752807
0.1988035 0.023535173 -0.047432184
0.19897035 0.023543591 -0.047755674
0.16619755 0.022405274 -0.0013409555
0.16914737 0.021856036 -0.0054455996
0.16952375 0.022550169 -0.0076882094
0.17586887 0.022648865 -0.018598497
0.17609507 0.023050563 -0.019661918
0.1764424 0.023069706 -0.020292193
0.18343711 0.023241734 -0.032873765
0.18438703 0.022815529 -0.03374064
0.18458217 0.022844348 -0.034048155
0.18515241 0.022916652 -0.035005048
0.18566009 0.022952862 -0.035930678
0.18565905 0.023699567 -0.037283748
0.19051014 0.02396784 -0.046320885
0.19074756 0.023995489 -0.046731859
0.19117565 0.024028428 -0.047528863
0.16727111 0.022947785 -0.015959904
0.16777322 0.022983819 -0.016924962
0.16858301 0.0229891 -0.018552616
0.1841085 0.024095438 -0.047053963
0.18453431 0.02411346 -0.047827497
0.15413845 0.022695985 -0.0043759048
0.15757048 0.022925679 -0.010671541
0.15832037 0.023014013 -0.011967018
0.16225207 0.023228467 -0.019386902
0.16868967 0.023327529 -0.030477524
0.16917925 0.023000974 -0.030694544
0.16909131 0.023742907 -0.031851143
0.17075521 0.023816239 -0.035048902
0.17798373 0.023573814 -0.046926767
0.14960147 0.022521762 -0.0069702715
0.14992483 0.022529855 -0.0075824708
0.15077314 0.022564221 -0.009220615
0.15119433 0.023360888 -0.011286005
0.1524085 0.02344048 -0.013540626
0.15381373 0.0227447 -0.014876351
0.15562168 0.022941619 -0.018046394
0.15590921 0.022945376 -0.018649668
0.15688427 0.022970574 -0.020527914
0.15709019 0.023791846 -0.022038326
0.1573199 0.0238159 -0.02248548
0.16122937 0.023274709 -0.028502226
0.1616893 0.023280006 -0.029432982
0.16238047 0.023371354 -0.030552506
0.16250587 0.023766952 -0.031428322
0.16273436 0.024167592 -0.032496452
0.14319879 0.023067661 -0.0075311512
0.14365914 0.023132192 -0.0082809627
0.14545262 0.023226688 -0.011673704
0.1518364 0.023693211 -0.023346573
0.15587521 0.023911141 -0.030926064
0.1631286 0.024437401 -0.044220567
0.1429095 0.023029177 -0.0070606768
0.15533158 0.023855101 -0.030008361
0.15556911 0.02387194 -0.030425921
0.13612369 0.023019565 -0.0052587092
0.13815612 0.023167375 -0.009019509
0.14366522 0.023511469 -0.019202426
0.15069953 0.023993351 -0.032152697
0.15102303 0.024030093 -0.032765716
0.15525988 0.024268424 -0.040702686
0.15601644 0.024357934 -0.041984126
0.12987 0.023116246 -0.0045927316
0.13104784 0.023192912 -0.0067817569
0.13222358 0.023261543 -0.0089785904
0.13739142 0.023639876 -0.018436551
0.13799563 0.023675118 -0.019564137
0.14149034 0.023887638 -0.026088595
0.14163814 0.023887558 -0.026375577
0.14460039 0.024094496 -0.031787544
0.14512557 0.024152927 -0.032710671
0.14563277 0.024197757 -0.033643812
0.14609423 0.024173956 -0.034616262
0.12529433 0.023480868 -0.0069316179
0.1262518 0.023532145 -0.0086972713
0.13164905 0.023939943 -0.01857996
0.13555726 0.024139896 -0.025937855
0.13573597 0.024166418 -0.026247159
0.13624302 0.024240771 -0.027038887
0.13979521 0.024454804 -0.03369005
0.14377111 0.024706768 -0.04106465
0.11571867 0.022864562 0.0013583004
0.12084465 0.023152076 -0.0081975162
0.12596962 0.023501676 -0.017648324
0.12688789 0.023618758 -0.019223511
0.12706929 0.023629243 -0.019531339
0.12760842 0.023637315 -0.020659134
0.12783727 0.023627602 -0.021152899
0.13075215 0.023831038 -0.026503533
0.13505608 0.024113826 -0.034440219
0.14061023 0.024459228 -0.044722468
0.14379397 0.024727244 -0.050519481
0.12030701 0.023922754 -0.008393988
0.12424993 0.024248485 -0.015590712
0.12615323 0.024384635 -0.019058689
0.12923755 0.02458974 -0.024725258
0.12952963 0.024576332 -0.025389567
0.1298722 0.024581343 -0.026059374
0.13810921 0.025139809 -0.041207358
0.14303012 0.025463607 -0.050340727
0.11484093 0.023739785 -0.0075894296
0.11758558 0.023871928 -0.012726188
0.11791833 0.023930065 -0.013302147
0.12050477 0.024106249 -0.018040657
0.12169372 0.024207573 -0.020219713
0.12561163 0.024481488 -0.027436823
0.1298908 0.024728188 -0.035432249
0.11505771 0.023720976 -0.0080729127
0.10323175 0.023221754 0.0045502931
0.1065159 0.023494188 -0.0013572425
0.11092625 0.023720331 -0.0096811801
0.12380745 0.024605641 -0.033347189
0.12619379 0.02476874 -0.037771702
0.12729082 0.024810527 -0.039895907
0.12863046 0.024927145 -0.042262077
0.12924308 0.024926197 -0.043532029
0.12979095 0.024986703 -0.044479385
0.10072157 0.023401648 -3.3095479e-05
0.11199496 0.024140937 -0.020906866
0.11250746 0.024179641 -0.021815896
0.11604877 0.024444321 -0.028316051
0.11971867 0.024646465 -0.035147578
0.12264413 0.024895262 -0.040467754
0.12539941 0.025065664 -0.045533359
0.12622416 0.025102986 -0.047114775
0.097033799 0.023651529 -0.0022966713
0.099940166 0.023881242 -0.0076308548
0.10028616 0.023905739 -0.0082814097
0.10082244 0.023955937 -0.0092145354
0.10168959 0.02400285 -0.010803878
0.10461443 0.024153622 -0.016355351
0.10494292 0.024139356 -0.017059088
0.10522748 0.02417244 -0.017521143
0.10573307 0.024216892 -0.018442228
0.095050119 0.024127975 -0.007711634
0.095537633 0.024128608 -0.0086777061
0.10635736 0.024875207 -0.028620422
0.1066587 0.024859563 -0.029258817
0.11104343 0.025187606 -0.037273824
0.11162521 0.025194291 -0.038419366
0.11418238 0.02534483 -0.043166041
0.087782472 0.023466179 -0.0022057742
0.088033237 0.024371801 -0.003714636
0.088376492 0.02435169 -0.0044394135
0.088622853 0.024374554 -0.0048808753
0.090366691 0.02365681 -0.0069837123
0.091733105 0.024595857 -0.010549799
0.092106722 0.024628527 -0.011208639
0.094840795 0.02397171 -0.015192166
0.095495731 0.024010573 -0.01643765
0.09577173 0.024475299 -0.017418995
0.096557148 0.024086561 -0.01832813
0.096647382 0.024522129 -0.019028857
0.097226262 0.024135906 -0.019581825
0.097903281 0.024144707 -0.020932212
0.098386854 0.024179708 -0.021833733
0.098890811 0.024214933 -0.022747263
0.099173307 0.024228569 -0.02324602
0.10043287 0.025161913 -0.026695609
0.10077869 0.025184441 -0.027321503
0.10128839 0.025243318 -0.028200015
0.10436209 0.025398402 -0.033989936
0.1069352 0.025583647 -0.038717777
0.10727505 0.02562641 -0.039312392
0.11058246 0.024992362 -0.044336423
0.083608195 0.023972519 -0.0034908056
0.084175736 0.02400497 -0.0046036243
0.084462062 0.024040669 -0.0050754994
0.087062016 0.024231 -0.0098050684
0.087393366 0.024264509 -0.010413364
0.0888246 0.024333756 -0.013131723
0.090276755 0.024426039 -0.015803233
0.090817578 0.024474518 -0.016729221
0.099475518 0.025010375 -0.032885537
0.09966857 0.025001695 -0.033266529
0.10038511 0.025095334 -0.034483284
0.10054371 0.025091825 -0.034793034
0.10313388 0.025266837 -0.039550975
0.077608645 0.024502523 -0.0011907667
0.079749316 0.023749985 -0.0042617321
0.079796612 0.024644043 -0.0052530169
0.082877986 0.023966759 -0.0099107027
0.083129011 0.023975864 -0.010417193
0.085530519 0.024142366 -0.014851704
0.085610926 0.024994381 -0.016063288
0.087167963 0.02424252 -0.017860591
0.087541856 0.024275027 -0.01851967
0.090342067 0.024485724 -0.023703799
0.090790771 0.024527553 -0.024484485
0.091208085 0.024564207 -0.025223151
0.091912232 0.024594683 -0.026536509
0.092419185 0.024643835 -0.027466744
0.09269309 0.024657095 -0.027982339
0.093643308 0.024686465 -0.029849499
0.094351299 0.024742115 -0.031093985
0.09458869 0.024754932 -0.031558499
0.095534429 0.024790552 -0.033358723
0.096227027 0.024840064 -0.034654379
0.096578337 0.02488577 -0.035237446
0.096398696 0.025761707 -0.035878435
0.072477251 0.024262119 0.00043848157
0.074443117 0.024388975 -0.0032193661
0.076187439 0.024523778 -0.0063649863
0.079078339 0.02469046 -0.011746958
0.082365647 0.024955528 -0.017726555
0.086315066 0.02524762 -0.024947181
0.09959913 0.026052639 -0.049640566
0.071622357 0.024439707 -0.0056197196
0.075108491 0.024669822 -0.012104869
0.078892075 0.024895402 -0.019133165
0.082504056 0.025172262 -0.02569744
0.065702789 0.024343137 -0.0023854971
0.066268593 0.024372332 -0.0035158843
0.066881195 0.02442063 -0.004577294
0.067757718 0.024478119 -0.0061939955
0.071488142 0.024715642 -0.013107359
0.086216904 0.026073681 -0.047931284
0.078422591 0.026625581 -0.048482299
0.33208761 0.018884819 0.006051451
0.33657399 0.019152433 -0.0023081899
0.33705175 0.019212514 -0.0032014251
0.33735323 0.019243114 -0.0037076771
0.33140755 0.019348433 0.005651325
0.33531553 0.019548994 -0.0016487241
0.33703005 0.019732736 -0.0047562122
0.31591478 0.019022552 0.0070611686
0.31566465 0.019545287 0.0058897138
0.33211938 0.020112718 -0.022856534
0.33249909 0.020138629 -0.023594409
0.33288673 0.020109436 -0.024391741
0.33302781 0.020364324 -0.025452554
0.33302718 0.020620069 -0.026278436
0.3381781 0.020495335 -0.034061044
0.33871764 0.02052349 -0.035121113
0.33922079 0.020568985 -0.035989046
0.33954117 0.020599764 -0.036585599
0.34441212 0.020898581 -0.045608312
0.34415215 0.021416524 -0.046780467
0.34448525 0.021449503 -0.047388345
0.34830087 0.021206925 -0.052707702
0.35309857 0.021526633 -0.061618537
0.34179449 0.021903075 -0.067700893
0.34194827 0.021919383 -0.06798096
0.34911346 0.022360306 -0.08127059
0.32825822 0.021584176 -0.044317335
0.3289476 0.021626951 -0.045578271
0.34163797 0.022442333 -0.069014013
0.34419146 0.022647189 -0.073710606
0.34677151 0.023323497 -0.080153197
0.34902704 0.023470903 -0.084299609
0.30051917 0.020776007 -0.018282786
0.29395652 0.020872336 -0.0078279972
0.2961787 0.021029849 -0.011925086
0.29633105 0.021036135 -0.0122246
0.30855513 0.021877237 -0.034737021
0.32877362 0.023203287 -0.072106451
0.33223677 0.023467533 -0.078418463
0.28310859 0.020481993 -0.0095879436
0.30364159 0.021863606 -0.047479138
0.30376691 0.021869052 -0.047732547
0.30701494 0.022089651 -0.053695306
0.30721605 0.022090783 -0.054048628
0.31289577 0.022518281 -0.064489424
0.31461102 0.022641737 -0.067650512
0.28185979 0.020970635 -0.0088462383
0.2842463 0.021140944 -0.01324743
0.29086471 0.021607947 -0.025440589
0.30279922 0.022376444 -0.047514662
0.30697018 0.022648172 -0.055201694
0.30771369 0.022704802 -0.056590945
0.28095192 0.021634124 -0.028843045
0.28304324 0.021775357 -0.03267321
0.28755474 0.022103257 -0.040963098
0.28901875 0.022213958 -0.043613136
0.29091763 0.02226687 -0.047272399
0.30486852 0.023194008 -0.072995096
0.30881098 0.023498543 -0.080216572
0.315108 0.023906477 -0.091883063
0.28271005 0.022339016 -0.033646062
0.28291178 0.022351157 -0.034013912
0.28826198 0.022744229 -0.043803051
0.30418116 0.023741612 -0.073298797
0.31431854 0.024432931 -0.091988385
0.26090002 0.021375906 -0.013188064
0.26626146 0.021667201 -0.02324912
0.27222061 0.022704538 -0.035737664
0.27259752 0.02272981 -0.036410525
0.2758621 0.022389982 -0.040818408
0.27917409 0.022532459 -0.047040626
0.27953881 0.022556663 -0.047705844
0.27974099 0.022904281 -0.048824385
0.25770676 0.021953186 -0.027041405
0.25792626 0.021970484 -0.027447268
0.25929388 0.022022493 -0.030039504
0.26197428 0.022220805 -0.034939736
0.26211035 0.022233184 -0.035241261
0.26911068 0.022675898 -0.048187777
0.25695509 0.022509726 -0.027200654
0.26179576 0.022810958 -0.036199838
0.23663482 0.021603329 -0.0077628344
0.24623694 0.022206087 -0.025622427
0.24945216 0.022455681 -0.031446666
0.25567985 0.022866558 -0.042948693
0.24008368 0.022465568 -0.015659854
0.24619398 0.022860888 -0.027027652
0.24664402 0.022893004 -0.027826548
0.2472562 0.022938922 -0.02894178
0.24864595 0.023068417 -0.031435907
0.22881378 0.021856727 -0.011224061
0.23256733 0.022079011 -0.018203378
0.23713996 0.022347249 -0.026733741
0.23798206 0.022420924 -0.028222561
0.23839712 0.022454362 -0.028988734
0.24840173 0.02313045 -0.047469988
0.24895737 0.023113649 -0.048583835
0.24937904 0.023134751 -0.049363717
0.22491582 0.022243459 -0.0055669993
0.22558606 0.022274978 -0.0068039
0.22605842 0.02222704 -0.0078065097
0.22873342 0.022503525 -0.012552917
0.24588984 0.023640221 -0.044269949
0.24814957 0.023716167 -0.048574403
0.22306372 0.022481546 -0.018417776
0.22426473 0.022571575 -0.020668983
0.22972001 0.022921326 -0.030731976
0.23001035 0.022944558 -0.031261846
0.2302409 0.022951206 -0.031713784
0.23638703 0.023357771 -0.043109268
0.23666476 0.023372933 -0.043595925
0.23745631 0.023418607 -0.045045123
0.23830485 0.023508124 -0.046573073
0.22412619 0.023199171 -0.021964788
0.22605194 0.023328535 -0.025410965
0.2357533 0.023966495 -0.043410555
0.21231067 0.022373784 -0.01480253
0.21275514 0.022415951 -0.015608519
0.22072202 0.022898691 -0.030366808
0.22286505 0.023079764 -0.034264699
0.22797057 0.023405937 -0.043679103
0.22963108 0.023540962 -0.046767324
0.22998293 0.023554487 -0.047394678
0.23029292 0.02357604 -0.047931507
0.21482667 0.023231324 -0.020862401
0.21534346 0.023269724 -0.021792918
0.21861805 0.023508456 -0.027803674
0.2204265 0.023548186 -0.031287953
0.2226425 0.023707386 -0.035367817
0.22832236 0.024109602 -0.045801103
0.22936292 0.024181146 -0.047718644
0.20008427 0.022380451 -0.0083649904
0.20051993 0.022804476 -0.0097407401
0.20055045 0.023161955 -0.010504201
0.20171046 0.023234338 -0.012659341
0.20465155 0.022762429 -0.016645104
0.20508085 0.022762509 -0.017481312
0.21304265 0.023993388 -0.033540145
0.21709961 0.023575585 -0.039585948
0.21691628 0.024255134 -0.040696144
0.22050337 0.023817163 -0.045897618
0.22069544 0.02404362 -0.046743453
0.22176915 0.023890765 -0.048259422
0.22206494 0.02390386 -0.048810408
0.19687307 0.022873133 -0.003847301
0.19997784 0.023088316 -0.009545669
0.20515135 0.023451902 -0.01907675
0.20566356 0.023462132 -0.020033583
0.19065042 0.022921832 -0.0067028999
0.19149353 0.023001583 -0.0081963986
0.19310454 0.023063235 -0.011261821
0.19371146 0.023103226 -0.012389034
0.19906649 0.02350479 -0.022197634
0.19933537 0.023524098 -0.022698298
0.20654139 0.023317188 -0.034565866
0.20676784 0.024017623 -0.036400527
0.20709769 0.023985185 -0.037085518
0.20723806 0.023972627 -0.037402049
0.21016678 0.023562849 -0.041218847
0.20990941 0.024244074 -0.042146534
0.21136603 0.024261987 -0.04499501
0.21170925 0.024303757 -0.045589924
0.18335049 0.023079824 -0.0075296909
0.18396661 0.023127489 -0.0086504519
0.18437159 0.023157608 -0.0094061345
0.19158073 0.023600664 -0.02279757
0.19265264 0.023719084 -0.024668097
0.19284573 0.02371894 -0.025009468
0.19656992 0.023943586 -0.031983748
0.1976271 0.024007153 -0.033909917
0.1979408 0.024019849 -0.034506992
0.19124945 0.023750862 -0.034903169
0.17590883 0.023414394 -0.0080504417
0.19115043 0.024482189 -0.036088139
0.17443705 0.023639448 -0.018013626
0.17635627 0.023791924 -0.021493644
0.17697656 0.023844438 -0.022625923
0.17721575 0.023831388 -0.023116603
0.17767435 0.023846585 -0.024053305
0.17806362 0.023899037 -0.024706274
0.18245137 0.024208106 -0.032765523
0.1857518 0.02437361 -0.038941279
0.18961237 0.02464876 -0.045998812
0.16027674 0.023170654 -0.0045363307
0.16924976 0.023824954 -0.020970911
0.18333332 0.024777852 -0.046963587
0.15968892 0.023904173 -0.0047659576
0.16301325 0.024123244 -0.010889232
0.16726637 0.024417745 -0.018714577
0.16754724 0.024390791 -0.019331872
0.16810974 0.024476875 -0.020279959
0.15458316 0.023506045 -0.0064678341
0.1615708 0.023933548 -0.019435897
0.16206944 0.023978662 -0.020344853
0.1688565 0.024480604 -0.032735065
0.16955012 0.024536237 -0.034001008
0.17126009 0.024634236 -0.037205189
0.17158557 0.024664484 -0.037782788
0.1724371 0.024731439 -0.039341122
0.17282254 0.024678208 -0.040207326
0.17327207 0.024734989 -0.041012228
0.14844111 0.023978533 -0.0074142069
0.15723205 0.024574583 -0.023625836
0.16272841 0.024930479 -0.033791348
0.16302717 0.024929356 -0.034401402
0.16355738 0.02495838 -0.035385609
0.16398782 0.024990771 -0.036162674
0.16880414 0.025346477 -0.045005456
0.13871971 0.023584872 -0.00043739378
0.14189368 0.0237465 -0.0064572245
0.14227584 0.023762174 -0.0071634799
0.14743571 0.024139617 -0.016601473
0.15024224 0.024303416 -0.021803424
0.15180811 0.024461171 -0.024622679
0.15603331 0.024757132 -0.032372639
0.14164749 0.024136346 -0.016863883
0.14196366 0.024184581 -0.01735796
0.14338295 0.024257647 -0.020010933
0.14545107 0.024402905 -0.023820058
0.14561643 0.024406463 -0.024161413
0.15093282 0.024801072 -0.033863783
0.15590513 0.025131013 -0.043073431
0.1568833 0.025152452 -0.044972092
0.15865952 0.025311187 -0.048147038
0.13253471 0.024336133 -0.0012281984
0.13288234 0.024368934 -0.0018597543
0.13696252 0.024654193 -0.0093723238
0.14106601 0.024872679 -0.017059982
