# .PCD v0.7 - Point Cloud Data file format
VERSION 0.7
FIELDS x y z
SIZE 4 4 4
TYPE F F F
COUNT 1 1 1
WIDTH 1324
HEIGHT 1
VIEWPOINT 0 0 0 1 0 0 0
POINTS 1324
DATA ascii
-0.00054207444 0.10793915 0.029367328
0.090156935 0.0053644292 0.027540583
0.08735007 0.0081051663 0.027523616
0.01737418 0.078588679 0.028740296
0.00059007108 0.09553498 0.02905097
-0.00068336725 0.096823335 0.029081438
-0.0019266903 0.098119125 0.029118003
0.093808576 0.00073536113 0.028137013
0.090420917 0.0040291622 0.028096201
0.015059099 0.079946704 0.029390868
-0.00038149953 0.095521227 0.029690675
0.013083234 0.07083974 0.029452745
0.00058791041 0.083446793 0.029672932
-0.00066074729 0.084646307 0.029670531
0.074398339 -0.0020060241 0.028628653
0.015156217 0.057683438 0.029646464
0.01314754 0.05975021 0.029713452
0.0039651468 0.06895519 0.029826147
-0.00061895698 0.073513873 0.029888663
0.054420941 0.0081371106 0.028789215
0.051396579 0.011201106 0.028860709
0.0022949278 0.060614962 0.029690996
-0.00080040842 0.063727185 0.029728901
0.065082781 -0.0026575923 0.02856335
0.063535184 -0.0019686334 0.02931568
0.058622096 0.0029605851 0.02940218
0.057576727 0.0040104315 0.029403374
0.056522388 0.0050941072 0.029420935
0.054771475 0.0068118088 0.029448032
0.052985743 0.0086217858 0.02947261
0.051486425 0.010135837 0.02951563
0.010226227 0.051687103 0.030229723
0.0061785281 0.055762939 0.030290691
0.0051331744 0.056841046 0.030314222
0.002633974 0.059368346 0.03038156
0.00081025064 0.061150361 0.030368714
6.9357455e-05 0.061880808 0.030374357
-0.00070200115 0.062666163 0.030403007
0.054965418 -0.0023259073 0.028839372
0.044712849 0.0079812557 0.02902188
0.0009142831 0.052082419 0.029756468
-0.000150159 0.05315559 0.029766338
0.051428445 0.00030093268 0.029590085
0.0041088536 0.047977474 0.030414948
0.0030401573 0.049052276 0.030445354
0.045398735 -0.002625294 0.029208433
0.034273244 0.0085970461 0.029423764
0.016636081 0.026343264 0.029703107
0.0090250969 0.034069493 0.029887147
-0.00013575703 0.043316655 0.030064456
0.037640601 0.0043213516 0.030060949
0.0014692694 0.040715076 0.03066498
0.00070717931 0.041538611 0.030729635
0.033042088 9.3363225e-05 0.029914202
0.031216018 0.0019641146 0.029959014
0.023387298 0.0098727122 0.030129796
0.0040357411 0.029311247 0.030414674
0.0019668862 0.031398535 0.030459426
0.0086981133 0.023660786 0.031002503
0.018338867 0.0061662346 0.03016853
0.0048491284 0.019758619 0.030397587
0.0015402511 0.023085207 0.030478287
0.026554294 -0.0025536567 0.030395016
0.025290884 -0.0017498061 0.03074323
0.024258882 -0.0006903559 0.030763038
0.021780171 0.0017995909 0.03081804
0.019142605 0.0053291619 0.030149898
0.016909532 0.0066847429 0.03087344
0.016172498 0.0074793473 0.030929299
0.012106858 0.011561148 0.031003335
0.011335418 0.012382746 0.031045897
0.010607071 0.013129756 0.031065751
0.0098307207 0.013879754 0.031057302
0.001813665 0.022306174 0.030766616
0.018700324 -0.0029084608 0.030308923
0.015572645 -0.00063090771 0.031100838
0.012220323 0.0027263537 0.031144517
0.011444092 0.0035216212 0.031159891
0.0087751672 0.0071123391 0.030498926
0.0079872385 0.0078527257 0.030470651
0.0065875053 0.0084009767 0.031236822
0.0045021698 0.01147344 0.030615984
0.0019730031 0.013037585 0.031309046
0.0018307418 0.014024429 0.030556461
0.005703114 0.0015462562 0.030874055
-0.02964247 -0.0014873892 0.032642215
0.1442996 0.0003399523 0.026989441
0.13255101 -0.0013443585 0.027263507
0.12977058 0.0004456751 0.027909534
0.12941425 0.0017406885 0.027248127
0.12678546 0.0034341682 0.027931543
0.00072927773 0.13137703 0.029505396
-0.0003092885 0.1323424 0.029464543
0.12399511 0.0061691385 0.027947294
0.0058088899 0.12523521 0.029987484
0.0014873743 0.12958655 0.03006321
-0.00033813715 0.13140365 0.030082457
0.11872642 -0.00095265545 0.027815606
0.11763999 0.00021790899 0.027867286
0.11591519 0.0020083673 0.027924445
0.11480506 0.0030348543 0.027873842
0.11214264 0.0058216527 0.028024632
0.1110317 0.006944824 0.028028866
0.0032336563 0.11546312 0.029852355
-0.0002065599 0.11888669 0.029864537
0.10300227 0.0027066357 0.028221805
0.10070011 0.0049892738 0.028253056
0.022099912 0.084153339 0.029594658
0.021078102 0.085204571 0.029627584
0.00075387955 0.10564424 0.029953433
-0.00052277744 0.1069205 0.029973056
0.10125192 0.0034614727 0.028860014
0.022156365 0.083056614 0.030184928
0.0058249533 0.099539459 0.030477155
0.00094722211 0.10444517 0.03057779
0.00024303794 0.10515746 0.030569522
-0.00050570071 0.10590792 0.030581322
0.095109075 -0.0016922876 0.028640836
0.093997955 -0.0004831776 0.028703084
0.090192825 0.0023127533 0.029376652
0.086167738 0.0064277016 0.029465714
0.085090473 0.0084129684 0.028805688
0.016928598 0.076134756 0.030633165
0.016444057 0.077122882 0.030364804
0.0080670416 0.085089438 0.030816309
0.0070540905 0.086056896 0.03078793
0.0060451776 0.087076545 0.030823966
0.005003199 0.088154465 0.03087567
0.00073955953 0.092428088 0.03092571
0.00051479042 0.092631832 0.030917389
-0.00032666326 0.093984753 0.030613773
0.084099665 -0.0016252585 0.028888928
0.082805261 -0.00034402311 0.028910061
0.078756049 0.0037536472 0.028982926
0.077756107 0.0047181882 0.028978063
0.073937953 0.008574564 0.029038716
0.072142787 0.010367099 0.029083725
0.013121508 0.069827437 0.030104494
0.0059553012 0.076989301 0.030167408
0.0052017644 0.077749677 0.030180838
0.0045192689 0.078478515 0.030245863
0.002180323 0.080874234 0.030307576
0.081040919 0.0003519915 0.029492751
0.074262887 0.0072702989 0.029683184
0.0029904023 0.079069719 0.030907258
0.00071290135 0.081370845 0.030965893
-5.8889389e-05 0.082149372 0.030975185
-0.0011052042 0.083165124 0.030955417
0.07270582 -0.0013160631 0.029252172
0.069662392 0.0018609762 0.029375909
0.066925555 0.0046092458 0.029435031
0.065881893 0.0056444034 0.029431507
0.061232559 0.010325305 0.02949642
0.0073247626 0.06458012 0.030419912
0.0065351725 0.065372996 0.030420316
0.00042379647 0.071566045 0.030542877
0.07102029 -0.00050354749 0.029988375
0.069941714 0.00062493607 0.030014006
0.063382596 0.0072037019 0.030125139
0.062349942 0.0081984848 0.03010945
0.061300557 0.0092739239 0.030151827
0.010976098 0.059997052 0.031030837
0.0083503872 0.062610894 0.031057026
0.0043375641 0.066641152 0.03113717
0.001776956 0.069230035 0.031156605
0.0010331348 0.069983155 0.031179735
0.059874196 0.00064667314 0.029960025
0.055082615 0.005556412 0.030119535
0.017429776 0.043500129 0.030779473
0.012336858 0.048623379 0.030847453
0.0067026243 0.054294273 0.030934004
0.0011450574 0.059896566 0.031045448
0.00033952296 0.06068366 0.031038752
0.05272625 -0.0019911863 0.030189572
0.049696833 0.0010939129 0.030271756
0.046875417 0.0038962774 0.030292103
0.045048714 0.0057701506 0.030337183
0.037001684 0.013918124 0.030545313
0.017868631 0.033116173 0.030793147
0.010485597 0.040598948 0.030964442
0.00080192834 0.050267447 0.031070104
0.00056044012 0.050516751 0.031074559
0.051242772 -0.001487352 0.030863067
0.043671407 0.006212309 0.031035282
0.033742137 0.016185742 0.031209609
0.0051970184 0.044972252 0.031720877
0.0044133514 0.045770429 0.031724617
0.0438013 -0.002869606 0.030626055
0.042832211 -0.0018100515 0.03067893
0.039761096 0.00126113 0.030732615
0.037944265 0.0031058863 0.03074448
0.033897497 0.0071754307 0.030825432
0.033152923 0.0078800619 0.030812129
0.0091843307 0.032047063 0.031228524
0.0063808933 0.034936175 0.031340029
0.0021079332 0.0392069 0.031393122
0.034406662 -0.002149418 0.030615605
0.031615973 0.00064453483 0.030656286
0.028340049 0.0039336607 0.030704815
0.025775068 0.0065121353 0.030759443
0.0072449073 0.025240466 0.031119477
0.0056846812 0.026780576 0.031093979
0.0042033568 0.028248794 0.031140255
0.0020589381 0.030389979 0.031159332
0.028464362 0.0029137582 0.031424757
0.026903071 0.0045091435 0.031450592
0.012666456 0.018792175 0.031662136
0.010844767 0.020667858 0.031741284
0.0090778321 0.022428893 0.031722985
0.0058218017 0.025759377 0.031829976
0.0021481961 0.02938842 0.031837802
0.022871584 -0.00020187348 0.03149581
0.022115655 0.00057928264 0.031513661
0.019561425 0.0031419322 0.031564843
0.018816166 0.0038486272 0.031551726
0.014786974 0.0080174953 0.03170225
0.013981692 0.0087417737 0.031653721
0.0068181679 0.015906312 0.031725898
0.0060968474 0.016661622 0.031752922
0.0053434297 0.017446175 0.031788871
0.0029443055 0.019884974 0.03184513
0.016637184 -0.002580747 0.031781822
0.01414784 -8.931756e-05 0.031823121
0.010022469 0.0040777922 0.031901594
0.0052073449 0.0089177564 0.031979278
0.0044381693 0.0097518712 0.032041803
0.0036752075 0.010543421 0.032070585
0.0029343516 0.011285335 0.032077007
0.0093515366 -0.0029601976 0.031540789
0.0086160079 -0.0022221357 0.031569377
0.003747195 0.0026680231 0.031633202
0.0020231754 0.0044773519 0.031727709
0.0072164834 -0.001687102 0.032322839
0.0064198375 -0.00085008889 0.032341007
0.14377661 -0.00016103685 0.027577257
0.13974547 0.003922753 0.027657494
0.13611108 0.0076198 0.027740482
0.13998042 0.0026574712 0.028226053
0.13706112 0.0055699032 0.028259475
0.12148868 0.0077959672 0.028633958
0.0024830848 0.12755209 0.030621259
-4.5448542e-05 0.13010424 0.030670403
0.0034971386 0.12550567 0.031177739
0.0009830296 0.12803653 0.031230954
0.11905587 -0.0021561384 0.028487409
0.11712881 -0.00027963147 0.028467465
0.11613409 0.00075846538 0.028507462
0.1092368 0.0076535232 0.028603237
0.0017549545 0.11591736 0.030470733
0.00095723569 0.11672509 0.030469619
0.11359341 0.0022884719 0.029103188
0.11251567 0.0032962374 0.029102812
0.11155575 0.0043469779 0.029167242
0.10750289 0.008328218 0.029171431
0.001220271 0.1154411 0.031066012
-0.00084814429 0.11751856 0.031059619
0.10349803 7.8897923e-05 0.029352171
0.10248806 0.0011534244 0.029398423
0.020371653 0.083893731 0.030839037
0.014477812 0.089795813 0.030922804
0.0084253848 0.095878936 0.031009618
0.097679198 0.0049196854 0.030041074
0.096663557 0.0059726015 0.030062666
0.021381862 0.081802987 0.031380966
0.083430275 0.0091770999 0.029526372
0.092776537 -0.0012569055 0.029961968
0.091834918 -0.00024560839 0.03001219
0.0033169985 0.088865958 0.031517442
0.0020058751 0.090183929 0.031525962
0.00098702312 0.091203667 0.03154112
0.07930322 0.0011551231 0.030159509
0.078319594 0.0022437125 0.030241892
0.0094216913 0.07061246 0.032032024
0.0091253147 0.071868144 0.031407703
0.0073603317 0.07271044 0.032090902
0.0014891773 0.07961753 0.031577498
0.00023020804 0.08087045 0.031599771
0.079830617 -0.00035028532 0.030804373
0.012697391 0.067291789 0.031971153
0.011936419 0.068067774 0.031999286
0.0048215836 0.075171307 0.032076199
0.002587527 0.077478722 0.03216264
0.067490667 0.0020615198 0.030665584
0.059122227 0.010511782 0.030827431
0.0095420927 0.060465258 0.031713609
0.0068951771 0.063081622 0.031714432
0.0028373674 0.06721577 0.031822234
0.0013203248 0.068719685 0.031805344
7.1711838e-05 0.069995947 0.031851087
0.061247159 -0.0015589073 0.030684242
0.060256019 -0.00057075173 0.030682368
0.057725552 0.0009319298 0.031355917
0.05675666 0.0019902997 0.031408969
0.055415817 0.0043017343 0.030771868
0.052901573 0.0058440864 0.031453628
0.052566729 0.0071557797 0.030801909
0.051131777 0.0076333657 0.03148558
0.0480446 0.011208884 0.03120799
0.017784677 0.041244723 0.032082666
0.010209337 0.048894249 0.032222684
0.0083877444 0.050724581 0.032266889
0.0080504417 0.051932562 0.031533975
0.0039771646 0.056106582 0.031660121
0.00296738 0.057142261 0.031684604
0.0015148148 0.05766245 0.032375619
0.0014818013 0.058617372 0.031707242
0.0019355118 0.048319202 0.031814639
0.049602583 -0.00069305673 0.031618375
0.048612885 0.00032114983 0.031641349
0.047528714 0.0014051497 0.031653531
0.044737741 0.0041995198 0.031693645
0.042250112 0.0067055598 0.031753633
0.041462123 0.0074879378 0.031742655
0.040687509 0.0083056614 0.031779513
0.03078182 0.018319584 0.031994872
0.014928974 0.034207806 0.032197844
0.011653729 0.037542276 0.032283235
0.0085960701 0.040624268 0.032348651
0.0072439685 0.041939765 0.032307491
0.0060252994 0.043216437 0.032380857
0.0037219077 0.04647921 0.031753309
0.0030003488 0.047207106 0.031768922
0.042445086 -0.0023323596 0.031384092
0.041144639 -0.001023978 0.031397793
0.038301952 0.0018013418 0.031421442
0.013900496 0.026398681 0.031878676
0.010150015 0.030143917 0.0319102
0.0093106106 0.031002015 0.031915989
0.0064772516 0.033905216 0.032018434
0.0044617206 0.035908483 0.032025147
0.0031858757 0.037199587 0.03204963
0.0026679337 0.037716337 0.032060217
0.038717769 0.00049728155 0.032136876
0.035857663 0.0033461079 0.032149807
0.035102144 0.0041259229 0.032167681
0.031067006 0.0081583485 0.032243792
0.012481675 0.026952535 0.032599535
0.010217048 0.029186718 0.032595936
0.0065860078 0.032807074 0.032655865
0.032301925 -0.0018304735 0.032039661
0.031292304 -0.00084315985 0.032051343
0.029502839 0.0009637475 0.032080982
0.022888459 0.007621564 0.03220132
0.0094119385 0.021209724 0.032432076
0.0031227544 0.027517259 0.032551166
0.0023084357 0.028332211 0.032548703
0.023218423 -0.0014470592 0.032208979
0.020729579 0.0010784343 0.032263827
0.01742968 0.0043745711 0.032310367
0.0079974085 0.013925716 0.032506898
0.0031426772 0.018803917 0.032578353
0.023616157 -0.002755709 0.032888513
0.021790586 -0.00088714808 0.032933131
0.019304208 0.0016104728 0.032993857
0.018507272 0.0024486929 0.033011697
0.01520931 0.0057338551 0.033048447
0.01442638 0.0065575987 0.033080198
0.013741545 0.0072672442 0.033138249
0.011168845 0.0097805038 0.033119939
0.010662593 0.010315016 0.033140317
0.0096212327 0.011424839 0.033195596
0.0088963062 0.012156621 0.03321987
0.0035083443 0.017528906 0.033258606
0.016239785 -0.0030536428 0.032513406
0.0150626 -0.00232061 0.032892007
0.013901196 -0.0016044304 0.033273812
0.011940449 0.001233913 0.032572918
0.010578908 0.0017229542 0.033318836
0.0085929781 0.0046551526 0.032648511
0.0078928471 0.0053770021 0.032689802
0.0071623847 0.0061544776 0.032727726
0.0050247163 -0.00038605928 0.033063337
0.0032875165 0.0013933703 0.033119485
0.14028092 0.0012979936 0.028766839
0.14046602 6.7839399e-05 0.029325714
0.13476017 0.0058479421 0.029449258
0.12453607 0.0037093945 0.02918046
0.12550637 0.0016049817 0.029676657
0.12301036 0.0041968729 0.029752571
0.12194207 0.0051624812 0.029706959
0.0037502348 0.12423931 0.031765226
0.0012023449 0.12678885 0.031798169
0.0042972714 0.1113644 0.031624127
0.001215905 0.11445537 0.031668566
0.11313248 0.00076626986 0.030346122
0.10935105 0.0045729615 0.030422302
0.0042878836 0.11035047 0.032203265
0.002794534 0.11186092 0.032242093
0.0020594448 0.11257295 0.032248139
0.0012339652 0.11342003 0.032257207
0.10382245 -0.0011401735 0.030015118
0.020436652 0.08279179 0.031440672
0.0026111007 0.10078402 0.031769767
0.0018484741 0.10153916 0.031780064
0.00030294061 0.10309451 0.031801563
0.098223567 0.0035142563 0.030734105
0.094935656 0.0068089217 0.030764606
0.0094791502 0.092853457 0.032230124
0.0072049797 0.095089078 0.032239266
0.0049309134 0.097381018 0.032303859
0.0028493106 0.099530742 0.032348085
0.0020987689 0.10030372 0.032385681
0.08828567 0.0013042651 0.031294007
0.087746635 0.0027420856 0.030604912
0.086770475 0.0038061179 0.030683899
0.085691631 0.0049362145 0.030709466
0.083951369 0.0066190921 0.030702116
0.081468739 0.0081572048 0.031397346
0.080479994 0.009165436 0.031418752
0.079394668 0.010255523 0.031431023
0.016531952 0.074554786 0.031888466
0.01065474 0.080472343 0.031991228
0.0091742054 0.081000417 0.032662392
0.0083710477 0.081818879 0.032677975
0.0083418712 0.082832873 0.032054439
0.0068968087 0.083290577 0.032708585
0.0050944835 0.085065536 0.032685593
0.0040953159 0.086056381 0.032706436
0.0038132668 0.087342471 0.032110896
0.0013267398 0.089381963 0.032470733
0.08088626 -0.0013025478 0.030856354
0.071009576 0.0086077936 0.03100067
0.0056373626 0.074422821 0.032140438
0.0010145009 0.079129025 0.03222575
0.0761199 0.0024949647 0.03155794
0.075129688 0.0034795329 0.031555541
0.074048661 0.0044522397 0.031504337
0.072328717 0.0062890984 0.031611767
0.071315788 0.0073184632 0.031633168
0.069563545 0.0090825632 0.031676766
0.066703334 0.011933893 0.031687405
0.012773119 0.06622529 0.03261951
0.010518134 0.068525881 0.032688946
0.0033075064 0.0757346 0.032736126
0.0010672212 0.078065783 0.032835502
0.067759335 0.00086469948 0.031333268
0.065030567 0.0036018528 0.03138588
0.064041309 0.0046131797 0.03140809
0.011593439 0.057429675 0.032321922
0.010556914 0.058496356 0.032344043
0.0054392517 0.063575722 0.032387123
0.0046411678 0.064394116 0.032396223
0.0015034974 0.067581654 0.032462765
0.069106519 -0.0014968701 0.031932071
0.068095908 -0.00041523948 0.031981952
0.06527324 0.0023141466 0.031972032
0.062246457 0.0054507852 0.032078713
0.059455168 0.008245606 0.03211819
0.011819541 0.056221984 0.032927945
0.01062192 0.057440192 0.032978535
0.0031775385 0.06490764 0.033068702
0.0024451837 0.065661468 0.033103835
0.055045247 0.0027721412 0.032102134
0.053293224 0.0045361444 0.032145105
0.044071391 0.013799816 0.032267455
0.041543111 0.016330052 0.032316837
0.024050511 0.033939645 0.032614648
0.020377479 0.037702866 0.032723412
0.019605957 0.038491603 0.032741617
0.014518045 0.043519363 0.032734584
0.013256967 0.044851676 0.032827809
0.012524351 0.045593854 0.032842495
0.0087090209 0.049468759 0.032918613
0.0048244372 0.053322572 0.032939162
0.0038655922 0.054289851 0.032959808
0.0018573999 0.056355178 0.03302649
0.043120839 0.013789564 0.032926992
0.0062090382 0.050940666 0.033553377
0.0052118823 0.051957648 0.03357378
0.045053393 0.0029468685 0.032354891
0.043263167 0.004755877 0.032384288
0.039205514 0.0088023022 0.032442279
0.031597443 0.016508795 0.032610875
0.01811941 0.030091263 0.032816231
0.01170215 0.036591932 0.032981832
0.010454506 0.037814334 0.032977451
0.04845364 -0.0014355965 0.032975134
0.047474533 -0.00041475892 0.033009186
0.046430051 0.00063303113 0.033010703
0.045375735 0.0017158091 0.03302801
0.024287082 0.022936888 0.033386339
0.032119155 0.0062309355 0.032920346
0.01108595 0.027416088 0.033288285
0.010304511 0.028160803 0.033270925
0.0074148923 0.031053387 0.033321083
0.031930424 -0.0023694485 0.032756686
0.02988743 -0.0003496632 0.032777306
0.028101943 0.0014586747 0.03280152
0.024781749 0.0047716871 0.032848045
0.024059065 0.0054935515 0.032861106
0.01206322 0.017550744 0.033033397
0.0054828599 0.024276897 0.033236317
0.02671887 0.0019249469 0.033525225
0.025151618 0.0035486966 0.03356906
0.0050990433 0.014956921 0.033881582
0.0043818206 0.015675925 0.033897772
0.011697024 -0.00022032112 0.034050222
0.010916576 0.0005460307 0.034059972
0.0083928034 0.0030942261 0.034105603
0.0076142773 0.0038506612 0.034089863
0.13582562 0.0036132857 0.029936764
0.13219938 0.0073715635 0.030014934
0.0015143156 0.13894895 0.032256484
0.12589371 0.00018922985 0.030225599
0.12397186 0.002138909 0.030278917
0.12016719 0.0059801619 0.030345082
0.11844106 0.0077654049 0.03041297
0.11557025 0.0095426701 0.030980255
0.00043159723 0.12551564 0.032969221
0.11334664 -0.00052851625 0.030901806
0.0042877346 0.10930597 0.032781474
0.11088289 0.00098391995 0.031568814
0.10980245 0.0019503385 0.031522833
0.0096827745 0.10288681 0.03332004
0.0043176115 0.10826621 0.03337501
0.10150814 -0.00091515109 0.031198442
0.10048285 0.00013143942 0.03123709
0.09879788 0.00089744106 0.031915806
0.098530531 0.002177991 0.031320836
0.095681816 0.0039549358 0.031917527
0.020623147 0.080547392 0.03258533
0.019632049 0.081555992 0.03261172
0.010524958 0.089785278 0.03344363
0.010051459 0.091260642 0.032836448
0.006956622 0.09336932 0.033479221
0.0054184049 0.095894337 0.032876141
0.0036592185 0.096655071 0.033525959
0.0031490475 0.098201722 0.032950696
0.089854322 -0.0012295619 0.031894013
0.081688702 0.0068663135 0.031955823
0.014284477 0.074844331 0.03316687
0.01172661 0.077328011 0.033149336
0.0053833127 0.083831333 0.033348806
0.083778702 0.0038837045 0.032597702
0.015218936 0.072881803 0.033748411
0.076423049 0.0011883005 0.032176886
0.012823828 0.065186366 0.033235684
0.0051649064 0.072959527 0.033395417
0.0018581897 0.076228887 0.033413067
0.072894841 0.0036786161 0.032805979
0.013876371 0.063199565 0.033881061
0.01307068 0.063988 0.033874173
0.01233279 0.06472075 0.033888381
0.0082583055 0.068873405 0.033983711
0.0065124929 0.070584565 0.03397581
0.0054364279 0.071717024 0.034024868
0.064918667 0.00081605464 0.03332372
0.063125089 0.0026014075 0.03334941
0.059747972 0.0069878884 0.032753792
0.056258351 0.010498606 0.032837201
0.055469677 0.011283875 0.032826133
0.015611351 0.050506055 0.034195632
0.015255496 0.051871382 0.03358363
0.012726091 0.053321853 0.034179766
0.012436397 0.05462075 0.033565804
0.012173213 0.054899726 0.033576697
0.010682926 0.055431448 0.034233548
0.006583795 0.060583469 0.033708818
0.053566501 0.0033019371 0.032772843
0.05073192 0.0061313733 0.032820102
0.047468334 0.0094266497 0.032885417
0.040951192 0.015109837 0.033709619
0.015869588 0.04126659 0.033436093
0.01262226 0.043532602 0.034105241
0.0098042339 0.046421874 0.03419267
0.0090528578 0.047165368 0.034189545
0.0021834895 0.055046644 0.033671252
0.042937681 0.0031900704 0.033739962
0.040432923 0.0057022423 0.033779033
0.038864397 0.0073305219 0.033823371
0.012645282 0.033687003 0.034250244
0.011086039 0.03532397 0.034338865
0.0057382137 0.040634193 0.034353379
0.0034850165 0.042961001 0.034448106
0.037586257 -0.00021602213 0.033506449
0.014695317 0.022833072 0.033888314
0.0046787485 0.032941952 0.034088738
0.030000731 0.0064383671 0.034290422
0.0084475353 0.028190918 0.034676958
0.012517191 0.015359864 0.034492888
0.011720583 0.016088426 0.034452811
0.0058748201 0.021989629 0.034557704
0.01979851 -0.00067289174 0.034389045
0.0062960237 0.012975819 0.03467755
0.006238319 0.004411906 0.034878641
0.0095327571 0.0010186806 0.034780096
0.13169774 0.0058427975 0.031203335
0.12350444 0.00050598197 0.031415936
0.11792224 0.0062255263 0.031571172
0.11809937 0.0049470123 0.032100271
0.10603845 0.0048491545 0.032244921
0.10297404 0.0078630559 0.032242265
0.024327591 0.087137774 0.03364547
0.012913465 0.098572634 0.033800945
0.0081298053 0.10344228 0.033929773
0.01992996 0.079219334 0.033807263
0.0075189173 0.091808625 0.034080457
0.0052135438 0.094084874 0.034098253
0.0080952346 0.090221234 0.034684889
0.0011480153 0.097198278 0.034789424
0.015591525 0.071528822 0.03436406
0.068371139 0.0073427595 0.033568133
0.066309474 0.0093885362 0.033590939
0.012121052 0.063955784 0.034520727
0.0092950389 0.066817448 0.034574039
0.0029785112 0.073197134 0.034714423
0.065209642 -0.00040167943 0.033986922
0.055082239 0.0097308792 0.034126546
0.0062162057 0.058995847 0.034995556
0.040988445 0.014083099 0.034325935
0.036387622 0.018748399 0.034431331
0.020569235 0.03459492 0.034645874
0.0098834857 0.045400303 0.034865715
0.050717421 0.0033200122 0.034806658
0.01607772 0.038213149 0.035420179
0.015568212 0.038713802 0.035414696
0.011976175 0.042289503 0.035432082
0.0097287297 0.044598021 0.035528757
0.038965419 0.0062691271 0.034491103
0.0091462731 0.036324151 0.03502471
0.0078820884 0.037594646 0.035040688
0.043605804 0.00068260729 0.035088446
0.032686748 0.0028555766 0.034945287
0.027822271 0.0077526867 0.035038501
0.010765217 0.024938799 0.035330992
0.0080453306 0.018965974 0.035270929
0.016851597 0.0014249459 0.035169702
0.093366139 0.071638197 0.032526158
0.030134894 0.091517597 0.034786124
0.0091392845 0.10141526 0.034497734
0.0058539957 0.10470623 0.034561861
0.023581177 0.085863426 0.034846522
0.010429606 0.099038363 0.035040021
0.094761565 0.0019719377 0.03382514
0.0050054342 0.092324778 0.03532907
0.018184327 0.078967378 0.03504074
0.017412089 0.079775408 0.035071388
0.078763798 0.006891299 0.033913016
0.011321403 0.074854895 0.035083652
0.014902592 0.070255041 0.035651125
0.07065779 0.0039882474 0.034114283
0.063575909 0.011174556 0.034269575
0.013469502 0.061662894 0.035161961
0.01267235 0.062481854 0.03518666
0.013479359 0.060705151 0.03580432
0.053131998 0.0097986944 0.035475571
0.052060984 0.011385422 0.03517003
0.048786864 0.014180385 0.035543788
0.015881859 0.047813769 0.03579589
0.014911488 0.049282435 0.035496689
0.013357244 0.050886571 0.035555419
0.010520093 0.053666368 0.035530001
0.0097234026 0.054472659 0.035551451
0.0085435584 0.055665415 0.035580818
0.019717142 0.033564251 0.035976857
0.017668508 0.035609361 0.036020357
0.01635275 0.037019331 0.036107026
0.0036466867 0.04972576 0.036242262
0.0915609 0.072419941 0.033120908
0.095557131 0.067274056 0.033545196
0.094804525 0.068052217 0.033579387
0.094039604 0.068822533 0.033597354
0.12653312 0.0078615975 0.032958429
0.024379238 0.084003896 0.0353957
0.022876561 0.084529519 0.036040399
0.010133252 0.097315639 0.036216296
0.018515408 0.077704251 0.03572828
0.015198402 0.067939021 0.036843635
0.01519873 0.068945318 0.036246914
0.06162034 0.011202265 0.03557682
0.011780791 0.061417729 0.036469623
0.017385721 0.054710407 0.036936097
0.01182767 0.060383271 0.037089285
0.01319509 0.049084723 0.036805473
0.038633451 0.013598692 0.036351737
0.031739257 0.020532534 0.036460049
0.028713062 0.023550216 0.036478378
0.03489881 0.01636856 0.037047688
0.020664155 0.030712835 0.037281666
0.019901678 0.031495806 0.037303407
0.096559256 0.064164981 0.034619369
0.096036166 0.065696821 0.034031548
0.094490446 0.06618619 0.034600645
0.024346061 0.081952281 0.036531579
0.011731282 0.094694063 0.036794104
0.0068725944 0.09961471 0.036885574
0.10073181 0.004069861 0.035877503
0.018991821 0.07524512 0.036913626
0.018008307 0.075228274 0.037533455
0.017998703 0.076236457 0.036929592
0.017639153 0.053497478 0.037577864
0.012068637 0.059184734 0.037720364
0.024452962 0.036720976 0.03723184
0.031927831 0.018500283 0.037821688
0.03062018 0.019771919 0.037819028
0.028790995 0.021516226 0.03775689
0.026533104 0.0238855 0.03787243
0.025765605 0.024651501 0.037889559
0.098312028 0.061319996 0.035115857
0.096244387 0.063410349 0.035152942
0.021381646 0.081904873 0.038382068
0.014486648 0.066670015 0.038093623
0.015687861 0.05448956 0.038240258
0.018955871 0.040376518 0.038655054
0.033540249 0.014857531 0.039024599
0.097898059 0.058575816 0.036737598
0.09597034 0.061556529 0.036237739
0.026594616 0.088949621 0.038351648
0.018083975 0.072113782 0.039322928
0.016822502 0.07336688 0.039350167
0.013087802 0.065089405 0.039980091
0.017359696 0.05092179 0.039543111
0.017043024 0.051250827 0.039547797
0.055779934 0.01120425 0.039487872
0.018814653 0.048447024 0.040123455
0.012219548 0.055083677 0.040221743
0.015502438 0.041925229 0.040016096
0.014150113 0.043243315 0.039974812
0.029056445 0.018506452 0.039826192
0.096344955 0.059101772 0.03733347
0.094799869 0.059567906 0.037856024
0.094185434 0.046564467 0.037435807
0.017871417 0.071331345 0.039949462
0.065327793 0.011523698 0.039710641
0.014166325 0.063037321 0.040593069
0.054795019 0.01124379 0.040136449
0.0094715282 0.056891121 0.040921684
0.013799571 0.052466732 0.04080065
0.041308418 0.015022602 0.040243059
0.017849632 0.038594224 0.04060908
0.016045772 0.040399339 0.04062029
0.039798416 0.015494872 0.04085866
0.039397389 0.015876744 0.040845994
0.03647428 0.018927153 0.040977187
0.027542673 0.027800456 0.041025169
0.020917185 0.03450742 0.041167192
0.096797049 0.071144119 0.038468737
0.094031677 0.073971033 0.038565017
0.093000621 0.074917771 0.038493205
0.091966718 0.076004997 0.038539201
0.091752745 0.077314273 0.038036048
0.090796314 0.078255758 0.038054954
0.087760508 0.081333838 0.038130328
0.095283665 0.056883153 0.038885433
0.031574816 0.093069918 0.040202085
0.017381929 0.068797544 0.041769672
0.016905114 0.069272295 0.04178999
0.014865994 0.07134407 0.041802764
0.041320346 0.013026401 0.041477162
0.038039014 0.016298231 0.04153344
0.036814243 0.017566867 0.041584104
0.036041759 0.018391006 0.041627415
0.034258224 0.020167053 0.04165227
0.031949945 0.022381619 0.041585311
0.015111566 0.039428387 0.041947622
0.096742168 0.070141912 0.039002571
0.095058568 0.071847811 0.039051808
0.091954626 0.074875265 0.039034549
0.090950042 0.075940222 0.039084166
0.089903578 0.077009708 0.039091188
0.087880209 0.079076573 0.039153431
0.093196832 0.072693586 0.039638512
0.092167817 0.073657133 0.039603941
0.088129401 0.077706769 0.039661501
0.095989116 0.055124793 0.039399803
0.097579017 0.052479237 0.039914329
0.096839026 0.053204007 0.039944395
0.096002817 0.054048996 0.039923519
0.092072248 0.043486182 0.040257011
0.071372561 0.013435937 0.041448828
0.015123852 0.070103087 0.042437177
0.011648349 0.062613353 0.042494349
0.035877533 0.016548563 0.042859111
0.034313112 0.019166853 0.042300094
0.031934358 0.021440141 0.042240348
0.017986745 0.035545442 0.042536452
0.094869681 0.069893017 0.040069133
0.094178252 0.070567146 0.040084329
0.096386522 0.067285001 0.040584944
0.094872266 0.068806931 0.040613987
0.092429206 0.071262792 0.040657468
0.091356009 0.072401904 0.040707525
0.097519979 0.051497899 0.040444359
0.09752813 0.050443415 0.041023705
0.09573622 0.052216094 0.041018672
0.0245362 0.083806619 0.042409413
0.018455528 0.065694183 0.042959906
0.015396282 0.067787014 0.043618407
0.058826149 0.013120003 0.04293
0.011257097 0.061076183 0.04377646
0.011827901 0.05061999 0.043441527
0.0127948 0.048667986 0.044039212
0.0089057386 0.052538574 0.044062812
0.034396142 0.017137878 0.043581486
0.097665705 0.064901754 0.041077357
0.097318575 0.064208314 0.041605707
0.09749686 0.049408201 0.041566227
0.020195909 0.072954923 0.044315983
0.017398842 0.075797498 0.04439792
0.013710834 0.068485439 0.044287603
0.012314998 0.059017442 0.044373635
0.01135239 0.059955738 0.044388067
0.019529775 0.05074041 0.044868711
0.016891874 0.053321578 0.04484462
0.012576796 0.057736278 0.044968098
0.0436313 0.015638866 0.044768441
0.018652253 0.041777682 0.044569548
0.014542617 0.045911249 0.044642013
0.012803644 0.047652438 0.044651993
0.095761932 0.064631857 0.042106673
0.094508976 0.065905333 0.042135142
0.09660019 0.048159339 0.042608414
0.094894461 0.049905427 0.042660132
0.035485111 0.094142333 0.044524357
0.0204928 0.070640162 0.045536164
0.013150431 0.056145333 0.045568656
0.021497436 0.036969073 0.045804143
0.019000024 0.039463911 0.045834955
0.018206015 0.040264808 0.045834646
0.017688312 0.04078123 0.045845486
0.015891828 0.042545583 0.04582699
0.015140086 0.043294936 0.04584334
0.012672104 0.0351642 0.046554841
0.096721642 0.061573856 0.04317116
0.095439352 0.06287311 0.043188866
0.097187363 0.060025238 0.043687414
0.094975509 0.046530839 0.044181433
0.093982652 0.047598273 0.044284459
0.025603242 0.089738041 0.045370821
0.01792109 0.071190082 0.046728164
0.016927235 0.072186694 0.046743728
0.012404285 0.054907013 0.046801995
0.011304706 0.056025919 0.046852741
0.027744077 0.029705144 0.046330217
0.022305854 0.035122342 0.046370376
0.01851888 0.038971927 0.046465781
0.013144016 0.044382956 0.04655952
0.042281777 0.014090128 0.046731692
0.089300454 0.082681879 0.04418106
0.090279721 0.080607086 0.044663627
0.089321218 0.081526905 0.044676788
0.08741352 0.083450213 0.044678044
0.086670823 0.084163547 0.044676725
0.097884983 0.058273103 0.044212829
0.097112998 0.059065178 0.044230901
0.095632486 0.060511243 0.044225473
0.095226854 0.045267358 0.044741362
0.094168447 0.045255534 0.045285176
0.015177563 0.072944224 0.047384538
0.01479578 0.062385485 0.047280662
0.011702016 0.065460697 0.047296304
0.017110422 0.059075657 0.047863301
0.016860038 0.059332322 0.047866173
0.011748366 0.064411022 0.047914293
0.017512746 0.047808938 0.04797738
0.014738776 0.05156846 0.047410775
0.039650932 0.014722075 0.047980446
0.093263961 0.076464117 0.04508375
0.090229116 0.079562038 0.045168865
0.087410465 0.082398854 0.045219965
0.08562962 0.084131338 0.045209993
0.084076397 0.085694939 0.045216858
0.083313331 0.086480275 0.045247458
0.093480043 0.075101927 0.045546401
0.091390602 0.07726939 0.045610067
0.090458766 0.078207284 0.045662958
0.088415906 0.080292434 0.045689907
0.084056087 0.084625117 0.045736134
0.099149205 0.053705309 0.045700677
0.097507782 0.055375908 0.045713149
0.096784867 0.056082629 0.045729619
0.096800663 0.057176437 0.045236275
0.0952214 0.057733577 0.045822699
0.093629882 0.043698244 0.046388403
0.021711379 0.076364875 0.048231129
0.01865977 0.055468008 0.049015697
0.014345229 0.060840789 0.048507892
0.013547838 0.061659634 0.048532415
0.012317613 0.061844967 0.04912385
0.01153522 0.063611001 0.048517279
0.017582722 0.046746876 0.048618414
0.01486738 0.049503684 0.04867398
0.011249818 0.053086609 0.04868827
0.0099236369 0.054437786 0.0487088
0.052775763 0.010315035 0.048617352
0.047937155 0.015188769 0.048715185
0.019629434 0.043630306 0.049125746
0.018898793 0.044383779 0.049172834
0.016598716 0.046735264 0.04924269
0.01512216 0.048243031 0.049275715
0.026311152 0.027126916 0.048792973
0.093639635 0.073883832 0.046062872
0.089381449 0.078210257 0.04617906
0.090509139 0.075987726 0.04663739
0.097502671 0.054314565 0.046236739
0.093817651 0.042452231 0.046954632
0.019977055 0.077061743 0.048856717
0.016399041 0.057757687 0.049075786
0.051249653 0.010801774 0.049227141
0.017507784 0.04484003 0.049851023
0.03533224 0.016159277 0.049970731
0.024582542 0.026921213 0.050094627
0.023127325 0.028497178 0.050204404
0.020119548 0.031448938 0.050211996
0.019491702 0.032576188 0.04989123
0.015162684 0.036500148 0.050326936
0.011403888 0.040265437 0.050390661
0.09787333 0.067515299 0.047046449
0.097176783 0.068182111 0.047072675
0.094762281 0.069557399 0.047589928
0.09433236 0.070535682 0.047358859
0.093898736 0.071522966 0.047136109
0.092827052 0.072611377 0.047169656
0.098243125 0.051419109 0.047268648
0.092992559 0.041159116 0.048011892
0.015448734 0.066545516 0.050907958
0.022009477 0.039303079 0.05038419
0.016170256 0.04519489 0.050497681
0.04526031 0.01495314 0.050654203
0.034365259 0.016166747 0.050630335
0.033831835 0.016744744 0.050659616
0.032311328 0.018285289 0.0506748
0.024638735 0.025902469 0.050738588
0.023149945 0.027449317 0.050825711
0.034659751 0.014844336 0.051228091
0.024206325 0.025373727 0.05138123
0.097469375 0.065705374 0.048003994
0.094734721 0.068485953 0.048104402
0.091955438 0.071329042 0.048178565
0.095934108 0.066180199 0.048573446
0.098139882 0.049431175 0.048359681
0.095636196 0.051874287 0.048371691
0.094814695 0.052716084 0.048365936
0.095574483 0.050879151 0.04888548
0.092141055 0.038735766 0.049565222
0.091383278 0.039563701 0.049621604
0.029661916 0.089536294 0.050141394
0.018118747 0.074827611 0.051162317
0.059487116 0.010340419 0.050754104
0.057967074 0.010862339 0.051381752
0.019009076 0.040340889 0.051659741
0.097201973 0.063831225 0.049084481
0.097636946 0.062308703 0.049548671
0.096898802 0.063065104 0.049588565
0.095583104 0.064333461 0.049548488
0.095468745 0.048896294 0.049947422
0.017639406 0.074292116 0.051758926
0.019804679 0.060186289 0.05205952
0.013673753 0.066298306 0.052121416
0.018297523 0.060693502 0.052683443
0.015216753 0.063716441 0.052688859
0.014471248 0.064458124 0.052702911
0.01596529 0.052121047 0.052667506
0.015464723 0.052606057 0.05267005
0.010162681 0.05803499 0.052813318
0.042805307 0.014456738 0.052546054
0.018836088 0.038544562 0.052922353
0.016290911 0.041108813 0.05297748
0.015753306 0.041603744 0.05294143
0.017976277 0.029728658 0.052782193
0.09731131 0.061568737 0.050079282
0.094018042 0.064820588 0.050088428
0.09637931 0.04680581 0.050377391
0.095445342 0.04781875 0.050478704
0.090471886 0.037243076 0.051191341
0.02290345 0.077863619 0.053315762
0.020361595 0.080429345 0.053344145
0.016590685 0.073301345 0.052940007
0.016902901 0.0719091 0.05348134
0.014970995 0.062966019 0.05329356
0.055683523 0.011192184 0.052635096
0.054917 0.011882078 0.052611016
0.018030412 0.049110822 0.053280804
0.020093575 0.046007354 0.053866025
0.014711283 0.051383868 0.05390764
0.013736397 0.052346338 0.053911306
0.012395337 0.053745512 0.053961743
0.011436701 0.054711647 0.053982317
0.040254012 0.014942873 0.053749681
0.027292021 0.028032523 0.053998441
0.021660849 0.033684582 0.054075707
0.020150043 0.035221159 0.054128222
0.019375242 0.036038522 0.054179635
0.015574493 0.039856892 0.054214709
0.090682924 0.081772268 0.051211476
0.084845483 0.087625958 0.051320378
0.084024101 0.088497058 0.051325686
0.091627009 0.079758584 0.051692318
0.090590358 0.080807708 0.051712759
0.088821992 0.082550123 0.05172433
0.088015132 0.083346233 0.05171632
0.086273819 0.085075349 0.051753007
0.0854766 0.085897133 0.051747736
0.084719777 0.086661637 0.051774323
0.097737834 0.058996271 0.05111013
0.097008161 0.059683722 0.051092349
0.096254244 0.060447849 0.051118661
0.095550016 0.045505933 0.051442254
0.020577773 0.078086495 0.054427374
0.019661158 0.079038858 0.054459345
0.063157424 0.011396725 0.054255284
0.020326801 0.044751033 0.054441053
0.015051365 0.050139923 0.054587223
0.014038444 0.050127789 0.05520428
0.038307086 0.015927806 0.054426305
0.036762029 0.017563201 0.054509312
0.023813047 0.030531377 0.054676697
0.019922949 0.034438211 0.054731078
0.016125835 0.038302269 0.054828838
0.014310718 0.040145062 0.054864164
0.038312346 0.014906827 0.055021286
0.035301656 0.018052187 0.055160914
0.028896585 0.024444576 0.055210408
0.027751952 0.025568936 0.055203248
0.026073687 0.027240481 0.055232156
0.025359333 0.028020371 0.055303879
0.024582379 0.028821632 0.055305026
0.023826212 0.029557638 0.055301622
0.020697407 0.032660536 0.055323008
0.016658813 0.036775544 0.055444494
0.094861969 0.075331226 0.052068371
0.092819333 0.077413633 0.052126836
0.091531418 0.07874085 0.052169509
0.088791125 0.081500962 0.052237194
0.086964391 0.083296448 0.052220959
0.086228967 0.084007621 0.052225057
0.082154229 0.088167332 0.052316941
0.081378967 0.088948183 0.05231484
0.080368221 0.089931071 0.052332994
0.095039122 0.074044719 0.052549753
0.089698337 0.07951577 0.052700471
0.088741779 0.080441877 0.052713417
0.082095623 0.087128997 0.052827016
0.080290772 0.088932484 0.052814558
0.09735091 0.05719728 0.05210758
0.098096222 0.055293623 0.05256274
0.097342961 0.056056589 0.052571367
0.095778964 0.05771948 0.052673772
0.098032244 0.05428398 0.05304803
0.095048957 0.043894399 0.052522466
0.09520676 0.042688563 0.053066276
0.015353754 0.070409022 0.05524534
0.016291626 0.057606276 0.055661712
0.013549961 0.060372338 0.055726353
0.01219219 0.061710086 0.055712525
0.011994794 0.051094819 0.05575401
0.011250988 0.051862381 0.055779867
0.010961957 0.052173343 0.055795252
0.018737189 0.033643201 0.055986315
0.017657675 0.034788344 0.056045488
0.092929907 0.075111598 0.053092621
0.091912553 0.076155357 0.053122468
0.090956144 0.07709673 0.053141441
0.08964701 0.078448281 0.053173751
0.086860731 0.081282064 0.053248916
0.083498552 0.084597424 0.053249359
0.082747325 0.085354045 0.053261254
0.0784752 0.089668676 0.053349368
0.07743609 0.090740964 0.053378262
0.076670259 0.091512986 0.053402733
0.094172351 0.072809026 0.053621601
0.093142897 0.073756605 0.05355002
0.087831207 0.07920596 0.053716499
0.074058913 0.092955589 0.053857841
0.096969314 0.053189233 0.054080449
0.095406279 0.05476103 0.054118674
0.094364785 0.041399013 0.054118201
0.093354948 0.042397052 0.054112624
0.030054934 0.0917629 0.055494264
0.015865184 0.067817807 0.056413908
0.014069997 0.069639534 0.056420024
0.060081333 0.012465544 0.055488784
0.015848778 0.055994458 0.056836594
0.0128114 0.059074372 0.05690993
0.012585253 0.0592978 0.056919709
0.015047692 0.04706106 0.056342728
0.021168433 0.039917774 0.056865469
0.018077336 0.042985208 0.056867711
0.017874166 0.043173458 0.056876685
0.015833572 0.045285534 0.056965746
0.015056118 0.046061318 0.056963746
0.012310535 0.048881933 0.057057027
0.020869724 0.030515708 0.056591973
0.097590536 0.067153186 0.054520395
0.096825607 0.067923069 0.054538313
0.096080899 0.069212183 0.054280993
0.09518142 0.070683338 0.054078866
0.093300961 0.071526445 0.054635815
0.093094125 0.072758228 0.054097611
0.096992202 0.052076481 0.054619499
0.097910576 0.050115086 0.0551049
0.096919678 0.051086109 0.055107947
0.093543477 0.040032253 0.05513031
0.019018754 0.07557568 0.056789976
0.016587391 0.066046387 0.056945935
0.015822366 0.066839367 0.056977887
0.011000916 0.071726896 0.057075907
0.059353516 0.011187065 0.056690294
0.012794256 0.058102254 0.057509787
0.0094649643 0.061385226 0.057526782
0.058360785 0.011171162 0.057303291
0.057076626 0.012396153 0.057289273
0.013035044 0.05681809 0.058077227
0.038828157 0.020143427 0.057806626
0.032991245 0.025988236 0.05785213
0.022477299 0.037623566 0.057476394
0.020999618 0.038072709 0.058080092
0.020247132 0.038830634 0.058104757
0.013071723 0.046059195 0.058205627
0.01107455 0.048104148 0.058269691
0.018426329 0.030007824 0.0584943
0.094265245 0.069398127 0.055052072
0.090435542 0.073176086 0.05506853
0.096455276 0.066112578 0.05552274
0.095728882 0.066835247 0.055536505
0.094136246 0.068454996 0.055540144
0.098533705 0.047263801 0.056067456
0.096831463 0.049043238 0.056158312
0.096030101 0.049834888 0.0561269
0.095039882 0.050816804 0.056153513
0.092697158 0.038698968 0.056156445
0.023282968 0.082266092 0.057373453
0.023299009 0.081162333 0.057907816
0.021722972 0.082817316 0.057971921
0.011047482 0.057810236 0.058709372
0.043413021 0.014499541 0.058301758
0.036239333 0.021639347 0.058345832
0.025096729 0.032907151 0.058577005
0.018709861 0.039376788 0.058722712
0.017713018 0.040386725 0.058748156
0.038639367 0.018339887 0.059029147
0.029917233 0.02702006 0.059074424
0.02567257 0.031351022 0.059191465
0.024929658 0.032065921 0.059201971
0.02303981 0.033966362 0.059231076
0.019973755 0.03711576 0.059316799
0.097716972 0.063725814 0.055985123
0.066153556 0.095555946 0.056533054
0.09782128 0.061450496 0.05695606
0.09812618 0.062232349 0.05646427
0.09735214 0.063029632 0.056484047
0.096076123 0.064239874 0.056427401
0.095344894 0.06499394 0.056480478
0.063759044 0.095772713 0.057559688
0.095969647 0.047737718 0.057189737
0.09361349 0.036714222 0.056681365
0.024170339 0.079205014 0.058393262
0.023226827 0.080158949 0.058429148
0.016364232 0.06120649 0.059895948
0.011757135 0.06578923 0.059937522
0.012797892 0.053977948 0.059829149
0.03687907 0.019091912 0.059647031
0.026471332 0.029569115 0.059805617
0.025921553 0.030105501 0.05978433
0.025184572 0.030829251 0.059800774
0.022802979 0.033206269 0.059837274
0.014910169 0.041147009 0.059951756
0.0096469074 0.046515517 0.060099579
0.028935909 0.026986469 0.05969156
0.094956167 0.063183829 0.05745868
0.098187946 0.058902845 0.057938624
0.097463183 0.059594616 0.057936326
0.095418155 0.061687365 0.057978082
0.095849074 0.04675037 0.057655044
0.094141684 0.048497703 0.057706527
0.097089715 0.044383839 0.058105219
0.096031904 0.045428615 0.05810361
0.091003418 0.037167594 0.057728361
0.092027128 0.035153147 0.05832994
0.018733628 0.068564869 0.06074151
0.016520202 0.070794165 0.060731895
0.01384934 0.073505096 0.060808897
0.015899576 0.071405381 0.06075057
0.013321556 0.063152738 0.060474064
0.0094766319 0.067091338 0.06057677
0.063448712 0.011677328 0.06021947
0.053076662 0.01134168 0.060317747
0.014862001 0.050395891 0.060724419
0.013334222 0.051353212 0.060984395
0.012287065 0.053489916 0.060443483
0.026739292 0.028301295 0.060427934
0.019771323 0.035313625 0.060547061
0.018496469 0.035610307 0.061192121
0.090094775 0.0826803 0.058228791
0.086003989 0.086807311 0.058303356
0.087458566 0.084198549 0.058734689
0.08237423 0.089361154 0.058822319
0.097055495 0.057872895 0.058960538
0.097148173 0.058835939 0.058446743
0.095878534 0.060120631 0.05846373
0.094168633 0.045115314 0.059139859
0.0901483 0.035894074 0.058799416
0.090140231 0.034894831 0.059377749
0.021089174 0.077028178 0.06120456
0.014876328 0.071413696 0.061336104
0.013556585 0.072749838 0.061357964
0.062958479 0.011130337 0.060785051
0.013805442 0.060682826 0.061670355
0.012762062 0.061687104 0.06164857
0.015462875 0.048280165 0.061604947
0.011315025 0.052425496 0.061644223
0.0095573813 0.054194875 0.06168101
0.018674679 0.044016704 0.062137172
0.023747541 0.028299123 0.062285107
0.093997024 0.076550029 0.059094895
0.09302713 0.077509649 0.059132058
0.087371156 0.08319886 0.059209909
0.084826663 0.085781544 0.059262089
0.084109046 0.086488724 0.059290953
0.082421698 0.08821705 0.059297539
0.080547169 0.090105906 0.059347585
0.077988818 0.092633441 0.059382748
0.094212949 0.075211048 0.059576336
0.089190617 0.08029259 0.059698109
0.088092715 0.081430659 0.059722878
0.082482055 0.087061152 0.059809398
0.078649305 0.090915993 0.059843939
0.077917255 0.091651484 0.059891898
0.076902598 0.092593342 0.059841301
0.097794324 0.055944353 0.059383012
0.097005807 0.056813147 0.05944588
0.098472603 0.054182757 0.05985282
0.094401345 0.043848403 0.059670251
0.040504821 0.098155588 0.060636643
0.094590425 0.042592879 0.060186956
0.090370968 0.033637848 0.059914883
0.082395181 0.027329329 0.060474232
0.08256954 0.026095934 0.060984172
0.018466696 0.077577904 0.062333144
0.012802653 0.060639251 0.062245864
0.058866322 0.013185248 0.062021028
0.01509618 0.057325982 0.062800892
0.025072783 0.035495352 0.063182093
0.022274889 0.038350254 0.06324742
0.017189302 0.044498842 0.062756397
0.014848791 0.045842148 0.063368119
0.014151178 0.046533242 0.063380323
0.092055917 0.076299429 0.060083121
0.091123566 0.077236727 0.060135894
0.090081222 0.078325301 0.060160223
0.08908052 0.079322681 0.060163017
0.07684841 0.091621935 0.060386229
0.095367327 0.071929336 0.060577039
0.094287321 0.072911553 0.060505811
0.093315281 0.073863611 0.06050783
0.073656932 0.093685679 0.060837638
0.0729554 0.094399735 0.060876172
0.098214954 0.052240353 0.060844716
0.097372569 0.053114481 0.060847551
0.096574783 0.053909861 0.060857285
0.095851056 0.054617308 0.060873695
0.094796158 0.041314658 0.060712077
0.092749201 0.042269759 0.061229095
0.089560293 0.032293677 0.0609928
0.088543802 0.03329698 0.060990259
0.03177119 0.0904276 0.061898123
0.031521484 0.090688765 0.061913412
0.024263784 0.082755737 0.063107982
0.015353173 0.067820638 0.063044094
0.013818182 0.068323396 0.063613966
0.059595108 0.011481728 0.062598526
0.015541762 0.054783296 0.063907661
0.012277342 0.058121271 0.064005308
0.020478897 0.040164493 0.063283108
0.01947435 0.041186113 0.063307717
0.044698708 0.014725178 0.06344004
0.043933108 0.015477657 0.063435994
0.04294531 0.016491991 0.063471161
0.028710984 0.030838232 0.063705519
0.025064096 0.034499936 0.063767359
0.022762917 0.036881849 0.063864425
0.022030137 0.037592232 0.063857354
0.020764098 0.038867015 0.063873641
0.097225159 0.067795038 0.061459661
0.095553279 0.070032924 0.061251316
0.094509341 0.070546106 0.061519038
0.093437701 0.071633965 0.061552532
0.09018296 0.075969666 0.061070558
0.070521928 0.094676584 0.061890185
0.098076448 0.050213497 0.061820194
0.093947001 0.039992668 0.061712433
0.092917576 0.041020822 0.061765794
0.088675514 0.031043731 0.0620341
0.08770889 0.032025404 0.06206869
0.088653132 0.029934727 0.062521681
0.016341925 0.064703301 0.064130932
0.013773121 0.066276804 0.064743817
0.01610294 0.053173367 0.064477906
0.0135784 0.055742718 0.064548716
0.056536295 0.011394635 0.064346373
0.013798833 0.054479759 0.065099463
0.013075896 0.055222299 0.065141045
0.042929076 0.01546881 0.06403897
0.041903757 0.016526971 0.064073868
0.025612995 0.032939225 0.064347357
0.024813257 0.033739019 0.064356931
0.018477641 0.039124321 0.065073095
0.068939984 0.095194571 0.062421344
0.096127518 0.06666638 0.062432058
0.095311679 0.067503117 0.062427092
0.094526693 0.06830813 0.062430996
0.097216994 0.064454123 0.062815219
0.095994793 0.065730162 0.06289427
0.095433563 0.05177325 0.062354404
0.093118273 0.038597453 0.062719397
0.086024493 0.030495934 0.063647948
0.016149499 0.074698046 0.065194704
0.0163358 0.07347995 0.06572222
0.015592821 0.074217394 0.065751053
0.065181658 0.012449004 0.064998113
0.015022822 0.062918082 0.065838955
0.014262274 0.06367778 0.065847114
0.013223395 0.064737014 0.065857626
0.055549122 0.011362441 0.064942248
0.020907678 0.046314068 0.065589026
0.017121546 0.05014791 0.065675691
0.016309224 0.050893318 0.065615326
0.015334465 0.051855858 0.065619037
0.013993226 0.053255111 0.065669529
0.018413849 0.047806732 0.066205308
0.042184688 0.014213141 0.065257311
0.030474417 0.025992315 0.065429829
0.02387473 0.0316341 0.066156238
0.016465105 0.039139051 0.066309638
