# .PCD v0.7 - Point Cloud Data file format
VERSION 0.7
FIELDS x y z
SIZE 4 4 4
TYPE F F F
COUNT 1 1 1
WIDTH 1329
HEIGHT 1
VIEWPOINT 0 0 0 1 0 0 0
POINTS 1329
DATA ascii
0.030144151 0.019350827 0.029256951
0.028712424 0.019311368 0.029209666
0.011335048 0.019451499 0.029489426
0.010232918 0.019467086 0.029508637
0.0073201195 0.019488007 0.029558517
0.0051817549 0.019457266 0.029549288
0.0041066115 0.019464374 0.029562607
0.0029924137 0.019460589 0.029564211
0.0019035958 0.019494206 0.029602718
0.077697091 0.013704255 0.028544931
0.069776423 0.013743699 0.028659016
0.044130698 0.01391615 0.029036384
0.042263333 0.013909459 0.029008131
0.041223496 0.013900965 0.029008288
0.039496802 0.013903841 0.029035302
0.0058402582 0.014113069 0.029492471
0.0047008544 0.014125034 0.029513916
0.0036223922 0.014121875 0.029526031
0.15387842 0.0078933984 0.027593795
0.14083982 0.0080173314 0.027793476
0.1394193 0.0080399215 0.027847402
0.13358402 0.0080563575 0.027904846
0.1318929 0.0081012547 0.027951023
0.13043116 0.0080198795 0.027906846
0.10836091 0.0081931651 0.028213743
0.094994254 0.0083183646 0.028443636
0.093924746 0.0083159357 0.028460482
0.092799619 0.0083105415 0.028461199
0.088825069 0.0082958341 0.028470175
0.087725446 0.0083384961 0.028519122
0.086628951 0.008339107 0.028528083
0.085567109 0.0083456337 0.028531149
0.081610665 0.0083341002 0.02856354
0.078733213 0.0083715171 0.028619569
0.06343843 0.0084821284 0.028826158
0.062476125 0.0084855556 0.028860051
0.059228178 0.0084416419 0.028846387
0.046516012 0.0085517913 0.029057931
0.041809388 0.0085775107 0.029103762
0.038950257 0.0085856766 0.02912017
0.031709209 0.008625865 0.029223841
0.030964063 0.0086476058 0.029257333
0.022309832 0.0086553097 0.029302562
0.017972717 0.0087064356 0.029400336
0.15384196 0.0026518255 0.027866354
0.1527968 0.00268659 0.027929878
0.15126245 0.0026693046 0.027898837
0.15015917 0.002609551 0.027863679
0.14876081 0.0026535541 0.027913883
0.14625002 0.0026965886 0.027970018
0.14512289 0.0026643425 0.027946137
0.13433497 0.002764374 0.028127773
0.13138434 0.0027659535 0.028159942
0.12961787 0.0028163642 0.02820616
0.12819067 0.0028364062 0.028236426
0.12527971 0.0028046966 0.028249593
0.12087284 0.0027932823 0.028254125
0.11838093 0.0028396994 0.028309692
0.11402114 0.0028480291 0.028367804
0.11259266 0.0029049963 0.028432971
0.11003323 0.0029140264 0.028459171
0.10889877 0.002888754 0.028439786
0.10786784 0.0028764158 0.02845045
0.10177304 0.0028978139 0.028487515
0.1007112 0.0029088557 0.028525289
0.10028761 0.0029347837 0.028550955
0.09881556 0.0029452294 0.028570745
0.097759075 0.0029952228 0.02861942
0.085093476 0.0030553788 0.028766125
0.083989203 0.003068313 0.028784357
0.080137759 0.0030037463 0.028764775
0.079059035 0.0030679554 0.028839201
0.065569989 0.0031340122 0.029008331
0.063980415 0.0031618029 0.029042125
0.059831619 0.0032138526 0.029119087
0.058721058 0.0032359362 0.029143475
0.057672303 0.0031714439 0.029091243
0.055527646 0.0031916201 0.029136563
0.051140457 0.0032754093 0.029239343
0.036297362 0.0033337772 0.029398851
0.030905273 0.0033341497 0.029448818
0.02915819 0.0033562928 0.029484762
0.024051018 0.003401354 0.029568914
0.021500481 0.0034280717 0.02961169
0.019705199 0.0033859313 0.029570919
0.015328489 0.0034569204 0.029683309
0.014287684 0.0034535974 0.029685875
0.012485574 0.0035016984 0.029731777
0.0096363081 0.003467828 0.029754225
0.0085603688 0.0034421235 0.02971581
0.0055526393 0.0034898371 0.029791579
-0.0025224702 0.1341781 0.026973953
-0.0053280517 0.13342027 0.027565144
-0.0021619792 0.1238099 0.027232539
-0.0010620628 0.11353845 0.0278448
0.0029424864 0.1040398 0.02811444
0.0019207313 0.10403521 0.028130941
0.00085344008 0.10403673 0.02814815
-0.00042653631 0.10405878 0.028173616
-0.0013474998 0.10407588 0.02819393
0.0023782675 0.095368698 0.028208189
-0.0015196742 0.095375225 0.028227273
0.003753345 0.085998327 0.029109279
0.0026513445 0.086024508 0.029141802
0.0015364347 0.086049512 0.029162262
0.00044307613 0.086067006 0.029188916
0.0054347124 0.078182355 0.029103227
3.3080578e-05 0.078187063 0.029156893
-0.0013898474 0.078206494 0.029190226
0.0071640639 0.071063027 0.028677402
0.0060872082 0.071070552 0.028699074
-0.00035634293 0.071103469 0.028772516
0.011179307 0.063342839 0.029125309
0.010076848 0.063355416 0.029149838
0.0057121404 0.06338425 0.029197767
0.0021456287 0.063375339 0.029235866
5.992892e-05 0.063404337 0.029272819
-0.0010314581 0.063414007 0.029284844
0.00077514834 0.055736646 0.029971398
0.014226998 0.049399734 0.029384736
0.01201942 0.049440786 0.029448943
0.0098569216 0.049436688 0.029459042
0.00881196 0.049431443 0.0294802
0.0045476099 0.043214381 0.029289102
0.0012834736 0.043237403 0.029335344
0.010716861 0.042552143 0.029909244
0.0085323751 0.042594984 0.029973919
0.0052634412 0.042604387 0.030019974
0.003083332 0.042569369 0.029992003
0.0016744183 0.042581469 0.030015653
0.0076616518 0.036412284 0.029948352
0.0011691476 0.036445558 0.030044753
0.011370325 0.030267119 0.030073192
0.0091809686 0.030270547 0.030087681
0.0080914665 0.030304432 0.030126425
0.0070168301 0.030308872 0.030140327
0.0027406658 0.030328751 0.030179024
0.0016110352 0.030365855 0.030223815
0.032596644 0.024709731 0.029426208
0.010819114 0.024862424 0.029729169
0.0057284459 0.024863213 0.029761449
0.012306805 0.02424109 0.030441273
0.0094614113 0.024243295 0.03047804
0.0040255827 0.024270564 0.030532343
0.0029877736 0.024276331 0.030558536
0.0018977839 0.0242939 0.030578829
0.081277177 0.018425614 0.029308626
0.079738982 0.018446192 0.02933035
0.078652076 0.018458724 0.029345449
0.031667113 0.018738016 0.029976614
0.012882355 0.018823579 0.030194748
0.0088998983 0.018863067 0.030264609
0.093735889 0.012946501 0.029044738
0.078312621 0.012487054 0.030038858
0.072884426 0.012523562 0.030110348
0.071360692 0.01255317 0.030147564
0.070585057 0.013119355 0.029378152
0.068150975 0.012546346 0.030169465
0.066578664 0.013172507 0.029453959
0.065596618 0.012584627 0.030225191
0.063110761 0.012558237 0.030219659
0.059810124 0.012628913 0.030312162
0.055467647 0.0126407 0.030360676
0.054380368 0.012607262 0.030337913
0.053312629 0.012604415 0.030322153
0.052461807 0.012610629 0.030344743
0.047900431 0.01268822 0.030443169
0.014000253 0.012828201 0.030843684
0.012416691 0.013470173 0.030142516
0.0081055276 0.012909651 0.030972913
0.0072882967 0.01351203 0.030228591
0.0062032463 0.013525337 0.030248882
0.0049263262 0.012926236 0.031016327
0.0037518709 0.01294902 0.031046934
0.0022333967 0.01351665 0.030271273
0.15613233 0.0073699504 0.02839246
0.15113823 0.0073589981 0.028442711
0.14461355 0.0074173659 0.028545907
0.14312585 0.0074212849 0.028550887
0.14167199 0.0074106306 0.028556671
0.1376987 0.0074678957 0.028627597
0.13486905 0.0074039102 0.028620787
0.12981674 0.0074250549 0.028659774
0.12433553 0.0074878633 0.02876085
0.12291356 0.00746499 0.028755663
0.12037927 0.0075390637 0.028837809
0.11818627 0.0075649619 0.028873468
0.1145277 0.0076091439 0.028952399
0.11349344 0.0076047927 0.028958622
0.11090344 0.0075624734 0.028949145
0.10977564 0.0076028109 0.02897949
0.091447651 0.0077050179 0.029232943
0.089323081 0.0076670945 0.029185014
0.08026541 0.0077731907 0.029360857
0.075248055 0.007788524 0.029420897
0.07410612 0.007803902 0.029433493
0.071998671 0.0078234822 0.029477511
0.070894822 0.0078251958 0.029488143
0.067912556 0.0078175366 0.029506331
0.064978383 0.0078591555 0.029557217
0.06109615 0.0079037845 0.029626006
0.060011316 0.0078533143 0.029587271
0.057862952 0.0078967661 0.029654587
0.056740452 0.0079236925 0.029688014
0.055643931 0.0079464614 0.029718146
0.054596454 0.0079520792 0.029725716
0.053528573 0.0079467893 0.029749319
0.052352179 0.0079344213 0.029723465
0.050277356 0.0078894496 0.029700549
0.044875655 0.0079745501 0.02981803
0.040489532 0.0080401301 0.029926691
0.035794444 0.0080245584 0.029940363
0.033986881 0.0080167651 0.029948235
0.028886912 0.0080909133 0.030054852
0.010898221 0.0081300437 0.030230671
0.0022097616 0.0082237422 0.030393112
0.14936945 0.0068179518 0.029256042
0.14791264 0.006792888 0.029238075
0.13852538 0.0068606734 0.029381769
0.13566861 0.0068556368 0.029395221
0.13417701 0.0068418533 0.029399363
0.13246995 0.006879881 0.029451201
0.13099527 0.006927833 0.02950142
0.12665027 0.0069462508 0.029539401
0.12374619 0.0068916976 0.029528644
0.11903617 0.0069819242 0.029655959
0.11169123 0.0070040226 0.029715069
0.10565429 0.0070344955 0.029797221
0.10167207 0.0070423186 0.029846316
0.099315524 0.0071044415 0.029896636
0.097304642 0.0070444793 0.029886469
0.095114246 0.0071239024 0.029948207
0.090139687 0.0070649683 0.029940596
0.08289735 0.0071037412 0.03002964
0.081820555 0.0071578175 0.030093059
0.073454812 0.0072248578 0.030213473
0.069539167 0.0072523803 0.030276218
0.06837298 0.007265985 0.030290604
0.066603154 0.0072538108 0.030305905
0.060457189 0.0072888881 0.030368142
0.053942502 0.0073764175 0.030509287
0.048947778 0.0073503852 0.030513119
0.047824416 0.0073722899 0.030540533
0.045658868 0.0073786378 0.030579749
0.039167516 0.0074401945 0.030673789
0.02938319 0.0075056404 0.030840943
0.026858583 0.0075013489 0.030840561
0.020729531 0.0075172782 0.030898919
0.019983567 0.007542327 0.030938208
0.01535404 0.0075844377 0.030990079
0.0076551484 0.0075867325 0.031056754
0.0065957787 0.0076038241 0.031078495
0.0044119447 0.0076345652 0.031129658
0.0033462977 0.0076366365 0.031132661
0.14052749 0.0021810681 0.028832188
0.1390979 0.0021495074 0.028830701
0.13801029 0.0021604747 0.028847257
0.1307776 0.0022084862 0.028944276
0.12721841 0.0021825284 0.028959088
0.12176263 0.0022617728 0.029079814
0.12137941 0.0022334158 0.029042311
0.12029883 0.0022141188 0.029036302
0.11086163 0.0023520142 0.029238408
0.11053678 0.0023506433 0.029239599
0.10942917 0.0023289323 0.02922524
0.099299781 0.002379775 0.029348496
0.098265246 0.002395317 0.029374635
0.097168505 0.0024362057 0.02940746
0.096282944 0.0024320185 0.029404536
0.095010713 0.0023720562 0.029391037
0.09316387 0.002425909 0.029442919
0.091781087 0.0024811178 0.029495252
0.090711728 0.002478689 0.029512143
0.088822223 0.002467826 0.029523838
0.074790642 0.0025279671 0.029678756
0.073686138 0.0025176108 0.029675376
0.070430532 0.0025536269 0.02972714
0.064265959 0.0025715679 0.029798942
0.059263013 0.0026484132 0.029911805
0.054906379 0.0026426911 0.029935697
0.049044944 0.0026641786 0.029998342
0.047624651 0.002646029 0.029976349
0.043303225 0.0027143657 0.030110087
0.042210612 0.0027308166 0.030097108
0.040964376 0.0027137101 0.030099973
0.040061295 0.0027001202 0.030102901
0.015876669 0.0028797239 0.03046567
0.012985773 0.0029051602 0.030490004
0.006465056 0.0029174089 0.030554999
0.0040625688 0.0029334575 0.030590177
0.0032069685 0.0029435754 0.030623749
0.10380767 0.0017864257 0.030059393
0.079200432 0.0019048303 0.030371806
0.076312132 0.0019495189 0.030431667
0.07237494 0.001957342 0.030474119
0.070901774 0.001977399 0.030496519
0.045231823 0.0021201521 0.030823693
0.033685017 0.0021922737 0.030985553
0.029322827 0.0022126734 0.031035267
0.028247619 0.0022165477 0.031057466
0.018849032 0.0022457093 0.031136686
0.0087180939 0.0023079067 0.031286571
0.0069809146 0.0023202002 0.031304263
0.0058725295 0.0023482144 0.031350099
-0.0017583087 0.13266921 0.028064568
-0.00073941326 0.12231605 0.02831872
-0.001854786 0.12232416 0.028334316
0.0043181786 0.12157457 0.02887048
0.0055148755 0.10330962 0.028705791
0.0041667693 0.10258144 0.029302649
0.0044600796 0.085295394 0.029718734
0.010174961 0.077441588 0.029672958
0.0080907168 0.077469707 0.029711556
0.0040511265 0.077480391 0.029743817
0.0030390183 0.077462673 0.02974687
-0.00061736006 0.077488199 0.029798392
0.014069059 0.069683239 0.029905811
0.0076412791 0.069674715 0.029946731
0.0011108781 0.069738269 0.030054044
3.7242076e-05 0.069740281 0.030065686
0.014509832 0.061910868 0.030339418
0.012694259 0.061929733 0.030369947
0.0086370707 0.062691033 0.029833503
0.0065337671 0.062696695 0.029861866
0.0036692324 0.062009081 0.030510871
0.0026442562 0.062004089 0.030529544
0.00056327047 0.0627276 0.029940365
0.010176189 0.054978639 0.030481126
0.0090690814 0.054994136 0.030501068
0.0080785593 0.054997951 0.030525804
0.0069803693 0.055037424 0.030571796
0.0058384184 0.055066526 0.030606745
0.0047389688 0.055070624 0.030620478
0.0026095936 0.055083051 0.030651033
0.0018493619 0.055759802 0.029995095
0.0056493627 0.048099414 0.030846633
0.0035271395 0.048140138 0.030906631
0.0024067177 0.048171505 0.030947853
0.0012752216 0.048188061 0.030968372
0.016238946 0.041853637 0.030547787
0.015459225 0.041868314 0.030550901
0.009362244 0.04191041 0.030629577
0.011622328 0.035749391 0.030603617
0.010559896 0.035762295 0.030631043
0.0095240623 0.035766989 0.030657653
0.0084324684 0.035785347 0.030678611
0.0040840884 0.035819113 0.030733706
0.0022470611 0.035818741 0.030743958
0.0059467317 0.035154521 0.031386461
0.002658227 0.035185516 0.031446952
0.012878971 0.029672205 0.030809971
0.0050635142 0.029074594 0.03162872
0.0039556902 0.029069543 0.031611025
0.0029034982 0.029074341 0.031620659
0.029381977 0.023517072 0.030947093
0.023359483 0.023577511 0.031044526
0.0059497063 0.023617595 0.031231405
0.0048108408 0.023640648 0.031241521
0.0023261069 0.023664966 0.031303171
0.076250032 0.017854244 0.030121375
0.043028314 0.018051699 0.030559134
0.032176126 0.018125445 0.030723225
0.0075994255 0.018257186 0.031038344
0.0064340229 0.018278256 0.031057853
0.0032249414 0.018251911 0.03105942
0.0021096079 0.018264517 0.031073967
0.079591617 0.017231047 0.030817827
0.06723386 0.01734747 0.031031504
0.03772369 0.017459646 0.03136358
0.036939796 0.017469078 0.031379338
0.034373514 0.017517567 0.031439301
0.011281541 0.017630056 0.031730652
0.0050800378 0.017646149 0.031787816
0.14058034 0.011560708 0.030004477
0.10472373 0.011743873 0.030454578
0.092144974 0.011773437 0.030567799
0.073721848 0.011936843 0.030879555
0.06823539 0.011952966 0.030932439
0.066799492 0.011951998 0.030943891
0.060704894 0.01198265 0.031024784
0.057440832 0.012053758 0.031108011
0.044743858 0.012059614 0.031217279
0.025685726 0.012190327 0.031490691
0.012654418 0.01225546 0.031628802
0.01072702 0.012282476 0.031679593
0.0086333333 0.012306273 0.031729624
0.0064013954 0.012333408 0.031756733
0.002398788 0.012335598 0.0317984
0.14624643 0.0061820894 0.030011326
0.14228223 0.0062468052 0.030088365
0.13685466 0.0062867701 0.030158028
0.11618508 0.0063669086 0.030408919
0.1137039 0.0064360201 0.030494317
0.10891979 0.0064379424 0.030515064
0.1082065 0.0064384192 0.030516047
0.098144144 0.0065177381 0.030673906
0.093841814 0.0065706521 0.030760959
0.091600016 0.0065780133 0.030799862
0.086553603 0.0065924674 0.030816874
0.080526285 0.0065942109 0.03089707
0.077538691 0.0066301823 0.030935038
0.075383604 0.0066182762 0.030944135
0.072110683 0.0066547096 0.03099943
0.071124628 0.0066500157 0.031028936
0.069979332 0.0066559911 0.031026971
0.067076258 0.0066550672 0.031051766
0.062351018 0.0067149401 0.031139154
0.056918588 0.0067430139 0.031215498
0.05477633 0.006776765 0.031253655
0.050402861 0.0067345649 0.031239204
0.048294671 0.0067747831 0.031301174
0.047153141 0.0067985356 0.031327836
0.042811304 0.0067930669 0.031358246
0.04067529 0.0068329275 0.031434067
0.037832178 0.0068400204 0.031435754
0.036758017 0.0068532676 0.031464059
0.034158137 0.0068535656 0.031481884
0.030180391 0.0068996549 0.031573206
0.023027949 0.0069343448 0.031656891
0.022240791 0.0069007277 0.031610012
0.021190869 0.006906867 0.03163632
0.015785579 0.0069749206 0.031736765
0.012871608 0.0070221871 0.031808108
0.011082793 0.0069546551 0.031749476
0.0092378631 0.0069989264 0.031804215
0.0081310952 0.0069971532 0.031818025
0.1334216 0.0016424209 0.029713385
0.11277998 0.0017462373 0.02997762
0.07421919 0.0019459575 0.030464921
0.068047307 0.0020020157 0.030554838
0.062924199 0.0020142943 0.03061327
0.059977699 0.0020724684 0.030660093
0.038006507 0.0021830201 0.030963695
0.037283871 0.0022142828 0.030989433
0.036524594 0.0022260398 0.030990632
0.027503261 0.0022378415 0.031090751
0.025682127 0.0022645146 0.031117789
0.024306694 0.0022615939 0.031128258
0.022082061 0.0022754818 0.031158619
0.12054887 0.0010769665 0.030602889
-0.0017128921 0.13041317 0.029718384
0.0018373982 0.12082873 0.029458225
-0.00076971395 0.12084433 0.029446337
0.0046975897 0.12008725 0.029986303
0.0024670861 0.12009846 0.030012392
0.00036773435 0.12009569 0.030014135
-0.00078289496 0.12009764 0.030002583
0.0023018818 0.10114593 0.030489365
-0.00093202246 0.10115173 0.030532818
0.00028552813 0.093231052 0.030055242
-0.00074122864 0.093229905 0.030060556
0.0028586364 0.09250091 0.030620875
-0.00042169751 0.092521235 0.030665828
0.0095608756 0.084579915 0.030285185
0.0081469622 0.083877355 0.030919258
0.0060207495 0.083862126 0.030926598
0.0048948028 0.083879754 0.030946251
-0.0012701286 0.084655762 0.03045815
0.008782668 0.076775759 0.030357655
0.0063333325 0.076087162 0.030995753
0.010515125 0.06901224 0.030599553
0.0083663333 0.068998814 0.030594576
0.0047745029 0.069023713 0.030664599
0.0037304787 0.069040135 0.030684201
0.0091127921 0.068335623 0.03126882
0.0054721939 0.068326801 0.031280737
0.0023159611 0.068361267 0.031333022
0.00080891664 0.06134294 0.031227659
0.012808781 0.060566992 0.031686798
0.012043333 0.054345831 0.031186284
0.011030176 0.05430679 0.031154513
0.0033736406 0.054403782 0.031311691
0.012805383 0.053668767 0.031829104
0.011913114 0.047436371 0.031475771
0.010772109 0.047464162 0.031515528
0.00861682 0.04746531 0.031536259
0.0064023868 0.047432095 0.03151292
0.0042559644 0.047453001 0.031546824
0.002958741 0.040621758 0.032085493
0.011224193 0.028392151 0.032241289
0.010169179 0.028390467 0.032254949
0.087362476 0.022564098 0.030918615
0.08628913 0.022563964 0.030932516
0.030245047 0.022855282 0.031628557
0.029526204 0.022882923 0.031662501
0.012833955 0.022995934 0.031894408
0.01073921 0.02300258 0.031922288
0.0067024142 0.022998124 0.031949732
0.0027914136 0.022422016 0.032748021
0.081858367 0.016593084 0.031526446
0.078289792 0.016624168 0.031591821
0.074539438 0.016671509 0.031640224
0.041785229 0.016838253 0.032057445
0.039885845 0.01684159 0.032072932
0.039201438 0.016838521 0.032080844
0.03847931 0.016835898 0.032082528
0.035922572 0.016885802 0.032161403
0.013859143 0.016984805 0.032409083
0.012759189 0.016997755 0.032434572
0.0088178683 0.017041147 0.032494579
0.14426011 0.010917962 0.030696435
0.13883173 0.010983229 0.030798005
0.13772085 0.010950565 0.030781532
0.13738394 0.010935262 0.030766206
0.13092424 0.010960162 0.030843541
0.10740623 0.011126816 0.031175498
0.1034245 0.01116538 0.031240974
0.1004753 0.01117444 0.031258497
0.071184821 0.0113585 0.031660717
0.068333894 0.011355281 0.031697713
0.062917434 0.011387378 0.031744674
0.055295154 0.01147005 0.031904742
0.053510427 0.011408955 0.031840619
0.049533349 0.011481911 0.031946156
0.045045495 0.011466324 0.031965192
0.030405125 0.01159358 0.032193162
0.026047111 0.011623725 0.032264948
0.02353224 0.011603311 0.032254182
0.021724442 0.011633173 0.032305948
0.0050745164 0.011741087 0.032524161
0.14170913 0.0056610405 0.030874323
0.12867951 0.0056821853 0.030985262
0.12435692 0.0057903081 0.031125156
0.12142178 0.0057483017 0.031102728
0.10760125 0.0058570802 0.031286754
0.092125915 0.0059870183 0.031551264
0.078051478 0.0060326308 0.031696927
0.058529604 0.0061026812 0.031917952
0.028416755 0.0063485503 0.032368705
0.013352168 0.0064341724 0.032569181
0.001868529 0.12965858 0.030222192
-0.00076023268 0.12969285 0.030270886
0.0047602137 0.10982605 0.030621033
-0.00060747023 0.1098683 0.030720359
0.0033382401 0.10910362 0.03122762
0.002231495 0.10913424 0.031261757
0.0011668231 0.10914072 0.031279776
0.00010713906 0.10914647 0.031300694
0.00083478901 0.10042946 0.031092726
-0.00015922583 0.10042376 0.03111361
0.0053693871 0.091768727 0.031176053
0.0043067462 0.091790199 0.031209322
0.0014147561 0.091801003 0.031252533
0.00031551626 0.091799423 0.031255286
0.010742472 0.083165109 0.03151077
0.0009626922 0.083213702 0.031650458
0.0017328729 0.082481638 0.032238886
0.010316198 0.075335741 0.031549659
0.0048772786 0.075396076 0.031640362
0.003791342 0.0753939 0.031647727
0.0063789315 0.074686557 0.032260049
0.00090576475 0.067674294 0.031991698
0.009246815 0.059961393 0.032452028
0.0084345797 0.060655594 0.031809922
0.0073430343 0.060655221 0.031818308
0.0012448311 0.059981704 0.032531448
0.0067774812 0.0530148 0.032575797
0.0024310905 0.053072989 0.032668754
0.012620417 0.046779647 0.032143433
0.0093312887 0.046810895 0.032203786
0.013475092 0.039943486 0.032679826
0.011357055 0.039967269 0.032731708
0.0059208665 0.040011063 0.032803807
0.0060636979 0.03386344 0.032794043
0.0088145863 0.027764529 0.032986075
0.027898364 0.021675974 0.033179365
0.0079152035 0.021775812 0.033418156
0.076944403 0.016038477 0.032358579
0.075839601 0.016040564 0.032369237
0.063496709 0.01609391 0.032513108
0.045028873 0.016260818 0.032807086
0.043288402 0.016222551 0.032775458
0.011400792 0.016413748 0.033214029
0.15045202 0.01031743 0.03139016
0.13821307 0.010399565 0.031563934
0.10895301 0.010533437 0.031903494
0.10493629 0.010537848 0.031958144
0.101004 0.010604456 0.032022867
0.086229719 0.010615602 0.032175079
0.079364568 0.010692552 0.03230923
0.050377131 0.010867283 0.032667473
0.049605966 0.010885894 0.032693159
0.045671236 0.010888249 0.032723173
0.039589483 0.010925025 0.032817494
0.028358907 0.011014193 0.032993864
0.020368213 0.011053577 0.033094883
0.01857857 0.011063397 0.033091955
0.01251726 0.011057317 0.033146653
0.011017269 0.011095196 0.03319443
0.1346934 0.0098001063 0.032349087
0.13002729 0.0098017752 0.032390732
0.086289756 0.010053262 0.032949604
0.080856442 0.010101691 0.033051193
0.048620522 0.01030767 0.033490036
0.033912018 0.010360256 0.033645656
0.12658872 0.0051878542 0.031836718
0.1164649 0.0051908344 0.031930931
0.1063383 0.0052736104 0.032073393
0.035210356 0.0056793839 0.033009931
0.019538231 0.0057849437 0.033232532
0.12801 0.0050928295 0.03174815
0.067699477 0.0049270988 0.033367615
0.0032401343 0.12815621 0.031280484
-0.00039137574 0.12819032 0.031359907
0.0089773489 0.081756189 0.032765497
0.015319255 0.073955789 0.032789566
0.0070419558 0.073991746 0.032892149
0.0099700028 0.066258103 0.033188522
0.0067270962 0.066248596 0.033189423
0.0096982038 0.052302971 0.033174645
0.0085973069 0.052306607 0.033186391
0.007513633 0.052321002 0.033207055
0.0053574853 0.05238001 0.033286706
0.0042555151 0.052392274 0.033310946
0.012971587 0.051665157 0.033856139
0.012645564 0.051672757 0.033869423
0.01378391 0.045463592 0.033527743
0.088824421 0.026089221 0.033406869
0.028289679 0.026418462 0.034187168
0.026344536 0.026462346 0.034234539
0.024897294 0.02647461 0.034271248
0.024187738 0.026471868 0.034289055
0.037344072 0.021022484 0.033815164
0.031914562 0.021043569 0.033856302
0.067215011 0.015505478 0.03324895
0.059963085 0.015553176 0.033341784
0.072314776 0.014822796 0.03388381
0.069055907 0.014856845 0.033927858
0.063700661 0.014857471 0.033983279
0.056670513 0.015516624 0.03333791
0.043825388 0.015028432 0.034280896
0.042051308 0.01500915 0.034288432
0.03974852 0.015634373 0.033568416
0.1521228 0.0091242045 0.032890558
0.14167032 0.0091556907 0.033002306
0.12683456 0.0092880577 0.033238988
0.066066869 0.0095836371 0.033976607
0.018727683 0.0098614842 0.034605026
0.0036649699 0.11638211 0.032816723
0.00037878403 0.11639752 0.032853819
0.0074086059 0.098238312 0.032816645
0.054700166 0.097238116 0.03276965
0.078178436 0.088455096 0.032624993
0.075901277 0.089237213 0.032110631
0.00080527546 0.088932261 0.033675112
0.0039530247 0.080350801 0.034047727
0.002831727 0.080360085 0.034068651
0.010338875 0.073254868 0.033439763
0.0046054749 0.073305219 0.033543508
0.013621469 0.065523118 0.033755675
0.0099577699 0.065567985 0.033831697
0.012829342 0.044790074 0.034195423
0.0080255857 0.044832781 0.034268014
0.034035247 0.025762498 0.034852061
0.026788641 0.025805399 0.034933694
0.080535546 0.019509584 0.034663558
0.037133411 0.019776613 0.035270527
0.035631061 0.020394489 0.034526549
0.034286581 0.019785494 0.035285003
0.070991591 0.014236093 0.034661159
0.06377133 0.014243186 0.034722269
0.063101999 0.0142584 0.034743443
0.042824008 0.014402568 0.035017259
0.012041869 0.014570087 0.035411771
0.05510452 0.095773898 0.033939626
0.080247343 0.087739825 0.033192784
0.08250311 0.087023169 0.033788994
0.0792142 0.08702369 0.033808861
0.015076805 0.071864262 0.034687035
0.015875181 0.030626163 0.036246378
0.035137881 0.025141507 0.035566181
0.078126386 0.018910974 0.035446346
0.041218303 0.019104168 0.03590643
0.039401002 0.019122556 0.035927024
0.036056105 0.019183397 0.036010746
0.035431467 0.019170687 0.036007274
0.033987634 0.019168258 0.036024034
0.032856714 0.019181103 0.036037743
0.067789912 0.013653308 0.035444163
0.061291315 0.013703555 0.035548445
0.058059312 0.013753191 0.035613187
0.05621146 0.013728991 0.035597604
0.054775085 0.013695836 0.035571273
0.044350382 0.013833404 0.03580118
0.04075079 0.013812095 0.035797451
0.068566568 0.013048351 0.036179919
0.066770568 0.013088137 0.036219526
0.059891257 0.013134614 0.036337551
0.059231892 0.013135299 0.036341168
0.057117753 0.013134778 0.036372267
0.052793689 0.013122186 0.036364641
0.051934902 0.095052153 0.034572914
0.070688069 0.094212383 0.034888562
0.084632486 0.085617751 0.035008568
0.076386958 0.01830408 0.036196746
0.075573087 0.018312082 0.036204442
0.042387135 0.018492639 0.036631897
0.038459219 0.018506169 0.036676712
0.037669159 0.018525377 0.036705043
0.065536961 0.012485236 0.037002165
0.063327648 0.012437478 0.036958322
0.061180342 0.012479901 0.037025772
0.072870135 0.093499452 0.035491522
0.071889967 0.092747092 0.036069322
0.082535267 0.084871233 0.035585396
0.089379407 0.07700713 0.035382908
0.023609521 0.029260769 0.037517931
0.032652307 0.028621808 0.038169559
0.029406173 0.028633162 0.03818766
0.027328812 0.028660938 0.038231216
0.022993548 0.028630301 0.038240299
0.078330718 0.017060906 0.037625503
0.076188542 0.017055809 0.03764705
0.043999735 0.017244384 0.038064472
0.075075693 0.092769384 0.03606052
0.069214344 0.092800081 0.036123376
0.067500889 0.092804313 0.036156103
0.066689998 0.092819408 0.036153145
0.073938675 0.092059121 0.036657128
0.070719339 0.092023462 0.036631014
0.085046671 0.084144592 0.036193836
0.085775711 0.083387643 0.03673733
0.08968772 0.075592399 0.036593631
0.014209538 0.067671821 0.038483649
0.03410038 0.021997109 0.039172314
0.033331912 0.022015959 0.039197836
0.031530444 0.021970704 0.039153911
0.071887583 0.01645954 0.038451698
0.066852175 0.016523466 0.038527586
0.054194231 0.016566545 0.038661595
0.038696095 0.016650006 0.038869519
0.076841697 0.091323376 0.037216328
0.076173216 0.091301352 0.037205193
0.067866206 0.091358393 0.037336133
0.079059102 0.090550125 0.037753366
0.075130753 0.090586796 0.037821062
0.086479351 0.082683176 0.037331227
0.083311319 0.082040623 0.038054388
0.036365051 0.021358281 0.039870474
0.073757283 0.015819818 0.039146286
0.03909196 0.016020283 0.039586898
0.075692847 0.015209585 0.039859947
0.074524939 0.015237585 0.039882168
0.069531627 0.015230313 0.039930999
0.063438036 0.015259996 0.040012017
0.05897269 0.010085642 0.040052533
0.077952661 0.089853734 0.03838446
0.083483651 0.089073241 0.038873274
0.080170125 0.089076459 0.038895607
0.076879084 0.089143097 0.039003938
0.087990277 0.081267685 0.038553596
0.086931691 0.081262425 0.03854686
0.084012263 0.081291527 0.038611501
0.089780793 0.080548331 0.039129414
0.088705137 0.080549136 0.039167047
0.016457401 0.032144815 0.041025121
0.03384237 0.020750552 0.040625744
0.070340753 0.014613867 0.040653065
0.056228291 0.014665797 0.040804453
0.055199668 0.014661163 0.040811434
0.068370625 0.097024046 0.039600331
0.05459417 0.097108647 0.039794602
0.051744252 0.097111635 0.039830886
0.081262872 0.087646604 0.040076233
0.079084232 0.088376746 0.03951611
0.091264695 0.072119236 0.039761312
0.029510505 0.031455711 0.0415572
0.027694516 0.031463563 0.041592605
0.025217216 0.031401783 0.041553065
0.032276623 0.025398433 0.041672654
0.079274364 0.019210011 0.041473988
0.037270889 0.019484639 0.042057484
0.066232629 0.096329033 0.040231496
0.064041741 0.09561491 0.040851261
0.060414501 0.095589429 0.040841401
0.0819906 0.087642923 0.040080894
0.083494715 0.086899757 0.04064633
0.080183282 0.086920545 0.040684592
0.086313821 0.079120174 0.040375743
0.08989621 0.078376144 0.040927347
0.025311418 0.030099794 0.042931132
0.034210555 0.024141714 0.043108441
0.033583783 0.024113744 0.043093305
0.0728295 0.017985851 0.042981293
0.060083643 0.018705845 0.042444244
0.04329868 0.018153235 0.04336353
0.042494852 0.018165961 0.043376449
0.03765668 0.018844187 0.042762108
0.035550803 0.018846795 0.042757291
0.033765357 0.018862411 0.04279872
0.029399892 0.018843085 0.042784616
0.065514512 0.012840301 0.042966306
0.064464629 0.012777537 0.042913429
0.053663433 0.012838885 0.043050278
0.075241886 0.094795004 0.041262299
0.066610873 0.094830304 0.041356079
0.061911389 0.094809353 0.041359112
0.048842166 0.094910979 0.041574758
0.047784101 0.09490703 0.041578483
0.046654578 0.094927654 0.041591872
0.069152854 0.094081163 0.041914564
0.067259587 0.094094425 0.041914657
0.065560736 0.094126388 0.041962504
0.06449528 0.094134435 0.041990429
0.084909134 0.086199179 0.041232925
0.082388639 0.086189166 0.041253489
0.083825901 0.085458934 0.041816033
0.081384324 0.085457176 0.041851427
0.092032932 0.076918706 0.042094346
0.088464655 0.076969683 0.042156987
0.092362098 0.069996923 0.041607711
0.030633273 0.023516342 0.043853998
0.029593933 0.023514375 0.043862812
0.028106714 0.023537681 0.043887302
0.073800437 0.093339488 0.042430941
0.071291819 0.0933052 0.042413224
0.066222489 0.093376741 0.04250624
0.075994074 0.092582732 0.042970676
0.072795853 0.092587903 0.043011747
0.089939557 0.0761915 0.042696554
0.025569934 0.034830704 0.044303834
0.024751913 0.034831032 0.044307344
0.016086467 0.034877554 0.044418741
0.02735294 0.028214872 0.045074262
0.040939301 0.022164956 0.045124903
0.038373947 0.02221331 0.045184541
0.074080803 0.016709775 0.044396132
0.043759625 0.016908437 0.044809394
0.060330063 0.010998547 0.045215979
0.059232313 0.011014178 0.045248806
0.074855074 0.091868222 0.043566581
0.086738683 0.083237886 0.043521486
0.091346696 0.074778497 0.043921113
0.090608753 0.075489104 0.043297984
0.02270114 0.02753453 0.045768358
0.043178346 0.021503568 0.045790672
0.034127403 0.021589011 0.045946192
0.073430389 0.016086325 0.045128629
0.042774096 0.016278878 0.045535944
0.040875178 0.016282797 0.045551494
0.075713098 0.015470698 0.045841746
0.072780706 0.015471205 0.04587128
0.066631407 0.015507728 0.045933656
0.056500908 0.015536904 0.046030115
0.067627378 0.010309592 0.045818754
0.062270816 0.01031065 0.04587419
0.057945367 0.01040116 0.045988865
0.054622605 0.010361508 0.045978457
0.077693678 0.091141909 0.044119947
0.073833838 0.091135308 0.044149306
0.076717913 0.090393215 0.044695269
0.076048769 0.090379998 0.044700865
0.087100431 0.081811816 0.044712912
0.084612422 0.082579285 0.044235215
0.093636714 0.073383763 0.045158107
0.091751076 0.073396474 0.045192927
0.093646742 0.065676928 0.045228742
0.0282385 0.032848969 0.046355832
0.027524352 0.026260868 0.047148917
0.076813944 0.020666182 0.046061385
0.047242966 0.020855471 0.046450138
0.035659924 0.020931914 0.046625234
0.054442067 0.014949203 0.046820231
0.03786971 0.015041232 0.047040179
0.036341082 0.015072018 0.047089662
0.033148158 0.015094042 0.047126144
0.057705835 0.0091675669 0.047454096
0.063191548 0.097476229 0.04603146
0.06017736 0.097530507 0.046088211
0.059136055 0.097536877 0.046107147
0.07931225 0.088879764 0.045793097
0.07851252 0.088905424 0.045823909
0.088942923 0.081079409 0.045299266
0.084923707 0.081093997 0.045339264
0.089604095 0.080384076 0.045914359
0.074832037 0.019423723 0.047531892
0.057346288 0.014287829 0.047494438
0.067928955 0.013635188 0.048108138
0.063613981 0.013632923 0.048142917
0.054947644 0.013653666 0.048215862
0.064933032 0.097523235 0.046086803
0.062098641 0.096759818 0.046612576
0.06098045 0.096791282 0.046662498
0.08069732 0.088131249 0.046333678
0.082154334 0.087409854 0.046909824
0.079663552 0.08741346 0.046937354
0.094695628 0.071229354 0.04694676
0.092914164 0.071243197 0.046975553
0.019883526 0.036892176 0.048542891
0.035524443 0.024908662 0.048441626
0.03155506 0.024924323 0.048497766
0.025929764 0.024316639 0.049260106
0.024789397 0.024338394 0.049299184
0.076359227 0.01814805 0.048926275
0.075671762 0.012952283 0.048723839
0.068359926 0.013002411 0.048821531
0.057868913 0.013081014 0.048992939
0.055054151 0.013018474 0.048935883
0.052442338 0.013093248 0.049022011
0.042424768 0.013131961 0.049146555
0.065313742 0.096067272 0.047215238
0.056577384 0.096088387 0.047288287
0.054421 0.096102126 0.047315363
0.05146841 0.096108466 0.047349013
0.050423883 0.096094422 0.047349066
0.049359761 0.096095107 0.047360618
0.048234951 0.096098743 0.04736083
0.047141492 0.096133985 0.047400914
0.071784645 0.095256597 0.047656972
0.069608159 0.095271081 0.047694474
0.066110559 0.095295578 0.047739401
0.063101158 0.09527503 0.047726404
0.057364687 0.095325693 0.04784365
0.055103932 0.095369205 0.047875445
0.053396203 0.095349565 0.047893316
0.045709502 0.095396638 0.047980104
0.085734785 0.085976228 0.048061486
0.084330857 0.086662263 0.047451109
0.083272845 0.085944384 0.04805731
0.081030689 0.086678609 0.047489062
0.090828761 0.078158617 0.047612239
0.088936567 0.078201219 0.047675021
0.095523126 0.070455357 0.047507767
0.096917272 0.062865481 0.047682513
0.095828377 0.062200904 0.048331577
0.072414771 0.017521337 0.049676981
0.043230195 0.017686054 0.050060678
0.065299526 0.011777386 0.050311588
0.061637007 0.011782974 0.05035964
0.053410724 0.011808023 0.050427623
0.073573455 0.094467252 0.048132453
0.068525776 0.094526991 0.04824115
0.051833905 0.09464702 0.048492145
0.050039824 0.09462674 0.048475944
0.072495669 0.093740493 0.048708942
0.069981642 0.093774915 0.048798773
0.066393182 0.093821511 0.048853852
0.048616018 0.0938759 0.049055345
0.043967925 0.093922034 0.049147286
0.042828437 0.093948737 0.049164485
0.08464586 0.085213706 0.048612937
0.091188721 0.076675311 0.04875965
0.089344651 0.076734602 0.048823446
0.096944317 0.060751542 0.049538881
0.026784128 0.028909653 0.050492533
0.06099515 0.016979769 0.050573125
0.041925441 0.016411677 0.051484611
0.061782103 0.011143491 0.051065326
0.06050846 0.011818781 0.050400313
0.059848964 0.011819586 0.050403871
0.057449248 0.011191934 0.051159903
0.07463932 0.093037456 0.049318749
0.071407303 0.093016505 0.04931467
0.067072302 0.093064755 0.049393602
0.041386191 0.093198299 0.049704175
0.076845229 0.092263862 0.049843125
0.073579088 0.092286065 0.049889088
0.070274442 0.092309296 0.049926009
0.085021399 0.083773389 0.049802016
0.091503292 0.075241193 0.04994275
0.089796625 0.075250104 0.049978729
0.096262589 0.06759201 0.049897715
0.094447419 0.067609578 0.049938522
0.020223886 0.03951402 0.052050818
0.019095484 0.03950648 0.052036583
0.018023672 0.03950116 0.052049216
0.025113316 0.033496782 0.05179432
0.034104254 0.02752474 0.051713858
0.029419856 0.02756387 0.051781304
0.043081306 0.021576151 0.051782433
0.036038067 0.016485155 0.051601764
0.076711357 0.015570074 0.051741086
0.060758945 0.015707269 0.051997311
0.037635129 0.015806168 0.052272309
0.079661086 0.091523811 0.050395221
0.075770684 0.091539517 0.050429869
0.074622184 0.090812936 0.050998244
0.087585568 0.082958698 0.050275397
0.083991565 0.083025083 0.050360084
0.088324979 0.082239255 0.050854061
0.085411057 0.082266599 0.050931729
0.094056763 0.07457456 0.050592754
0.092196107 0.074558169 0.050571825
0.090432793 0.074522972 0.050539151
0.093034357 0.073837981 0.051197957
0.097082816 0.058613479 0.051400561
0.025155008 0.026915535 0.052528374
0.024411106 0.026895255 0.052492023
0.02223471 0.026937604 0.052548371
0.038078491 0.020999074 0.052585874
0.035502668 0.021009877 0.052616637
0.07524731 0.014956146 0.052484639
0.06523519 0.014972001 0.05258891
0.038795102 0.015150771 0.052943967
0.08087796 0.089993224 0.051455427
0.07788448 0.090060517 0.051539443
0.076845296 0.090038791 0.051518127
0.038225468 0.09024933 0.052008625
0.075790025 0.089307487 0.052105676
0.090120472 0.081506088 0.051444072
0.089038447 0.081518844 0.051428091
0.086126357 0.081493795 0.051447336
0.096276715 0.065511853 0.051781755
0.094490655 0.065438107 0.05172915
0.019150849 0.038158461 0.053369019
0.043264173 0.019638374 0.053886447
0.062712535 0.014398739 0.05337267
0.057279736 0.014370978 0.053377129
0.056889221 0.014378205 0.053380892
0.054052651 0.014431894 0.053453885
0.05330177 0.014442399 0.053483322
0.058033239 0.013772443 0.054119986
0.064995475 0.008641094 0.053941146
0.066137582 0.097878247 0.052459884
0.064365879 0.097828038 0.05237864
0.06213785 0.097133771 0.052998792
0.061339784 0.097885631 0.05245886
0.06027532 0.097897321 0.052473161
0.057004884 0.097178854 0.053080969
0.055928908 0.097186543 0.053101365
0.081876718 0.088512927 0.052554969
0.078976601 0.08854495 0.05262297
0.088663481 0.08005321 0.052598596
0.095091015 0.072401896 0.052355234
0.093391538 0.072402701 0.05236638
0.091527276 0.072391301 0.05236819
0.019601926 0.036821797 0.054702725
0.025796756 0.030797496 0.054458778
0.022447558 0.030172288 0.055196565
0.021365829 0.030191094 0.055227205
0.018504495 0.030215755 0.055257153
0.069745392 0.018240362 0.054980651
0.06655594 0.01819554 0.05497307
0.045208775 0.018340662 0.055258967
0.044853915 0.018981472 0.054562133
0.032164969 0.018430308 0.055452824
0.031073689 0.018391743 0.055402681
0.053824358 0.013148218 0.054870382
0.066472538 0.096394993 0.053537659
0.060989603 0.096379131 0.053548712
0.059891958 0.096391901 0.053572126
0.058827553 0.09640152 0.05360103
0.057722971 0.096420564 0.053615965
0.052708425 0.096442692 0.053690135
0.04947878 0.096431084 0.053705651
0.048328921 0.096463174 0.053715095
0.047273289 0.096471436 0.053741608
0.067184955 0.095643625 0.05406218
0.06431289 0.095618829 0.054082852
0.062570043 0.0955953 0.054062329
0.054572385 0.095679268 0.054208368
0.053422775 0.095696911 0.054230314
0.049454138 0.095683426 0.05424697
0.045876574 0.09572348 0.054323141
0.04477445 0.095746189 0.054347716
0.085506022 0.087023675 0.053638481
0.084117599 0.087761149 0.053101465
0.08296451 0.087036625 0.053685702
0.080804683 0.087765023 0.05312394
0.095522642 0.070917279 0.053502183
0.093726717 0.070957601 0.053548224
0.097791255 0.062585592 0.054124683
0.036605548 0.023571402 0.055799194
0.034501065 0.023556545 0.055815585
0.039883997 0.017713204 0.056021877
0.038328648 0.017749444 0.05608651
0.038003769 0.017750025 0.056089014
0.059690665 0.012513876 0.055548936
0.059774514 0.011868849 0.05625606
0.05437918 0.011843204 0.056264333
0.070448324 0.094848543 0.054562721
0.046872802 0.094973624 0.054839954
0.042208426 0.095008984 0.054893151
0.081872471 0.086301997 0.054247946
0.084091783 0.085538372 0.05478986
0.089723945 0.077855974 0.054308992
0.094119959 0.069489509 0.05470733
0.094898701 0.068735078 0.055267889
0.023416916 0.034748003 0.056616776
0.067357644 0.016872838 0.056333229
0.039171752 0.017070293 0.056731857
0.056159638 0.011193022 0.056958169
0.05509159 0.011191532 0.056942821
0.069267213 0.09411788 0.055112109
0.067538552 0.09411341 0.055129722
0.065781265 0.094147503 0.05518293
0.064611144 0.094166607 0.055205971
0.075799964 0.093331084 0.055588335
0.074466318 0.094045341 0.05502798
0.073277406 0.093299046 0.055547465
0.070776254 0.093353912 0.055657443
0.047583591 0.094211161 0.055365395
0.045463692 0.094229534 0.055414461
0.042594779 0.093498543 0.055986106
0.086212151 0.084089994 0.055938661
0.084399059 0.084064662 0.055902999
0.090160415 0.076363742 0.055442065
0.092632018 0.075602889 0.055971961
0.095295958 0.067257196 0.056420561
0.097494707 0.059729755 0.056546777
0.026302552 0.021663979 0.05798829
0.02448214 0.021686897 0.058036495
0.054784648 0.01569891 0.057924282
0.041789319 0.015754372 0.058078364
0.074705884 0.092590064 0.056147192
0.072195821 0.09255679 0.056129649
0.07369002 0.091822267 0.056699287
0.071101852 0.091838822 0.05671839
0.088668242 0.083282799 0.056391619
0.089448437 0.082550481 0.05695603
0.086528927 0.082578465 0.057020817
0.091182902 0.074139968 0.057119969
0.098528594 0.066564903 0.057016701
0.096683793 0.066549957 0.056995638
0.016910005 0.045318156 0.058662131
0.025059601 0.038621798 0.058778118
0.021325087 0.032733575 0.058617841
0.020950396 0.032729611 0.058619641
0.019532621 0.032739788 0.058635838
0.037578609 0.026102543 0.059058636
0.032934591 0.026116014 0.059119739
0.024619628 0.026112497 0.059154555
0.081310868 0.02067256 0.057958197
0.043667864 0.020864367 0.058415055
0.037931051 0.02092807 0.058524709
0.028091216 0.020987183 0.058649424
0.039733578 0.020263761 0.059207432
0.03686545 0.020272464 0.059223987
0.034682218 0.020292789 0.059257958
0.063898094 0.015009969 0.058522906
0.060670741 0.015040368 0.058578912
0.059256908 0.014373943 0.059271622
0.079366215 0.090318203 0.05775008
0.077946343 0.090326145 0.057744496
0.076516807 0.091070861 0.057211008
0.075736076 0.09108679 0.057225712
0.090839706 0.08107245 0.058101043
0.087977976 0.081073791 0.058091644
0.087276101 0.081794232 0.057523757
0.093770131 0.07345511 0.05775255
0.091908783 0.073411688 0.057715163
0.097016007 0.065151304 0.058238987
0.095626771 0.065810651 0.057579301
0.02576752 0.031326503 0.05984788
0.023563806 0.031337261 0.05988552
0.027245479 0.025501043 0.059870973
0.044873483 0.019555673 0.059782609
0.031853974 0.019602865 0.059912689
0.065516837 0.013644218 0.05984566
0.06220068 0.013730153 0.059957009
0.044561572 0.013797998 0.06013434
0.059635341 0.098137148 0.058840953
0.081552111 0.08952859 0.058219612
0.078193821 0.08959718 0.058302823
0.076906607 0.089566275 0.058302727
0.080515407 0.088780716 0.058785304
0.03525576 0.089062378 0.059382368
0.088775486 0.080332443 0.058658455
0.094172746 0.071981966 0.058896318
0.098496147 0.064386696 0.058767833
0.09600652 0.064413577 0.058811113
0.097929768 0.056850657 0.058957614
0.097214021 0.056879133 0.058992989
0.017580159 0.036571413 0.060793709
0.016514799 0.036571726 0.06079964
0.045704022 0.018890738 0.060455538
0.03877265 0.018961191 0.06060119
0.063351743 0.013051629 0.060614567
0.05915013 0.012439147 0.061390467
0.059013113 0.013095215 0.060697351
0.057919275 0.013049603 0.060648881
0.056836538 0.013046369 0.060637228
0.055806015 0.013043076 0.060645562
0.058117602 0.097406007 0.059394516
0.057057615 0.097405016 0.059397575
0.053042367 0.097409166 0.059438258
0.051990952 0.097403884 0.059453815
0.064685047 0.096548952 0.059776038
0.062828146 0.096597664 0.059839763
0.06098685 0.096604481 0.059856869
0.059945814 0.096610829 0.059875838
0.053756613 0.09667737 0.059995353
0.045117076 0.096702985 0.060073398
0.084801555 0.087267593 0.05982909
0.082614392 0.088024095 0.059302676
0.081518605 0.087270111 0.059849788
0.078208849 0.087330937 0.059957448
0.089444883 0.07958594 0.059216704
0.090093613 0.078873396 0.059803389
0.087270588 0.078856185 0.059796233
0.094810188 0.071256205 0.059474312
0.096762463 0.062951207 0.059987836
0.023055859 0.035198942 0.062034369
0.03818503 0.023413241 0.061736811
0.037405916 0.023421288 0.061738532
0.035977315 0.023430452 0.061761681
0.033156004 0.022728249 0.06241991
0.032007709 0.023445815 0.061817817
0.030196989 0.023452222 0.061837438
0.027751865 0.022794172 0.062521294
0.0425064 0.017577738 0.061855067
0.067863844 0.011742234 0.061961129
0.060611047 0.011789337 0.062053882
0.070015922 0.095809609 0.060288467
0.068314679 0.095840767 0.060336646
0.065365486 0.095841497 0.060393132
0.063624479 0.095796049 0.060338136
0.061776791 0.095848992 0.060402028
0.055583391 0.095898852 0.060488105
0.054562375 0.095890492 0.06051385
0.071533315 0.095040739 0.060826313
0.066098168 0.095108867 0.060925871
0.064251319 0.095056474 0.060870066
0.062518626 0.095064104 0.060890384
0.058515884 0.095106646 0.060987346
0.057363018 0.09513101 0.060999017
0.052254405 0.095150888 0.06105962
0.051209562 0.095136926 0.061059792
0.050145723 0.095137492 0.061071254
0.049021125 0.095141605 0.061071578
0.047927871 0.095176339 0.061111543
0.045480959 0.095192492 0.061168164
0.083778493 0.086511239 0.060384456
0.085127778 0.085768729 0.060910113
0.082592577 0.085785732 0.060949855
0.09232866 0.077304617 0.060811006
0.090870023 0.078107342 0.060313668
0.095195375 0.069777027 0.060601272
0.098159581 0.061474562 0.061112728
0.012442459 0.047811136 0.062387418
0.096069477 0.04661642 0.061923582
0.026379356 0.033771083 0.063251004
0.02441531 0.034139454 0.062973201
0.023438426 0.034499481 0.062669598
0.021272179 0.034519523 0.06270577
0.027401369 0.028615698 0.06250982
0.023491668 0.02794832 0.063184872
0.030290198 0.022784561 0.062509492
0.038657237 0.022070184 0.063065514
0.03468911 0.022083059 0.06311468
0.044449698 0.016912416 0.06252227
0.041478656 0.016917333 0.062545128
0.071091488 0.016143426 0.062879793
0.056716658 0.016185209 0.063042328
0.040437307 0.016282037 0.063255981
0.059221029 0.011157051 0.062780797
0.054998241 0.010444745 0.063443124
0.07218831 0.094294757 0.061359227
0.07038258 0.094297349 0.061376091
0.068583421 0.094313636 0.061375052
0.046484523 0.094423622 0.061661858
0.042932048 0.094445452 0.061697226
0.076894067 0.09350954 0.06181274
0.074712634 0.094233602 0.061247267
0.069288485 0.093538299 0.061893959
0.067519404 0.093571186 0.061939847
0.064624429 0.093582183 0.062017385
0.043954231 0.093698353 0.062250279
0.0869148 0.084672689 0.061768152
0.08541926 0.084287807 0.062014595
0.083686776 0.084287807 0.062040117
0.081457771 0.085038692 0.06150059
0.091281503 0.076599523 0.061416775
0.08938916 0.076641485 0.061479513
0.091981642 0.075822249 0.06194064
0.0956508 0.068256184 0.061715677
0.097083688 0.060759872 0.061727684
0.097245477 0.053278223 0.061993167
0.020686902 0.039699271 0.0636383
0.021668086 0.033832088 0.063343637
0.019179381 0.03383784 0.063379891
0.039701451 0.020748675 0.064407609
0.063904159 0.015530527 0.063686386
0.03946647 0.015623838 0.063957006
0.075754866 0.092771307 0.062375631
0.073246293 0.092736974 0.062332992
0.042500015 0.092933297 0.062761314
0.041298475 0.092929229 0.062779225
0.039981596 0.092972547 0.062837109
0.038908698 0.092976511 0.062853515
0.074684031 0.09200412 0.062916949
0.085772261 0.082814351 0.063146383
0.028696124 0.083069772 0.063809067
0.094066605 0.074406132 0.063138582
0.096699193 0.066055894 0.063412875
0.09786617 0.058575019 0.063488662
0.097072914 0.058593288 0.063501313
0.015241007 0.05163978 0.064887978
0.02096514 0.026609629 0.064530663
0.034783281 0.025833413 0.06499213
0.026837688 0.025931343 0.06515348
0.025379857 0.025878638 0.065107226
0.024360731 0.02587235 0.065114506
0.055373721 0.014885843 0.064429298
0.08114405 0.090453088 0.063895807
0.077572778 0.09122777 0.063409001
0.07648588 0.090487689 0.063966811
0.073677093 0.091220498 0.063437179
0.03957672 0.091458783 0.063900851
0.038485289 0.091460377 0.063916355
0.036997713 0.090710089 0.064453252
0.088323548 0.081984833 0.063591205
0.087211348 0.082001835 0.06361647
0.092953622 0.073654205 0.063667849
0.094449133 0.07293117 0.0642557
0.015302736 0.06584318 0.06510555
0.020440161 0.036940336 0.066201448
0.017224636 0.037609071 0.065577418
0.022893768 0.031055897 0.065904319
0.032331262 0.025191262 0.065723404
0.026908785 0.025252596 0.06581638
0.023321776 0.025212824 0.065788664
0.041023143 0.024465531 0.066255242
0.045365598 0.018672824 0.066318765
0.038776658 0.019405782 0.065756887
0.030869611 0.019417509 0.065831102
0.06705711 0.0134698 0.065627642
0.065649234 0.013473555 0.06565351
0.057988334 0.013510227 0.065728754
0.079323426 0.089731202 0.064490698
0.081914112 0.088912368 0.064928733
0.089753896 0.080512732 0.064686723
0.095174082 0.072178274 0.0647953
0.014253461 0.065116614 0.065698966
0.096676849 0.063923433 0.065212995
0.012134694 0.049480677 0.066737235
0.024463499 0.036208346 0.066766039
0.031017043 0.03033784 0.066452302
0.027372459 0.030299053 0.066436842
