# .PCD v0.7 - Point Cloud Data file format
VERSION 0.7
FIELDS x y z
SIZE 4 4 4
TYPE F F F
COUNT 1 1 1
WIDTH 1362
HEIGHT 1
VIEWPOINT 0 0 0 1 0 0 0
POINTS 1362
DATA ascii
-0.025535272 -0.29344895 0.33159629
-0.024808781 -0.29346806 0.33159801
-0.010079692 -0.2882137 0.33162165
0.0011759322 -0.28300431 0.33152831
0.0024355692 -0.28300661 0.33152747
0.0016894861 -0.28299701 0.3315267
-0.15564306 -0.32938865 0.33213523
-0.15129207 -0.32940426 0.33213687
-0.15057488 -0.32940224 0.33214998
-0.14987934 -0.32940295 0.33215412
-0.1522271 -0.32873958 0.33280647
-0.15149796 -0.32873929 0.33281291
-0.13999227 -0.32589614 0.33218592
-0.12265444 -0.32239228 0.3321805
-0.12289677 -0.32171386 0.3328366
-0.11875256 -0.32168606 0.33282879
-0.10768475 -0.31857041 0.33221927
-0.10497741 -0.3181453 0.332683
-0.093233809 -0.31452993 0.33239627
-0.082526118 -0.3109636 0.33201706
-0.081644073 -0.31095517 0.3320154
-0.038302213 -0.29712018 0.33246806
-0.010388792 -0.28748468 0.33217609
-0.0064145178 -0.28676286 0.33275723
-0.14617349 -0.32807443 0.33348173
-0.14563142 -0.32807663 0.33349076
-0.12945387 -0.32454979 0.33353418
-0.12893462 -0.32454351 0.33352691
-0.11935019 -0.32098484 0.33347985
-0.11899203 -0.32099578 0.33348605
-0.11392133 -0.32098004 0.33345854
-0.10497755 -0.31744328 0.33331844
-0.10283091 -0.31744924 0.33332342
-0.10289507 -0.31674796 0.33396336
-0.10034249 -0.3167308 0.33393037
-0.093264408 -0.31384295 0.33302346
-0.073593669 -0.30883849 0.33385667
-0.072523631 -0.30886129 0.33386922
-0.062124368 -0.30520552 0.333334
-0.061393574 -0.30520025 0.33331206
-0.060684241 -0.30515483 0.33327579
-0.047079906 -0.30006278 0.33383989
-0.046449799 -0.30062264 0.33340028
-0.045615595 -0.30082029 0.33326063
-0.032365128 -0.29637054 0.3330341
-0.033081818 -0.29566649 0.3336356
-0.032557406 -0.29565448 0.33362371
-0.019224038 -0.29117662 0.33321783
-0.01848552 -0.29121399 0.33322939
-0.017949592 -0.29122984 0.33323693
-0.020126645 -0.29041713 0.33379301
-0.019588053 -0.29041708 0.33378208
-0.0064088637 -0.28601101 0.3333008
-0.0067771692 -0.28560263 0.3335534
-0.0037017553 -0.28521937 0.33379716
0.0077008191 -0.28071764 0.33313954
0.0084128091 -0.28073606 0.33313701
0.0069935843 -0.27994218 0.33366185
0.0075222026 -0.27994275 0.33366659
-0.16221163 -0.33088976 0.33403081
-0.15939027 -0.33066773 0.33425686
-0.15704532 -0.33022803 0.33471823
-0.1569913 -0.3308821 0.33402908
-0.14639784 -0.32739252 0.33415341
-0.14153674 -0.327371 0.33413884
-0.14215893 -0.32669735 0.33481941
-0.14181934 -0.32668397 0.3348161
-0.13150364 -0.32386729 0.3342171
-0.1304075 -0.32387498 0.33420923
-0.12968034 -0.32387364 0.33420029
-0.12427418 -0.32320708 0.33487907
-0.1145107 -0.32027885 0.33408725
-0.11396884 -0.32028469 0.33410102
-0.11512023 -0.31962496 0.33477008
-0.11473099 -0.31960684 0.33474961
-0.10926992 -0.31961557 0.33478379
-0.10055654 -0.31606543 0.33457634
-0.09787365 -0.31604311 0.33460721
-0.088271573 -0.31246084 0.33427057
-0.087550186 -0.31244251 0.3342689
-0.086488508 -0.3124359 0.33427453
-0.085393846 -0.31243658 0.33425984
-0.084487982 -0.31243822 0.33425039
-0.074357681 -0.30809185 0.33446097
-0.073983058 -0.30809948 0.33445618
-0.040271875 -0.2986021 0.33499673
-0.033083994 -0.29493779 0.33420902
-0.027502865 -0.29416743 0.33476651
-0.0039126356 -0.28446329 0.33434331
-0.00028757032 -0.28371471 0.3348926
6.5329179e-05 -0.28370464 0.33489212
0.022269214 -0.27314529 0.3343423
0.023163736 -0.27235779 0.33485669
0.024415409 -0.27234483 0.33485076
-0.16919824 -0.33242893 0.33589539
-0.16846354 -0.33242688 0.33589923
-0.16773775 -0.33242023 0.33589807
-0.15712431 -0.32957405 0.33541015
-0.15423231 -0.32956061 0.33540255
-0.15369123 -0.32956377 0.33539647
-0.14220639 -0.3260529 0.33551198
-0.12451729 -0.32251608 0.33554235
-0.10947426 -0.31894821 0.33545077
-0.097922899 -0.31534714 0.33524367
-0.094650015 -0.31535259 0.33523086
-0.097927839 -0.31464967 0.33588251
-0.094683707 -0.31466782 0.3358829
-0.063736796 -0.30668378 0.33571017
-0.053341337 -0.30300981 0.33510828
-0.055171676 -0.30231065 0.33572459
-0.054449201 -0.30229259 0.33571935
-0.053741019 -0.30228847 0.33571541
-0.05228062 -0.30227816 0.3357071
-0.051560409 -0.30228335 0.33570576
-0.03989147 -0.29860488 0.33500168
-0.041177172 -0.2978586 0.33558941
-0.040442839 -0.29785544 0.33557564
-0.028224882 -0.29343587 0.33531675
-0.027677255 -0.29343033 0.33533069
-0.012357912 -0.28823805 0.3354789
-0.011851844 -0.28822991 0.33547023
-0.00024902748 -0.28297007 0.33542928
-0.17050608 -0.33174625 0.33657414
-0.1696016 -0.33178279 0.3365972
-0.1634865 -0.3317695 0.33659491
-0.15430623 -0.32891467 0.33610332
-0.14768265 -0.32823145 0.33675605
-0.13362777 -0.32539201 0.33622023
-0.13618439 -0.32471451 0.33688846
-0.13545771 -0.32470345 0.336869
-0.13440247 -0.32470611 0.3368834
-0.12512174 -0.32183138 0.33621746
-0.12474058 -0.32183933 0.33621562
-0.12117912 -0.32112902 0.33685765
-0.12071212 -0.3215743 0.33641088
-0.10970785 -0.31827721 0.33611038
-0.10606784 -0.31825188 0.33609495
-0.10973864 -0.31758526 0.33676326
-0.10613039 -0.3175604 0.33673733
-0.10397914 -0.31757209 0.33675748
-0.095089898 -0.3139798 0.33651972
-0.094749257 -0.31397986 0.33652383
-0.090402029 -0.31397274 0.336503
-0.089659907 -0.31398779 0.33650309
-0.076503761 -0.30958006 0.33676171
-0.075766034 -0.3095952 0.33677241
-0.065426253 -0.30595145 0.33630267
-0.064471915 -0.30597413 0.33631939
-0.063965276 -0.3059676 0.33632123
-0.050333709 -0.30156538 0.33631745
-0.049426436 -0.30156082 0.3363176
-0.048718575 -0.30155671 0.33631575
-0.034720995 -0.29644293 0.33678544
-0.021760181 -0.29192203 0.33646989
-0.012729643 -0.2874741 0.33604142
-0.0082393689 -0.28669271 0.33657163
0.0053307661 -0.28143042 0.33652076
0.014988912 -0.27615553 0.33629858
0.015528948 -0.27617025 0.33630475
0.016399676 -0.27614865 0.33627689
0.017473815 -0.27612606 0.33626008
0.018756831 -0.27536327 0.33680305
0.019473843 -0.27537093 0.3368175
-0.17706138 -0.3339676 0.33769864
-0.17634363 -0.33398226 0.33771178
-0.17543554 -0.3339808 0.33772725
-0.17455178 -0.33398923 0.33773181
-0.17384315 -0.33396438 0.33771291
-0.16375625 -0.33113319 0.33731088
-0.16069281 -0.3310973 0.33728862
-0.16074434 -0.33044308 0.33798829
-0.14831902 -0.327573 0.33746359
-0.14792618 -0.32756436 0.33744845
-0.14364234 -0.32760933 0.33748576
-0.13642225 -0.32405385 0.33757079
-0.11657527 -0.32050574 0.33754849
-0.10615702 -0.31686679 0.33738002
-0.091182292 -0.31324449 0.33713996
-0.090804659 -0.31325093 0.33714366
-0.091377564 -0.31254137 0.33777654
-0.078352943 -0.30895007 0.3374294
-0.077604741 -0.30893302 0.33740973
-0.076902866 -0.3088854 0.33738944
-0.035237856 -0.29567596 0.33735391
-0.034871534 -0.29569146 0.33736214
-0.035460997 -0.29492894 0.33792943
-0.023365814 -0.29123539 0.33705404
-0.022656297 -0.29122698 0.33706322
-0.021934893 -0.29119951 0.33705527
-0.0082572866 -0.28555828 0.33739343
-0.0049914047 -0.28521815 0.33769104
0.0046163974 -0.28069913 0.33705094
0.0051777395 -0.2806887 0.33705428
0.0044534137 -0.27993941 0.33759031
0.020574853 -0.27462888 0.33734858
0.022568667 -0.27384612 0.33788157
-0.17750777 -0.33330569 0.33840737
-0.17322157 -0.33330843 0.33841658
-0.1724633 -0.33329105 0.33840463
-0.16397063 -0.33049962 0.33801818
-0.1608137 -0.3297976 0.33869141
-0.15793921 -0.32982808 0.33870459
-0.15545052 -0.32982895 0.33872107
-0.14856037 -0.32693976 0.33818573
-0.14406982 -0.32661745 0.33852202
-0.14370546 -0.32694706 0.3381829
-0.12644213 -0.32270697 0.33892512
-0.11700238 -0.3191615 0.33888435
-0.11694179 -0.31984463 0.33821535
-0.11138963 -0.31914002 0.33886912
-0.10370159 -0.31620565 0.3380591
-0.10154158 -0.31621221 0.33805728
-0.10160587 -0.31552121 0.33871841
-0.099062234 -0.31549466 0.33871439
-0.058275305 -0.30308735 0.33873972
-0.05745203 -0.30329135 0.33860412
-0.056792874 -0.30385372 0.33815369
-0.043192536 -0.29866898 0.33870608
-0.042670213 -0.2986643 0.33871251
-0.029692084 -0.2942073 0.33850068
-0.014395384 -0.28898457 0.33877394
-0.0049823504 -0.28447777 0.33825624
-0.0049922047 -0.28373989 0.33882427
-0.0015436573 -0.28374475 0.33879918
-0.19719593 -0.33553928 0.33951077
-0.18819749 -0.33555177 0.33950421
-0.18783298 -0.3355417 0.33950719
-0.17830704 -0.33269513 0.33916485
-0.17794901 -0.33267865 0.33914793
-0.15801525 -0.32919067 0.33940816
-0.15549558 -0.32918093 0.33943039
-0.14416836 -0.32563561 0.33956608
-0.13804117 -0.32563385 0.33957627
-0.12709375 -0.32203868 0.33959207
-0.12669525 -0.32203665 0.33959073
-0.1223179 -0.32202971 0.33959061
-0.11163232 -0.31847247 0.33953127
-0.10161708 -0.31482932 0.33937162
-0.099129215 -0.31445354 0.33967477
-0.096186496 -0.31483555 0.33937037
-0.069107607 -0.30606791 0.33992109
-0.06834469 -0.30606321 0.33988723
-0.067489065 -0.30655971 0.33946905
-0.066874444 -0.30678734 0.33927423
-0.058285907 -0.30235711 0.33933815
-0.043453593 -0.297708 0.33950523
-0.0299237 -0.29345882 0.3390775
-0.03025927 -0.29273078 0.33965543
-0.029898524 -0.29273036 0.33965439
-0.014590481 -0.28823811 0.33933875
-0.016220694 -0.28752741 0.33988655
-0.015319237 -0.28750947 0.33989197
-0.014753167 -0.28750122 0.33990061
-0.0017396406 -0.28260639 0.33963013
0.012574459 -0.27766228 0.33923805
0.013289196 -0.27767372 0.33924189
0.01167954 -0.27692053 0.33978504
0.012205843 -0.27691168 0.33978713
-0.18927151 -0.33428758 0.34096283
-0.18854456 -0.3347232 0.34047231
-0.16511744 -0.33143687 0.3405959
-0.15809371 -0.32854399 0.34011132
-0.15557034 -0.32852855 0.3401269
-0.15018423 -0.32853472 0.34013307
-0.15021399 -0.32789236 0.34083742
-0.13922583 -0.32464665 0.34060609
-0.13846819 -0.32498741 0.34026584
-0.12729281 -0.32137528 0.34026507
-0.12238868 -0.32137626 0.34027997
-0.118501 -0.32072955 0.34097138
-0.11210205 -0.31777442 0.34020337
-0.11170516 -0.31779543 0.34020358
-0.10732502 -0.31739742 0.34050864
-0.10486937 -0.3171047 0.34087336
-0.09622743 -0.3141436 0.34002587
-0.092722587 -0.31341401 0.34065005
-0.080641687 -0.3096028 0.34050816
-0.079642102 -0.30980429 0.34036142
-0.069109902 -0.3053734 0.34055716
-0.037111774 -0.29649103 0.34050113
-0.02470478 -0.29204011 0.34029445
-0.024881179 -0.29130104 0.34088245
0.0029343411 -0.2814779 0.34046492
0.010976172 -0.27619454 0.34033424
0.011334592 -0.27619466 0.3403354
-0.20801839 -0.33715263 0.34127563
-0.20295213 -0.33715475 0.34126204
-0.1897341 -0.33366674 0.34170085
-0.17947419 -0.33367768 0.34171396
-0.16540346 -0.33076179 0.34129655
-0.15101421 -0.32724124 0.34152395
-0.15048446 -0.32723582 0.34153473
-0.13930206 -0.32365456 0.34162197
-0.12229141 -0.3200618 0.34164655
-0.11853041 -0.32004595 0.34164184
-0.10737084 -0.31638741 0.34150952
-0.10489503 -0.31642497 0.34154794
-0.095979184 -0.31276634 0.34133995
-0.092769876 -0.31238514 0.34163824
-0.059777491 -0.30393517 0.34175095
-0.037268013 -0.2952863 0.34150061
-0.025256444 -0.29054984 0.34146041
-0.024911733 -0.29055524 0.34146345
-0.0094044795 -0.28562272 0.34129533
0.0029606458 -0.28072727 0.34102502
0.00274461 -0.27996635 0.34158266
-0.20321789 -0.33654046 0.34200692
-0.19837822 -0.33653343 0.34200844
-0.20348263 -0.33591488 0.34273875
-0.19845092 -0.33591413 0.3427442
-0.17972024 -0.33304489 0.34243587
-0.16169503 -0.33012813 0.34201109
-0.16536671 -0.32947257 0.34271339
-0.15105483 -0.3265956 0.34222567
-0.14529566 -0.32659948 0.34223041
-0.15112156 -0.32594982 0.34292856
-0.14538018 -0.32595375 0.34292784
-0.11858011 -0.31937194 0.34232062
-0.1132478 -0.31869972 0.34298995
-0.10743745 -0.31571466 0.34218383
-0.1045965 -0.3150644 0.34287584
-0.10244976 -0.31507006 0.34288076
-0.070985764 -0.30700678 0.34292692
-0.070600711 -0.30699429 0.3429243
-0.060338579 -0.30323854 0.34237337
-0.059821364 -0.30322731 0.34237126
-0.045061272 -0.29883355 0.3424367
-0.037555359 -0.29432696 0.34229913
-0.0317844 -0.29431626 0.34227958
-0.031792473 -0.29359657 0.3428933
-0.017012622 -0.28909954 0.34260678
-0.0095579559 -0.28453326 0.34216273
-0.0057732002 -0.28383467 0.34277597
0.0025867899 -0.27921909 0.34213805
0.028494636 -0.26780012 0.34209371
-0.2216749 -0.33881563 0.34301421
-0.21816665 -0.33820489 0.34378237
-0.21419588 -0.33849442 0.3433975
-0.20917577 -0.33818275 0.34375754
-0.19854334 -0.33528814 0.34347066
-0.19135055 -0.33530915 0.34349602
-0.1800023 -0.33240783 0.34316158
-0.16146377 -0.32886124 0.34345484
-0.15894216 -0.32887477 0.34344769
-0.15646812 -0.32886192 0.34344926
-0.14546451 -0.32530615 0.34362507
-0.14078134 -0.32528615 0.34361073
-0.12864155 -0.32233733 0.3430047
-0.12921849 -0.32168728 0.34370372
-0.12868804 -0.32168394 0.34370303
-0.11835074 -0.31803611 0.3436828
-0.1134619 -0.31801704 0.34365007
-0.099974267 -0.31437159 0.34351417
-0.083534844 -0.31001428 0.34391919
-0.082571052 -0.31023443 0.34370923
-0.071373872 -0.30631974 0.34356287
-0.060559459 -0.30256799 0.34302065
-0.060733818 -0.30188853 0.34367633
-0.045082178 -0.29812685 0.34305418
-0.045481667 -0.29740033 0.34366131
-0.031813756 -0.29288885 0.34350383
-0.017521692 -0.28838766 0.34318864
-0.018273909 -0.28760499 0.34375656
-0.017726475 -0.28763029 0.34376389
-0.005779352 -0.28309843 0.34334826
-0.0029250644 -0.28306928 0.34329981
0.0094174901 -0.27776238 0.3432785
0.010496619 -0.27776048 0.34327495
0.0094365589 -0.27699873 0.3438347
-0.22863252 -0.34046832 0.34471536
-0.2143157 -0.3375845 0.34452039
-0.2092558 -0.33757585 0.34450415
-0.19863535 -0.33467233 0.34420219
-0.19220257 -0.33437765 0.34460372
-0.191618 -0.33469653 0.3442333
-0.17979045 -0.33115372 0.34461361
-0.16518079 -0.32820201 0.34414253
-0.15651163 -0.32822442 0.34416625
-0.16125779 -0.32759359 0.34488663
-0.1526155 -0.3276079 0.34487528
-0.14550458 -0.32465494 0.34432492
-0.14082371 -0.32462835 0.34430736
-0.12964901 -0.3210302 0.34440085
-0.12366913 -0.3210454 0.34441087
-0.1184034 -0.31735757 0.34435555
-0.11371468 -0.31733608 0.34431118
-0.11374229 -0.31667602 0.34498823
-0.10190324 -0.3130326 0.34487921
-0.09971568 -0.31304201 0.34484717
-0.097175434 -0.31336445 0.3445524
-0.085228458 -0.30932316 0.34457719
-0.084298275 -0.30931357 0.34455061
-0.08395648 -0.30931816 0.34454802
-0.072264418 -0.30564445 0.34419823
-0.071749188 -0.30564526 0.34419757
-0.07251019 -0.30492139 0.34482476
-0.045881446 -0.29667652 0.34427086
-0.045883626 -0.29595804 0.34488714
-0.031836245 -0.29218164 0.34411716
-0.031833466 -0.29146266 0.34472093
-0.026413422 -0.2914404 0.34471422
-0.018475614 -0.28649586 0.34464189
-0.005444827 -0.28160107 0.34447956
-0.002540224 -0.28158602 0.34444407
0.0092703085 -0.27623966 0.34439507
0.0087317489 -0.27547556 0.34495097
-0.22873478 -0.3398757 0.3454766
-0.22288455 -0.33988935 0.34547156
-0.20442109 -0.33635986 0.34598455
-0.16135307 -0.326958 0.34559774
-0.15629534 -0.32695377 0.34559628
-0.15304771 -0.32695138 0.34558341
-0.15267707 -0.32696745 0.34558889
-0.14557743 -0.32399508 0.34502375
-0.14101253 -0.32330698 0.34571162
-0.14090066 -0.32396689 0.34500724
-0.13044664 -0.32036471 0.34510204
-0.1298921 -0.32037282 0.3451018
-0.12341101 -0.31972429 0.3457908
-0.11380972 -0.31601942 0.34567744
-0.10834914 -0.31602705 0.34571132
-0.093663141 -0.31234041 0.3455275
-0.085447527 -0.30862892 0.3452315
-0.084348381 -0.30863225 0.34521568
-0.039057288 -0.29524881 0.34549153
-0.038704045 -0.29524332 0.34549302
-0.026432062 -0.29071888 0.34531194
-0.026470672 -0.2899982 0.3459053
-0.0022012454 -0.28010163 0.34558699
0.0014061104 -0.2800979 0.34559256
0.026536904 -0.2693772 0.34519824
0.026372477 -0.26860785 0.34573674
-0.24055444 -0.34213993 0.34635347
-0.23732948 -0.34215587 0.34636423
-0.22885853 -0.33928013 0.3462362
-0.22302236 -0.3392854 0.34623319
-0.20909989 -0.33635715 0.3460055
-0.16636218 -0.32926336 0.34678471
-0.15314643 -0.32630625 0.34629872
-0.14106062 -0.32267281 0.34641904
-0.12347737 -0.31905478 0.34648049
-0.10839152 -0.31537089 0.3464005
-0.096957408 -0.31166971 0.34621209
-0.093684457 -0.31167564 0.34619954
-0.062133413 -0.30284008 0.34675807
-0.052057426 -0.29833129 0.34679967
-0.051534649 -0.29832709 0.34679744
-0.039099373 -0.29453185 0.34609947
-0.039096657 -0.29380706 0.34670591
-0.010565925 -0.28471214 0.34611914
-0.010598709 -0.28399155 0.34670785
0.0013728247 -0.27936065 0.34616813
-0.001880938 -0.27862394 0.34673229
0.025447369 -0.26782784 0.34629357
0.026151121 -0.26783505 0.34628567
-0.2191878 -0.33839872 0.34739864
-0.21566097 -0.33805782 0.34774783
-0.18177271 -0.33162293 0.34792778
-0.15325525 -0.32535702 0.34738421
-0.14083053 -0.32140058 0.34784061
-0.13222626 -0.32139987 0.34787086
-0.13184229 -0.32140306 0.34787032
-0.12343407 -0.31773674 0.34786576
-0.11951048 -0.31770071 0.34784371
-0.10813145 -0.31405109 0.34776556
-0.10517472 -0.31470206 0.34707424
-0.093419693 -0.31033206 0.3475439
-0.086981334 -0.31031209 0.34752268
-0.074070528 -0.30588368 0.34783369
-0.0737027 -0.30588934 0.34783769
-0.062541127 -0.30212596 0.34739962
-0.052300461 -0.29762685 0.34743235
-0.050490096 -0.29761606 0.34742254
-0.049918626 -0.29762852 0.34742385
-0.039322086 -0.29308546 0.34732339
-0.026121566 -0.2885538 0.34709954
-0.026139576 -0.28783518 0.34768927
-0.010576802 -0.28326792 0.34729856
-0.01058385 -0.28253675 0.34788999
0.0017326786 -0.27789107 0.34731025
0.0078467755 -0.27712834 0.3479048
-0.24827266 -0.34332484 0.34878153
-0.23149122 -0.34041148 0.34868902
-0.1996832 -0.33455801 0.34825119
-0.15966448 -0.32801983 0.34825027
-0.15770784 -0.3280319 0.34825313
-0.15539429 -0.32803479 0.34826955
-0.15977617 -0.32738185 0.34897354
-0.1465227 -0.32438749 0.34842956
-0.1335223 -0.32073689 0.34855226
-0.13243219 -0.32076198 0.34857282
-0.11681699 -0.31711245 0.34856552
-0.10494485 -0.31336278 0.3484216
-0.088245638 -0.30966529 0.3481884
-0.087362647 -0.309641 0.34818467
-0.089197695 -0.30896315 0.34885892
-0.088659234 -0.30898654 0.34885532
-0.074126452 -0.30518875 0.34849146
-0.063284367 -0.3014338 0.3480368
-0.062916175 -0.30143619 0.34803635
-0.063557193 -0.30071896 0.34866291
-0.052677199 -0.29692551 0.34806275
-0.049226228 -0.29692629 0.34805733
-0.048559975 -0.29691908 0.34806418
-0.047464106 -0.29691505 0.34806073
-0.032703366 -0.2917057 0.34858555
-0.019691994 -0.28706786 0.34828532
-0.020070465 -0.28636104 0.34889722
-0.019701926 -0.28635123 0.34889179
-0.0062933569 -0.2817629 0.34846655
0.026063941 -0.2702978 0.34883443
-0.14737456 -0.32343444 0.34952563
-0.14661685 -0.32341924 0.34949672
-0.14237767 -0.3231422 0.34989464
-0.1342743 -0.32009476 0.34924966
-0.13378131 -0.32008442 0.34924391
-0.13270272 -0.32010216 0.34927303
-0.13454537 -0.31945419 0.349971
-0.1194286 -0.31638145 0.3492257
-0.11510608 -0.31643203 0.34925017
-0.11475742 -0.31641459 0.34922683
-0.11516897 -0.31578794 0.34994718
-0.1024882 -0.31270573 0.34912044
-0.10030074 -0.3127279 0.34910163
-0.097844228 -0.31203038 0.34980118
-0.089255512 -0.30827567 0.34952348
-0.074324645 -0.30448377 0.3491388
-0.074578576 -0.30378431 0.34978139
-0.063746594 -0.30001485 0.34929362
-0.057602689 -0.30001318 0.34928504
-0.033077106 -0.29062679 0.34949866
-0.032740846 -0.29099804 0.34919935
-0.020073084 -0.28564981 0.34950778
-0.006311188 -0.281023 0.34903622
0.0076707774 -0.27564943 0.34903565
0.019524515 -0.26949775 0.34936139
0.02078623 -0.26949316 0.34937605
0.021689687 -0.26950246 0.34939241
0.021678502 -0.26875037 0.34994489
0.022593386 -0.26877397 0.34995073
0.023503013 -0.26876804 0.3499566
-0.14314598 -0.3225005 0.35061181
-0.14262179 -0.32249975 0.35061172
-0.12486813 -0.31880915 0.35068545
-0.1152295 -0.31513941 0.35063812
-0.10956115 -0.31512159 0.35064346
-0.10223792 -0.31137818 0.35047385
-0.10007697 -0.3113848 0.35047209
-0.098294847 -0.31134546 0.35046038
-0.094684966 -0.31138927 0.35048148
-0.089320831 -0.30759186 0.35018599
-0.055132993 -0.29867259 0.35059175
-0.054605242 -0.29865947 0.35059187
-0.040723402 -0.29409128 0.35056591
-0.033103429 -0.28953096 0.35040665
-0.027389172 -0.2888281 0.35099849
-0.021158962 -0.28496248 0.35010538
-0.020624101 -0.28495985 0.35011327
-0.0059971008 -0.27955112 0.35019627
-0.0059958911 -0.27881208 0.3507756
0.00052428764 -0.2788623 0.35079354
0.0067711831 -0.27345577 0.35072351
0.0071305744 -0.27346119 0.35072547
-0.1249615 -0.31815621 0.35138461
-0.11524954 -0.31448752 0.35132915
-0.10981271 -0.31445804 0.35132268
-0.1058769 -0.31377354 0.35199049
-0.097611882 -0.3106862 0.35115489
-0.094581679 -0.31005004 0.35183612
-0.065302581 -0.30175716 0.35175014
-0.056252375 -0.2979385 0.35121721
-0.055542424 -0.29795292 0.35122395
-0.040771261 -0.29338571 0.35119629
-0.041324794 -0.2926847 0.35181272
-0.040820815 -0.29267934 0.35181651
-0.028161079 -0.28808028 0.35160047
-0.00021458382 -0.27812746 0.35137665
0.00053104927 -0.27814078 0.35137716
0.00049739995 -0.27740896 0.35196334
-0.13627428 -0.32122156 0.35204756
-0.12501821 -0.31750467 0.35207653
-0.1206541 -0.31748998 0.35206771
-0.1207337 -0.31685001 0.35277334
-0.10991042 -0.31380549 0.35200277
-0.10595015 -0.31309769 0.35267645
-0.090861537 -0.30934462 0.35249236
-0.077252693 -0.30493766 0.35287178
-0.035068352 -0.2919693 0.35244167
-0.023137281 -0.28740832 0.35225862
-0.021680349 -0.28739545 0.35226473
-0.012268656 -0.2820344 0.35250714
0.0062555652 -0.27664185 0.35255128
0.018948535 -0.27120909 0.35243094
-0.13624981 -0.31995308 0.35349107
-0.1096696 -0.31249782 0.35338801
-0.10136462 -0.31248498 0.35340557
-0.090930842 -0.30866989 0.35316995
-0.035089184 -0.29126102 0.35306287
-0.0039932835 -0.28059521 0.35367864
0.0062274216 -0.27556062 0.35342395
-0.028664194 -0.28950867 0.35461789
0.015199398 -0.27301708 0.35550323
0.016606746 -0.27298763 0.35546309
-0.031425703 -0.30085322 0.3568733
0.010320627 -0.27769858 0.3560921
0.011415316 -0.27697536 0.35668173
0.043653768 -0.25427747 0.35606176
0.043672569 -0.25352818 0.35660386
0.058045395 -0.2463644 0.35684574
0.0049200375 -0.27626678 0.35726374
0.012442837 -0.27553785 0.35788456
0.020172417 -0.2700552 0.35782763
-0.021015607 -0.29026186 0.35823116
-0.020637194 -0.29028285 0.35823941
-0.021777362 -0.28954718 0.35888353
-0.01958403 -0.2896145 0.35889119
-0.0098736994 -0.28959152 0.35890135
-0.0090472149 -0.28564373 0.35809845
-0.0039765481 -0.28564537 0.35806972
0.0014726585 -0.27951661 0.35896853
0.0058101467 -0.27951887 0.35899824
0.014941286 -0.27481127 0.35846809
0.016358318 -0.27478853 0.35845447
0.027213283 -0.26382282 0.35816732
0.028348453 -0.26310661 0.35873112
0.032691449 -0.26308557 0.35871652
0.040487353 -0.25755438 0.35829616
-0.082388133 -0.31798777 0.35989344
-0.058192864 -0.31104648 0.35911396
-0.059364896 -0.31038728 0.35981154
-0.057256784 -0.31039003 0.35982758
-0.042806607 -0.30658323 0.35963044
-0.042415239 -0.30267408 0.35928246
-0.038117088 -0.3026695 0.35926425
-0.020700708 -0.2888625 0.3595134
-0.0055190758 -0.28350976 0.35994396
0.011346523 -0.27409527 0.35908517
0.012428136 -0.27407998 0.3590827
0.013861614 -0.27337077 0.35968456
0.018024413 -0.26790217 0.35960066
0.019788599 -0.26785523 0.35955468
0.020879822 -0.26785651 0.35957533
0.03230416 -0.26159409 0.35987529
0.041933622 -0.25533184 0.35997623
-0.11538861 -0.32796085 0.36069196
-0.081381872 -0.31737906 0.3606233
-0.071306281 -0.31358549 0.36064622
-0.070774883 -0.31358433 0.36064672
-0.069684505 -0.31359106 0.36064702
-0.064458124 -0.31360713 0.3606419
-0.054775294 -0.30974889 0.36052218
-0.050094519 -0.30973151 0.3605139
-0.046853304 -0.30134785 0.36064264
-0.042524099 -0.30133876 0.36064294
-0.036763128 -0.3013331 0.36061162
-0.028508602 -0.30131429 0.36062807
-0.029134 -0.29747206 0.36019588
-0.024823079 -0.29744685 0.36015978
-0.029913757 -0.29678059 0.3608717
-0.02522302 -0.29674256 0.36082008
-0.024508614 -0.29677105 0.36082616
-0.023619104 -0.29679283 0.36083841
-0.023021203 -0.29211813 0.36088198
-0.014771013 -0.29211199 0.36087745
-0.011873828 -0.29216522 0.36091879
-0.014287262 -0.28752396 0.36082345
-0.013581633 -0.28750381 0.36081365
-0.006373974 -0.28750357 0.36080661
-0.0031467809 -0.28748178 0.36080831
-0.0014461636 -0.27810183 0.36018714
0.0071987873 -0.27810639 0.36022019
0.022311417 -0.26714468 0.36017403
0.029919287 -0.26713377 0.36015716
0.034484129 -0.26087832 0.36042711
-0.082728237 -0.3167074 0.36133665
-0.067739472 -0.3167443 0.36135188
-0.077871956 -0.31298241 0.36136657
-0.064734325 -0.31295201 0.36135313
-0.063462734 -0.31295267 0.36135736
-0.062379755 -0.3129375 0.36135012
-0.058780335 -0.30909038 0.36122236
-0.050519153 -0.30909118 0.36123377
-0.05739025 -0.30845255 0.36192372
-0.055799283 -0.30844867 0.36193579
-0.058110807 -0.30458131 0.36168933
-0.049848422 -0.30458307 0.36168551
-0.046242066 -0.30457756 0.36167425
-0.04480695 -0.30456656 0.36168036
-0.036864419 -0.30458528 0.36167976
-0.03791986 -0.30068403 0.36132789
-0.02206593 -0.29609057 0.36151424
-0.010827891 -0.29146132 0.36155227
-0.0063216118 -0.29144856 0.3615469
-0.0078873681 -0.28679353 0.36144671
-0.0056881458 -0.28681988 0.36144805
-0.0024399557 -0.28679514 0.3614465
-0.0099098021 -0.28208283 0.36119395
-0.0041548871 -0.28210703 0.36119342
-0.00091811857 -0.28138971 0.36182886
0.0019453672 -0.28140748 0.36182463
0.0032101488 -0.28137887 0.36184636
0.0037321434 -0.27667341 0.36141479
0.0075309807 -0.27667075 0.36144972
0.0086007193 -0.27670771 0.36144683
0.015260078 -0.27120307 0.36148596
0.017407374 -0.27117977 0.36144686
0.026269563 -0.26568216 0.36133322
0.030229487 -0.26566288 0.36133415
-0.12070188 -0.32994831 0.36261547
-0.10959455 -0.32307181 0.36255834
-0.095985457 -0.31931299 0.36272994
-0.093832858 -0.31929165 0.36272755
-0.087527543 -0.31931654 0.3627474
-0.086816147 -0.31932724 0.36275131
-0.085197143 -0.31926921 0.36271238
-0.075420938 -0.31611025 0.36205137
-0.089539617 -0.3154856 0.36278385
-0.074233964 -0.31548908 0.36279374
-0.073537111 -0.31548017 0.36280486
-0.076551139 -0.3123185 0.3620851
-0.059949119 -0.31228876 0.36205423
-0.082564183 -0.31169316 0.36280063
-0.054612596 -0.30779901 0.36263797
-0.058177177 -0.30392593 0.36238527
-0.033266407 -0.30001485 0.36201715
-0.032731734 -0.30001166 0.36201987
-0.046283592 -0.29934445 0.36267871
-0.045227032 -0.29933986 0.36268917
-0.044847459 -0.29934007 0.36268541
-0.040537912 -0.29933187 0.36267629
-0.036943227 -0.29933375 0.36267403
-0.031911921 -0.29934686 0.36270311
-0.028294494 -0.29931951 0.36268046
-0.027939582 -0.29931346 0.36267292
-0.037180625 -0.29542938 0.36219367
-0.028594352 -0.29543275 0.36220011
-0.022287343 -0.29542005 0.36217299
-0.021363402 -0.29540741 0.36218593
-0.014218232 -0.29476202 0.36287409
-0.011582202 -0.29079911 0.36223918
-0.0090863276 -0.29077515 0.36219242
-0.0083924364 -0.29008862 0.36284649
-0.0049798004 -0.28612414 0.36208665
-0.0014537843 -0.28540519 0.36272299
0.016676055 -0.27048913 0.36207879
-0.16945687 -0.34221292 0.36324242
-0.16441782 -0.3422325 0.3632527
-0.15647604 -0.34224924 0.36325052
-0.14347821 -0.33553338 0.36387634
-0.13265562 -0.33246171 0.36368671
-0.13120972 -0.33246607 0.36368829
-0.12947446 -0.33241934 0.36366272
-0.12836455 -0.33244964 0.36368793
-0.12621845 -0.32933536 0.36338985
-0.12135683 -0.32932538 0.36337328
-0.11004973 -0.32562554 0.36378643
-0.10824252 -0.32560694 0.36375278
-0.10554411 -0.32561994 0.36379546
-0.10319728 -0.32562059 0.36377433
-0.10250314 -0.32558978 0.36376753
-0.094938964 -0.32561269 0.36373514
-0.098522194 -0.32245371 0.3632921
-0.08579959 -0.31871259 0.3634806
-0.079534896 -0.31869361 0.36349589
-0.078425907 -0.31865907 0.3634747
-0.098603003 -0.31488174 0.36355746
-0.095396511 -0.3148419 0.3635321
-0.081335381 -0.31484306 0.36353132
-0.072730385 -0.3148655 0.36354572
-0.07651715 -0.31106204 0.3635112
-0.064391062 -0.3110266 0.36349586
-0.07123775 -0.30712599 0.36331075
-0.07092607 -0.3071318 0.36330631
-0.063310251 -0.30712441 0.36330909
-0.048177596 -0.3071453 0.36332148
-0.064099021 -0.30647153 0.36399442
-0.063761666 -0.3064675 0.36399612
-0.060205724 -0.30326235 0.36306691
-0.059682086 -0.30327076 0.36307153
-0.058418632 -0.30328476 0.36307991
-0.049940888 -0.3032847 0.36307719
-0.045266133 -0.30326504 0.36306283
-0.041644663 -0.30327889 0.36308226
-0.040239081 -0.30328229 0.36309084
-0.065915853 -0.30260336 0.36376733
-0.058649294 -0.30263963 0.36377135
-0.056877349 -0.3026076 0.36376274
-0.050198935 -0.30261987 0.36376458
-0.039597999 -0.30262077 0.36377814
-0.035604615 -0.30260849 0.36376426
-0.03590408 -0.29866305 0.36332887
-0.033037666 -0.29868186 0.36336932
-0.026905349 -0.29864979 0.36333692
-0.0087763611 -0.28939787 0.36350101
-0.0048669265 -0.28938079 0.36350581
-0.0061478131 -0.28470728 0.36336172
-0.00075568416 -0.28471386 0.36336064
-0.0056559453 -0.28001475 0.36311966
-0.00099582202 -0.27999043 0.36308676
9.8271572e-05 -0.27997383 0.36307997
0.0047637862 -0.27926183 0.36373642
0.0072771809 -0.27932 0.36373517
0.0085182292 -0.27928245 0.36372924
0.021695888 -0.26903889 0.36328292
0.026564708 -0.26346609 0.36310136
0.028042322 -0.26350725 0.36309162
0.032381438 -0.26347935 0.3630701
0.035963882 -0.26347205 0.36308518
0.033477653 -0.26276428 0.36365646
0.039832506 -0.25716665 0.36329845
0.049568865 -0.2508271 0.36331528
-0.17418171 -0.34475541 0.36405027
-0.16036795 -0.3411667 0.36490083
-0.15122853 -0.34169734 0.36407122
-0.15610054 -0.33806038 0.36478257
-0.15272 -0.33809239 0.36482853
-0.15163326 -0.33807629 0.36480284
-0.14838392 -0.33810848 0.36484125
-0.14767626 -0.33809865 0.36484274
-0.14214475 -0.33500335 0.36470044
-0.14178778 -0.33500198 0.36469898
-0.14270192 -0.33498454 0.36468959
-0.14127699 -0.3349942 0.36470181
-0.14054067 -0.33499652 0.36469728
-0.1356605 -0.33498734 0.36469534
-0.13660716 -0.33189046 0.36446035
-0.1320499 -0.33190161 0.36447334
-0.13133524 -0.33190411 0.36447388
-0.12866727 -0.33186305 0.36445981
-0.12523384 -0.33189979 0.36447576
-0.12488523 -0.3318834 0.36445212
-0.12046045 -0.33190209 0.36448479
-0.12059835 -0.3287628 0.36416328
-0.11701389 -0.3281638 0.36493409
-0.11643153 -0.32815337 0.36491454
-0.11427318 -0.32817689 0.36494082
-0.11194481 -0.32818642 0.36495051
-0.10946462 -0.3250362 0.36454919
-0.10472471 -0.32503337 0.36455053
-0.1026079 -0.32501483 0.36453089
-0.11375352 -0.32499233 0.36450967
-0.10763359 -0.32499909 0.36452097
-0.10187984 -0.32499069 0.36452755
-0.10484686 -0.32123968 0.36480963
-0.10221881 -0.32187876 0.36406022
-0.09953396 -0.32182962 0.36403501
-0.098801106 -0.32184133 0.36403853
-0.091500685 -0.32125437 0.3647961
-0.090390585 -0.32154799 0.36441928
-0.089664198 -0.32154903 0.36442375
-0.085016116 -0.31806019 0.36419782
-0.084283814 -0.3180286 0.36418885
-0.098759651 -0.31745201 0.36495864
-0.094093062 -0.31746781 0.36494738
-0.093547001 -0.31745282 0.36494464
-0.09249264 -0.31744248 0.36495104
-0.09158358 -0.31744739 0.36494592
-0.0771356 -0.31741849 0.36492059
-0.09556406 -0.31358129 0.36499429
-0.088366576 -0.31361008 0.36496586
-0.086550392 -0.31360957 0.36499646
-0.079705067 -0.31361389 0.36499012
-0.083247885 -0.31038395 0.36422014
-0.074237265 -0.31037432 0.3642303
-0.082422212 -0.30977058 0.36494517
-0.075045951 -0.3097648 0.36495581
-0.074508347 -0.30975741 0.36495209
-0.070252009 -0.3065019 0.36401156
-0.069522001 -0.30650651 0.36402416
-0.068482369 -0.30649623 0.3640399
-0.064460717 -0.30648625 0.36400241
-0.063387215 -0.30646941 0.36400247
-0.058317922 -0.30650809 0.36403975
-0.052939154 -0.30651173 0.3640424
-0.04973238 -0.30650052 0.36404371
-0.048259851 -0.30648938 0.36402655
-0.068523839 -0.30584633 0.36473995
-0.047230382 -0.30193919 0.36445233
-0.044313747 -0.30194438 0.36444777
-0.040378988 -0.30198464 0.36447641
-0.051097322 -0.29801515 0.36404628
-0.043900285 -0.29799771 0.36403167
-7.1003844e-05 -0.28402236 0.36400265
0.0028119565 -0.28400326 0.36403683
-0.017003512 -0.28334457 0.36464769
-0.0083914772 -0.283324 0.36467391
0.0035075457 -0.28331652 0.36467662
0.009585768 -0.2785725 0.36434883
0.010493099 -0.27858451 0.3643539
0.010438045 -0.27787694 0.36497754
0.023437224 -0.26756787 0.36448222
-0.18945615 -0.34673667 0.3655974
-0.18838863 -0.34671724 0.365587
-0.17407982 -0.34371629 0.36570087
-0.17085174 -0.34366262 0.36567044
-0.16940667 -0.34369415 0.36568266
-0.16663349 -0.34063143 0.36569753
-0.15944517 -0.3406333 0.36571804
-0.15854807 -0.34060982 0.36568743
-0.1547461 -0.34062997 0.36570132
-0.15196548 -0.33755055 0.36563382
-0.15089191 -0.3375034 0.36559764
-0.14653616 -0.33753929 0.36563587
-0.14561158 -0.33752877 0.36561555
-0.13975522 -0.33444452 0.36549255
-0.13540983 -0.33442849 0.36548686
-0.13448867 -0.33443958 0.36549032
-0.13124561 -0.33440536 0.36546746
-0.1314714 -0.33133608 0.36526084
-0.12425709 -0.33129555 0.36521503
-0.12371529 -0.33128145 0.36520529
-0.13086863 -0.32759762 0.36572066
-0.11351744 -0.3276042 0.36572286
-0.11208338 -0.32759914 0.36572424
-0.10990088 -0.32760823 0.36569059
-0.10739052 -0.32759041 0.36572784
-0.10635815 -0.32067278 0.36554503
-0.10202419 -0.32066196 0.36556458
-0.091609173 -0.32064986 0.3655386
-0.09052635 -0.3206434 0.36554673
-0.10965823 -0.31680086 0.36566836
-0.10569525 -0.31684253 0.36571085
-0.10353289 -0.31682312 0.3656776
-0.10284794 -0.31681186 0.36568996
-0.09494479 -0.31295618 0.36571559
-0.08752659 -0.3129918 0.36571354
-0.086811259 -0.31298751 0.36572906
-0.066448502 -0.31297016 0.36570805
-0.073334977 -0.30908906 0.36565319
-0.072916746 -0.30908591 0.36563054
-0.062087256 -0.30519649 0.36543575
-0.055251688 -0.30521584 0.36545667
-0.058441482 -0.30131432 0.36515203
-0.048684653 -0.30130485 0.3651475
-0.04369029 -0.30128169 0.36513951
-0.039705213 -0.30132011 0.3651678
-0.047687624 -0.30062848 0.36583203
0.001310789 -0.28261879 0.36528629
0.0045308191 -0.28264162 0.36531305
0.0057536205 -0.28195202 0.36595219
0.0062988233 -0.28193155 0.36594662
0.012060223 -0.27238661 0.36511901
-0.21540089 -0.35173872 0.36684
-0.21073443 -0.35174856 0.3668426
-0.19816104 -0.35174376 0.36686507
-0.20154673 -0.34924695 0.36625522
-0.20066376 -0.34924313 0.36626089
-0.19992965 -0.34924218 0.36624867
-0.18891466 -0.34622738 0.36643851
-0.18765569 -0.34619379 0.36639768
-0.17808862 -0.34621209 0.36642677
-0.17963986 -0.3431575 0.36649534
-0.17423542 -0.34318244 0.36652222
-0.17118973 -0.34314701 0.36650041
-0.16886862 -0.34318066 0.36650649
-0.16671996 -0.34315944 0.36650994
-0.16236734 -0.34317315 0.36651301
-0.16392381 -0.34009647 0.36653075
-0.15776153 -0.3400577 0.36647633
-0.15522389 -0.340105 0.3665207
-0.15489227 -0.34009862 0.36652175
-0.15022855 -0.34009966 0.36652771
-0.15494427 -0.33699325 0.36641935
-0.14489499 -0.33696917 0.36641428
-0.18202043 -0.33388659 0.36629322
-0.13843612 -0.33388275 0.36627182
-0.1272441 -0.33391288 0.36629188
-0.1226941 -0.33014342 0.36678824
-0.1192533 -0.33075729 0.36605194
-0.11865984 -0.33017069 0.36682984
-0.13044919 -0.32323137 0.366813
-0.12090257 -0.32384983 0.36606941
-0.11112016 -0.32384881 0.36606616
-0.12421434 -0.32003686 0.36630234
-0.12063089 -0.32005715 0.36631435
-0.11555464 -0.32006794 0.36630526
-0.1129613 -0.32004079 0.36631215
-0.100701 -0.32005608 0.36631766
-0.10724664 -0.31622708 0.36645007
-0.10507129 -0.31622508 0.36645013
-0.10291053 -0.31619292 0.36642274
-0.10056619 -0.31621915 0.36645913
-0.097705305 -0.31619859 0.36643219
-0.085465103 -0.31235322 0.36645269
-0.08490932 -0.31235147 0.3664535
-0.080205165 -0.30850118 0.36636385
-0.079882622 -0.30847168 0.36634898
-0.067960128 -0.30848113 0.36638215
-0.06040705 -0.30847865 0.36636311
-0.0480996 -0.30455813 0.36615837
-0.0016785777 -0.28121945 0.36657262
0.002321362 -0.28121471 0.36656991
0.008939622 -0.27648231 0.36623615
0.024838649 -0.26539046 0.36627734
-0.22625379 -0.35679463 0.36793888
-0.22591035 -0.35680264 0.36793402
-0.21487214 -0.35125977 0.36769396
-0.21056551 -0.351264 0.36769614
-0.20732416 -0.35126755 0.36772674
-0.20697835 -0.35126266 0.3677313
-0.1985192 -0.35127246 0.3677187
-0.19744587 -0.35125941 0.36772236
-0.20243376 -0.34873861 0.36709911
-0.20189637 -0.34875017 0.36709893
-0.2004673 -0.34874341 0.36710054
-0.19432934 -0.34873635 0.36709291
-0.19347267 -0.34841418 0.36765262
-0.19250858 -0.34825301 0.3679378
-0.19162536 -0.34824336 0.3679491
-0.17993277 -0.34875497 0.36711401
-0.18834347 -0.34571022 0.36727422
-0.1773749 -0.34568429 0.3672421
-0.17664422 -0.34567767 0.36724412
-0.17338783 -0.34570342 0.36726606
-0.16829033 -0.34265691 0.36733311
-0.16613366 -0.34264281 0.3673479
-0.13891385 -0.33332732 0.3670786
-0.12641916 -0.33278513 0.36788341
-0.1191477 -0.32962283 0.36762413
-0.1523882 -0.32643449 0.36727577
-0.13762173 -0.32643577 0.36727008
-0.13158987 -0.32265189 0.36757818
-0.12720647 -0.32266441 0.36759305
-0.12686862 -0.32267013 0.36759606
-0.12401108 -0.32262075 0.36757374
-0.11965476 -0.32262915 0.36755049
-0.11489256 -0.32266155 0.36760199
-0.11201376 -0.32264102 0.3675772
-0.10627701 -0.32262695 0.36757958
-0.11673192 -0.31940871 0.36702326
-0.1123513 -0.31942475 0.36705327
-0.109791 -0.31943446 0.36705732
-0.10766948 -0.3194426 0.36706948
-0.10548461 -0.31945303 0.36703679
-0.11542276 -0.31883714 0.3678081
-0.11131608 -0.31880757 0.36778173
-0.10916578 -0.31883731 0.36781555
-0.099731945 -0.3156105 0.36719137
-0.080015525 -0.3072415 0.36781174
0.0094874548 -0.28053901 0.36723092
-0.31240699 -0.37213036 0.36872905
-0.23641053 -0.35630322 0.36876941
-0.23584715 -0.35631365 0.36878389
-0.23238847 -0.35630691 0.36877385
-0.2318278 -0.35633242 0.36880037
-0.22949743 -0.35633305 0.36879939
-0.22499053 -0.35633805 0.36879748
-0.22070807 -0.35633367 0.36878991
-0.22645184 -0.35376847 0.36828047
-0.22228892 -0.35380775 0.36830461
-0.22172916 -0.35379457 0.36829427
-0.21831092 -0.35383803 0.36829835
-0.21760571 -0.35381129 0.3682813
-0.2143794 -0.35379702 0.36827558
-0.21364173 -0.3538191 0.36829409
-0.2102211 -0.35379708 0.36827871
-0.20950431 -0.35380262 0.36828208
-0.20965382 -0.35076994 0.36854804
-0.20621558 -0.35077959 0.36857837
-0.20548788 -0.35078233 0.36855516
-0.20428592 -0.35077873 0.36856475
-0.19670556 -0.35078222 0.36857554
-0.17082511 -0.34519255 0.36809483
-0.16243193 -0.34160712 0.36898443
-0.20526105 -0.33589825 0.36803746
-0.19445807 -0.33589995 0.36804396
-0.19387792 -0.33534873 0.36885253
-0.13723055 -0.33588535 0.36803654
-0.13810988 -0.3322047 0.3686595
-0.16368183 -0.32901683 0.36838663
-0.15140231 -0.32900268 0.36834788
-0.15152204 -0.32527614 0.36882603
-0.14737263 -0.32528007 0.36880773
-0.14342195 -0.325257 0.36877936
-0.14270954 -0.32526532 0.368801
-0.13638161 -0.32555258 0.36843202
-0.13569164 -0.3252615 0.3688142
-0.13461263 -0.32527041 0.36880738
-0.12946421 -0.32555819 0.36842191
-0.12654193 -0.32581031 0.36801425
-0.12596986 -0.32522604 0.36878616
-0.10701636 -0.32584339 0.36804581
-0.13044274 -0.3220484 0.36833268
-0.12623553 -0.3220731 0.36835665
-0.12586984 -0.32206362 0.36835572
-0.12302616 -0.32204649 0.36835539
-0.12264573 -0.32204771 0.36835134
-0.10245007 -0.31822386 0.36857623
-0.065686688 -0.31044897 0.36860612
-0.3471725 -0.3742328 0.36973611
-0.32160729 -0.37423435 0.36975625
-0.33931348 -0.37173995 0.36963883
-0.32958394 -0.37176111 0.36965659
-0.32436371 -0.37174043 0.36964047
-0.31234711 -0.36926687 0.36951837
-0.27119848 -0.3638851 0.36994371
-0.26216018 -0.36134252 0.36958691
-0.25030255 -0.35886502 0.3692252
-0.24706075 -0.35882574 0.36921564
-0.24653447 -0.35883647 0.36922348
-0.24563117 -0.35886535 0.36922967
-0.24041344 -0.35885262 0.36924082
-0.23511766 -0.35885468 0.36923328
-0.24218345 -0.35586923 0.36966071
-0.24164531 -0.35584432 0.36963958
-0.23527403 -0.35586649 0.36965674
-0.22858515 -0.35585082 0.36966145
-0.2251936 -0.35588175 0.36966962
-0.22428888 -0.35587117 0.36967596
-0.22125447 -0.35585982 0.36965567
-0.22053547 -0.35587335 0.36965853
-0.21619099 -0.3558667 0.36963859
-0.22083551 -0.35330892 0.36914015
-0.21687913 -0.35330623 0.36912248
-0.21276921 -0.35334462 0.36914706
-0.20459759 -0.35029092 0.36940932
-0.19617093 -0.35030386 0.36942312
-0.22314346 -0.33793518 0.36977619
-0.21161006 -0.3379344 0.36977401
-0.19935977 -0.33793208 0.36978337
-0.17059101 -0.33795586 0.36978814
-0.16229855 -0.33793578 0.36976916
-0.18142582 -0.3316468 0.36946866
-0.16666615 -0.33164385 0.36946234
-0.1612581 -0.3284665 0.36917514
-0.16092968 -0.328477 0.36917365
-0.15911123 -0.32845387 0.36917734
-0.15640861 -0.32845175 0.36916158
-0.15549093 -0.32847294 0.36917058
-0.15476474 -0.3284716 0.36917591
-0.15045436 -0.3284606 0.36915755
-0.14004253 -0.32843757 0.36915943
-0.13932784 -0.32845256 0.36918265
-0.15854286 -0.32788303 0.36996144
-0.15419143 -0.32789844 0.36996287
-0.15385573 -0.32789052 0.36996931
-0.14968054 -0.32790393 0.36994994
-0.14645298 -0.32787597 0.36993682
-0.14593713 -0.32785112 0.36992627
-0.13943174 -0.32787168 0.36995605
-0.11517067 -0.32788053 0.3699497
-0.14193973 -0.32469141 0.36959216
-0.13363291 -0.32468736 0.3695727
-0.11843565 -0.32142338 0.36906749
-0.37188384 -0.37633514 0.37071127
-0.36176288 -0.37631065 0.37067413
-0.35781005 -0.3762967 0.37068146
-0.34521669 -0.37631243 0.37071329
-0.3379969 -0.37631464 0.37066913
-0.35607275 -0.37384817 0.37065223
-0.3459594 -0.37386498 0.37064669
-0.34095079 -0.37383607 0.3706454
-0.28146818 -0.36343649 0.37081936
-0.2782355 -0.36345661 0.37083176
-0.27536559 -0.36346132 0.37081635
-0.27498943 -0.36345822 0.37081766
-0.27323449 -0.36345178 0.37083495
-0.27284652 -0.36345112 0.37082425
-0.27069059 -0.36345634 0.37084225
-0.26830989 -0.36343694 0.3708185
-0.26744464 -0.36344197 0.37083665
-0.26530811 -0.36346969 0.37085432
-0.26456177 -0.36344507 0.37082067
-0.26132163 -0.36347058 0.37083772
-0.26078367 -0.36346197 0.37083596
-0.25772184 -0.36346227 0.37083817
-0.26854154 -0.36093336 0.37051842
-0.26562056 -0.36093152 0.37050638
-0.26168245 -0.36091584 0.37049171
-0.25860745 -0.36092252 0.37048751
-0.25767767 -0.36092052 0.37048703
-0.25537103 -0.36093003 0.3704952
-0.25303182 -0.36093131 0.3704997
-0.25248769 -0.36094886 0.37049991
-0.25018236 -0.36093026 0.37049726
-0.24942739 -0.36093676 0.37048888
-0.24242595 -0.36093628 0.3705126
-0.24472554 -0.35842663 0.37010419
-0.23954326 -0.35839885 0.37010354
-0.23878594 -0.3583965 0.37007576
-0.23458506 -0.35839239 0.37010583
-0.23152325 -0.35840872 0.3701297
-0.25571787 -0.35796314 0.37098593
-0.25284263 -0.3579565 0.37097228
-0.24960461 -0.35795736 0.37098059
-0.24422038 -0.35797969 0.37099308
-0.2351207 -0.35797268 0.37099227
-0.22099271 -0.35283703 0.37001014
-0.2091601 -0.35285982 0.37000868
-0.23124126 -0.34054846 0.3706499
-0.23090416 -0.34054896 0.37065619
-0.22648063 -0.34055179 0.37063581
-0.22005171 -0.33741471 0.37061438
-0.20347875 -0.33740678 0.37057602
-0.19876459 -0.33740452 0.37059057
-0.18657969 -0.3342441 0.37045556
-0.18030393 -0.3310757 0.37026152
-0.17002738 -0.33107367 0.37025756
-0.16968335 -0.33106267 0.3702434
-0.16860244 -0.331054 0.37024492
-0.16608967 -0.33108181 0.37025625
-0.16571087 -0.33107987 0.37026146
-0.16354206 -0.33107224 0.37025207
-0.16621491 -0.32730675 0.37074918
-0.10528789 -0.3125343 0.37088194
-0.39139286 -0.38087955 0.37154344
-0.39579213 -0.37844557 0.37162718
-0.39220783 -0.37845242 0.37162498
-0.387133 -0.37845913 0.37160859
-0.38661402 -0.37844133 0.37160209
-0.3806811 -0.37844658 0.3716239
-0.3673588 -0.37845045 0.37159598
-0.35801134 -0.37844419 0.37162939
-0.37892473 -0.375985 0.37164691
-0.36775944 -0.37596613 0.37164322
-0.33871049 -0.37098545 0.37148613
-0.2807408 -0.36600202 0.37111789
-0.29659635 -0.3659808 0.37112075
-0.29263511 -0.36599451 0.37112048
-0.29190648 -0.36597654 0.37109989
-0.28975812 -0.36597651 0.37110257
-0.28741261 -0.36595368 0.37107781
-0.28660727 -0.36576098 0.3715308
-0.28435162 -0.36599004 0.37112519
-0.28357056 -0.36584759 0.37140787
-0.28111976 -0.36598971 0.37111187
-0.28022593 -0.36599234 0.37112159
-0.27769136 -0.36596707 0.37110639
-0.27016893 -0.36555949 0.3719995
-0.27774575 -0.3630234 0.37171501
-0.27017617 -0.363031 0.37174067
-0.2676608 -0.36301696 0.37173253
-0.257898 -0.36047107 0.371364
-0.22759077 -0.3579472 0.37100685
-0.30138865 -0.3493242 0.37115592
-0.24362513 -0.34001818 0.37145934
-0.23139034 -0.34002635 0.37147382
-0.23031729 -0.34002504 0.37147734
-0.22961783 -0.34001982 0.37147039
-0.22483927 -0.34002668 0.37146896
-0.21006927 -0.34001574 0.37144989
-0.20003095 -0.33369541 0.37125784
-0.19445896 -0.33369827 0.37126747
-0.19392291 -0.33370939 0.37126741
-0.19267902 -0.33370644 0.37127316
-0.19175963 -0.33370361 0.37126198
-0.1863642 -0.33370116 0.37126017
-0.18543524 -0.33371103 0.37126029
-0.18454783 -0.3337101 0.37126362
-0.18384489 -0.33369985 0.37127283
-0.17195779 -0.33371413 0.37128118
-0.16911462 -0.33049324 0.37102896
-0.16873366 -0.33048883 0.37103203
-0.16511284 -0.33051372 0.3710576
-0.16293447 -0.33051807 0.37105152
-0.16079962 -0.33051911 0.37105006
-0.15828322 -0.33050966 0.37104282
-0.18109657 -0.3299599 0.37185377
-0.15768462 -0.32674739 0.37154299
-0.38516322 -0.38059592 0.37248695
-0.38598499 -0.37809154 0.37254918
-0.37488097 -0.37563089 0.37256113
-0.34720242 -0.37312683 0.37250769
-0.33319673 -0.37061137 0.37240845
-0.32958603 -0.37061229 0.37239972
-0.32561681 -0.37062168 0.3724145
-0.32490373 -0.37060639 0.37241849
-0.31841925 -0.37059581 0.37240663
-0.31755191 -0.37060297 0.37240642
-0.31699359 -0.37061641 0.37240687
-0.31573355 -0.37059402 0.37239265
-0.31133345 -0.37059221 0.37237215
-0.31080875 -0.37058404 0.37237036
-0.30522561 -0.3706111 0.37240303
-0.30454016 -0.37059683 0.37239975
-0.32169968 -0.36809671 0.37222758
-0.32095829 -0.36810082 0.37222436
-0.31340349 -0.36807036 0.37221074
-0.30833292 -0.36808547 0.37222078
-0.30760872 -0.36810032 0.37224576
-0.30689102 -0.36811107 0.37224081
-0.30224773 -0.36809114 0.37223729
-0.30148935 -0.36809334 0.37222901
-0.30040351 -0.36808947 0.37222615
-0.29949555 -0.36808193 0.37222946
-0.29878649 -0.36810112 0.37224311
-0.29520053 -0.36809385 0.37223715
-0.29447111 -0.36810702 0.37223893
-0.29175061 -0.36808118 0.37221682
-0.28925344 -0.36808294 0.37221929
-0.28602159 -0.36809537 0.37223983
-0.29608333 -0.36557132 0.37201145
-0.2952399 -0.36513981 0.37288928
-0.29211926 -0.36557928 0.37202206
-0.28923681 -0.36557886 0.37201494
-0.2751931 -0.36557177 0.37201864
-0.27266619 -0.36558384 0.37201226
-0.28080407 -0.36260045 0.37261409
-0.27722731 -0.36259452 0.37260464
-0.26139769 -0.36263099 0.37262768
-0.26496619 -0.36007461 0.37228534
-0.26101193 -0.36005214 0.37227833
-0.26064038 -0.3600677 0.37227896
-0.33689258 -0.3514021 0.37257522
-0.31389537 -0.35143229 0.3726078
-0.30415514 -0.35141197 0.37257758
-0.27512199 -0.34525326 0.3729977
-0.26100576 -0.34263435 0.37226707
-0.25165752 -0.34261996 0.37226591
-0.24912119 -0.34263995 0.37227592
-0.24049407 -0.34263244 0.372264
-0.23747322 -0.33949718 0.37227502
-0.21414821 -0.33948877 0.37229705
-0.20698847 -0.33632252 0.37219545
-0.19778877 -0.33633229 0.37220407
-0.1832757 -0.33315223 0.3720831
-0.17227453 -0.33317244 0.37208706
-0.19057103 -0.33262521 0.37286821
-0.44902101 -0.38735306 0.37393019
-0.44494674 -0.38518593 0.3731631
-0.43534535 -0.38514706 0.37317017
-0.44660822 -0.38272157 0.37335873
-0.44565302 -0.38273868 0.37334245
-0.43849713 -0.38273793 0.3733598
-0.43793434 -0.38273486 0.37334695
-0.42928603 -0.38273188 0.37333018
-0.42857704 -0.38275608 0.37336552
-0.42769778 -0.38273245 0.37333375
-0.42643616 -0.382696 0.37330529
-0.41748804 -0.3802284 0.37342796
-0.41317537 -0.38025275 0.37344766
-0.40635458 -0.3802292 0.37340906
-0.40489689 -0.38024291 0.37344289
-0.391298 -0.37776619 0.37349114
-0.36863199 -0.37528551 0.37348559
-0.35856271 -0.37524509 0.37348846
-0.35603935 -0.37528333 0.37349889
-0.35352844 -0.37524602 0.37349284
-0.35045335 -0.37522018 0.37346897
-0.3499175 -0.37524301 0.37346789
-0.34436226 -0.37525934 0.37350976
-0.35355216 -0.37275374 0.37343043
-0.35104346 -0.37276399 0.37343529
-0.34763533 -0.3727594 0.37343693
-0.34201947 -0.37276974 0.37344307
-0.34151143 -0.37275243 0.37342489
-0.34095496 -0.37273806 0.37341461
-0.33844075 -0.37275076 0.37345031
-0.33773461 -0.37275493 0.37345609
-0.33556545 -0.37275484 0.37342083
-0.33486465 -0.37274566 0.37344176
-0.3324858 -0.37271482 0.37340331
-0.33160594 -0.37274382 0.37343347
-0.32907236 -0.37272057 0.37341544
-0.32835117 -0.37272748 0.3734237
-0.32762846 -0.37274957 0.37344411
-0.32060564 -0.37274659 0.37343836
-0.33561015 -0.3702071 0.37328953
-0.33253935 -0.37021941 0.37332445
-0.32856369 -0.3702518 0.37332883
-0.32444906 -0.37021995 0.37332463
-0.31634301 -0.37025008 0.37333715
