# .PCD v0.7 - Point Cloud Data file format
VERSION 0.7
FIELDS x y z
SIZE 4 4 4
TYPE F F F
COUNT 1 1 1
WIDTH 1340
HEIGHT 1
VIEWPOINT 0 0 0 1 0 0 0
POINTS 1340
DATA ascii
-0.23144194 -0.63618696 0.027128609
-0.18129343 -0.63611805 0.02702379
-0.17660874 -0.63617456 0.027084233
-0.17406765 -0.63612229 0.027050812
-0.14565705 -0.63618761 0.027112039
-0.23398213 -0.63546878 0.02773778
-0.23145412 -0.6354937 0.027761286
-0.18239856 -0.63544631 0.027705809
-0.17163885 -0.63548625 0.02775678
-0.14671932 -0.63549268 0.027757825
-0.21886149 -0.6291914 0.027274275
-0.21778415 -0.62912506 0.027182862
-0.15218167 -0.62919021 0.02725902
-0.1504401 -0.62918311 0.027257832
-0.1530453 -0.62228596 0.027661024
-0.15129136 -0.62227631 0.027642371
-0.19500215 -0.61603498 0.027497608
-0.19354209 -0.61604112 0.027497314
-0.19214933 -0.61605173 0.027509253
-0.15755539 -0.61606157 0.027512131
-0.18072756 -0.60986614 0.027565459
-0.16327956 -0.60433257 0.02704218
-0.17270851 -0.60371989 0.027787358
-0.17095831 -0.60374844 0.027821582
-0.16982646 -0.60378224 0.0278599
-0.16866839 -0.60380358 0.02787192
-0.16548291 -0.60376728 0.027854178
-0.10570934 -0.7210561 0.028760079
-0.10218657 -0.72104287 0.028764337
-0.10749906 -0.71136487 0.028024741
-0.10611213 -0.71136701 0.028045818
-0.14425929 -0.69140089 0.028115179
-0.14163844 -0.68187547 0.028377505
-0.12205563 -0.68193561 0.028419053
-0.12002543 -0.6819033 0.028391695
-0.28770834 -0.66528165 0.028002251
-0.28448862 -0.6652956 0.02804805
-0.28561881 -0.66457921 0.028654182
-0.27328202 -0.65673172 0.028594157
-0.26932535 -0.65672791 0.028560087
-0.13717651 -0.65670604 0.028530806
-0.13581569 -0.65670812 0.028556546
-0.22520263 -0.64962834 0.028083393
-0.14054525 -0.64960057 0.028083356
-0.13718887 -0.64956999 0.028040431
-0.2606332 -0.64883685 0.02865446
-0.25950539 -0.6489107 0.028714957
-0.1415841 -0.64891958 0.028720098
-0.24160907 -0.6418196 0.028444825
-0.14227811 -0.64182192 0.028434094
-0.22859661 -0.63481718 0.028397636
-0.18537225 -0.63485277 0.028461879
-0.18319464 -0.63483983 0.028458212
-0.14787284 -0.63482261 0.028438594
-0.21472768 -0.62784231 0.028610133
-0.15302278 -0.6278621 0.028618263
-0.1512277 -0.62785894 0.028615385
-0.20469539 -0.62161994 0.028341062
-0.20365508 -0.62161607 0.028338784
-0.15635097 -0.62159872 0.028305409
-0.15747786 -0.62094414 0.028995428
-0.15867531 -0.61541605 0.028229838
-0.19013172 -0.61475044 0.028932577
-0.18861789 -0.61478055 0.028933205
-0.18261386 -0.60923326 0.028290685
-0.18153363 -0.60923839 0.02829895
-0.1637837 -0.60308385 0.028505763
-0.099850081 -0.73073518 0.029759485
-0.10927258 -0.70911026 0.029689712
-0.10818438 -0.70986032 0.029115506
-0.10603102 -0.70909888 0.029649116
-0.11433379 -0.69950962 0.029335482
-0.11109865 -0.69952583 0.029358037
-0.11220045 -0.6987555 0.029895462
-0.11942034 -0.68922299 0.029892286
-0.11831167 -0.68998063 0.029321343
-0.11692503 -0.68998283 0.029342756
-0.14196399 -0.68047249 0.029605163
-0.1232345 -0.68047529 0.029594215
-0.13061729 -0.67178059 0.029583825
-0.12737015 -0.6717909 0.029605987
-0.13301687 -0.66386801 0.029257504
-0.13193531 -0.66385245 0.029251374
-0.12939993 -0.66381675 0.029187448
-0.22687303 -0.65527689 0.029776825
-0.13480827 -0.65529853 0.029811084
-0.26065105 -0.64813226 0.029290808
-0.14231867 -0.64821213 0.02934131
-0.14092763 -0.64821851 0.029359251
-0.13954391 -0.64820886 0.029358784
-0.22284958 -0.64751017 0.029982125
-0.16013888 -0.64746886 0.029934267
-0.14349459 -0.64113063 0.029086489
-0.24199612 -0.64045894 0.02974269
-0.14713083 -0.64049345 0.029797796
-0.14570132 -0.64045179 0.02976987
-0.22791171 -0.63409364 0.029040696
-0.17208058 -0.63409591 0.029031055
-0.19126995 -0.63349259 0.0298016
-0.18037501 -0.63340932 0.029684918
-0.21760087 -0.62717104 0.029294392
-0.1545084 -0.62719721 0.02930448
-0.21518624 -0.62647796 0.029917659
-0.21369 -0.62652206 0.029968489
-0.15027638 -0.62652808 0.029982766
-0.20186646 -0.62095624 0.029019384
-0.15865751 -0.62031299 0.029709106
-0.19227356 -0.61409569 0.02960911
-0.18089581 -0.60861057 0.029020742
-0.17871173 -0.60861725 0.029015562
-0.17767632 -0.60864383 0.029056367
-0.16601935 -0.60254729 0.029333729
-0.10570015 -0.71876353 0.030343937
-0.10320927 -0.71875852 0.030345034
-0.1021028 -0.71876019 0.030346828
-0.10670018 -0.70760411 0.030750729
-0.1150421 -0.69801682 0.030448766
-0.11325809 -0.69800794 0.030453745
-0.12090629 -0.68845302 0.030428011
-0.14355852 -0.68768036 0.030947182
-0.12501469 -0.67974371 0.030193258
-0.12219072 -0.67900884 0.030758254
-0.29945481 -0.67106038 0.030193994
-0.12878543 -0.67107707 0.030203152
-0.12806812 -0.67035264 0.030810731
-0.28602645 -0.66242862 0.030482372
-0.25606573 -0.64683014 0.030659104
-0.25502264 -0.64675903 0.030573782
-0.25351441 -0.64678895 0.030614316
-0.16122061 -0.64681834 0.030637626
-0.15838955 -0.64678258 0.030591067
-0.23701696 -0.63904136 0.03099739
-0.14396998 -0.63973713 0.030375022
-0.22620395 -0.63272709 0.030385321
-0.19203222 -0.63279629 0.030435067
-0.18983042 -0.6327793 0.030400252
-0.18658182 -0.63279861 0.03044137
-0.18547626 -0.63282025 0.030470535
-0.14648004 -0.63278741 0.030419789
-0.21303609 -0.6258741 0.030675065
-0.21191791 -0.62586844 0.030667067
-0.21084931 -0.62586063 0.03064972
-0.1997626 -0.61965489 0.030406244
-0.15999007 -0.61277348 0.030985354
-0.17603324 -0.60732782 0.030429717
-0.098008461 -0.72765678 0.031818006
-0.097656086 -0.72766751 0.031828824
-0.10710759 -0.71725738 0.031423159
-0.10534727 -0.71646267 0.031922061
-0.10313616 -0.71647823 0.031925783
-0.11103015 -0.70686334 0.031339951
-0.1096452 -0.70684707 0.031332422
-0.1088952 -0.70609146 0.031874042
-0.11540939 -0.69652116 0.031571876
-0.11396391 -0.6965248 0.031568274
-0.12021662 -0.68771797 0.031006115
-0.12606563 -0.67827278 0.031334031
-0.1240095 -0.67827839 0.031360436
-0.12754697 -0.67753011 0.031900909
-0.12325295 -0.67755258 0.031940848
-0.29726782 -0.66955942 0.031335648
-0.12920006 -0.66962594 0.031394031
-0.12735341 -0.66963226 0.031405918
-0.29547477 -0.66889888 0.031987391
-0.12849304 -0.6688965 0.031994786
-0.28243065 -0.66174585 0.031126071
-0.13568372 -0.66100562 0.031685531
-0.13452901 -0.66173893 0.031099916
-0.13273688 -0.66102356 0.031710837
-0.28043449 -0.66097581 0.031679429
-0.27232733 -0.65391588 0.031084558
-0.26907185 -0.65386438 0.031039631
-0.26651332 -0.65358055 0.031410437
-0.23413542 -0.65321231 0.031714458
-0.22550143 -0.65314889 0.031649746
-0.13814373 -0.65314615 0.031649496
-0.13658622 -0.65316743 0.03164031
-0.13553338 -0.65387964 0.031041481
-0.25169909 -0.64613599 0.031289075
-0.2503401 -0.64612621 0.031295512
-0.25247824 -0.64540929 0.031895023
-0.14069349 -0.64542758 0.031914268
-0.23991659 -0.63907862 0.031062292
-0.23847403 -0.63909298 0.031091588
-0.19807513 -0.63908595 0.031073108
-0.17969958 -0.63908875 0.031081114
-0.17214823 -0.63909566 0.031079765
-0.16926394 -0.6391018 0.031071585
-0.2363596 -0.63834429 0.031661775
-0.23522632 -0.63837796 0.031707801
-0.20320877 -0.63839149 0.031717744
-0.2017291 -0.63841796 0.031736393
-0.18405466 -0.63835782 0.031664487
-0.18195824 -0.63837701 0.031684708
-0.18065809 -0.63839209 0.031699307
-0.17792436 -0.63839608 0.03170488
-0.17668271 -0.63839334 0.031703562
-0.17257719 -0.63841999 0.031750582
-0.17058067 -0.63841116 0.031721316
-0.14582144 -0.6384393 0.031766061
-0.14439444 -0.63837767 0.03170583
-0.18380043 -0.63213885 0.031116998
-0.22417499 -0.63141447 0.031735875
-0.22165881 -0.63146091 0.031792004
-0.19279185 -0.63141543 0.031736333
-0.15532374 -0.63143665 0.031761948
-0.14741541 -0.6314345 0.031768776
-0.21127649 -0.62518406 0.031325225
-0.20807523 -0.62512022 0.031264223
-0.18962039 -0.62516701 0.031310365
-0.20866591 -0.62445188 0.03194239
-0.20303875 -0.62452126 0.031996403
-0.19830598 -0.62450308 0.031989709
-0.15656173 -0.62449098 0.03197749
-0.2005564 -0.61898261 0.031086128
-0.19917223 -0.61897993 0.031098429
-0.1974293 -0.61830592 0.031765874
-0.19634369 -0.61829197 0.031750336
-0.19417696 -0.61831212 0.031765927
-0.15444244 -0.61896145 0.031064522
-0.18741135 -0.61283433 0.031050662
-0.18565783 -0.61212558 0.031700972
-0.18132082 -0.61217493 0.031733122
-0.16153491 -0.61215335 0.031719483
-0.15860662 -0.61284447 0.031063098
-0.17649595 -0.60672867 0.031206163
-0.1616679 -0.60670108 0.031177888
-0.098807782 -0.72609884 0.032804929
-0.10387929 -0.71570802 0.032451171
-0.10566619 -0.71495748 0.03299173
-0.10996022 -0.70535177 0.03241827
-0.11142761 -0.70459187 0.032974288
-0.11642854 -0.69578999 0.032155644
-0.11466394 -0.69577473 0.0321205
-0.12318756 -0.68622583 0.032140717
-0.12125825 -0.68624389 0.032139584
-0.11878739 -0.68549705 0.032728288
-0.12689012 -0.6767866 0.03248043
-0.12500364 -0.67680007 0.032508716
-0.12465261 -0.67680573 0.03251886
-0.29442403 -0.66890186 0.032011237
-0.29370016 -0.66853917 0.032306761
-0.29266423 -0.66817492 0.032611247
-0.29193971 -0.66816145 0.0325865
-0.27863178 -0.66028869 0.032315806
-0.27774858 -0.66029435 0.032329608
-0.13677399 -0.66029328 0.032313995
-0.26700372 -0.65951908 0.032880861
-0.26340938 -0.65960169 0.032967359
-0.25726834 -0.65956485 0.032934926
-0.13315116 -0.65960246 0.032945648
-0.25868082 -0.65245676 0.032294631
-0.16137075 -0.65245998 0.03228939
-0.13593473 -0.65246636 0.032275587
-0.26228657 -0.65173763 0.032902699
-0.25033054 -0.65176684 0.032926291
-0.15696558 -0.6517781 0.032933045
-0.14937426 -0.65175432 0.03290084
-0.24933508 -0.64471591 0.032547507
-0.14165056 -0.64472312 0.032547295
-0.23206206 -0.63773185 0.032392006
-0.2169469 -0.6376788 0.032345083
-0.1690546 -0.63773024 0.032404102
-0.16500708 -0.63769299 0.03234943
-0.15674765 -0.6377182 0.032385994
-0.22918989 -0.63698655 0.032990728
-0.22239041 -0.63695657 0.032953072
-0.22247797 -0.63077444 0.032436639
-0.21513677 -0.63078731 0.032442439
-0.196476 -0.63070738 0.032382503
-0.14849359 -0.63076341 0.032430526
-0.20448615 -0.62452435 0.032007001
-0.15266687 -0.62451869 0.032017995
-0.20601842 -0.62385839 0.032695327
-0.19661899 -0.62384725 0.032685269
-0.18792152 -0.62385768 0.032680426
-0.15401535 -0.62387431 0.032716062
-0.18918775 -0.61761791 0.032432981
-0.17835803 -0.61767638 0.032488786
-0.15717766 -0.61764395 0.032462277
-0.15564431 -0.61764854 0.032444965
-0.18398768 -0.61150014 0.032437205
-0.18248574 -0.61151898 0.032435242
-0.18176758 -0.6115042 0.032423433
-0.17311262 -0.61154997 0.032475952
-0.17101024 -0.6115582 0.032493223
-0.1651545 -0.61152399 0.032430094
-0.16270259 -0.61151421 0.032422956
-0.16195843 -0.61150873 0.032418683
-0.16048159 -0.61147869 0.032396577
-0.17299977 -0.60540682 0.032580461
-0.16829211 -0.60546201 0.032635689
-0.16402495 -0.60539198 0.032556631
-0.16257636 -0.60540527 0.032567289
-0.10705595 -0.73661762 0.033621524
-0.10559874 -0.73661709 0.033598978
-0.106477 -0.72538894 0.033401817
-0.10931871 -0.72462571 0.033914696
-0.10820733 -0.72462916 0.033913247
-0.10507928 -0.7246139 0.033916969
-0.10392946 -0.72462469 0.03391606
-0.10180882 -0.72459882 0.033899069
-0.10003321 -0.72456342 0.033842642
-0.099680185 -0.72456145 0.033833396
-0.10704909 -0.71497023 0.033001892
-0.12147368 -0.6942926 0.03325304
-0.11901966 -0.69428891 0.033272024
-0.11679161 -0.6942926 0.033265609
-0.14328696 -0.68471515 0.033243883
-0.13498197 -0.68479091 0.033326361
-0.12450964 -0.68478531 0.033301361
-0.12341849 -0.68404478 0.033874523
-0.12132394 -0.68400627 0.033836067
-0.12019223 -0.68475747 0.033269811
-0.13044229 -0.67609221 0.033120904
-0.29190066 -0.66746432 0.033207159
-0.28330335 -0.66740507 0.033157237
-0.27971703 -0.66746199 0.03323013
-0.29012087 -0.66671091 0.033777446
-0.28978935 -0.6667065 0.03376339
-0.28437561 -0.66669172 0.033756934
-0.27721605 -0.66667384 0.033749118
-0.14156304 -0.66671669 0.033792574
-0.13906914 -0.66671473 0.0337613
-0.13644919 -0.66674095 0.033794489
-0.27392316 -0.65881056 0.033489604
-0.26449186 -0.6588788 0.033563621
-0.13425729 -0.65886813 0.033530984
-0.263349 -0.65102017 0.033510502
-0.26083347 -0.65109175 0.03357143
-0.25934076 -0.65111464 0.033596553
-0.24828105 -0.65106577 0.033539776
-0.24683754 -0.65105969 0.033553716
-0.24504602 -0.65106833 0.033567566
-0.24360138 -0.65101147 0.033498526
-0.14327091 -0.65108895 0.033575438
-0.1400252 -0.65106308 0.033556692
-0.13823192 -0.65103424 0.033532452
-0.24748969 -0.64400512 0.033172019
-0.24176487 -0.64401668 0.033187959
-0.15301117 -0.64402509 0.033178564
-0.14262971 -0.64400965 0.033172503
-0.24717574 -0.64398295 0.033174325
-0.24553415 -0.64332211 0.033810433
-0.24434951 -0.64332592 0.033822075
-0.24364914 -0.64332432 0.03381728
-0.2346011 -0.64335477 0.033846185
-0.23236494 -0.6439929 0.033154845
-0.22922929 -0.64334911 0.033860452
-0.22660989 -0.64329308 0.033791419
-0.22020715 -0.64397418 0.033137541
-0.21733576 -0.643336 0.033842947
-0.14550982 -0.64330578 0.033789147
-0.14441663 -0.64330804 0.033794101
-0.23336107 -0.63700783 0.033011328
-0.22634797 -0.63706678 0.033057809
-0.22490008 -0.6370542 0.03306276
-0.21803953 -0.63702279 0.033023089
-0.14991723 -0.63702703 0.033037852
-0.14634559 -0.6370461 0.033060491
-0.23175018 -0.63635856 0.033697654
-0.23030862 -0.63637161 0.033688564
-0.20834726 -0.63631815 0.0336674
-0.18172607 -0.63627708 0.033612818
-0.17442772 -0.63629705 0.033632543
-0.15941964 -0.63633621 0.033690251
-0.14721933 -0.63635594 0.033690535
-0.2191557 -0.63004237 0.033058554
-0.20693538 -0.63007981 0.033086047
-0.20555252 -0.63007629 0.033098742
-0.19360933 -0.63006669 0.033088464
-0.19107421 -0.63008213 0.033087377
-0.15118404 -0.63004357 0.0330621
-0.14965609 -0.63003498 0.033040736
-0.21821319 -0.62933105 0.03368194
-0.21492028 -0.62943316 0.033770371
-0.21346219 -0.62941271 0.033766992
-0.20956908 -0.62940818 0.033774171
-0.20817094 -0.62940609 0.033766855
-0.20379648 -0.62938225 0.033739753
-0.19916955 -0.62937969 0.03374977
-0.15617961 -0.62940681 0.033767685
-0.1504219 -0.62936354 0.033707436
-0.20466822 -0.6231907 0.033377603
-0.18118793 -0.62319827 0.033392135
-0.16210262 -0.62319034 0.033363611
-0.15954073 -0.62317783 0.033369217
-0.15736528 -0.62315309 0.033329464
-0.1567259 -0.6231584 0.033343162
-0.1552275 -0.62317622 0.033357158
-0.16644359 -0.62247378 0.033994786
-0.19529144 -0.61700302 0.033153579
-0.19063969 -0.61701691 0.033171691
-0.18243536 -0.61703539 0.033206165
-0.17695574 -0.61703938 0.033209033
-0.17373663 -0.61702776 0.033196073
-0.16652676 -0.61700821 0.03315603
-0.15824607 -0.61701411 0.033171955
-0.19240707 -0.6163401 0.03385888
-0.18893209 -0.61631876 0.033837229
-0.18603645 -0.61633879 0.03385485
-0.18459609 -0.61633223 0.033835754
-0.18130977 -0.61699873 0.033139966
-0.17233182 -0.61629885 0.03380385
-0.17124379 -0.61629415 0.03378449
-0.16878632 -0.61632907 0.033825167
-0.16368859 -0.61629742 0.033814013
-0.16263868 -0.61630267 0.033795904
-0.15922044 -0.61636972 0.033861894
-0.18113235 -0.61086971 0.033148561
-0.17979601 -0.61023796 0.033862889
-0.17864165 -0.61090291 0.03317342
-0.17651989 -0.61083657 0.033129822
-0.17544134 -0.61085463 0.033134013
-0.17401701 -0.61024117 0.033876598
-0.16748485 -0.6108132 0.033082087
-0.16612013 -0.61020374 0.033819843
-0.16452348 -0.61087865 0.033152763
-0.16310789 -0.61087543 0.033139654
-0.16243364 -0.61022532 0.033837412
-0.16130552 -0.61087614 0.033138737
-0.170518 -0.60481417 0.033351406
-0.16583793 -0.60473752 0.033262949
-0.16475002 -0.60473269 0.033243764
-0.11039102 -0.72347701 0.034698822
-0.1035361 -0.72308517 0.034944877
-0.10266764 -0.7238636 0.034448408
-0.10107782 -0.72381264 0.034402274
-0.10708205 -0.71343756 0.034056097
-0.10705931 -0.71266663 0.034572393
-0.10559618 -0.71267945 0.034581479
-0.11216526 -0.70309657 0.034065418
-0.11175937 -0.70309961 0.034069493
-0.11535156 -0.70231432 0.034570411
-0.14491014 -0.69200468 0.034866944
-0.11928535 -0.69206321 0.034937829
-0.11825752 -0.69205076 0.034940999
-0.11737466 -0.69279611 0.034380481
-0.14180449 -0.68324631 0.034373853
-0.12605171 -0.68330294 0.034452353
-0.12275437 -0.68329597 0.034441169
-0.14057223 -0.67463332 0.034278072
-0.13266008 -0.6746195 0.034268752
-0.12752466 -0.6746397 0.034284089
-0.1255112 -0.67459124 0.034246761
-0.12830175 -0.67390239 0.034876741
-0.12688546 -0.67388844 0.034849219
-0.13498552 -0.66600913 0.03438025
-0.28767395 -0.66527462 0.034986667
-0.28403032 -0.66527319 0.034982201
-0.2811448 -0.66527617 0.034984358
-0.27583772 -0.66598392 0.03438491
-0.14808133 -0.66597885 0.034373865
-0.14226282 -0.66526306 0.034967244
-0.13980889 -0.66527081 0.034975156
-0.13398579 -0.66599041 0.034397144
-0.13253921 -0.66593575 0.034312509
-0.13069563 -0.66595662 0.03432785
-0.12972018 -0.66596168 0.0343436
-0.27426204 -0.65816492 0.034185417
-0.27208117 -0.65812516 0.034146477
-0.27101463 -0.65817046 0.034170564
-0.26990685 -0.65818143 0.034194868
-0.26884875 -0.65815669 0.034177747
-0.25835904 -0.65816998 0.034177274
-0.14150161 -0.65812153 0.034133196
-0.13756838 -0.6581313 0.034152925
-0.13538487 -0.65814954 0.03413783
-0.2724821 -0.65738231 0.034719378
-0.26739177 -0.65738791 0.034738272
-0.25963125 -0.65037692 0.034205653
-0.25329721 -0.65038526 0.034216922
-0.25153902 -0.65034044 0.034172159
-0.23928891 -0.65038139 0.034203216
-0.23026228 -0.65029484 0.034110647
-0.22348098 -0.65029919 0.034119483
-0.1574617 -0.65036398 0.034196485
-0.15024278 -0.65032482 0.034145277
-0.14191277 -0.65037405 0.034208231
-0.1393522 -0.65034473 0.034179211
-0.25771719 -0.64966279 0.034824319
-0.25626215 -0.64959168 0.034763914
-0.24978158 -0.64961791 0.034790028
-0.23784111 -0.6496895 0.034819428
-0.2364026 -0.64961821 0.034774624
-0.15896259 -0.64966005 0.034828454
-0.1520783 -0.64967555 0.034844149
-0.14879642 -0.64964002 0.034790229
-0.14622658 -0.64964104 0.034792602
-0.14518505 -0.64965349 0.034827486
-0.14401276 -0.64966625 0.034810483
-0.14046894 -0.64967293 0.034841802
-0.24152291 -0.64262182 0.034464084
-0.23861831 -0.64260274 0.034440771
-0.23718815 -0.64260608 0.034447562
-0.23466754 -0.64264721 0.034471311
-0.23208627 -0.64257157 0.034423523
-0.22773984 -0.64265978 0.034488309
-0.22385108 -0.64260912 0.03444048
-0.22090429 -0.64264393 0.034474373
-0.21842386 -0.64256489 0.034395751
-0.2159759 -0.6426329 0.034479458
-0.15392227 -0.64263296 0.034475248
-0.15135381 -0.64262706 0.034461591
-0.14443116 -0.6426124 0.03443139
-0.14296018 -0.64262217 0.034440126
-0.23037387 -0.63567913 0.034356818
-0.22748137 -0.63563275 0.034312658
-0.21240994 -0.63565391 0.034358222
-0.20473717 -0.63563591 0.034314904
-0.1976198 -0.63562876 0.034327682
-0.1950524 -0.63564771 0.034334451
-0.18530548 -0.63568664 0.034373775
-0.18388572 -0.63565129 0.03435247
-0.15324445 -0.63561559 0.034276422
-0.15074752 -0.63564187 0.034335885
-0.14812231 -0.63565558 0.034333929
-0.22860828 -0.63490921 0.03494627
-0.22176154 -0.63489735 0.034913871
-0.21888778 -0.63496441 0.034984279
-0.21604918 -0.63494337 0.034964778
-0.21354091 -0.63492095 0.034954667
-0.20948933 -0.63497639 0.034987655
-0.20661163 -0.63494891 0.034971926
-0.20481132 -0.63495195 0.034967974
-0.20342055 -0.63496119 0.034980766
-0.201989 -0.6349532 0.034996387
-0.19045372 -0.63492054 0.03494636
-0.18940122 -0.63493276 0.034969356
-0.15581502 -0.63496578 0.034989219
-0.154419 -0.63495368 0.034989137
-0.1493116 -0.63496423 0.034999073
-0.21643591 -0.62868732 0.034384459
-0.21067096 -0.62865555 0.034354821
-0.2067267 -0.62872487 0.034426548
-0.20521948 -0.6287393 0.034430534
-0.20194149 -0.62871873 0.034410227
-0.19728963 -0.62873262 0.034429234
-0.19588161 -0.62869143 0.034402344
-0.19450736 -0.62868333 0.034401506
-0.16199578 -0.62870651 0.034393724
-0.16055538 -0.62869161 0.034384668
-0.1576574 -0.62874061 0.034453943
-0.15299821 -0.62871665 0.034407847
-0.15151653 -0.62873161 0.034435548
-0.20392586 -0.62253141 0.034058131
-0.20246202 -0.62252724 0.03404595
-0.20109759 -0.62250757 0.034055512
-0.19958201 -0.62250102 0.034031019
-0.196392 -0.62251288 0.034039233
-0.19458728 -0.62250841 0.034041926
-0.19165041 -0.62247199 0.034006182
-0.18634085 -0.6225279 0.034070116
-0.18414243 -0.6224817 0.034001507
-0.18309395 -0.62247843 0.034027979
-0.16787992 -0.622518 0.034036294
-0.1552843 -0.62249547 0.034024753
-0.20005625 -0.62182009 0.034711026
-0.19280516 -0.62186599 0.034739465
-0.18171208 -0.62182778 0.034711018
-0.17844021 -0.62187785 0.034749899
-0.16645852 -0.62180603 0.03467688
-0.16290404 -0.62185705 0.034735192
-0.16044551 -0.62186694 0.034752801
-0.15783277 -0.62183231 0.034700181
-0.19066361 -0.6156773 0.034536652
-0.18725781 -0.61565393 0.034527779
-0.18109053 -0.61568242 0.034528516
-0.18001269 -0.61564445 0.034499452
-0.16993897 -0.61565679 0.034505688
-0.16489583 -0.61568391 0.034533277
-0.1602027 -0.61571306 0.034576323
-0.17730884 -0.60957021 0.034531269
-0.17626704 -0.60953522 0.034514934
-0.17256702 -0.60961533 0.034592602
-0.17158718 -0.60960913 0.034580402
-0.17047489 -0.60961139 0.034598008
-0.16467932 -0.6095835 0.034544099
-0.1691622 -0.60417944 0.034062147
-0.1680918 -0.60418391 0.034065224
-0.1667753 -0.60355061 0.034795575
-0.16563609 -0.60349244 0.034725603
-0.10392307 -0.72152627 0.035967451
-0.10770708 -0.7119109 0.035094004
-0.11250084 -0.70158488 0.035145238
-0.1135089 -0.70081967 0.035667021
-0.14386068 -0.69050795 0.035979357
-0.1229158 -0.69051701 0.035999592
-0.14328007 -0.68255603 0.035038184
-0.12923901 -0.68254197 0.035002157
-0.14435194 -0.68183762 0.035598066
-0.12380593 -0.68182361 0.035581421
-0.14240706 -0.67315727 0.035429716
-0.12940563 -0.67317075 0.035459682
-0.12833381 -0.67317981 0.035475798
-0.1351894 -0.67237073 0.035961583
-0.13409264 -0.67239147 0.035981417
-0.28588274 -0.66528112 0.035003681
-0.28585196 -0.66456711 0.035600189
-0.28228685 -0.66449815 0.035546307
-0.27985251 -0.66453421 0.035596378
-0.27871221 -0.66457599 0.035610687
-0.27219689 -0.66454059 0.035581194
-0.14445767 -0.66451138 0.035535768
-0.14330132 -0.66453439 0.035538554
-0.14087622 -0.66454589 0.035587985
-0.13697121 -0.66455364 0.035577949
-0.27504635 -0.65673584 0.035407268
-0.27076828 -0.65671247 0.035387579
-0.2696425 -0.65674692 0.03540346
-0.26599494 -0.65665388 0.035329014
-0.26487133 -0.65670753 0.035362411
-0.26101786 -0.65667218 0.035332177
-0.25630414 -0.65671819 0.035386901
-0.25263372 -0.65600598 0.035975788
-0.15455092 -0.65669119 0.035341874
-0.15056384 -0.65600097 0.035972606
-0.14733498 -0.65673494 0.03539408
-0.14627095 -0.65673959 0.035398643
-0.14219904 -0.65670669 0.035366695
-0.13828251 -0.65671009 0.035356127
-0.13686638 -0.65600109 0.035990588
-0.13580438 -0.65672499 0.035395734
-0.25916883 -0.65598935 0.035986189
-0.2544446 -0.65599042 0.03598417
-0.22716352 -0.65595865 0.035949338
-0.13939203 -0.65597105 0.035954427
-0.25631884 -0.64890283 0.035392907
-0.25444174 -0.64896423 0.035449434
-0.2512154 -0.64893681 0.035424966
-0.24294372 -0.64890659 0.035366949
-0.24147202 -0.6489296 0.035424795
-0.222415 -0.64887941 0.035370652
-0.22138862 -0.64818013 0.03599957
-0.24157213 -0.64191228 0.035093248
-0.2401097 -0.64193541 0.035111319
-0.23967548 -0.64192855 0.035080276
-0.23543832 -0.64123601 0.035744902
-0.23289394 -0.64123625 0.035714008
-0.22897354 -0.64195299 0.035116993
-0.2260621 -0.64121991 0.035744671
-0.21496475 -0.6412434 0.035754565
-0.21382996 -0.64124101 0.035748068
-0.17199768 -0.64192408 0.035102375
-0.16872624 -0.64190608 0.035070371
-0.1675044 -0.64190197 0.035073642
-0.16624667 -0.64120942 0.035711836
-0.16513664 -0.64124125 0.035766162
-0.16476011 -0.64125729 0.035776012
-0.16333261 -0.64126277 0.035765514
-0.16010092 -0.64123333 0.035729069
-0.15466076 -0.64124787 0.035750847
-0.15249386 -0.64193791 0.035115842
-0.14964652 -0.64125317 0.035757918
-0.14736405 -0.64194995 0.035131056
-0.14628248 -0.64190298 0.035062719
-0.14521664 -0.64190727 0.035067406
-0.22717746 -0.63424599 0.035611786
-0.22576302 -0.63463724 0.035324045
-0.22430868 -0.63499302 0.035020865
-0.22288984 -0.63429123 0.035677683
-0.22043255 -0.63421589 0.035577547
-0.21742015 -0.63497865 0.035003655
-0.21466151 -0.63421512 0.03557482
-0.21211757 -0.63428462 0.035648841
-0.21063681 -0.63429224 0.035653017
-0.20780814 -0.63426834 0.035650522
-0.20272034 -0.63427252 0.035637997
-0.19547692 -0.63427544 0.03563178
-0.19305284 -0.63428807 0.035664991
-0.18466394 -0.63499534 0.035030801
-0.16957808 -0.63429374 0.035644673
-0.15155879 -0.63425839 0.035622995
-0.211826 -0.62801218 0.035058983
-0.20790707 -0.62804842 0.035103794
-0.20354538 -0.62801617 0.035074383
-0.16458507 -0.62805158 0.035096053
-0.16322012 -0.62802279 0.03507781
-0.15882967 -0.62801659 0.03505696
-0.15591785 -0.62806886 0.035110112
-0.15320344 -0.62804651 0.035093173
-0.21189044 -0.62734723 0.035732288
-0.20898271 -0.62735969 0.035758369
-0.20793279 -0.62737048 0.035778005
-0.20177418 -0.6273368 0.035722591
-0.19858968 -0.62735045 0.035761591
-0.19711678 -0.62734598 0.035735309
-0.19556697 -0.62736291 0.035741176
-0.1927703 -0.62735432 0.035749763
-0.16028908 -0.62735498 0.035736341
-0.15896916 -0.62733454 0.035732493
-0.15418799 -0.62737203 0.035760794
-0.19748838 -0.62117577 0.035383716
-0.19434808 -0.62117058 0.035412591
-0.18852635 -0.62117952 0.035407878
-0.18709596 -0.62117642 0.035404146
-0.16151236 -0.62119675 0.035404585
-0.15904307 -0.62117869 0.035405923
-0.18864533 -0.6150291 0.035226841
-0.18584831 -0.61502099 0.035234783
-0.184349 -0.61501414 0.035220549
-0.18186741 -0.61506534 0.035279557
-0.17861323 -0.61501497 0.035222247
-0.17755093 -0.61502397 0.035243932
-0.17641519 -0.61505979 0.035277575
-0.16852032 -0.61501199 0.035202824
-0.16594531 -0.61504591 0.03524337
-0.18728645 -0.61499786 0.035209909
-0.17397639 -0.61440825 0.035966728
-0.17180341 -0.61435503 0.035909332
-0.16209476 -0.61433375 0.035880767
-0.16102573 -0.61434335 0.035917073
-0.17491852 -0.60890251 0.035241764
-0.17347504 -0.60829508 0.035979405
-0.17132759 -0.60831785 0.035997853
-0.16909087 -0.60893106 0.035278343
-0.16798782 -0.60888833 0.035206031
-0.16691934 -0.60887569 0.03519265
-0.16559069 -0.60826504 0.035929617
-0.10516682 -0.73195177 0.036620602
-0.10461697 -0.72076291 0.036475457
-0.10845514 -0.7103833 0.036141824
-0.10973608 -0.7096175 0.036685359
-0.11420498 -0.69929785 0.036733434
-0.12004153 -0.69055641 0.036040727
-0.11897904 -0.69055927 0.036040295
-0.14456451 -0.68974572 0.036515139
-0.12120394 -0.68977344 0.03658165
-0.12005696 -0.68980575 0.03660924
-0.13967003 -0.68103379 0.036094215
-0.13606109 -0.68109751 0.036171824
-0.1317542 -0.68109977 0.036180012
-0.12707031 -0.68108463 0.036177099
-0.12535793 -0.68107867 0.036165118
-0.14320885 -0.68035716 0.036734123
-0.12991406 -0.6803298 0.036704175
-0.29246837 -0.67241055 0.036001552
-0.13845141 -0.67242533 0.036031857
-0.13737173 -0.67240894 0.036024924
-0.13048063 -0.67244238 0.036045019
-0.29068482 -0.67169654 0.036628395
-0.2888996 -0.67169172 0.036632787
-0.14316984 -0.67169112 0.036594119
-0.13594724 -0.67162758 0.036533844
-0.13159008 -0.67169386 0.036613107
-0.28374338 -0.66384739 0.03620033
-0.27730879 -0.66378164 0.036147356
-0.27618098 -0.66376567 0.036122452
-0.27511391 -0.66380149 0.036163907
-0.2740421 -0.66384262 0.03619048
-0.27289316 -0.66387618 0.036226969
-0.27037176 -0.66305649 0.036726795
-0.26714262 -0.66384488 0.03619872
-0.14559886 -0.66379309 0.036150943
-0.13801698 -0.66382498 0.03615788
-0.13663961 -0.66309601 0.036764514
-0.13547012 -0.66384721 0.036189117
-0.13438468 -0.66384131 0.036183409
-0.13333791 -0.66382724 0.036189821
-0.1323081 -0.66377038 0.036134869
-0.26347011 -0.65602416 0.036019359
-0.26202857 -0.65603358 0.036021102
-0.25767842 -0.65603262 0.0360214
-0.14341658 -0.65602285 0.036014009
-0.26676407 -0.6552878 0.036609322
-0.26567596 -0.65522712 0.036537714
-0.14924878 -0.65527952 0.036597788
-0.14698556 -0.65530545 0.036606189
-0.14456406 -0.6552996 0.036628168
-0.14192598 -0.65528172 0.036595743
-0.14048529 -0.65526569 0.036587615
-0.25302735 -0.64826339 0.036085181
-0.25269657 -0.64826012 0.036090735
-0.24946795 -0.64820439 0.036043242
-0.24762908 -0.64824188 0.036064353
-0.24593025 -0.64823079 0.036054704
-0.24406846 -0.64825255 0.036089264
-0.23611452 -0.64819062 0.036023647
-0.23466772 -0.64822781 0.036043912
-0.15681818 -0.64824533 0.036077637
-0.15243012 -0.64826846 0.036083769
-0.15173414 -0.64828581 0.036111075
-0.1470166 -0.64823419 0.036047108
-0.14227542 -0.64826804 0.036087103
-0.25092781 -0.64752531 0.036695462
-0.23828861 -0.64756018 0.036708705
-0.23290433 -0.64756668 0.036709443
-0.23038305 -0.64755392 0.036729541
-0.22792825 -0.64747757 0.036627974
-0.15392026 -0.64755774 0.036702067
-0.15256535 -0.64756 0.036725465
-0.15032804 -0.64753139 0.036700059
-0.14921793 -0.64750862 0.036652349
-0.14093326 -0.64756054 0.036715906
-0.23653656 -0.64051855 0.036361724
-0.23002364 -0.64053285 0.036370203
-0.22321582 -0.64050668 0.036345102
-0.22178377 -0.64056164 0.036408041
-0.21199755 -0.64055949 0.036392421
-0.17926525 -0.64053172 0.036360234
-0.17275205 -0.64056766 0.03639248
-0.16264759 -0.64054871 0.036395073
-0.15581064 -0.64050037 0.036334164
-0.15335751 -0.64053488 0.03640338
-0.14816901 -0.64056474 0.036401041
-0.14715531 -0.64056051 0.036414031
-0.15701532 -0.63981122 0.036994904
-0.22404577 -0.63361275 0.036329858
-0.22288312 -0.63361889 0.036318257
-0.2186778 -0.63357514 0.036290113
-0.21324563 -0.6335246 0.036228098
-0.20312802 -0.63358003 0.036277797
-0.19696477 -0.63357377 0.036283821
-0.19370179 -0.63359743 0.036286023
-0.19160619 -0.63361925 0.036320206
-0.19053309 -0.63355654 0.036249332
-0.18948485 -0.63355303 0.036276393
-0.18841022 -0.633569 0.036280245
-0.18727393 -0.63360494 0.036319826
-0.18611261 -0.63362861 0.036331832
-0.1836859 -0.63362557 0.036344133
-0.1825425 -0.63357002 0.036270455
-0.17782775 -0.63359374 0.036279403
-0.15979593 -0.63361377 0.036322448
-0.15845519 -0.63359594 0.036304165
-0.1526684 -0.63354874 0.036242083
-0.15015697 -0.63359368 0.036309015
-0.21539803 -0.632909 0.036945406
-0.2041709 -0.63289934 0.036926005
-0.1865384 -0.63292974 0.036986224
-0.18546963 -0.63293117 0.036979999
-0.18440026 -0.63293457 0.036983691
-0.17647126 -0.63289672 0.036963455
-0.17359804 -0.63288784 0.036925763
-0.16135761 -0.63288289 0.03692596
-0.15988651 -0.63292015 0.036976561
-0.1552027 -0.63290089 0.036950298
-0.1537867 -0.63291657 0.036979549
-0.15126467 -0.63287663 0.03691392
-0.20907177 -0.6266464 0.036387745
-0.20324039 -0.62667012 0.036407091
-0.19389851 -0.62665308 0.036390375
-0.16542797 -0.62670594 0.036424402
-0.16140208 -0.62668097 0.036401063
-0.15709786 -0.62669235 0.036442444
-0.15564032 -0.62671727 0.036451101
-0.19252776 -0.62053406 0.036092296
-0.18965669 -0.62049663 0.03607282
-0.1788075 -0.62055004 0.03611999
-0.16984646 -0.62051433 0.03609518
-0.16838591 -0.62051088 0.036067311
-0.16732688 -0.62049967 0.036057074
-0.16477448 -0.62047011 0.036031958
-0.16015796 -0.620502 0.036080036
-0.19414005 -0.61982632 0.036755778
-0.18544351 -0.61985558 0.036772303
-0.18114902 -0.61981511 0.036743563
-0.1778485 -0.61987865 0.036796205
-0.16342156 -0.61987704 0.036792919
-0.1623009 -0.61986965 0.036777537
-0.1816916 -0.61373121 0.036647264
-0.17949484 -0.61368418 0.036578853
-0.17046951 -0.61366272 0.036563374
-0.16575009 -0.61371195 0.036639664
-0.17237203 -0.60831541 0.036007743
-0.17356923 -0.60762662 0.036672212
-0.16886048 -0.60765684 0.036699269
-0.10754555 -0.7312398 0.037183151
-0.10613529 -0.7312215 0.037163552
-0.099699937 -0.73120743 0.037139039
-0.1012039 -0.73038936 0.037593365
-0.11923034 -0.69856626 0.037321053
-0.11788469 -0.69855374 0.037315082
-0.11520763 -0.69855839 0.037281573
-0.12369775 -0.68827975 0.037672002
-0.12221187 -0.68828022 0.037669756
-0.14473824 -0.67962378 0.037319232
-0.13387375 -0.67962122 0.037329391
-0.12816778 -0.67957884 0.037278883
-0.14401469 -0.67888373 0.037887316
-0.13103124 -0.67887914 0.037897695
-0.29210883 -0.67094761 0.037178058
-0.28856125 -0.67024624 0.037803389
-0.2841723 -0.67096043 0.037209038
-0.28281069 -0.67024094 0.037807979
-0.28067094 -0.67017442 0.037727918
-0.14496699 -0.67022157 0.037777603
-0.14391567 -0.67096311 0.037211526
-0.13239786 -0.67093569 0.03717982
-0.13131602 -0.67021841 0.037771955
-0.27912208 -0.66235745 0.037370797
-0.27801964 -0.66241211 0.037408188
-0.26787108 -0.66239339 0.03738657
-0.14781135 -0.66239619 0.037405968
-0.14522888 -0.66235673 0.037352171
-0.14382932 -0.66234225 0.037345182
-0.13873224 -0.662386 0.037375405
-0.26365042 -0.6616078 0.037927914
-0.14086099 -0.66165257 0.037958149
-0.25564536 -0.65459287 0.037253752
-0.15756904 -0.65459752 0.037232395
-0.14778732 -0.65458065 0.037225477
-0.13906448 -0.65454215 0.037179261
-0.25854397 -0.65381455 0.037799772
-0.25708461 -0.65388179 0.03785418
-0.24410334 -0.65384251 0.037812553
-0.16124374 -0.65385497 0.037836771
-0.15213454 -0.65383786 0.0377983
-0.1499033 -0.65385455 0.037813231
-0.14272933 -0.65388393 0.037852887
-0.24734357 -0.64682907 0.03730638
-0.2452645 -0.64612728 0.037934866
-0.24195869 -0.64610189 0.037895754
-0.24056119 -0.64610207 0.037926011
-0.23945157 -0.64681858 0.037303504
-0.23546335 -0.64608133 0.037892073
-0.23262854 -0.64613479 0.037948836
-0.22038378 -0.64679164 0.0372862
-0.2189475 -0.6461367 0.037954174
-0.15227388 -0.64614099 0.037963741
-0.15109408 -0.64616221 0.037981402
-0.14459884 -0.64646983 0.037619643
-0.22543335 -0.639148 0.037681773
-0.21717244 -0.63907784 0.037595212
-0.21606021 -0.6398381 0.037028048
-0.21319492 -0.63915449 0.037661612
-0.21206991 -0.63984895 0.03701131
-0.2103126 -0.63981622 0.037009191
-0.20887035 -0.63912922 0.037643332
-0.1660471 -0.63912272 0.037639752
-0.15403758 -0.6391542 0.037675291
-0.15042274 -0.63983828 0.037011757
-0.21979092 -0.63214505 0.037522946
-0.21835642 -0.63219482 0.037577201
-0.21406142 -0.63216799 0.037554387
-0.17874406 -0.63219154 0.03756617
-0.15672295 -0.63221687 0.037604738
-0.16256988 -0.62602878 0.037089493
-0.20149347 -0.6259926 0.037067886
-0.20003125 -0.62599969 0.037067883
-0.19070321 -0.62533271 0.037744228
-0.18750277 -0.62536472 0.03778632
-0.16762231 -0.62597996 0.037072688
-0.15973905 -0.62530601 0.037720259
-0.19554618 -0.6191684 0.037438225
-0.18189883 -0.61913383 0.037399702
-0.16957138 -0.61918247 0.037445661
-0.10250919 -0.72961777 0.038084522
-0.21407034 -0.70655227 0.03877563
-0.11276735 -0.7065835 0.038832966
-0.11747126 -0.69704163 0.038397301
-0.14383566 -0.6874972 0.038186222
-0.1301619 -0.68755352 0.038270928
-0.1283949 -0.68754745 0.038249414
-0.12513143 -0.68753815 0.038249407
-0.13155016 -0.68679899 0.038797144
-0.13353497 -0.67814314 0.038462751
-0.12924629 -0.67811799 0.038429722
-0.13682313 -0.67734993 0.038969561
-0.28996146 -0.66950732 0.03838506
-0.13957804 -0.66951257 0.038375501
-0.14550377 -0.66875494 0.038923889
-0.14637823 -0.66094124 0.038582049
-0.14199421 -0.66090775 0.038528711
-0.15394147 -0.65316731 0.038476221
-0.23772432 -0.64543623 0.03860658
-0.22724721 -0.64535183 0.038493101
-0.22432089 -0.64545798 0.038586132
-0.15948579 -0.6453824 0.038519129
-0.17574082 -0.63841194 0.0382514
-0.16814029 -0.63844484 0.038283549
-0.16311161 -0.63846999 0.038333125
-0.15948513 -0.63845539 0.038310133
-0.22232997 -0.63771242 0.038888302
-0.20764823 -0.63774002 0.038920574
-0.19737297 -0.63773751 0.038923491
-0.18408921 -0.63770181 0.038880732
-0.20250811 -0.63152045 0.038250484
-0.19887847 -0.63155121 0.03826284
-0.19189557 -0.62463534 0.038412549
-0.16593304 -0.6246835 0.038446516
-0.18512402 -0.61851513 0.038117986
-0.17612648 -0.61854523 0.038158238
-0.1631939 -0.6184994 0.038116314
-0.10493957 -0.72812092 0.039165463
-0.10361819 -0.72806573 0.039118975
-0.10925397 -0.72733921 0.03965212
-0.13302061 -0.68603975 0.039335355
-0.14422135 -0.68598902 0.039286293
-0.12937878 -0.6853193 0.039947294
-0.12582545 -0.68530577 0.039912309
-0.14446314 -0.67663473 0.03957599
-0.13541499 -0.67663282 0.039575588
-0.13341776 -0.66797578 0.039463822
-0.26143757 -0.66020447 0.039164037
-0.1472045 -0.66021693 0.039188325
-0.14491701 -0.66019875 0.03915995
-0.13663663 -0.66020501 0.039148036
-0.15040818 -0.65949368 0.0397758
-0.24994132 -0.65243548 0.039058711
-0.24233724 -0.65241987 0.039042104
-0.15873416 -0.65244037 0.039073166
-0.2323111 -0.64470077 0.039176591
-0.21647383 -0.64402723 0.039837155
-0.16595393 -0.64439142 0.039541487
-0.16166988 -0.64436525 0.039514124
-0.16026218 -0.64402473 0.039857257
-0.15335155 -0.64471108 0.039186623
-0.20572069 -0.63705146 0.039580297
-0.17005049 -0.63706702 0.039591301
-0.16868716 -0.6370374 0.039572928
-0.20220843 -0.71542019 0.040113475
-0.20505778 -0.71467507 0.040656991
-0.20000693 -0.71465337 0.040637188
-0.14512034 -0.67515832 0.040705547
-0.14375022 -0.6759066 0.04015854
-0.15184945 -0.6587494 0.040351555
-0.14856008 -0.65878761 0.040393483
-0.1472064 -0.65806186 0.040994912
-0.22332613 -0.6502288 0.040831134
-0.15226258 -0.65098649 0.040270425
-0.21503085 -0.64331061 0.040447541
-0.16279583 -0.6433121 0.040455665
-0.20404506 -0.63634545 0.040229898
-0.17369829 -0.63633186 0.040208887
-0.18169525 -0.63563073 0.040818784
-0.18057214 -0.63564521 0.040824648
-0.1740886 -0.63562298 0.040801249
-0.20902207 -0.71307808 0.041613515
-0.20733519 -0.71306193 0.041626111
-0.20613788 -0.71387869 0.041162841
-0.20293254 -0.7138719 0.041141611
-0.21727464 -0.70278257 0.041450758
-0.14552937 -0.67442232 0.041297138
-0.14406949 -0.67368311 0.041852497
-0.14504118 -0.66507155 0.041837085
-0.21545491 -0.64260703 0.041075978
-0.21298656 -0.641895 0.041713651
-0.21113627 -0.64188087 0.041688152
-0.16361809 -0.6419009 0.041714411
-0.16173849 -0.64189893 0.041711081
-0.15894483 -0.64188474 0.041705314
-0.19359381 -0.6350016 0.041544087
-0.19251549 -0.63496274 0.041483592
-0.1914392 -0.63492435 0.041453958
-0.19033858 -0.63495225 0.041485872
-0.18927744 -0.63496023 0.0415079
-0.18237084 -0.6349178 0.041428749
-0.17119524 -0.63499582 0.041519035
-0.21007703 -0.71232831 0.042167243
-0.21226159 -0.71156955 0.042675171
-0.14348726 -0.6822989 0.042147081
-0.14612332 -0.66434824 0.042442713
-0.15192477 -0.65586185 0.042749461
-0.150856 -0.65585309 0.042742815
-0.14981921 -0.6558671 0.042768478
-0.22162098 -0.64811468 0.042707678
-0.15955131 -0.64815629 0.042750388
-0.21198742 -0.64047605 0.042967133
-0.18745849 -0.63430756 0.042188354
-0.18530747 -0.63430965 0.042182159
-0.1842425 -0.63429457 0.042174328
-0.1831343 -0.63422585 0.042088315
-0.18823954 -0.63358992 0.042799115
-0.18609421 -0.6336112 0.042817935
-0.21403041 -0.71004063 0.043727536
-0.21042237 -0.7108013 0.043191828
-0.22049135 -0.69972038 0.043592341
-0.14476046 -0.67221063 0.043013919
-0.1495003 -0.66365117 0.043064486
-0.15490548 -0.64743257 0.043349102
-0.15385014 -0.64745027 0.043365579
-0.21952783 -0.64672315 0.043988306
-0.16578339 -0.64672494 0.043969885
-0.16153091 -0.64668715 0.043934654
-0.16035978 -0.64668751 0.043905284
-0.15999982 -0.64668107 0.043914396
-0.21301821 -0.6397925 0.043583814
-0.21470149 -0.70922118 0.044197835
-0.22085162 -0.69822031 0.044676103
-0.14556099 -0.6707027 0.044151176
-0.15309308 -0.66217804 0.044234481
-0.14948943 -0.66219306 0.044242032
-0.2102174 -0.63905668 0.044193435
-0.17736788 -0.63902396 0.044166714
-0.17698842 -0.63903427 0.044161443
-0.17234771 -0.63909149 0.044211932
-0.16946079 -0.63906878 0.044213191
-0.20767766 -0.6383574 0.044816941
-0.20645946 -0.63836253 0.04482526
-0.1965635 -0.63837779 0.044846479
-0.1806556 -0.63837141 0.044849236
-0.17813915 -0.63835567 0.044810165
-0.17454174 -0.63839853 0.044867862
-0.16954829 -0.63836664 0.044839617
-0.16165008 -0.63836622 0.044845641
-0.19333048 -0.63219112 0.044060025
-0.19990994 -0.71801072 0.045620095
-0.19843051 -0.71806425 0.045681432
-0.19705383 -0.71804845 0.045684341
-0.19312479 -0.71805257 0.045694202
-0.19049899 -0.71804142 0.045682263
-0.21644947 -0.70771325 0.045226183
-0.21750666 -0.70693207 0.045727126
-0.14469942 -0.68640858 0.045892972
-0.14641114 -0.67782426 0.045470275
-0.14379176 -0.67785048 0.045503348
-0.14541057 -0.66070354 0.045373067
-0.21851589 -0.64529437 0.045205336
-0.16223279 -0.64529884 0.045200784
-0.17960507 -0.63766062 0.045466289
-0.17277235 -0.6376726 0.045474295
-0.19509532 -0.71727914 0.046163525
-0.19370481 -0.71729189 0.046182703
-0.19235817 -0.71728688 0.046207767
-0.20310342 -0.71649301 0.046651129
-0.20022422 -0.71645862 0.046611182
-0.19879347 -0.71647161 0.04663346
-0.19737113 -0.71649766 0.046684571
-0.2178341 -0.70539129 0.046790496
-0.21495458 -0.70538485 0.04675132
-0.15814888 -0.65081334 0.046956208
-0.2152327 -0.64386845 0.046403408
-0.2042654 -0.63623166 0.046709895
-0.1936949 -0.63695157 0.046064883
-0.18326932 -0.63619876 0.046645772
-0.18223855 -0.6362313 0.04667927
-0.17822406 -0.63694853 0.046066634
-0.1749218 -0.63691694 0.046038222
-0.2073784 -0.71573895 0.047200669
-0.20595287 -0.71574283 0.047187176
-0.19806539 -0.71570081 0.047148429
-0.20381394 -0.71493566 0.047665909
-0.20196411 -0.71493942 0.047666442
-0.20056754 -0.71494365 0.047694348
-0.22005603 -0.704597 0.04724782
-0.21667296 -0.70387113 0.047799706
-0.21533653 -0.70384306 0.047779851
-0.15341498 -0.65851444 0.047123514
-0.14843312 -0.6585409 0.047160458
-0.14705223 -0.65779757 0.04774921
-0.15897661 -0.65008748 0.047572572
-0.1564091 -0.65010583 0.047570691
-0.15542682 -0.65009904 0.047579512
-0.21600561 -0.64315283 0.047032695
-0.16340648 -0.64243567 0.047645632
-0.19416042 -0.63557446 0.047385544
-0.187315 -0.63557565 0.047368757
-0.17787415 -0.63554454 0.047325861
-0.20319873 -0.6348303 0.047977962
-0.19061041 -0.63481027 0.047951087
-0.18047839 -0.63482249 0.047937259
-0.20483503 -0.71416533 0.048170406
-0.20913482 -0.71335173 0.048617221
-0.20587547 -0.71340406 0.048690267
-0.20415182 -0.71338028 0.048666488
-0.22172587 -0.70305133 0.048248228
-0.14232412 -0.66554421 0.048163448
-0.22285962 -0.64932275 0.048127547
-0.16119592 -0.64934695 0.048142593
-0.15573914 -0.64938241 0.048169844
-0.22176595 -0.64865029 0.048778329
-0.2203722 -0.64864588 0.048769839
-0.21278195 -0.6417011 0.048240121
-0.17571858 -0.64102638 0.048895579
-0.16161473 -0.64100903 0.048869547
-0.16012239 -0.64173049 0.048267521
-0.21212587 -0.64097762 0.04885257
-0.17820327 -0.64096689 0.048814863
-0.17026077 -0.64099276 0.048838273
-0.16740955 -0.64097857 0.048835192
-0.1583775 -0.64097184 0.048817325
-0.19099842 -0.63409936 0.0485784
-0.18762787 -0.63417405 0.048633717
-0.18587437 -0.63487166 0.048012454
-0.18444595 -0.63413566 0.048613504
-0.17974019 -0.63414276 0.04858312
-0.20697148 -0.71258557 0.049134467
-0.21960446 -0.70148504 0.04926309
-0.22027235 -0.70072371 0.049780175
-0.22106731 -0.64792633 0.049367148
-0.15799133 -0.64719707 0.049968489
-0.17894796 -0.6402775 0.049458295
-0.1641587 -0.64031637 0.049501538
-0.1678988 -0.6334461 0.04922495
-0.19066814 -0.6326825 0.049807813
-0.17868026 -0.63272941 0.049834415
-0.20904547 -0.71104103 0.05012336
-0.21300589 -0.7103011 0.050660435
-0.22315262 -0.69925994 0.050905652
-0.2209274 -0.69998801 0.050334658
-0.15096356 -0.65412819 0.050632048
-0.15903522 -0.64648253 0.05056354
-0.1904833 -0.63960534 0.050126098
-0.1764608 -0.63954633 0.050078534
-0.20533665 -0.63885587 0.050701357
-0.18420736 -0.63205373 0.050525192
-0.17122424 -0.63204443 0.050502397
-0.17990199 -0.63199568 0.050441161
-0.19137236 -0.72056073 0.05124509
-0.19315022 -0.71985477 0.051823854
-0.18843076 -0.71980453 0.051752917
-0.21122275 -0.70948589 0.051149003
-0.2147935 -0.70870668 0.051639803
-0.2132837 -0.70874375 0.051661372
-0.22373651 -0.69850695 0.051430188
-0.2213223 -0.69849539 0.051441565
-0.14850019 -0.66112268 0.051607758
-0.15691356 -0.65269136 0.05185958
-0.21600877 -0.64504415 0.051763397
-0.15839452 -0.64575249 0.051170595
-0.17327741 -0.63816613 0.051322777
-0.17181188 -0.63815588 0.051326666
-0.19785391 -0.71902567 0.052267145
-0.19134051 -0.71900493 0.052236587
-0.18916336 -0.71901166 0.05223209
-0.18660095 -0.71901107 0.052233089
-0.18556915 -0.71901625 0.052268323
-0.20145439 -0.71820295 0.052678034
-0.19859231 -0.71822691 0.052738328
-0.19594716 -0.71825165 0.052736517
-0.19457307 -0.71825773 0.052748989
-0.1930733 -0.71826577 0.052758869
-0.19205 -0.71826398 0.05277434
-0.19029395 -0.71898347 0.052208927
-0.18836057 -0.71822506 0.052703366
-0.18723309 -0.71823663 0.052714534
-0.18398824 -0.71825629 0.052732814
-0.21545869 -0.70790219 0.052074302
-0.21403952 -0.70796269 0.05217234
-0.22376832 -0.69616663 0.052955776
-0.22228692 -0.69617885 0.052962165
-0.22121951 -0.69617999 0.052967139
-0.16125658 -0.65119857 0.05299801
-0.15609723 -0.65196377 0.052429631
-0.15508124 -0.65195942 0.052442875
-0.14893557 -0.65192634 0.052399699
-0.15471651 -0.64430821 0.052352902
-0.21503201 -0.64357877 0.052961946
-0.16741046 -0.64359689 0.052982353
-0.20574717 -0.63671553 0.052541573
-0.19175352 -0.63669914 0.052530888
-0.1906171 -0.63673466 0.052570526
-0.18517032 -0.6366812 0.052487023
-0.19919257 -0.7174688 0.053233568
-0.19671966 -0.71746135 0.053230815
-0.19526058 -0.71745223 0.05320815
-0.2018092 -0.71665305 0.053697806
-0.21574821 -0.70633745 0.053089123
-0.21429674 -0.70634758 0.053081054
-0.22415595 -0.69458508 0.053938657
-0.16562943 -0.64286351 0.053562857
-0.16097072 -0.6428684 0.053583685
-0.15953043 -0.64281714 0.053498983
-0.15844423 -0.64283192 0.053518552
-0.19461098 -0.63603461 0.053183321
-0.20646974 -0.63599765 0.053154167
-0.2051197 -0.63598734 0.053163745
-0.20476222 -0.63598526 0.053150829
-0.19353735 -0.63597381 0.053112667
-0.19136275 -0.63563406 0.053457588
-0.1708554 -0.63529879 0.053767618
-0.16823889 -0.63599867 0.053137366
-0.20458862 -0.7158947 0.054187503
-0.20380481 -0.71510881 0.054673072
-0.20279756 -0.71589088 0.054185681
-0.2010866 -0.71584851 0.054148644
-0.19990134 -0.71585816 0.054120377
-0.19710639 -0.71587384 0.05420519
-0.22042157 -0.70480591 0.054087814
-0.21854603 -0.70406324 0.054634415
-0.21714559 -0.70405143 0.05461406
-0.21609177 -0.70481455 0.054101266
-0.22446175 -0.69303399 0.054960832
-0.14353064 -0.67514855 0.054112501
-0.22291306 -0.6490075 0.054756895
-0.21400754 -0.64212447 0.054160368
-0.17256233 -0.64213163 0.054153685
-0.15846266 -0.64137745 0.054691415
-0.19248673 -0.63453162 0.054334018
-0.18469101 -0.63454378 0.054343652
-0.18362877 -0.63452506 0.054314658
-0.18241914 -0.63454157 0.054338727
-0.19322513 -0.63385522 0.054976456
-0.18244524 -0.63380432 0.054927774
-0.20500372 -0.71430606 0.055156291
-0.2095506 -0.71351504 0.055605259
-0.20775777 -0.71353108 0.055624317
-0.20623912 -0.71356314 0.055662468
-0.20591839 -0.71356499 0.055663906
-0.22040139 -0.70245326 0.055573568
-0.21892923 -0.70247865 0.055588968
-0.21744435 -0.70250243 0.055636775
-0.22512993 -0.69226867 0.05544325
-0.22260207 -0.69228572 0.055495769
-0.16428907 -0.64069217 0.055358816
-0.2103247 -0.63996309 0.055934966
-0.1947276 -0.63387346 0.05502012
-0.18671156 -0.63389319 0.055032559
-0.18527912 -0.63388199 0.055027075
-0.212106 -0.7127465 0.056119487
-0.21024929 -0.71272647 0.056078073
-0.20888677 -0.71271855 0.056089681
-0.20698698 -0.71275485 0.056139775
-0.21129276 -0.71196169 0.056601409
-0.22099781 -0.70167089 0.056039281
-0.21927188 -0.70091391 0.056576718
-0.22544563 -0.69078785 0.056542758
-0.14811647 -0.66286016 0.05660864
-0.14771536 -0.66285616 0.056605361
-0.15286009 -0.65517873 0.056127161
-0.15075545 -0.65518349 0.056146223
-0.14812081 -0.65521133 0.056167308
-0.14711082 -0.65520841 0.056169685
-0.16314809 -0.64680755 0.056507278
-0.20827104 -0.6392324 0.05653077
-0.17401108 -0.6392675 0.056555815
-0.17157191 -0.63921893 0.056536928
-0.21242805 -0.71119428 0.05711294
-0.21339883 -0.71041727 0.057565991
-0.21011645 -0.71039438 0.057540398
-0.22131848 -0.70011926 0.057055127
-0.2258303 -0.6892224 0.057563599
-0.15468454 -0.65367848 0.057247344
-0.22046694 -0.64608932 0.057116255
-0.15733579 -0.64609015 0.057102002
-0.15587567 -0.64608186 0.057080433
-0.21677579 -0.64537472 0.057686199
-0.16383952 -0.6453588 0.057678867
-0.15813741 -0.64534843 0.057696804
-0.15662169 -0.64535987 0.057688985
-0.17331059 -0.63853592 0.057147689
-0.17042352 -0.63851309 0.057148814
-0.16932617 -0.63850504 0.05712083
-0.16761333 -0.63849264 0.057122398
-0.20862904 -0.63778484 0.057725232
-0.18308629 -0.63777727 0.05771308
-0.16613075 -0.63777566 0.057724163
-0.21409883 -0.70962381 0.058057584
-0.21268708 -0.70962012 0.058044329
