# .PCD v0.7 - Point Cloud Data file format
VERSION 0.7
FIELDS x y z
SIZE 4 4 4
TYPE F F F
COUNT 1 1 1
WIDTH 1248
HEIGHT 1
VIEWPOINT 0 0 0 1 0 0 0
POINTS 1248
DATA ascii
-0.058857709 0.00054466724 0.023478383
-0.04614111 0.0010595769 0.023485495
-0.030572504 3.927201e-05 0.023620984
-0.029264115 -0.00062541291 0.023570824
-0.019484207 0.001300104 0.023968684
-0.0074413568 0.0013763644 0.023696374
-0.004827477 -4.003942e-05 0.023694295
-0.0015822276 -0.001617305 0.023557611
-0.0003194958 -0.0022618249 0.023519067
-0.05672612 -0.11630988 0.017076049
-0.0023523271 -0.14339474 0.016531033
-0.041840926 -0.1120647 0.01711278
-0.045344517 -0.10948232 0.01780826
-0.03804028 -0.11323851 0.017660573
-0.0010901839 -0.13226375 0.016927361
0.0010598451 -0.13335362 0.016898144
-0.029276147 -0.0951147 0.018638888
0.00015462935 -0.11027808 0.018084239
-0.00058868527 -0.099150911 0.018873302
-0.0012876093 -0.097968481 0.019507609
-0.001811415 -0.088603064 0.019305158
-0.00092695653 -0.088276163 0.019931223
0.00044864416 -0.089757904 0.019243572
0.00047919154 -0.079973586 0.019966766
-0.10756755 -0.02339703 0.022544594
-0.10055187 -0.026985046 0.022391301
-0.099299654 -0.027693685 0.02242188
-0.00019286573 -0.078866161 0.020638244
-0.13679136 0.00057427166 0.023459924
-0.093255818 -0.021788694 0.022571068
-0.092336148 -0.022290222 0.022573667
0.00070525706 -0.070268124 0.020859739
-0.10472677 0.00095178932 0.023552798
0.00066658854 -0.053384222 0.021598522
0.0019945651 -0.054030932 0.021545315
-0.10545269 0.002080787 0.024242148
-0.10326482 0.00097192824 0.02420312
-0.1022902 0.00053524412 0.02413125
-6.9588423e-05 -0.052271836 0.022316162
-0.001226902 -0.043622687 0.022612773
3.2290816e-05 -0.044284284 0.022595087
-0.072659686 0.00037164986 0.023795368
0.001630649 -0.037933819 0.022437358
-0.073077887 0.0013055392 0.024537424
0.00094099343 -0.036846198 0.023149753
-0.00098918378 -0.028696373 0.023208199
-0.046501838 0.0019589514 0.024207585
-0.043780014 0.0011404976 0.024990128
-0.042776421 0.00061058253 0.024960147
-0.040252842 -0.00066430494 0.024912816
-0.038901247 -0.0013518371 0.024864106
-0.0010908693 -0.021524206 0.023413315
-0.032469608 0.0016748123 0.024395652
-0.0014485568 -0.014363542 0.023850033
-0.030411057 0.0012864992 0.025112651
-0.026823409 -0.0005710274 0.0250491
-0.017959975 0.0011565126 0.024706392
-0.015808031 2.5562942e-05 0.024698602
-0.00037695467 -0.0079080015 0.024371434
-0.013610274 -0.00042515248 0.025380908
-0.0023936406 -0.006227456 0.02518663
-0.0054116473 0.0015636273 0.025251858
-0.0044421256 0.0010384507 0.025260821
-0.0015741065 -0.00042847544 0.025196791
-0.057641596 -0.11417702 0.01823166
-0.00062729418 -0.14265451 0.017667374
-0.043392852 -0.10969015 0.018365784
-0.042060345 -0.11033726 0.018292276
-0.038858667 -0.1120254 0.018288402
0.00081783533 -0.13242206 0.017493043
-0.0017748028 -0.13027075 0.018135544
-0.038546771 -0.10038862 0.018969135
-0.036571473 -0.1014473 0.018962158
-0.03401424 -0.10276154 0.018917903
-0.00078015029 -0.11986433 0.018288353
0.00090558827 -0.12073291 0.01821862
-0.032091141 -0.10293422 0.019462002
-0.001328066 -0.11879981 0.018906292
0.0002091676 -0.11957963 0.018877674
0.00022256374 -0.10874935 0.019327395
-0.11157244 -0.040252857 0.022126133
-0.097379312 -0.027992582 0.023082431
-0.09607701 -0.028638721 0.023055553
-0.0008417666 -0.077774666 0.021311311
-0.13880649 0.0024010283 0.024147321
-0.13141817 -0.00062718987 0.024664931
5.2735209e-05 -0.068524823 0.02227561
0.00034031272 -0.06940373 0.021614509
-0.12105796 0.0027942043 0.025117287
-0.11622283 0.00030258484 0.025034074
-0.0011160076 -0.058996201 0.022844458
-0.00044064224 -0.060111418 0.022157963
0.00079725683 -0.060744144 0.022158142
-0.097348735 -0.0013286751 0.02477828
-0.00069123507 -0.05123546 0.02302577
-0.087842934 0.0017439052 0.024943484
-0.034712315 -0.02562613 0.023936789
-0.026701406 -0.029842101 0.023860615
-0.069270663 9.0830028e-05 0.025155228
0.00020846725 -0.035777375 0.02390801
-0.002047956 -0.0274731 0.023983378
-0.056911737 0.0016007721 0.025663627
-0.054985762 0.00050952658 0.025709173
-0.0030689389 -0.026282981 0.024760483
-0.0012250245 -0.020091072 0.024901975
0.00029195845 -0.020872198 0.024885062
-0.0039180145 -0.01170779 0.025380112
-0.003185384 -0.0051375292 0.025950477
-0.0011098087 -0.0068803057 0.02519259
-0.055969149 -0.11424321 0.018801078
-0.0011578202 -0.14073391 0.018819546
-0.00082962215 -0.14090341 0.018806504
-0.046894014 -0.1062204 0.019587079
-0.037890822 -0.11088909 0.019448511
-0.034675539 -0.11254328 0.019365095
0.0011939406 -0.13099384 0.018670371
-0.038825646 -0.10955621 0.020017149
-0.036254689 -0.099984072 0.020150514
-0.034939185 -0.10068856 0.020145608
-0.0013271421 -0.1172056 0.020122493
-0.0011478961 -0.10646239 0.020625269
0.00023151934 -0.1071713 0.020574303
0.0016632229 -0.097964503 0.020731192
-0.112819 -0.038152035 0.023475273
-0.0005697608 -0.095986865 0.021373345
0.00095717609 -0.096795209 0.021372527
-0.00056380033 -0.086157508 0.021880111
0.00066201389 -0.087559737 0.021197578
0.001371339 -0.078147992 0.021933787
-0.14991656 -1.9317493e-05 0.024656719
-0.096489847 -0.026914408 0.024400128
-0.13372768 0.0012414753 0.025433375
-0.13207704 0.00040031411 0.02538253
-0.131082 -6.0253777e-05 0.0253224
-0.12866366 -0.0013439842 0.025335632
-0.00068862736 -0.067402743 0.022974584
-0.0017924458 -0.057921313 0.02356335
-0.097283199 4.5698136e-05 0.026209047
-0.00046159327 -0.049883626 0.024397815
-0.085713044 0.0013551489 0.025617598
-0.084423125 0.0006978251 0.025604935
-0.031842835 -0.026445039 0.02464227
-0.0036760718 -0.040988982 0.024128221
0.00023727119 -0.04294879 0.024010804
-0.083482489 0.00092518888 0.026302801
-0.00047549605 -0.041923679 0.024798967
-0.072230823 0.0022742413 0.025968837
-0.068365239 0.0003153868 0.025870299
-0.067448974 -0.00020097196 0.025880545
-0.031577207 -0.018712647 0.02524103
-0.00052122772 -0.034684896 0.024637861
-0.069076926 0.0014209859 0.026585612
-0.031957127 -0.017809112 0.025968479
-0.02239047 -0.022698388 0.025746642
-0.0012365133 -0.033599839 0.025356358
-0.055377789 0.0014531687 0.026408013
-0.0540822 0.00072011724 0.026417468
-0.00062155724 -0.026821934 0.025427476
-0.040816478 0.0016489252 0.027153099
-0.040380932 0.00073887408 0.026399229
-0.001416564 -0.018664271 0.026433781
-0.024930447 0.00048105791 0.027286746
-0.0020944923 -0.011943631 0.026067864
0.00028734654 -0.006312862 0.026693216
-0.0024887994 0.0013100654 0.026777115
-0.0015019178 0.00079834089 0.026762905
0.00077504665 -0.00027807057 0.026636248
-0.050122902 -0.1147729 0.020405918
-0.002151221 -0.13940805 0.019456349
0.00080056489 -0.14009878 0.019934764
0.00028350949 -0.1280921 0.020476239
-0.032676786 -0.10024505 0.021319216
-0.0020069033 -0.11605226 0.02075604
0.00096446276 -0.11757371 0.020682255
0.00029535592 -0.11642339 0.021304207
0.0022768527 -0.08684665 0.022456387
-0.00089931488 -0.084410235 0.023144463
0.0010585934 -0.085464835 0.023154084
-0.147071 -5.2074436e-05 0.02598593
-0.14609303 -0.00056018564 0.025970554
-0.14677171 0.0005268862 0.026646592
-0.00066921115 -0.074771218 0.02392062
-0.13280205 0.0015040822 0.026085796
-0.13115005 0.00070496462 0.026014416
-0.12988755 6.489642e-05 0.025991272
-0.12890498 -0.00048968662 0.026000176
0.00088229775 -0.066716209 0.024295524
-0.1105275 -0.00036580861 0.026935497
0.0010282397 -0.057899877 0.024861533
-0.093835324 -0.00093208067 0.026796548
-0.092527375 -0.0016480554 0.026791297
-0.063028626 -0.0010009781 0.027203793
-0.0019256473 -0.032512769 0.02606092
0.00089515746 -0.034014292 0.026077591
-0.05129794 5.2049756e-05 0.027063228
-0.0032384098 -0.024784371 0.026228093
-0.0016452074 -0.025630325 0.026197527
-0.051661558 0.00087662786 0.027842849
-0.038983218 0.0013871528 0.027856447
-0.0022283196 -0.017596714 0.027219843
-0.026202373 0.0010902509 0.02733298
-0.0003054291 -0.012298055 0.026879624
-0.012198582 0.0014149994 0.028482914
-0.011214934 0.00098449364 0.028400127
-0.0018292293 -0.0045256987 0.02746873
-0.00046540052 -0.0052582175 0.027459949
-0.00047001243 -0.13863122 0.020574123
-0.0012567788 -0.12652072 0.021114165
0.0011373758 -0.10525832 0.02243907
-0.0020375997 -0.10284482 0.023133505
-0.00072795153 -0.10352509 0.023103772
0.00052407384 -0.10416561 0.023086758
-1.4260411e-05 -0.093936324 0.023266818
-0.00088246167 -0.08288908 0.024435697
0.00066965818 -0.083682828 0.024418553
-0.14805597 0.0020216201 0.027278014
-0.1445587 0.0001737019 0.027253583
-0.0021832436 -0.073186278 0.024555722
0.00011979043 -0.065552898 0.024971236
-0.10899852 -0.00045510381 0.027635964
-0.10772198 -0.0011242647 0.027613413
0.00030420721 -0.05678717 0.025582828
-0.0015770197 -0.047820523 0.025796348
-0.00031876564 -0.048492335 0.025811864
-0.079785779 0.00047199614 0.027637338
-0.078826383 -2.5179237e-05 0.027622359
-0.08044906 0.0015329793 0.028331602
-0.063499853 -0.00011494011 0.028001098
-0.0026601106 -0.031500205 0.026878603
-0.064884305 0.0012711212 0.028741023
-0.063916236 0.00078667328 0.028727677
-0.00045527518 -0.031871021 0.027475242
0.00084246695 -0.032591321 0.027517565
-0.052047879 0.0017448589 0.028591966
-0.001796931 -0.024163902 0.027682036
-0.0028992444 -0.016565979 0.027952719
-0.034856021 -5.4586679e-05 0.028521271
-0.022634201 0.00063695014 0.028761555
-0.0010206997 -0.13758188 0.021205131
0.00057467818 -0.13834815 0.021120746
-0.0012826771 -0.11402676 0.022560518
0.0002387464 -0.11479255 0.022535695
-0.00098374486 -0.09265393 0.023934549
-0.14777167 0.0026352773 0.027949333
-0.14632648 0.0019054378 0.027915407
-0.1413541 -0.00068808254 0.027826432
-0.1147972 -0.014356924 0.027337259
-0.00031115115 -0.073424421 0.025208989
-0.1391671 -0.0010784981 0.028481238
0.0015241355 -0.073640153 0.025868747
-0.12425721 -0.00058245845 0.027905477
-0.0017538369 -0.063838005 0.025679762
-0.00050349534 -0.064473405 0.025637988
-0.12263759 -0.00064839609 0.028526155
-0.11360435 0.0033937329 0.029084064
-0.11167477 0.0024139713 0.029056499
-0.11065374 0.0019523185 0.028989991
0.00027574599 -0.055311479 0.026963856
-0.016795531 -0.038542815 0.027501358
-0.0013539493 -0.046491861 0.027197041
-5.9902668e-05 -0.047155112 0.027172046
-0.075448185 -0.00038613752 0.029004587
-0.048306942 0.00062461942 0.029180203
-0.047389388 7.8927726e-05 0.029229641
-0.048762083 0.0015270971 0.029945012
-0.031870596 -0.00090231374 0.029228508
-0.036050923 0.0019348636 0.030045556
-0.022478737 0.0019019544 0.030257821
-0.018297844 -0.00031610206 0.030210147
-0.0017065704 -0.0088602751 0.029898429
-0.00034872442 -0.0095081031 0.029848948
-0.0092341006 0.0012713447 0.029929688
0.00011161715 -0.0035663992 0.029739169
-0.0001495406 0.0026721135 0.029849196
-0.00093336403 -0.13600709 0.02238024
-0.032970145 -0.096032456 0.024328005
-0.00090815127 -0.11261159 0.023759482
-0.0015127659 -0.11147666 0.024364514
0.00097233057 -0.11278777 0.024349127
-0.0016840398 -0.1014581 0.024369955
-0.00044429302 -0.10207738 0.024344586
0.00090181828 -0.10278419 0.02431431
-0.0012592226 -0.090977274 0.02521313
-0.001264438 -0.08118742 0.025787698
-0.00033019483 -0.08089906 0.026413361
-0.14110377 0.00073398789 0.02914783
-0.0010155141 -0.071502142 0.026514398
-3.7059188e-05 -0.072020501 0.026508372
0.0012185723 -0.0726927 0.026502356
-0.00052165985 -0.05419945 0.027697422
-0.092164725 0.0018189959 0.030270636
-0.075843811 0.00053494051 0.029750589
-0.031249121 -0.022385735 0.028831121
-0.027113043 -0.024587046 0.028811477
-0.024830632 -0.025703486 0.028739814
0.00038407743 -0.038788706 0.0283329
-0.077779964 0.002298465 0.030443907
-0.075545311 0.0011160783 0.030424554
-0.031932361 -0.021325719 0.029570865
-0.022390351 -0.026296567 0.029443558
-0.00024995208 -0.037725538 0.0290372
-0.06145943 0.00096124038 0.030117888
-0.060470447 0.00053184479 0.030013118
-0.0022073686 -0.029603019 0.029013667
-0.00065656006 -0.030395001 0.02898447
0.00018534064 -0.023110703 0.029850794
0.001748547 -0.023904994 0.029804124
-0.034229048 0.0016746446 0.030754892
-0.032934435 0.0009999238 0.030730378
-0.031701848 0.00035133213 0.030718895
-0.00096644461 -0.015515536 0.030156147
-0.018717237 0.00059618428 0.030966353
-0.00066886842 -0.0024636611 0.030497229
-0.008776553 0.0023557581 0.031432349
-0.0072348863 0.0015260354 0.031436175
-0.0062451288 0.00097485632 0.031453863
-0.0052260235 0.00042433664 0.031445641
-0.0023785457 -0.0010026172 0.031378124
-0.0030526668 -0.13244662 0.024140045
8.3655119e-05 -0.13405001 0.024087567
-0.00018967688 -0.12298857 0.02402751
0.001041472 -0.12362757 0.024025761
-0.023702443 -0.088443205 0.025937885
-0.01700978 -0.081215627 0.026738845
0.00036327541 -0.090248339 0.026456794
0.0021824688 -0.091148667 0.026398305
-0.13919337 0.00047848653 0.029763902
-0.13633935 -0.0010126447 0.029756168
-0.13702337 0.00010314025 0.030423313
-0.12246214 0.0014091544 0.030641366
-0.11894404 -0.0003991155 0.030542972
-0.0015069395 -0.060955375 0.028356722
-0.0002990216 -0.061582617 0.028360056
-0.076475292 -0.014301218 0.029780339
-0.0012365133 -0.053083822 0.028399304
0.0017605573 -0.054592639 0.028303515
-0.10760354 0.0026067197 0.030977303
-0.10663606 0.0020205118 0.031014744
-0.0018559992 -0.0520432 0.029093344
-0.087478571 0.00012039952 0.030886093
0.0007854104 -0.045414649 0.029252889
-0.072704576 0.00036665797 0.031054292
-0.034312859 -0.019483052 0.030410253
-0.032371864 -0.020469569 0.030371821
-0.00097694993 -0.03664472 0.029776389
-0.05718565 0.00017986074 0.031465981
-0.002364248 -0.028123915 0.030465068
-0.00076763332 -0.028943807 0.030433072
-0.045414463 0.0011143647 0.03141376
-0.044488244 0.00064105541 0.031394728
-0.0024456829 -0.021025866 0.030589869
-0.0031562299 -0.019971594 0.031336904
-0.0016753525 -0.014474183 0.030930147
-0.029331647 0.00049224123 0.03218592
-0.028000273 -0.00022843853 0.032159984
-0.020113036 0.0019771978 0.031759605
-0.019155622 0.0014769584 0.031749893
-0.00056410581 -0.0012158789 0.032042406
-0.0022975057 -0.14377567 0.024450399
-0.00075440109 -0.12027954 0.02585586
-0.00012357533 -0.12140789 0.025219204
0.0021317899 -0.12175287 0.025763098
-0.00084514916 -0.10942569 0.026171565
0.0020218641 -0.11092447 0.026140247
0.0013887286 -0.10976963 0.026741656
-0.00065618753 -0.098008335 0.027438806
-1.0669231e-05 -0.09915299 0.026804609
0.0012201965 -0.099791914 0.026803197
-0.016672403 -0.079898365 0.028055081
-3.0621886e-05 -0.088485837 0.027738078
-0.0026042908 -0.077392213 0.028379504
0.00027605891 -0.078891225 0.028347956
-0.0011042655 -0.069256842 0.028576454
-0.0001359731 -0.069738455 0.028553626
0.002134189 -0.070865087 0.028450597
-0.080572337 -0.01864811 0.031152559
0.0012254864 -0.060872205 0.029681748
-0.10730495 0.0032002721 0.031655714
-0.0021927804 -0.051117629 0.029768532
-0.0009598881 -0.051762052 0.029763328
0.00027412176 -0.052387759 0.029740851
-0.073438905 -0.013619207 0.031766251
-0.017694958 -0.042326435 0.030696768
1.257658e-05 -0.044284411 0.029966082
-0.087216206 0.0014239978 0.032270815
-0.0029360354 -0.04209657 0.030774282
-0.0016463101 -0.042713195 0.030725606
-0.071772948 0.00065446645 0.03172908
-0.022162624 -0.024940133 0.030807439
-0.038947992 -0.015656352 0.031926721
-0.029227063 -0.020569604 0.031637412
-0.059440248 0.0020498075 0.032236807
-0.0033887774 -0.026895821 0.0312148
-0.056985274 0.0015189238 0.032861736
-0.055676632 0.00079078227 0.032885335
0.00066938996 -0.028284453 0.031863488
-0.042605579 0.00036410615 0.032085065
-0.0039247423 -0.01891534 0.032106981
-0.030943826 0.0020127781 0.032936085
-0.018310755 0.001696609 0.032498185
-0.016372994 0.00068980455 0.032456931
-0.015465669 0.00018908828 0.032479119
-0.0023158789 0.0002335161 0.032938015
-0.0020148009 -0.1305161 0.02586065
0.00020086765 -0.13165355 0.025821367
0.0011832714 -0.13216236 0.025804983
0.0022076219 -0.12018893 0.026964761
-0.00080515444 -0.10784627 0.027385395
0.0007840991 -0.10865651 0.027361767
-0.0016308129 -0.096677609 0.028044771
-0.021412224 -0.085640796 0.028980086
-0.0012851506 -0.087058187 0.028409695
0.0015535057 -0.08773607 0.028972335
-0.15231037 0.00060430821 0.031790048
-0.00066234171 -0.077646479 0.029010655
0.0002989769 -0.077370554 0.029649561
-0.1364243 0.0020837593 0.032385893
-0.10265194 0.002168268 0.033025932
-0.10169132 0.001758432 0.032928091
-0.10036537 0.0010380223 0.032942086
-0.018367425 -0.041297272 0.031456131
-0.015834734 -0.042560451 0.031365611
-0.082158782 0.00032084621 0.033528283
0.00021164119 -0.042910621 0.031344935
-0.069647059 0.0010001399 0.033126615
-0.039314672 -0.014728736 0.032613911
-0.037349895 -0.015720829 0.032544244
-0.034472622 -0.017229661 0.032531042
-0.033500537 -0.017757438 0.032540768
0.0011670142 -0.035601184 0.031855211
-0.05480805 0.0010218583 0.0336194
-0.053811729 0.00051480159 0.033593502
-0.052858368 3.2935292e-05 0.033559214
-0.04015819 0.00046777725 0.033514295
-0.0016692877 -0.011698849 0.033863071
-0.013420835 0.00051781908 0.03390329
0.00072255731 -0.14201778 0.026662799
0.0010305941 -0.14218947 0.026667183
-0.0025894791 -0.12860227 0.027052719
-0.00066764653 -0.12873542 0.027570425
0.0012899637 -0.12976304 0.027537076
-0.0013082922 -0.1175837 0.02766878
-7.006526e-05 -0.11820367 0.02763964
0.00093548 -0.11791102 0.028214091
-0.00046098232 -0.10642125 0.028603634
0.00082187355 -0.10708687 0.028576206
-0.00068877637 -0.096377783 0.028655361
-0.0015600324 -0.085342787 0.029655218
0.00026412308 -0.086291924 0.029647645
-0.0025434941 -0.084040307 0.030290527
0.001261279 -0.086031079 0.030258881
-0.14969429 0.00086200831 0.0329854
-0.00038154423 -0.076243415 0.030294579
0.0012563169 -0.077096261 0.030275896
-0.14780696 0.00058542518 0.033646911
0.00057302415 -0.075957909 0.03092715
-0.13292474 0.0010010134 0.033011291
-0.0021944493 -0.065646559 0.031218061
-0.0014966875 -0.066789851 0.030569956
0.00041550398 -0.067014873 0.031194091
-0.1308054 0.00073448103 0.033577986
-0.12035644 0.0033141794 0.033283222
-0.11743943 0.001870282 0.033188362
-0.11504079 0.00092619099 0.033533983
-0.086105272 -0.013608247 0.033331066
-0.078403205 -0.017505873 0.033129346
-0.0007763952 -0.057548493 0.031702463
0.0005979538 -0.058280766 0.031666558
0.0012150705 -0.059357837 0.031008216
-0.09846203 0.00074309856 0.033625737
-0.097250044 0.00012841262 0.033610564
-0.098829389 0.0017071292 0.034287598
0.00049322844 -0.049552806 0.032479923
-0.084753349 0.0016130041 0.033638138
-0.083478466 0.00093717501 0.033642944
-0.04757677 -0.017574433 0.032965101
-0.031249754 -0.026000831 0.032672796
-0.024542823 -0.029468436 0.03254769
-0.021982573 -0.030795541 0.032492042
-0.081264019 0.00059648976 0.034223195
-0.080273077 4.4282526e-05 0.034248561
-0.051828809 -0.014645275 0.033734724
-0.050526381 -0.015348185 0.033727549
-0.034792423 -0.02339245 0.033370789
-0.032938614 -0.024371706 0.033355556
-0.031790435 -0.024981979 0.033347972
-0.029363163 -0.026239011 0.03330864
-0.028258555 -0.02680568 0.033287209
-0.024623275 -0.028714191 0.033265449
-0.022844724 -0.029619783 0.033204176
-0.00085732341 -0.040997192 0.032842726
0.00043976307 -0.041592963 0.032763071
-0.031707741 -0.017961454 0.033200193
-0.067260593 0.0011503696 0.034521524
-0.065046772 -4.7691166e-05 0.034533609
-0.03937415 -0.013236642 0.034009349
-0.0060902834 -0.030432537 0.033421654
0.00093789399 -0.034056269 0.033299435
-0.052936889 0.00078686699 0.034281678
-0.050062165 -0.00062022358 0.034172416
-0.033685379 -0.0091243125 0.033914186
-0.05028978 0.0002011992 0.034899708
-0.045322068 -0.0024431609 0.034857463
-0.041108131 -0.0045961365 0.03477459
-0.0040087104 -0.023720361 0.03408134
-0.040564515 0.0013856851 0.034246858
-0.039333478 0.00075280294 0.034236688
-0.037484728 0.00051017478 0.034915514
-0.036513463 2.5846064e-05 0.034883127
-0.034597553 -0.00098621473 0.034862064
0.00042207539 -0.019733012 0.033473417
-0.026064485 0.00081318244 0.0343724
-0.024190135 0.00059757009 0.035036072
-0.020359337 -0.0014362894 0.034994308
-0.0027676299 -0.010486238 0.034658853
-0.0004735589 -0.012400761 0.033913732
-0.013567805 0.0012131557 0.034722339
-0.00037863106 -0.0055578649 0.034453623
0.00071324408 -0.14033106 0.027755985
0.00097565353 -0.12877196 0.028120607
-0.00027538836 -0.12732081 0.028735125
0.00032089651 -0.11680062 0.028819818
-0.00064213574 -0.11548859 0.029445115
-0.0010392368 -0.10534187 0.029247552
0.00053623319 -0.10613508 0.029184589
-0.0026599318 -0.093763061 0.029927379
-0.00095385313 -0.094663411 0.029893637
0.001576215 -0.095170274 0.030486435
-0.0016267896 -0.083718009 0.030903589
4.298985e-05 -0.084596477 0.030900184
0.00035217404 -0.084763035 0.030904226
-0.14687496 9.964942e-05 0.033653367
-0.14606945 7.1131391e-05 0.033958632
-0.14498605 -9.9616824e-05 0.03426785
-0.14433572 -0.00041827047 0.034232136
-0.1288971 0.00047800597 0.034225624
-0.12811507 6.726943e-05 0.034224629
-0.0028451532 -0.064554051 0.031906597
-0.11821924 -0.0042049186 0.034646653
-0.11506437 -0.0059311576 0.03466922
-0.10959017 -0.008711569 0.034538805
0.00068224967 -0.065641321 0.032520019
-0.10757761 -0.0017225295 0.034357138
-0.021109857 -0.04633233 0.03276236
0.0014896989 -0.057997093 0.032332752
-0.11046016 0.00053037144 0.035066813
-0.099849805 -0.0049776677 0.0348933
-0.016891494 -0.047786884 0.033374436
-0.010134563 -0.051243693 0.033219758
-0.09572731 0.00084073283 0.034929801
-4.2781234e-05 -0.048528604 0.033170354
-0.077174351 -0.00087564811 0.034919191
-0.063718162 -0.0077545606 0.03462873
-0.021185711 -0.029757813 0.033902273
-0.017571308 -0.031576794 0.033783879
-0.010244057 -0.035387553 0.03368393
-0.074288547 -0.0015684888 0.035515338
-0.068232313 -0.004656475 0.035368536
-0.065468661 0.00089661404 0.035232272
-0.058951274 -0.0024803914 0.035117369
-0.042331994 -0.010959975 0.034757651
0.00027857721 -0.033007927 0.034018468
-0.046609774 -0.0017830655 0.03489149
-0.00056102872 -0.025532857 0.034056451
-0.047675319 -0.00053276122 0.035644155
-0.039317794 -0.0048309751 0.035481278
-0.031593986 -0.0088268816 0.035333753
-0.0014732629 -0.024386525 0.034814518
-0.029854909 -0.0026990026 0.03548871
-0.020259254 -0.0077186748 0.03536395
-0.0014232695 -0.017397448 0.03499354
-6.2599778e-05 -0.018103331 0.034950938
-0.022429258 0.000340987 0.035781763
-0.021103241 -0.00036409497 0.035754122
-0.020458154 -0.00067945942 0.035731513
-0.0127891 -0.0046907552 0.03563977
-0.01092495 -0.0056628436 0.035622165
-0.0057050288 -0.0083129145 0.035465613
-0.0035217032 -0.0094277635 0.035419039
-0.002857849 -0.0097637698 0.035402954
-0.0015314743 -0.010412768 0.035358604
-0.0098736286 0.00069753453 0.03611755
-0.0057164803 -0.0015128255 0.036092404
-0.0018915385 -0.0034019202 0.03594809
-0.00061056018 -0.0040783882 0.035934255
0.020240031 0.0040113851 0.036738716
-0.011449888 -0.14592642 0.028063005
-0.010154486 -0.14659254 0.028016737
-0.0057841688 -0.13622296 0.028520308
-0.00796628 -0.13427532 0.029125206
-0.0069802999 -0.13478774 0.029105397
-0.0041937828 -0.13620836 0.029058952
-0.0031770021 -0.13674495 0.029038608
-0.0012805164 -0.13769308 0.028988598
0.00031426549 -0.13847214 0.028905442
0.00062899292 -0.13863164 0.028890572
-0.0015102029 -0.12669882 0.028767074
-0.0048506111 -0.1017694 0.030516637
-0.0026685447 -0.10289222 0.030495726
-0.00069032609 -0.10391644 0.03045271
-0.019842446 -0.083278231 0.031448919
-0.012498528 -0.08715751 0.031390958
-0.0031899512 -0.091951557 0.031195305
-0.0018885881 -0.091830611 0.031794742
-9.2089176e-06 -0.092754245 0.031724505
0.0006596446 -0.093904048 0.031095006
-0.0044735074 -0.081513621 0.031643223
-0.14398979 0.00014357013 0.034893509
-0.13632244 -0.0037418571 0.034706891
-0.13316272 -0.0054408098 0.034717582
-0.14207056 -3.9568171e-05 0.035479616
-0.14177376 -0.00018675532 0.035460439
-0.13695627 -0.002654932 0.035366483
-0.13058603 -0.0059205601 0.035242837
-0.010065794 -0.068145037 0.033067986
-0.0078483969 -0.069284581 0.032996163
-0.0055328012 -0.070510872 0.032984894
-0.1240512 -0.00044245925 0.035410475
-0.1157029 -0.0048308745 0.035326134
2.8118491e-05 -0.064519361 0.033167116
-0.11108349 0.0016159452 0.035734586
-0.10888185 0.00039557181 0.035749938
-0.10756629 -0.00031052157 0.035749231
-0.097715504 -0.0053334907 0.035514917
-0.096430227 -0.005990684 0.035505623
-0.094842434 -0.0068204384 0.035489656
-0.093531728 -0.0074279867 0.035400633
-0.0044152141 -0.053493261 0.033833973
-0.0015189797 -0.054957017 0.033763833
8.8080764e-05 -0.055751979 0.033712119
-0.093770057 0.00058638304 0.035566349
-0.088688545 -0.0020491276 0.03548805
-0.0098262429 -0.042740993 0.03402856
-0.0005941838 -0.047485828 0.033853892
-0.093480945 0.0004619956 0.035564877
-0.091727853 0.00025607646 0.036213275
-0.090677097 -0.00029107369 0.03620531
-0.090053946 -0.00061039627 0.036189184
-0.08202827 -0.0047868397 0.036068391
-0.080324464 -0.0063349567 0.035302926
-0.0772525 -0.0072451532 0.035995241
-0.074898303 -0.0083919689 0.035886984
-0.069512323 -0.01189046 0.03508823
-0.066677742 -0.012684483 0.035784315
-0.0028390437 -0.04557962 0.034559347
-0.0018687546 -0.046083063 0.034546301
-0.078005046 0.00032346137 0.035602726
-0.071800917 -0.0029464997 0.03553097
-0.070508629 -0.0035993755 0.035513029
-0.064397454 -0.0067139752 0.035363302
-0.0038664937 -0.037946135 0.034265149
-0.00070181489 -0.039601684 0.034228243
-0.076285221 0.00011827052 0.036301035
-0.075010136 -0.00055356324 0.03626762
-0.055470593 -0.010571998 0.035891071
-0.031795591 -0.022735473 0.03540431
-0.025319733 -0.02609998 0.035303574
-0.012002394 -0.033018023 0.035113648
-0.0011703074 -0.038628191 0.034913462
-0.062189251 -1.5698373e-05 0.035843406
-0.051347896 -0.0056524202 0.035668962
-0.050117649 -0.0062839948 0.035659261
-0.03950046 -0.011749651 0.035454527
-0.037254833 -0.012925386 0.03541109
-0.0017906278 -0.031175412 0.0347367
-0.00042867661 -0.031866916 0.03469095
-0.061034046 0.0001443848 0.036493611
-0.058156006 -0.0014610812 0.036521845
-0.056850933 -0.0021111332 0.036495905
-0.053389557 -0.0038921833 0.036439758
-0.052146114 -0.0045307986 0.036409751
-0.048247702 -0.0065132417 0.03631271
-0.044135191 -0.0086326003 0.036247298
-0.005947262 -0.02836448 0.035561368
-0.00081034005 -0.030961744 0.035409845
-0.046178639 -0.00060186163 0.036343802
-0.025317855 -0.011372913 0.035974346
-0.0083547384 -0.020112902 0.035634644
-0.0060725883 -0.021276534 0.035599161
-0.0041276217 -0.022249371 0.035525467
-0.0035620928 -0.022548027 0.035528373
-0.002238974 -0.023251556 0.03551678
-0.011892088 -0.017526675 0.036379237
-0.035006449 0.00059957802 0.036345124
-0.030879527 -0.0015462302 0.036286373
-0.023598149 -0.0053256266 0.036185652
-0.018730871 -0.0078412294 0.036098771
-0.015864871 -0.009305764 0.036033969
-0.0094487146 -0.012590989 0.03587744
-0.0020934641 -0.016393103 0.035757728
-0.032149009 -0.00017845258 0.037042405
-0.029051073 -0.0017511323 0.036965344
-0.02648744 -0.0030973591 0.036934413
-0.025204279 -0.0037506297 0.036892232
-0.022580251 -0.0058050118 0.036103439
-0.014290586 -0.0093410499 0.036662117
-0.013321348 -0.0098344237 0.036625315
-0.011154212 -0.010994427 0.036623638
-0.0066097528 -0.013302486 0.03653118
-0.0056789592 -0.013787314 0.036495637
-0.002673164 -0.015417762 0.036501568
-0.019612588 -0.00045291707 0.036483578
-0.018145122 -0.00054951757 0.037213247
-0.017414935 -0.0016256347 0.036465678
-0.015498526 -0.0025367439 0.036391567
-0.014548473 -0.003047429 0.036377035
-0.013011605 -0.0032023415 0.037132345
-0.0074587017 -0.0066547692 0.036197789
-0.0059765503 -0.0067856051 0.036949016
-0.0048581958 -0.0080746599 0.036215954
-0.0035986677 -0.0087199137 0.036179949
-0.0027108863 -0.0084957108 0.036905017
-0.0019973889 -0.0095467046 0.036149554
-0.0074070469 3.7699938e-05 0.036882624
-0.0032120273 -0.002034232 0.036722589
-0.0022428408 -0.0025274716 0.036685973
-0.0084030777 -0.13281377 0.029995458
-0.0021355152 -0.13562387 0.030153001
-0.0017140061 -0.13668147 0.029595781
-0.00027731061 -0.13736221 0.029526887
-0.00085100532 -0.12538999 0.029913347
-0.00048433244 -0.1247488 0.030475337
0.0008097887 -0.12543142 0.030459726
-0.00062677264 -0.11389214 0.030637467
-0.00026753545 -0.11408114 0.03063472
-0.0031062812 -0.11176918 0.031241283
-0.02464895 -0.089097276 0.032649875
-0.0019067079 -0.10090004 0.032298516
-0.00098772347 -0.10136036 0.032285657
-0.00053736567 -0.10239127 0.031666301
-0.017866939 -0.082725339 0.032642152
-0.0038961321 -0.090001523 0.032459747
-0.00096279383 -0.091506161 0.032395154
-0.012821659 -0.075648062 0.033052653
-0.0057845116 -0.07926219 0.03291497
-0.0012306869 -0.08163514 0.032845169
0.00058120489 -0.082512848 0.032777987
-0.0015911609 -0.080661841 0.033494372
-0.0003258884 -0.081297003 0.033444624
-0.0039045811 -0.07056918 0.033590287
-0.13925406 3.7464313e-05 0.036734205
-0.13601564 -0.001631239 0.03667032
-0.13345298 -0.0029567508 0.036625165
-0.12905352 -0.0059799841 0.035896994
-0.015527472 -0.064538769 0.033799659
-0.01003702 -0.066608042 0.034340546
-0.0078601241 -0.067740291 0.03430789
-0.003007859 -0.071011908 0.03359196
-0.0016962588 -0.071621329 0.033487208
-6.7815185e-05 -0.072485894 0.033471134
0.00079640746 -0.072938502 0.033470616
-0.12406571 0.00024232361 0.036149878
-0.12210906 -0.00071974937 0.036077823
-0.12118244 -0.001250294 0.036081675
-0.12020342 -0.0017693406 0.03608717
-0.11925162 -0.0022313856 0.036054309
-0.10993662 -0.0070516579 0.035881702
-0.0060749799 -0.060573809 0.033932056
-0.0025846809 -0.062386699 0.033886909
-0.00065258145 -0.063402869 0.033835065
-0.12213248 8.7264925e-05 0.036701512
-0.11761206 -0.0022523049 0.036636885
-0.10749441 0.0004390683 0.036406927
-0.10186999 -0.0024725664 0.036314212
-0.10028651 -0.0032360349 0.036243558
-0.089420326 -0.0088897422 0.036071975
-0.081358381 -0.012945138 0.035837449
-0.075334676 -0.016058099 0.035735246
-0.016701072 -0.046383761 0.03472985
-0.010267749 -0.049655057 0.034563228
-0.0028891861 -0.053521112 0.034486998
-0.00060002506 -0.054667085 0.034418002
-0.10547453 0.00015657395 0.037036724
-0.10414815 -0.0004436411 0.036957014
-0.098401949 -0.0034392215 0.036875632
-0.087824941 -0.0089780688 0.036705576
-0.086513378 -0.0095715057 0.036641724
-0.017720565 -0.045110695 0.035428077
-0.011610538 -0.048281193 0.035330351
-0.0086772591 -0.049750775 0.035225108
-0.0063942075 -0.050929844 0.035185438
-0.0054748952 -0.051420495 0.035202485
-0.0044388473 -0.051968135 0.035165589
-0.0012933016 -0.05360049 0.035138555
-0.087851249 -0.0010021869 0.036842886
-0.085261181 -0.0023153126 0.036773343
-0.083991967 -0.0029742885 0.03675656
-0.081771351 -0.0041676741 0.036736581
-0.079442322 -0.0052809305 0.036651351
-0.075621426 -0.0073555522 0.036639627
-0.072142027 -0.0090903006 0.036531474
-0.069539949 -0.010474075 0.036515042
-0.067298539 -0.011536185 0.036400892
-0.065155625 -0.012723815 0.036440298
-0.0100151 -0.041169189 0.035422578
-0.0077299029 -0.04234051 0.035367358
-0.0015713274 -0.045499012 0.035225049
-0.00026881695 -0.046182536 0.035209145
-0.074759647 4.9021095e-05 0.036977913
-0.072167523 -0.0012330748 0.03688943
-0.058785461 -0.0081634335 0.036687452
-0.051958658 -0.011662025 0.036520004
-0.045631066 -0.014919098 0.036416944
-0.04335849 -0.016113225 0.036380611
-0.034715794 -0.020618193 0.03625828
-0.033437721 -0.02123636 0.036215987
-0.0061926842 -0.035246059 0.035641816
-0.0039867759 -0.036417633 0.035658769
-0.0016602874 -0.037633084 0.035613105
-0.07284572 -0.00011413544 0.037584383
-0.066755876 -0.0032401867 0.037440948
-0.064233959 -0.0046213306 0.037460182
-0.061701693 -0.0059026964 0.037395641
-0.059462443 -0.007032007 0.037345953
-0.055888087 -0.0089404434 0.037309319
-0.05331818 -0.010234255 0.037248299
-0.051719755 -0.011061978 0.037214763
-0.050488353 -0.011708498 0.037204247
-0.049212821 -0.012358602 0.037196945
-0.038947001 -0.017614365 0.036960613
-0.038017675 -0.018109091 0.036965623
-0.0081885755 -0.033535622 0.036434874
-0.0069425404 -0.034164831 0.036412727
-0.0024091154 -0.036516041 0.036338579
-0.059169129 -0.00014299527 0.037205026
-0.054031454 -0.0027556717 0.037083227
-0.050559357 -0.0046296194 0.037086152
-0.049226724 -0.0053335689 0.037064631
-0.046304211 -0.0068167336 0.036992084
-0.042177208 -0.0089626387 0.036934227
-0.040906824 -0.0095699131 0.036886912
-0.039681941 -0.010192621 0.036864124
-0.01080288 -0.025116123 0.036323935
-0.0095159784 -0.02576264 0.036292281
-0.0069642663 -0.027138792 0.03631109
-0.0028125197 -0.029250503 0.036190454
-0.0015031397 -0.029944688 0.036192987
-0.045225918 -0.00039969385 0.037051126
-0.043923073 -0.0010662638 0.037015315
-0.042701751 -0.0016748756 0.037003774
-0.041351676 -0.0023622997 0.036954977
-0.038522594 -0.0038356371 0.036910348
-0.036916919 -0.0046591349 0.036883831
-0.034290053 -0.0059709027 0.036802415
-0.029598504 -0.0084583312 0.036776088
-0.027622893 -0.0094209202 0.036674529
-0.026690081 -0.0099002682 0.036684025
-0.013189241 -0.016910035 0.036441419
-0.0019863546 -0.022663213 0.036225554
-0.041470073 -0.0015832111 0.037682969
-0.035048224 -0.0049495958 0.037590116
-0.025173068 -0.009999074 0.037382878
-0.022289217 -0.011545692 0.037365187
-0.011608422 -0.016969949 0.037101008
-0.008474119 -0.01864817 0.037098028
-0.0062942505 -0.019785032 0.037074845
-0.0039559901 -0.02094876 0.036981773
-0.030305021 -0.00043189898 0.037730839
-0.027267843 -0.0019718595 0.037667785
-0.021800719 -0.0048242621 0.037566047
-0.020825133 -0.0052828901 0.037521757
-0.011879429 -0.0099120438 0.037362695
-0.0074109286 -0.012249593 0.037306204
-0.003254585 -0.014429443 0.037270732
-0.015637927 -0.0011389107 0.037880462
-0.014695928 -0.0015844479 0.037849285
-0.011445902 -0.0033563785 0.037861474
-0.01057221 -0.0037992895 0.037833668
-0.0095851123 -0.0043122694 0.037832934
-0.0044216812 -0.0069409125 0.037686184
-0.005920887 -6.4965338e-05 0.037608579
-0.004971832 -0.00055979565 0.037593894
-0.0035215095 -0.00064691529 0.038339972
-0.0024815872 -0.001113236 0.038255088
-0.0017784536 -0.13412756 0.03127509
-0.00072048604 -0.12381406 0.031052658
-0.00024646521 -0.11246475 0.031812966
-0.00079844892 -0.11135646 0.03239692
-0.023045227 -0.088320076 0.033834368
-0.004438132 -0.097930565 0.033511918
-0.018870637 -0.08147797 0.033371426
-0.0063869059 -0.087899737 0.033107001
-0.019501284 -0.080384269 0.033991586
-0.0012375712 -0.089789174 0.033640258
-0.013790905 -0.073569462 0.034322146
-0.0022444874 -0.079543151 0.034138877
-0.0012964308 -0.08004351 0.034136899
-0.0070239007 -0.076213568 0.034783114
-0.0060591102 -0.076735944 0.034783728
-0.13766561 -0.00079044141 0.036721528
-0.13731895 -0.0002083662 0.03735996
-0.13411866 -0.0017781584 0.037252173
-0.13197275 -0.0029291324 0.037260182
-0.13097884 -0.0034897719 0.037253287
-0.12517272 -0.0064432109 0.037119601
-0.011650398 -0.064970605 0.034989703
-0.010633454 -0.065521248 0.034972198
-0.0084844679 -0.066646174 0.034981214
-0.0050179213 -0.068442501 0.034906942
-0.12412395 0.0017933864 0.037469402
-0.1203115 -0.00014576502 0.03738131
-0.11932717 -0.00069335103 0.037376665
-0.11604227 -0.0022783177 0.037248477
-0.1150689 -0.0028430112 0.037260178
-0.11162812 -0.004576249 0.037169226
-0.10746136 -0.006781213 0.037144043
-0.10388126 -0.0078686774 0.037715316
-0.017031074 -0.053398512 0.035438832
-0.013180241 -0.05465322 0.036045354
-0.010639787 -0.056748331 0.035370409
-0.0096964836 -0.057240501 0.035357296
-0.0060627013 -0.059075922 0.035260919
-0.0025839061 -0.060873635 0.035186198
-0.001009047 -0.060933404 0.035839576
-0.00038923323 -0.062025279 0.035184339
-0.10968085 -0.0048588477 0.037833448
-0.1054834 -0.007025281 0.037754208
-0.081226543 -0.019500703 0.03727581
-0.0032390654 -0.059746772 0.035846572
-0.1038912 0.00015421957 0.037627764
-0.10225214 -0.00076417066 0.037649766
-0.09937232 -0.0022173263 0.037574332
-0.092007533 -0.0059787091 0.037383173
-0.090711102 -0.0066773165 0.037415463
-0.073753424 -0.01536528 0.037053239
-0.072529271 -0.01525465 0.037706856
-0.087578185 -0.00038942695 0.037514947
-0.086289525 -0.0010814313 0.037507683
-0.085900106 -0.0012724772 0.037470028
-0.081826463 -0.0026418641 0.03810643
-0.079565234 -0.0038065147 0.038034026
-0.076402135 -0.0062022209 0.037330385
-0.073487438 -0.0069256611 0.037954044
-0.063637272 -0.012034178 0.037781231
-0.062627748 -0.012551848 0.037756357
-0.025760256 -0.032293618 0.036386982
-0.022844598 -0.033775318 0.036302708
-0.021757029 -0.034331977 0.036286272
-0.020330533 -0.034333937 0.036944956
-0.019359499 -0.034874365 0.036979102
-0.019032404 -0.03506178 0.036981799
-0.017766282 -0.035720363 0.036947675
-0.01488065 -0.03717342 0.036860317
-0.010053515 -0.039681464 0.036792312
-0.0084358156 -0.041247323 0.036081027
-0.0056004375 -0.041985132 0.036717147
-0.0038832277 -0.043610476 0.036011692
-0.0028996766 -0.044060402 0.035928696
-0.0019546151 -0.044553071 0.035915699
-0.07127922 -0.00022314861 0.03826572
-0.070197858 -0.0012006238 0.03793155
-0.069064565 -0.0021639951 0.037583485
-0.067490913 -0.0022327751 0.03825869
-0.065271482 -0.003286235 0.038123224
-0.062936626 -0.0053079315 0.03745468
-0.060142964 -0.005930841 0.038026292
-0.057915308 -0.0071631856 0.038054369
-0.056603059 -0.0078489855 0.038033888
-0.054078519 -0.0091243237 0.037986655
-0.049559295 -0.011459503 0.037890803
-0.04312408 -0.01478212 0.037766114
-0.040976293 -0.015906572 0.037758894
-0.033837676 -0.020339966 0.036945745
-0.020119086 -0.026671249 0.03735486
-0.0040907562 -0.034898683 0.037041079
-0.054772362 -0.0016992874 0.037844151
-0.051307254 -0.003530629 0.037822656
-0.047416277 -0.0054996535 0.037724033
-0.01281292 -0.023391906 0.037107162
-0.011586577 -0.023990951 0.037068423
-0.0076821297 -0.025996774 0.036976282
-0.0051193833 -0.027381189 0.036978573
-0.0026969016 -0.028604619 0.036918703
-0.054533847 -0.0011218078 0.038557786
-0.051956125 -0.0024673752 0.038535565
-0.051028386 -0.0029594414 0.038537353
-0.045539677 -0.0057492778 0.038383521
-0.042716742 -0.0072235763 0.038369596
-0.041405536 -0.0078931712 0.038319584
-0.040036224 -0.0086189732 0.038299095
-0.037547298 -0.0098939128 0.038262509
-0.0086847916 -0.024783164 0.037718561
-0.0075024962 -0.025369845 0.037694409
-0.0032715499 -0.027596541 0.037642278
-0.038901962 -0.0022306405 0.038351741
-0.036109529 -0.0036673434 0.038329583
-0.030940413 -0.0063436776 0.038229246
-0.029667884 -0.0069964044 0.038202349
-0.0069437921 -0.018742055 0.037783697
-0.004741326 -0.019858062 0.0377458
-0.028223738 -0.00082502514 0.038426284
-0.025734715 -0.0021004975 0.038389023
-0.024399102 -0.0027808286 0.038350746
-0.022218235 -0.0039674342 0.038365975
-0.019302748 -0.005410973 0.038258709
-0.018363193 -0.005907245 0.038262453
-0.017370887 -0.0064617023 0.038275287
-0.010332607 -0.010033749 0.038074661
-0.0080605596 -0.011246715 0.038070999
-0.027001701 -0.0014192015 0.038389098
-0.014914379 -0.007044591 0.038963035
-0.012958303 -0.0079899542 0.038873516
-0.0043210983 -0.012419805 0.038687736
-0.0033760518 -0.012920603 0.038705926
-0.013217382 -0.001686573 0.038591288
-0.011666194 -0.001855284 0.039340992
-0.0097686574 -0.0028610155 0.039322935
-0.0080525428 -0.0043855533 0.038530868
-0.0070518255 -0.0048488453 0.038443297
-0.006096378 -0.0053266101 0.03841326
-0.0046457425 -0.0054397918 0.039164361
-0.0076725185 -0.14284095 0.03131029
-0.0020519197 -0.13316405 0.031840052
-0.00069898367 -0.12218152 0.032203928
-0.001493454 -0.12094894 0.032814082
-0.00073362887 -0.10975402 0.033565544
-0.0019026846 -0.099285625 0.033503618
-0.0009598881 -0.099775188 0.033485658
-0.023328409 -0.087354764 0.034427144
-0.0025839359 -0.098092005 0.034110282
-0.0015799105 -0.098648131 0.03411711
-0.014979124 -0.081848457 0.034459382
-0.011802509 -0.083564095 0.034474
-0.0079765767 -0.085540891 0.034411687
-0.0038075149 -0.087674402 0.034333207
-0.0022830069 -0.088453345 0.034293644
-0.017822117 -0.079665892 0.03519715
-0.0059954822 -0.085734144 0.034951791
-0.14679988 -0.0041541224 0.037389386
-0.0099484921 -0.074771002 0.034903191
-0.0089814812 -0.075250968 0.03487964
-0.0028736889 -0.078440763 0.034785099
-0.14489612 -0.0043774042 0.038029466
-0.14330764 -0.0051917462 0.038004983
-0.013812244 -0.071991853 0.035586249
-0.0073643327 -0.075242653 0.03541201
-0.0035240501 -0.077303648 0.035415903
-0.13512342 -0.00057392009 0.037968438
-0.12937482 -0.0034619933 0.037814494
-0.128365 -0.003963287 0.037772194
-0.12743378 -0.0044867611 0.037793949
-0.12650061 -0.0050161853 0.037800446
-0.12549552 -0.0055748709 0.037816051
-0.12288597 -0.0060348399 0.038323771
-0.12037092 -0.0081814472 0.037695847
-0.012343436 -0.063848644 0.035666175
-0.0056209564 -0.067352913 0.035547312
-0.0040709972 -0.067375481 0.036174778
-0.0033684373 -0.068542041 0.035535533
-0.0024011284 -0.069034025 0.03551247
-0.0014646202 -0.069501795 0.035502631
-0.00052271783 -0.069920056 0.035434444
-0.11351936 -0.0029200502 0.037934676
-0.11224274 -0.0035893135 0.037912298
-0.1083768 -0.0055826046 0.037841603
-0.0068398118 -0.05795151 0.035968605
-0.11611671 -0.00079368614 0.038622249
-0.11512103 -0.0012342464 0.03853672
-0.01168935 -0.054655038 0.036691882
-0.0096902698 -0.055716 0.036661722
-0.007536158 -0.056822211 0.036644462
-0.0051833242 -0.058013663 0.036570106
-0.0038956851 -0.05865936 0.036539443
-0.1006826 -0.0008304622 0.03830396
-0.10038725 -0.00097952783 0.038304303
-0.097492114 -0.0024071895 0.038207576
-0.095875591 -0.0032846853 0.038196318
-0.094360799 -0.0040530004 0.03815962
-0.092716858 -0.0049278904 0.038162373
-0.085619755 -0.0085150395 0.037970759
-0.084351465 -0.0092124846 0.037965085
-0.015183315 -0.044916585 0.036726166
-0.011294782 -0.046948969 0.036659203
-0.010684669 -0.04728508 0.036674026
-0.006468147 -0.049397901 0.036536291
-0.002271235 -0.051603772 0.036496699
-0.098486803 -0.0011762138 0.038923822
-0.087271854 -0.0070018042 0.038728476
-0.082490399 -0.0094757732 0.038640872
-0.080244422 -0.010621469 0.038620528
-0.078026719 -0.011672806 0.038483739
-0.01230143 -0.045673959 0.037344024
-0.011098802 -0.046298511 0.037345108
-0.009097293 -0.047297165 0.037284959
-0.0080997497 -0.047782913 0.037220605
-0.00076271594 -0.051630586 0.037145551
-0.082481757 -0.0015404336 0.038783789
-0.07670106 -0.0045391843 0.038685001
-0.070639357 -0.0076351762 0.038550358
-0.069392897 -0.0083442293 0.038586423
-0.0606957 -0.012827408 0.038411129
-0.031596802 -0.027805399 0.037846096
-0.025826149 -0.030824911 0.037769698
-0.016838722 -0.035440192 0.037608411
-0.010740459 -0.03852766 0.03743891
-0.0085773617 -0.039687052 0.037465815
-0.0039805621 -0.042091817 0.03737691
-0.0030780435 -0.042553544 0.037373576
-0.01150389 -0.037405238 0.038160108
-0.068215802 -0.0011416562 0.038969893
-0.067185335 -0.0016793348 0.038938951
-0.063428074 -0.0035665408 0.038844854
-0.058577053 -0.0060080327 0.038697325
-0.049612701 -0.010698188 0.03857829
-0.044133283 -0.013518274 0.038484018
-0.041244693 -0.015035138 0.038431477
-0.039393023 -0.016017225 0.038430031
-0.038409777 -0.01644918 0.038345609
-0.037477054 -0.016928233 0.038355708
-0.036529526 -0.017435253 0.038341019
-0.035536841 -0.017990436 0.038359765
-0.034515895 -0.018544514 0.038351338
-0.032358326 -0.019654993 0.038324162
-0.031315848 -0.020125326 0.038235351
-0.027137317 -0.022308182 0.038165826
-0.011124127 -0.030594438 0.037913054
-0.0099243224 -0.031192109 0.037873998
-0.0047597438 -0.033799104 0.037720412
-0.0025496185 -0.034994327 0.037743445
-0.06021712 -0.0045198947 0.039485961
-0.050236076 -0.0096566826 0.039283823
-0.034582682 -0.017770156 0.039054073
-0.03363356 -0.01826096 0.039030317
-0.03268493 -0.018754404 0.039016329
-0.025621645 -0.022354275 0.038868945
-0.023063935 -0.023661181 0.03878494
-0.012184903 -0.029267855 0.038585518
-0.010895453 -0.029978365 0.038609713
-0.0067242682 -0.032106757 0.038508181
-0.0054735839 -0.03277155 0.038513288
-0.0032133311 -0.033888206 0.038409039
-0.051716737 -0.0018330254 0.039208714
-0.046546161 -0.0045283809 0.039131328
-0.038236976 -0.0087945871 0.038963109
-0.012962915 -0.021894556 0.03852883
-0.0093737617 -0.02371645 0.038441312
-0.00555484 -0.025702171 0.038411614
-0.0042712092 -0.026392937 0.038394928
-0.034209333 -0.0039794445 0.039017085
-0.031640708 -0.005261153 0.038953044
-0.02202531 -0.010284733 0.03881966
-0.014045872 -0.014359321 0.038650718
-0.012746066 -0.015024055 0.03859926
-0.011799753 -0.015498944 0.038572431
-0.0095178112 -0.016641214 0.038507488
-0.0054308772 -0.018788688 0.038478121
-0.035326488 -0.0026538782 0.039748814
-0.027612448 -0.0066673607 0.039621476
-0.02377744 -0.0085983127 0.039525129
-0.020874485 -0.01017087 0.039519873
-0.0080539882 -0.016782597 0.039281059
-0.0070545897 -0.017288812 0.039247859
-0.021468841 -0.0029496923 0.039809588
-0.019494325 -0.0039107688 0.039708301
-0.011464424 -0.0080280304 0.039546762
-0.0072943792 -0.010239784 0.039542809
-0.010695748 -0.0023806915 0.039350014
-0.011452757 -0.001262255 0.040074788
-0.0072828159 -0.0034492314 0.04002304
-0.0094674081 -0.14115407 0.031954065
-0.0082056075 -0.14178309 0.031912588
-0.0024804175 -0.14471909 0.031783879
-0.0034478903 -0.14333244 0.032311834
-0.0048716664 -0.10683806 0.034278762
-0.0036701113 -0.10744344 0.034251589
-0.0012929738 -0.10867266 0.034174141
-0.004129827 -0.095691904 0.035330437
-0.0028096735 -0.096373312 0.035303902
-0.0188528 -0.078350738 0.035850875
-0.0091976225 -0.083329417 0.035683721
-0.004107222 -0.085904367 0.035542708
-0.017878205 -0.078061394 0.036451217
-0.006339252 -0.084009618 0.036249802
-0.14582555 -0.0030945954 0.038647044
-0.14236008 -0.0041376161 0.039256033
-0.13877949 -0.0067460081 0.038547553
-0.13724779 -0.0067692772 0.039167013
-0.13531484 -0.0076862182 0.03905623
-0.01475139 -0.06993825 0.036886498
-0.014149532 -0.071042649 0.036259081
-0.0039018691 -0.07629618 0.036040992
-0.0026196837 -0.076192744 0.036658097
-0.13034967 -0.0014436804 0.039152116
-0.1293956 -0.001999815 0.039168082
-0.12036878 -0.0066340202 0.038981896
-0.013685957 -0.061673485 0.037040167
-0.011372373 -0.062818997 0.03694671
-0.010121971 -0.063447282 0.036917765
-0.0056132078 -0.065824457 0.036861997
-0.11626545 -0.0079057235 0.039501216
-0.0071764141 -0.064234376 0.037523158
-0.10592677 -0.005314216 0.039126243
-0.018778577 -0.050275549 0.037502781
-0.010078788 -0.054744139 0.037337147
-0.0023094267 -0.058705725 0.037150905
-0.108153 -0.0033291802 0.039766066
-0.10688777 -0.0040611196 0.039792422
-0.095334135 -0.0099743828 0.039541256
-0.021711625 -0.047970049 0.038211334
-0.013608873 -0.052128188 0.038025204
-0.011634052 -0.05316671 0.038002644
-0.0052733123 -0.056483798 0.037923254
-0.094990917 -0.0022397041 0.039517514
-0.092830196 -0.0026093852 0.04015366
-0.089880504 -0.0040998477 0.040062189
-0.0886392 -0.0047425032 0.040069543
-0.087973274 -0.0058479458 0.039386388
-0.084099308 -0.0070588794 0.039953683
-0.081605583 -0.0084092766 0.039960761
-0.071017168 -0.014563728 0.03905933
-0.069449641 -0.014682725 0.039742522
-0.010205954 -0.045250542 0.038662836
-0.009167552 -0.045811266 0.0386599
-0.0035320669 -0.049039088 0.038173981
-0.072004959 -0.0054966174 0.040003583
-0.064631037 -0.0092159025 0.039786559
-0.063983604 -0.010364756 0.039155915
-0.061132677 -0.011111259 0.039783176
-0.060442604 -0.012202498 0.039073374
-0.058866039 -0.012978904 0.039044555
-0.057278045 -0.013070136 0.039695844
-0.019222543 -0.032694474 0.038993243
-0.008565858 -0.038229786 0.038830642
-0.005658403 -0.040452339 0.038067598
-0.063778177 -0.0018645339 0.040180769
-0.062527023 -0.0025695935 0.040208448
-0.058697917 -0.0045132414 0.040117167
-0.02732607 -0.020724446 0.039550658
-0.0077703744 -0.030843839 0.039227929
-0.01012174 -0.022645429 0.039187282
-0.044692136 -0.0047693029 0.039803665
-0.043396078 -0.005445879 0.039779343
-0.034810573 -0.0091723278 0.04034273
-0.031981938 -0.010670409 0.040330511
-0.014588699 -0.020285051 0.039256018
-0.0072834343 -0.023341246 0.039814711
-0.03628356 -0.0014681555 0.04049306
-0.024140239 -0.0076911151 0.040233821
-0.01320906 -0.013388023 0.040075377
-0.0042606443 -0.14208035 0.032870471
-0.092827156 -0.070533291 0.036791518
-0.0028250068 -0.11700216 0.035192266
-0.0026240796 -0.10635918 0.035417274
-0.021672428 -0.085798569 0.036220349
-0.0095489621 -0.092121847 0.036078114
-0.0079757422 -0.092925124 0.036028158
-0.0050715655 -0.094412878 0.035975415
-0.010443732 -0.090848997 0.036672048
