# .PCD v0.7 - Point Cloud Data file format
VERSION 0.7
FIELDS x y z
SIZE 4 4 4
TYPE F F F
COUNT 1 1 1
WIDTH 1340
HEIGHT 1
VIEWPOINT 0 0 0 1 0 0 0
POINTS 1340
DATA ascii
-0.1390245 -0.65512961 0.04332564
-0.3022247 -0.65443552 0.043985128
-0.29452255 -0.6543926 0.043933958
-0.28798556 -0.65444148 0.043983206
-0.27431157 -0.65444899 0.043993149
-0.25588351 -0.65441883 0.04397846
-0.23100089 -0.65438819 0.043940093
-0.2161414 -0.65441328 0.043947261
-0.21579246 -0.65442574 0.043952804
-0.21477695 -0.65441513 0.043958828
-0.19885425 -0.65445387 0.043996882
-0.19364387 -0.65436792 0.043896213
-0.18521506 -0.65438408 0.043925568
-0.18448685 -0.65441239 0.043939725
-0.18024732 -0.65440941 0.04394985
-0.17692015 -0.65441233 0.043942563
-0.17238829 -0.65444046 0.043994494
-0.17148039 -0.65444303 0.043977659
-0.16667101 -0.65443563 0.043979712
-0.16287486 -0.65443814 0.04398125
-0.15890297 -0.65443343 0.043971606
-0.15785693 -0.65444779 0.043990321
-0.10488478 -0.64743829 0.043343749
-0.14735898 -0.6260339 0.043482888
-0.13181281 -0.62604308 0.043483566
-0.15325639 -0.61925417 0.043779638
-0.10678074 -0.6198644 0.043024328
-0.10468958 -0.61988556 0.043050677
-0.14366309 -0.70926028 0.044230569
-0.10237782 -0.70920533 0.044164825
-0.44930792 -0.69896233 0.044106442
-0.35031375 -0.6981743 0.044623647
-0.3482846 -0.69821 0.044658117
-0.34648496 -0.69890332 0.044057105
-0.3459909 -0.69892353 0.044082485
-0.33554709 -0.69892538 0.044076249
-0.32513905 -0.69888788 0.044055309
-0.31679296 -0.69822341 0.044680145
-0.3083241 -0.69893265 0.044067755
-0.30432767 -0.69895661 0.044107981
-0.29755795 -0.69866818 0.044248238
-0.29323748 -0.69899803 0.044142675
-0.29019362 -0.69889414 0.044045553
-0.28462121 -0.69889742 0.044066876
-0.28206369 -0.69897848 0.044150129
-0.28169203 -0.69898981 0.044142332
-0.26532084 -0.69816411 0.04457866
-0.25861639 -0.69843102 0.044441745
-0.25798601 -0.69887376 0.044022337
-0.25183475 -0.69817072 0.044604853
-0.24638277 -0.69858301 0.044370636
-0.24565467 -0.69821221 0.044632856
-0.23814964 -0.69817603 0.044622909
-0.23778547 -0.69818151 0.044622574
-0.18476845 -0.69896698 0.044114035
-0.10301672 -0.69893092 0.044052284
-0.39325401 -0.68800253 0.044909909
-0.3258667 -0.68869913 0.044319168
-0.3118059 -0.68800759 0.044924639
-0.26162124 -0.68875104 0.044353109
-0.38850406 -0.68797165 0.044907041
-0.10817557 -0.687958 0.044871628
-0.10388732 -0.68796951 0.044897478
-0.10435479 -0.67931896 0.044367675
-0.39170933 -0.67858034 0.044959623
-0.36243534 -0.67857224 0.044956714
-0.13756579 -0.67854136 0.04489943
-0.10795605 -0.67858404 0.044959273
-0.4404721 -0.66997337 0.044733457
-0.25488636 -0.66992974 0.044687185
-0.44047198 -0.66214699 0.044204239
-0.41450721 -0.66217762 0.044214699
-0.4054535 -0.66221923 0.044251628
-0.3994002 -0.66221243 0.044274203
-0.34382808 -0.662175 0.044217762
-0.2951681 -0.6621744 0.044214021
-0.28037718 -0.66219205 0.044220179
-0.26988563 -0.66211522 0.04416614
-0.22516859 -0.6621989 0.044233192
-0.10538194 -0.6621843 0.044222988
-0.44457719 -0.66142893 0.044790115
-0.4336327 -0.66143531 0.044819601
-0.40217301 -0.66143996 0.044797953
-0.38317659 -0.66144198 0.044810649
-0.36146149 -0.66149729 0.04486452
-0.34954393 -0.66144156 0.044797681
-0.16289966 -0.66145813 0.044810627
-0.13905554 -0.66145134 0.044801664
-0.13874389 -0.66144478 0.044794414
-0.10564998 -0.66143936 0.044798791
-0.25217539 -0.65369284 0.044538736
-0.24375039 -0.65369254 0.04455588
-0.22411978 -0.65370959 0.044585403
-0.21040757 -0.65367675 0.044534907
-0.20551503 -0.65370989 0.044554446
-0.19814448 -0.65374506 0.044610269
-0.18810365 -0.65369755 0.044556357
-0.18198034 -0.65371639 0.044560395
-0.16511835 -0.65366131 0.044519149
-0.16434592 -0.65366656 0.044510063
-0.16322337 -0.65369761 0.044552844
-0.15823756 -0.65371811 0.044585891
-0.1578854 -0.65372694 0.044590712
-0.15682392 -0.65372378 0.044600062
-0.10455838 -0.64600801 0.044568926
-0.10576559 -0.63834661 0.044817016
-0.10423493 -0.63837439 0.044853188
-0.10539629 -0.63220704 0.044088669
-0.14927427 -0.62530524 0.04408773
-0.14738396 -0.62533844 0.044118784
-0.14239301 -0.62536186 0.044150058
-0.13771106 -0.62462813 0.044746771
-0.12686105 -0.62466711 0.044795852
-0.10447448 -0.62468272 0.044807296
-0.11454631 -0.71802652 0.045623735
-0.33044654 -0.69739568 0.045132998
-0.29368052 -0.69740903 0.045134507
-0.26548168 -0.69743526 0.045138676
-0.18516298 -0.69743168 0.04517436
-0.45184138 -0.69667524 0.045700364
-0.45064366 -0.68718803 0.04539559
-0.43935055 -0.68724543 0.045476522
-0.41811174 -0.68726814 0.045495946
-0.37345693 -0.68722683 0.045472033
-0.36937243 -0.68722087 0.045419306
-0.36055645 -0.68716383 0.045366675
-0.3039321 -0.68719757 0.045413077
-0.18028818 -0.6872049 0.045432568
-0.10283098 -0.68720847 0.045435235
-0.45118517 -0.68641204 0.045899607
-0.45085365 -0.68638963 0.045890141
-0.42492017 -0.68647158 0.04599721
-0.40514898 -0.68646276 0.045980301
-0.40266564 -0.68642807 0.045980189
-0.39939946 -0.68647379 0.045994923
-0.38455114 -0.68644971 0.045989536
-0.36936581 -0.68644875 0.045953311
-0.28425166 -0.68641686 0.045912858
-0.27601859 -0.6864807 0.045999892
-0.21946901 -0.6864388 0.045955539
-0.14372762 -0.68642187 0.04590803
-0.10666004 -0.68646228 0.045970008
-0.44855601 -0.67780715 0.045483079
-0.440586 -0.67782563 0.045481473
-0.42439431 -0.67781681 0.045503572
-0.3855471 -0.67782259 0.045494705
-0.38111988 -0.67785841 0.045531865
-0.37023172 -0.67787313 0.04555485
-0.35801965 -0.67784423 0.045481775
-0.34365958 -0.67781508 0.045480173
-0.32564571 -0.67778242 0.045460477
-0.25934127 -0.67701292 0.045968626
-0.42140326 -0.66926759 0.045339763
-0.40808615 -0.66929501 0.045363948
-0.39836073 -0.6692183 0.045286052
-0.38974112 -0.66925651 0.045322184
-0.37853006 -0.6692397 0.045311015
-0.37489074 -0.66923338 0.045316145
-0.37197465 -0.66931134 0.045379516
-0.36764413 -0.66931558 0.045374509
-0.35541043 -0.66919202 0.045227103
-0.3506774 -0.66918939 0.045224261
-0.30969474 -0.66918546 0.04522879
-0.37854108 -0.66846913 0.045858733
-0.31474745 -0.66847622 0.045845676
-0.28555939 -0.66845578 0.045838628
-0.27799329 -0.66849941 0.04585664
-0.24446382 -0.66852945 0.045891609
-0.45255154 -0.66072285 0.045402579
-0.43427381 -0.66000283 0.045990303
-0.41516507 -0.66000301 0.045980804
-0.40222782 -0.66001099 0.045992695
-0.38316336 -0.66071051 0.045401659
-0.37188068 -0.66076374 0.045416608
-0.36405626 -0.66076833 0.045500476
-0.32333758 -0.66000485 0.04598964
-0.30243561 -0.66073662 0.04541032
-0.29958022 -0.66066378 0.04533555
-0.2414597 -0.66072798 0.045396898
-0.20361502 -0.66072923 0.045404907
-0.16295309 -0.6607222 0.045403056
-0.10961791 -0.66068786 0.045350775
-0.45351925 -0.65995485 0.045992382
-0.44478929 -0.65996736 0.045979962
-0.43677378 -0.65996164 0.045945387
-0.43394083 -0.65999889 0.045994781
-0.41846168 -0.6599471 0.045945633
-0.40944791 -0.65999037 0.045997862
-0.38316426 -0.65995187 0.045954898
-0.31756109 -0.65999001 0.045971327
-0.23034744 -0.6599254 0.045907397
-0.18198787 -0.65300888 0.045185797
-0.17591752 -0.6529566 0.045142397
-0.15283082 -0.6529367 0.045119856
-0.13723001 -0.65225065 0.045735508
-0.10538417 -0.65223122 0.045744054
-0.10459694 -0.64529771 0.045191843
-0.10577604 -0.6376456 0.045441873
-0.10273157 -0.63767099 0.045473874
-0.1062689 -0.63010508 0.045999646
-0.13164841 -0.6239717 0.045441009
-0.12685819 -0.62399334 0.045455094
-0.10459752 -0.62399191 0.045455981
-0.15123093 -0.61789829 0.045093123
-0.13178845 -0.61786389 0.045048825
-0.10656343 -0.6178295 0.045027304
-0.15091065 -0.71725565 0.046139352
-0.14629832 -0.71727133 0.046177063
-0.13972299 -0.71725559 0.046137445
-0.10443774 -0.71724153 0.046119563
-0.15448193 -0.7165004 0.046684809
-0.14483133 -0.71649379 0.04666907
-0.14191131 -0.716488 0.046666313
-0.11846332 -0.71649474 0.046672311
-0.10963139 -0.71648169 0.046644628
-0.39226332 -0.70546544 0.046864297
-0.10910744 -0.70537758 0.046767939
-0.10152601 -0.70537364 0.046746362
-0.45107487 -0.69591022 0.046221927
-0.43740746 -0.69516116 0.046754327
-0.43130267 -0.69588935 0.046206545
-0.41801238 -0.69516945 0.046796635
-0.41181642 -0.69593132 0.046226639
-0.40877336 -0.69513607 0.046733327
-0.40610826 -0.69514042 0.046737991
-0.39531732 -0.6951344 0.046743147
-0.38516665 -0.69593894 0.046305656
-0.36817023 -0.69512922 0.046724305
-0.36778751 -0.69515753 0.046729337
-0.36065739 -0.69510925 0.046703808
-0.35344106 -0.69550991 0.046473473
-0.32290903 -0.69587672 0.046193849
-0.31960404 -0.69587243 0.046173133
-0.31893769 -0.69583058 0.046156358
-0.31240168 -0.69509012 0.046703205
-0.30631226 -0.69589001 0.046198878
-0.29510391 -0.69584024 0.046155389
-0.28459969 -0.69591939 0.04623872
-0.27981022 -0.6959272 0.04623767
-0.26984885 -0.69583482 0.046130814
-0.26270247 -0.69549322 0.046440408
-0.38163328 -0.6865285 0.046055254
-0.13582309 -0.68648523 0.046000052
-0.45590922 -0.68576461 0.046594702
-0.43900225 -0.68573946 0.046552695
-0.43069482 -0.68572903 0.046555195
-0.40799454 -0.68569016 0.046512462
-0.37736902 -0.68576699 0.046603739
-0.3734116 -0.6857121 0.046560775
-0.36036357 -0.68565816 0.046452269
-0.34530759 -0.68565947 0.046467587
-0.27821732 -0.68568134 0.046476543
-0.20510751 -0.68568116 0.046479724
-0.17085302 -0.68566501 0.046463992
-0.10880173 -0.68571323 0.046498314
-0.20977667 -0.68489617 0.046998564
-0.45360541 -0.67704117 0.046015352
-0.43591794 -0.67706984 0.046057485
-0.40131253 -0.6771071 0.046061654
-0.39597487 -0.67708123 0.04604594
-0.37466207 -0.67711544 0.046136405
-0.3620137 -0.67708707 0.046057701
-0.35803986 -0.67706823 0.046033259
-0.35066864 -0.6770587 0.04601464
-0.34363902 -0.67706418 0.046031661
-0.31665367 -0.6770916 0.046047829
-0.19845475 -0.67703545 0.046014123
-0.44819146 -0.67631006 0.046604402
-0.43227214 -0.67631704 0.046586238
-0.42727613 -0.67632085 0.046583105
-0.41580439 -0.67633176 0.046633527
-0.41357198 -0.67636943 0.046636518
-0.41104278 -0.67632824 0.046599235
-0.40790749 -0.6763646 0.046678934
-0.40425441 -0.67636031 0.046625897
-0.40127859 -0.67635167 0.046607036
-0.39164501 -0.67632371 0.046609811
-0.38547549 -0.67635822 0.046630848
-0.37465996 -0.67634249 0.046656266
-0.3512288 -0.67630661 0.046597462
-0.31663802 -0.67633128 0.046589967
-0.29544672 -0.67631847 0.046591539
-0.2758584 -0.67633909 0.046593435
-0.26649156 -0.67628592 0.046593845
-0.25162029 -0.67633075 0.046591312
-0.2452963 -0.67625451 0.046519037
-0.22466089 -0.6763339 0.046589214
-0.21997806 -0.67633057 0.046594765
-0.2073703 -0.67631316 0.046584342
-0.20165193 -0.67633206 0.046619046
-0.18067653 -0.67635423 0.04660777
-0.17104852 -0.67634654 0.046625979
-0.17069587 -0.67635536 0.046630766
-0.14325236 -0.67634761 0.046617001
-0.14144821 -0.67633408 0.046615992
-0.10722437 -0.67634368 0.046629667
-0.45238066 -0.667768 0.046451088
-0.44115308 -0.66773939 0.046409748
-0.43322137 -0.66780102 0.046466298
-0.43288937 -0.66780496 0.04649068
-0.42396837 -0.66770589 0.046410725
-0.42107773 -0.66778535 0.046467375
-0.41489306 -0.66774297 0.046426617
-0.41024637 -0.66774958 0.046436969
-0.40483236 -0.66776776 0.046466198
-0.40114838 -0.66775322 0.046412356
-0.3979885 -0.6677506 0.046440639
-0.39229208 -0.6677326 0.046449434
-0.38937759 -0.66776729 0.046447404
-0.37453717 -0.66773093 0.046427842
-0.37160948 -0.667844 0.046532515
-0.36771172 -0.66783178 0.046538945
-0.35253301 -0.66701335 0.046997495
-0.35035881 -0.66771817 0.046382636
-0.3426519 -0.66738391 0.046717346
-0.33530426 -0.66771865 0.046396617
-0.3248677 -0.66771328 0.046401177
-0.30933157 -0.66773981 0.046404358
-0.30146155 -0.66777605 0.0464729
-0.29349235 -0.66778123 0.046446182
-0.28550482 -0.66773826 0.04641901
-0.26319364 -0.66776323 0.046463765
-0.25983834 -0.66701627 0.046983648
-0.25122759 -0.6673907 0.046724603
-0.23746708 -0.66779202 0.046448749
-0.20031711 -0.66770804 0.046376385
-0.19505972 -0.66701651 0.046993896
-0.18350236 -0.66700727 0.046982888
-0.44045821 -0.66697574 0.046942595
-0.35936183 -0.66699165 0.04696735
-0.35550025 -0.66697919 0.046976339
-0.35069898 -0.6669988 0.046999283
-0.45846233 -0.66000462 0.046002366
-0.45450571 -0.66004425 0.046030164
-0.40724197 -0.66002399 0.046007294
-0.40691972 -0.66002631 0.046022497
-0.39575616 -0.66000962 0.0460128
-0.35720828 -0.66003513 0.04602962
-0.19933753 -0.66001046 0.04601771
-0.4585138 -0.6592685 0.04658157
-0.45777699 -0.65930074 0.046608873
-0.45525685 -0.65927106 0.046604559
-0.45418 -0.65999132 0.046030764
-0.45386231 -0.65997308 0.046010751
-0.45238212 -0.65922552 0.046549164
-0.44729453 -0.65927154 0.046590418
-0.44661489 -0.65926415 0.046598494
-0.44555464 -0.65928179 0.046602368
-0.44485587 -0.65929562 0.046615057
-0.43999851 -0.65924585 0.046532959
-0.43537766 -0.65921545 0.046514843
-0.43425319 -0.6592716 0.046575855
-0.43325913 -0.65924191 0.046563357
-0.42351076 -0.65927368 0.046590552
-0.42059249 -0.65928853 0.0465996
-0.41541478 -0.65930629 0.046610966
-0.41202757 -0.65928727 0.046604872
-0.40439063 -0.65929228 0.046587788
-0.4022398 -0.65931094 0.046624031
-0.39939424 -0.65928823 0.046604007
-0.39504948 -0.65929908 0.046588551
-0.39273167 -0.65922099 0.046537735
-0.39176083 -0.6592747 0.046563588
-0.38948095 -0.65926063 0.046569504
-0.38720515 -0.65925324 0.046586934
-0.38685742 -0.65924537 0.046572816
-0.38319409 -0.65923285 0.046534091
-0.37739748 -0.65928471 0.046591468
-0.37652212 -0.65929258 0.04660413
-0.37595698 -0.65928167 0.046586506
-0.37177354 -0.65928912 0.046588875
-0.36904702 -0.65928519 0.046610881
-0.36874261 -0.65929878 0.046644364
-0.36549065 -0.65999806 0.04602427
-0.36147875 -0.65932465 0.046646766
-0.3607665 -0.65933049 0.046645191
-0.35830536 -0.65927231 0.046593975
-0.35758311 -0.65927887 0.046602968
-0.34890154 -0.65923202 0.046538472
-0.34523547 -0.65920091 0.046487726
-0.34424865 -0.65922034 0.046536412
-0.34346157 -0.65925884 0.046552677
-0.33540559 -0.65922225 0.046522066
-0.32731357 -0.65931231 0.046608593
-0.32660595 -0.65926051 0.046575259
-0.32549572 -0.65920931 0.046519589
-0.31902936 -0.65927154 0.046583232
-0.31612527 -0.6592539 0.046569172
-0.31146336 -0.65924388 0.046553094
-0.30931365 -0.65922225 0.046538528
-0.30339134 -0.65919161 0.046499904
-0.29958689 -0.65926617 0.046552237
-0.29484716 -0.65928704 0.046590995
-0.28264377 -0.65926522 0.046574425
-0.27561718 -0.65920401 0.046508692
-0.26034784 -0.65927768 0.046599247
-0.25730926 -0.65924317 0.046549831
-0.24325855 -0.65920669 0.046512932
-0.23658478 -0.65920901 0.046520382
-0.23032394 -0.65923691 0.04653734
-0.18099833 -0.65925646 0.046571739
-0.12796372 -0.65922242 0.04651406
-0.14050102 -0.65151447 0.046343848
-0.12941214 -0.65154892 0.046375085
-0.10674322 -0.65153211 0.046359759
-0.14853983 -0.65079015 0.046935283
-0.12865366 -0.65082324 0.046963174
-0.11137559 -0.6508171 0.046978492
-0.10604122 -0.65080762 0.046951417
-0.14931379 -0.64385748 0.046422828
-0.10433126 -0.64386743 0.046412773
-0.14767945 -0.63627166 0.04673972
-0.14543404 -0.63695109 0.046096928
-0.14399153 -0.63691616 0.046046026
-0.13275231 -0.63693082 0.046060674
-0.12808655 -0.63659239 0.046375066
-0.11332724 -0.63696897 0.046099897
-0.11263832 -0.63627136 0.046731647
-0.10650536 -0.63624674 0.046698246
-0.1058195 -0.6362372 0.046690986
-0.10655345 -0.63011515 0.046002753
-0.10553543 -0.6301133 0.046007309
-0.11931352 -0.62939245 0.046603654
-0.11891931 -0.62938714 0.046604123
-0.13672809 -0.62325191 0.046049066
-0.14904471 -0.62260443 0.04675575
-0.14720018 -0.62256569 0.046693671
-0.12659086 -0.62260383 0.046745356
-0.15029027 -0.61652964 0.046408471
-0.14927702 -0.61653095 0.046426281
-0.13513228 -0.61656547 0.046456508
-0.11352517 -0.61651498 0.046385307
-0.11212018 -0.61652052 0.046394464
-0.1110314 -0.6165275 0.046407215
-0.10706408 -0.61650056 0.046400171
-0.10871547 -0.7157039 0.047142334
-0.38147274 -0.7148816 0.047597568
-0.15771329 -0.71491545 0.047651958
-0.1079773 -0.71492958 0.047640003
-0.35592681 -0.70458114 0.047241699
-0.1468254 -0.70464277 0.047313128
-0.1247786 -0.70465142 0.047316507
-0.12124953 -0.70462787 0.047281913
-0.128025 -0.70387781 0.047817919
-0.10140635 -0.70385212 0.04778403
-0.45222777 -0.69435835 0.047281135
-0.45147875 -0.69435662 0.047267061
-0.44567755 -0.69436628 0.047276851
-0.44239163 -0.69436228 0.047248747
-0.44022983 -0.69441068 0.047308609
-0.43986893 -0.69443214 0.047315922
-0.43378967 -0.6943664 0.04728023
-0.43090981 -0.69439828 0.047303606
-0.42839995 -0.69438756 0.047282707
-0.42620721 -0.69441658 0.047316637
-0.42116177 -0.69437349 0.047262084
-0.41802913 -0.69440848 0.047344036
-0.4143745 -0.69440514 0.047289494
-0.40138286 -0.69437504 0.047282949
-0.3952803 -0.69439876 0.047310293
-0.38763067 -0.69443363 0.047373839
-0.37613031 -0.69440132 0.047315832
-0.3717736 -0.69438332 0.047276966
-0.36154377 -0.69435585 0.047257606
-0.36097878 -0.6943444 0.047230471
-0.3533977 -0.69436109 0.04725023
-0.31851795 -0.69432253 0.047209803
-0.31340501 -0.69437027 0.047259506
-0.29934707 -0.69436157 0.047253434
-0.29861325 -0.69438833 0.047265679
-0.29027641 -0.69439554 0.047302447
-0.24169594 -0.69432807 0.047232911
-0.23510636 -0.69438916 0.04725365
-0.23477939 -0.69437975 0.047251504
-0.16663888 -0.69438225 0.047266651
-0.12092117 -0.6943996 0.047296438
-0.45234522 -0.6936028 0.047811475
-0.44602257 -0.6935789 0.047768079
-0.44567373 -0.69358736 0.047779098
-0.44240808 -0.69360584 0.047776554
-0.43702427 -0.69360197 0.047772922
-0.43376094 -0.69359344 0.047787957
-0.43095458 -0.69363403 0.047835942
-0.42836404 -0.69361657 0.047817927
-0.42555296 -0.69361234 0.047824442
-0.42114091 -0.69363838 0.047812711
-0.41796839 -0.6936509 0.047846451
-0.411024 -0.69363415 0.04779714
-0.40155944 -0.69360578 0.047803462
-0.39044493 -0.69365931 0.047822699
-0.387658 -0.69367135 0.047900494
-0.37967491 -0.69366086 0.047858384
-0.37612772 -0.69365877 0.0478522
-0.34260178 -0.69360864 0.047782253
-0.34191415 -0.69363743 0.047819577
-0.33758008 -0.69364119 0.047824387
-0.31235221 -0.69357342 0.04774645
-0.29026872 -0.69364965 0.047824826
-0.28560448 -0.6936211 0.047783047
-0.22218043 -0.69362414 0.047809806
-0.21139821 -0.69361377 0.047808912
-0.20026329 -0.69361424 0.047806952
-0.18978901 -0.69362628 0.047804605
-0.18044329 -0.69363642 0.047822166
-0.17353936 -0.69360554 0.047769114
-0.16237481 -0.69357985 0.047769275
-0.12997188 -0.69361192 0.047784723
-0.10910416 -0.69362485 0.047809899
-0.45593211 -0.68500525 0.047122758
-0.38124487 -0.68502939 0.047150571
-0.45592323 -0.68423021 0.047663715
-0.45042124 -0.68416911 0.047564983
-0.44285616 -0.68498701 0.04708131
-0.43604064 -0.68495315 0.047050752
-0.43534744 -0.68419671 0.047607429
-0.43360749 -0.68488944 0.047024313
-0.43288797 -0.68413061 0.047563687
-0.43034565 -0.68421501 0.047624592
-0.42747375 -0.68494552 0.047049481
-0.42673168 -0.68497008 0.04707795
-0.42416143 -0.68417287 0.047582991
-0.42202672 -0.68495989 0.047065232
-0.4173739 -0.68497407 0.04711036
-0.41411445 -0.68497437 0.047097113
-0.41123056 -0.68491906 0.047019228
-0.40476555 -0.6849646 0.047077041
-0.4019227 -0.6841622 0.047587443
-0.39935833 -0.68493825 0.047051501
-0.39319339 -0.6849221 0.047029741
-0.38815576 -0.68453169 0.047283523
-0.38782156 -0.68491447 0.047044005
-0.38417432 -0.6849156 0.04704266
-0.37296629 -0.68420804 0.047634367
-0.36900041 -0.68493456 0.047022015
-0.36506465 -0.6849072 0.047010683
-0.36053193 -0.6849156 0.047026124
-0.35233793 -0.68468022 0.047220498
-0.34523726 -0.68420279 0.047611933
-0.34493536 -0.68415624 0.047575992
-0.33480781 -0.68455708 0.047308296
-0.33157668 -0.68495297 0.047049865
-0.32870391 -0.68416739 0.047577463
-0.32440311 -0.68496078 0.047064587
-0.31861269 -0.68416703 0.047565371
-0.31536976 -0.6842249 0.047632374
-0.31147021 -0.6841597 0.047562581
-0.30311 -0.68421179 0.047614247
-0.30276057 -0.6842109 0.047602408
-0.29839373 -0.68459165 0.047350228
-0.2951203 -0.68417311 0.047575161
-0.2915819 -0.68422139 0.047626313
-0.28733042 -0.68417662 0.047598768
-0.28352091 -0.68414664 0.047547188
-0.28134805 -0.68419188 0.047593616
-0.27523121 -0.68421501 0.047613282
-0.27283353 -0.68456531 0.047343139
-0.2691609 -0.68417919 0.047581393
-0.24177548 -0.68495709 0.047076438
-0.22301997 -0.68495911 0.047048446
-0.21476309 -0.68423146 0.047655419
-0.20142789 -0.684183 0.047569536
-0.19926782 -0.68420875 0.047590848
-0.17401952 -0.684986 0.047093824
-0.16355382 -0.68420607 0.047600605
-0.15455228 -0.6841836 0.047571789
-0.1131071 -0.68420899 0.047616098
-0.10488965 -0.68419886 0.04759676
-0.44205597 -0.67557687 0.047191232
-0.44140965 -0.67555696 0.047169175
-0.43573946 -0.67555356 0.047140606
-0.42974883 -0.67561734 0.047201004
-0.40785781 -0.6756224 0.047211085
-0.40420613 -0.67562765 0.04718956
-0.39560133 -0.67558265 0.047163941
-0.39161992 -0.67557603 0.047172405
-0.38550037 -0.67562699 0.047214586
-0.35765043 -0.67557567 0.047152556
-0.33269122 -0.67558706 0.047165282
-0.32491559 -0.67557114 0.047138374
-0.32282093 -0.67555588 0.047136463
-0.31662044 -0.67558271 0.0471485
-0.30837598 -0.67555314 0.047122862
-0.30252689 -0.67557985 0.04712519
-0.29140344 -0.6755805 0.047159277
-0.28420255 -0.67552114 0.047085501
-0.28016123 -0.67561966 0.047190644
-0.27372059 -0.67559361 0.047192313
-0.26897162 -0.67561722 0.047199719
-0.26646569 -0.67557174 0.047149438
-0.25171801 -0.67553163 0.047120083
-0.23227942 -0.67556787 0.047156822
-0.23188016 -0.67555839 0.047150314
-0.20774001 -0.67559707 0.047190331
-0.19803858 -0.67555487 0.047123782
-0.19296344 -0.67558563 0.047146335
-0.15657637 -0.6755963 0.047176909
-0.11699149 -0.67556363 0.047138479
-0.45323467 -0.67481607 0.047721963
-0.44832546 -0.67479813 0.047685772
-0.44238639 -0.67483729 0.047726311
-0.44138047 -0.67481971 0.047731567
-0.42690915 -0.67479503 0.047686707
-0.4204824 -0.6748578 0.047757879
-0.41789338 -0.6748392 0.047740217
-0.41536433 -0.67487544 0.047765486
-0.4131856 -0.67487288 0.047745429
-0.41067192 -0.67486036 0.047735024
-0.39810938 -0.67483753 0.047718819
-0.39179862 -0.67480755 0.047693558
-0.38549402 -0.67486793 0.04775263
-0.38037995 -0.67488313 0.047757644
-0.37718564 -0.67489529 0.047819551
-0.37425861 -0.67487228 0.047789712
-0.35769612 -0.67481279 0.047694404
-0.35226324 -0.67482686 0.0476912
-0.35154349 -0.67482686 0.047695812
-0.3436527 -0.67479831 0.047685727
-0.33610773 -0.67489308 0.047766548
-0.33575901 -0.67485368 0.047752611
-0.33354735 -0.67479396 0.047671814
-0.33290285 -0.67480612 0.047698438
-0.312051 -0.67477071 0.047671899
-0.30331716 -0.67483354 0.04771677
-0.30297515 -0.6748414 0.047722153
-0.2914409 -0.67484438 0.047730859
-0.28816059 -0.67483532 0.0477258
-0.27728251 -0.67476904 0.04766174
-0.26002863 -0.67482609 0.047731943
-0.25932312 -0.67482144 0.047703721
-0.25225699 -0.67478836 0.047665864
-0.24593814 -0.67482972 0.047729142
-0.23945321 -0.67483032 0.047704019
-0.23275439 -0.67485416 0.04772542
-0.21998873 -0.67482364 0.047710292
-0.21171014 -0.67484665 0.047732245
-0.20778383 -0.67485851 0.047760069
-0.19016014 -0.67483079 0.047718268
-0.18576308 -0.67482525 0.047703944
-0.12703902 -0.67481345 0.04768889
-0.12279993 -0.67483938 0.047721732
-0.45236984 -0.66705084 0.047043987
-0.44629934 -0.66706049 0.047076263
-0.44594112 -0.66707975 0.047077138
-0.43328032 -0.66706711 0.047049731
-0.41748089 -0.6670208 0.047005877
-0.41203499 -0.66703457 0.047021329
-0.39803183 -0.66703558 0.047037639
-0.39477387 -0.66703945 0.047033049
-0.37451798 -0.66702241 0.04703242
-0.36773062 -0.66707373 0.047122974
-0.35109076 -0.66701311 0.047009032
-0.33561328 -0.66703331 0.047026593
-0.32592112 -0.66704905 0.047035128
-0.32158455 -0.66702795 0.047006954
-0.31441185 -0.66703564 0.04702178
-0.30145279 -0.66700536 0.047002494
-0.28195515 -0.66705328 0.047040302
-0.27770361 -0.66700876 0.047013659
-0.27172333 -0.66702253 0.047008861
-0.24443662 -0.66704994 0.047041003
-0.23754551 -0.66703981 0.04701649
-0.21302675 -0.66703457 0.047006227
-0.16951133 -0.66702843 0.047024332
-0.12551036 -0.66704416 0.047040716
-0.12041387 -0.66703278 0.047028262
-0.45240462 -0.6663354 0.047636211
-0.44627014 -0.6662997 0.047621831
-0.44083261 -0.66632164 0.047591809
-0.43345487 -0.66629112 0.047601596
-0.42864057 -0.66630232 0.047603648
-0.42612365 -0.66625494 0.047574837
-0.42393667 -0.66632813 0.047631547
-0.42100975 -0.66630507 0.047590394
-0.41744679 -0.66628551 0.047582198
-0.4075554 -0.66631293 0.047626391
-0.40141636 -0.66628397 0.047586977
-0.39801186 -0.66630888 0.047603395
-0.39478421 -0.66629881 0.047613803
-0.39229804 -0.66699308 0.047001734
-0.383596 -0.66630024 0.047598086
-0.37854984 -0.66625941 0.047536474
-0.37456393 -0.6662966 0.047614794
-0.36839917 -0.66634667 0.047678448
-0.36775193 -0.66634095 0.047680862
-0.35179555 -0.66630161 0.047573641
-0.34433171 -0.66624165 0.047537819
-0.34319183 -0.66625774 0.047559369
-0.33563361 -0.66631299 0.047612082
-0.32515761 -0.6663059 0.047603033
-0.3215946 -0.66628718 0.04759185
-0.31908119 -0.66624838 0.047557615
-0.31872383 -0.66625816 0.047563896
-0.30938175 -0.66630155 0.047608934
-0.30899501 -0.66628891 0.047591995
-0.3053903 -0.66631514 0.047616575
-0.30148783 -0.66625166 0.047549017
-0.28841707 -0.66629779 0.047609802
-0.27873719 -0.66622174 0.047526896
-0.26961434 -0.66630691 0.047609132
-0.26285037 -0.66627693 0.047594011
-0.25982744 -0.6662755 0.047560595
-0.24446082 -0.6662991 0.047593262
-0.23181739 -0.66627491 0.047585297
-0.21297601 -0.66629076 0.047563162
-0.2091358 -0.66623998 0.047534194
-0.20008703 -0.66623288 0.047515679
-0.18680122 -0.66627872 0.04757648
-0.18356833 -0.66626287 0.047559571
-0.1568187 -0.66627628 0.047557328
-0.14457193 -0.66627449 0.047558405
-0.11580251 -0.66628861 0.047575254
-0.10600279 -0.66630828 0.047610212
-0.44025674 -0.65854681 0.047160998
-0.42728019 -0.65853822 0.047160462
-0.42673799 -0.65850276 0.04711717
-0.42066756 -0.65854239 0.047168911
-0.41835833 -0.65845937 0.047104493
-0.41222173 -0.65853757 0.047171809
-0.40945664 -0.65852296 0.047146641
-0.40446067 -0.65855378 0.047173228
-0.39559811 -0.65853357 0.04716051
-0.39290792 -0.65851051 0.047146123
-0.38969883 -0.65852529 0.047154874
-0.38721153 -0.65849233 0.047154415
-0.38372374 -0.65855122 0.047166009
-0.37808543 -0.65850776 0.047129624
-0.37742171 -0.6585331 0.047159001
-0.37341318 -0.65849018 0.04711191
-0.37193811 -0.65854895 0.047165461
-0.36909866 -0.65851319 0.047162443
-0.36618352 -0.65859032 0.047224358
-0.36542508 -0.65856391 0.047215536
-0.36149198 -0.65859747 0.047226384
-0.35763729 -0.65853459 0.047185954
-0.35356435 -0.65851921 0.047129553
-0.35284495 -0.65850383 0.047117792
-0.34943306 -0.65847832 0.047091205
-0.34888262 -0.65851074 0.047120843
-0.3454659 -0.65848088 0.04709731
-0.34441173 -0.65848422 0.047105506
-0.3372218 -0.65850353 0.047140531
-0.33648622 -0.65851283 0.047140338
-0.33577725 -0.65850335 0.047129676
-0.33058691 -0.65848625 0.047125969
-0.32916901 -0.658494 0.047116842
-0.32844761 -0.65850919 0.047144387
-0.32748717 -0.65855598 0.047181524
-0.32425457 -0.65847242 0.047103114
-0.32375452 -0.65849555 0.047127482
-0.31346771 -0.65850037 0.047129631
-0.30821654 -0.65849346 0.047112096
-0.30787635 -0.65850711 0.047115412
-0.29964137 -0.65853995 0.047179982
-0.29455596 -0.65853751 0.04716913
-0.29274082 -0.65847069 0.047089368
-0.2872057 -0.65849793 0.047128282
-0.28645119 -0.65850067 0.047109988
-0.28593343 -0.65850157 0.04711524
-0.28281102 -0.65853179 0.047159635
-0.28012389 -0.65847522 0.047115345
-0.27936 -0.65850759 0.047133025
-0.27656344 -0.6585573 0.04718278
-0.27237448 -0.65851331 0.047129147
-0.26632997 -0.65854496 0.047155656
-0.26451427 -0.65854245 0.047174122
-0.26238722 -0.65846854 0.047112595
-0.2573207 -0.65851647 0.047132462
-0.25339496 -0.65852743 0.047143128
-0.25160134 -0.65852243 0.047157019
-0.24506724 -0.65854698 0.047155298
-0.24475138 -0.65854102 0.047152124
-0.24380521 -0.65852356 0.047117092
-0.23710713 -0.65854055 0.04716881
-0.22564003 -0.65853262 0.047155675
-0.216289 -0.65851021 0.04713947
-0.2159286 -0.65851396 0.047138728
-0.21125703 -0.65850943 0.047139402
-0.19678134 -0.6584788 0.047095109
-0.19322912 -0.65851355 0.047123805
-0.16223456 -0.65853173 0.047162574
-0.11789117 -0.6585027 0.047118627
-0.40912059 -0.65780199 0.047756288
-0.40448633 -0.65779197 0.047748592
-0.37238896 -0.65778756 0.047742859
-0.37196788 -0.65779144 0.047750104
-0.3691071 -0.65775883 0.04771791
-0.36618033 -0.65787125 0.047820691
-0.36547601 -0.65786338 0.047822777
-0.3499977 -0.65775073 0.047689036
-0.33738503 -0.65776008 0.047706272
-0.32949209 -0.65775526 0.047692053
-0.31943834 -0.65774107 0.047692142
-0.31883615 -0.65777242 0.047715776
-0.31575137 -0.6578083 0.047748152
-0.31109002 -0.65778053 0.047718447
-0.30860406 -0.65776265 0.047699265
-0.30313998 -0.65773517 0.047653075
-0.29981062 -0.65779012 0.047741063
-0.29637849 -0.6577732 0.047722034
-0.29526997 -0.6578272 0.047767621
-0.29493463 -0.65782475 0.047763359
-0.28738865 -0.6577673 0.047720995
-0.28332591 -0.65781802 0.047751263
-0.27943447 -0.65775055 0.047702238
-0.27866659 -0.65779108 0.047739387
-0.27583313 -0.65781283 0.047765914
-0.27123284 -0.6578033 0.047738701
-0.26829439 -0.65773869 0.047672749
-0.26630649 -0.6578089 0.047739532
-0.26386243 -0.6578027 0.047761641
-0.25730503 -0.65779775 0.047738362
-0.25404274 -0.65779322 0.047716711
-0.25252351 -0.65779519 0.047731392
-0.25194687 -0.65779108 0.047731493
-0.24528913 -0.65780973 0.047745243
-0.23919773 -0.65781832 0.047759838
-0.23735094 -0.65782434 0.047761276
-0.23644377 -0.65778571 0.047742717
-0.23203836 -0.65781933 0.047739375
-0.23170927 -0.65781486 0.047732055
-0.23096932 -0.65781647 0.047745943
-0.2262077 -0.65779734 0.047749579
-0.22454423 -0.65780509 0.047741741
-0.2238242 -0.65779752 0.047731102
-0.22090375 -0.65775907 0.047684893
-0.20731223 -0.65781081 0.047752772
-0.20693919 -0.65780753 0.047764003
-0.20441814 -0.65774733 0.047682907
-0.20335101 -0.65776604 0.047712479
-0.19956455 -0.65782619 0.047779091
-0.19363885 -0.65777415 0.047697581
-0.18888135 -0.65778732 0.047716253
-0.18571089 -0.657803 0.047758974
-0.18387538 -0.65779501 0.047725059
-0.18101972 -0.65777248 0.047717229
-0.17742664 -0.65776259 0.047703903
-0.17670979 -0.65776753 0.047705237
-0.17161427 -0.65779722 0.047744121
-0.16219461 -0.65780056 0.047741972
-0.1546526 -0.65778679 0.047708504
-0.15395331 -0.65778118 0.047710072
-0.15053686 -0.65779412 0.047731239
-0.13624701 -0.6577816 0.047701776
-0.12255999 -0.65780646 0.047749098
-0.11289003 -0.65779918 0.047732159
-0.10673933 -0.65777403 0.047699716
-0.14494638 -0.65009373 0.047560528
-0.14145932 -0.65010303 0.047574911
-0.14055756 -0.65006036 0.047527246
-0.12796104 -0.65009242 0.047549855
-0.11571425 -0.65010971 0.04758811
-0.10636627 -0.65008831 0.047550548
-0.14928819 -0.6431585 0.047051717
-0.12263981 -0.64315134 0.047039971
-0.1143331 -0.64316249 0.047046851
-0.10679207 -0.64315385 0.047048952
-0.14249742 -0.64242655 0.047634978
-0.1342001 -0.64240128 0.047613796
-0.12874024 -0.64243531 0.04763722
-0.12750244 -0.64242679 0.047612503
-0.12648082 -0.64242423 0.047623038
-0.11768939 -0.64240432 0.047608357
-0.14766656 -0.63557005 0.047365662
-0.14368382 -0.63551354 0.047300134
-0.13317883 -0.63555503 0.047353741
-0.11590824 -0.63549745 0.047282845
-0.10657273 -0.63554633 0.047332786
-0.10510417 -0.63552672 0.047317818
-0.10222144 -0.63556319 0.047371827
-0.13316311 -0.63486314 0.047986452
-0.11516761 -0.63479829 0.047912721
-0.11125293 -0.63486266 0.04799252
-0.14887016 -0.62871426 0.047276195
-0.14653094 -0.62835693 0.047594056
-0.14132473 -0.62802035 0.047940031
-0.13933213 -0.62866503 0.047218151
-0.13879879 -0.62867343 0.047214858
-0.1365504 -0.62869227 0.047237407
-0.13486254 -0.62800574 0.047897156
-0.13331456 -0.62870872 0.047253076
-0.13176396 -0.62836796 0.047590032
-0.12684976 -0.62866712 0.047233984
-0.12110889 -0.62835419 0.047586214
-0.1182508 -0.62870187 0.047253028
-0.11790106 -0.62870234 0.047256034
-0.1085186 -0.62801874 0.047912177
-0.15149049 -0.62797552 0.047875185
-0.12224387 -0.62799233 0.047895364
-0.10967401 -0.62797767 0.047869951
-0.14942189 -0.62192082 0.047409222
-0.11188979 -0.62191749 0.047390327
-0.10724071 -0.62187612 0.047353681
-0.10670118 -0.62187636 0.047353737
-0.14949471 -0.61585253 0.047085807
-0.14857696 -0.61584932 0.047080353
-0.11464953 -0.61584771 0.047085498
-0.33058995 -0.70312816 0.048348647
-0.28660339 -0.70307183 0.048306081
-0.15039441 -0.70309734 0.048323717
-0.14573067 -0.70310563 0.048344616
-0.12370298 -0.70310163 0.048332591
-0.12013324 -0.70309126 0.048304759
-0.10472 -0.70305556 0.048259337
-0.10001297 -0.70305508 0.048277203
-0.33492276 -0.70234185 0.048857473
-0.33065155 -0.70231968 0.048841137
-0.32528108 -0.70232487 0.048854847
-0.30284756 -0.70230186 0.048815403
-0.25125983 -0.70233041 0.048844796
-0.24760354 -0.70233601 0.048823491
-0.24694075 -0.70228928 0.048814721
-0.23501204 -0.70232707 0.048828077
-0.14493746 -0.70234001 0.048856344
-0.1305858 -0.70229262 0.048801016
-0.12298996 -0.70233303 0.048850719
-0.11577635 -0.70231622 0.04882516
-0.10683604 -0.70229709 0.048788689
-0.10392318 -0.70229584 0.048786193
-0.1025287 -0.70229775 0.048801083
-0.45246154 -0.69248319 0.048603002
-0.43663546 -0.69204479 0.048817668
-0.42328238 -0.69288725 0.048350897
-0.41752928 -0.69213837 0.048904117
-0.4106448 -0.69205278 0.048820473
-0.40820545 -0.69285232 0.04832368
-0.40533945 -0.69284743 0.048324924
-0.40170816 -0.69244063 0.048561424
-0.39522552 -0.69250667 0.048631139
-0.39047611 -0.69250369 0.048616022
-0.3872669 -0.69212717 0.04893893
-0.38419414 -0.69287372 0.048387654
-0.37945688 -0.69215894 0.048943847
-0.37577525 -0.69209725 0.048887223
-0.3713975 -0.69246095 0.048582695
-0.3676424 -0.69258165 0.048477698
-0.36139998 -0.69234258 0.048661586
-0.35445377 -0.69206363 0.04883666
-0.35375279 -0.69243324 0.048548222
-0.34360233 -0.69204789 0.04879263
-0.33752456 -0.69287652 0.048337586
-0.31307158 -0.69285572 0.048326299
-0.27620021 -0.69283843 0.048309866
-0.27048916 -0.69285148 0.048329428
-0.26977611 -0.69284266 0.048323113
-0.24050014 -0.69281489 0.048272151
-0.22579286 -0.69250047 0.048627764
-0.22181821 -0.69207871 0.048853975
-0.2117186 -0.69209343 0.048854306
-0.20777312 -0.69282174 0.048284315
-0.20530944 -0.69285721 0.048350461
-0.19988485 -0.69208121 0.048850819
-0.19021027 -0.69235873 0.048685908
-0.18147469 -0.69285935 0.048339494
-0.18077129 -0.69209051 0.048862986
-0.17676282 -0.69247174 0.048602924
-0.17317073 -0.69207656 0.048828632
-0.1702932 -0.69207311 0.048838899
-0.16199173 -0.69204992 0.048820049
-0.150087 -0.69208914 0.048862871
-0.14609352 -0.69205451 0.048795681
-0.14177608 -0.69210237 0.048867643
-0.13252568 -0.69208896 0.048854608
-0.12892278 -0.69207805 0.048842084
-0.11982548 -0.69285828 0.048345856
-0.11624497 -0.6928584 0.048347052
-0.10869471 -0.69209832 0.048864253
-0.10730152 -0.69209468 0.048872788
-0.10433579 -0.69208771 0.048854161
-0.4504436 -0.68347561 0.048148394
-0.44253528 -0.68348151 0.048178095
-0.43825376 -0.68345571 0.048160989
-0.435736 -0.68340862 0.048131533
-0.4332242 -0.68344796 0.048158232
-0.42705917 -0.68343931 0.048138957
-0.42418414 -0.68343061 0.04813562
-0.41914907 -0.68342257 0.048135493
-0.41696849 -0.68346721 0.048186608
-0.41410467 -0.68345481 0.048179891
-0.40728956 -0.68344837 0.048165485
-0.40439707 -0.68345225 0.048171196
-0.39896113 -0.68342614 0.048130929
-0.39340806 -0.68346542 0.048178181
-0.39280531 -0.68344092 0.048134755
-0.38377506 -0.68343574 0.048160914
-0.38093221 -0.68350607 0.048242766
-0.37698996 -0.68348575 0.048254684
-0.36861768 -0.68340605 0.048094206
-0.36475918 -0.68339157 0.048102494
-0.36034656 -0.68342721 0.048135716
-0.35280526 -0.683411 0.048114851
-0.33476937 -0.68345988 0.048159912
-0.33376825 -0.68338728 0.048098695
-0.31469557 -0.68344796 0.048166901
-0.30329895 -0.68345904 0.048157059
-0.2792255 -0.68346143 0.048166305
-0.25301093 -0.68346214 0.048161395
-0.24143004 -0.68342847 0.048142772
-0.21874891 -0.68339354 0.048090432
-0.18805604 -0.68345696 0.048149157
-0.17374708 -0.68345773 0.048175544
-0.1701014 -0.68339294 0.048092075
-0.158849 -0.6834144 0.048108473
-0.13799143 -0.68346167 0.048158877
-0.12541403 -0.68344259 0.048132371
-0.11965214 -0.68341291 0.048112273
-0.45551512 -0.68269783 0.048721913
-0.44253737 -0.68269676 0.048711669
-0.43823051 -0.682697 0.04871254
-0.42995909 -0.68269515 0.048702266
-0.41049084 -0.68267083 0.048674993
-0.40150994 -0.68266517 0.048673689
-0.39360747 -0.68269086 0.048697479
-0.38779622 -0.68265659 0.048634004
-0.37699771 -0.68273807 0.048783839
-0.37256587 -0.68271351 0.048715983
-0.36860293 -0.68265432 0.048654415
-0.36034781 -0.68266749 0.048682526
-0.35207433 -0.68267173 0.048665162
-0.34519967 -0.68271428 0.048691668
-0.34487733 -0.68271148 0.048711002
-0.32832646 -0.68264633 0.048655327
-0.32363474 -0.68270648 0.048706297
-0.31499735 -0.68270141 0.048701968
-0.31111264 -0.68261659 0.048630901
-0.31034324 -0.6826629 0.048672013
-0.30419344 -0.68270004 0.048697866
-0.3036519 -0.68270308 0.048706234
-0.29129615 -0.68267518 0.048704516
-0.28691199 -0.68267298 0.048684411
-0.27487749 -0.68268967 0.048710261
-0.26050338 -0.68267387 0.048673797
-0.25977626 -0.68268412 0.048692103
-0.24685082 -0.68266696 0.048672639
-0.24141787 -0.68264532 0.048660293
-0.23169334 -0.68266422 0.048655279
-0.22701341 -0.68264252 0.048642214
-0.20967743 -0.68261886 0.048600629
-0.2043266 -0.68267363 0.048655767
-0.20106117 -0.68265545 0.048642725
-0.19281225 -0.68266124 0.048657831
-0.18022822 -0.68265492 0.048652254
-0.17840177 -0.68268579 0.048694074
-0.16646747 -0.68266356 0.048652571
-0.1632161 -0.68269104 0.04868006
-0.15808319 -0.68266606 0.048661917
-0.15446775 -0.68267953 0.048650879
-0.14623123 -0.68268979 0.048669655
-0.14264685 -0.68263304 0.048611023
-0.12897983 -0.68268949 0.048703562
-0.11564667 -0.68270236 0.048703082
-0.45362666 -0.67412812 0.048327535
-0.4236649 -0.6741302 0.048309989
-0.41067186 -0.67414391 0.048338778
-0.40744182 -0.67414051 0.048327349
-0.40383881 -0.67411107 0.048312262
-0.40055907 -0.67405367 0.048246056
-0.39195749 -0.67408586 0.04825544
-0.38546181 -0.67411882 0.048309349
-0.38039279 -0.67410964 0.048292272
-0.37717834 -0.6741299 0.048360407
-0.37420791 -0.67412829 0.04834716
-0.36954427 -0.6741569 0.048369277
-0.36568648 -0.6741001 0.048310317
-0.36130437 -0.67407018 0.048259638
-0.35766509 -0.67407554 0.048248138
-0.35152942 -0.6741057 0.048265196
-0.34366614 -0.67405725 0.048234109
-0.33627015 -0.67412043 0.048310801
-0.3335765 -0.67402864 0.048227042
-0.32746249 -0.67410415 0.048296664
-0.32455775 -0.67408693 0.048282329
-0.31666186 -0.67407024 0.0482422
-0.30801886 -0.67409927 0.04826533
-0.30327898 -0.67412037 0.048304681
-0.29523498 -0.6740647 0.0482371
-0.28814256 -0.67407244 0.048260905
-0.27979329 -0.67412949 0.048313133
-0.26003143 -0.67408884 0.048280854
-0.24523941 -0.67405528 0.04826013
-0.23295708 -0.67409354 0.048274297
-0.22450843 -0.67407942 0.048266768
-0.2200405 -0.6740734 0.048267636
-0.21173106 -0.67408067 0.048278343
-0.20163459 -0.6740939 0.048278976
-0.19266996 -0.67408597 0.04826716
-0.18584429 -0.67406243 0.048248101
-0.16664712 -0.67409921 0.048299249
-0.15629534 -0.67408186 0.048277307
-0.14501984 -0.6740852 0.048245635
-0.12635504 -0.67406791 0.048249181
-0.12202591 -0.6740936 0.048276283
-0.45401683 -0.67333543 0.048853684
-0.43515971 -0.67331904 0.048801225
-0.43158147 -0.67335856 0.048861023
-0.42908791 -0.6733591 0.048854649
-0.42010111 -0.67337078 0.048875593
-0.41496223 -0.67337787 0.048863266
-0.41288224 -0.67336982 0.048858862
-0.40750283 -0.67335808 0.04886863
-0.40061739 -0.67329609 0.04879586
-0.39771757 -0.67334998 0.048847668
-0.39493129 -0.67332864 0.048842937
-0.38035902 -0.67336559 0.048851006
-0.36955193 -0.6734165 0.048921101
-0.36565626 -0.67336249 0.048874307
-0.36126646 -0.67332041 0.048801925
-0.35766771 -0.67330194 0.048790716
-0.35248905 -0.6733079 0.048799157
-0.3518959 -0.6733309 0.04882209
-0.34400573 -0.67331731 0.04881889
-0.34365135 -0.6733042 0.048790827
-0.33670127 -0.67332464 0.048834488
-0.33466518 -0.67335767 0.048849475
-0.33397585 -0.67330271 0.048802551
-0.32204789 -0.67331874 0.048820395
-0.31160191 -0.67327642 0.048751965
-0.30806217 -0.67335641 0.048865534
-0.29107931 -0.67334074 0.048836388
-0.28424713 -0.67334503 0.048847958
-0.2838966 -0.67329752 0.048788149
-0.27979332 -0.6733591 0.048856817
-0.27475092 -0.67336166 0.048839938
-0.27293614 -0.67335868 0.048859451
-0.26825652 -0.67336267 0.048876986
-0.26574218 -0.67333287 0.048816655
-0.26002201 -0.67333919 0.048842516
-0.25203642 -0.67333108 0.048786912
-0.24552724 -0.67335767 0.04885371
-0.23908597 -0.67335379 0.048834119
-0.23334616 -0.67334652 0.048843194
-0.23292987 -0.67335194 0.048838761
-0.22003956 -0.67331904 0.048825931
-0.21571241 -0.67335445 0.048864394
-0.20742713 -0.67335665 0.048868991
-0.19765298 -0.67333513 0.048815802
-0.19481756 -0.67332953 0.048845459
-0.18979385 -0.67331892 0.048817169
-0.18002015 -0.67335367 0.048846148
-0.1706551 -0.67334867 0.048847761
-0.16305652 -0.67332363 0.048798397
-0.1562489 -0.67334431 0.048832987
-0.15117899 -0.67330801 0.048805997
-0.14435479 -0.67333019 0.048801813
-0.14345525 -0.67332977 0.048816688
-0.12135153 -0.67334229 0.048832774
-0.11267262 -0.67332876 0.048823386
-0.10866748 -0.67334735 0.048850782
-0.10512152 -0.67333984 0.048845939
-0.45256558 -0.6655916 0.048198581
-0.44627836 -0.66557896 0.04819636
-0.44161972 -0.66555774 0.048192319
-0.44084266 -0.665582 0.048192509
-0.42035782 -0.6655575 0.04817386
-0.41421595 -0.66553718 0.048150007
-0.4095968 -0.66553217 0.048166528
-0.40447769 -0.66554409 0.048179504
-0.39800072 -0.66558421 0.048188914
-0.39190894 -0.66552734 0.048145767
-0.38899183 -0.66553307 0.048145328
-0.38400376 -0.66555446 0.048169229
-0.37858099 -0.66551286 0.048123237
-0.37453824 -0.66557646 0.048193023
-0.37128657 -0.6656208 0.048253085
-0.37096381 -0.6656127 0.048252981
-0.36770487 -0.66561764 0.048256721
-0.36330718 -0.66556644 0.048185505
-0.36296695 -0.66557473 0.048186302
-0.35900295 -0.66551602 0.048126973
-0.35514879 -0.66551989 0.048137426
-0.35074696 -0.66552961 0.048155479
-0.34641007 -0.66553599 0.048132092
-0.3433978 -0.66551369 0.048119985
-0.34247392 -0.66553348 0.048138306
-0.33559999 -0.66557562 0.048164066
-0.32445911 -0.66554177 0.048151288
-0.31700447 -0.66551673 0.04812891
-0.31420246 -0.66556925 0.04818166
-0.31112438 -0.66554451 0.048141483
-0.30150798 -0.66548067 0.048104517
-0.29427361 -0.66555864 0.048185866
-0.29383078 -0.66557086 0.048170596
-0.28199786 -0.66553563 0.048158031
-0.27731028 -0.66553551 0.04815666
-0.26547414 -0.66554093 0.048164539
-0.25489485 -0.66553539 0.048167381
-0.2509037 -0.66553557 0.048146512
-0.2444213 -0.66555458 0.048159767
-0.23760942 -0.66550809 0.04812621
-0.22209211 -0.66552663 0.0481284
-0.21741177 -0.66550529 0.048115566
-0.21485513 -0.66553289 0.04814608
-0.21301194 -0.66555011 0.048140664
-0.20911199 -0.66549867 0.048100252
-0.20007612 -0.66548109 0.048075125
-0.19686347 -0.66555083 0.048158173
-0.19472365 -0.665537 0.048129514
-0.19146185 -0.66551667 0.048115287
-0.17454207 -0.66554701 0.048152883
-0.17207091 -0.66550404 0.048105601
-0.17126703 -0.66551524 0.048099872
-0.1707976 -0.66551256 0.048115581
-0.15686692 -0.66552562 0.048125729
-0.14888178 -0.66552037 0.048123233
-0.14455239 -0.66553229 0.048116811
-0.13304664 -0.66549468 0.048085239
-0.12910005 -0.66556591 0.048169252
-0.11938002 -0.66555107 0.048174843
-0.11503658 -0.66554737 0.048143145
-0.11257996 -0.66551441 0.048113283
-0.10968312 -0.66551977 0.048127733
-0.10604674 -0.66556418 0.04817453
-0.1045906 -0.66555554 0.048176721
-0.1016873 -0.66555846 0.048178572
-0.45279697 -0.66480404 0.048702937
-0.44627652 -0.66481513 0.048734721
-0.44084263 -0.66484767 0.048777506
-0.42827213 -0.66482013 0.048754964
-0.42070094 -0.66482699 0.048738312
-0.41726661 -0.66479635 0.04873354
-0.41422129 -0.66479254 0.048718721
-0.41150796 -0.66481751 0.048719198
-0.39804074 -0.6648342 0.048745334
-0.39442706 -0.66484642 0.048763141
-0.39186415 -0.6647954 0.0487069
-0.38438427 -0.66480958 0.048737656
-0.37894636 -0.66482794 0.048765942
-0.37129501 -0.66486335 0.048824511
-0.36329553 -0.66485035 0.048785999
-0.3590858 -0.66476756 0.04870512
-0.35546324 -0.66480851 0.048738036
-0.35073981 -0.66478837 0.048705027
-0.33745056 -0.66478664 0.048695732
-0.33601534 -0.66480911 0.048734386
-0.33560944 -0.66481936 0.048734743
-0.32128298 -0.66482025 0.048743192
-0.30930418 -0.66484529 0.048758805
-0.30898249 -0.6648376 0.048752602
-0.30525321 -0.66481417 0.048734866
-0.29439032 -0.66483045 0.048742488
-0.28843191 -0.66481155 0.048726838
-0.28484192 -0.66478813 0.048708744
-0.27728286 -0.66477352 0.048702557
-0.27394336 -0.66482413 0.048758198
-0.26923725 -0.6648289 0.048745595
-0.26312062 -0.66483861 0.048762653
-0.25971866 -0.66477007 0.048695013
-0.25339955 -0.66477144 0.048666053
-0.25161812 -0.66479212 0.048713837
-0.2444181 -0.66479099 0.048701853
-0.23869467 -0.66474044 0.0486493
-0.23757175 -0.66477305 0.048701301
-0.23180175 -0.66474783 0.048673198
-0.2220443 -0.66480619 0.048709773
-0.21734743 -0.66479868 0.048703372
-0.20984353 -0.66480303 0.04873243
-0.20528007 -0.66483247 0.04875727
-0.20473887 -0.66484886 0.04876953
-0.20025359 -0.66475856 0.048665721
-0.19146654 -0.66476458 0.048682854
-0.18649912 -0.66478932 0.048707686
-0.18317121 -0.66479319 0.048699852
-0.17130229 -0.66476679 0.048655096
-0.16447237 -0.66482365 0.048746768
-0.16379265 -0.66482222 0.048749067
-0.1488726 -0.66477919 0.048689622
-0.13591512 -0.66481566 0.048717815
-0.13234454 -0.66475809 0.048660744
-0.12351038 -0.66482019 0.048735648
-0.10880478 -0.66477478 0.048700545
-0.10458871 -0.664828 0.04875223
-0.10169932 -0.66481417 0.048745375
-0.31365654 -0.65703386 0.048298005
-0.31112874 -0.65705162 0.048302103
-0.30032325 -0.65709054 0.048349537
-0.28825599 -0.65708196 0.04833477
-0.27972591 -0.65703416 0.048294906
-0.27653027 -0.65708989 0.048344538
-0.2722787 -0.65704554 0.048318401
-0.26847339 -0.65701306 0.048268642
-0.26629978 -0.65705842 0.048313815
-0.26226085 -0.65702379 0.048275076
-0.25741258 -0.65706038 0.048339285
-0.25411427 -0.6570453 0.048301604
-0.25338745 -0.65705836 0.048305545
-0.2436929 -0.65708643 0.048320998
-0.23939225 -0.65707541 0.048326701
-0.23832658 -0.65708661 0.048337705
-0.2377585 -0.65709114 0.04835267
-0.23233089 -0.65705991 0.04831459
-0.23103532 -0.65707606 0.048330605
-0.22536479 -0.65706187 0.048329405
-0.21635902 -0.65704441 0.048323426
-0.21594751 -0.65704453 0.048314884
-0.21162838 -0.65702879 0.048292045
-0.20830157 -0.65706509 0.048303742
-0.20373617 -0.65702528 0.0482958
-0.19846627 -0.65707898 0.048343159
-0.19501956 -0.65700859 0.048250277
-0.19400191 -0.65702158 0.048262328
-0.19364564 -0.6570363 0.048277989
-0.18897419 -0.65704143 0.048294313
-0.18601504 -0.65704256 0.04830277
-0.18123378 -0.6570521 0.048311479
-0.17759585 -0.65703875 0.048286296
-0.17166223 -0.65705937 0.048316035
-0.16512074 -0.65706432 0.048320975
-0.1640871 -0.65706468 0.04832878
-0.16376539 -0.65705168 0.048320133
-0.16221324 -0.65706325 0.048322242
-0.15843791 -0.65709734 0.048357502
-0.15755191 -0.65707511 0.048356783
-0.1547032 -0.65703106 0.048267514
-0.15109596 -0.65705711 0.048308767
-0.15071654 -0.65705103 0.048308272
-0.14712466 -0.65706629 0.048318718
-0.13450222 -0.65704662 0.048297632
-0.13018563 -0.65704513 0.048328217
-0.12623198 -0.65702528 0.048275169
-0.11686874 -0.65704221 0.048292585
-0.11222781 -0.65706408 0.048317049
-0.25983548 -0.65634859 0.04891742
-0.24511564 -0.65632921 0.048911493
-0.22639982 -0.65631908 0.048903514
-0.21661507 -0.65632886 0.048890956
-0.21235003 -0.65628952 0.048863921
-0.20697585 -0.65633231 0.048903439
-0.20405029 -0.65628278 0.048848405
-0.19936354 -0.65636718 0.048957221
-0.19418585 -0.65627384 0.048838176
-0.18947294 -0.65632176 0.048881207
-0.18896927 -0.65630776 0.048870336
-0.18640129 -0.65630013 0.048863221
-0.18351148 -0.65633637 0.048905369
-0.18138319 -0.65632308 0.048894767
-0.17772904 -0.65631157 0.048872981
-0.17239635 -0.65632868 0.048901945
-0.17170654 -0.65632856 0.048913006
-0.16737434 -0.6562953 0.048871782
-0.16556716 -0.65630066 0.048872516
-0.16405876 -0.65633601 0.04891897
