# .PCD v0.7 - Point Cloud Data file format
VERSION 0.7
FIELDS x y z
SIZE 4 4 4
TYPE F F F
COUNT 1 1 1
WIDTH 1395
HEIGHT 1
VIEWPOINT 0 0 0 1 0 0 0
POINTS 1395
DATA ascii
0.11636147 0.18312758 0.014686701
0.11744338 0.18314624 0.014671397
0.12424451 0.18310052 0.014722173
0.11340654 0.18873584 0.014078201
0.11484179 0.18873399 0.014081256
0.11585784 0.18874276 0.014075735
0.11698976 0.18871295 0.014086724
0.11847332 0.18873268 0.014085048
0.12133157 0.18872374 0.014079696
0.12315816 0.18868858 0.014126507
0.027374387 0.18926245 0.014899482
0.10789016 0.18931574 0.014856468
0.11224988 0.18932933 0.014839348
0.12662098 0.18938798 0.01479506
0.10312253 0.19493574 0.014357149
0.10565561 0.19484967 0.014428322
0.10600948 0.19487822 0.014412572
0.15744971 0.21197069 0.014806415
0.02620402 0.21687442 0.014159097
0.027959555 0.21680123 0.014207038
0.034475088 0.21682328 0.014192867
0.038415492 0.21677744 0.01423232
0.050987571 0.21678501 0.014214142
0.056480855 0.21682501 0.014186638
0.068033963 0.2167955 0.014212829
0.086751223 0.21680778 0.014211318
0.091830701 0.21682149 0.014186335
0.12622523 0.21679139 0.014205431
0.13304603 0.21682435 0.014184016
0.13736966 0.21682638 0.014171562
0.14816463 0.2168293 0.014187642
0.013672322 0.21739477 0.014981342
0.023028165 0.21740592 0.014968154
0.053094536 0.21742785 0.014941274
0.055309772 0.21736526 0.014998802
0.05708611 0.21742183 0.014945808
0.060703844 0.21739882 0.014989327
0.064581871 0.21738213 0.014989295
0.072241724 0.21739489 0.014986015
0.10515758 0.21742046 0.014920906
0.11310413 0.21738183 0.014990329
0.1238569 0.21738017 0.014983519
0.12535474 0.21743655 0.014936076
0.1307289 0.21740711 0.014963596
0.13469973 0.21739775 0.014976935
0.15133518 0.21739244 0.014987088
0.10044831 0.10781705 0.01524387
0.10300457 0.10783106 0.015215789
0.098225772 0.10857403 0.015784916
0.10291585 0.10856396 0.01580973
0.12789762 0.10859638 0.015791718
0.10206935 0.11739892 0.015585606
0.10427129 0.1173631 0.015612527
0.1093142 0.11743039 0.015557454
0.11321095 0.11737281 0.015618813
0.11574599 0.11739779 0.015594878
0.12929022 0.11734504 0.015637964
0.11026815 0.12541056 0.015073822
0.11666596 0.12539041 0.015093722
0.11883911 0.12548065 0.015002419
0.12465316 0.12547123 0.015008596
0.10803297 0.12615031 0.0156441
0.11272281 0.12614024 0.015668329
0.12679875 0.12615961 0.015655864
0.12969324 0.12611061 0.0157119
0.11605248 0.13412708 0.015425148
0.1182721 0.13416141 0.015372331
0.12040696 0.13412702 0.015421887
0.11950374 0.14204293 0.015397222
0.12162009 0.14205813 0.015379696
0.12590304 0.14202166 0.015416984
0.12240216 0.1499126 0.015628163
0.12242639 0.15703499 0.015454081
0.12493616 0.15706742 0.015412661
0.12747622 0.15703189 0.01545233
0.12424886 0.16410851 0.01548176
0.12742719 0.16415012 0.015456724
0.12145481 0.1712119 0.015665844
0.12331098 0.17112494 0.015749346
0.12591058 0.17116868 0.015692264
0.12622026 0.17119735 0.015681684
0.1202611 0.17750508 0.015456884
0.12171572 0.17745596 0.015503001
0.11554289 0.18376356 0.015409517
0.11732495 0.18378621 0.015381704
0.10675788 0.18992454 0.015590007
0.10852492 0.18996048 0.015559184
0.1111322 0.18994319 0.015565188
0.12511453 0.18997192 0.015566644
0.10564455 0.19002658 0.0155223
0.10960174 0.19000793 0.015524565
0.11501145 0.19000715 0.015534203
0.040680289 0.2179417 0.015785512
0.049485326 0.21737528 0.01500743
0.063067228 0.21798187 0.015762743
0.078375727 0.21730393 0.015049524
0.080860853 0.21731639 0.015066319
0.083722681 0.21788335 0.015825436
0.10351473 0.21798211 0.015755706
0.11074999 0.21798426 0.015734609
0.13939407 0.21735209 0.015006798
0.14317644 0.21795267 0.015765708
0.14532101 0.21794033 0.015793934
0.14938152 0.21792865 0.01579424
0.15526481 0.21794844 0.015783314
0.13635325 0.21800119 0.015725218
0.10971999 0.10935009 0.016341023
0.11220896 0.10928088 0.016408384
0.11519319 0.11002189 0.016990859
0.10738811 0.11883098 0.016822267
0.10961103 0.1188634 0.016768511
0.11140102 0.11810642 0.016219981
0.11575684 0.11813325 0.016174722
0.12299404 0.11812007 0.016166218
0.12781271 0.11812323 0.016201407
0.11526123 0.1268602 0.016268983
0.11915097 0.12691247 0.016229007
0.12856051 0.12687218 0.016255096
0.10835916 0.12757671 0.016879201
0.11090097 0.12754071 0.016920991
0.11304113 0.12754327 0.016916782
0.11208358 0.13555259 0.016640525
0.11863208 0.13556224 0.016621266
0.12290117 0.13549066 0.016698014
0.12505615 0.13559347 0.01661351
0.11475718 0.14273143 0.016040869
0.12191409 0.14342469 0.016681824
0.12408295 0.14347887 0.016646583
0.12617841 0.14344174 0.016680229
0.12483567 0.15060633 0.016281139
0.12234733 0.15129972 0.016911611
0.12201235 0.15771836 0.016118515
0.12192234 0.16480529 0.016152602
0.12419769 0.16480041 0.016151648
0.12182572 0.16545534 0.016835488
0.12032616 0.17181921 0.016390752
0.02527073 0.17808372 0.016230095
0.11737058 0.1784113 0.0165608
0.11881498 0.17815888 0.016133364
0.12023264 0.17816699 0.016148336
0.12199116 0.1787436 0.016899664
0.12564084 0.17816299 0.016143028
0.027717054 0.18433112 0.016169406
0.10856509 0.18499315 0.016866237
0.11040065 0.18499351 0.016863484
0.11400914 0.1843918 0.016125325
0.11508596 0.18439847 0.01614302
0.12270051 0.18444139 0.016077369
0.11179611 0.18506461 0.016812231
0.1129131 0.18502116 0.016848996
0.1139614 0.18502158 0.016847618
0.11100975 0.19059104 0.01629661
0.10481516 0.19126034 0.01697633
0.11091754 0.19126076 0.016995989
0.028060913 0.19675428 0.016620155
0.016666412 0.21851599 0.016562581
0.018507481 0.21853566 0.016543843
0.021706253 0.2184943 0.016594674
0.029022753 0.21849424 0.016583633
0.032996953 0.21850806 0.016567584
0.035551041 0.2185294 0.016554363
0.037698448 0.21851069 0.016545963
0.043822855 0.218499 0.016570486
0.046284139 0.21849191 0.016589228
0.048882574 0.21855748 0.016525749
0.05029586 0.21850705 0.016568135
0.056148112 0.21852028 0.016545139
0.067342967 0.21855837 0.016537759
0.069146872 0.21849722 0.016589195
0.070887566 0.21854389 0.0165346
0.073058367 0.21851188 0.016573746
0.079218358 0.2184428 0.0166201
0.081759334 0.21845746 0.016620446
0.08428213 0.21846348 0.016613334
0.086082399 0.21850806 0.01657195
0.092937618 0.21854973 0.016545199
0.094703108 0.21856558 0.016520925
0.096543312 0.2185728 0.016520787
0.098342448 0.21852618 0.016552255
0.10597616 0.21855444 0.016510863
0.10956749 0.21853679 0.016542345
0.11249405 0.21853495 0.0165575
0.11823314 0.21849108 0.016572401
0.1196425 0.21856332 0.016517013
0.12077075 0.21858478 0.016503789
0.13017347 0.21856934 0.016521916
0.13266721 0.21853065 0.016542781
0.13840926 0.21853071 0.01654442
0.14380127 0.21852279 0.016562596
0.15253197 0.21857077 0.016516969
0.15583858 0.21851969 0.016566686
0.098926008 0.11076647 0.017549701
0.11946604 0.11077565 0.017538287
0.12136045 0.11074001 0.017583318
0.13324854 0.11075395 0.017576888
0.10269871 0.11958683 0.017392676
0.10965192 0.1195761 0.017363492
0.11936235 0.11950713 0.01744476
0.11494437 0.13692999 0.017919481
0.11533552 0.13692707 0.017931439
0.11827627 0.14449799 0.017604019
0.11971641 0.14413607 0.017331693
0.12142608 0.16611427 0.017540675
0.11877009 0.17245561 0.017126847
0.12029031 0.17245352 0.017102551
0.026294053 0.17309779 0.017813176
0.11876085 0.17310566 0.017806955
0.028073967 0.17940062 0.01761952
0.11434674 0.1794464 0.017568186
0.11562923 0.17943305 0.017560162
0.11619195 0.17942637 0.017562505
0.10741979 0.18570411 0.017526504
0.027055651 0.1918205 0.017763603
0.028566003 0.19118971 0.017033946
0.10247412 0.19184524 0.017748486
0.025581211 0.21906662 0.017354991
0.033575505 0.21908104 0.017350171
0.041530401 0.21907884 0.017342344
0.042935461 0.21905631 0.017381128
0.059967667 0.21909291 0.017330993
0.061784923 0.21908677 0.017353065
0.07149148 0.21913528 0.01729941
0.082327873 0.21902543 0.017420437
0.10434705 0.21912318 0.017323401
0.11735183 0.21910506 0.017336722
0.13431245 0.21911812 0.017338376
0.14441824 0.21907854 0.017346527
0.1462436 0.2190848 0.017335683
0.10859513 0.11145568 0.018189233
0.11367038 0.11147094 0.018164214
0.11623225 0.11151922 0.018131599
0.11797029 0.11152792 0.018126305
0.12316459 0.11153048 0.018120591
0.1186491 0.15266013 0.01825225
0.12108254 0.15270925 0.018225037
0.12119898 0.15976369 0.01810405
0.12070388 0.16050297 0.018725608
0.12024337 0.16680312 0.018191721
0.11986279 0.16750455 0.018844608
0.12020954 0.16748458 0.018854629
0.026983142 0.17375982 0.018509492
0.026523322 0.18003559 0.01831837
0.11204743 0.18070775 0.018984511
0.11323941 0.18007958 0.018278815
0.11528277 0.1807518 0.018954907
0.027099937 0.18628061 0.018316932
0.10571659 0.19252771 0.018422421
0.10710904 0.19248837 0.018463247
0.10854205 0.1924414 0.018506635
0.10262334 0.19857651 0.018845949
0.15601096 0.20950091 0.018583775
0.01540193 0.21967685 0.018117387
0.022542864 0.21962863 0.018164542
0.024384111 0.21969098 0.018102705
0.036379576 0.21966809 0.018124022
0.040304065 0.2196784 0.018128689
0.058390677 0.21972036 0.018106621
0.080086738 0.21961194 0.018175151
0.082898945 0.21960342 0.018193003
0.1068112 0.21968734 0.018101368
0.10863519 0.21969342 0.018103886
0.1252265 0.21966946 0.018128838
0.13209623 0.21967524 0.018112957
0.15045185 0.21963328 0.018148158
0.15706471 0.21965456 0.018142998
0.019577265 0.22025931 0.018883523
0.034394771 0.22021592 0.01894176
0.055003375 0.22020835 0.018927179
0.080657423 0.22018707 0.018967547
0.08535549 0.2201736 0.018963978
0.092206806 0.22026855 0.018878482
0.10126221 0.22029531 0.018855326
0.11069095 0.22026861 0.018895071
0.12183267 0.22029436 0.018858727
0.12982178 0.22022021 0.018910442
0.13372129 0.22025204 0.018891074
0.1362294 0.22024775 0.018914655
0.15104453 0.22020626 0.018943172
0.11186996 0.13041538 0.019378647
0.11885664 0.14693999 0.019844789
0.12140456 0.1540646 0.019527957
0.12065116 0.16118068 0.019387431
0.11870879 0.16819823 0.019493572
0.11537081 0.17440826 0.019216429
0.11686587 0.1745044 0.019111514
0.11722189 0.17449796 0.019108541
0.028985083 0.18068558 0.019018304
0.11088425 0.18137544 0.01968047
0.10973155 0.18691814 0.019028302
0.1086148 0.1876061 0.019705385
0.025668353 0.19373655 0.019935086
0.10486999 0.19309127 0.019200385
0.11467329 0.19307721 0.019203596
0.029232144 0.21550351 0.01941606
0.085847497 0.2154581 0.019449975
0.14005813 0.21553254 0.019368511
0.0501948 0.22083133 0.019675061
0.051596433 0.22078049 0.019708041
0.061072081 0.22082394 0.01968018
0.090982944 0.22085178 0.019658282
0.10009384 0.22080648 0.019703861
0.10947531 0.2208156 0.019691568
0.14153412 0.22080648 0.019704942
0.11629781 0.14760131 0.020527013
0.11925131 0.15471536 0.02022228
0.11886522 0.15539587 0.020859446
0.11919865 0.15540349 0.020853434
0.1204192 0.16182274 0.02006657
0.11862651 0.16882408 0.020190734
0.028199285 0.1757586 0.020573746
0.11634484 0.17575336 0.020574752
0.027749926 0.18201041 0.020411909
0.1100969 0.18204361 0.020383723
0.11303931 0.1820119 0.020392518
0.10487205 0.1881972 0.020444892
0.10253283 0.19435412 0.020634029
0.10400906 0.1943301 0.020676624
0.15728571 0.21068466 0.020094883
0.018498451 0.21605808 0.020218097
0.029793411 0.21608937 0.020193875
0.036551178 0.21661699 0.020984858
0.042751849 0.21664172 0.020965427
0.050369889 0.21603256 0.020229001
0.060411125 0.21662229 0.020988978
0.06197682 0.21606135 0.020217486
0.062550187 0.21665835 0.020976387
0.063714355 0.21605223 0.020204928
0.075343847 0.21601391 0.020263951
0.08793819 0.21607161 0.020191547
0.093550503 0.21668953 0.020942468
0.095406294 0.21666849 0.020950194
0.12151104 0.21602827 0.020241693
0.12553352 0.21603495 0.020215314
0.13730425 0.21662176 0.020980529
0.13845405 0.21602529 0.020245075
0.14644375 0.21669644 0.020938721
0.15144169 0.21670222 0.020939894
0.1544532 0.21604228 0.020223487
0.15544167 0.21662736 0.020991355
0.041403979 0.22138196 0.020482901
0.093067348 0.22140807 0.020457156
0.094830364 0.22137213 0.020481478
0.10393471 0.22138768 0.020457901
0.15449975 0.22144288 0.020438295
0.11701229 0.14830095 0.021173254
0.11917704 0.14833778 0.021121394
0.11863863 0.16311455 0.021466453
0.11937678 0.16312951 0.02146621
0.11595887 0.17013842 0.021580268
0.11740714 0.17011702 0.021621477
0.029986382 0.17643541 0.021238394
0.030360341 0.17638099 0.021275781
0.11477897 0.17707771 0.021934874
0.11178863 0.18268073 0.021085672
0.026870698 0.18324441 0.021857843
0.10591006 0.18881321 0.021171879
0.10803732 0.18947542 0.021880027
0.10173661 0.19503611 0.021329101
0.027860224 0.20043826 0.021069393
0.097639471 0.20047307 0.021033723
0.10088482 0.20047462 0.021021396
0.10008532 0.20110172 0.021760359
0.027875453 0.21662205 0.021000862
0.043742895 0.21663278 0.021005031
0.04626292 0.21660811 0.021024082
0.064362049 0.21661031 0.021020625
0.068020433 0.21660119 0.021011498
0.0737257 0.21661305 0.02101469
0.015839636 0.21719527 0.021784425
0.026269913 0.21726412 0.02171573
0.030666709 0.2172429 0.021764699
0.051190853 0.21722078 0.02176794
0.066436887 0.21724498 0.021750174
0.068568915 0.21719939 0.021791924
0.07043165 0.21726608 0.02170461
0.072159946 0.21721333 0.021777581
0.086929023 0.2172206 0.021768052
0.092070699 0.21722883 0.021741491
0.097515374 0.21724194 0.021748174
0.10115662 0.21722215 0.02173841
0.11016229 0.21724772 0.021726128
0.11270905 0.21719915 0.02176917
0.11372983 0.21727455 0.021712635
0.11483276 0.21725231 0.021721322
0.11736315 0.21716797 0.021789882
0.12091553 0.21721739 0.021760192
0.12493798 0.21726668 0.021737386
0.12925911 0.21727252 0.021711122
0.13576058 0.21726525 0.02171924
0.14112619 0.21728897 0.021695677
0.15599731 0.21723074 0.021752834
0.08426562 0.22188962 0.021327764
0.090021133 0.22193849 0.021273632
0.11322877 0.2219559 0.021232288
0.15511051 0.22199839 0.021243103
0.11106792 0.13401145 0.022392035
0.017229855 0.14969999 0.022422869
0.11692154 0.14969862 0.02244474
0.11871243 0.1568383 0.022134125
0.11521289 0.17087287 0.022196528
0.11586517 0.17152524 0.022903331
0.11546397 0.17771071 0.022634253
0.10962218 0.183909 0.022534311
0.11135691 0.18396628 0.022499543
0.027814716 0.19011331 0.022572707
0.02722156 0.19560528 0.022117015
0.099785447 0.19623047 0.022852343
0.094132364 0.20170677 0.022517618
0.096745878 0.20170897 0.022517465
0.019633859 0.21780318 0.022544306
0.024691015 0.21775764 0.022576775
0.035235822 0.21779406 0.02254751
0.037383437 0.21779549 0.02254568
0.040652126 0.21776897 0.022563078
0.045716166 0.21775806 0.022553861
0.057258129 0.21783656 0.022529095
0.0728302 0.21777433 0.022546988
0.074577451 0.21780431 0.022539131
0.076407313 0.21774155 0.022608694
0.085489213 0.21779752 0.022547331
0.09627232 0.21781313 0.022508014
0.10354882 0.21782523 0.022507012
0.1057297 0.21783364 0.022515647
0.11183536 0.21780509 0.02254124
0.077891469 0.22311509 0.02282276
0.11701599 0.16525048 0.023363549
0.11396733 0.1784302 0.023288552
0.10872748 0.18522114 0.023945086
0.11050478 0.18526345 0.023904543
0.026201189 0.19073474 0.02333831
0.10463199 0.19080651 0.023254823
0.097205073 0.19688702 0.02355627
0.10150275 0.19683021 0.023587864
0.027995169 0.20228088 0.023266006
0.057909429 0.20294452 0.023997258
0.092963427 0.20291096 0.023994148
0.1549367 0.20768285 0.023144178
0.014524162 0.21839696 0.023284268
0.016700715 0.21834135 0.023337241
0.021716595 0.21838725 0.023315292
0.033341914 0.21834272 0.023352772
0.065462351 0.21836668 0.023335576
0.067326158 0.21837753 0.023321919
0.094713271 0.21846068 0.023243863
0.10019949 0.21843147 0.023252603
0.10414788 0.21841848 0.023256745
0.11933246 0.21843082 0.023266166
0.12437081 0.21840626 0.023280095
0.1268394 0.21837848 0.023323555
0.1311678 0.21840751 0.023282323
0.13370082 0.21842188 0.023278441
0.13661122 0.21841687 0.023266107
0.14374432 0.21837622 0.023323338
0.14559653 0.21839821 0.023283154
0.15721469 0.21842045 0.023295071
0.11814436 0.15954727 0.024770055
0.11679634 0.17284602 0.024274256
0.026858807 0.17351496 0.024950866
0.027903199 0.17901409 0.024039384
0.11245012 0.1790576 0.024012528
0.026642114 0.18588388 0.024651881
0.036043435 0.1858744 0.024645004
0.10467678 0.18585002 0.024667751
0.10643658 0.18592978 0.024598412
0.10756722 0.18588638 0.024642561
0.027125686 0.19198269 0.024785087
0.025553405 0.19746095 0.024300601
0.099297017 0.19748747 0.024266973
0.10069731 0.19747257 0.024309736
0.033178508 0.2035141 0.024783868
0.070442945 0.20347285 0.024809342
0.096810549 0.20355737 0.024709199
0.015101671 0.21897447 0.024065387
0.020470172 0.21897584 0.024088945
0.023753226 0.2189768 0.024081007
0.027392805 0.21899295 0.024039786
0.05994767 0.21898627 0.024075694
0.077261776 0.21890271 0.024149813
0.084552526 0.21891344 0.02414741
0.086283416 0.21895564 0.024096325
0.11696512 0.21897042 0.024082128
0.1220817 0.21892989 0.024108119
0.013544589 0.21957058 0.024850313
0.019502848 0.21956903 0.024847552
0.022624344 0.21956897 0.024830505
0.025839061 0.21954471 0.024858464
0.029833406 0.21953344 0.024875164
0.0349527 0.2195639 0.024845771
0.038567811 0.21950096 0.024890576
0.042846739 0.21950507 0.024907436
0.044656813 0.21954769 0.024868805
0.050792962 0.21950775 0.024875969
0.05230093 0.21900415 0.024054054
0.06203422 0.21953976 0.024835214
0.071752846 0.21959645 0.024818916
0.080032319 0.21951908 0.024899445
0.085130513 0.21949059 0.024916463
0.090131223 0.21960789 0.02480498
0.10864198 0.21957761 0.024835445
0.11008483 0.21958977 0.024820611
0.1140188 0.21952623 0.024870194
0.11508638 0.21961135 0.024797928
0.11616361 0.21955425 0.024830066
0.1187121 0.21952635 0.024870053
0.12775561 0.21953475 0.02486762
0.12922835 0.21952009 0.024865061
0.13892326 0.21954477 0.024868183
0.14068362 0.21956068 0.02486052
0.11492744 0.15320516 0.025600068
0.11769611 0.16021723 0.025443822
0.11806113 0.16021657 0.0254273
0.11865392 0.16725963 0.025388163
0.027581275 0.1741944 0.025626145
0.11530611 0.17415196 0.025662784
0.11193621 0.18038172 0.025402691
0.025137931 0.18650651 0.02535579
0.10271344 0.18723553 0.025990497
0.10435823 0.19269753 0.025417879
0.094397515 0.19875747 0.025731634
0.096306056 0.19811511 0.025024988
0.027005345 0.20414376 0.025494818
0.091315091 0.20420337 0.025424112
0.10934195 0.20410883 0.025513072
0.13752732 0.20951313 0.025383055
0.13931757 0.20950216 0.025406178
0.1567682 0.20950997 0.025389377
0.1570932 0.20951784 0.025401074
0.026817739 0.21482414 0.025457077
0.053570062 0.21483785 0.025432125
0.077011526 0.21479529 0.02549221
0.085650235 0.21483302 0.025443297
0.090701222 0.21483684 0.025435459
0.14778584 0.2148304 0.025460001
0.15471187 0.2148636 0.025417343
0.017793268 0.22011393 0.025640156
0.01818645 0.22012335 0.025638051
0.021324724 0.22012568 0.025636192
0.028685719 0.22012454 0.025633827
0.032608062 0.22013164 0.025638174
0.034784824 0.22012371 0.025639031
0.043466866 0.22006345 0.025690392
0.045627832 0.22013283 0.025642503
0.04830572 0.22012943 0.025636103
0.049603075 0.22012609 0.025631033
0.053212583 0.22018349 0.025598496
0.056888402 0.22012067 0.025630299
0.058579594 0.22015899 0.025629263
0.066575259 0.22014481 0.02562815
0.068759829 0.22011912 0.025639571
0.074492365 0.22009742 0.025660232
0.076307505 0.22015035 0.025620177
0.078861624 0.2200579 0.025691081
0.080676347 0.22010297 0.025676165
0.085713536 0.22011358 0.025659956
0.092196494 0.22015405 0.025609039
0.099672168 0.22017539 0.025592089
0.10126504 0.22017121 0.025590464
0.1071175 0.22013479 0.025612462
0.11209571 0.22015637 0.025607582
0.11788493 0.22011542 0.025644463
0.12146768 0.22019535 0.02559071
0.12290898 0.22011065 0.025639292
0.12398592 0.22011441 0.025649849
0.12541932 0.22017878 0.025592946
0.12834546 0.22012782 0.025633942
0.13121411 0.22015858 0.025605865
0.1398789 0.22010428 0.025648907
0.14129394 0.22017884 0.025579136
0.1448667 0.22011417 0.025661137
0.1159496 0.14611995 0.026055526
0.11667272 0.14683777 0.026670992
0.02275753 0.1608929 0.026090767
0.02085501 0.16164303 0.026681487
0.11981392 0.16164428 0.026687268
0.023946524 0.16860563 0.0267363
0.11654481 0.16855377 0.026788577
0.026392967 0.17478484 0.026352491
0.027396947 0.18103689 0.026079297
0.032840282 0.18100131 0.026112869
0.11112288 0.18168324 0.026774321
0.01919657 0.18781239 0.026739702
0.022813022 0.18781793 0.026763666
0.023944169 0.18716705 0.026073903
0.026479036 0.18751019 0.026399128
0.027521342 0.18717623 0.026063498
0.10671693 0.1871987 0.026016187
0.019078761 0.19325501 0.026221726
0.025917113 0.19328678 0.026189115
0.026606232 0.19358975 0.02654947
0.10205019 0.19395363 0.026882842
0.10355958 0.19357133 0.026557211
0.092886209 0.19938403 0.026457548
0.021119386 0.20473808 0.026260052
0.026929259 0.20476353 0.026234351
0.050739855 0.20476526 0.026222963
0.090131819 0.20477909 0.026224021
0.093377978 0.20478094 0.026224438
0.13125375 0.20472831 0.026256219
0.089991242 0.20537615 0.026971195
0.026978165 0.21011579 0.02614994
0.031937331 0.21070868 0.026882574
0.035556912 0.21071273 0.026905857
0.038100839 0.21065247 0.026954263
0.04784435 0.21077329 0.026860639
0.049747646 0.21011072 0.02614804
0.051578015 0.21013212 0.026124641
0.055445611 0.21075153 0.026863605
0.067360103 0.21073604 0.026891321
0.083894581 0.21067798 0.02692331
0.090801835 0.21077877 0.026831668
0.092646092 0.2107138 0.026887629
0.094233572 0.21017522 0.026083652
0.10386282 0.21073252 0.026885372
0.10901359 0.21012026 0.02614373
0.11251804 0.21070451 0.026907716
0.12158313 0.21070403 0.026894815
0.12584716 0.21074772 0.026868165
0.13767391 0.21075851 0.026865732
0.13949934 0.21070373 0.026924614
0.016582668 0.21547586 0.02615843
0.019790411 0.2154398 0.026204415
0.024839878 0.21548176 0.026152451
0.031002998 0.2154178 0.026228182
0.04256168 0.21543342 0.026215788
0.053480119 0.21543431 0.026185393
0.079748631 0.21537769 0.026264746
0.087351173 0.21548146 0.026159517
0.096085459 0.21545941 0.026184954
0.10006222 0.21544558 0.026174333
0.11015722 0.21544015 0.02620421
0.12124395 0.21599847 0.026988324
0.1249125 0.21543127 0.026212633
0.13790166 0.21543652 0.026206203
0.13969633 0.21550626 0.026132412
0.14755791 0.21599942 0.026982035
0.15567845 0.21545964 0.026175372
0.15641734 0.21545935 0.026166763
0.016094714 0.21604389 0.02694669
0.030584216 0.21601689 0.026970651
0.037408918 0.21604508 0.026962303
0.038876742 0.21601623 0.026960883
0.048220605 0.21600449 0.026972555
0.051868737 0.2160033 0.026976224
0.052263647 0.21601796 0.026972301
0.05913195 0.21602398 0.026971497
0.061299711 0.21603829 0.026964825
0.069257289 0.21607751 0.026904203
0.070986301 0.21602511 0.026977308
0.072800279 0.21600789 0.026988223
0.090896666 0.21604013 0.026941147
0.094480634 0.21606213 0.026923679
0.097796261 0.21609259 0.026889186
0.09812668 0.21608943 0.026903681
0.099982649 0.21603346 0.026937991
0.10169384 0.21605992 0.026941478
0.10212639 0.21605396 0.026932582
0.10391647 0.21605319 0.026934713
0.10574082 0.21605879 0.026937399
0.10755563 0.21606332 0.026943706
0.12083432 0.21600533 0.026989091
0.12413228 0.21603566 0.026965164
0.12808484 0.21608377 0.026910711
0.13350397 0.21605825 0.026933417
0.13458645 0.21607649 0.02691878
0.13777682 0.2160024 0.026992366
0.13962924 0.21609116 0.026889842
0.14176559 0.21601546 0.026965093
0.15377602 0.21601921 0.026970867
0.040793121 0.22071832 0.026402805
0.042289764 0.22069538 0.026417583
0.047272623 0.22066534 0.026436891
0.072591841 0.22074324 0.026384022
0.078769594 0.22062814 0.026487142
0.098261029 0.22070754 0.026399098
0.11090353 0.22076708 0.026357133
0.13248467 0.22074628 0.026375201
0.13509408 0.22074008 0.026383813
0.14879623 0.22075254 0.026379663
0.14913964 0.2207346 0.026388422
0.15469807 0.22070026 0.026410617
0.11747861 0.16922969 0.027427472
0.020904362 0.17547476 0.027037088
0.022328645 0.17543143 0.027067672
0.026352167 0.17544651 0.027026545
0.023771703 0.17615706 0.027696155
0.11446044 0.17613852 0.027709946
0.026509672 0.18230283 0.027523413
0.021325141 0.18844122 0.027485382
0.019235045 0.19455212 0.027639866
0.021465063 0.19457179 0.027605861
0.10130093 0.19462508 0.027555387
0.021229744 0.19998676 0.027223915
0.023405939 0.19997972 0.027224228
0.019342899 0.20059675 0.027970508
0.025325805 0.20061165 0.027945347
0.093790561 0.20064825 0.02788946
0.096017301 0.20061594 0.0279244
0.025283903 0.20566624 0.027366973
0.067130983 0.20596606 0.027745809
0.08918196 0.20599937 0.027689543
0.15425408 0.20597547 0.027727958
0.045493275 0.20603579 0.027669661
0.053104043 0.20600736 0.027718864
0.08695516 0.20604199 0.027671538
0.088461846 0.20603776 0.027679484
0.095673293 0.20601922 0.027699493
0.099731565 0.20601296 0.027702041
0.13360322 0.20605576 0.027648769
0.01776889 0.21134555 0.027618568
0.024977803 0.21131045 0.027663913
0.027184874 0.21131539 0.027657062
0.029314071 0.21130896 0.027673073
0.031849623 0.21132249 0.027650628
0.035439879 0.21133047 0.027643498
0.036937267 0.21130705 0.027658593
0.037991554 0.2112819 0.027696669
0.051784903 0.21131474 0.027644813
0.053474128 0.2113542 0.027643714
0.059670985 0.21131974 0.02763363
0.06147185 0.21133912 0.027642444
0.067239404 0.21135491 0.027624488
0.069389075 0.21129155 0.027675346
0.083805859 0.21130031 0.027665772
0.088830411 0.21131331 0.027669877
0.094375074 0.21135491 0.027623564
0.10011289 0.21137214 0.027596481
0.10554951 0.21137935 0.027596623
0.10808101 0.21131855 0.027651984
0.11888203 0.21130878 0.02766446
0.12713048 0.21135896 0.027614824
0.12825853 0.21133131 0.027625341
0.13114229 0.21136475 0.027617056
0.13619021 0.21137297 0.027592283
0.14197853 0.2113927 0.027591258
0.15507625 0.21133614 0.02763046
0.077193052 0.2159794 0.027009681
0.079674602 0.21596497 0.027039517
0.081710428 0.21596915 0.027015146
0.014341086 0.21662313 0.027726986
0.019550323 0.21659696 0.02776074
0.02282396 0.21660852 0.027739983
0.02318424 0.21659756 0.027736481
0.02457121 0.21667665 0.027687158
0.026866287 0.21659702 0.027749505
0.029059172 0.21665663 0.027700149
0.032258481 0.21660686 0.027751647
0.034464031 0.21662736 0.027714223
0.037276924 0.2166031 0.027758863
0.038764417 0.21661568 0.02773596
0.040184736 0.21661425 0.027748752
0.045186788 0.21657825 0.027767684
0.046725482 0.21665955 0.027691524
0.049948126 0.21660382 0.027739104
0.051418662 0.21667171 0.027676474
0.053635418 0.2166099 0.027733933
0.055582315 0.21667272 0.027692191
0.060823202 0.21666586 0.027700394
0.061151952 0.21665496 0.027713347
0.065185636 0.21666044 0.027703498
0.066990197 0.2166 0.027755056
0.069093496 0.21666622 0.027680218
0.07090202 0.21661448 0.027739707
0.072368413 0.21658999 0.02774702
0.077062815 0.21654713 0.027786333
0.079603195 0.21656203 0.027786888
0.083926648 0.21661097 0.027737983
0.085675061 0.2166118 0.027733982
0.089028001 0.2166658 0.027668495
0.090781063 0.2166515 0.027710892
0.092545569 0.21666735 0.027686477
0.093689859 0.21666783 0.027658124
0.094386637 0.21667397 0.027686428
0.10381854 0.21665591 0.027676508
0.10565639 0.216649 0.027708635
0.11142913 0.21662611 0.027725533
0.1124835 0.21662843 0.027725704
0.11357787 0.21668053 0.027671963
0.11461642 0.21664357 0.027714491
0.11607733 0.21659309 0.027738445
0.11861408 0.21668589 0.027669437
0.12511134 0.2166059 0.027725473
0.12867016 0.21667022 0.027695328
0.13191468 0.21664906 0.027719215
0.13302428 0.21664172 0.027712163
0.13443783 0.21667343 0.027675632
0.14164543 0.21662486 0.027728532
0.14526454 0.21669626 0.027654953
0.15006304 0.21664596 0.027692527
0.15368173 0.21662188 0.027732477
0.14718825 0.22132254 0.027142249
0.023294568 0.16296363 0.028046332
0.021440417 0.16371107 0.028655943
0.11596242 0.16373473 0.028634336
0.022419244 0.16989058 0.028114799
0.024205387 0.16992497 0.028106507
0.026070178 0.16988844 0.02811734
0.019845098 0.17056835 0.028807398
0.026007116 0.17061996 0.028745942
0.022613525 0.17676413 0.028413624
0.025202394 0.17680258 0.028379999
0.02663517 0.17676967 0.028398983
0.021756172 0.1829502 0.028217819
0.025339395 0.18296063 0.028208628
0.026400536 0.18294311 0.028222844
0.017055959 0.18363303 0.028855287
0.018790066 0.18362528 0.028904133
0.019389391 0.18977082 0.028853279
0.021585286 0.18971795 0.028899021
0.023016006 0.18912572 0.028157752
0.025862128 0.18972296 0.02891707
0.019181043 0.19519669 0.028333064
0.021403313 0.19521296 0.028321553
0.10049215 0.19521034 0.028326016
0.1029588 0.1952197 0.028318919
0.10842419 0.19517076 0.028350379
0.01745832 0.20122445 0.028660879
0.023427069 0.20121253 0.028708711
0.026129574 0.2012369 0.028677806
0.051811248 0.20129222 0.028635718
0.089717954 0.20129985 0.028612766
0.096624434 0.20125884 0.028647874
0.019312054 0.20668364 0.02840383
0.025184572 0.20659119 0.028467633
0.027386159 0.20661896 0.028446678
0.05725044 0.20660824 0.028458364
0.071409255 0.20652694 0.028522473
0.081861496 0.2066229 0.028435487
0.085498124 0.20661354 0.028437503
0.086889029 0.20664829 0.028419383
0.087643594 0.2066803 0.028391134
0.023047924 0.21195745 0.028353043
0.029245228 0.21189088 0.028440621
0.031783134 0.21193421 0.02838695
0.033976167 0.21188265 0.028430924
0.035360694 0.21193606 0.028398052
0.047955364 0.21196955 0.028367128
0.049838662 0.21191871 0.028407898
0.055603385 0.21195102 0.028389156
0.057442516 0.21192145 0.028374732
0.063230187 0.21192467 0.028409589
0.069327772 0.21189886 0.02841159
0.071126252 0.21195537 0.028384238
0.072917163 0.21186846 0.028464742
0.073268801 0.21187925 0.028453067
0.075440556 0.21190149 0.028440956
0.077981144 0.21187431 0.028459929
0.085539311 0.21198946 0.028344311
0.087355733 0.2119531 0.028374579
0.091009349 0.21197438 0.02833027
0.092814445 0.2119596 0.028356761
0.098211914 0.21193534 0.028378244
0.10227698 0.21193361 0.028377771
0.10404918 0.2119593 0.028374832
0.10694495 0.21193784 0.028361823
0.11262083 0.21193522 0.028395846
0.1141198 0.21190834 0.028410025
0.11773667 0.21189505 0.028421726
0.12316245 0.21191698 0.028407235
0.12463632 0.21190178 0.028404605
0.13433057 0.2119267 0.028407883
0.13609099 0.21194273 0.028399687
0.14167616 0.21195072 0.028365131
0.15239818 0.21194333 0.028387886
0.01409775 0.21721268 0.028477035
0.021270543 0.21725351 0.028461121
0.02269423 0.21721697 0.028483063
0.024487972 0.21725118 0.028469697
0.026377648 0.21720195 0.028475519
0.028538942 0.21720117 0.028512467
0.030384302 0.21720767 0.028498381
0.035399765 0.21720588 0.028475661
0.037237078 0.21718788 0.028515067
0.042657048 0.21723872 0.028473634
0.048066258 0.21721441 0.028505418
0.049809426 0.21719521 0.028496843
0.059285223 0.21723717 0.028487451
0.060731202 0.21726984 0.028450884
0.062492847 0.21721345 0.02848433
0.066498786 0.21719682 0.028512489
0.068615884 0.2172125 0.028493222
0.070822895 0.2172333 0.028484181
0.074748576 0.2172057 0.02852153
0.076205492 0.2171663 0.028542046
0.079268068 0.21717316 0.028549396
0.081480652 0.21715701 0.028531864
0.085377723 0.21721667 0.028496679
0.087182313 0.21718323 0.028511483
0.088912874 0.21726316 0.028436732
0.094264418 0.21727574 0.028425492
0.095750958 0.21724683 0.028447296
0.099703491 0.21723962 0.028465062
0.10352531 0.21726054 0.02842889
0.10732567 0.21722955 0.028478634
0.10908952 0.21725094 0.028447796
0.11128026 0.21721077 0.028493628
0.11852008 0.21727854 0.028433762
0.1199176 0.21723717 0.028473761
0.12504604 0.21720111 0.028488051
0.1278736 0.21724695 0.028458498
0.13076535 0.21722662 0.028471205
0.13166267 0.21722823 0.028467096
0.13580313 0.21723229 0.028460938
0.14113808 0.21725482 0.028459102
0.14732257 0.21722615 0.02848497
0.15325201 0.21720934 0.028506439
0.023579121 0.16433525 0.029352196
0.11709288 0.16438442 0.029318221
0.018687338 0.17124641 0.029466782
0.021290272 0.17130703 0.029399924
0.022705019 0.17125636 0.029445551
0.024508715 0.1712541 0.029449701
0.024029791 0.17746079 0.029072814
0.030926228 0.17747068 0.029063232
0.019301891 0.17810094 0.029791426
0.02076602 0.17816615 0.029723212
0.021829426 0.17814821 0.0297493
0.025090307 0.17818111 0.029702615
0.031583369 0.17814082 0.029742502
0.11171696 0.17815816 0.02973637
0.019288033 0.19040799 0.029579524
0.023256451 0.19042158 0.02956865
0.019130945 0.19583076 0.029051404
0.023834616 0.19583148 0.02902922
0.024951756 0.19579375 0.029076941
0.025422126 0.19581753 0.029074341
0.098228008 0.19586802 0.029016957
0.099722236 0.19584465 0.029042613
0.017309099 0.19647622 0.029746979
0.021617889 0.19649518 0.029746346
0.095306933 0.19650853 0.029735025
0.017341435 0.20189381 0.029356267
0.086350471 0.20189834 0.02936174
0.090396285 0.20191467 0.029341735
0.092188388 0.20187527 0.029375635
0.01590088 0.20787126 0.02991204
0.017439932 0.20720434 0.029214334
0.019455791 0.2078895 0.029900417
0.021446735 0.20751089 0.029582549
0.023422629 0.20753568 0.029568952
0.027510792 0.20782858 0.029946115
0.031867683 0.20780551 0.029966827
0.037361026 0.20721847 0.029210284
0.038650006 0.20783401 0.029953506
0.051725209 0.20784181 0.029939838
0.055709153 0.20787752 0.029914122
0.059490234 0.20723611 0.029176962
0.061486244 0.20782328 0.029946961
0.063304722 0.20753652 0.029563144
0.065517843 0.20721042 0.02921414
0.067344189 0.2071839 0.029230241
0.069107533 0.20720845 0.029233996
0.07421869 0.20715833 0.029263183
0.076692998 0.20777088 0.029991627
0.080458224 0.20721555 0.029206801
0.082748652 0.20788115 0.029898677
0.083644509 0.20726091 0.029141817
0.094334066 0.20785743 0.029915579
0.096145213 0.20787126 0.029900141
0.098366112 0.20787597 0.02986858
0.10017419 0.20785439 0.029913887
0.10482144 0.20786065 0.029913992
0.1120272 0.20783365 0.029932614
0.11563405 0.20781529 0.029946536
0.12107107 0.20783216 0.029940881
0.12250441 0.20786476 0.029908951
0.12649724 0.20785099 0.029917311
0.13054883 0.20723772 0.029164482
0.13225621 0.20781845 0.029956128
0.027331352 0.21256018 0.029151637
0.033799589 0.21253026 0.029158767
0.037068337 0.21250421 0.029176168
0.042130768 0.21249366 0.029166907
0.044656992 0.21256036 0.029126395
0.053673416 0.21257156 0.029142015
0.057324171 0.21252221 0.029149469
0.059462547 0.21255827 0.029136945
0.06127426 0.21251112 0.029181406
0.06924656 0.21250898 0.029160094
0.080471218 0.21248388 0.029213596
0.092688471 0.21254736 0.029120296
0.094555944 0.21253568 0.029154599
0.096365869 0.2125833 0.029090803
0.10214517 0.2125681 0.029128071
0.1039381 0.21254462 0.029142432
0.11550015 0.21258247 0.029104754
0.11908212 0.21250427 0.029175527
0.12053818 0.21255803 0.029118709
0.12625226 0.21258211 0.029119253
0.12733388 0.21255982 0.029120699
0.13134179 0.21256393 0.029120147
0.13991222 0.21252841 0.029162746
0.14354908 0.21258402 0.029103361
0.14574882 0.21250713 0.029179715
0.15235387 0.21252751 0.02915182
0.15526661 0.21254647 0.02912648
0.015921712 0.21314633 0.029903937
0.016311884 0.21314365 0.029908646
0.017750978 0.21310622 0.029937025
0.019591331 0.21316719 0.029874962
0.022813529 0.2132197 0.029846132
0.025051296 0.21312732 0.029913068
0.027218014 0.21317667 0.02987992
0.029021472 0.21313024 0.029907182
0.031586051 0.21314484 0.029896304
0.033726573 0.21312225 0.029896963
0.03838414 0.21310502 0.029938623
0.039512426 0.21311867 0.029911902
0.04197225 0.21311259 0.029930882
0.043438762 0.21311396 0.029936321
0.048116863 0.21314424 0.029905841
0.049599022 0.21316779 0.029879231
0.055605799 0.21314996 0.029885285
0.063364029 0.21316725 0.029888365
0.071256429 0.21314478 0.029903609
0.073085606 0.21308321 0.029973924
0.080322236 0.213081 0.029952697
0.082168519 0.21313745 0.02991211
0.083856255 0.21314371 0.029906467
0.085362196 0.21315938 0.029877339
0.087362319 0.2131722 0.029870264
0.10708871 0.21316987 0.029863864
0.10963601 0.21312141 0.029907294
0.1106568 0.21319652 0.029850375
0.11175966 0.21317416 0.029859293
0.1127989 0.21315336 0.029893555
0.11429119 0.2130906 0.029928274
0.11679852 0.21319908 0.029845573
0.11784193 0.21314013 0.029898345
0.12043387 0.21314621 0.029900733
0.12186497 0.21318859 0.029875487
0.12478802 0.21312541 0.029897861
0.12868577 0.21315765 0.029877897
0.13447964 0.2131266 0.029892441
0.14147243 0.21313149 0.029906355
0.14342496 0.21321374 0.029846027
0.14898184 0.21320647 0.029855575
0.15227149 0.21313167 0.029915188
0.035305053 0.2178086 0.029254906
0.049720824 0.21778274 0.029254973
0.053554028 0.21780539 0.029255245
0.090908617 0.2178244 0.029231906
0.092286557 0.21779877 0.029274367
0.10140368 0.21781647 0.029231474
0.11765251 0.2178095 0.029244442
0.13459802 0.21785051 0.029221896
0.1378814 0.21779472 0.029267862
0.14107427 0.21786267 0.029210407
0.14958701 0.21780831 0.029258244
0.15017197 0.21782476 0.02924769
0.15244813 0.21782041 0.029246848
0.048876196 0.1354928 0.030546356
0.11858898 0.15882581 0.030705832
0.020230234 0.16567612 0.030673541
0.023869753 0.16570431 0.030664153
0.11807701 0.1657384 0.030634668
0.02629292 0.17199743 0.030048702
0.023000747 0.17262179 0.030787081
0.018157721 0.17878169 0.03044511
0.023213923 0.17877346 0.030435275
0.023421407 0.18489128 0.030314006
0.022290081 0.18559915 0.030957151
0.021704674 0.19137388 0.03062772
0.023460984 0.19172764 0.03097634
0.024006784 0.19710511 0.030462638
0.10167259 0.19717342 0.030423071
0.015417904 0.20245034 0.030171163
0.021640211 0.20251781 0.030132551
0.095370203 0.20253414 0.030058604
0.017518044 0.20316666 0.030810039
0.019374669 0.2031067 0.030870687
0.021541566 0.20315588 0.03083726
0.089142799 0.20311981 0.030862842
0.071588188 0.20776272 0.030000761
0.074073851 0.20777637 0.03001795
0.01759553 0.2084505 0.030674409
0.019387633 0.20848554 0.030660473
0.021278441 0.20843589 0.030666478
0.048023522 0.20844406 0.030683637
0.055631608 0.2085036 0.03064156
0.061399549 0.20843071 0.030703779
0.063146591 0.20841885 0.030714884
0.069302619 0.20847118 0.030668128
0.071518034 0.20836657 0.030763146
0.073993176 0.2084226 0.030727617
0.076380879 0.20839149 0.030724339
0.078542948 0.20841432 0.030723568
0.080475092 0.20845175 0.03068592
0.083814353 0.20849645 0.030627176
0.085554004 0.20846415 0.030659795
0.08736065 0.20847094 0.030652642
0.10833156 0.20851356 0.030617859
0.1134209 0.20851213 0.030624073
0.11446157 0.20851618 0.030636888
0.11841586 0.20849895 0.03063897
0.12784174 0.20847732 0.030656036
0.12818053 0.20846921 0.030665595
0.019462973 0.2137717 0.030630529
0.026839137 0.21374238 0.030640479
0.031502724 0.21375364 0.030647371
0.033649862 0.21373481 0.030638974
0.046247482 0.21373165 0.030661337
0.055315346 0.21375418 0.030636292
0.061401308 0.21374506 0.030642513
0.06298247 0.21376234 0.030630421
0.065458655 0.2137118 0.030675128
0.073030353 0.21370846 0.030701812
0.090989113 0.21379912 0.030605551
0.09429425 0.21375 0.030644838
0.097951591 0.21377075 0.030637953
0.099706918 0.21377683 0.030633118
0.10551962 0.21376055 0.030635137
0.1084455 0.21375889 0.030650463
0.11559573 0.21378636 0.030609831
0.12612489 0.21379256 0.030614402
0.12756538 0.21375668 0.030636128
0.13436005 0.21375448 0.030637067
0.14557478 0.21372414 0.030672137
0.14848351 0.21379429 0.030609485
0.056770265 0.12830663 0.031616878
0.058576673 0.12834293 0.031581365
0.018745393 0.16642618 0.031283498
0.021057367 0.17948669 0.031071067
0.016939431 0.18016726 0.031774234
0.022355586 0.18014598 0.031792097
0.014963061 0.18626058 0.03166284
0.017500699 0.18627244 0.031639691
0.01515165 0.19238973 0.031655088
0.019275814 0.19774389 0.031202618
0.097807407 0.19779903 0.031144615
0.099483162 0.19776756 0.031189188
0.01735267 0.1983766 0.031925846
0.092486084 0.19843894 0.031855781
0.096500486 0.19840348 0.03189756
0.015630841 0.20372009 0.031598482
0.06153816 0.20379007 0.031540241
0.067366421 0.20371026 0.031637494
0.074571669 0.20369101 0.031642795
0.081774294 0.20377928 0.031550623
0.0832268 0.20377439 0.031571425
0.09189406 0.20376849 0.031562578
0.017517298 0.20907784 0.031415898
0.019354135 0.20906371 0.03141946
0.04430759 0.20902705 0.031437203
0.057663381 0.20906353 0.03141528
0.059473813 0.20905161 0.031444333
0.065266848 0.20911521 0.031379323
0.073943049 0.20904022 0.031465665
0.080199301 0.20906168 0.031431433
0.094530731 0.2091071 0.031376407
0.10753441 0.20904493 0.031430855
0.10967731 0.20907366 0.03139047
0.13097286 0.20908266 0.031391073
0.13598728 0.20911944 0.031377953
0.14181274 0.20910662 0.031392224
0.042136163 0.21434885 0.031418029
0.055211931 0.21435624 0.031404663
0.061278254 0.21435434 0.031403098
0.066751122 0.21434456 0.031417456
0.099630803 0.21438617 0.03136548
0.12055403 0.21435148 0.031397451
0.12205055 0.21440685 0.031349834
0.12490872 0.21433765 0.031412244
0.13430542 0.21436816 0.031369928
0.13789928 0.21441841 0.031334545
0.15172014 0.21434885 0.031412449
0.053490132 0.12978727 0.032759491
0.055318713 0.12906486 0.032185256
0.04664439 0.13836432 0.032970928
0.018716276 0.18080342 0.032452866
0.10464793 0.19306558 0.032328237
0.10568535 0.19307113 0.032341212
0.098957241 0.19905865 0.032585412
0.10150659 0.19900906 0.032630052
0.021454751 0.20436996 0.032302607
0.063966036 0.20436883 0.032329954
0.072652996 0.20431036 0.032394506
0.084344059 0.20436513 0.032325402
0.086691409 0.20504302 0.032974202
0.029766679 0.20967692 0.032169819
0.063347608 0.20966494 0.032188591
0.069108099 0.20968777 0.03216181
0.098428965 0.20971787 0.032104172
0.10712612 0.20968562 0.032159142
0.10927472 0.2097398 0.032105234
0.12008548 0.20968896 0.032161601
0.019493669 0.21025664 0.032939553
0.14673758 0.21036583 0.032849196
0.090839922 0.21497434 0.032129601
0.10392249 0.21497446 0.032130644
0.15125825 0.21494877 0.032153446
0.038758188 0.24796027 0.032070238
0.051704139 0.13049346 0.033352345
0.05418542 0.13053125 0.033318035
0.050185531 0.13128847 0.033897184
0.052387744 0.13123089 0.033937097
0.017968446 0.16151303 0.033321675
0.10058749 0.19368649 0.033045683
0.10347557 0.1936307 0.033101086
0.040958345 0.19429833 0.033778135
0.090893835 0.1996702 0.033319473
0.076929331 0.20498711 0.033056621
0.077324659 0.20499659 0.033054717
0.083037615 0.20502222 0.033019088
0.10761449 0.20502138 0.033031791
0.078966081 0.12336481 0.03457525
0.043648243 0.13974708 0.03421858
0.11299595 0.1760242 0.034080084
0.1090084 0.18889034 0.03440116
0.10150641 0.19495529 0.034467392
0.10255861 0.19495332 0.034494672
0.10517621 0.19499427 0.034450781
0.1004332 0.19500977 0.034434207
0.089387864 0.20034283 0.034012876
0.091543168 0.20033878 0.03401674
0.092166632 0.2009719 0.034752432
0.095940679 0.20032835 0.034038715
0.096565694 0.20096868 0.034746721
0.097695827 0.20031834 0.034038406
0.078175902 0.20624375 0.034512356
0.025775433 0.2450844 0.034420077
0.057690442 0.12483764 0.035700679
0.059098572 0.12482101 0.035748828
0.060181439 0.12480521 0.035755202
0.065210342 0.12482834 0.035736889
0.080397218 0.12411469 0.035144072
0.081092507 0.1248458 0.035726577
0.049105674 0.13271135 0.035118043
0.04983595 0.13341916 0.035724103
0.11005676 0.17739397 0.035404995
0.10494602 0.18954456 0.035101112
0.10962066 0.18956155 0.035105973
0.11114329 0.18954808 0.035090063
0.10327482 0.19557929 0.035213903
0.079074651 0.20163596 0.035434518
0.086348653 0.20160586 0.035446707
0.088171959 0.20160717 0.035464581
0.060823768 0.20685661 0.035257619
0.074092567 0.20682472 0.035294272
0.063374609 0.12634051 0.036873545
0.064861417 0.1262759 0.036903184
0.046431392 0.13494343 0.036837153
0.047946155 0.13418233 0.03626176
0.048669785 0.13489366 0.036856867
0.11765298 0.16501564 0.036525238
0.10445163 0.19090188 0.036461033
0.10697928 0.19088054 0.036469959
0.07361573 0.20215631 0.036258586
0.080843717 0.202245 0.036178391
0.091266096 0.20287681 0.036906105
0.055863619 0.12707752 0.037429571
0.057971299 0.12784809 0.037968844
0.059069514 0.12707531 0.037427604
0.04720372 0.13569218 0.037401162
0.042552322 0.14410508 0.037800971
0.10370943 0.191598 0.037110168
0.10253453 0.19219339 0.037853073
0.10648438 0.19217092 0.037887853
0.10760084 0.19218969 0.037868764
0.09927091 0.19753677 0.037317552
0.092529893 0.19821894 0.037965931
0.078122437 0.20348215 0.037644494
0.08571586 0.2035464 0.03757333
0.054454893 0.12778836 0.03800201
0.060921997 0.1277898 0.038026422
0.052894354 0.12858129 0.038537361
0.055137128 0.12854683 0.03856834
0.056916416 0.12854069 0.038586441
0.060183495 0.12854171 0.038595553
0.043291658 0.13638347 0.038000964
0.045411557 0.13635486 0.038038228
0.043937802 0.13711059 0.038609099
0.036313802 0.15253788 0.038394719
0.096817404 0.19886702 0.038700841
0.061503023 0.20417422 0.038294487
0.078740418 0.20410258 0.038373556
0.084533393 0.204166 0.038315244
0.049335986 0.13005775 0.039671391
0.051460147 0.13000977 0.039715465
0.054026246 0.1300543 0.039658312
0.042816073 0.13856632 0.039793309
0.11620274 0.17469591 0.039106891
0.10631517 0.18754923 0.039186925
0.11455265 0.1881761 0.039899237
0.086998641 0.19954062 0.039362822
0.089872599 0.19948906 0.039398521
0.065094352 0.12297118 0.040996529
0.05001542 0.13078833 0.040261671
0.052172124 0.13078403 0.040266339
0.048589408 0.1315189 0.040850576
0.04133004 0.13926429 0.040417764
0.11631003 0.16230005 0.040498007
0.11056617 0.18879962 0.040607184
0.11175135 0.1888786 0.040558212
0.11331722 0.18886429 0.040567439
0.11444974 0.18883461 0.040578295
0.08397603 0.20017767 0.040088449
0.067569971 0.12288851 0.041092597
0.069069535 0.12291712 0.041059129
0.080914736 0.12296242 0.041002214
0.060413241 0.12371683 0.041557271
0.066821963 0.12366748 0.041613076
0.07085982 0.12370557 0.041588783
0.072253317 0.12366253 0.041629054
0.073786229 0.12364221 0.041613247
0.051077694 0.13224888 0.041425321
0.049675554 0.13303155 0.041950975
0.042358816 0.14074683 0.041582737
0.11752179 0.16372079 0.041758493
0.10650915 0.18951797 0.041248221
0.10775748 0.18952239 0.041268315
0.10385096 0.19016564 0.041956298
0.10969916 0.19015187 0.041968048
0.099368155 0.19548911 0.041317131
0.095354557 0.19618231 0.041969709
0.096807301 0.19614846 0.041972063
0.08095327 0.2014513 0.041521735
0.086192042 0.20142227 0.041528646
0.088221222 0.20148587 0.041461077
0.090411991 0.20142585 0.041511383
0.094343245 0.20144755 0.041507903
0.096529305 0.20143235 0.041529257
0.1022805 0.20140147 0.041548498
0.059684843 0.12441421 0.042170253
0.064692438 0.12444824 0.04212667
0.066154033 0.124466 0.042110417
0.068701833 0.12437701 0.042204972
0.070159972 0.12442791 0.042138483
0.07693848 0.12443888 0.042137023
0.082037002 0.12445641 0.042121112
0.083443463 0.12442112 0.042152509
0.062501281 0.12517667 0.042722274
0.071956336 0.12515897 0.042731989
0.079848021 0.12519389 0.042690106
0.084197968 0.12514204 0.042718302
0.047836095 0.13373297 0.0425472
0.041385651 0.14219368 0.042761628
0.043459862 0.14219946 0.042753715
0.11838451 0.16444385 0.0423708
0.11908063 0.16514844 0.042980976
0.10311618 0.19088948 0.042580854
0.087351888 0.20274162 0.042929523
0.092413545 0.20210135 0.042218864
0.056744546 0.12594503 0.043237481
0.061832011 0.12593877 0.043240067
0.064376473 0.12585258 0.043319114
0.065845311 0.12594891 0.043237042
0.086331695 0.12590808 0.043290697
0.055697888 0.12666798 0.0438224
0.058955133 0.12665528 0.043847419
0.0600802 0.12662935 0.043849055
0.061093509 0.1267094 0.043784901
0.085296273 0.12664825 0.043852862
0.044159085 0.13444269 0.043163847
0.04639101 0.13448596 0.043088745
0.048552781 0.13443708 0.043154761
0.03921473 0.14286864 0.043392628
0.039883792 0.14360893 0.043980516
0.097714841 0.19748187 0.0433672
0.054304093 0.12742436 0.044378389
0.057882011 0.12743288 0.044354923
0.055008024 0.12817371 0.044927135
0.043112934 0.13595611 0.044278387
0.045173526 0.13592273 0.044329081
0.047417879 0.13598239 0.044235945
0.043802142 0.13668698 0.044852342
0.10652524 0.18683732 0.044755593
0.10944226 0.18622148 0.044050042
0.09110713 0.19880635 0.044719871
0.095105767 0.19880056 0.044752296
0.10298869 0.19879472 0.044764955
0.053175032 0.12893379 0.045454744
0.057181031 0.12892991 0.045489252
0.041980147 0.13745332 0.045406472
0.04270041 0.13820291 0.04596284
0.038395435 0.14543492 0.045463461
0.11787465 0.16799551 0.04546931
0.1175276 0.16801524 0.045459196
0.10135019 0.1875962 0.04537924
0.10355034 0.18749976 0.045450334
0.10530955 0.18757778 0.045380943
0.089568794 0.1994341 0.045446895
0.088947743 0.20469099 0.0450329
0.05132699 0.12967634 0.04604556
0.053899378 0.12967044 0.046035271
0.056096524 0.12964934 0.04605956
0.054656744 0.13042325 0.046599582
0.039408952 0.14654171 0.046333816
0.036112249 0.1549328 0.046800897
0.11730996 0.16185832 0.046325866
0.11820629 0.16259331 0.046902087
0.10640907 0.19480473 0.046735857
0.085946977 0.2000879 0.046163537
0.090231568 0.20012283 0.046119757
0.094629139 0.20011282 0.046141561
0.097463608 0.20014143 0.046108153
