# .PCD v0.7 - Point Cloud Data file format
VERSION 0.7
FIELDS x y z normal_x normal_y normal_z curvature
SIZE 4 4 4 4 4 4 4
TYPE F F F F F F F
COUNT 1 1 1 1 1 1 1
WIDTH 1113
HEIGHT 1
VIEWPOINT 0 0 0 1 0 0 0
POINTS 1113
DATA ascii
0.27102506 -0.0254 -0.043639988 0 -1 0 0
0.12222967 -0.022155087 -0.043675307 0 0.98556036 0.16932456 0
0.16921744 -0.022154547 -0.04367844 0 0.98556036 0.16932456 0
0.3556127 0.010015303 -0.043587442 1 0 0 0
0.15771221 0.022141952 -0.043747775 0 -0.98245883 0.18647987 0
0.1626059 0.022158735 -0.043654066 0 -0.98556036 0.16932456 0
0.1413238 0.0254 -0.043618128 0 1 0 0
0.22958189 0.025400002 -0.043521848 0 1 0 0
0.1394987 -0.0254 -0.043415353 0 -1 0 0
0.24115047 -0.022196654 -0.043380916 0 0.99405688 0.10886223 0
0.20529725 0.022187725 -0.04345686 0 -0.99200529 0.12619656 0
0.29756185 0.022206444 -0.043282293 0 -0.99580717 0.09147729 0
0.016479572 0.0254 -0.043269388 0 1 0 0
0.12116529 0.0254 -0.043498948 0 1 0 0
0.013132607 -0.0254 -0.04313767 0 -1 0 0
0.10137825 -0.0254 -0.043191597 0 -1 0 0
0.10854399 -0.025399998 -0.043061063 0 -1 0 0
0.1416209 -0.0254 -0.043129586 0 -1 0 0
0.28463957 -0.0254 -0.0430899 0 -1 0 0
0.087719701 -0.022214562 -0.043176975 0 0.99785972 0.065391541 0
0.089096099 -0.022209628 -0.043244462 0 0.99656427 0.082822934 0
0.31800634 -0.022225 -0.043112248 0 1 0 0
0.35119787 0.020667475 -0.04324289 -0.74148697 -0.67096734 8.9504465e-07 0
0.054772109 0.022222025 -0.043030623 0 -0.99922907 0.039259274 0
0.069257542 0.022222511 -0.043015201 0 -0.99953276 0.030565929 0
0.081145674 0.022220694 -0.043064464 0 -0.99922907 0.039259266 0
0.19166751 0.022216178 -0.043152168 0 -0.99839181 0.056691159 0
0.012858232 0.0254 -0.043119743 0 1 0 0
0.028562818 0.0254 -0.043115452 0 1 0 0
0.04004328 0.0254 -0.043233939 0 1 0 0
0.14911395 0.025400002 -0.043103762 0 1 0 0
0.16182569 0.0254 -0.043229327 0 1 0 0
0.24730358 0.0254 -0.043228418 0 1 0 0
0.32960716 0.0254 -0.043222554 0 1 0 0
0.18137752 -0.0254 -0.042921469 0 -1 0 0
0.29391161 -0.0254 -0.042924397 0 -1 0 0
0.33898836 -0.025400002 -0.042805031 0 -1 0 0
0.13439034 -0.022225 -0.042857561 0 1 0 0
0.20223306 -0.022225 -0.042851508 0 1 0 0
0.30357659 -0.022225 -0.042841468 0 1 0 0
0.23527138 0.022225 -0.042788252 0 -1 0 0
0.16196649 0.0254 -0.042950183 0 1 0 0
0.21071263 0.025399998 -0.042971618 0 1 0 0
0.23469962 0.0254 -0.042934492 0 1 0 0
0.33090973 0.0254 -0.042904079 0 1 0 0
0.15793999 -0.0254 -0.042538106 0 -1 0 0
0.18839943 -0.025399998 -0.042565107 0 -1 0 0
0.21717878 -0.0254 -0.042541657 0 -1 0 0
0.15125358 -0.022225 -0.042725641 0 1 0 0
0.33949441 -0.022225 -0.042694949 0 1 0 0
0.046059471 0.022225 -0.042737942 0 -1 0 0
0.058719479 0.022225 -0.042705417 0 -1 0 0
0.19690543 0.022225 -0.042507485 0 -1 0 0
0.30077165 0.022224998 -0.042596053 0 -1 0 0
0.091020092 0.025400002 -0.042515907 0 1 0 0
0.26672253 0.025400002 -0.042557042 0 1 0 0
0.084109321 -0.0254 -0.04231206 0 -1 0 0
0.00088857493 -0.022225 -0.042300042 0 1 0 0
0.036140908 -0.022225 -0.04245453 0 1 0 0
0.047947686 -0.022225 -0.04248042 0 1 0 0
0.11670496 -0.022225 -0.042499486 0 1 0 0
0.31470117 -0.022225 -0.042398762 0 1 0 0
0.032768022 0.022225 -0.042499024 0 -1 0 0
0.041907039 0.022225 -0.042490952 0 -1 0 0
0.25534496 0.022225 -0.042251036 0 -1 0 0
0.3487004 0.022113323 -0.042305931 -0.2121357 -0.9772402 0 0
0.056945059 0.0254 -0.042312667 0 1 0 0
0.19156495 0.025399998 -0.042462479 0 1 0 0
0.34489191 0.025399998 -0.042264104 0 1 0 0
0.22085068 -0.0254 -0.042148903 0 -1 0 0
0.33800036 -0.0254 -0.042056456 0 -1 0 0
0.0078526018 -0.022225 -0.042005651 0 1 0 0
0.038251352 -0.022225 -0.042054895 0 1 0 0
0.28246725 -0.022225 -0.042111017 0 1 0 0
0.065690331 0.022225 -0.042074773 0 -1 0 0
0.091807067 0.022225 -0.042084798 0 -1 0 0
0.32883328 0.022225 -0.042184606 0 -1 0 0
0.14378616 0.025399998 -0.042090874 0 1 0 0
0.23156418 0.0254 -0.042002052 0 1 0 0
0.29750782 0.0254 -0.042247064 0 1 0 0
0.29982969 0.0254 -0.042059708 0 1 0 0
0.34984219 0.0254 -0.042081915 0 1 0 0
0.13646501 -0.025399998 -0.041846648 0 -1 0 0
0.24231994 -0.0254 -0.041942395 0 -1 0 0
0.35007918 -0.0254 -0.041957248 0 -1 0 0
0.024716329 -0.022225 -0.041933402 0 1 0 0
0.1465198 -0.022225 -0.041858189 0 1 0 0
0.28814849 -0.022225 -0.041764438 0 1 0 0
0.33315548 -0.022225 -0.041833591 0 1 0 0
0.35243773 -0.010777266 -0.041890364 -1 0 0 0
0.071785919 0.022225 -0.041957114 0 -1 0 0
0.10437355 0.025400002 -0.04185896 0 1 0 0
0.15126044 0.0254 -0.041780576 0 1 0 0
0.085985206 -0.0254 -0.041618932 0 -1 0 0
0.24749503 -0.0254 -0.041654423 0 -1 0 0
0.25210994 -0.025400002 -0.041680064 0 -1 0 0
0.25725669 -0.022225 -0.041548494 0 1 0 0
0.32299247 -0.022225 -0.041704103 0 1 0 0
0.34656626 -0.022225 -0.041662872 0 1 0 0
0.046674948 0.022225 -0.041677758 0 -1 0 0
0.27307791 0.022225 -0.041618343 0 -1 0 0
0.17763343 0.025400002 -0.041722674 0 1 0 0
0.25618476 0.0254 -0.041530512 0 1 0 0
0.0087710125 -0.0254 -0.041396938 0 -1 0 0
0.063018128 -0.0254 -0.041300774 0 -1 0 0
0.19180031 -0.0254 -0.041402481 0 -1 0 0
0.29371843 -0.0254 -0.041429054 0 -1 0 0
0.32498389 -0.0254 -0.041494317 0 -1 0 0
0.34525678 -0.025399998 -0.041370399 0 -1 0 0
0.3556127 0.0012343191 -0.041262846 1 0 0 0
0.12139678 -0.0254 -0.041179933 0 -1 0 0
0.12662244 -0.0254 -0.041165076 0 -1 0 0
0.21928254 -0.025400002 -0.041031104 0 -1 0 0
0.11654066 -0.022225 -0.041008197 0 1 0 0
0.13072832 0.0254 -0.041096076 0 1 0 0
0.23200069 0.025399998 -0.041166414 0 1 0 0
0.032221254 -0.0254 -0.040803187 0 -1 0 0
0.060846679 -0.022225 -0.040877316 0 1 0 0
0.079517849 -0.022225 -0.040967248 0 1 0 0
0.11835203 -0.022225 -0.040896397 0 1 0 0
0.33294892 -0.022225 -0.040913161 0 1 0 0
0.3524377 0.0084888581 -0.04081523 -1 0 0 0
0.3556127 0.015532242 -0.040998783 1 0 0 0
0.35128322 0.020571072 -0.040884409 -0.75632477 -0.65419632 -8.9355859e-07 0
0.044265509 0.022225 -0.0408841 0 -1 0 0
0.16835842 0.022225 -0.04090634 0 -1 0 0
0.042390652 0.025399998 -0.04091952 0 1 0 0
0.22019388 0.025399998 -0.04098222 0 1 0 0
0.23955803 0.025399998 -0.040899243 0 1 0 0
0.2593542 0.025400002 -0.04086576 0 1 0 0
0.26263601 0.025399998 -0.040963158 0 1 0 0
0.29624033 0.0254 -0.040972698 0 1 0 0
0.31623447 0.0254 -0.040894408 0 1 0 0
0.084443256 -0.025400002 -0.040575296 0 -1 0 0
0.14806914 -0.0254 -0.040621739 0 -1 0 0
0.31440011 -0.0254 -0.04065571 0 -1 0 0
0.13108264 -0.022225 -0.040529929 0 1 0 0
0.13942833 -0.022225 -0.040606622 0 1 0 0
0.27428207 -0.022225 -0.040665537 0 1 0 0
0.3556127 -0.010728123 -0.040617034 1 0 0 0
0.3524377 0.014252037 -0.040710617 -1 0 0 0
0.048408285 0.022225 -0.04064811 0 -1 0 0
0.087179601 0.022225 -0.040511221 0 -1 0 0
0.19642608 0.022225 -0.040655121 0 -1 0 0
0.11552028 -0.0254 -0.040376954 0 -1 0 0
0.1181881 -0.025399998 -0.04043147 0 -1 0 0
0.16627835 -0.0254 -0.040422238 0 -1 0 0
0.13720821 -0.022225 -0.040253196 0 1 0 0
0.27096969 -0.022225 -0.040478136 0 1 0 0
0.3521167 -0.01918124 -0.040478542 -0.93128115 0.36430135 7.0267015e-07 0
0.3524377 -0.011560116 -0.040270939 -1 0 0 0
0.061720841 0.022225 -0.040303949 0 -1 0 0
0.24327835 0.022225 -0.040462043 0 -1 0 0
0.10317293 0.0254 -0.040279411 0 1 0 0
0.15235125 -0.025399998 -0.040078834 0 -1 0 0
0.17549597 -0.025400002 -0.040181182 0 -1 0 0
0.284026 -0.025399998 -0.04019526 0 -1 0 0
0.31514448 -0.0254 -0.040219374 0 -1 0 0
0.35185277 -0.025293238 -0.040051602 0.21213569 -0.9772402 0 0
0.088588469 -0.022225 -0.040132087 0 1 0 0
0.30869737 -0.022225 -0.04024547 0 1 0 0
0.23852398 0.022225 -0.040001065 0 -1 0 0
0.24330346 0.022225 -0.040083222 0 -1 0 0
0.33916584 0.022225 -0.040107064 0 -1 0 0
0.028264843 0.0254 -0.040150899 0 1 0 0
0.23294701 0.025400002 -0.040105406 0 1 0 0
0.012332717 -0.0254 -0.039864082 0 -1 0 0
0.095379919 -0.0254 -0.039907299 0 -1 0 0
0.11022522 -0.025400002 -0.039959267 0 -1 0 0
0.069908634 -0.022225 -0.039962769 0 1 0 0
0.17525072 -0.022225 -0.039876614 0 1 0 0
0.3556127 -0.016513081 -0.039825119 1 0 0 0
0.16088974 0.022225 -0.03987731 0 -1 0 0
0.18865816 0.022225 -0.039804239 0 -1 0 0
0.094774522 0.0254 -0.03988358 0 1 0 0
0.18933831 0.0254 -0.039867781 0 1 0 0
0.33647168 0.0254 -0.039839249 0 1 0 0
0.064336278 -0.0254 -0.039622944 0 -1 0 0
0.12720683 -0.0254 -0.03964147 0 -1 0 0
0.16676618 -0.025400002 -0.03970021 0 -1 0 0
0.21915516 -0.025400002 -0.039639466 0 -1 0 0
0.22062314 -0.025400002 -0.039686434 0 -1 0 0
0.087919354 -0.022225 -0.039708573 0 1 0 0
0.1792516 -0.022225 -0.039543819 0 1 0 0
0.3556127 -0.013801697 -0.039598234 1 0 0 0
0.041554637 0.022225 -0.03960539 0 -1 0 0
0.094134018 0.022225 -0.039538059 0 -1 0 0
0.098194875 0.022225 -0.039713576 0 -1 0 0
0.1085427 0.0254 -0.039686017 0 1 0 0
0.20097837 0.025400002 -0.039621335 0 1 0 0
0.26175359 0.0254 -0.039668154 0 1 0 0
0.068950407 -0.0254 -0.039437063 0 -1 0 0
0.31109411 -0.0254 -0.039287828 0 -1 0 0
0.32842591 -0.025400002 -0.039440006 0 -1 0 0
0.19188677 -0.022225 -0.039300717 0 1 0 0
0.26049474 -0.022225 -0.039479576 0 1 0 0
0.058056101 0.022225 -0.039260868 0 -1 0 0
0.23511246 0.022225 -0.039461795 0 -1 0 0
0.26428217 0.0254 -0.039438266 0 1 0 0
0.31281102 0.025400002 -0.039307725 0 1 0 0
0.2282964 -0.025399998 -0.039017532 0 -1 0 0
0.19175561 -0.022225 -0.039218806 0 1 0 0
0.22100069 0.0254 -0.039170004 0 1 0 0
0.073931292 -0.0254 -0.038854506 0 -1 0 0
0.10581342 -0.0254 -0.038790692 0 -1 0 0
0.11425112 -0.025399998 -0.038989469 0 -1 0 0
0.07823018 -0.022225 -0.038861662 0 1 0 0
0.12892501 -0.022225 -0.03889231 0 1 0 0
0.2411771 -0.022225 -0.03877398 0 1 0 0
0.072811142 0.022225 -0.038838718 0 -1 0 0
0.18124415 0.022225 -0.038777314 0 -1 0 0
0.082768716 0.0254 -0.038850363 0 1 0 0
0.27093744 0.025400002 -0.038843688 0 1 0 0
0.039314184 -0.022225 -0.038545035 0 1 0 0
0.1053652 -0.022225 -0.038514234 0 1 0 0
0.33353466 -0.022225 -0.038601674 0 1 0 0
0.14917786 0.022225 -0.038506068 0 -1 0 0
0.29670352 0.022225 -0.038663052 0 -1 0 0
0.29751837 0.022225 -0.038515661 0 -1 0 0
0.1190847 0.0254 -0.038554918 0 1 0 0
0.17841959 0.025399998 -0.038622044 0 1 0 0
0.28235561 0.0254 -0.038507499 0 1 0 0
0.18787053 -0.0254 -0.038404156 0 -1 0 0
0.082121782 -0.022225 -0.038480289 0 1 0 0
0.047590468 0.022225 -0.038423661 0 -1 0 0
0.11099788 0.022225 -0.038495518 0 -1 0 0
0.06150496 0.0254 -0.038488302 0 1 0 0
0.15260784 0.0254 -0.03840217 0 1 0 0
0.27348837 0.0254 -0.038286179 0 1 0 0
0.33751017 0.025399998 -0.038478035 0 1 0 0
0.11228645 -0.025400002 -0.038185868 0 -1 0 0
0.13180546 -0.022225 -0.038074128 0 1 0 0
0.34726691 -0.022225 -0.038175713 0 1 0 0
0.3556127 0.015852604 -0.038093306 1 0 0 0
0.19122148 0.022225 -0.038020466 0 -1 0 0
0.32190228 0.022225 -0.038226623 0 -1 0 0
0.066206567 0.025399998 -0.038216017 0 1 0 0
0.17209178 0.025400002 -0.038183559 0 1 0 0
0.068224058 -0.0254 -0.037890714 0 -1 0 0
0.072901934 -0.0254 -0.037903175 0 -1 0 0
0.17005631 -0.025400002 -0.037756372 0 -1 0 0
0.23832679 -0.0254 -0.037830137 0 -1 0 0
0.33647215 -0.0254 -0.037877101 0 -1 0 0
0.011600532 -0.022225 -0.037981268 0 1 0 0
0.18198502 -0.022225 -0.037899956 0 1 0 0
0.35543883 -0.021912532 -0.037753262 0.96297151 -0.26960337 0 0
0.3556127 -0.0057082754 -0.037816968 1 0 0 0
0.0030220975 0.022225 -0.037963878 0 -1 0 0
0.27025345 0.022225002 -0.03795632 0 -1 0 0
0.28105858 0.022225 -0.037982479 0 -1 0 0
0.29755837 0.022225 -0.03799323 0 -1 0 0
0.26448342 0.0254 -0.03788849 0 1 0 0
0.019920105 -0.025399998 -0.037647728 0 -1 0 0
0.049411628 -0.0254 -0.037636787 0 -1 0 0
0.17986816 -0.022225 -0.037572093 0 1 0 0
0.19962107 -0.022225 -0.037731007 0 1 0 0
0.24088399 -0.022225 -0.0376059 0 1 0 0
0.2560553 0.022225 -0.037664026 0 -1 0 0
0.25742868 0.022225 -0.03771887 0 -1 0 0
0.30036214 0.022225 -0.037730273 0 -1 0 0
0.03683975 0.025400002 -0.037602171 0 1 0 0
0.037536841 0.0254 -0.037521318 0 1 0 0
0.046408869 0.0254 -0.037563212 0 1 0 0
0.039615627 -0.025400002 -0.03732105 0 -1 0 0
0.22791556 -0.025399998 -0.037300907 0 -1 0 0
0.33896953 -0.025399998 -0.037304115 0 -1 0 0
0.0067821913 -0.022225 -0.037378829 0 1 0 0
0.038029905 -0.022225 -0.037404411 0 1 0 0
0.23466152 -0.022225 -0.037415504 0 1 0 0
0.26315928 -0.022225 -0.037297379 0 1 0 0
0.32433015 -0.022225 -0.037304994 0 1 0 0
0.067533173 0.022225 -0.037423935 0 -1 0 0
0.087116368 0.022225 -0.037416536 0 -1 0 0
0.056401707 0.0254 -0.037455644 0 1 0 0
0.10229212 0.0254 -0.037351366 0 1 0 0
0.17971902 0.0254 -0.037372425 0 1 0 0
0.26140851 0.0254 -0.037444152 0 1 0 0
0.34176865 0.0254 -0.037253365 0 1 0 0
0.16416349 -0.025400002 -0.037163556 0 -1 0 0
0.0089705158 -0.022225 -0.037040088 0 1 0 0
0.19621681 -0.022225 -0.03707331 0 1 0 0
0.19782698 -0.022225 -0.037173647 0 1 0 0
0.27227119 -0.022225 -0.037126787 0 1 0 0
0.3556127 0.017125819 -0.037198056 1 0 0 0
0.3556127 0.018524161 -0.037177697 1 0 0 0
0.070770264 0.022225 -0.037113909 0 -1 0 0
0.15899512 0.022225 -0.037051447 0 -1 0 0
0.016846836 0.0254 -0.03713499 0 1 0 0
0.22720999 -0.0254 -0.036908697 0 -1 0 0
0.34536022 -0.0254 -0.036867522 0 -1 0 0
0.25750235 -0.022225 -0.03677018 0 1 0 0
0.090185985 0.022225 -0.036779232 0 -1 0 0
0.19424608 0.022225 -0.036834992 0 -1 0 0
0.23313987 0.022225 -0.036932848 0 -1 0 0
0.18703824 0.025399998 -0.036823992 0 1 0 0
0.20597403 0.025399998 -0.036818843 0 1 0 0
0.27099019 0.025399998 -0.036845066 0 1 0 0
0.15352979 -0.025399998 -0.036572829 0 -1 0 0
0.093689986 -0.022225 -0.036675505 0 1 0 0
0.16772534 -0.022225 -0.036671113 0 1 0 0
0.21573678 -0.022225 -0.036560915 0 1 0 0
0.25262925 -0.022225 -0.036549538 0 1 0 0
0.34373453 -0.022225 -0.036557566 0 1 0 0
0.16504505 0.022225 -0.036646057 0 -1 0 0
0.19618687 0.022225 -0.036580801 0 -1 0 0
0.20419566 0.025400002 -0.036673289 0 1 0 0
0.050194778 -0.022225 -0.036478005 0 1 0 0
0.18374301 -0.022225 -0.036423184 0 1 0 0
0.22690338 -0.022225 -0.036376569 0 1 0 0
0.30180833 0.022225 -0.036336433 0 -1 0 0
0.31999809 0.022225 -0.036271337 0 -1 0 0
2.047853e-17 0.02337366 -0.036397815 -1 2.6898181e-15 2.6898198e-15 0
0.020683754 0.0254 -0.036303878 0 1 0 0
0.027216613 0.0254 -0.036480855 0 1 0 0
0.10856712 0.0254 -0.03643623 0 1 0 0
0.21386224 0.0254 -0.036471914 0 1 0 0
0.056630004 -0.025399998 -0.036172785 0 -1 0 0
0.11778434 -0.0254 -0.036100321 0 -1 0 0
0.22426632 -0.0254 -0.036155473 0 -1 0 0
0.26197302 -0.0254 -0.036161955 0 -1 0 0
0.27737683 -0.025400002 -0.036083337 0 -1 0 0
0.092737459 -0.022225 -0.036089737 0 1 0 0
0.16567001 -0.022225 -0.036180284 0 1 0 0
0.2688404 -0.022225 -0.036052201 0 1 0 0
0.3556127 -0.019972336 -0.036207043 1 0 0 0
0.3556127 0.0073359618 -0.036053162 1 0 0 0
0.35243767 0.012523804 -0.036122259 -1 0 0 0
0.089984283 0.022225 -0.036240846 0 -1 0 0
0.017222956 0.0254 -0.036034841 0 1 0 0
0.020393403 0.0254 -0.036096368 0 1 0 0
0.33766583 0.025399998 -0.036123302 0 1 0 0
0.071534812 -0.0254 -0.035939291 0 -1 0 0
0.093193568 -0.025400002 -0.035801351 0 -1 0 0
0.10480479 -0.0254 -0.035794847 0 -1 0 0
0.14396155 -0.0254 -0.035909466 0 -1 0 0
0.25241932 -0.0254 -0.035905905 0 -1 0 0
0.33093044 -0.025399998 -0.035967104 0 -1 0 0
0.0033735943 -0.022225 -0.035787553 0 1 0 0
0.028001186 -0.022225 -0.03584528 0 1 0 0
0.083323248 -0.022225 -0.03599618 0 1 0 0
0.1101288 -0.022225 -0.035894413 0 1 0 0
0.33417904 -0.022225 -0.035819598 0 1 0 0
0.34935755 -0.021917915 -0.035928637 -0.35430425 0.93513018 0 0
0.05202977 0.022225 -0.035869494 0 -1 0 0
0.16295227 0.022225 -0.035808966 0 -1 0 0
0.25256991 0.022225 -0.035902921 0 -1 0 0
0.27010271 0.022225 -0.035961661 0 -1 0 0
0.0075229052 0.0254 -0.03577996 0 1 0 0
0.037674673 0.0254 -0.035941776 0 1 0 0
0.12093309 0.025400002 -0.035831854 0 1 0 0
0.12148488 0.025400002 -0.035830207 0 1 0 0
0.29647496 0.0254 -0.035766229 0 1 0 0
0.35041028 0.025400002 -0.035963722 0 1 0 0
0.10562117 -0.0254 -0.035526294 0 -1 0 0
0.11750308 -0.0254 -0.035518631 0 -1 0 0
0.12024771 -0.025399998 -0.035636127 0 -1 0 0
0.21937925 -0.0254 -0.035510212 0 -1 0 0
0.3556127 -0.0065257424 -0.035566192 1 0 0 0
0.067840233 0.022225 -0.035589948 0 -1 0 0
0.11301926 0.022225 -0.035549056 0 -1 0 0
0.13563251 0.022225 -0.035728633 0 -1 0 0
0.21918751 0.022225 -0.035532825 0 -1 0 0
0.077181593 0.025400002 -0.035577707 0 1 0 0
0.20495591 0.0254 -0.03555603 0 1 0 0
0.33639371 0.025399998 -0.035631172 0 1 0 0
0.04109782 -0.0254 -0.035472397 0 -1 0 0
0.20696267 -0.0254 -0.035423934 0 -1 0 0
0.20965548 -0.0254 -0.035394438 0 -1 0 0
0.22766197 -0.0254 -0.035356402 0 -1 0 0
0.11943223 -0.022225 -0.035385657 0 1 0 0
0.3556127 0.010340552 -0.035409972 1 0 0 0
0.091930777 0.022225 -0.035313681 0 -1 0 0
0.12554283 0.022225 -0.035456087 0 -1 0 0
0.34381264 0.022225 -0.035279911 0 -1 0 0
0.21362795 0.0254 -0.035397742 0 1 0 0
0.30983269 0.0254 -0.035404157 0 1 0 0
0.07809747 -0.025400002 -0.035249792 0 -1 0 0
0.088128619 -0.025400002 -0.035218742 0 -1 0 0
0.25099933 -0.025400002 -0.035003968 0 -1 0 0
0.25262228 -0.0254 -0.035190497 0 -1 0 0
0.12945539 -0.022225 -0.035027381 0 1 0 0
0.24071689 -0.022225 -0.035035346 0 1 0 0
0.24167021 -0.022225 -0.035155308 0 1 0 0
0.012370188 0.022225 -0.035101164 0 -1 0 0
0.13423568 0.022225 -0.035005372 0 -1 0 0
0.15941194 0.022225 -0.035107046 0 -1 0 0
0.19894993 0.022225 -0.035229564 0 -1 0 0
0.13808742 0.0254 -0.035030507 0 1 0 0
0.25813422 0.0254 -0.03518521 0 1 0 0
0.3386547 0.025399998 -0.035206426 0 1 0 0
0.31779748 -0.025400002 -0.034844242 0 -1 0 0
0.12656513 -0.022225 -0.034759704 0 1 0 0
0.028739499 0.022225 -0.034973688 0 -1 0 0
0.31073523 0.022225 -0.034960382 0 -1 0 0
0.32585865 0.022225 -0.034832515 0 -1 0 0
0.082849495 0.0254 -0.034972541 0 1 0 0
0.041182749 -0.025400002 -0.034509823 0 -1 0 0
0.049971402 -0.025400002 -0.034633677 0 -1 0 0
0.084669977 -0.0254 -0.034586731 0 -1 0 0
0.31286964 -0.025399998 -0.034552652 0 -1 0 0
0.2228466 -0.022225 -0.034578688 0 1 0 0
0.33747438 0.022225 -0.034705609 0 -1 0 0
0.27210328 0.0254 -0.03454252 0 1 0 0
0.013574775 -0.025400002 -0.034319401 0 -1 0 0
0.18270279 -0.025399998 -0.034382775 0 -1 0 0
0.26407418 -0.025400002 -0.034282744 0 -1 0 0
0.3423422 -0.025399998 -0.034276377 0 -1 0 0
0.002283853 -0.022225 -0.034410138 0 1 0 0
0.092736401 -0.022225 -0.034496844 0 1 0 0
0.21780376 -0.022225 -0.03435611 0 1 0 0
0.26785135 -0.022225 -0.03425796 0 1 0 0
0.35148641 -0.020318348 -0.034313753 -0.80252063 0.59662437 -1.0777803e-06 0
0.3524377 0.0022572419 -0.034388576 -1 0 0 0
0.077840164 0.022225 -0.034491003 0 -1 0 0
0.2509037 0.022225 -0.034466051 0 -1 0 0
0.069417804 0.025400002 -0.034286607 0 1 0 0
0.18840525 0.025399998 -0.034352366 0 1 0 0
0.24875082 0.0254 -0.034416035 0 1 0 0
0.27728471 0.025400002 -0.034276735 0 1 0 0
0.17219558 -0.0254 -0.034125488 0 -1 0 0
0.22420043 -0.0254 -0.034046896 0 -1 0 0
0.24527098 -0.0254 -0.034154713 0 -1 0 0
0.1107028 -0.022225 -0.034079567 0 1 0 0
0.21102732 -0.022225 -0.034129661 0 1 0 0
0.2735903 -0.022225 -0.034172017 0 1 0 0
0.044003878 0.022225 -0.034159418 0 -1 0 0
0.25856262 0.022225 -0.034140825 0 -1 0 0
0.030707879 0.0254 -0.034015276 0 1 0 0
0.10488185 0.0254 -0.034105122 0 1 0 0
0.24695858 0.025400002 -0.034156643 0 1 0 0
0.11632054 -0.025400002 -0.033911191 0 -1 0 0
0.022685692 -0.022225 -0.033861581 0 1 0 0
0.13614909 -0.022225 -0.033874396 0 1 0 0
0.22745997 -0.022225 -0.033789486 0 1 0 0
0.27841657 -0.022225 -0.033765461 0 1 0 0
0.18279237 0.022225 -0.033940576 0 -1 0 0
0.029675808 -0.025400002 -0.03364294 0 -1 0 0
0.12422376 -0.025400002 -0.033618659 0 -1 0 0
0.21036354 -0.0254 -0.033629835 0 -1 0 0
0.31162494 -0.025399998 -0.033594146 0 -1 0 0
0.025247969 -0.022225 -0.03367988 0 1 0 0
0.045840818 0.022225 -0.033720512 0 -1 0 0
0.092225507 0.022225 -0.033609811 0 -1 0 0
0.09602312 0.022225 -0.03365428 0 -1 0 0
0.27409613 0.022225 -0.033713281 0 -1 0 0
0.15902388 0.0254 -0.033555835 0 1 0 0
0.085728273 -0.0254 -0.03338908 0 -1 0 0
0.26896369 -0.0254 -0.033280741 0 -1 0 0
0.021077245 -0.022225 -0.033487972 0 1 0 0
0.069480419 -0.022225 -0.033335365 0 1 0 0
0.14914542 -0.022225 -0.033256382 0 1 0 0
0.20007913 -0.022225 -0.033423718 0 1 0 0
0.35242376 -0.017826643 -0.033282138 -0.99732178 0.073138729 -6.2740105e-07 0
0.3524377 0.016189197 -0.033467989 -1 0 0 0
0.070255756 0.022225 -0.033333156 0 -1 0 0
0.28208679 0.022225 -0.033367772 0 -1 0 0
0.33099911 0.022225 -0.033297662 0 -1 0 0
0.34471834 0.022225 -0.033336803 0 -1 0 0
0.11825208 0.025400002 -0.033279952 0 1 0 0
0.19898243 0.0254 -0.033365812 0 1 0 0
0.22264858 0.0254 -0.033350069 0 1 0 0
0.27387401 0.0254 -0.033479653 0 1 0 0
0.29108179 0.0254 -0.033441801 0 1 0 0
0.11949971 -0.025399998 -0.03319392 0 -1 0 0
0.22753823 -0.025400002 -0.033129036 0 -1 0 0
0.14678621 -0.022225 -0.03321857 0 1 0 0
0.2443057 -0.022225 -0.033101682 0 1 0 0
0.26070842 -0.022225 -0.033075877 0 1 0 0
0.2709406 -0.022225 -0.033013087 0 1 0 0
0.24520659 0.022225 -0.033080917 0 -1 0 0
0.33358601 0.022225 -0.033213496 0 -1 0 0
0.065186538 0.0254 -0.033210121 0 1 0 0
0.18372999 0.025399998 -0.033112034 0 1 0 0
0.22994535 0.025400002 -0.033197295 0 1 0 0
0.26265222 0.025399998 -0.033037182 0 1 0 0
0.01398484 -0.0254 -0.032915562 0 -1 0 0
0.054590799 -0.022225 -0.032902576 0 1 0 0
0.090822808 -0.022225 -0.032879811 0 1 0 0
0.27050048 -0.022225 -0.032944899 0 1 0 0
0.3556127 -0.013018706 -0.032794163 1 0 0 0
0.3556127 -0.011034413 -0.032950509 1 0 0 0
0.021970103 0.022225 -0.032955792 0 -1 0 0
0.043299999 0.022225 -0.03292818 0 -1 0 0
0.21728998 0.022225 -0.032975301 0 -1 0 0
0.27746785 0.022225 -0.032781925 0 -1 0 0
0.021329654 0.0254 -0.032895528 0 1 0 0
0.036831766 0.025399998 -0.032957751 0 1 0 0
0.062685378 0.0254 -0.032921299 0 1 0 0
0.14493686 0.025399998 -0.032796085 0 1 0 0
0.26349646 0.0254 -0.032950297 0 1 0 0
0.30579606 0.025400002 -0.03276201 0 1 0 0
0.13440149 -0.025399998 -0.03271072 0 -1 0 0
0.18149073 -0.0254 -0.032634541 0 -1 0 0
0.2010714 -0.0254 -0.032553941 0 -1 0 0
0.26651621 -0.0254 -0.032525338 0 -1 0 0
0.32797968 -0.025400002 -0.03250232 0 -1 0 0
0.3556127 0.012851473 -0.032645773 1 0 0 0
0.18861595 0.022225 -0.03268069 0 -1 0 0
0.25953221 0.022225 -0.032520264 0 -1 0 0
0.32459149 0.022225 -0.032706045 0 -1 0 0
0.014354349 0.025400002 -0.032502271 0 1 0 0
0.089511208 0.025399998 -0.032591641 0 1 0 0
0.17588265 0.0254 -0.032650139 0 1 0 0
0.27824521 -0.022225 -0.032489594 0 1 0 0
0.3362478 -0.022225 -0.032413632 0 1 0 0
0.12231852 0.022225 -0.03226079 0 -1 0 0
0.31119928 0.022225 -0.032253258 0 -1 0 0
0.031186236 0.0254 -0.0322829 0 1 0 0
0.035640739 0.0254 -0.03244992 0 1 0 0
0.065514132 0.0254 -0.032342609 0 1 0 0
0.25556532 0.025400002 -0.032348104 0 1 0 0
0.29194707 0.025399998 -0.032418072 0 1 0 0
0.34399417 0.025400002 -0.032312598 0 1 0 0
0.35041422 0.0254 -0.032349456 0 1 0 0
0.26813895 -0.0254 -0.032047968 0 -1 0 0
0.33722264 -0.0254 -0.032003552 0 -1 0 0
0.064966604 -0.022225 -0.03223294 0 1 0 0
0.22533613 -0.022225 -0.032121938 0 1 0 0
0.063811608 0.022225 -0.032234382 0 -1 0 0
0.089674212 0.022225 -0.032215778 0 -1 0 0
0.12701705 0.025400002 -0.032063916 0 1 0 0
0.063541122 -0.0254 -0.031833149 0 -1 0 0
0.11411212 -0.022225 -0.03183189 0 1 0 0
0.27064234 -0.022225 -0.031816777 0 1 0 0
0.0032425697 0.022225 -0.031933308 0 -1 0 0
0.07705535 0.022225 -0.03185289 0 -1 0 0
0.11058817 0.022225 -0.031877097 0 -1 0 0
0.1404461 0.022225 -0.031994525 0 -1 0 0
0.15846412 0.022225 -0.031818546 0 -1 0 0
0.27744451 0.022225 -0.031978816 0 -1 0 0
0.30024388 0.022225 -0.031809859 0 -1 0 0
0.34643942 0.0254 -0.031828459 0 1 0 0
0.040483732 -0.025399998 -0.031677868 0 -1 0 0
0.11302876 -0.0254 -0.031607807 0 -1 0 0
0.021642268 -0.022225 -0.031740159 0 1 0 0
0.071344614 0.0254 -0.031585772 0 1 0 0
0.17847362 0.025399998 -0.031500019 0 1 0 0
0.26094243 0.0254 -0.031749517 0 1 0 0
0.27868733 0.0254 -0.03158484 0 1 0 0
0.069613397 -0.0254 -0.031290628 0 -1 0 0
0.15736613 -0.0254 -0.031284723 0 -1 0 0
0.05444178 -0.022225 -0.031330645 0 1 0 0
0.2314114 -0.022225 -0.031339567 0 1 0 0
0.33465058 -0.022225 -0.031496271 0 1 0 0
0.3524377 -0.010461218 -0.031377465 -1 0 0 0
0.062571876 0.025399998 -0.031328347 0 1 0 0
0.21156515 0.0254 -0.031351879 0 1 0 0
0.2435507 0.025400002 -0.031253174 0 1 0 0
0.01239152 -0.0254 -0.031149156 0 -1 0 0
0.10813461 -0.025400002 -0.031169154 0 -1 0 0
0.12917569 -0.025400002 -0.031110935 0 -1 0 0
0.24599674 0.022225 -0.031174816 0 -1 0 0
0.28869581 0.022225 -0.031003807 0 -1 0 0
0.29718304 0.022225 -0.031038966 0 -1 0 0
0.1391426 0.0254 -0.031218542 0 1 0 0
0.17037128 0.025399998 -0.031156363 0 1 0 0
0.13785923 -0.0254 -0.030988695 0 -1 0 0
0.19588932 -0.0254 -0.030867815 0 -1 0 0
0.27462745 -0.0254 -0.030892642 0 -1 0 0
0.057225548 -0.022225 -0.030967109 0 1 0 0
0.063998975 -0.022225 -0.030938219 0 1 0 0
0.075035244 -0.022225 -0.030956628 0 1 0 0
0.073267885 0.022225 -0.030883398 0 -1 0 0
0.13898754 0.022225 -0.030996844 0 -1 0 0
0.20419657 0.022225 -0.030796185 0 -1 0 0
0.21879753 0.022225 -0.030768476 0 -1 0 0
0.27330142 0.022225 -0.030908108 0 -1 0 0
0.33264604 0.022225 -0.030830707 0 -1 0 0
0.35514617 0.022693207 -0.030866994 0.90139437 0.43299907 0 0
0.097994663 0.0254 -0.030866494 0 1 0 0
0.18728958 0.025399998 -0.030786762 0 1 0 0
0.21215886 -0.0254 -0.030538861 0 -1 0 0
0.021979859 -0.022225 -0.030588455 0 1 0 0
0.14403817 -0.022225 -0.030638034 0 1 0 0
0.28569901 -0.022225 -0.030598585 0 1 0 0
0.3524377 -0.015575871 -0.030619405 -1 0 0 0
0.052776277 0.022225 -0.030515835 0 -1 0 0
0.13248968 0.022225 -0.030746339 0 -1 0 0
0.32963136 0.022225 -0.030692343 0 -1 0 0
0.34446785 0.022225 -0.03061172 0 -1 0 0
0.055454385 0.025400002 -0.030746138 0 1 0 0
0.28492212 -0.025399998 -0.030323476 0 -1 0 0
0.34556735 -0.0254 -0.030356759 0 -1 0 0
0.072697543 -0.022225 -0.030405378 0 1 0 0
0.35242903 -0.017749779 -0.030325409 -0.99826974 0.058800839 0 0
0.3524377 -0.013269577 -0.030435842 -1 0 0 0
0.31369314 0.022225 -0.030281959 0 -1 0 0
0.047417015 0.025400002 -0.030411055 0 1 0 0
0.064129509 0.0254 -0.030344918 0 1 0 0
0.22703856 0.0254 -0.030294752 0 1 0 0
0.26153043 -0.025399998 -0.030086882 0 -1 0 0
0.02578862 -0.022225 -0.030020321 0 1 0 0
0.31807858 -0.022225 -0.030077882 0 1 0 0
0.33436963 -0.022225 -0.030220676 0 1 0 0
0.0075043105 0.022225 -0.030064862 0 -1 0 0
0.070522033 0.022225 -0.030112928 0 -1 0 0
0.11855189 0.022225 -0.030167336 0 -1 0 0
0.20051676 0.022225 -0.030085389 0 -1 0 0
0.20870705 0.022225 -0.030183889 0 -1 0 0
0.25607446 0.025399998 -0.030069256 0 1 0 0
0.098501801 -0.022225 -0.029784689 0 1 0 0
0.34087414 -0.022225 -0.029981155 0 1 0 0
0.22530563 0.022225 -0.029799171 0 -1 0 0
0.28767055 0.022225 -0.029810939 0 -1 0 0
0.03255789 0.0254 -0.029925272 0 1 0 0
0.21520419 -0.022225 -0.029693507 0 1 0 0
0.19547243 0.022225 -0.029699866 0 -1 0 0
0.19952792 0.022225 -0.029683419 0 -1 0 0
0.26367477 0.022225 -0.029604871 0 -1 0 0
0.17888422 0.0254 -0.029677564 0 1 0 0
0.20919725 0.0254 -0.029682344 0 1 0 0
0.3209939 0.0254 -0.029716298 0 1 0 0
0.10970649 -0.0254 -0.029285138 0 -1 0 0
0.25379759 -0.025400002 -0.029411025 0 -1 0 0
0.074837096 -0.022225 -0.029388934 0 1 0 0
0.31215951 -0.022225 -0.029498324 0 1 0 0
0.34639579 -0.022225 -0.029367534 0 1 0 0
0.079457767 0.022225 -0.029397814 0 -1 0 0
0.25941736 0.022225 -0.029377287 0 -1 0 0
0.14815827 0.025399998 -0.02931265 0 1 0 0
0.15665317 0.0254 -0.029295001 0 1 0 0
0.21745688 0.0254 -0.029313944 0 1 0 0
0.15817669 -0.0254 -0.029058017 0 -1 0 0
0.21180825 -0.0254 -0.029102445 0 -1 0 0
0.33933848 -0.0254 -0.029206686 0 -1 0 0
0.10833295 -0.022225 -0.029156456 0 1 0 0
0.15076819 -0.022225 -0.029027995 0 1 0 0
0.049474247 0.022225 -0.029010812 0 -1 0 0
0.18494889 0.022225 -0.02917387 0 -1 0 0
0.18595226 0.022225 -0.029096637 0 -1 0 0
0.0030208032 0.0254 -0.029166985 0 1 0 0
0.1468017 0.0254 -0.029109014 0 1 0 0
0.2309687 0.0254 -0.029248653 0 1 0 0
0.3340784 0.025400002 -0.029161718 0 1 0 0
0.35061437 0.025400002 -0.029061139 0 1 0 0
0.014589706 -0.0254 -0.028880335 0 -1 0 0
0.10103589 -0.0254 -0.028791552 0 -1 0 0
0.12416029 -0.0254 -0.028931823 0 -1 0 0
0.015285349 -0.022225 -0.028909208 0 1 0 0
0.0624252 -0.022225 -0.02897007 0 1 0 0
0.078826025 -0.022225 -0.028848432 0 1 0 0
0.13231261 -0.022225 -0.028999992 0 1 0 0
0.15966557 -0.022225 -0.028757159 0 1 0 0
0.29204109 -0.022225 -0.02882375 0 1 0 0
0.29569846 -0.022225 -0.028762897 0 1 0 0
0.31411105 -0.022225 -0.028964825 0 1 0 0
0.34757942 -0.022225 -0.0288685 0 1 0 0
0.0013803554 0.022225 -0.028948966 0 -1 0 0
0.27582371 0.022225 -0.028783184 0 -1 0 0
0.11453761 0.0254 -0.028967721 0 1 0 0
0.15942283 0.025400002 -0.028936572 0 1 0 0
0.31390008 -0.025399998 -0.02874383 0 -1 0 0
0.058570344 -0.022225 -0.028530588 0 1 0 0
0.062796474 -0.022225 -0.028683888 0 1 0 0
0.35243773 0.01143714 -0.028665841 -1 0 0 0
0.13257872 0.022225 -0.02870309 0 -1 0 0
0.27139652 0.022225 -0.028694039 0 -1 0 0
0.055080328 0.0254 -0.028646301 0 1 0 0
0.079543062 0.0254 -0.028622247 0 1 0 0
0.072641976 -0.0254 -0.028328251 0 -1 0 0
0.11408351 -0.025399998 -0.028261758 0 -1 0 0
0.14227448 -0.0254 -0.028348094 0 -1 0 0
0.15665433 -0.025399998 -0.028291916 0 -1 0 0
0.23838937 -0.025400002 -0.028302956 0 -1 0 0
0.33099121 -0.025399998 -0.02837407 0 -1 0 0
0.037694667 -0.022225 -0.028258145 0 1 0 0
0.090227813 -0.022225 -0.028306397 0 1 0 0
0.096424587 -0.022225 -0.028483028 0 1 0 0
0.35243773 0.0015435861 -0.028320516 -1 0 0 0
0.3556127 0.01233014 -0.028447755 1 0 0 0
0.11897084 0.022225 -0.028250996 0 -1 0 0
0.20893328 0.022225 -0.028446838 0 -1 0 0
0.30299121 0.022225 -0.028444085 0 -1 0 0
0.10133756 0.0254 -0.028430225 0 1 0 0
0.13079971 0.0254 -0.028462676 0 1 0 0
0.23651986 0.025400002 -0.028392646 0 1 0 0
0.025688222 -0.022225 -0.028031027 0 1 0 0
0.31024033 -0.022225 -0.028235039 0 1 0 0
0.072204277 0.022225 -0.028139811 0 -1 0 0
0.10020795 0.022225 -0.028014325 0 -1 0 0
0.036524892 0.0254 -0.028039511 0 1 0 0
0.06332504 0.025399998 -0.028163362 0 1 0 0
0.12159956 0.025400002 -0.028027348 0 1 0 0
0.063060738 -0.025400002 -0.027751518 0 -1 0 0
0.20936337 -0.025399998 -0.027904291 0 -1 0 0
0.0058431947 -0.022225 -0.027826577 0 1 0 0
0.053809941 -0.022225 -0.02785239 0 1 0 0
0.10246808 -0.022225 -0.027909638 0 1 0 0
0.11807737 -0.022225 -0.027908407 0 1 0 0
0.21901645 -0.022225 -0.027922181 0 1 0 0
0.22729005 -0.022225 -0.027984701 0 1 0 0
0.28410926 -0.022225 -0.027899118 0 1 0 0
0.10549372 0.022225 -0.027934102 0 -1 0 0
0.14078411 0.022225 -0.027843118 0 -1 0 0
0.23752585 0.025399998 -0.027806265 0 1 0 0
0.28991026 0.0254 -0.027963899 0 1 0 0
0.32607353 0.0254 -0.027786888 0 1 0 0
0.090871267 -0.0254 -0.027728563 0 -1 0 0
0.14699663 -0.0254 -0.027684681 0 -1 0 0
0.31691819 -0.025400002 -0.027665934 0 -1 0 0
0.0069517633 -0.022225 -0.027585693 0 1 0 0
0.28156945 -0.022225 -0.027733196 0 1 0 0
0.3556127 0.01677235 -0.027522735 1 0 0 0
0.35188895 0.019681873 -0.027723145 -0.88619453 -0.46331343 1.0383111e-06 0
0.24625602 0.022225 -0.02769006 0 -1 0 0
0.1422818 0.0254 -0.027545946 0 1 0 0
0.13307147 -0.025400002 -0.027431356 0 -1 0 0
0.13653509 -0.0254 -0.02736849 0 -1 0 0
0.18908821 -0.025399998 -0.027268605 0 -1 0 0
0.21157762 -0.0254 -0.02729477 0 -1 0 0
0.25717127 -0.0254 -0.027416222 0 -1 0 0
0.041978188 -0.022225 -0.027425174 0 1 0 0
0.048417203 -0.022225 -0.027447017 0 1 0 0
0.05516582 -0.022225 -0.027255584 0 1 0 0
0.17111579 0.022225 -0.02747361 0 -1 0 0
0.31550348 0.022225 -0.027271912 0 -1 0 0
0.26984182 0.0254 -0.027488787 0 1 0 0
0.19194505 -0.0254 -0.027062038 0 -1 0 0
0.32686666 -0.025399998 -0.027138231 0 -1 0 0
0.042274285 -0.022225 -0.027106185 0 1 0 0
0.19233012 -0.022225 -0.027142152 0 1 0 0
0.19438861 -0.022225 -0.027057316 0 1 0 0
0.3391872 -0.022225 -0.027009156 0 1 0 0
0.3524377 -0.0098500298 -0.027122591 -1 0 0 0
0.20105159 0.025400002 -0.027236 0 1 0 0
0.049995773 -0.025400002 -0.026811698 0 -1 0 0
0.13428035 -0.0254 -0.026917605 0 -1 0 0
0.17539224 -0.0254 -0.026827436 0 -1 0 0
0.2879034 -0.0254 -0.026944997 0 -1 0 0
0.29502141 -0.0254 -0.02681496 0 -1 0 0
0.34322286 -0.025399998 -0.026871361 0 -1 0 0
0.16801704 -0.022225 -0.026894579 0 1 0 0
0.32683226 -0.022225 -0.026873523 0 1 0 0
0.023319796 -0.0254 -0.026690468 0 -1 0 0
0.096301183 -0.022225 -0.026531629 0 1 0 0
0.12719409 0.022225 -0.026656093 0 -1 0 0
0.30844241 0.022225 -0.026565131 0 -1 0 0
0.10561197 0.025400002 -0.026576988 0 1 0 0
0.17305608 0.0254 -0.026512735 0 1 0 0
0.18170173 -0.025399998 -0.026489308 0 -1 0 0
0.058500402 -0.022225 -0.026376143 0 1 0 0
0.12784454 -0.022225 -0.026312495 0 1 0 0
0.1460841 -0.022225 -0.026306001 0 1 0 0
0.19292912 -0.022225 -0.026384348 0 1 0 0
0.33352944 -0.022225 -0.026285572 0 1 0 0
0.31935784 0.022225 -0.026364941 0 -1 0 0
0.09473291 0.025400002 -0.026398143 0 1 0 0
0.10101148 0.0254 -0.026331427 0 1 0 0
0.15518332 -0.0254 -0.026171194 0 -1 0 0
0.29959631 -0.0254 -0.026062939 0 -1 0 0
0.31593287 -0.0254 -0.026227655 0 -1 0 0
0.17802447 -0.022225 -0.026044715 0 1 0 0
0.18543482 -0.022225 -0.026069162 0 1 0 0
0.23416974 -0.022225 -0.026226092 0 1 0 0
0.041011795 0.0254 -0.026235659 0 1 0 0
0.15115587 0.0254 -0.026064565 0 1 0 0
0.19407186 0.025399998 -0.026115339 0 1 0 0
0.22532173 0.0254 -0.026038358 0 1 0 0
0.28714013 0.0254 -0.026186848 0 1 0 0
0.18843798 -0.0254 -0.02586887 0 -1 0 0
0.32850587 -0.0254 -0.025828861 0 -1 0 0
0.20510709 -0.022225 -0.025887258 0 1 0 0
0.32222274 -0.022225 -0.025899112 0 1 0 0
0.3556127 0.0063579036 -0.025864813 1 0 0 0
0.011913698 0.022225 -0.02584175 0 -1 0 0
0.023340018 0.022225 -0.025958013 0 -1 0 0
0.045707934 0.025399998 -0.025917564 0 1 0 0
0.061858445 0.0254 -0.025891703 0 1 0 0
0.11023525 0.0254 -0.025810948 0 1 0 0
0.22855487 0.0254 -0.025878066 0 1 0 0
0.3556127 -0.0165336 -0.02553599 1 0 0 0
0.057089649 0.022225 -0.025550932 0 -1 0 0
0.096383892 0.022225 -0.025604654 0 -1 0 0
0.14591856 0.022225 -0.025727097 0 -1 0 0
0.20040993 0.025400002 -0.025535908 0 1 0 0
0.23924796 0.0254 -0.025613768 0 1 0 0
0.27345037 0.0254 -0.025739662 0 1 0 0
0.3401942 0.0254 -0.025669025 0 1 0 0
0.34348685 0.025400002 -0.025708145 0 1 0 0
0.16334984 -0.0254 -0.025490219 0 -1 0 0
0.17690694 -0.025400002 -0.025308708 0 -1 0 0
0.25153857 -0.0254 -0.025481967 0 -1 0 0
0.26535669 -0.022225 -0.025360398 0 1 0 0
0.31747022 0.025400002 -0.025270253 0 1 0 0
0.34585181 0.025400002 -0.025276586 0 1 0 0
0.021711279 -0.022225 -0.025181837 0 1 0 0
0.17491107 -0.022225 -0.025206696 0 1 0 0
0.20773181 -0.022225 -0.025173828 0 1 0 0
0.25798988 -0.022225 -0.02504563 0 1 0 0
0.3524377 -0.0071550482 -0.025013532 -1 0 0 0
0.3524377 0.0085453819 -0.025127608 -1 0 0 0
0.061856288 0.022225 -0.025180859 0 -1 0 0
0.073542766 0.022225 -0.025073744 0 -1 0 0
0.076207668 0.022225 -0.025217194 0 -1 0 0
0.194148 0.025400002 -0.025100885 0 1 0 0
0.20451884 0.025399998 -0.025067164 0 1 0 0
0.31176156 0.0254 -0.025239779 0 1 0 0
0.028657371 -0.0254 -0.024933036 0 -1 0 0
0.23475946 -0.0254 -0.024782255 0 -1 0 0
0.0025747162 -0.022225 -0.024984008 0 1 0 0
0.041812237 -0.022225 -0.02495601 0 1 0 0
0.3298043 -0.022225 -0.024750087 0 1 0 0
0.3556127 -0.010471797 -0.02498905 1 0 0 0
0.3556127 -0.0046203737 -0.024962729 1 0 0 0
0.035151329 0.022225 -0.024755707 0 -1 0 0
0.19039327 0.022225 -0.024847163 0 -1 0 0
0.093973607 0.0254 -0.024972282 0 1 0 0
0.16243242 0.0254 -0.024889555 0 1 0 0
0.20384444 0.025400002 -0.024784563 0 1 0 0
0.34261513 0.0254 -0.024897762 0 1 0 0
0.22809845 -0.025400002 -0.024707973 0 -1 0 0
0.2549735 -0.0254 -0.024668407 0 -1 0 0
0.2773208 -0.022225 -0.024527509 0 1 0 0
0.3524377 -0.007966321 -0.024645053 -1 0 0 0
0.0042165951 0.022225 -0.024540931 0 -1 0 0
0.33091789 0.022225 -0.024581784 0 -1 0 0
0.16059175 0.0254 -0.024526166 0 1 0 0
0.1864522 0.025399998 -0.024649242 0 1 0 0
0.24853046 0.0254 -0.0246472 0 1 0 0
0.27548 0.025399998 -0.024716185 0 1 0 0
0.073480517 -0.025400002 -0.024314016 0 -1 0 0
0.35561267 -0.0090541895 -0.024385411 1 0 0 0
0.14453253 0.022225 -0.024446789 0 -1 0 0
0.26055646 0.022225 -0.024472799 0 -1 0 0
0.27995178 0.0254 -0.024484012 0 1 0 0
0.28727427 0.0254 -0.024438834 0 1 0 0
0.0012367995 -0.025399998 -0.024169872 0 -1 0 0
0.13732879 -0.0254 -0.024010034 0 -1 0 0
0.2912212 -0.0254 -0.024026979 0 -1 0 0
0.2993888 -0.022225 -0.024208743 0 1 0 0
0.3556127 -0.007209383 -0.024072068 1 0 0 0
0.1989947 0.022225 -0.02424759 0 -1 0 0
0.25444925 0.022225 -0.024021972 0 -1 0 0
0.32334423 0.022225 -0.024144091 0 -1 0 0
0.045173522 0.0254 -0.024201175 0 1 0 0
0.042081699 -0.0254 -0.023890583 0 -1 0 0
0.094823092 -0.0254 -0.023903515 0 -1 0 0
0.24750188 -0.025400002 -0.02388889 0 -1 0 0
0.35353732 -0.024569493 -0.023976512 0.56268871 -0.82666886 0 0
0.19608951 0.022225 -0.023772078 0 -1 0 0
0.093285732 0.0254 -0.023935754 0 1 0 0
0.25596821 0.0254 -0.023941949 0 1 0 0
0.33413038 0.0254 -0.023950819 0 1 0 0
0.0030741477 -0.0254 -0.023556268 0 -1 0 0
0.34857547 -0.022139106 -0.023667132 -0.18649626 0.98245567 0 0
0.10028105 0.022225 -0.023719633 0 -1 0 0
0.34692487 0.022225 -0.023561932 0 -1 0 0
0.03534662 0.0254 -0.023535592 0 1 0 0
0.23354602 0.0254 -0.023600837 0 1 0 0
0.30436468 0.0254 -0.023522967 0 1 0 0
0.078858152 -0.025399998 -0.023447013 0 -1 0 0
0.35485697 -0.023211729 -0.023291869 0.8421672 -0.53921652 -1.0642614e-06 0
0.082871214 -0.022225 -0.023435576 0 1 0 0
0.31395593 -0.022225 -0.023447812 0 1 0 0
0.10196465 0.022225 -0.023378994 0 -1 0 0
0.19313988 0.022225 -0.023344902 0 -1 0 0
0.2270769 0.022225 -0.023285137 0 -1 0 0
0.072002798 0.0254 -0.023447078 0 1 0 0
0.16019416 0.0254 -0.023359057 0 1 0 0
0.29890656 0.0254 -0.023336533 0 1 0 0
0.11815071 -0.0254 -0.02322988 0 -1 0 0
0.27613035 -0.025400002 -0.023007307 0 -1 0 0
0.049765278 -0.022225 -0.02306468 0 1 0 0
0.085393153 -0.022225 -0.023203131 0 1 0 0
0.3556127 0.019515263 -0.023242563 1 0 0 0
0.12951463 0.025399998 -0.023057111 0 1 0 0
0.1903376 0.0254 -0.023037093 0 1 0 0
0.22438814 0.0254 -0.023049984 0 1 0 0
0.26632705 0.0254 -0.023070902 0 1 0 0
0.31028622 0.0254 -0.023097841 0 1 0 0
0.32693097 0.0254 -0.02308508 0 1 0 0
0.34099007 0.0254 -0.023156554 0 1 0 0
0.22601774 -0.025400002 -0.02285951 0 -1 0 0
0.23960392 -0.022225 -0.022941483 0 1 0 0
0.30856672 -0.022225 -0.022864044 0 1 0 0
0.34260103 -0.022225 -0.022937359 0 1 0 0
0.34296665 -0.022225 -0.02295503 0 1 0 0
0.010087887 0.022225 -0.022771582 0 -1 0 0
0.11189982 0.022225 -0.022893742 0 -1 0 0
0.20071961 0.022225 -0.02279162 0 -1 0 0
0.27384055 0.022225 -0.02293421 0 -1 0 0
0.32292813 0.022225 -0.02296466 0 -1 0 0
0.33605164 0.022225 -0.022892443 0 -1 0 0
0.045754705 0.025400002 -0.022865925 0 1 0 0
0.10172729 0.025399998 -0.022848213 0 1 0 0
0.252487 0.0254 -0.02275175 0 1 0 0
0.21178539 -0.025399998 -0.022679448 0 -1 0 0
0.13953732 -0.022225 -0.022609308 0 1 0 0
0.18429746 -0.022225 -0.022716027 0 1 0 0
0.19080722 -0.022225 -0.022702491 0 1 0 0
0.18484986 0.022225 -0.022700574 0 -1 0 0
0.34328127 0.022225 -0.022663763 0 -1 0 0
0.034112886 0.025399998 -0.022593565 0 1 0 0
0.14877154 0.0254 -0.022573605 0 1 0 0
0.17115517 0.0254 -0.022622228 0 1 0 0
0.29595909 0.025400002 -0.02250831 0 1 0 0
0.30810386 0.0254 -0.022579312 0 1 0 0
0.35009584 0.025399998 -0.022513077 0 1 0 0
0.054012213 -0.0254 -0.022293603 0 -1 0 0
0.12445622 -0.0254 -0.022432948 0 -1 0 0
0.15109688 -0.025400002 -0.022293836 0 -1 0 0
0.20231332 -0.0254 -0.022375712 0 -1 0 0
0.20964877 -0.022225 -0.022380458 0 1 0 0
0.23340206 -0.022225 -0.022389755 0 1 0 0
0.24435702 -0.022225 -0.022427572 0 1 0 0
0.34092242 -0.022225 -0.022443 0 1 0 0
0.35214812 -0.019097866 -0.022378614 -0.93890047 0.34418878 0 0
0.3556127 -0.010267962 -0.022322914 1 0 0 0
0.12245723 -0.0254 -0.022203827 0 -1 0 0
0.098397642 -0.022225 -0.022070069 0 1 0 0
0.10255166 -0.022225 -0.022218466 0 1 0 0
0.10800333 -0.022225 -0.022100676 0 1 0 0
0.3524377 -0.017277529 -0.022249322 -1 0 0 0
0.35561273 -0.013037965 -0.022249024 1 0 0 0
0.35243767 -0.0026390888 -0.022015613 -1 0 0 0
0.3556127 0.0065032234 -0.022060193 1 0 0 0
0.3524377 0.014426813 -0.022108577 -1 0 0 0
0.075025514 0.022225 -0.02203803 0 -1 0 0
0.16418843 0.022225 -0.022214599 0 -1 0 0
0.2792443 0.022225002 -0.022091165 0 -1 0 0
0.21206492 0.025399998 -0.022151751 0 1 0 0
0.0036728699 -0.025400002 -0.021818817 0 -1 0 0
0.033995979 -0.025400002 -0.021948416 0 -1 0 0
0.19256048 -0.025400002 -0.021809861 0 -1 0 0
0.050467487 -0.022225 -0.021914948 0 1 0 0
0.099137709 -0.022225 -0.021857658 0 1 0 0
0.19197798 -0.022225 -0.021876583 0 1 0 0
0.2275525 -0.022225 -0.021779027 0 1 0 0
0.27443168 -0.022225 -0.021914158 0 1 0 0
0.054061793 0.022225 -0.021937914 0 -1 0 0
0.12169028 0.022225 -0.0217607 0 -1 0 0
0.26856613 0.022225 -0.021915801 0 -1 0 0
0.091883972 0.0254 -0.02195465 0 1 0 0
0.09728916 0.0254 -0.021776708 0 1 0 0
0.22341524 0.0254 -0.02199275 0 1 0 0
0.27223128 0.0254 -0.021890962 0 1 0 0
0.27874359 0.0254 -0.021992791 0 1 0 0
0.070503496 -0.0254 -0.021729425 0 -1 0 0
0.33881927 -0.0254 -0.021565378 0 -1 0 0
0.055140436 -0.022225 -0.021681745 0 1 0 0
0.21247549 -0.022225 -0.021614229 0 1 0 0
0.2204738 -0.022225 -0.021632619 0 1 0 0
0.25151277 -0.022225 -0.021526096 0 1 0 0
0.070966125 0.022225 -0.021646952 0 -1 0 0
0.20702332 0.022225 -0.021634229 0 -1 0 0
0.26330304 0.022225 -0.021531219 0 -1 0 0
0.27774549 0.022224998 -0.021694634 0 -1 0 0
0.31975913 0.022225 -0.021681786 0 -1 0 0
0.073118903 0.0254 -0.021716159 0 1 0 0
0.22736621 0.025399998 -0.02160449 0 1 0 0
0.24283159 0.0254 -0.021620378 0 1 0 0
0.074464872 -0.0254 -0.021442998 0 -1 0 0
0.22827327 -0.0254 -0.021290695 0 -1 0 0
0.23386157 -0.025399998 -0.021289309 0 -1 0 0
0.12497353 -0.022225 -0.021491943 0 1 0 0
0.35017633 -0.021515323 -0.021335898 -0.52615869 0.85038644 0 0
0.3524377 -0.0017515824 -0.02142537 -1 0 0 0
0.09698154 0.022225 -0.021342682 0 -1 0 0
0.12484374 0.022225 -0.021297313 0 -1 0 0
0.30742422 0.022225 -0.021325247 0 -1 0 0
0.048258808 0.0254 -0.02146096 0 1 0 0
0.088970251 0.025399998 -0.021325486 0 1 0 0
0.13228077 0.0254 -0.021315441 0 1 0 0
0.22955859 0.025400002 -0.021469695 0 1 0 0
0.016036104 -0.0254 -0.021037823 0 -1 0 0
0.14569595 -0.025400002 -0.021003321 0 -1 0 0
0.15240856 -0.025399998 -0.021149341 0 -1 0 0
0.16547123 -0.0254 -0.02112917 0 -1 0 0
0.0018151319 -0.022225 -0.021201741 0 1 0 0
0.12353877 -0.022225 -0.021100553 0 1 0 0
0.17371127 -0.022225 -0.021164998 0 1 0 0
0.3556127 -0.010824204 -0.021128729 1 0 0 0
0.13466237 0.022225 -0.02120107 0 -1 0 0
0.16939014 0.022225 -0.021025831 0 -1 0 0
0.24252877 0.022225 -0.021108555 0 -1 0 0
0.24929036 0.022225 -0.021088216 0 -1 0 0
0.2645916 0.022225 -0.021049418 0 -1 0 0
0.32869077 0.022225 -0.021171926 0 -1 0 0
0.33999598 0.022225 -0.021123556 0 -1 0 0
0.028972998 0.0254 -0.021199629 0 1 0 0
0.17999329 0.0254 -0.021212319 0 1 0 0
0.18999352 0.025400002 -0.021180296 0 1 0 0
0.30174616 0.025399998 -0.021103689 0 1 0 0
0.039468411 -0.0254 -0.020797275 0 -1 0 0
0.14134443 -0.0254 -0.020845182 0 -1 0 0
0.1228661 -0.022225 -0.020869857 0 1 0 0
0.31696507 0.022225 -0.020877065 0 -1 0 0
0.008349116 0.025400002 -0.020925201 0 1 0 0
0.33903262 0.0254 -0.020852081 0 1 0 0
0.066998802 -0.025399998 -0.020636957 0 -1 0 0
0.1077418 -0.0254 -0.020722015 0 -1 0 0
0.21413133 -0.025399998 -0.020612339 0 -1 0 0
0.17265721 -0.022225 -0.020721871 0 1 0 0
0.17482935 -0.022225 -0.02057405 0 1 0 0
0.32197693 -0.022225 -0.020748235 0 1 0 0
0.17042008 0.0254 -0.020676646 0 1 0 0
0.34111866 0.0254 -0.020648221 0 1 0 0
0.12282225 -0.0254 -0.020432364 0 -1 0 0
0.26150492 -0.025399998 -0.020267554 0 -1 0 0
0.00031723044 -0.022225 -0.020433273 0 1 0 0
0.0814052 -0.022225 -0.020352041 0 1 0 0
0.33109438 -0.022225 -0.02046152 0 1 0 0
0.3556127 -0.0024155332 -0.020379756 1 0 0 0
0.011110991 0.022225 -0.020310862 0 -1 0 0
0.35314775 0.024809107 -0.02048528 0.48117507 0.87662452 0 0
0.070359446 0.025399998 -0.020285131 0 1 0 0
0.1553162 0.0254 -0.020278998 0 1 0 0
0.20095378 0.0254 -0.020258039 0 1 0 0
0.24302112 0.0254 -0.02034354 0 1 0 0
0.16992286 -0.0254 -0.02000981 0 -1 0 0
0.17729896 -0.0254 -0.02010707 0 -1 0 0
0.26350909 -0.025399998 -0.02015214 0 -1 0 0
0.23804457 -0.022225 -0.02015478 0 1 0 0
0.3316063 -0.022225 -0.020057609 0 1 0 0
0.3556127 -0.015003262 -0.020249277 1 0 0 0
0.028318519 0.022225 -0.020039912 0 -1 0 0
0.048149642 0.022225 -0.02012608 0 -1 0 0
0.21958636 0.022225 -0.020121573 0 -1 0 0
0.34776741 0.022224078 -0.020224413 -0.021829447 -0.9997617 0 0
0.27668241 0.0254 -0.020238342 0 1 0 0
0.18929185 -0.025399998 -0.019771116 0 -1 0 0
0.25715759 -0.022225 -0.019906525 0 1 0 0
0.34503078 -0.022225 -0.019870678 0 1 0 0
0.3556127 -0.013634077 -0.019996949 1 0 0 0
0.35243767 -0.011213065 -0.019836336 -1 0 0 0
0.3556127 0.017429283 -0.019856453 1 0 0 0
0.019124897 0.022225 -0.019997235 0 -1 0 0
0.067964979 0.022225 -0.019801674 0 -1 0 0
0.25482553 0.022225 -0.019874023 0 -1 0 0
0.27379701 0.022225 -0.019798845 0 -1 0 0
0.31238234 0.022225002 -0.01994692 0 -1 0 0
0.31532153 0.022225 -0.019833706 0 -1 0 0
0.065502845 0.025399998 -0.019915342 0 1 0 0
0.1585401 0.0254 -0.019936116 0 1 0 0
0.047355603 -0.0254 -0.019735778 0 -1 0 0
0.29400474 -0.0254 -0.019712579 0 -1 0 0
0.33478695 -0.025399998 -0.0197105 0 -1 0 0
0.34593579 -0.0254 -0.019708872 0 -1 0 0
0.02208972 -0.022225 -0.019679945 0 1 0 0
0.15348502 -0.022225 -0.019630287 0 1 0 0
0.2554293 -0.022225 -0.019634305 0 1 0 0
0.35243773 -0.017219648 -0.019621279 -1 0 0 0
0.023279402 0.022225 -0.019729542 0 -1 0 0
0.17214125 0.022225 -0.019514788 0 -1 0 0
0.34263277 0.022225 -0.019515913 0 -1 0 0
0.12515664 0.0254 -0.019665342 0 1 0 0
0.15885542 0.0254 -0.019523824 0 1 0 0
0.15982971 0.0254 -0.019633749 0 1 0 0
0.19959649 0.0254 -0.019505447 0 1 0 0
0.34911674 0.025399998 -0.019749869 0 1 0 0
0.12256918 -0.022225 -0.01941086 0 1 0 0
0.35560536 -0.020900704 -0.019273505 0.9985137 -0.054501865 -9.393882e-07 0
0.3556127 0.014664805 -0.019431919 1 0 0 0
0.23214902 0.022225 -0.01930196 0 -1 0 0
0.32799757 0.022225 -0.019493597 0 -1 0 0
0.034573793 0.025399998 -0.019465022 0 1 0 0
0.27425212 0.0254 -0.019296659 0 1 0 0
0.34583896 0.0254 -0.019420888 0 1 0 0
0.34836242 0.0254 -0.019469747 0 1 0 0
0.13028173 -0.0254 -0.01919958 0 -1 0 0
0.26127228 -0.025399998 -0.019144166 0 -1 0 0
0.2981793 -0.022225 -0.019140944 0 1 0 0
0.22684631 0.022225 -0.019177208 0 -1 0 0
0.27902713 0.022225 -0.019003637 0 -1 0 0
0.25275728 0.025400002 -0.019214395 0 1 0 0
0.12906727 -0.0254 -0.018779226 0 -1 0 0
0.15449014 -0.0254 -0.018907342 0 -1 0 0
0.12994777 -0.022225 -0.018817272 0 1 0 0
0.18584807 -0.022225 -0.018895853 0 1 0 0
0.27273604 -0.022225 -0.018934919 0 1 0 0
0.32927132 -0.022225 -0.018849581 0 1 0 0
0.3556127 0.0050675943 -0.01876976 1 0 0 0
0.13549347 0.022225 -0.018779635 0 -1 0 0
0.20666221 0.022225 -0.018872898 0 -1 0 0
0.33126289 0.022225 -0.018872926 0 -1 0 0
0.33322424 0.022225 -0.018930061 0 -1 0 0
0.0057954942 0.025399998 -0.018792579 0 1 0 0
0.27188975 0.0254 -0.018821806 0 1 0 0
0.30600071 0.025399998 -0.018865112 0 1 0 0
0.33729824 0.0254 -0.018846802 0 1 0 0
0.061801855 -0.025399998 -0.018553084 0 -1 0 0
0.14282542 -0.025399998 -0.018585186 0 -1 0 0
0.22237733 -0.025400002 -0.018688485 0 -1 0 0
0.24691735 -0.0254 -0.018546475 0 -1 0 0
0.27867162 -0.025399998 -0.018665412 0 -1 0 0
0.29364499 -0.0254 -0.018713124 0 -1 0 0
0.025235599 0.022225 -0.018631548 0 -1 0 0
0.31151587 0.022225 -0.018645683 0 -1 0 0
0.09480682 0.025400002 -0.0187166 0 1 0 0
0.20468265 0.0254 -0.018514685 0 1 0 0
0.20495325 0.025400002 -0.018736118 0 1 0 0
0.22427675 0.0254 -0.018680505 0 1 0 0
0.31135011 0.025400002 -0.018694319 0 1 0 0
0.083042562 -0.025400002 -0.018328752 0 -1 0 0
0.33395213 -0.025399998 -0.018371534 0 -1 0 0
0.045783691 -0.022225 -0.01834896 0 1 0 0
0.19819404 -0.022225 -0.018453119 0 1 0 0
0.26556879 -0.022225 -0.018403288 0 1 0 0
0.3524377 -0.0099892486 -0.018323435 -1 0 0 0
0.0022344149 0.022225 -0.01842718 0 -1 0 0
0.11522906 0.022225 -0.018319922 0 -1 0 0
0.18485403 0.022225 -0.018296134 0 -1 0 0
0.343512 0.022225 -0.018394658 0 -1 0 0
0.10105936 0.025399998 -0.018275347 0 1 0 0
0.23504011 0.025400002 -0.018287649 0 1 0 0
0.26176479 0.025400002 -0.018278455 0 1 0 0
0.018663269 -0.025400002 -0.018192183 0 -1 0 0
0.060957588 -0.022225 -0.018027937 0 1 0 0
0.22695494 0.022225 -0.018004416 0 -1 0 0
0.12114912 0.0254 -0.01822303 0 1 0 0
0.16294843 0.0254 -0.018006492 0 1 0 0
0.25827181 0.025399998 -0.018178601 0 1 0 0
0.15188991 -0.025399998 -0.017782008 0 -1 0 0
