# .PCD v0.7 - Point Cloud Data file format
VERSION 0.7
FIELDS x y z
SIZE 4 4 4
TYPE F F F
COUNT 1 1 1
WIDTH 1250
HEIGHT 1
VIEWPOINT 0 0 0 1 0 0 0
POINTS 1250
DATA ascii
-0.00068361312 -0.07388062 0.014323375
0.0023188218 -0.065785319 0.015004186
0.00098661333 -0.054364204 0.015167989
-0.00066123903 -0.042734399 0.015579063
7.2725117e-05 -0.04348024 0.015593858
0.00085719675 -0.044270575 0.015610646
0.00052382052 -0.034933425 0.015503339
-0.00044890493 -0.016031824 0.01576709
-0.0010453388 -0.0067092702 0.016260767
-0.0035764426 0.0037100762 0.016077556
-0.077964872 -0.1124111 0.011991161
-0.063650556 -0.11074662 0.012635973
-0.065504849 -0.10783919 0.013184145
-0.064182535 -0.10917947 0.013197358
-0.051608592 -0.10794613 0.013064194
-0.049258269 -0.11030073 0.013082701
-0.1436836 -0.0014108401 0.011426527
-0.03959965 -0.10522677 0.013818538
-0.037300646 -0.10754603 0.013864463
-0.1122226 -0.019481622 0.012302023
-0.11113539 -0.020577751 0.012314335
-0.1086033 -0.022108454 0.012947724
0.0019957721 -0.13337259 0.014770908
9.4711781e-05 -0.11902352 0.014799212
0.0020787418 -0.1209991 0.014840577
-0.1069459 0.0012248009 0.013270521
-0.08739543 -0.018492691 0.013608948
0.0022709668 -0.096432075 0.01572825
0.00067566335 -0.0845377 0.015233497
0.0029432327 -0.086811505 0.015285107
0.00032731891 -0.083275594 0.015924668
-0.0023573563 -0.07029824 0.015593788
-3.9666891e-05 -0.072647512 0.015648168
0.00093045831 -0.073630966 0.015698098
-0.0023858324 -0.060151 0.015625486
-0.0013504326 -0.061183006 0.015635211
0.00042408705 -0.062919378 0.01563536
-0.043170176 -0.018114176 0.01558903
-0.054556228 0.0024368949 0.014927872
0.00036975741 -0.052834164 0.015856672
-0.00096178055 -0.05055511 0.016511796
1.3828278e-05 -0.051518489 0.016515508
-0.0020857826 -0.040408418 0.016267283
-0.043128982 0.0019085482 0.016220789
-0.00061964989 -0.04092589 0.01692944
-0.0036583096 -0.028916776 0.016857272
-0.0020195544 -0.030547097 0.016852766
-0.0019061491 -0.031544156 0.01615043
-0.0011509508 -0.032312639 0.01615949
-0.00035144389 -0.033169247 0.016209409
0.00040614605 -0.033957712 0.016256118
-0.00037994236 -0.024214715 0.016319145
-0.0025749281 -0.021112099 0.016981373
-0.0014724508 -0.0221714 0.016967442
-0.0024031252 -0.013342299 0.016581789
-0.0025576577 -0.012357891 0.017326359
-0.010321125 0.0034452826 0.01685532
-0.0050260574 -0.0018656552 0.016952168
-0.0022537336 0.0031861737 0.016889419
0.016302921 0.0077121556 0.017747074
-0.075325675 -0.11297231 0.013135903
-0.075863369 -0.11136511 0.013672035
-0.061103925 -0.11118558 0.013786539
-0.060090609 -0.11222361 0.013803303
-0.058804423 -0.11350694 0.013832446
-0.049032703 -0.10847139 0.014237108
-0.046755798 -0.11075593 0.014293944
-0.044710755 -0.11288364 0.014359075
-0.14374155 0.00064433925 0.012638616
-0.03984455 -0.10400541 0.014424296
-0.034767926 -0.10808674 0.015100521
-0.032746255 -0.11017348 0.015173018
-0.1088687 -0.02087244 0.013557997
0.00069229305 -0.13114074 0.015419683
0.0017499179 -0.13218194 0.015422483
-0.031591095 -0.097672299 0.015511713
0.00066711009 -0.13010871 0.016021501
-0.098691523 -0.018581111 0.013786157
-0.0012593269 -0.11571167 0.016067483
0.0018283129 -0.11878077 0.016064867
-0.088466868 -0.016425759 0.014225713
0.00080062449 -0.10634489 0.015773296
0.002294302 -0.10783684 0.015799481
-0.087003991 -0.016905371 0.014887092
-0.00099530816 -0.10358483 0.016405052
-0.0024023354 -0.090806499 0.016313815
0.00036624074 -0.093549609 0.016342551
0.0016924441 -0.094892755 0.016355423
0.00025480986 -0.082250774 0.016586781
-0.062539399 0.0023518167 0.01588908
-0.0028090104 -0.057897478 0.016995465
0.0010332018 -0.061703328 0.017023124
-0.003400065 -0.047234859 0.017196404
-0.002670534 -0.038921505 0.016958551
-0.043228947 0.0029258877 0.01688995
-0.0012420788 -0.039489873 0.017701356
0.00075926632 -0.041441634 0.017696211
-0.0037669614 -0.027932405 0.017570553
-0.0039289892 -0.018886916 0.017693054
-0.0045071989 -0.009468168 0.017986683
-0.0026852563 -0.011386342 0.018076017
-0.00010184944 -0.013872348 0.018045496
-0.0034165531 -0.0026555285 0.01774098
-0.0016351715 -0.0045007244 0.017788565
-0.0017738342 -0.0034735128 0.018500196
-0.0015311167 0.004080534 0.018422304
-0.071988851 -0.11314298 0.014820931
-0.061604768 -0.10968947 0.014360863
-0.049775593 -0.10570795 0.01541834
-0.046436347 -0.10903819 0.015442826
-0.044159628 -0.11136171 0.015504071
-0.036326058 -0.10548879 0.015648291
-0.0017552227 -0.14029324 0.016229186
-0.03786099 -0.10295697 0.016233139
-0.036900379 -0.10387942 0.016239468
-0.034536414 -0.10627024 0.016275587
0.0024552047 -0.13091591 0.016666833
-0.10874261 -0.01795958 0.015394442
-0.10769365 -0.019018706 0.015394179
-0.0013841242 -0.12603551 0.017191457
0.000393942 -0.12782282 0.017225619
0.0013956279 -0.12882894 0.01725301
-0.095679462 -0.018586986 0.015638471
-0.09536165 -0.019920263 0.015049752
-0.094582468 -0.020725816 0.015052699
0.0011747777 -0.11615293 0.017342396
0.0021929145 -0.11717592 0.017338771
-0.085473552 -0.017497364 0.015543268
0.0014238805 -0.10501459 0.017067421
-0.00036016107 -0.10225223 0.017680626
-0.0001282841 -0.092125729 0.016992755
-0.00073295832 -0.090561144 0.017635364
0.0021034628 -0.093369216 0.017657569
-0.0016649142 -0.078365847 0.017835625
0.00090591609 -0.081007384 0.017916406
-0.0010373369 -0.06882517 0.017640052
-4.2356551e-05 -0.069825329 0.017655965
-0.07084696 0.0024026558 0.01715038
-0.061150357 0.0018080361 0.016666276
-0.0010921508 -0.05871572 0.017712658
0.002734907 -0.062479716 0.017732544
-0.040893473 -0.017644852 0.017683232
-0.0024835095 -0.056350525 0.018362178
0.00055929273 -0.059436794 0.018429231
0.0015970916 -0.060435124 0.018410087
0.0015930086 -0.051316753 0.017946709
-0.050914336 0.0024091639 0.017784761
-0.0027694628 -0.046064027 0.018603299
0.00020824373 -0.049088374 0.018697238
0.0012593046 -0.050060041 0.018635586
-0.0018871725 -0.037928998 0.018390359
-0.031976417 0.0022186562 0.018527903
-0.0039898679 -0.026009418 0.019033423
0.0017896071 -0.032698274 0.018428233
-0.004072018 -0.017861769 0.018407824
0.00078097731 -0.022724412 0.018482119
-0.023601376 0.0026327446 0.018848237
-0.01658316 0.003557317 0.018503886
-0.0028358847 -0.010363981 0.018803341
-0.0077865347 0.003400825 0.019168854
-0.0029951334 -0.0014160648 0.019261641
-0.048026793 -0.10640887 0.016008176
-0.041670009 -0.11285548 0.016153267
-0.046242855 -0.10715198 0.01659161
-0.043969236 -0.10944305 0.016656648
-0.00026082993 -0.13872527 0.018012038
-3.4332275e-05 -0.13999739 0.017451623
0.00092743337 -0.14101939 0.017522203
-0.10515584 -0.020554803 0.016058119
-0.031376496 -0.09484221 0.017297655
-0.00065977871 -0.11332661 0.017937928
0.00016598403 -0.11417313 0.017947035
0.0011823922 -0.11518732 0.017960321
-0.0013828129 -0.10024676 0.018275419
-0.090735778 0.0016064756 0.017011063
-0.090497106 0.00083327666 0.016730381
-0.0012647808 -0.089048803 0.018276624
0.00098297 -0.090357766 0.018952575
0.0015335232 -0.091868319 0.018309657
0.0025231242 -0.091898605 0.018973138
0.00085286796 -0.080005981 0.018567124
0.00056330115 -0.068560898 0.019010406
-0.00219886 -0.065761313 0.0189611
-0.059532415 0.0019935295 0.018060561
-0.058775499 0.0012387857 0.018085904
-0.038716763 -0.018912021 0.018407222
-0.037172005 -0.020550419 0.018490272
-0.00019732863 -0.047773398 0.0193759
0.00081489235 -0.039712414 0.019117784
0.002846159 -0.041808926 0.019184589
-0.0018611029 -0.036163308 0.019808121
-0.00085992366 -0.028227195 0.019796599
-0.00079046935 -0.019467212 0.019951278
-0.01459565 0.0032279342 0.020049192
-0.0031216145 -0.0083165988 0.020243729
-0.002379328 -0.0090692341 0.020253103
-0.00063952059 -0.010895766 0.020346673
0.00015810877 -0.011707909 0.020338792
0.00037627667 0.0037909076 0.020007435
-0.054150939 -0.11300038 0.016730079
-0.05568172 -0.11042335 0.01726177
-0.048552386 -0.10384886 0.017169215
-0.038702555 -0.10007691 0.017417481
-0.036595419 -0.10219994 0.017442275
-0.034301579 -0.10448113 0.017461048
-0.0005428791 -0.13737369 0.018572289
0.00073945522 -0.1387222 0.018623678
-0.10823224 -0.01643876 0.01659801
-0.10340235 -0.021306679 0.016673649
-0.031885609 -0.093348995 0.017901914
-0.00017179549 -0.12426247 0.0190433
0.0018685907 -0.12630735 0.019066781
-0.095247857 -0.01708841 0.016921001
-0.092716485 -0.01862663 0.017568169
-0.00067085028 -0.11185674 0.018872811
0.00031988323 -0.10099397 0.018960601
0.0020561516 -0.10176096 0.01962065
0.00038218498 -0.088791177 0.019602451
-0.001009427 -0.076130651 0.019778175
0.0014705211 -0.078711942 0.01988476
0.00024752319 -0.067325763 0.019715458
0.0011424348 -0.058170129 0.019797206
-0.00015547872 -0.055940893 0.020455234
0.00085416436 -0.05697633 0.020479519
-0.00052125752 -0.046524256 0.020055156
-0.048174385 0.0024308562 0.019884946
-0.029107124 -0.016804382 0.020253483
0.0014457181 -0.047619663 0.020798091
0.00082795322 -0.037994236 0.020567918
-0.030424602 0.0024069548 0.020005049
-0.00170286 -0.026522212 0.020483321
-0.0009669736 -0.027246781 0.020499185
-0.0036673322 -0.015621252 0.020574061
-0.0020880178 -0.016380727 0.021353714
-0.0011797473 -0.018224664 0.020695001
-0.013196148 0.0026600584 0.020812184
-0.0035250112 0.00072982907 0.020777028
-0.00075467676 -0.0020358562 0.020818114
-0.0037227273 0.0017947778 0.021526121
-0.0019318983 2.9988587e-05 0.021527313
0.00092176348 -0.0028983206 0.021594753
-0.14987069 0.00022164546 0.016607763
-0.14878318 -0.00083366875 0.016587399
-0.048266672 -0.10206778 0.018332452
-0.14729342 -0.0012478549 0.017167879
-0.037616968 -0.098126248 0.019221801
-0.036665574 -0.099085569 0.019233268
0.00019420683 -0.13605571 0.019743912
-0.028355435 -0.094889656 0.019176517
-0.10321246 -0.018532794 0.018513132
0.0025840253 -0.12501422 0.02028596
-0.00069005787 -0.11034334 0.019788515
0.0017955303 -0.11283227 0.019839451
-0.00071017444 -0.10930407 0.020394471
-0.00026136637 -0.098419115 0.020195678
0.00075747073 -0.098483667 0.020840537
0.0017351061 -0.099487349 0.020874264
-0.00043915212 -0.085989878 0.020844957
0.00084939599 -0.087327123 0.020909498
0.002027601 -0.088514179 0.020916861
-0.0011034533 -0.075069487 0.020435125
0.0013702437 -0.077134468 0.020843443
-0.066066697 0.0013779253 0.01987683
-0.0008918494 -0.06426321 0.020999478
0.00083255768 -0.066013299 0.021057155
-0.0017249063 -0.053408273 0.02108811
-0.00054503232 -0.054602779 0.021117656
-0.00066949427 -0.044537365 0.021440959
0.0001141578 -0.045335032 0.021444699
-0.0027089268 -0.032590158 0.021905461
-0.0018652007 -0.025507197 0.02124323
-0.029941566 0.0036756694 0.021457706
-0.0019865558 -0.024513908 0.021974983
-0.020791724 0.0032853857 0.021816889
0.001358144 -0.019043818 0.02218252
-0.0031361207 -0.0058507919 0.022537079
-0.0020453557 -0.0068423077 0.022479225
0.00047314167 -0.0094719753 0.022590885
-0.00035910308 -0.00074582547 0.022334237
-0.14573005 -0.0018491093 0.017784514
-2.8803945e-05 -0.13481215 0.020315364
0.0019324869 -0.13682611 0.020402184
-0.036383979 -0.097304821 0.020400709
-0.027914912 -0.093301632 0.020379348
2.630055e-05 -0.12144509 0.020852618
0.0010312498 -0.12248443 0.020889647
-0.0014657378 -0.10757945 0.020997481
-0.0010882616 -0.095606968 0.021411408
0.00014317036 -0.096840993 0.021457631
-0.00072859228 -0.084748879 0.021482525
-0.075771838 0.0018983819 0.020557681
-0.0014939159 -0.072865717 0.021806082
0.00079801679 -0.065045908 0.021715455
-0.056582034 0.0027195662 0.020849131
0.0024297461 -0.056724366 0.021882728
-0.039864428 -0.013157614 0.021809874
-0.00015728176 -0.053152386 0.02249046
-0.0008207038 -0.043478951 0.022151344
-0.045389369 0.0024044886 0.022001157
-0.0035621747 -0.030840285 0.022595286
0.00023151189 -0.034709923 0.022697996
-0.0040912107 -0.021449126 0.022594647
0.00044098496 -0.026025653 0.022685647
0.001203604 -0.026809365 0.022707263
-0.0033895969 -0.013417482 0.022875836
-0.0014792532 0.0011935011 0.02307521
-0.13314736 0.0011618994 0.019316429
-0.036397427 -0.096272655 0.020981424
-0.00033523142 -0.1325205 0.021564201
0.00068590045 -0.13350245 0.021525478
0.0025062561 -0.13431571 0.022134056
-0.00023114681 -0.12017508 0.02144265
0.0020543635 -0.12251231 0.021517843
-0.021330819 -0.086598471 0.021304842
0.0017451197 -0.10983054 0.021699287
-0.0023414493 -0.10471508 0.022256551
0.00095245242 -0.10801255 0.022285493
0.0017184764 -0.10877516 0.022294033
-0.0010408312 -0.083519101 0.022171825
0.00092943013 -0.084481187 0.022797395
-0.0017879233 -0.071627647 0.022461742
0.00017530471 -0.073580682 0.022513051
0.0020220801 -0.075390257 0.022476353
0.0019489229 -0.074336439 0.023117466
-0.064764202 0.0029284135 0.021883547
-0.03839761 -0.013728179 0.022519918
-0.001414001 -0.041027911 0.023470625
-0.0037188828 -0.029790811 0.02329242
-0.0021528453 -0.031374313 0.023328599
-0.0023999363 -0.02223964 0.023326172
-0.0014063939 -0.023296289 0.023388904
-0.026455209 0.002784811 0.023676176
-0.018130086 0.0031993613 0.024044249
-0.0010640696 -0.013942003 0.024310606
-0.0026397482 -0.0046147034 0.024011558
0.00092086196 -0.0081783682 0.024060635
-0.05488719 -0.10397269 0.021256976
-0.043720499 -0.1015051 0.021299196
-0.13140191 0.0014382917 0.020521032
-0.13068053 0.00070622191 0.020542933
-0.03459093 -0.09606725 0.022198722
-0.00058192015 -0.13027954 0.022762842
0.00040796399 -0.13128528 0.022789078
-0.02758953 -0.090691105 0.022254888
0.0005043745 -0.11892578 0.022675036
0.0014958978 -0.11990993 0.022688046
0.00020694733 -0.11762087 0.023287471
0.00017659366 -0.10624549 0.022883102
0.0009675622 -0.107048 0.022897724
-0.0016185045 -0.1034646 0.023503317
0.00010861456 -0.10519113 0.023522947
3.3229589e-05 -0.093793824 0.023328744
0.0013656467 -0.095152162 0.023360707
-0.00040104985 -0.082227312 0.023480348
-0.072619691 0.0016882829 0.02252028
-0.0014663935 -0.070000932 0.02375548
0.00085430592 -0.0723764 0.023825556
-0.063102737 0.00211237 0.022644905
-0.001507327 -0.059971843 0.023731599
0.00031225383 -0.0617215 0.023712534
0.0013031065 -0.062721916 0.023734806
0.0020924285 -0.063513428 0.023735343
-0.053801242 0.0026857294 0.022969062
-0.037284426 -0.013941228 0.023247676
-0.036549911 -0.014719874 0.02330217
-0.034728006 -0.016443335 0.023246445
-0.017934822 -0.033381324 0.023550779
-0.00085297972 -0.050553571 0.023812747
0.00017848611 -0.051631294 0.023853282
0.0014355779 -0.05289685 0.023873873
-0.038123883 -0.012151945 0.023905432
-0.037344754 -0.012908306 0.023888128
-0.035617977 -0.014740475 0.023995759
-0.027184553 -0.023116946 0.02404552
-0.026430197 -0.023905564 0.024082564
-0.001215063 -0.049349394 0.024570223
-0.044596799 0.0034152791 0.023411658
-0.0041378886 -0.037423104 0.024176158
0.001491189 -0.043093182 0.024276873
-0.0014400855 -0.039234385 0.024929749
0.00063356757 -0.041292183 0.024933975
0.0013883486 -0.042077661 0.024967689
-0.0029956475 -0.028732494 0.024741033
0.00015458465 -0.031929724 0.024807794
-0.026354268 0.003574945 0.024404706
-0.0049939752 -0.017910138 0.024754165
-0.0012359694 -0.012981899 0.025094839
-0.0096262991 0.0033023953 0.024601281
-0.00099606067 -0.005411759 0.024775824
-0.043405317 -0.099777788 0.022468435
-0.0018081814 -0.14169063 0.023199659
-0.0020273626 -0.14038485 0.023714961
-0.035382539 -0.094251163 0.022761308
-0.00059860945 -0.12923512 0.023348214
0.0021747649 -0.13198127 0.023365641
-0.12809828 0.00012383983 0.021787308
-0.00085274875 -0.12796879 0.023936253
0.0011778921 -0.13002378 0.023977375
0.0039880872 -0.13275766 0.023940109
-0.00011350214 -0.11630917 0.023921199
-0.0010687113 -0.090775818 0.024604861
0.0017418414 -0.0935691 0.024625963
-0.00045490265 -0.080255382 0.024766592
0.00030711293 -0.08101631 0.024775041
0.0012864769 -0.082008749 0.024797671
0.00054868311 -0.071125165 0.02447753
0.00020439923 -0.069786094 0.025111174
0.0014861897 -0.071111202 0.025147751
0.00094088912 -0.060510669 0.025081828
0.0019162595 -0.061472829 0.025095295
-0.03007751 -0.019391183 0.024774417
-0.0020317808 -0.037712395 0.025584321
-0.035099924 0.0044938773 0.024900604
-0.0015055612 -0.029351398 0.025468258
-0.00070370734 -0.030154474 0.025477406
0.0015803725 -0.03251113 0.025580093
0.0023382604 -0.033289246 0.025591668
-0.0012915134 -0.020764127 0.025535133
-0.00024913251 -0.021754719 0.025523748
-0.0026766732 -0.018518798 0.026268739
-0.016653784 0.0034397617 0.025542313
-0.0014196038 -0.011965282 0.02584712
-0.0022941083 -0.0023875386 0.0262252
-0.0014269203 0.0044858679 0.026091646
-0.00064917654 0.0036817193 0.026118685
-0.15408725 6.6597946e-05 0.021816686
-0.035678178 -0.091960572 0.023995876
-0.0021700263 -0.12461711 0.025098568
-0.026271261 -0.089000463 0.024096586
-0.0011016726 -0.11432993 0.024507627
-0.00010409951 -0.11532979 0.024529958
0.000900805 -0.11632046 0.024541801
0.0008341223 -0.10395291 0.024789609
-0.10346206 0.0020751096 0.023610363
4.5850873e-05 -0.10218183 0.025399297
0.00082799792 -0.10296126 0.025405012
-7.7500939e-05 -0.090802699 0.02525451
0.0011779964 -0.092035986 0.025269134
-0.081519634 0.0023412704 0.02404278
0.00016202033 -0.078938216 0.026067507
-0.001116544 -0.06754753 0.02577721
-0.00011584908 -0.068531483 0.025761271
-0.06959261 0.0024776645 0.025185017
-0.0022299588 -0.056403179 0.025712058
-0.00027356297 -0.058372624 0.02576408
0.0015073568 -0.059246447 0.026471008
-0.031192958 -0.017298058 0.025413232
-0.0018911883 -0.046822086 0.025901821
-0.050358079 0.0029186159 0.025747865
-0.02336327 -0.024259284 0.026221763
-0.0019501075 -0.045804136 0.026569122
4.0911138e-05 -0.047881223 0.02666422
-0.004146874 -0.03471975 0.026293466
-0.040458314 0.0028060153 0.026325958
-0.0019966215 -0.035948299 0.027001373
-0.0011919066 -0.036760479 0.027012777
3.2529235e-05 -0.037996247 0.027040647
0.0013522208 -0.039267428 0.027009308
-0.032688491 0.0029106066 0.025671022
-0.023686454 0.0035200417 0.026622543
-0.0045539886 -0.015664265 0.026890568
-0.015483096 0.0031202063 0.026301926
-0.00065552443 -0.0032247677 0.027013712
-0.0029011592 -4.5187771e-05 0.027688885
-0.0017618686 -0.13643366 0.025953289
0.0016432106 -0.1274431 0.025761332
0.0014415681 -0.12623005 0.026338963
0.0033940375 -0.12817675 0.026377553
-0.0011892319 -0.11125044 0.026334036
-0.0011955053 -0.11224093 0.025729802
0.00061808527 -0.11404961 0.025749281
-0.11385869 0.0023342129 0.024309445
-0.00026756525 -0.10086185 0.026014639
-0.00026354194 -0.099884748 0.026621984
-0.0024442524 -0.086426109 0.026467545
-0.0011667609 -0.087742567 0.026522014
5.030632e-05 -0.088965401 0.026532918
-0.079533182 0.0022763759 0.025345946
0.00012481213 -0.077908322 0.026687169
-0.00053557009 -0.06620539 0.027115636
-0.0019010305 -0.054836493 0.027056886
-0.04942365 0.0029272884 0.026447723
0.0017430484 -0.048599347 0.027334075
-0.018060572 -0.01878015 0.027357783
-0.0026794299 -0.025537714 0.027609963
0.0008841455 -0.020301625 0.027729977
-0.0067171529 0.0037610158 0.027636399
-0.0012398437 -0.00090607256 0.028484998
-0.13706835 0.00074686483 0.02428099
0.0010491014 -0.13831735 0.026633136
0.0020643026 -0.13938338 0.026694447
-0.12586534 0.0019624904 0.024172492
-0.12484682 0.0009005852 0.024215976
0.0013846159 -0.12514991 0.026936173
-0.025041319 -0.086245075 0.026539857
-0.024042614 -0.087235317 0.026556646
0.00051628053 -0.11194885 0.026972609
0.0013105571 -0.11273695 0.026974261
0.00053119659 -0.11097085 0.027575273
-0.099697568 0.0012731776 0.025481302
-0.0018107891 -0.097277656 0.027185462
-0.00051580369 -0.098623961 0.027216967
0.0014514029 -0.10060498 0.027277857
-0.086049929 -0.011475883 0.026362482
-0.017997697 -0.079958797 0.027476568
-0.08943519 0.0021627732 0.025595676
-0.08799661 0.0016472265 0.02628467
-0.086474359 0.0001016967 0.026323533
0.0023566484 -0.090316616 0.027203711
-0.00070309639 -0.086229265 0.027765982
-0.079612404 0.0033103116 0.025997547
-0.07856378 0.0022694096 0.026007414
-0.077569425 0.0022239946 0.026681541
-0.0017682686 -0.074035719 0.027939996
0.00077375025 -0.076596744 0.027967785
0.002609998 -0.07947436 0.027400393
-0.067931846 0.0027056597 0.026533164
-0.067459032 0.0022081807 0.026555439
0.00016506016 -0.064999685 0.028414687
-0.036560781 -0.019047126 0.027175033
-0.035797901 -0.019839305 0.027204162
-0.034793422 -0.020847604 0.027197195
-0.029438384 -0.02617798 0.027281456
6.1973929e-05 -0.055915546 0.027788237
0.0010631606 -0.056918111 0.027791915
-0.057215285 0.0026997551 0.027459551
-0.043745086 -0.010776937 0.027656266
-0.043019623 -0.011533916 0.027692817
-0.042241737 -0.012334827 0.027708394
-0.042007573 -0.012557428 0.027714889
-0.039969221 -0.01465334 0.027772391
-0.03893438 -0.015690938 0.027781729
-0.038033865 -0.016541671 0.027756969
-0.036644436 -0.017962214 0.027794851
-0.033604875 -0.021083817 0.027905077
-0.032528333 -0.022079989 0.02785304
-0.023728877 -0.031023964 0.028055441
-0.022192284 -0.032529492 0.028043836
-0.021448195 -0.033269908 0.028074134
-0.020054378 -0.03465474 0.028061625
-0.015023664 -0.039768945 0.028203201
-0.018436454 -0.027323037 0.027637871
-0.0013514534 -0.044575036 0.027965911
0.0003400445 -0.04630854 0.02800937
-0.04725273 0.002678439 0.027787194
-0.02385439 -0.02090995 0.028198833
-0.038377784 0.0025163889 0.027766867
-0.0042359382 -0.03182929 0.028323911
-0.00043136626 -0.035706967 0.028433723
-0.0037953854 -0.031374738 0.029032905
-0.030473612 0.0033763051 0.02782147
-0.019214295 -0.0079703256 0.028013837
-0.0076803118 -0.018688254 0.028918479
-0.006904617 -0.019477129 0.028952861
-0.0040757284 -0.022256568 0.028942391
-0.0020979196 -0.024357468 0.029060515
-0.00033646077 -0.026066795 0.029051181
-0.021616377 0.0032088906 0.028086711
-0.013123959 -0.0044512451 0.028967099
-0.0090370923 -0.0085472837 0.029014321
-0.001689069 -0.015952863 0.029139772
-0.0015379786 -0.017023601 0.028433694
-0.00050604343 -0.018061794 0.028485304
-0.0041551962 -0.0049024895 0.029487774
-0.0029531047 -0.0068859458 0.028698558
-0.0022077188 -0.007648468 0.028725347
-0.0013397932 -0.0076746792 0.029478118
-0.00056881458 -0.0084810108 0.029516546
-0.00042326748 -0.0095341876 0.028814057
-0.0023998767 0.0011408627 0.029188728
-0.0011704788 -0.00011505932 0.029233083
-0.14764358 -0.00010629371 0.025270896
-0.13459873 0.00031419843 0.02548394
-0.13357398 -0.00071142241 0.025511898
-0.13253608 -0.0018133428 0.025573926
0.0007660836 -0.13589808 0.02773512
0.0015372336 -0.13670877 0.027773799
0.0018416792 -0.13703221 0.027784247
-0.0011875182 -0.12155703 0.027489064
0.0010716021 -0.12381012 0.02752639
-0.11892927 -0.0020136219 0.02610705
0.00085575879 -0.12262025 0.028130613
0.0021255165 -0.12385302 0.028128622
-0.08986415 -0.0066745132 0.026935115
-0.088874727 -0.0076557435 0.026932238
-0.015821084 -0.081179082 0.028163571
0.0032842457 -0.10147835 0.027926058
-0.080629475 -0.0047759376 0.027026922
-0.01248353 -0.073393792 0.028190536
-0.0023022592 -0.083684064 0.028395165
-0.085290886 0.00086161122 0.0276109
-0.08294189 -0.0013711192 0.027562257
-0.081965774 -0.0024109334 0.027612498
-0.074326068 -0.010162402 0.027766351
-0.012759186 -0.072129175 0.028803155
-0.0089466795 -0.075948074 0.028887769
-0.0003182739 -0.084662974 0.029028039
0.00098386407 -0.085968554 0.02905884
0.0019594133 -0.086994097 0.029116174
0.0022103786 -0.08722277 0.029100453
-0.074580655 0.00029454753 0.027295727
0.00078042597 -0.075618699 0.028590458
-0.069027483 -0.0043275021 0.028055863
-0.0011127442 -0.072807521 0.029269578
0.00074858963 -0.074620262 0.029230438
-0.0055364221 -0.058364239 0.029009145
0.0018427521 -0.065758541 0.029126052
-0.054524031 0.0010390095 0.028118636
-0.046134494 -0.0074911937 0.028308002
-0.043825909 -0.009841159 0.028364219
-0.041859508 -0.011766065 0.028387481
-0.039746247 -0.01394685 0.028432308
-0.036698759 -0.016968116 0.028470134
-0.031302482 -0.022359371 0.028518859
-0.0061729401 -0.047760729 0.029009216
-0.0018636286 -0.052049454 0.029061541
0.00040026754 -0.054362111 0.029134665
-0.05304338 0.00047439709 0.028819771
-0.032871313 -0.01097244 0.028776893
-0.013349302 -0.030622363 0.029127052
0.00026354939 -0.04436443 0.029359175
0.00095983595 -0.045056075 0.029370291
-0.036153898 0.0011838675 0.02849005
-0.030830987 -0.004169777 0.028593406
-0.00098028034 -0.034262903 0.029118285
-0.00051997602 -0.034710571 0.029118501
-0.036816202 0.0027505904 0.029185552
-0.036525935 0.0024679303 0.029184241
-0.032656252 -0.0014056489 0.029247129
-0.029392876 -0.0047009066 0.029311391
-0.026089527 -0.0080136806 0.029363345
-0.010804765 -0.023394316 0.029591594
-0.0010723397 -0.033282071 0.029846996
-0.0044782385 -0.02099254 0.029665174
-0.0011858344 -0.024375044 0.029769124
-0.00043235719 -0.025105141 0.029765546
-0.014222875 -0.0024362355 0.029643416
-0.0045841411 -0.012261689 0.029865941
-0.0030072033 -0.013736725 0.029840784
-0.0017739683 -0.014954202 0.029826378
-0.00076187402 -0.016029365 0.029883055
-0.0096162632 0.0015122667 0.030076668
-0.0023435727 -0.0057954192 0.030192962
-0.0014533252 -0.0066653341 0.030185897
-0.0041427761 0.0037038997 0.029938422
-0.0027441382 0.0031593814 0.030683903
-0.0019713119 0.0023470521 0.030720379
-0.00079045445 0.00034733117 0.02998206
-0.14016527 -0.0055143703 0.026481573
-0.12984477 -0.0034303404 0.026143415
-0.0001873076 -0.13388517 0.028264178
0.0005762428 -0.13465875 0.028277205
-0.13230745 8.4115192e-05 0.026689179
-0.12660453 -0.0057189558 0.026812712
-0.0063020736 -0.12679681 0.028818108
0.0015532225 -0.13461103 0.028878761
-0.1210575 0.0011756569 0.026632233
-0.11228457 -0.0077253245 0.02682008
-0.0024508387 -0.11826089 0.028647712
-0.0011449009 -0.11855403 0.029247837
0.00031708181 -0.12001006 0.029274829
0.00061219931 -0.12134835 0.028709788
0.0018452555 -0.12258562 0.028729217
-0.10521293 -0.0024310201 0.026948517
-0.10113297 -0.0064596236 0.02695455
0.00053608418 -0.10893858 0.028767779
0.0013278723 -0.10976535 0.02879527
-0.10755761 0.00086730719 0.027559491
-0.00070731342 -0.10670327 0.029343771
0.00054229796 -0.10793916 0.029367484
-0.090156704 -0.005364392 0.027540704
-0.087349847 -0.0081051402 0.027523737
-0.017373957 -0.078588672 0.028740445
-0.00058983266 -0.095534965 0.029051125
0.00068359077 -0.09682332 0.029081594
0.0019269139 -0.098119117 0.029118158
-0.093808368 -0.00073531643 0.028137133
-0.090420701 -0.0040291175 0.02809632
-0.015058875 -0.079946697 0.029391015
0.00038172305 -0.095521212 0.02969083
-0.013082989 -0.070839718 0.029452892
-0.000587672 -0.083446786 0.029673085
0.00066098571 -0.084646299 0.029670684
-0.0743981 0.0020060539 0.028628774
-0.015156001 -0.057683438 0.029646611
-0.013147302 -0.059750199 0.029713599
-0.0039649233 -0.068955183 0.029826296
0.0006191805 -0.073513873 0.029888816
-0.05442071 -0.0081370845 0.02878934
-0.051396348 -0.01120108 0.028860835
-0.0022946894 -0.060614955 0.029691143
0.00080063939 -0.063727178 0.029729052
-0.065082565 0.0026576221 0.028563475
-0.063534945 0.0019686632 0.029315803
-0.05862188 -0.0029605627 0.029402304
-0.057576504 -0.0040104017 0.0294035
-0.05652215 -0.0050940774 0.029421063
-0.054771245 -0.0068117827 0.029448159
-0.052985512 -0.0086217597 0.029472739
-0.051486194 -0.010135815 0.029515756
-0.010225981 -0.051687092 0.030229867
-0.0061782897 -0.055762935 0.030290838
-0.0051329359 -0.056841027 0.030314367
-0.002633743 -0.059368346 0.030381706
-0.00081001967 -0.061150342 0.030368863
-6.9126487e-05 -0.061880801 0.030374505
0.00070223212 -0.062666163 0.030403152
-0.054965179 0.0023259334 0.028839495
-0.044712611 -0.0079812296 0.02902201
-0.00091404468 -0.052082416 0.029756613
0.00015040487 -0.053155579 0.029766483
-0.051428214 -0.0003009066 0.029590214
-0.0041086227 -0.047977462 0.030415094
-0.0030399337 -0.049052268 0.030445497
-0.045398496 0.0026253164 0.029208561
-0.034273021 -0.0085970238 0.029423898
-0.016635843 -0.026343256 0.029703245
-0.0090248659 -0.034069486 0.029887289
0.00013598055 -0.043316647 0.030064601
-0.037640385 -0.0043213293 0.030061077
-0.001469031 -0.040715076 0.030665124
-0.00070693344 -0.041538604 0.03072978
-0.033041865 -9.3340874e-05 0.029914333
-0.031215802 -0.0019640923 0.029959146
-0.023387082 -0.0098726898 0.030129928
-0.0040355176 -0.029311232 0.030414816
-0.0019666553 -0.031398527 0.030459568
-0.0086978674 -0.023660772 0.031002644
-0.018338658 -0.0061662048 0.030168664
-0.00484889 -0.019758612 0.030397724
-0.0015400127 -0.023085199 0.030478429
-0.02655407 0.002553679 0.030395146
-0.025290661 0.0017498359 0.030743362
-0.024258666 0.0006903708 0.030763168
-0.021779932 -0.0017995685 0.030818176
-0.019142382 -0.0053291321 0.030150032
-0.016909309 -0.006684728 0.030873574
-0.01617226 -0.0074793473 0.030929433
-0.01210662 -0.011561126 0.031003473
-0.011335187 -0.012382731 0.031046033
-0.01060684 -0.013129734 0.031065887
-0.0098304898 -0.013879746 0.031057438
-0.0018134192 -0.022306174 0.030766755
-0.018700093 0.0029084831 0.030309055
-0.015572421 0.00063093007 0.031100972
-0.012220107 -0.0027263388 0.031144653
-0.011443853 -0.0035216063 0.031160027
-0.0087749436 -0.0071123168 0.030499062
-0.0079870149 -0.0078527108 0.030470788
-0.0065872893 -0.0084009543 0.03123696
-0.0045019388 -0.011473432 0.030616123
-0.0019727796 -0.013037592 0.031309184
-0.0018305108 -0.014024436 0.030556601
-0.005702883 -0.0015462339 0.030874191
0.029642709 0.0014873743 0.032642357
-0.14429937 -0.00033990946 0.026989549
-0.13255082 0.0013443977 0.027263617
-0.12977037 -0.00044563971 0.027909644
-0.12941402 -0.0017406493 0.027248239
-0.12678523 -0.0034341328 0.027931657
-0.00072909892 -0.13137703 0.029505556
0.00030951202 -0.13234241 0.029464703
-0.1239949 -0.0061690994 0.027947409
-0.0058086663 -0.12523523 0.029987643
-0.0014871806 -0.12958655 0.03006337
0.00033833086 -0.13140365 0.030082617
-0.11872622 0.00095268898 0.027815718
-0.11763978 -0.00021786988 0.027867399
-0.11591497 -0.0020083319 0.027924558
-0.11480483 -0.0030348208 0.027873956
-0.11214243 -0.0058216155 0.02802475
-0.1110315 -0.0069447979 0.028028984
-0.0032334477 -0.11546314 0.029852515
0.00020675361 -0.11888669 0.029864695
-0.10300204 -0.002706591 0.028221924
-0.1006999 -0.0049892291 0.028253172
-0.022099689 -0.084153339 0.029594807
-0.021077879 -0.085204557 0.029627733
-0.00075365603 -0.10564423 0.029953592
0.00052300096 -0.10692048 0.029973213
-0.10125168 -0.003461428 0.028860131
-0.022156157 -0.083056599 0.030185077
-0.0058247298 -0.099539451 0.030477308
-0.0009469986 -0.10444516 0.030577946
-0.00024279952 -0.10515745 0.030569678
0.00050592422 -0.10590792 0.030581478
-0.095108837 0.0016923323 0.028640956
-0.093997717 0.00048322231 0.028703202
-0.090192586 -0.0023127086 0.029376773
-0.086167499 -0.006427668 0.029465834
-0.085090242 -0.0084129348 0.028805811
-0.01692839 -0.076134756 0.030633314
-0.016443834 -0.077122882 0.030364953
-0.0080668181 -0.085089438 0.03081646
-0.0070538819 -0.086056888 0.030788079
-0.0060449541 -0.087076537 0.030824119
-0.0050029755 -0.088154465 0.030875823
-0.00073935091 -0.092428081 0.030925864
-0.0005145669 -0.092631832 0.030917544
0.00032688677 -0.093984745 0.030613925
-0.084099442 0.0016252995 0.028889047
-0.082805023 0.00034404919 0.028910182
-0.078755826 -0.0037536137 0.028983047
-0.077755883 -0.0047181509 0.028978186
-0.073937707 -0.0085745417 0.029038839
-0.072142549 -0.010367077 0.02908385
-0.013121277 -0.069827422 0.030104639
-0.0059550777 -0.076989293 0.030167557
-0.0052015409 -0.07774967 0.030180987
-0.0045190454 -0.0784785 0.030246012
-0.0021800995 -0.080874212 0.030307729
-0.081040688 -0.0003519617 0.029492872
-0.074262649 -0.0072702728 0.029683309
-0.0029901639 -0.079069719 0.030907409
-0.00071267784 -0.081370838 0.030966045
5.9127808e-05 -0.082149357 0.030975338
0.0011054277 -0.083165109 0.03095557
-0.072705597 0.0013160892 0.029252293
-0.069662184 -0.0018609501 0.029376032
-0.066925332 -0.0046092197 0.029435156
-0.06588167 -0.0056443699 0.029431634
-0.061232336 -0.010325279 0.029496547
-0.0073245317 -0.064580113 0.030420061
-0.006534934 -0.065372989 0.030420464
-0.00042358041 -0.071566038 0.030543027
-0.071020052 0.00050358102 0.029988496
-0.069941483 -0.00062490627 0.030014129
-0.063382365 -0.0072036758 0.030125266
-0.062349711 -0.008198455 0.030109575
-0.061300341 -0.0092738867 0.030151952
-0.010975868 -0.059997052 0.031030985
-0.0083501488 -0.062610894 0.031057173
-0.004337348 -0.066641137 0.031137319
-0.00177674 -0.069230035 0.031156756
-0.0010329038 -0.06998314 0.031179886
-0.059873953 -0.00064664707 0.029960152
-0.055082384 -0.005556386 0.030119663
-0.01742956 -0.043500111 0.030779615
-0.012336619 -0.048623376 0.030847594
-0.0067024007 -0.054294258 0.030934148
-0.0011448413 -0.059896547 0.031045595
-0.00033928454 -0.060683649 0.031038901
-0.052726027 0.0019912161 0.030189699
-0.049696594 -0.0010938831 0.030271884
-0.046875201 -0.0038962439 0.030292232
-0.045048483 -0.0057701245 0.030337313
-0.037001446 -0.013918098 0.030545443
-0.017868392 -0.033116154 0.030793285
-0.010485366 -0.04059894 0.030964585
-0.00080168992 -0.050267432 0.031070249
-0.00056022406 -0.050516751 0.031074706
-0.051242542 0.001487378 0.030863196
-0.043671168 -0.0062122829 0.03103541
-0.033741906 -0.016185727 0.031209741
-0.0051967874 -0.044972241 0.031721022
-0.0044131353 -0.045770418 0.031724758
-0.043801062 0.0028696284 0.030626185
-0.04283198 0.0018100739 0.030679058
-0.039760858 -0.0012611076 0.030732743
-0.037944034 -0.0031058639 0.030744612
-0.033897258 -0.0071754158 0.030825565
-0.033152707 -0.0078800321 0.03081226
-0.0091841072 -0.032047056 0.031228665
-0.0063806549 -0.034936167 0.031340174
-0.0021077096 -0.039206885 0.031393267
-0.034406431 0.0021494403 0.030615736
-0.031615734 -0.00064451247 0.030656416
-0.028339826 -0.0039336309 0.030704949
-0.025774844 -0.0065121129 0.030759575
-0.0072446987 -0.025240451 0.031119619
-0.0056844503 -0.026780568 0.031094119
-0.0042031109 -0.028248787 0.031140395
-0.0020587221 -0.030389972 0.031159472
-0.028464139 -0.0029137358 0.031424891
-0.026902862 -0.0045091212 0.031450722
-0.012666233 -0.018792167 0.03166227
-0.010844536 -0.020667851 0.031741422
-0.0090775937 -0.022428885 0.031723123
-0.0058215559 -0.025759369 0.031830117
-0.0021479726 -0.029388413 0.03183794
-0.022871368 0.00020189583 0.031495944
-0.022115432 -0.00057926029 0.031513795
-0.019561194 -0.0031419024 0.031564977
-0.018815935 -0.0038486049 0.03155186
-0.014786735 -0.0080174804 0.031702381
-0.013981476 -0.0087417513 0.031653859
-0.006817922 -0.015906297 0.03172604
-0.0060966015 -0.016661614 0.031753063
-0.0053431988 -0.017446183 0.031789009
-0.0029440597 -0.019884959 0.031845272
-0.016636945 0.0025807619 0.031781953
-0.014147624 8.9339912e-05 0.031823251
-0.010022238 -0.0040777698 0.031901732
-0.0052071139 -0.0089177638 0.031979416
-0.0044379309 -0.0097518638 0.032041941
-0.0036749616 -0.010543413 0.032070722
-0.0029341057 -0.01128532 0.032077149
-0.0093512982 0.00296022 0.031540923
-0.0086157769 0.0022221655 0.031569514
-0.003746964 -0.0026680008 0.03163334
-0.0020229369 -0.0044773296 0.031727847
-0.0072162524 0.0016871244 0.032322973
-0.0064196065 0.0008501038 0.032341141
-0.14377639 0.00016107969 0.027577365
-0.13974525 -0.0039227139 0.027657606
-0.13611087 -0.0076197647 0.027740594
-0.13998023 -0.0026574302 0.028226165
-0.13706091 -0.0055698622 0.028259585
-0.12148847 -0.0077959392 0.028634071
-0.0024828762 -0.12755209 0.030621419
4.5642257e-05 -0.13010424 0.030670565
-0.00349693 -0.12550567 0.031177897
-0.00098283589 -0.12803654 0.031231115
-0.11905566 0.0021561664 0.02848752
-0.1171286 0.00027965754 0.028467577
-0.11613388 -0.00075843185 0.028507574
-0.10923656 -0.0076534972 0.028603353
-0.0017547309 -0.11591737 0.030470889
-0.00095701218 -0.11672509 0.030469777
-0.11359319 -0.0022884347 0.029103301
-0.11251545 -0.0032962002 0.029102925
-0.11155555 -0.0043469481 0.029167358
-0.10750268 -0.0083281882 0.029171547
-0.0012200624 -0.1154411 0.031066168
0.00084833801 -0.11751856 0.031059776
-0.10349783 -7.886067e-05 0.029352287
-0.10248783 -0.0011533797 0.02939854
-0.020371437 -0.083893724 0.030839188
-0.014477588 -0.089795806 0.030922955
-0.0084251761 -0.095878929 0.031009773
-0.097678959 -0.0049196407 0.030041194
-0.096663319 -0.0059725679 0.030062785
-0.021381639 -0.081802972 0.031381115
-0.083430067 -0.0091770627 0.029526494
-0.092776313 0.0012569427 0.029962087
-0.091834694 0.00024564564 0.03001231
-0.0033167899 -0.088865951 0.031517591
-0.0020056367 -0.090183929 0.031526115
-0.0009867996 -0.09120366 0.031541273
-0.079302996 -0.001155097 0.03015963
-0.078319378 -0.0022436753 0.030242015
-0.0094214678 -0.07061246 0.032032173
-0.009125106 -0.071868137 0.031407852
-0.0073601082 -0.072710425 0.032091051
-0.0014889538 -0.07961753 0.03157765
-0.00022996962 -0.08087045 0.031599924
-0.079830408 0.00035031512 0.030804494
-0.01269716 -0.067291781 0.031971302
-0.011936188 -0.068067759 0.031999435
-0.0048213601 -0.075171307 0.032076348
-0.0025872886 -0.077478722 0.032162793
-0.067490429 -0.0020614974 0.030665709
-0.059122011 -0.010511748 0.03082756
-0.0095418617 -0.06046525 0.031713754
-0.006894961 -0.063081615 0.031714577
-0.0028371364 -0.067215763 0.031822383
-0.0013200939 -0.068719685 0.031805493
-7.148087e-05 -0.06999594 0.031851236
-0.061246932 0.0015589371 0.030684367
-0.060255796 0.00057078153 0.030682491
-0.057725322 -0.00093189999 0.031356044
-0.056756422 -0.0019902773 0.031409096
-0.055415593 -0.0043017119 0.030771995
-0.052901335 -0.0058440603 0.031453755
-0.052566506 -0.0071557425 0.030802038
-0.051131546 -0.0076333396 0.031485707
-0.048044369 -0.011208851 0.031208118
-0.017784454 -0.041244708 0.032082807
-0.010209091 -0.048894241 0.032222826
-0.0083875209 -0.05072457 0.032267034
-0.0080501959 -0.051932562 0.03153412
-0.0039769337 -0.056106579 0.031660266
-0.0029671565 -0.057142254 0.031684749
-0.0015145838 -0.057662439 0.032375768
-0.0014815629 -0.058617372 0.031707391
-0.0019352809 -0.048319191 0.031814784
-0.049602367 0.00069309026 0.031618502
-0.048612654 -0.00032112002 0.031641476
-0.04752849 -0.0014051199 0.031653658
-0.044737518 -0.00419949 0.031693771
-0.042249881 -0.0067055225 0.031753764
-0.041461907 -0.007487908 0.031742785
-0.04068727 -0.0083056241 0.031779647
-0.030781589 -0.018319562 0.031995002
-0.014928728 -0.034207799 0.032197982
-0.011653505 -0.037542269 0.032283377
-0.0085958466 -0.040624261 0.032348797
-0.007243745 -0.041939765 0.032307636
-0.0060250685 -0.04321643 0.032380998
-0.0037216619 -0.04647921 0.031753454
-0.0030001253 -0.047207091 0.031769067
-0.042444855 0.0023323894 0.031384222
-0.041144401 0.0010240003 0.03139792
-0.038301714 -0.0018013045 0.031421572
-0.01390025 -0.026398666 0.031878814
-0.010149784 -0.030143902 0.031910341
-0.0093103647 -0.031002007 0.03191613
-0.0064770207 -0.033905208 0.032018572
-0.0044614822 -0.035908483 0.032025293
-0.0031856522 -0.037199572 0.032049775
-0.0026677027 -0.037716329 0.032060362
-0.038717553 -0.00049725175 0.032137007
-0.035857446 -0.0033460855 0.032149937
-0.035101928 -0.0041259006 0.032167811
-0.031066768 -0.0081583261 0.032243926
-0.012481436 -0.02695252 0.032599676
-0.01021681 -0.029186703 0.032596078
-0.0065857694 -0.032807052 0.032656007
-0.032301687 0.0018304959 0.032039791
-0.031292081 0.00084318221 0.03205147
-0.0295026 -0.00096372515 0.032081112
-0.022888228 -0.0076215416 0.032201454
-0.0094116926 -0.021209717 0.032432213
-0.0031225234 -0.027517252 0.032551307
-0.0023081973 -0.028332204 0.032548849
-0.023218207 0.0014470816 0.032209113
-0.020729356 -0.0010784119 0.032263961
-0.017429441 -0.0043745488 0.032310497
-0.0079971626 -0.013925709 0.032507036
-0.0031424463 -0.018803902 0.032578494
-0.023615934 0.0027557388 0.032888643
-0.021790355 0.00088717788 0.032933265
-0.01930397 -0.0016104504 0.032993987
-0.018507041 -0.0024486706 0.033011831
-0.015209071 -0.0057338402 0.033048581
-0.014426149 -0.0065575913 0.033080336
-0.013741322 -0.0072672218 0.033138383
-0.011168644 -0.009780474 0.033120073
-0.010662355 -0.010315001 0.033140454
-0.0096210018 -0.011424817 0.033195734
-0.0088960603 -0.012156606 0.033220008
-0.0035081133 -0.017528906 0.033258747
-0.016239561 0.0030536652 0.032513537
-0.015062377 0.0023206323 0.032892138
-0.01390098 0.0016044527 0.033273946
-0.011940219 -0.0012338832 0.032573048
-0.01057867 -0.0017229319 0.033318974
-0.0085927397 -0.0046551228 0.032648645
-0.0078926235 -0.0053769872 0.03268994
-0.0071621686 -0.0061544701 0.032727864
-0.0050244853 0.00038608164 0.033063475
-0.0032872856 -0.0013933703 0.033119619
-0.14028071 -0.0012979619 0.028766951
-0.1404658 -6.7804009e-05 0.029325824
-0.13475996 -0.005847903 0.029449372
-0.12453587 -0.0037093628 0.029180573
-0.12550616 -0.0016049538 0.029676767
-0.12301014 -0.0041968431 0.029752683
-0.12194186 -0.0051624421 0.029707074
-0.0037500411 -0.12423931 0.031765383
-0.0012021214 -0.12678885 0.031798325
-0.0042970777 -0.11136441 0.031624284
-0.0012156963 -0.11445537 0.031668723
-0.11313227 -0.00076624006 0.030346233
-0.10935082 -0.0045729242 0.030422419
-0.0042876899 -0.11035047 0.032203417
-0.0027943254 -0.11186092 0.03224225
-0.0020592362 -0.11257295 0.032248296
-0.0012337565 -0.11342003 0.032257371
-0.10382222 0.0011402108 0.030015236
-0.020436414 -0.082791775 0.031440821
-0.0026108921 -0.10078402 0.03176992
-0.0018482655 -0.10153915 0.031780221
-0.00030273199 -0.1030945 0.031801719
-0.098223358 -0.0035142191 0.030734222
-0.094935447 -0.0068088807 0.030764725
-0.0094789118 -0.092853449 0.032230273
-0.007204771 -0.095089078 0.032239422
-0.004930675 -0.097381011 0.032304015
-0.0028490871 -0.099530742 0.032348238
-0.0020985603 -0.10030371 0.032385841
-0.088285431 -0.0013042279 0.031294126
-0.087746419 -0.0027420484 0.030605033
-0.086770244 -0.0038060807 0.030684022
-0.085691407 -0.0049361773 0.030709589
-0.083951123 -0.0066190548 0.030702239
-0.081468508 -0.0081571788 0.031397473
-0.080479786 -0.0091654025 0.031418879
-0.07939443 -0.010255493 0.031431142
-0.016531721 -0.074554771 0.031888615
-0.010654502 -0.080472335 0.031991381
-0.0091739818 -0.081000403 0.032662541
-0.0083708391 -0.081818864 0.032678127
-0.0083416328 -0.082832851 0.032054588
-0.0068965852 -0.083290569 0.032708734
-0.00509426 -0.085065529 0.032685742
-0.0040950924 -0.086056367 0.032706589
-0.0038130432 -0.087342456 0.032111049
-0.0013265014 -0.089381933 0.032470886
-0.080886021 0.0013025776 0.030856475
-0.071009338 -0.0086077638 0.031000795
-0.0056371391 -0.074422814 0.032140587
-0.0010142624 -0.07912901 0.032225899
-0.076119661 -0.0024949275 0.031558063
-0.075129464 -0.0034794994 0.031555664
-0.074048437 -0.0044522099 0.03150446
-0.072328493 -0.0062890761 0.03161189
-0.071315564 -0.0073184371 0.031633291
-0.069563307 -0.0090825297 0.031676888
-0.066703096 -0.011933867 0.031687528
-0.012772903 -0.066225283 0.032619655
-0.01051791 -0.068525881 0.032689098
-0.0033072978 -0.075734578 0.032736272
-0.0010669976 -0.078065783 0.032835651
-0.067759104 -0.00086467713 0.031333394
-0.065030329 -0.0036018156 0.031386003
-0.064041093 -0.0046131536 0.031408217
-0.011593208 -0.057429664 0.032322068
-0.010556683 -0.058496345 0.032344189
-0.0054390132 -0.063575707 0.032387268
-0.0046409369 -0.064394116 0.032396369
-0.0015032664 -0.067581639 0.032462914
-0.069106303 0.0014968999 0.03193219
-0.068095692 0.00041527674 0.031982072
-0.065273002 -0.0023141131 0.031972159
-0.062246226 -0.0054507591 0.032078836
-0.059454937 -0.0082455799 0.032118313
-0.01181931 -0.056221973 0.032928087
-0.010621697 -0.057440184 0.032978676
-0.0031773001 -0.064907625 0.033068847
-0.0024449676 -0.06566146 0.033103988
-0.055045024 -0.0027721152 0.032102261
-0.053292986 -0.0045361146 0.032145232
-0.044071168 -0.013799783 0.032267585
-0.041542903 -0.016330026 0.032316972
-0.024050288 -0.033939626 0.032614786
-0.020377234 -0.037702855 0.032723553
-0.019605719 -0.038491584 0.032741755
-0.014517806 -0.043519352 0.032734726
-0.013256729 -0.044851657 0.032827955
-0.012524128 -0.04559385 0.032842636
-0.0087087899 -0.049468759 0.032918759
-0.0048241988 -0.053322569 0.032939304
-0.0038653761 -0.05428984 0.032959953
-0.0018571764 -0.056355175 0.033026636
-0.043120608 -0.013789542 0.032927126
-0.0062088072 -0.050940663 0.033553518
-0.0052116588 -0.051957641 0.033573929
-0.045053154 -0.0029468313 0.032355022
-0.043262929 -0.0047558472 0.032384414
-0.039205283 -0.0088022798 0.03244241
-0.031597227 -0.01650878 0.032611009
-0.018119186 -0.030091248 0.032816373
-0.011701919 -0.036591925 0.032981977
-0.010454275 -0.037814327 0.032977588
-0.048453402 0.0014356188 0.032975264
-0.04747431 0.00041478872 0.033009309
-0.046429813 -0.00063300133 0.033010829
-0.045375496 -0.0017157868 0.033028133
-0.024286851 -0.022936873 0.033386476
-0.032118939 -0.0062309131 0.032920476
-0.011085711 -0.027416073 0.033288427
-0.010304265 -0.028160788 0.033271059
-0.0074146464 -0.031053379 0.03332122
-0.031930208 0.0023694709 0.032756817
-0.029887192 0.000349693 0.032777436
-0.028101705 -0.0014586523 0.032801654
-0.02478151 -0.0047716647 0.032848179
-0.024058826 -0.0054935291 0.03286124
-0.012062974 -0.017550737 0.033033535
-0.005482614 -0.024276882 0.033236455
-0.026718646 -0.0019249246 0.033525351
-0.025151379 -0.0035486743 0.033569194
-0.0050987974 -0.014956906 0.03388172
-0.0043815821 -0.01567591 0.033897907
-0.011696808 0.00022034347 0.034050357
-0.010916345 -0.0005460009 0.034060109
-0.0083925724 -0.0030941963 0.03410574
-0.0076140389 -0.0038506389 0.034090001
-0.13582541 -0.0036132466 0.029936878
-0.1321992 -0.0073715318 0.030015048
-0.0015141219 -0.13894895 0.032256648
-0.1258935 -0.00018919073 0.030225711
-0.12397164 -0.0021388698 0.030279027
-0.12016699 -0.0059801321 0.030345194
-0.11844084 -0.0077653714 0.030413087
-0.11557003 -0.0095426403 0.030980373
-0.00043138862 -0.12551564 0.032969382
-0.11334643 0.00052854605 0.030901922
-0.0042875111 -0.10930597 0.032781634
-0.1108827 -0.0009838827 0.03156893
-0.10980224 -0.0019503087 0.031522952
-0.0096825808 -0.10288681 0.033320192
-0.0043174177 -0.10826621 0.033375163
-0.10150792 0.00091518089 0.031198559
-0.10048261 -0.00013139471 0.031237205
-0.098797657 -0.00089740753 0.031915925
-0.098530322 -0.00217795 0.031320952
-0.095681593 -0.0039548986 0.031917643
-0.020622909 -0.080547377 0.032585472
-0.019631825 -0.081555992 0.032611866
-0.01052475 -0.089785278 0.033443782
-0.010051221 -0.091260627 0.032836605
-0.0069563985 -0.093369305 0.03347937
-0.0054181814 -0.095894307 0.03287629
-0.0036590099 -0.096655071 0.033526115
-0.003148824 -0.098201714 0.032950852
-0.089854106 0.0012296066 0.031894136
-0.081688479 -0.00686628 0.031955943
-0.014284246 -0.074844323 0.033167016
-0.011726372 -0.077327996 0.033149481
-0.0053830892 -0.083831325 0.033348959
-0.083778478 -0.003883671 0.032597817
-0.015218727 -0.072881803 0.033748563
-0.07642284 -0.0011882707 0.032177009
-0.012823589 -0.065186359 0.033235826
-0.005164668 -0.072959527 0.033395566
-0.0018579513 -0.076228872 0.033413216
-0.072894618 -0.0036785901 0.032806102
-0.013876148 -0.063199557 0.033881206
-0.013070434 -0.063988 0.033874322
-0.012332566 -0.06472075 0.033888526
-0.0082580671 -0.068873398 0.033983853
-0.0065122694 -0.07058455 0.033975959
-0.0054362044 -0.071717016 0.034025017
-0.064918444 -0.00081602484 0.033323847
-0.063124865 -0.0026013702 0.03334954
-0.059747733 -0.006987866 0.032753922
-0.05625812 -0.010498572 0.032837324
-0.055469438 -0.011283852 0.032826256
-0.015611112 -0.050506052 0.034195773
-0.015255265 -0.051871371 0.033583771
-0.012725875 -0.053321846 0.034179911
-0.012436159 -0.054620739 0.03356595
-0.012172975 -0.054899719 0.033576839
-0.010682695 -0.055431433 0.034233697
-0.0065835789 -0.060583457 0.033708964
-0.05356627 -0.0033019036 0.032772966
-0.050731689 -0.006131351 0.032820232
-0.047468103 -0.0094266236 0.032885544
-0.040950984 -0.015109811 0.03370975
-0.015869364 -0.041266579 0.033436235
-0.012622021 -0.043532591 0.034105383
-0.0098040104 -0.046421874 0.034192819
-0.0090526119 -0.047165349 0.034189686
-0.0021832511 -0.055046637 0.033671398
-0.042937458 -0.003190048 0.033740088
-0.040432699 -0.0057022199 0.033779163
-0.038864158 -0.0073304921 0.033823498
-0.012645043 -0.033686996 0.034250382
-0.011085793 -0.035323948 0.034339007
-0.0057379827 -0.040634178 0.034353528
-0.0034847856 -0.042960994 0.034448255
-0.037586018 0.00021604449 0.033506583
-0.014695071 -0.022833057 0.033888455
-0.0046785101 -0.032941945 0.03408888
-0.030000515 -0.0064383373 0.034290552
-0.0084473044 -0.028190911 0.034677096
-0.012516975 -0.015359841 0.034493022
-0.011720337 -0.016088411 0.034452952
