# .PCD v0.7 - Point Cloud Data file format
VERSION 0.7
FIELDS x y z
SIZE 4 4 4
TYPE F F F
COUNT 1 1 1
WIDTH 1414
HEIGHT 1
VIEWPOINT 0 0 0 1 0 0 0
POINTS 1414
DATA ascii
0.073953062 0.34346062 0.016656376
0.078562587 0.34346336 0.016682267
0.081502497 0.34348136 0.016642164
0.086379319 0.34343755 0.016662385
0.089800328 0.34345406 0.01667732
0.093040168 0.34345573 0.016660478
0.095542967 0.34343064 0.016670514
0.100216 0.34341437 0.016706925
0.10263127 0.34344983 0.016659468
0.10595247 0.34341031 0.016719434
0.10961565 0.3434025 0.016701259
0.11283186 0.34340113 0.01670434
0.12148598 0.34346068 0.016664159
0.12848306 0.34343231 0.016688824
0.13596478 0.34337962 0.016764302
0.1393711 0.34338939 0.016754139
0.14375249 0.34339392 0.016725428
0.14763802 0.34342498 0.016697474
0.15182498 0.34343439 0.016675849
0.15562779 0.34345478 0.016655408
0.15617663 0.34342784 0.016657963
0.16298521 0.34345812 0.016644686
0.1698105 0.34346306 0.016637865
0.17019799 0.34345901 0.016650818
0.18096766 0.34342504 0.01667979
0.18130428 0.34341896 0.016689058
0.18548739 0.34341288 0.016688876
0.18819454 0.34345758 0.016644426
0.19045562 0.34347075 0.016642824
0.19649336 0.34344465 0.016654752
0.20473441 0.34347564 0.016629007
0.20977408 0.34343779 0.016671017
0.21054581 0.3434661 0.016633917
0.21767232 0.34346676 0.016635243
0.22131234 0.34343225 0.016679995
0.22458825 0.34344471 0.01667453
0.22854328 0.34350634 0.016603824
0.23547128 0.34351099 0.016612466
0.23939204 0.34343207 0.016696557
0.24664649 0.34345567 0.016655143
0.25217667 0.34344447 0.016674217
0.25324628 0.34345508 0.016659774
0.26029062 0.34349108 0.016613703
0.27294338 0.34342831 0.016670443
0.27926287 0.34343505 0.01666997
0.28749603 0.34345502 0.016659211
0.29234695 0.34345764 0.016659476
0.30024165 0.34346592 0.016650598
0.30427653 0.34342343 0.016682375
0.31001401 0.34345645 0.016645141
0.31455019 0.34345192 0.016648646
0.39520785 0.3577413 0.016088411
0.39514971 0.35841793 0.016760655
0.34770146 0.36484087 0.016089424
0.39587665 0.3647899 0.016146738
0.3474406 0.36549884 0.016796596
0.3470757 0.37181288 0.016407724
0.34818113 0.37180042 0.016423967
0.39616024 0.37179989 0.016428676
0.34670329 0.37812048 0.016179353
0.34732497 0.37876314 0.016905718
0.39498028 0.37881184 0.016828503
0.39704177 0.2907775 0.017087094
0.39918008 0.30119014 0.017411269
0.39828506 0.31075853 0.017578863
0.39822972 0.31955749 0.017385781
0.067097545 0.3441022 0.017344858
0.12285441 0.34412718 0.017321765
0.12357324 0.34414363 0.017304752
0.13373196 0.34412599 0.017337393
0.15684715 0.34415776 0.01728709
0.16435093 0.34416777 0.017267667
0.17086381 0.34415215 0.017295446
0.17139095 0.34414351 0.017314352
0.18237859 0.34411061 0.017337874
0.18887791 0.34418541 0.017276492
0.19168046 0.34485811 0.017927311
0.19336092 0.34413534 0.017315045
0.19828057 0.34409982 0.017340291
0.20176187 0.34416372 0.017288085
0.20211726 0.34414071 0.017306548
0.20646399 0.3449024 0.01788317
0.21189645 0.34418833 0.017272126
0.21260217 0.34449124 0.017631944
0.21835005 0.34415352 0.017293945
0.22530288 0.34412962 0.017306045
0.22955641 0.34420627 0.017250404
0.23327377 0.34410369 0.01733483
0.23614889 0.34419209 0.017254945
0.23793977 0.34413332 0.017295416
0.24039164 0.3448171 0.017971613
0.24259457 0.34485203 0.017939053
0.2444635 0.34410554 0.017344099
0.24518046 0.3448115 0.017969932
0.24730858 0.34418494 0.017296229
0.25304359 0.34414989 0.017319381
0.25434336 0.34418571 0.017241329
0.25533319 0.34489679 0.017887555
0.26102224 0.3441897 0.017258514
0.26244825 0.34485632 0.017924454
0.26769519 0.34418732 0.017266136
0.26850364 0.34456813 0.017547116
0.27379096 0.3441509 0.017288189
0.27460584 0.34489924 0.017877784
0.27502954 0.34490871 0.017873347
0.28050709 0.34412247 0.017309528
0.28135687 0.34415972 0.017298561
0.28255129 0.34488255 0.017914608
0.28316715 0.34486651 0.017908581
0.28480983 0.34484661 0.017916042
0.28840703 0.34414732 0.017298535
0.28913635 0.34413922 0.017291237
0.29344451 0.34448981 0.01762297
0.29751477 0.34480315 0.017985277
0.29806346 0.34483868 0.0179534
0.30098274 0.34414589 0.017309543
0.30203086 0.34482425 0.017964933
0.30492812 0.34411955 0.017343476
0.30549547 0.34411931 0.017341755
0.31070024 0.34415126 0.017283536
0.311452 0.34448123 0.017630331
0.31213927 0.34483254 0.017960381
0.31539798 0.34416986 0.017269202
0.31602958 0.34488028 0.017912567
0.31770432 0.34413761 0.017327141
0.32041675 0.3444894 0.017614402
0.32255906 0.3441596 0.017291851
0.32342184 0.34483743 0.017951023
0.32741529 0.344854 0.017925981
0.39524066 0.34486133 0.017925963
0.39683515 0.35198063 0.017570384
0.39612818 0.36611521 0.01752248
0.34728351 0.37312394 0.017803382
0.39439547 0.37312317 0.017793953
0.39724725 0.30266649 0.018599797
0.39668375 0.31219995 0.018759247
0.39858246 0.32100302 0.018583514
0.39633036 0.3289668 0.01815464
0.39619645 0.32969266 0.018769383
0.39555791 0.33766812 0.01851866
0.25642234 0.34554923 0.018574905
0.26346129 0.34552819 0.018580347
0.28432626 0.34555525 0.018573139
0.28548068 0.34553838 0.018559501
0.29446834 0.3455345 0.018576212
0.3072654 0.34556073 0.018562101
0.31279677 0.3455317 0.018600959
0.32831156 0.34553385 0.018586371
0.39712349 0.35335624 0.018876005
0.39564493 0.36046195 0.018743467
0.34668228 0.3667981 0.018191833
0.3473779 0.36679697 0.018193137
0.34660012 0.36745673 0.018870685
0.34389099 0.38071209 0.018985301
0.34428936 0.38072056 0.018971507
0.34836757 0.38004208 0.018322553
0.35038668 0.38005519 0.018297043
0.39515343 0.38011277 0.018233269
0.39694732 0.29378116 0.019309688
0.39806622 0.29376638 0.019321956
0.39729148 0.30340052 0.019168653
0.39731658 0.30413258 0.019747969
0.39363211 0.31295466 0.019316163
0.39687148 0.31366491 0.019926548
0.39683205 0.32170749 0.019186139
0.39554322 0.33838093 0.019141637
0.32466155 0.34623057 0.019214958
0.39555073 0.34625065 0.019205224
0.34753352 0.37444305 0.019180443
0.39472049 0.37511283 0.019857202
0.34944159 0.38134223 0.019726846
0.35001326 0.38133872 0.019716062
0.39539242 0.38141096 0.019637059
0.39619353 0.2856226 0.020868979
0.3984172 0.29526907 0.020429138
0.39705712 0.32316065 0.020389672
0.39651415 0.3318392 0.020598199
0.063224107 0.3397817 0.020407461
0.071191549 0.3397643 0.020406596
0.075826019 0.33976084 0.020427026
0.097481102 0.33972394 0.020446882
0.13035384 0.33971649 0.020441741
0.39551353 0.33978897 0.020390712
0.20298526 0.34052455 0.020987347
0.39590177 0.34762418 0.020503119
0.39520043 0.35472614 0.020194627
0.3973836 0.35472554 0.020192388
0.34560394 0.36879599 0.020232782
0.34520113 0.38201958 0.020380445
0.39661247 0.28712398 0.021961361
0.39879623 0.29676801 0.021538466
0.39721113 0.31513178 0.021084577
0.3974362 0.3246007 0.021585811
0.042291492 0.34050912 0.021035392
0.045957536 0.34047699 0.021044888
0.046272099 0.34047979 0.021045033
0.059248 0.34043276 0.021084953
0.064328313 0.34042424 0.021095324
0.072266966 0.340469 0.021050636
0.076899141 0.34045219 0.021072932
0.081787884 0.34041893 0.021089353
0.084874481 0.34044749 0.021050144
0.093872756 0.34045589 0.021027785
0.09593156 0.34047931 0.021055825
0.11346185 0.34048265 0.021029744
0.12012288 0.340469 0.021057103
0.12694776 0.3405003 0.021012876
0.1309889 0.34043509 0.021081597
0.13424048 0.34038776 0.021140683
0.16052741 0.34050137 0.021008231
0.19474792 0.34046924 0.021028921
0.39620027 0.34050035 0.021017019
0.042964995 0.34118009 0.021692526
0.05270496 0.34117562 0.021646913
0.053464055 0.34112489 0.021716293
0.054200649 0.34114623 0.021701198
0.05994454 0.34115773 0.021707404
0.065577567 0.34116793 0.02165886
0.06611374 0.34122413 0.021601178
0.072921425 0.34116 0.021698255
0.073288769 0.34113061 0.021706883
0.077573776 0.34115589 0.021689594
0.080089092 0.34120446 0.021661162
0.082601935 0.34116256 0.021687824
0.085501045 0.3411606 0.02168911
0.088596791 0.34117705 0.021672029
0.089090735 0.3411774 0.02166285
0.091642737 0.3411811 0.021665815
0.098858088 0.34114373 0.021714192
0.10138157 0.34117365 0.021694556
0.10462773 0.34116256 0.021683957
0.10837179 0.34115475 0.021692414
0.11161298 0.34115875 0.021695107
0.11666745 0.34117734 0.021671973
0.1214757 0.34116411 0.021689039
0.12766647 0.34119934 0.021623604
0.13489309 0.34110177 0.021766968
0.13815257 0.34109616 0.021770373
0.14255035 0.34115106 0.021700241
0.14641482 0.34121192 0.021649659
0.1505422 0.34118557 0.021672793
0.1617409 0.34120882 0.021626405
0.16265699 0.34120959 0.021641862
0.18030411 0.34114671 0.021690365
0.18105686 0.34115225 0.021689583
0.18422109 0.34115744 0.0216881
0.1871343 0.34121114 0.021644548
0.19542471 0.34116203 0.021669436
0.19934693 0.34120429 0.021645024
0.20364523 0.34124649 0.021615855
0.20940444 0.34123439 0.021625433
0.21995452 0.34117532 0.021667704
0.22031033 0.34116817 0.021681413
0.22714955 0.34123939 0.021594342
0.23155847 0.34115422 0.021702595
0.23982036 0.34121579 0.021645512
0.24561313 0.34120727 0.021647379
0.27981186 0.34121305 0.021637399
0.28672636 0.34116358 0.021656204
0.39436042 0.34119451 0.02164631
0.39548719 0.35609317 0.02151439
0.39639038 0.36316848 0.021404967
0.39522088 0.37710404 0.021907989
0.34609854 0.38332307 0.021790333
0.39581254 0.30782789 0.022606719
0.39563689 0.32603753 0.022817172
0.043656707 0.3418532 0.022333186
0.047270536 0.34186244 0.022339109
0.054877311 0.34187543 0.022305433
0.055234015 0.3418619 0.022324886
0.06060195 0.34184176 0.022359081
0.066775233 0.34195292 0.022217926
0.067177832 0.34193182 0.022245981
0.07403633 0.34184259 0.022320461
0.083291501 0.34193718 0.022265915
0.089746684 0.34187287 0.022325102
0.094867408 0.34186894 0.022304825
0.09701395 0.34189302 0.022291634
0.1020529 0.34186155 0.022334699
0.10530001 0.34189069 0.022289518
0.11460283 0.34191114 0.022285227
0.11753589 0.34189087 0.02229178
0.122751 0.34185004 0.022333335
0.12352607 0.34189248 0.022281442
0.12834573 0.34192574 0.022247136
0.132384 0.34187967 0.022316098
0.13879314 0.34181809 0.022391431
0.13935995 0.34181547 0.022398163
0.14339098 0.34185576 0.02232847
0.14718556 0.34190941 0.022269212
0.15140307 0.34192485 0.022261105
0.155444 0.34189498 0.022297956
0.16353595 0.34189951 0.022276822
0.17040777 0.34185725 0.022306047
0.18173057 0.34188277 0.022293732
0.18531847 0.34187609 0.022291075
0.19647178 0.34186125 0.022317193
0.20079145 0.34186113 0.022314724
0.21129152 0.34184527 0.022315353
0.21705547 0.34188598 0.022272196
0.22389871 0.34189355 0.022286434
0.23222363 0.34187728 0.022312902
0.23659679 0.34185553 0.022316568
0.25962147 0.34193724 0.022240546
0.28239155 0.3418898 0.02226232
0.29636604 0.34188551 0.022286933
0.29961371 0.34186798 0.022309601
0.30435538 0.34186912 0.022296909
0.044344306 0.34257126 0.022942401
0.055934101 0.34256524 0.022963278
0.06129086 0.34252805 0.02298608
0.062061876 0.34254152 0.02296041
0.074699134 0.34254354 0.022971474
0.078589261 0.3425498 0.022959635
0.081182986 0.34258229 0.022917055
0.086511016 0.34256309 0.022948023
0.092697263 0.34260643 0.022907611
0.10599321 0.34261626 0.022887219
0.10644108 0.34259689 0.02289363
0.11821139 0.34258199 0.022928223
0.14787057 0.34261948 0.022877984
0.15633982 0.34260356 0.022915438
0.16441181 0.34258252 0.022909641
0.1714319 0.34256589 0.022944428
0.18528393 0.34258169 0.022931635
0.19248712 0.3425616 0.0229473
0.19749579 0.34256768 0.022948567
0.20501545 0.34264946 0.022873599
0.21192887 0.34256798 0.022938248
0.21246877 0.34256482 0.022946756
0.21773684 0.34257454 0.022930589
0.21807703 0.34257042 0.022943765
0.22132367 0.34260195 0.022906754
0.22452515 0.34259379 0.022926476
0.2287181 0.34261894 0.022892453
0.25493652 0.34259313 0.022913247
0.26766089 0.34263909 0.022856198
0.26820582 0.3426283 0.022869654
0.27380475 0.34265548 0.022849318
0.28191459 0.3426066 0.022899002
0.28827238 0.3425771 0.022918805
0.30071002 0.34255868 0.022956781
0.31469822 0.34262639 0.022880554
0.31684852 0.34255552 0.022963859
0.3961719 0.34971285 0.022414353
0.39405197 0.36380363 0.022120569
0.39472651 0.37078291 0.022278439
0.34820303 0.37772238 0.022635311
0.39666381 0.29901403 0.023188844
0.3973965 0.29975975 0.023743644
0.061681569 0.34252375 0.023000531
0.041071355 0.34327036 0.023586135
0.048532963 0.34324646 0.023585934
0.068516612 0.34330058 0.023553975
0.07930851 0.34326005 0.023593929
0.084307551 0.34335059 0.023516987
0.087229043 0.34326619 0.02358811
0.098005503 0.34328949 0.023565914
0.10018247 0.3432647 0.02360091
0.10308942 0.34328568 0.023573309
0.10707992 0.34329206 0.023546331
0.10993516 0.34330255 0.023548853
0.1131418 0.34328848 0.023557205
0.11562902 0.34332156 0.023556564
0.12475717 0.34330624 0.023532085
0.12958273 0.34332478 0.023525789
0.13631013 0.34320724 0.023637898
0.14055732 0.3432228 0.023633461
0.14451253 0.34328109 0.023592643
0.15719074 0.34333062 0.023508418
0.16544899 0.34331483 0.023536619
0.17225426 0.34332818 0.023528688
0.18273562 0.34331805 0.02351727
0.19061875 0.34331685 0.02353321
0.19821432 0.3432858 0.023558781
0.20181656 0.34325981 0.023581672
0.20572191 0.34332359 0.02351531
0.21335056 0.34327585 0.023563422
0.21879202 0.34327656 0.023575597
0.22206825 0.3433122 0.023527615
0.22516137 0.34329474 0.023571409
0.22954285 0.34329969 0.023551613
0.23327425 0.34330153 0.023540642
0.23541385 0.34332377 0.023528945
0.2393516 0.34330106 0.023543999
0.24157599 0.34328306 0.023577344
0.24406734 0.34326929 0.023575164
0.24694988 0.34332913 0.023512445
0.24755406 0.3433004 0.023524128
0.26207942 0.34330475 0.023525827
0.26892585 0.34332287 0.023525782
0.28427842 0.34329641 0.023531545
0.29327348 0.34330428 0.0235301
0.29735732 0.34332716 0.023502007
0.30139077 0.34326077 0.023578491
0.30624315 0.34333909 0.023490932
0.31145257 0.34329611 0.023558445
0.31968558 0.34329993 0.023532711
0.32299551 0.3433001 0.023523081
0.32690543 0.34328699 0.023572173
0.32736588 0.34326899 0.023580614
0.39489365 0.37212235 0.023631949
0.39549094 0.37842542 0.023284681
0.39702645 0.29087943 0.024685148
0.39807469 0.29089451 0.024678972
0.063106209 0.34399104 0.02416702
0.076093614 0.34398842 0.024179358
0.082503408 0.3439768 0.024197496
0.13734481 0.34392065 0.024266317
0.14132044 0.34392077 0.024248041
0.14537519 0.34398031 0.024210982
0.21402347 0.34396982 0.024195358
0.22594216 0.34396571 0.024203252
0.2361744 0.34399796 0.02417269
0.23792461 0.34397393 0.024201121
0.26276368 0.34398556 0.024181046
0.29417133 0.34399182 0.024162728
0.30208844 0.34395152 0.024219479
0.31790173 0.34396505 0.024195995
0.10161385 0.34464365 0.024864551
0.10410956 0.34467298 0.024841864
0.10806966 0.34467822 0.02483207
0.1200062 0.34465778 0.024818778
0.12539989 0.34400606 0.024178516
0.13118583 0.34470135 0.024820361
0.14888507 0.34401292 0.024142738
0.14958808 0.34471452 0.024784487
0.15318581 0.34405357 0.024115499
0.15828928 0.34405172 0.024102144
0.16652066 0.34401232 0.024171028
0.17331448 0.34439969 0.024437938
0.17419052 0.34473068 0.02476963
0.18338427 0.34404773 0.024136063
0.18881619 0.34402323 0.024156842
0.19167575 0.34471071 0.024787575
0.19892111 0.34402132 0.024140168
0.19960055 0.34476155 0.024733461
0.20278603 0.3446914 0.024827614
0.21509171 0.34468412 0.024807218
0.22307926 0.34472781 0.024780426
0.23019379 0.34401053 0.024177358
0.23433089 0.34474999 0.024754189
0.24261975 0.34468144 0.024817605
0.24520844 0.34470356 0.024818927
0.24835864 0.34401137 0.024160534
0.25591379 0.34401989 0.024151783
0.2562789 0.34400618 0.024168309
0.25701553 0.34471095 0.02478772
0.26341236 0.34468544 0.024811853
0.26957539 0.34403342 0.024147984
0.27047265 0.34470236 0.02479985
0.27502489 0.34405476 0.024123486
0.27605253 0.34471118 0.024803374
0.28509194 0.34401488 0.024150278
0.28962755 0.34401917 0.02414621
0.29050076 0.34474564 0.024759725
0.29807109 0.34404349 0.024121981
0.30272967 0.34466851 0.02484297
0.30761284 0.34476101 0.024730146
0.31246114 0.34470594 0.024791971
0.3206588 0.34471714 0.024784282
0.32398757 0.34471446 0.024777073
0.32852012 0.34468508 0.024829213
0.39457428 0.36583942 0.024120532
0.39515388 0.37345654 0.024994731
0.3936058 0.37975901 0.024652749
0.39579296 0.37974 0.024658091
0.39647824 0.32026172 0.025166906
0.39965683 0.32098818 0.025762942
0.064187258 0.34541631 0.025400359
0.18481392 0.34541941 0.025419343
0.20034575 0.34546584 0.025350403
0.20383528 0.34541178 0.025435694
0.20783192 0.34537578 0.025456525
0.20821527 0.34537089 0.025464356
0.2160987 0.34543073 0.025418159
0.23503447 0.34545249 0.025373369
0.24618199 0.34540045 0.025435627
0.24959666 0.34540737 0.025415685
0.25801969 0.34539586 0.025440931
0.2642895 0.34537864 0.025456738
0.26517099 0.34537697 0.025457729
0.27677411 0.34539884 0.025447387
0.27741408 0.34540969 0.025448814
0.28677768 0.34542149 0.025435407
0.29538143 0.34539926 0.025416426
0.29906642 0.34545273 0.025379501
0.30841887 0.345469 0.025355205
0.31312585 0.34541446 0.025405023
0.31638369 0.34543645 0.02538985
0.31891525 0.34539235 0.025422357
0.32463306 0.34542948 0.02540528
0.32505673 0.34542477 0.025399812
0.32942098 0.34538776 0.025443751
0.33473071 0.34540105 0.025438394
0.33836406 0.3453933 0.025442287
0.33651948 0.34615254 0.025986113
0.209225 0.34608144 0.026100975
0.22120127 0.34609681 0.026076045
0.25910056 0.34608883 0.026063953
0.26697204 0.34679419 0.026701674
0.27243155 0.34609669 0.026068974
0.29614288 0.34610862 0.026056759
0.29972875 0.34614801 0.02603386
0.30911386 0.34616262 0.026001502
0.31960487 0.34610462 0.026058555
0.32570702 0.34613657 0.026021443
0.33070093 0.34610963 0.026058465
0.33473837 0.3460958 0.026069827
0.33610818 0.34615356 0.026007827
0.3372426 0.34684879 0.026628058
0.39377287 0.36093265 0.026038818
0.39414197 0.36093003 0.026043259
0.39740866 0.36089665 0.026098043
0.39474875 0.36854863 0.02678198
0.34513265 0.38169748 0.0267554
0.39361849 0.38106525 0.026044391
0.0542036 0.33968818 0.027370129
0.039406568 0.34041047 0.027971581
0.043047696 0.34040272 0.027959041
0.047004968 0.34036177 0.027986992
0.054864079 0.3404271 0.027954154
0.073330045 0.34039778 0.02795776
0.088799655 0.34039718 0.027954821
0.089133918 0.34038723 0.027976803
0.091340661 0.34040993 0.027958136
0.093856007 0.34039158 0.027961217
0.13135394 0.34045345 0.027919471
0.33787391 0.34756082 0.02726084
0.33673847 0.34826189 0.027904987
0.39409342 0.3622942 0.027356993
0.34575275 0.3823601 0.02744209
0.34626043 0.38235921 0.02744716
0.39333308 0.38234651 0.027485326
0.39814344 0.2858147 0.028500784
0.39735943 0.30647486 0.028805286
0.39787966 0.32391256 0.028089516
0.047827959 0.34113818 0.028590593
0.05555585 0.34113735 0.028567959
0.066497862 0.34114295 0.028531026
0.06724596 0.34111822 0.028560605
0.074411541 0.34115607 0.028516814
0.080147535 0.34113318 0.028554842
0.085901409 0.34107363 0.028610907
0.092049628 0.34111392 0.028560992
0.094606757 0.34109718 0.028576918
0.098852575 0.34108323 0.028609443
0.11719745 0.34112263 0.028568454
0.1320498 0.3411445 0.028561909
0.13965219 0.34106278 0.028625149
0.15080073 0.34117734 0.028503574
0.15587071 0.34118176 0.028489061
0.21747315 0.3411085 0.028565925
0.3367404 0.34894454 0.028565846
0.39654109 0.35666519 0.028824616
0.39574879 0.36990666 0.028118033
0.39281988 0.3705855 0.028778479
0.39642656 0.37058431 0.028778303
0.3934311 0.37685275 0.028323058
0.3932907 0.38299114 0.028175075
0.3473624 0.3836745 0.028841004
0.39818788 0.28657442 0.029031087
0.04058969 0.34187096 0.029179107
0.056319088 0.34181428 0.029197894
0.078324795 0.34183043 0.029188301
0.083304733 0.34191805 0.02910728
0.086602151 0.34180677 0.029193401
0.092738956 0.34184504 0.029180545
0.097025335 0.34181845 0.029185709
0.10891926 0.34187388 0.029146425
0.11218917 0.34183955 0.029174905
0.11480477 0.34185469 0.029177461
0.12424374 0.34181994 0.029182989
0.1287469 0.3418535 0.02917023
0.12954807 0.34182358 0.029177938
0.13279015 0.3418175 0.029208168
0.13530213 0.34178042 0.029236589
0.14053977 0.34177417 0.029247928
0.14425293 0.34182441 0.029200446
0.14793077 0.34184623 0.029149663
0.14845312 0.34186178 0.029132642
0.1518667 0.34190309 0.029087771
0.15223974 0.34188908 0.029119413
0.15689972 0.34189969 0.029114347
0.15725067 0.34187967 0.029121708
0.16552815 0.34186512 0.029145248
0.17269924 0.34186441 0.029146638
0.18213731 0.3418768 0.029136363
0.18497539 0.34184229 0.029164411
0.18755904 0.34185094 0.029149417
0.1917977 0.34183824 0.029169176
0.19217524 0.34187758 0.029135078
0.20116359 0.34184855 0.029170208
0.2047579 0.34186864 0.029149171
0.2051039 0.34183741 0.029190253
0.21272403 0.34183151 0.029175434
0.21337548 0.34186667 0.029143661
0.22457728 0.3418256 0.029184792
0.22893068 0.3418532 0.029146016
0.23661685 0.34180868 0.029192362
0.23835847 0.34187019 0.029124524
0.27368012 0.34188741 0.029136684
0.28382179 0.34184968 0.029148161
0.044395655 0.34251797 0.029818926
0.049413353 0.34259105 0.029772177
0.056971818 0.34251302 0.029833656
0.057317823 0.34252173 0.02982562
0.06264621 0.34260076 0.029740129
0.068416834 0.34254938 0.029788096
0.075418055 0.3425982 0.029746369
0.081580698 0.34253013 0.029809814
0.087358505 0.3425473 0.02977632
0.090488553 0.34253943 0.029810674
0.091259062 0.34257603 0.029765755
0.10274491 0.34254336 0.029808134
0.10316771 0.34250867 0.029823132
0.10676783 0.34254014 0.029808205
0.10962951 0.34260732 0.029737566
0.11881423 0.3425765 0.029748742
0.12531018 0.3425318 0.029805478
0.13021332 0.34254229 0.029788233
0.133432 0.34251767 0.029854424
0.13639817 0.34252143 0.02984054
0.14140758 0.34248614 0.029855479
0.14930308 0.34258205 0.029756986
0.15294167 0.34257734 0.029746272
0.1579254 0.34259927 0.029746905
0.15852687 0.34257412 0.029754665
0.15907598 0.3425473 0.029763151
0.16659543 0.34260017 0.029732767
0.17354581 0.34257782 0.029774722
0.17451063 0.3425228 0.029810742
0.17556149 0.34256452 0.02978377
0.17626777 0.34260184 0.029743526
0.17708862 0.34260517 0.02971717
0.18572304 0.34254724 0.029788479
0.19038457 0.34257579 0.029758744
0.19286039 0.34259725 0.0297492
0.19341803 0.34259522 0.029734377
0.20653898 0.34253067 0.029803459
0.21441853 0.34259951 0.029752925
0.21846828 0.34255999 0.029778771
0.22170079 0.3426125 0.029740792
0.22525951 0.34252965 0.029807977
0.22963151 0.34258091 0.029750295
0.23516837 0.342547 0.029779855
0.23903087 0.34261751 0.02972313
0.24125367 0.34254473 0.029799923
0.248063 0.34256285 0.029753819
0.25565761 0.34256375 0.029781524
0.25636083 0.34253961 0.029786624
0.26279777 0.34253693 0.02979289
0.26943618 0.34253669 0.029779758
0.27512962 0.34254879 0.029787198
0.28445053 0.34257388 0.029763177
0.2891376 0.34260762 0.029731467
0.31149042 0.34257114 0.029754549
0.31938982 0.34256971 0.02976473
0.39725757 0.34966975 0.029147495
0.39884993 0.28886646 0.030622367
0.39745054 0.29921281 0.030619793
0.39692631 0.31743556 0.030021947
0.3966397 0.32684559 0.030458912
0.39614645 0.33542788 0.030607369
0.04185155 0.34333146 0.030365046
0.045107752 0.34320986 0.030441061
0.050660044 0.34327328 0.030395929
0.051589698 0.34326905 0.030381192
0.058429658 0.3433069 0.030370235
0.063440889 0.34331191 0.030368023
0.064553559 0.34326452 0.030422483
0.069599241 0.3432889 0.030399568
0.070483178 0.34329844 0.030384641
0.076477081 0.34328634 0.030393902
0.079562366 0.34328973 0.030366499
0.082591116 0.34323442 0.030432478
0.084401041 0.34331775 0.030354265
0.088186562 0.34329379 0.030386113
0.095942259 0.34323758 0.030430764
0.098121107 0.3432405 0.030410975
0.10381341 0.34323698 0.030432288
0.10412449 0.34324235 0.030456245
0.11038685 0.3433131 0.030356772
0.11319607 0.34327704 0.030384906
0.11641425 0.34363306 0.030691098
0.11969739 0.34331346 0.030363187
0.12616688 0.34323418 0.030436665
0.13738805 0.34323972 0.030460026
0.14209974 0.34322935 0.030442402
0.14526084 0.34326351 0.03041856
0.14999732 0.34327596 0.030393057
0.15038157 0.34326905 0.030394133
0.15976319 0.34328806 0.03036321
0.16042161 0.34399909 0.030994579
0.16728041 0.34330869 0.0303456
0.17591685 0.34326023 0.030402392
0.17736778 0.34333849 0.030338164
0.17825139 0.34331399 0.03035745
0.17951843 0.34399492 0.030985992
0.18348268 0.34326136 0.030406665
0.18638644 0.34327942 0.030392718
0.18853772 0.34329879 0.030374911
0.19428658 0.34329486 0.0303539
0.19898289 0.34334296 0.030307055
0.20251915 0.34326154 0.030418273
0.20326167 0.34398186 0.030988585
0.20766434 0.34324598 0.030414432
0.20832789 0.34399492 0.03099655
0.20927989 0.34399855 0.030976951
0.21533632 0.3432976 0.030357178
0.22060639 0.34399396 0.030995872
0.22237724 0.34332013 0.030355427
0.22597763 0.34325701 0.030418988
0.23057863 0.34326708 0.030391719
0.23367542 0.34334147 0.03032276
0.24200168 0.34325558 0.030415308
0.24484161 0.34328544 0.030370839
0.2487669 0.34327406 0.030381326
0.24947986 0.34327626 0.030384533
0.25037175 0.34328711 0.030387029
0.25196487 0.34399992 0.030997612
0.25759026 0.34325647 0.030389886
0.25850445 0.34398383 0.030982055
0.26390913 0.34324473 0.030427258
0.26428646 0.34323615 0.030424107
0.27010316 0.34325558 0.030385233
0.27149564 0.34398973 0.030989341
0.27609658 0.34327632 0.030397505
0.28551489 0.34329367 0.030383058
0.28979868 0.34331119 0.030365199
0.29814503 0.34329951 0.030368686
0.30174837 0.34323859 0.030440312
0.30746064 0.34331787 0.03033042
0.31214309 0.34329993 0.030353311
0.31507844 0.34329093 0.030356999
0.31827337 0.34398973 0.030990984
0.32004702 0.34328318 0.03038682
0.32824212 0.34326792 0.030386019
0.33884627 0.34327275 0.030394867
0.39583373 0.34329844 0.03035377
0.39791262 0.34328818 0.030377701
0.04290095 0.3440544 0.030969039
0.085094541 0.34400243 0.030976102
0.15394768 0.34401637 0.030974802
0.1543555 0.34400123 0.030989408
0.1615108 0.34402484 0.030963123
0.16799584 0.34402865 0.030966919
0.16853273 0.34401232 0.030967306
0.16926289 0.34400588 0.030984279
0.18726829 0.34402168 0.030971538
0.18919048 0.34401834 0.03097425
0.19138667 0.34400403 0.030989591
0.19497341 0.34401536 0.03097124
0.21624467 0.34401572 0.030962996
0.22313976 0.34400892 0.030984115
0.24011296 0.34404784 0.030963868
0.28621107 0.34400564 0.030990671
0.29072404 0.34401166 0.030987889
0.29877466 0.34402698 0.030971982
0.30815434 0.34401721 0.030959036
0.31282496 0.3440119 0.030975271
0.31578499 0.34401041 0.030983601
0.3207452 0.34400368 0.030985106
0.32436782 0.34401238 0.030970465
0.39574537 0.34401488 0.030965928
0.39431283 0.35807699 0.030105185
0.39677742 0.35805988 0.030106362
0.39528626 0.36572391 0.030630775
0.39594769 0.37194663 0.030105673
0.39597493 0.37261432 0.030775011
0.39142707 0.37884742 0.03039049
0.39924639 0.29039466 0.031672023
0.39748627 0.29996407 0.031161252
0.40184847 0.29994243 0.03119655
0.39814946 0.31020671 0.031590339
0.39730376 0.31891751 0.031163275
0.3959949 0.32756418 0.031054504
0.39634931 0.32756698 0.031053767
0.39613959 0.33687431 0.031792048
0.060231596 0.34395778 0.031039242
0.096566737 0.34398991 0.031025458
0.10484862 0.34396052 0.031050291
0.10780036 0.34394795 0.031024676
0.10831231 0.3439576 0.031024884
0.11388293 0.34399021 0.031001024
0.12110659 0.34399337 0.031011604
0.12689298 0.34396547 0.031022511
0.12720907 0.34396857 0.031038463
0.13126144 0.34394562 0.031035699
0.13446078 0.34392899 0.03109511
0.13770843 0.3439796 0.03104455
0.14285812 0.34394592 0.03105757
0.14599091 0.34394282 0.031050451
0.14636409 0.34396273 0.031042583
0.17948997 0.34397697 0.031014323
0.18019974 0.34396809 0.031020273
0.18422255 0.34396333 0.031012971
0.20866889 0.34398675 0.031002015
0.21119225 0.34398413 0.031008586
0.21984521 0.34398991 0.031002931
0.22020662 0.34398168 0.03101087
0.22667256 0.34398705 0.031014055
0.23148814 0.34395105 0.031035352
0.23617005 0.34397113 0.031007051
0.26539254 0.34397548 0.031019989
0.27150911 0.34397268 0.031006787
0.27686006 0.34398299 0.031006791
0.27739733 0.34398162 0.03100998
0.29483783 0.34397328 0.031018816
0.30241221 0.34395558 0.031045385
0.32956856 0.34399462 0.0310059
0.12072247 0.34400034 0.031001955
0.18093506 0.34467345 0.031650532
0.19572526 0.34470743 0.031598676
0.19641402 0.34469503 0.031610511
0.19993463 0.34477073 0.031565513
0.20050374 0.3447333 0.031589214
0.21690428 0.3447293 0.031579338
0.22382054 0.34470797 0.031618394
0.22420976 0.34469652 0.031609952
0.22756892 0.34475893 0.031558
0.22813994 0.34477127 0.031535711
0.23218167 0.34467089 0.031638891
0.23684719 0.34469968 0.0315996
0.23832321 0.34468764 0.031637989
0.24081004 0.34474844 0.031586651
0.2517696 0.34471166 0.031619579
0.25265774 0.34472126 0.031596851
0.25325114 0.34475112 0.031545367
0.25937328 0.34473473 0.031562943
0.26643449 0.34474027 0.031582247
0.2674123 0.34478343 0.031527318
0.27253303 0.34471035 0.03159732
0.2783283 0.34469509 0.03161779
0.28224123 0.34472829 0.031587157
0.28690848 0.34471643 0.031602748
0.28731513 0.34471399 0.031602539
0.29554811 0.3446908 0.031642754
0.30347961 0.34468275 0.031643789
0.30460459 0.34469247 0.031639293
0.30884832 0.34472531 0.031576578
0.30924684 0.34471905 0.031589117
0.31360573 0.34471178 0.0315952
0.31894749 0.34470958 0.031602308
0.3214674 0.34472632 0.031596005
0.32522321 0.34473485 0.031588431
0.33047509 0.34470791 0.031609826
0.39610213 0.35175657 0.031062867
0.39928082 0.29154241 0.032463361
0.39889112 0.30148035 0.032243639
0.39485115 0.31169134 0.032713614
0.39847022 0.31169927 0.03270844
0.39758453 0.3204093 0.032297987
0.39451665 0.3297596 0.032809671
0.39677763 0.33760166 0.032397956
0.27320158 0.3454392 0.032199711
0.27918565 0.34540987 0.032223903
0.28080302 0.34544569 0.032212615
0.28805345 0.345411 0.032210112
0.29625773 0.3453905 0.032265719
0.29981297 0.34544337 0.032207567
0.3099457 0.3454318 0.032200664
0.31678176 0.34543025 0.032237221
0.31711546 0.34540921 0.032250751
0.32633603 0.34543878 0.032203052
0.33236462 0.34540021 0.032226019
0.28028166 0.34611815 0.032840062
0.29340154 0.34613734 0.032826148
0.29695189 0.34610146 0.032871503
0.31065896 0.34613037 0.032840386
0.3112416 0.34612942 0.032845087
0.31528819 0.34617931 0.032802399
0.32249832 0.34613973 0.032835383
0.3232705 0.34613681 0.032824941
0.39494613 0.36086202 0.032659288
0.39531535 0.36086267 0.032653417
0.39401445 0.37396908 0.032101974
0.39396983 0.37465411 0.032763086
0.34582108 0.3808468 0.032416109
0.39129826 0.38082141 0.032449327
0.39492407 0.38087064 0.03237997
0.39681834 0.29266155 0.033278085
0.3956567 0.3029778 0.033375748
0.39713156 0.30297893 0.033344537
0.39709869 0.3037352 0.033902951
0.39853534 0.31319326 0.033818223
0.395551 0.33122319 0.033984438
0.3960214 0.33121169 0.033982497
0.057581127 0.3383075 0.033040151
0.086080402 0.33907443 0.033581655
0.089296788 0.33907479 0.033571895
0.39486805 0.33908868 0.033557378
0.40074095 0.33905309 0.033594195
0.31818849 0.34682143 0.0334902
0.39407906 0.3545782 0.033568826
0.39390141 0.37534618 0.033416525
0.34656665 0.38150215 0.03310648
0.39489999 0.38153595 0.033065192
0.34721965 0.38216197 0.033798851
0.3972199 0.29456937 0.034596596
0.073598474 0.30443203 0.03449969
0.20834324 0.30446881 0.034454666
0.39666218 0.31393647 0.034386139
0.39664945 0.31467938 0.034944542
0.39587671 0.32261181 0.034007333
0.39622402 0.32261348 0.034004632
0.070596039 0.33979112 0.034182526
0.077743471 0.3398273 0.03415053
0.086765766 0.33978963 0.034173921
0.12101904 0.33978808 0.034170277
0.18513188 0.33982706 0.034149721
0.043708026 0.34051609 0.034778919
0.049623013 0.34049153 0.034789082
0.056481928 0.34053421 0.034748215
0.057209671 0.34051681 0.034774538
0.061869532 0.3405329 0.034773551
0.062228262 0.34053218 0.034765035
0.069093972 0.34052181 0.034774244
0.071263433 0.34049982 0.034802701
0.074480832 0.34052545 0.034771483
0.075359941 0.34051579 0.034796752
0.078432143 0.34054357 0.034765586
0.080944568 0.3405028 0.034791961
0.083345354 0.34049213 0.034784142
0.092127889 0.34050083 0.034777649
0.098661482 0.34048873 0.034790318
0.12170982 0.34054184 0.034749016
0.12999243 0.34050077 0.034805089
0.13680449 0.34045511 0.034869812
0.15345398 0.34052891 0.034775682
0.1674723 0.3405239 0.034780063
0.16876158 0.34048414 0.034793418
0.17974111 0.34051687 0.034771409
0.18761352 0.3405351 0.034754425
0.18983039 0.34048814 0.034804631
0.26588476 0.34055614 0.034721009
0.39520991 0.34054202 0.034752011
0.3422845 0.34756029 0.034073543
0.39551312 0.34830338 0.034654409
0.39364141 0.36983269 0.034578014
0.34785563 0.38282537 0.034499988
0.39748123 0.30524564 0.035000071
0.39416179 0.31545633 0.03546723
0.39596277 0.31543404 0.03548396
0.39430419 0.32409775 0.035175689
0.39614964 0.32446563 0.035439003
0.040578842 0.34131247 0.035318963
0.041653454 0.34199983 0.035964634
0.044771522 0.34125578 0.03536493
0.050713092 0.34121805 0.035373367
0.057911843 0.34122652 0.035382353
0.058630347 0.34122121 0.035410989
0.06334573 0.34119338 0.035425138
0.06980148 0.3412261 0.035387307
0.070538402 0.34123993 0.035369232
0.072734445 0.34192318 0.035996627
0.080648988 0.34118253 0.035417683
0.089614332 0.34121227 0.035407659
0.092122197 0.34122509 0.035386968
0.093233168 0.34194726 0.035956874
0.095292658 0.34197128 0.035984598
0.096829593 0.34119838 0.035403274
0.09935838 0.34123963 0.035367209
0.10025758 0.34196472 0.035980407
0.10331374 0.34122586 0.035387289
0.1068891 0.34121192 0.035393041
0.1072253 0.34122461 0.035398412
0.10928673 0.34121299 0.035380434
0.11247966 0.34125042 0.035359763
0.11549836 0.34195489 0.035985455
0.11841968 0.34124416 0.035383351
0.11945757 0.34122437 0.035388462
0.12063792 0.34170258 0.035796724
0.12130913 0.34120929 0.035413209
0.12594408 0.34161556 0.035658892
0.12970239 0.34119081 0.035398178
0.13289368 0.34117639 0.03547122
0.13650087 0.34117305 0.035466284
0.14123648 0.34121478 0.035403695
0.14473733 0.34123105 0.035389636
0.14544591 0.34199721 0.035952196
0.14974183 0.34198362 0.035956141
0.15272316 0.34124839 0.035358753
0.15362084 0.34195989 0.035957858
0.1545094 0.34197128 0.035969451
0.1587854 0.34125113 0.035362553
0.15951827 0.34198362 0.035965532
0.16044107 0.34197927 0.035939958
0.16149175 0.34199059 0.035938684
0.16817284 0.34123266 0.035382465
0.17933404 0.34193265 0.035992868
0.18325019 0.34194374 0.035990447
0.18788573 0.34198707 0.035947651
0.19009763 0.34197474 0.035958521
0.19376448 0.34123677 0.035358902
0.19488397 0.34119654 0.035406757
0.19520602 0.34120411 0.035400603
0.19872227 0.34123689 0.035373304
0.20200753 0.34199029 0.03593431
0.20885906 0.34125102 0.035372879
0.21552572 0.34196913 0.035953801
0.21951491 0.34196556 0.035969917
0.22274399 0.34197098 0.035969283
0.23131055 0.34197056 0.035963453
0.23701435 0.34194112 0.035997108
0.24464211 0.34199262 0.035949737
0.2525413 0.34197706 0.035957836
0.25330332 0.34196746 0.035962649
0.25941959 0.34159708 0.035663631
0.27200717 0.34129918 0.035309721
0.28961986 0.3419736 0.035964932
0.29022986 0.34196097 0.035968598
0.29865411 0.34194791 0.035990838
0.31200022 0.34197074 0.035951372
0.39378741 0.34197801 0.035940118
0.16091472 0.34200209 0.035927705
0.20251119 0.34202272 0.035917439
0.20308533 0.34202433 0.035908625
0.20847079 0.34201318 0.035926826
0.22650605 0.34202355 0.03591615
0.23274216 0.34202558 0.035917621
0.25176954 0.34202474 0.035894576
0.25214052 0.34201252 0.035931651
0.25796875 0.34200823 0.035923708
0.26512414 0.34203941 0.035896182
0.27165329 0.34203005 0.035898823
0.27917379 0.34200525 0.03593985
0.34118378 0.3489899 0.035303745
0.34262857 0.34898514 0.035303667
0.39550987 0.34901452 0.035266828
0.39367625 0.36432445 0.035865027
0.39391351 0.37120795 0.035887282
0.34893298 0.38348347 0.035186198
0.34978998 0.38414645 0.035856504
0.39536703 0.38421535 0.035773706
0.3949984 0.2861678 0.03609255
0.39780831 0.3067615 0.036088105
0.39668554 0.3161785 0.036052432
0.06404531 0.34192246 0.03601031
0.097489297 0.34193152 0.036012586
0.11010483 0.34191799 0.036009885
0.13035026 0.34192741 0.036010463
0.1336019 0.34188211 0.036069393
0.13718307 0.34188527 0.036072705
0.13824615 0.34189004 0.036067598
0.18291631 0.34192914 0.036001094
0.24104199 0.34193653 0.036017034
0.042339832 0.34268886 0.036594223
0.045977026 0.3426941 0.036573347
0.051724076 0.34267819 0.036561932
0.052470177 0.34265214 0.036592886
0.064754725 0.34264576 0.03657997
0.079894394 0.34267986 0.036565807
0.085222214 0.3426615 0.036596697
0.12086427 0.34268671 0.036569498
0.1422641 0.34265286 0.036602467
0.14974487 0.34268236 0.036593068
0.18002251 0.34265822 0.036593825
0.18899778 0.34270877 0.036555231
0.19513369 0.34267908 0.03658586
0.2103329 0.34264898 0.036590345
0.21661741 0.34267056 0.036585797
0.22742954 0.34271586 0.036541242
0.23093259 0.34266347 0.036604062
0.23126677 0.34268069 0.036587909
0.23343813 0.34273362 0.036519494
0.23563883 0.342659 0.036591664
0.23700848 0.34267175 0.036601149
0.23956075 0.3426978 0.036563996
0.24175516 0.34264904 0.036608636
0.24214634 0.34265828 0.036594741
0.2444306 0.34271109 0.036560129
0.24554464 0.34270668 0.036541853
0.25324243 0.34269702 0.036562305
0.25866276 0.34273976 0.036515694
0.25923792 0.34271014 0.036544014
0.26476377 0.34271514 0.036557592
0.26618314 0.34274733 0.036496341
0.27157342 0.34274405 0.036502387
0.27957648 0.3427186 0.036531758
0.28029615 0.3427074 0.036541644
0.28642756 0.34268111 0.036555871
0.29538494 0.34270173 0.036551222
0.29846519 0.34268022 0.036579501
0.29942092 0.34265721 0.036605343
0.30258381 0.34265828 0.036612451
0.30355749 0.34268701 0.036561672
0.30983117 0.34268868 0.03658035
0.31268889 0.34271187 0.036533829
0.31776297 0.34268141 0.036555473
0.3205722 0.34268123 0.036581382
0.32137519 0.3426919 0.03654521
0.3249526 0.34268409 0.036571436
0.32961321 0.3426733 0.036585543
0.34280947 0.35041666 0.036521513
0.39588612 0.35042477 0.036510404
0.3631084 0.37804484 0.036105812
0.39508137 0.37874216 0.036742192
0.39794287 0.29878002 0.037489511
0.3956854 0.29953969 0.037998918
0.04304418 0.34338009 0.037207242
0.047426909 0.34335899 0.037208863
0.053722292 0.3433671 0.03721201
0.054263085 0.34340233 0.037179627
0.060737073 0.34334636 0.037247933
0.067240059 0.34341604 0.037175179
0.077644944 0.34337127 0.037207376
0.078032821 0.34337622 0.037215121
0.082677901 0.34346312 0.037140131
0.099268943 0.34335482 0.037233278
0.10143897 0.34338915 0.03720862
0.10468593 0.34341753 0.037163448
0.10504797 0.3434369 0.037134882
0.11114797 0.34339136 0.037200484
0.11399007 0.34343719 0.037159562
0.11658469 0.34341753 0.037161537
0.14657247 0.34343517 0.037143342
0.15157807 0.34346223 0.037110064
0.16274101 0.34343278 0.037147123
0.16310215 0.3434177 0.037154965
0.21751517 0.34339249 0.037196707
0.23413667 0.3434388 0.03715013
0.24279022 0.3433854 0.037196219
0.26080257 0.34341991 0.037147164
0.27268252 0.34348148 0.037087422
0.2787928 0.34342068 0.037165076
0.28131181 0.34342754 0.037156612
0.2871342 0.34339499 0.037164096
0.2957533 0.34341162 0.037160955
0.30443782 0.34344167 0.037140653
0.30978161 0.34340489 0.037184682
0.32996559 0.34339225 0.037184674
0.33103392 0.34340388 0.037168983
0.39886045 0.3433857 0.037185773
0.047430307 0.34408903 0.037804563
0.066540629 0.34417909 0.03771029
0.074097753 0.34408855 0.037818
0.086296797 0.34410524 0.03780853
0.094775409 0.34410959 0.037787553
0.096743494 0.34414279 0.037764937
0.10215637 0.34412503 0.037793588
0.10583887 0.34414077 0.037740503
0.11185795 0.34411389 0.037789807
0.11743826 0.34413314 0.037770081
0.13211441 0.34413034 0.037788965
0.13962528 0.34406435 0.037853472
0.14358121 0.3441208 0.037812833
0.14726964 0.3441624 0.03772492
0.15593413 0.3441543 0.037757382
0.17208683 0.34418309 0.037711475
0.19800478 0.34418774 0.037700526
0.20441431 0.34419233 0.037720531
0.26799294 0.34416091 0.037746035
0.28229183 0.34413779 0.037737247
0.28786296 0.34412402 0.03776782
0.32597297 0.34412628 0.0377924
0.32643211 0.34410846 0.037800763
0.33173442 0.34411556 0.037778385
0.39442343 0.34414887 0.037746072
0.39485002 0.35113478 0.037114993
0.39396775 0.36570793 0.037162542
0.39703903 0.37257475 0.037199512
0.1640248 0.29955071 0.03802041
0.062726974 0.30025077 0.038597073
0.082699567 0.30023652 0.038605154
0.15225273 0.30034059 0.038531408
0.1619916 0.30029285 0.038551528
0.17097589 0.30026853 0.038574688
0.17488986 0.30031526 0.038549606
0.19227791 0.30028498 0.038550846
0.19585794 0.30027777 0.038587108
0.2027033 0.30034339 0.038498007
0.21318284 0.30027175 0.038607549
0.21536887 0.30032325 0.038549948
0.22077429 0.30032742 0.038564045
0.2265141 0.30029088 0.038590692
0.24196774 0.30036014 0.038486872
0.25398332 0.30026174 0.038589563
0.26655462 0.30029321 0.038568094
0.30033454 0.30030835 0.038548741
0.35875353 0.30030012 0.038540632
0.39909053 0.30030221 0.038546637
0.39650095 0.3097598 0.038263399
0.065002114 0.33636141 0.038080201
0.15580204 0.33637029 0.038040277
0.17927143 0.33632708 0.038066145
0.20452932 0.33635986 0.0380155
0.28242934 0.3363446 0.038037423
0.080494076 0.33709711 0.038614385
0.089488924 0.33707583 0.038650077
0.12986067 0.33702576 0.038734887
0.23587233 0.33712846 0.038611777
0.3976554 0.33707875 0.038655326
0.081251889 0.34485 0.038377024
0.099593878 0.34482747 0.038420174
0.12914741 0.34488684 0.038356714
0.14363512 0.34483713 0.038401671
0.14796522 0.3448683 0.038335737
0.15147743 0.34489638 0.038333565
0.16415384 0.34484935 0.038355432
0.17136264 0.34484309 0.038382933
0.18214613 0.34487915 0.038336594
0.18574154 0.34484476 0.038373783
0.18832478 0.34485322 0.03835886
0.19256374 0.34484076 0.038378432
0.19800001 0.34487683 0.038332816
0.201536 0.3448422 0.038393985
0.2058706 0.34484005 0.038399465
0.20624942 0.34482121 0.038396485
0.2119897 0.34483826 0.038399976
0.21259683 0.34483206 0.03838383
0.21383968 0.34483498 0.038373418
0.21414196 0.3448689 0.038353089
0.21889699 0.34484816 0.038375262
0.22147885 0.34487355 0.038346961
0.22895417 0.34486115 0.038370986
0.23719376 0.34482092 0.038397785
0.23876292 0.34486252 0.038363174
0.24098688 0.34484512 0.038396504
0.24168202 0.34483314 0.038396321
0.24849162 0.34485066 0.038350396
0.26759177 0.3448931 0.038310766
0.28315333 0.34485602 0.038341459
0.29251033 0.34486288 0.038354155
0.30147797 0.34482002 0.038409382
0.31909752 0.34486127 0.038352102
0.33246368 0.34484822 0.03837771
0.33349866 0.3448633 0.038372841
0.3609755 0.34487039 0.038325641
0.1977753 0.34556448 0.038985129
0.20547745 0.3456074 0.038933959
0.21201444 0.34555852 0.038983207
0.22568843 0.34555101 0.03899315
0.24411649 0.34558117 0.038978461
0.2689991 0.34561181 0.038940094
0.2838586 0.34558672 0.038947262
0.28420752 0.34557426 0.038952805
0.28522307 0.34558487 0.038958829
0.30114573 0.34554613 0.038996883
0.30635613 0.34563208 0.038896214
0.31478494 0.34561592 0.03892557
0.31551313 0.34558761 0.038939726
0.31975269 0.34559059 0.038949851
0.32307985 0.34558767 0.038942564
0.32761171 0.34555954 0.038994495
0.32851961 0.34555697 0.03897766
0.33332899 0.34556437 0.038979713
0.33712512 0.34556186 0.038981251
0.34109703 0.34556657 0.038971607
0.34214306 0.34555221 0.038990323
0.39511523 0.35256171 0.03834375
0.35264102 0.3739661 0.03848289
0.36818719 0.37395692 0.038483568
0.34674361 0.38074583 0.038779639
0.39321926 0.3801356 0.038024329
0.3953104 0.38011444 0.038050678
0.35633689 0.29073972 0.03923057
0.39762217 0.29079467 0.039164826
0.050692081 0.30103767 0.039106444
0.14968625 0.3018257 0.039623648
0.1517154 0.30179 0.039658118
0.15351504 0.30109668 0.039057106
0.1540091 0.30107647 0.039082486
0.16445291 0.30107462 0.03907625
0.17486095 0.30111212 0.03905531
0.18320704 0.30177659 0.039680146
0.1916759 0.30106735 0.039067756
0.19567233 0.30104339 0.039107982
0.20244205 0.30133182 0.039248239
0.20676252 0.30100197 0.039142676
0.20980638 0.30110586 0.039045554
0.21537879 0.30110258 0.039066877
0.21793631 0.30102152 0.03915013
0.21830797 0.30101019 0.039142333
0.23467916 0.30183589 0.039578661
0.24138361 0.30156898 0.039441746
0.24201399 0.30112624 0.039022338
0.24816525 0.30182928 0.039604854
0.25361723 0.30141699 0.039370637
0.25434533 0.30178779 0.039632857
0.26185036 0.30182397 0.03962291
0.26221454 0.30181849 0.039622575
0.31523156 0.30103302 0.039114036
0.39698327 0.30106908 0.039052285
0.10674599 0.31199747 0.03990991
0.1741333 0.31130087 0.039319169
0.1881941 0.31199241 0.03992464
0.23837876 0.31124896 0.03935311
0.11149594 0.31202835 0.039907042
0.39182442 0.312042 0.039871629
0.39611268 0.31203049 0.039897479
0.3956452 0.32068104 0.039367676
0.10829067 0.32141966 0.039959624
0.13756466 0.32142776 0.039956715
0.36243421 0.32145864 0.039899431
0.39204395 0.32141596 0.039959274
0.059527904 0.33002663 0.039733458
0.24511364 0.33007026 0.039687186
0.059528023 0.33785301 0.03920424
0.08549279 0.33782238 0.0392147
0.094546497 0.33778077 0.039251629
0.1005998 0.33778757 0.039274205
0.15617192 0.337825 0.039217763
0.2048319 0.3378256 0.039214022
0.21962282 0.33780795 0.03922018
0.23011437 0.33788478 0.039166141
0.27483141 0.3378011 0.039233193
0.39461806 0.3378157 0.039222989
0.055422813 0.33857107 0.039790116
0.066367298 0.33856469 0.039819602
0.097826988 0.33856004 0.039797954
0.11682341 0.33855802 0.03981065
0.13853851 0.33850271 0.039864521
0.15045607 0.33855844 0.039797682
0.33710033 0.33854187 0.039810628
0.36094445 0.33854866 0.039801665
0.36125612 0.33855522 0.039794415
0.39435002 0.33856064 0.039798792
0.24782461 0.34630716 0.039538737
0.25624961 0.34630746 0.039555881
0.27588022 0.34629041 0.039585404
0.28959244 0.34632325 0.039534908
0.29448497 0.34629011 0.039554447
0.3018555 0.34625494 0.03961027
0.31189635 0.34630245 0.039556358
0.31801966 0.34628361 0.039560396
0.33488166 0.34633869 0.03951915
0.33565408 0.34633344 0.039510064
0.33677661 0.34630239 0.039552845
0.34176242 0.34628189 0.039585892
0.3421146 0.34627306 0.039590713
0.34317607 0.34627622 0.039600063
0.39544162 0.35399199 0.039568927
0.39423442 0.36165339 0.039817017
0.39576507 0.36162561 0.039853189
0.3946037 0.36779296 0.03908867
0.35072571 0.37469476 0.039087731
0.35261604 0.37466156 0.039118785
0.35760701 0.37463814 0.039150059
0.36228895 0.37537187 0.039746772
0.37313896 0.37533289 0.039795853
0.39552552 0.37531728 0.039807297
0.3854537 0.28197348 0.040623736
0.16955346 0.30260432 0.040132999
0.20631948 0.30259097 0.040134508
0.23451832 0.30256474 0.040138677
0.31483704 0.30256832 0.040174361
0.048158616 0.30332476 0.040700365
0.049356341 0.31281197 0.040395591
0.060649455 0.31275457 0.040476523
0.081888258 0.31273186 0.040495947
0.12654307 0.31277317 0.040472034
0.13062757 0.31277913 0.040419307
0.13944355 0.31283617 0.040366676
0.1960679 0.31280243 0.040413078
0.3197118 0.3127951 0.040432569
0.39716902 0.31279153 0.040435236
0.048814833 0.31358796 0.040899608
0.049146354 0.31361037 0.040890142
0.075079829 0.31352842 0.040997211
0.094851017 0.31353724 0.040980302
0.097334355 0.31357193 0.04098019
0.10060054 0.31352621 0.040994924
0.11544886 0.31355029 0.040989537
0.13063419 0.31355125 0.040953312
0.21574834 0.31358314 0.040912859
0.22398141 0.3135193 0.040999893
0.28053099 0.3135612 0.04095554
0.3562724 0.31357813 0.040908031
0.39333996 0.31353772 0.040970009
0.051443994 0.32219285 0.04048308
0.059413999 0.32217437 0.040481474
0.07560569 0.32218319 0.040503573
0.1144529 0.32217741 0.040494706
0.11888012 0.32214159 0.040531866
0.12976828 0.32212687 0.040554851
0.14198035 0.32215577 0.040481776
0.15634042 0.32218492 0.040480174
0.17435429 0.32221758 0.040460479
0.24065873 0.32298708 0.040968627
0.078596741 0.33073241 0.040339764
0.091913849 0.33070499 0.040363949
0.10163927 0.3307817 0.040286053
0.11025888 0.33074349 0.040322185
0.12146994 0.3307603 0.040311016
0.12510926 0.33076662 0.040316146
0.12802535 0.33068866 0.040379517
0.13235587 0.33068442 0.04037451
0.14458957 0.33080798 0.040227104
0.1493226 0.33081061 0.040224262
0.19030526 0.33081454 0.040228792
0.12145892 0.33153087 0.040858734
0.18525255 0.33152378 0.040845677
0.21444061 0.33154422 0.040838629
0.22200671 0.33150059 0.040856641
0.2555362 0.33147055 0.04089161
0.047448456 0.33927715 0.04040258
0.065726191 0.33999717 0.040990304
0.084834933 0.33999699 0.040980805
0.097772181 0.33998901 0.040992696
0.11683664 0.33928949 0.04040166
0.12811932 0.33923626 0.040416609
0.13594374 0.33923167 0.040500477
0.17666242 0.33999515 0.040989641
0.19756439 0.33926338 0.040410321
0.20041978 0.33933622 0.040335551
0.2585403 0.33927202 0.040396899
0.29638499 0.33927077 0.040404908
0.33704692 0.3392778 0.040403057
0.39038208 0.33931214 0.040350776
0.046480745 0.34004515 0.040992383
0.05521071 0.34003264 0.040979963
0.063226223 0.34003836 0.040945388
0.066059172 0.34000111 0.040994782
