# .PCD v0.7 - Point Cloud Data file format
VERSION 0.7
FIELDS x y z
SIZE 4 4 4
TYPE F F F
COUNT 1 1 1
WIDTH 1294
HEIGHT 1
VIEWPOINT 0 0 0 1 0 0 0
POINTS 1294
DATA ascii
-0.00082647055 0.054447375 0.011977483
0.00079911947 0.051886715 0.012738256
0.045233905 -0.0021821484 0.013986714
0.00048792362 0.043058604 0.012851
-0.0010299385 0.044623859 0.012836642
-0.0027873144 0.037288964 0.013050826
0.035250708 -0.0020108223 0.014793037
0.00015978515 0.033441514 0.013881634
0.02811268 -0.0029835701 0.014292081
0.0027009547 0.022673771 0.013609129
-0.00079379976 0.026255831 0.01355662
0.0010402501 0.023460418 0.014312018
-0.00069752336 0.02534987 0.014352735
0.018253952 -0.0028017163 0.015462348
0.0018391311 0.014627188 0.014258078
-0.00054629147 0.016134858 0.014911737
0.0033389926 0.0042327195 0.015088948
0.0016334802 0.0060163587 0.015102421
-0.0040893033 0.13534912 0.0088859089
5.4314733e-06 0.13031679 0.0097264387
0.11568088 0.00083439052 0.013299213
-0.00011596084 0.11788426 0.010321792
-0.0011615753 0.1189338 0.010259081
-0.0021741092 0.11994244 0.010220658
-0.0024446845 0.12117296 0.0095495731
0.00056023896 0.10475664 0.011193654
-0.0019946769 0.10731824 0.011100737
6.4171851e-05 0.093790352 0.011574294
-0.0012185201 0.095072351 0.011521379
0.00077348948 0.08271531 0.011585953
0.084790893 -0.002285175 0.013712477
0.00084035844 0.081731625 0.012295071
-0.00089725852 0.083487779 0.012251194
-0.0029164478 0.085475467 0.012156282
0.073879093 -0.0023949146 0.014387952
0.073082544 -0.0015778169 0.014372997
0.0017540827 0.070450813 0.01247404
0.063372433 -0.002133809 0.014450787
0.062447891 -0.0020747408 0.015168168
-0.00015187263 0.062149167 0.012854497
-0.0011252016 0.063112907 0.012826688
-0.0011014715 0.052961722 0.013457081
0.045114316 -0.0028710514 0.014762645
0.0019112229 0.040789865 0.01366925
-0.0015571788 0.043426752 0.014319613
0.035364583 -0.0030125305 0.015545451
0.0026712716 0.030030593 0.014697103
0.0010320693 0.031693436 0.014641359
0.00030888617 0.032415055 0.014625185
-0.0012475476 0.034057997 0.014643947
-0.0020041689 0.034837537 0.01462261
0.0014322698 0.013440967 0.015836226
0.0018356591 -0.0037971884 0.01683655
0.0011152923 -0.0030821562 0.016820379
0.085662261 0.11654719 0.0088457381
-0.001754187 0.13113287 0.010339057
-0.0027392134 0.13212469 0.010317401
-0.0007000491 0.12908927 0.011019193
-0.0016952008 0.13008143 0.010988346
0.0001584217 0.1166635 0.010998435
0.00019367039 0.11566307 0.011659935
0.00062426925 0.10374958 0.011880539
0.00061214715 0.092331082 0.012284824
0.001219511 0.090770997 0.013002055
-0.0015875623 0.093588606 0.012917786
0.08222761 -0.0014483184 0.015102757
-0.0012253597 0.072570823 0.013129983
0.071472846 -0.0018114299 0.015748303
0.0020366311 0.059096798 0.013669721
0.0010761395 0.060038336 0.013643777
-1.6026199e-05 0.06115973 0.013619006
0.061274685 -0.0017468557 0.015882038
-0.0030851662 0.054102473 0.014142483
0.05192177 -0.0023298934 0.016341673
0.00062894076 0.049547292 0.015043266
-0.0014218092 0.051486999 0.014902238
-0.00018253922 0.04112161 0.015057057
-0.0011965036 0.024143204 0.015876196
-0.0011078268 0.023146525 0.016581979
-0.00028914213 0.014287859 0.016527656
-0.001068458 0.015038207 0.01647586
0.00053136051 0.0047094077 0.017414538
-0.0081672668 -0.0023642331 0.017740732
-0.014938205 -0.0033151507 0.018081961
0.00079087168 0.14026248 0.010744347
-0.0002226606 0.14133301 0.010760569
0.0020846426 0.13787988 0.011364905
0.0010806099 0.13893427 0.011368927
-0.0015652329 0.11645611 0.012273576
-0.0018610582 0.10528703 0.012485234
-0.0026821047 0.10611474 0.012439383
-0.0010688528 0.092152923 0.013631353
0.0010000542 0.079685308 0.013678254
-0.0014661998 0.081284739 0.014340797
-0.0022068694 0.082023986 0.01432137
-0.0015593544 0.071075447 0.014542245
0.0027304813 0.056554638 0.015117964
-0.0023998544 0.061729409 0.014973825
0.051015392 -0.0022900254 0.017059598
-0.0010548159 0.050295047 0.015696937
0.00048999488 0.039640278 0.015877292
0.032486349 -0.0026063398 0.017773738
0.032251418 -0.0023598969 0.017764138
0.023977906 -0.0029608309 0.018048566
0.0031806082 0.018012628 0.017489813
0.0019828677 0.02009663 0.016731588
0.00037577748 0.02089259 0.017432764
-0.00066158175 0.021896675 0.017380454
0.0017205179 0.011536703 0.017425634
0.01427044 -0.0020415783 0.018486202
0.0035125613 0.00082865357 0.018256944
-0.010477886 -0.008529529 0.019036362
0.08352045 0.11455052 0.011127876
0.053947862 0.11219521 0.012405295
-0.0019639879 0.14112777 0.012003543
-0.00041535497 0.1268447 0.012326066
0.00087818503 0.12459661 0.013030542
-0.0021734908 0.12764081 0.012929688
-0.0031546801 0.12863195 0.012910722
-0.00046987087 0.11440209 0.012974516
-0.0033083111 0.11725537 0.0128839
-0.00040486455 0.1133845 0.013652632
0.0012265444 0.1002667 0.013899412
-0.00073633343 0.10225237 0.013875712
-0.0025727898 0.10410853 0.013819464
0.0012921914 0.087862521 0.01505634
7.6264143e-05 0.089134015 0.01506252
0.079686351 -0.001636453 0.017172635
-0.0013970435 0.080308869 0.015051035
-0.00020094961 0.068798348 0.015299107
0.00084946305 0.066813476 0.016038323
-0.0031741634 0.070900731 0.015939167
-0.00021223724 0.058669455 0.015779747
0.0011502132 0.056385048 0.016552489
0.0020484254 0.046294868 0.016515803
0.0003611818 0.048031077 0.016485419
0.040305361 -0.0024176762 0.018344641
-0.00017772615 0.029527262 0.017667076
0.0012750328 0.010311142 0.018954892
0.0066940784 -0.0031473488 0.019144807
0.068896085 0.11111124 0.012784684
0.057756547 0.10737099 0.013138257
0.055538107 0.10955833 0.013063174
0.03736227 0.11312622 0.013618426
-0.001473546 0.13855846 0.013222661
0.10498887 0.018419847 0.01640089
-0.0011284128 0.12559852 0.013607919
-0.00083518773 0.12435609 0.014280035
-0.0028954074 0.12642172 0.014217001
0.00034305453 0.11067834 0.014980538
0.00028169155 0.11173566 0.014327049
-0.00040604174 0.11243115 0.01431388
0.00078792125 0.098771714 0.015230894
-0.00045212358 0.10006966 0.01521257
-0.0014712065 0.10111542 0.015212052
0.088432588 -0.0011527389 0.01799209
-0.00030539185 0.077254705 0.016411541
-0.00031267107 0.078206614 0.015731342
-0.0020132735 0.079052173 0.016419906
0.06952627 -0.0034503266 0.01856526
-0.00080855936 0.067602642 0.016733155
0.0677021 -0.0017401204 0.018435623
0.00092822313 0.065814242 0.016740689
0.057585612 -0.001526013 0.018726304
-0.0022354797 0.048931941 0.017924633
0.0010888949 0.036441542 0.018139854
0.00033880025 0.03719914 0.018131785
0.03044042 -0.0022219196 0.019246303
0.02249296 -0.0031132549 0.019564865
0.021364942 -0.0028107613 0.020306323
0.020572066 -0.0020276457 0.020271126
-0.00013099611 0.019752488 0.01899478
0.013599753 -0.0029967725 0.020031977
0.0025254935 -0.00051136315 0.020647272
0.065847531 0.11309798 0.013270105
0.06865342 0.10927488 0.01398534
0.049608253 0.11357471 0.014145778
0.13566485 -0.00099664181 0.017454728
0.13414893 -0.00043194741 0.01805054
0.033289813 0.10153122 0.015467694
0.032816924 0.10297166 0.01480602
-0.001149267 0.13718739 0.013840484
-0.00034383684 0.12288569 0.014946083
0.0011110902 0.10893972 0.015659783
0.00034986436 0.10970442 0.015639713
0.0013421327 0.09725374 0.015914619
-0.00017150491 0.098801225 0.015890509
0.00038636476 0.097267777 0.016571414
-0.00036328286 0.087657519 0.01639263
0.0012208968 0.085159279 0.017131392
-0.00025890023 0.076283105 0.017110212
-0.00011455268 0.075204372 0.017831832
-0.0018921494 0.077019088 0.017789662
0.06675645 -0.0016914904 0.019127188
0.00035972893 0.064562783 0.018173411
0.048090786 -0.0028725788 0.019916333
0.0028868765 0.042759627 0.018717404
-0.0018316433 0.047605082 0.018648174
0.04672429 -0.002381511 0.020623442
0.046194226 -0.0019199327 0.02056025
0.037676074 -0.0022815987 0.020576313
0.00022630394 0.026616037 0.019978268
0.004496783 0.0045838058 0.021361481
0.0027774274 0.0063984841 0.021379393
0.0025809854 0.007321313 0.020531259
0.0015674233 0.0083203912 0.02048346
0.00086596608 0.0002989471 0.021366477
-0.0084118694 -0.005922392 0.02182347
0.063241601 0.11369173 0.014398051
0.054425959 0.10768224 0.014881529
0.037861913 0.10958815 0.015487257
0.037090831 0.11039655 0.015463226
0.036821105 0.11066561 0.01545847
0.040126599 0.1072777 0.015510933
9.342283e-05 0.13393891 0.015154963
-0.00093499571 0.13496232 0.015091693
-0.0019090995 0.13594842 0.01507345
0.10199144 0.018508181 0.018264007
0.099933907 0.020553395 0.018197542
0.098899759 0.021627717 0.018171536
0.098166212 0.022350617 0.018153861
0.11849167 0.00076951087 0.019302558
-4.8138201e-05 0.12060405 0.016237322
-0.0020520836 0.12265763 0.016207825
0.00093993545 0.095764019 0.017259741
-0.00073197484 0.086136386 0.017749272
0.075801276 -0.0014058053 0.019869931
0.0009065941 0.074249059 0.017912438
-0.0021184161 0.066185527 0.018829422
-0.00081051141 0.0547738 0.019382047
0.00081016123 0.043161109 0.020191789
7.7575445e-05 0.043908253 0.020174768
-0.00070544332 0.044700027 0.020157779
-0.0003895238 0.035363846 0.020361004
0.00054310262 0.016479596 0.021256046
0.0011162013 0.0071773827 0.022062026
0.0036283135 -0.0032465458 0.022246763
0.078283243 0.11255386 0.015079499
0.063960001 0.11093521 0.01563691
0.065803051 0.10804433 0.016298771
0.064483315 0.10938652 0.016254786
0.051908895 0.10817027 0.016037736
0.049563155 0.11052811 0.015955491
0.14378431 0.00148651 0.018817736
0.039887734 0.10549711 0.016762147
0.037592992 0.10782041 0.016708976
0.1123521 0.019628391 0.018786624
0.11126699 0.020726137 0.0187521
0.10873183 0.022281036 0.019309681
-0.001659207 0.13372788 0.016376041
0.0002130419 0.11938436 0.016895205
-0.0017673597 0.12136351 0.016851902
0.10702511 -0.0010261685 0.02038347
0.087511376 0.018724114 0.019879404
-0.0020170063 0.096839383 0.018545335
-0.00044047087 0.084932543 0.018457968
-0.0027039126 0.087210566 0.018412288
-0.00010143965 0.083693296 0.019193701
0.0025606453 0.070707671 0.01931653
0.00024721026 0.073061287 0.019270636
-0.00072143227 0.074047454 0.019278573
0.0025687292 0.060566932 0.019682307
0.0015353113 0.061600409 0.019647822
-0.00023566931 0.063338786 0.019573271
0.043268085 0.018484212 0.021432728
0.054619372 -0.0020963103 0.021560814
-0.00020351261 0.05326625 0.020126767
0.0011170134 0.051007792 0.020869669
0.00014331937 0.051972374 0.020832025
0.0022232607 0.040856697 0.020970233
0.043181032 -0.0015067756 0.022722403
0.00075170398 0.041398108 0.021600451
0.0037671328 0.029388107 0.021953493
0.0021317303 0.031020112 0.021879124
0.0020272285 0.031993695 0.02114328
0.001273483 0.032763325 0.02111957
0.00047524273 0.033622421 0.021133363
-0.00028120726 0.034413241 0.021146607
0.00048492849 0.024676338 0.021537896
0.0026671439 0.021593541 0.022323541
0.0015669316 0.022653654 0.022263851
0.0024838895 0.01381512 0.022178099
0.0026291162 0.01285547 0.022956142
0.010365516 -0.0029674619 0.023082159
0.0050802827 0.0023525506 0.022951789
0.0022987127 -0.0026940256 0.023027811
-0.016274393 -0.0071585774 0.023850052
0.075634018 0.11315681 0.016178964
0.076163232 0.11156726 0.016772978
0.061403051 0.11141601 0.01674713
0.060391668 0.11245571 0.016719701
0.059107803 0.11374144 0.01669387
0.049322627 0.10873813 0.017167162
0.047049791 0.11102705 0.017126258
0.045008406 0.11315916 0.017101098
0.14382628 -0.00052775443 0.020097295
0.040124238 0.10429594 0.017410152
0.035049304 0.10840572 0.017901432
0.033031151 0.11049707 0.017885212
0.10898878 0.021065347 0.019962883
-0.00036662072 0.1315164 0.017110767
-0.0014221519 0.13255888 0.017068837
0.031847961 0.098015733 0.01862352
-0.00034939498 0.13050473 0.01774643
0.098805316 0.018799625 0.020165483
0.0015479699 0.11611381 0.018285088
-0.001533404 0.11918627 0.018150926
0.088572584 0.016676828 0.020574413
-0.00052753836 0.10674588 0.018278813
-0.0020184517 0.10824034 0.018241107
0.087104224 0.017180383 0.021205137
0.0012566149 0.10400514 0.019018782
0.0026391745 0.091228411 0.019361909
-0.00012413412 0.093975574 0.019272964
-0.0014477298 0.09532059 0.019228509
-3.7483871e-05 0.082690701 0.019889858
0.062592842 -0.0019928589 0.022597726
0.0029739365 0.058359019 0.021129806
-0.00086082518 0.062170073 0.02099419
0.0035418496 0.047707826 0.021687251
0.0027982369 0.039392374 0.021715801
0.043272376 -0.0025017038 0.023425627
0.0013636574 0.039987244 0.02242532
-0.00063367188 0.041941106 0.022336148
0.0038668066 0.028427571 0.022699811
0.0040096939 0.019390762 0.023121417
0.0045663416 0.0099858493 0.023730453
0.0027473867 0.011908919 0.023738585
0.0001693666 0.014396846 0.023600712
0.003464669 0.0031706244 0.023698209
0.0016865581 0.005019322 0.023667421
0.0018161833 0.004015848 0.024413798
0.0015592724 -0.0035362393 0.024582054
0.072281122 0.11338837 0.017824333
0.061895262 0.1099388 0.017375298
0.050048381 0.10601383 0.018445965
0.046715647 0.10934858 0.018327806
0.044443026 0.11167663 0.018290032
0.036596797 0.10582462 0.018549778
0.0020909533 0.14068654 0.017642941
0.038120896 0.1033109 0.019232774
0.037162103 0.10423464 0.019199237
0.034802638 0.10662926 0.01913327
-0.0021421611 0.13133568 0.018347116
0.10883883 0.018214725 0.021892823
0.10779202 0.019275002 0.021847326
0.0016821325 0.12646884 0.019070011
-9.2625618e-05 0.12825926 0.019027742
-0.0010925308 0.12926736 0.019012099
0.095775194 0.018871449 0.021986678
0.095465824 0.02018515 0.0213513
0.094688267 0.020991661 0.021320026
-0.00089769065 0.11660082 0.019520625
-0.001913704 0.11762483 0.019473264
0.085568555 0.017796189 0.02182629
-0.0011661351 0.10545992 0.019609766
0.00060629845 0.10271628 0.020331154
0.00036114454 0.092573047 0.019974526
0.00095637143 0.091029443 0.020674216
-0.0018745363 0.093841426 0.020575935
0.0018621534 0.078845836 0.021284781
-0.00070409477 0.081492841 0.021253154
0.0012176409 0.069304936 0.021396972
0.00022453815 0.070306718 0.021370118
0.070887461 -0.0020159036 0.02394224
0.061197326 -0.0014214888 0.02334282
0.0012517124 0.059203282 0.021802653
-0.0025678948 0.062972218 0.021660797
0.04096996 0.018087842 0.023518588
0.002631925 0.056858435 0.022543378
-0.00040527433 0.059950277 0.022478722
-0.0014408603 0.060949147 0.022416469
-0.0014502779 0.051820487 0.022253374
0.050949588 -0.0019685403 0.024379034
0.0028951019 0.046584979 0.023125589
-7.7389181e-05 0.049615704 0.023090485
-0.0011258721 0.050586574 0.02298649
0.0019988343 0.038448825 0.023171656
0.032005697 -0.0017223135 0.024927896
0.0040715039 0.026553407 0.024227289
-0.0016884804 0.033228271 0.023345165
0.0041436553 0.018389449 0.023870904
-0.00070019066 0.023259968 0.023737125
0.023627087 -0.0021117777 0.025178712
0.016610801 -0.0030355453 0.024795463
0.0028888434 0.010910809 0.024500607
0.0078083575 -0.0028426796 0.025367763
0.0030258298 0.0019825846 0.025254577
0.048295245 0.1067367 0.018995073
0.041950107 0.1131951 0.018865041
0.04650712 0.10750154 0.019536048
0.044237509 0.10979728 0.019503158
0.00057595968 0.13918057 0.01946152
0.00035753846 0.14043394 0.018857347
-0.00060287118 0.14145929 0.018884735
0.10525084 0.020836323 0.022435203
0.031610183 0.095246315 0.02049939
0.00092533231 0.11379261 0.020226955
0.00010118634 0.11464032 0.020200033
-0.00091329962 0.1156561 0.020169877
0.0016190708 0.10072979 0.0210017
0.090778247 -0.0012576729 0.023973804
0.090543874 -0.00049373507 0.023665488
0.0014788583 0.089538157 0.02137012
-0.00077281147 0.090872385 0.021980343
-0.0013140365 0.092361853 0.021282658
-0.0023100674 0.092415623 0.021934949
-0.00065944344 0.080513321 0.021936957
-0.00039692968 0.069088571 0.022759357
0.0023600385 0.066284291 0.022829536
0.059565365 -0.0015583113 0.024726357
0.05880972 -0.00080189109 0.024719357
0.038788743 0.019381747 0.024178904
0.037246481 0.021024555 0.024192706
0.0003188774 0.048323117 0.023816023
-0.00070669502 0.040259697 0.023813218
-0.0027343705 0.042360626 0.023790896
0.0019553155 0.036730811 0.024646407
0.00093859434 0.028800294 0.024886053
0.00085027516 0.020050272 0.025328133
0.0146088 -0.0026521832 0.026309337
0.0031563193 0.0089114755 0.026010327
0.0024154633 0.0096652508 0.025987584
0.00067844987 0.011496753 0.02600378
-0.00011745095 0.012309492 0.025961285
-0.00036305189 -0.0031914413 0.026137833
0.054425031 0.11333823 0.019560365
0.055945374 0.11077757 0.020191681
0.048804305 0.10421541 0.02024485
0.038945049 0.10046998 0.020519499
0.036841981 0.10259617 0.020453565
0.034552589 0.10488055 0.020374563
0.00084981322 0.13784769 0.020068701
-0.00043028593 0.1391993 0.020062994
0.10831363 0.016735196 0.023140654
0.10349288 0.021610953 0.023008268
0.032110356 0.093772955 0.021157457
0.00044813752 0.12475972 0.020967081
-0.0015883222 0.12680763 0.020903066
0.095328003 0.017416626 0.023313478
0.092793442 0.018979505 0.023884585
0.00092428178 0.1123543 0.021209752
-8.8781118e-05 0.10150197 0.021645032
-0.001829952 0.10229313 0.022262262
-0.0001815781 0.08932703 0.022687327
0.0011831522 0.076676868 0.023293225
-0.0012926236 0.079264358 0.023290265
-9.0561807e-05 0.067876786 0.023507753
-0.0010043681 0.058730282 0.023881786
0.00028259307 0.056521781 0.024625618
-0.00072518736 0.057559133 0.024605822
0.00063362718 0.047096483 0.024539178
0.048189066 -0.0019165501 0.026451554
0.029157221 0.01735194 0.025998229
-0.0013383999 0.048219003 0.025226157
-0.00073745102 0.038590208 0.025318891
0.030439019 -0.0018593147 0.026394993
0.0017713457 0.027117431 0.025636811
0.0010367632 0.027843356 0.025621539
0.0037132353 0.016222134 0.026105566
0.0021278411 0.017009497 0.026844133
0.0012297332 0.018832237 0.026116151
0.01320301 -0.0020571798 0.027039334
0.0035365075 -0.00011317432 0.026844911
0.00077138841 0.0026569664 0.026767546
0.0037247539 -0.001153186 0.027630553
0.0019374937 0.00061364472 0.02755595
-0.00091089308 0.0035473108 0.02749875
0.14991689 1.5221536e-05 0.0241109
0.1488317 0.0010710806 0.024045061
0.048503622 0.10247407 0.021463161
0.14733714 0.0015066192 0.024596818
0.0378379 0.098581575 0.022376172
0.036888354 0.099542312 0.022346649
9.8623335e-05 0.13657022 0.021275688
0.028570853 0.095360585 0.022345655
0.1032794 0.018899433 0.024936037
-0.0023182854 0.12555653 0.022156982
0.00093147904 0.11087181 0.022174893
-0.0015495792 0.11336521 0.022119295
0.00094356388 0.10985302 0.022814877
0.00047514588 0.098968193 0.02296984
-0.00054985285 0.099055633 0.023602106
-0.0015257746 0.1000615 0.023593109
0.00062192976 0.086566806 0.024029387
-0.00066454709 0.087907568 0.024037134
-0.0018404052 0.089096174 0.023993772
0.0012686029 0.075637765 0.02398563
-0.001204893 0.077719152 0.024301274
0.066082627 -0.00089408457 0.026586022
0.0010300502 0.064856261 0.024903052
-0.00069138408 0.066610143 0.024886038
0.0018406957 0.05400876 0.02535698
0.00066296011 0.055205546 0.025335524
0.00076429546 0.045156032 0.025990997
-1.7791986e-05 0.045954682 0.02596073
0.0027753785 0.033227235 0.026868453
0.0019241869 0.026127741 0.026431268
0.029939219 -0.0030787289 0.027883744
0.0020363629 0.025158837 0.027196469
0.020787075 -0.0026616752 0.028139248
-0.0013210475 0.019704118 0.027550707
0.0031433553 0.0065224767 0.028383587
0.002055198 0.0075133592 0.028282342
-0.00045907497 0.010149449 0.02828248
0.00035837293 0.0014181882 0.028321296
0.14576897 0.0021304414 0.025177822
0.00031352788 0.13534579 0.021889921
-0.001644522 0.13736476 0.021891009
0.036591731 0.097801439 0.023569196
0.028115377 0.093813747 0.023595657
0.00022666901 0.12200376 0.022866054
-0.00077654421 0.12304542 0.022858914
0.0016897544 0.10814795 0.023481751
0.0012844652 0.096196234 0.024285559
5.5097044e-05 0.097433157 0.024278961
0.00090262294 0.085346967 0.024710272
0.075779557 -0.0014079139 0.027379721
0.0016411766 0.073479645 0.02543214
-0.00066521764 0.065664895 0.025576118
0.056586228 -0.0021872818 0.027507944
-0.0023150072 0.057356082 0.026000887
0.039891459 0.013740569 0.02778022
0.00025884062 0.053801775 0.026751393
0.00090639293 0.044121325 0.026737276
0.045383386 -0.00181593 0.028538061
0.0036183447 0.031499609 0.027623892
-0.00016850978 0.035376795 0.027561665
0.0041287243 0.022112653 0.027937435
-0.00039505959 0.026697189 0.027832936
-0.0011562854 0.02748245 0.027821206
0.0034084916 0.014095798 0.028475728
0.0014673024 -0.00049754977 0.029136728
0.13316587 -0.00080768019 0.026683263
0.036597423 0.09678892 0.024183657
0.0006031245 0.13309598 0.023216447
-0.00041563809 0.13407782 0.023135329
-0.0022402927 0.13491368 0.023698758
0.00047577173 0.12075344 0.023500068
-0.0018057376 0.12309564 0.023475688
0.021509215 0.087155595 0.024675906
-0.0015234128 0.11042625 0.024077285
0.0025473461 0.10532513 0.024842981
-0.00074014068 0.10862722 0.024730802
-0.0015047342 0.10939096 0.024706662
0.0012056231 0.084140025 0.025442716
-0.00076878816 0.085125469 0.026016749
0.0019262806 0.072263353 0.026131056
-3.3505261e-05 0.074220262 0.026098639
-0.0018762276 0.076030701 0.025984142
-0.0018114746 0.074998446 0.026660269
0.064757377 -0.0023755133 0.028629662
0.038418844 0.014336623 0.028456546
0.0014818236 0.041714065 0.028142292
0.0037660897 0.030473389 0.028356692
0.0022029281 0.032059811 0.028325243
0.0024319291 0.022929609 0.02862577
0.0014398843 0.023989394 0.028643865
0.026432946 -0.0021095425 0.030037068
0.018103793 -0.0024979711 0.030336102
0.0010699928 0.014671087 0.029869363
0.002630055 0.0053364038 0.029892942
-0.00092381239 0.0089056492 0.029789487
0.055098787 0.10446323 0.024388868
0.043927349 0.10201685 0.024401641
0.13140811 -0.0010413826 0.027878957
0.13068798 -0.00030779839 0.027869616
0.03477861 0.096626677 0.025389099
0.00083354861 0.13089529 0.024490545
-0.00015456975 0.13190296 0.024473872
0.027766384 0.091266908 0.025552746
-0.00027433038 0.11954658 0.024765536
-0.0012639761 0.12053226 0.024736345
1.4461577e-05 0.11826207 0.025423486
2.6293099e-05 0.10687951 0.025393872
-0.00076320022 0.10768339 0.025374254
0.001809679 0.10411758 0.026122987
8.5860491e-05 0.10584667 0.026068702
0.00014057755 0.094449036 0.026250301
-0.0011893809 0.095809907 0.02622436
0.00055042654 0.082893088 0.026786624
0.07260868 -0.0011281148 0.029303027
0.0015887916 0.070680641 0.027474362
-0.00072776526 0.073060952 0.027443262
0.063090116 -0.0015321076 0.029347267
0.0016101077 0.060656138 0.027780827
-0.00020574033 0.062407233 0.027686194
-0.0011947826 0.063409485 0.027665727
-0.0019825026 0.064201884 0.02763241
0.053784765 -0.0020790845 0.029597964
0.037298985 0.01457537 0.029165838
0.036565498 0.015356578 0.029187409
0.034747645 0.017080292 0.029056974
0.01798588 0.034046926 0.028637584
0.00093633682 0.05124674 0.028165281
-9.3348324e-05 0.05232691 0.028160125
-0.0013480559 0.053594552 0.02812662
0.038128369 0.01280731 0.029890385
0.037350953 0.013563976 0.029840492
0.035626821 0.015401557 0.029870681
0.027209945 0.023789078 0.029561318
0.026456818 0.024579734 0.029564925
0.001288563 0.050067559 0.028965514
0.044574991 -0.0027784333 0.029973131
0.0041914955 0.038129926 0.028992975
-0.0014270619 0.043809555 0.028851345
0.0014899895 0.039969489 0.029659811
-0.00057952106 0.042029761 0.029575804
-0.001333043 0.04281716 0.029576182
0.0030265301 0.029464528 0.029832099
-0.00011786819 0.032667436 0.029762439
0.026323289 -0.0028751194 0.030790161
0.0050032139 0.018645182 0.030221043
0.0012322664 0.013737053 0.030686419
0.0095947683 -0.002568543 0.030811965
0.00098051131 0.0061609149 0.030614255
0.043597259 0.1003295 0.025623892
0.0020780563 0.14231251 0.024563855
0.0022895634 0.14102402 0.02512398
0.035561062 0.094828792 0.02601894
0.00084237754 0.12987065 0.025110096
-0.0019255653 0.13262048 0.025009701
0.12809476 0.00031950325 0.029068522
0.0010882467 0.12862395 0.025741963
-0.00093863159 0.13068253 0.025695343
-0.0037429333 0.13341837 0.025540326
0.00032608211 0.1169714 0.026103165
0.0012239292 0.091472842 0.027635863
-0.0015811548 0.094269961 0.027537225
0.0005877167 0.080964483 0.028137513
-0.00017284602 0.081726529 0.028113376
-0.0011504069 0.082720794 0.028093645
-0.00043106079 0.071831368 0.02813904
-9.5672905e-05 0.070513301 0.028819773
-0.0013751388 0.071841016 0.02880004
-0.00085023046 0.061243176 0.029088285
-0.0018237755 0.062206872 0.029060431
0.030088171 0.02008453 0.030441009
0.0020722002 0.038468905 0.030369926
0.035061806 -0.0037917048 0.031402618
0.0015305728 0.03010951 0.030523777
0.00073026121 0.030913755 0.030498557
-0.0015500337 0.033276305 0.030501034
-0.0023064688 0.03405562 0.030479498
0.0012988746 0.021529451 0.030870987
0.00025862455 0.022520855 0.0308167
0.0026723146 0.019307196 0.031691752
0.016612351 -0.0026865005 0.031826571
0.0014064759 0.012745425 0.031473517
0.0022582412 0.0031838864 0.03217512
0.0013787746 -0.0036887378 0.032259174
0.00060239434 -0.0028828532 0.032252036
0.15408224 0.00033465028 0.029353414
0.03583999 0.092579596 0.02733106
0.0023873597 0.1253102 0.027026899
0.026426688 0.089639999 0.027435917
0.0013045147 0.11501089 0.026764145
0.00030872971 0.11601261 0.026743691
-0.00069426745 0.11700479 0.026712982
-0.00065452605 0.10465202 0.027368164
0.10343797 -0.0015299097 0.030710675
0.00012418628 0.10290067 0.028043564
-0.0006564483 0.10368115 0.028015887
0.00022642314 0.091522746 0.028274424
-0.0010267273 0.092757918 0.028236035
0.081491865 -0.0017453581 0.030934263
-4.4591725e-05 0.079691865 0.029474879
0.0012142062 0.068295687 0.02957214
0.0002156496 0.069280244 0.029513931
0.069553941 -0.0018243417 0.031962179
0.0023061186 0.057153404 0.029884677
0.00035322458 0.059126742 0.0298525
-0.0014328435 0.060026303 0.030512625
0.031193152 0.018011741 0.031159349
0.0019465312 0.047584325 0.030386165
0.05031395 -0.0022146851 0.032348689
0.023369685 0.025008753 0.031660847
0.0019968599 0.046588816 0.031087141
9.1120601e-06 0.048671193 0.03109413
0.0041742697 0.03549771 0.031198055
0.04040923 -0.002066724 0.03282468
0.0020195991 0.036752455 0.031843834
0.0012164116 0.037565902 0.031820539
-5.7891011e-06 0.03880395 0.03179561
-0.0013225898 0.040075585 0.031709399
0.03264603 -0.0021799579 0.032096613
0.023633882 -0.0027428418 0.03297846
0.0045377314 0.016471565 0.032425709
0.015434861 -0.0023401827 0.032563623
0.00061361492 0.0040493309 0.032919396
0.0028461963 0.00088997185 0.033721015
0.0019942224 0.13714913 0.02748834
-0.0014266148 0.12816276 0.027558535
-0.0012330487 0.12696904 0.028177731
-0.0031819567 0.1289192 0.028132915
0.0013679713 0.11199306 0.028691651
0.0013821721 0.11296312 0.028055249
-0.00042796135 0.11477447 0.027997255
0.11382668 -0.0017830655 0.031520844
0.00042892992 0.10160114 0.028705072
0.00041699409 0.10064456 0.02934416
0.0025724247 0.087184533 0.029654166
0.0012970939 0.088504195 0.02965264
8.238852e-05 0.08972875 0.029611256
0.079492822 -0.0016343296 0.03221485
-1.552701e-05 0.07868287 0.030128427
0.00061742216 0.066999309 0.030948177
0.0019608662 0.055632375 0.03127699
0.049372666 -0.0021987632 0.033039164
-0.0016981065 0.049413793 0.031723112
0.018045209 0.01957877 0.032923926
0.0026757717 0.026366428 0.032801304
-0.00089921057 0.021143049 0.033058204
0.0066549629 -0.0029221922 0.033831567
0.001178816 0.0017793477 0.034471881
0.1370386 -0.00023595989 0.031670071
-0.00081957877 0.13905881 0.028077979
-0.0018332377 0.14012796 0.028094126
0.12583482 -0.0014359429 0.031490669
0.12481801 -0.0003714934 0.031489104
-0.0011841431 0.12590905 0.028810684
0.025167309 0.086968549 0.029956207
0.024170458 0.087960452 0.029930521
-0.00034234673 0.11271493 0.029289978
-0.0011350662 0.11350396 0.029257836
-0.0003651455 0.11175733 0.029924313
0.099656835 -0.00066059083 0.032516845
0.0019534454 0.098054871 0.030008398
0.0006608665 0.099403642 0.029982766
-0.0013029128 0.10138883 0.029958965
0.086026475 0.012133136 0.032842919
0.01810237 0.080728196 0.031029403
0.089392081 -0.0015289485 0.032558769
0.087947845 -0.00098862499 0.033216145
0.086428329 0.00055986643 0.033189066
-0.0022277609 0.091105126 0.030214358
0.00081821531 0.087033436 0.030941065
0.07956358 -0.0026463866 0.032900862
0.078516975 -0.0016039759 0.032866091
0.077516116 -0.0015347451 0.033528477
0.0018574521 0.07485047 0.031526662
-0.00067964196 0.077415228 0.031445008
-0.0025045276 0.080275625 0.030765098
0.067879543 -0.0020050853 0.033300579
0.067407504 -0.0015063584 0.033301793
-9.8362565e-05 0.065838173 0.032279182
0.036546804 0.019808948 0.032915741
0.035785258 0.020602919 0.032911234
0.034782909 0.021612108 0.032861155
0.029437855 0.026951224 0.032716967
-7.1004033e-06 0.056738161 0.03195297
-0.0010062829 0.05774197 0.03191375
0.057154395 -0.0019509494 0.034120083
0.043709643 0.0115472 0.033739917
0.042985357 0.012306169 0.033744354
0.042208932 0.013108447 0.033725873
0.041975178 0.013331532 0.033722721
0.039940499 0.015431568 0.033691049
0.038907677 0.016470619 0.033655994
0.038009137 0.017321579 0.033594344
0.036622204 0.018744893 0.033571713
0.033587903 0.021873459 0.033549074
0.032513887 0.022869162 0.033453632
0.023730613 0.031829514 0.033274524
0.022197217 0.033336386 0.033198178
0.021454312 0.034078643 0.033196729
0.020063445 0.035464607 0.033124864
0.015041724 0.040589027 0.033048287
0.018435247 0.028125614 0.03292653
0.0013820529 0.04540731 0.032517612
-0.00030636787 0.047144122 0.032487262
0.047189161 -0.0019023642 0.034348153
0.023834676 0.021725498 0.033751801
0.038315199 -0.0017263815 0.034234602
0.0042376146 0.032675512 0.033323269
0.00043983757 0.036560997 0.033267774
0.0037892088 0.032245271 0.034042433
0.030409187 -0.0025709495 0.034239177
0.019171014 0.0087945014 0.033946633
0.0076499432 0.019555464 0.034383908
0.0068755001 0.020346358 0.034384634
0.0040523708 0.023128629 0.034254715
0.002077654 0.025235549 0.034284066
0.00031977892 0.026946545 0.034201059
0.021550104 -0.0023802221 0.034411021
0.013064623 0.0053188056 0.034954779
0.0089856088 0.0094209164 0.034826744
0.0016513914 0.016838804 0.034635719
0.0015093833 0.017885953 0.033893332
0.00047904253 0.018926993 0.03390054
0.0040920526 0.005801782 0.035371467
0.0029017627 0.007760182 0.034505561
0.0021576583 0.008524403 0.034499865
0.0012824088 0.0085767955 0.035242733
0.00051270425 0.009385258 0.035246976
0.00037616491 0.010414958 0.034508813
0.0023278296 -0.00024522841 0.035254024
0.0011005253 0.0010135174 0.03524486
0.14760526 0.00063181669 0.032736074
0.13455811 0.00024015456 0.032833621
0.13353518 0.0012678429 0.032817669
0.13249891 0.0023729205 0.032833129
-0.00055219978 0.13667667 0.029261701
-0.0013220981 0.13748947 0.029266048
-0.0016260073 0.13781357 0.029262835
0.0013753027 0.12233207 0.029506922
-0.000879623 0.12458892 0.029447731
0.11888791 0.0026131794 0.033224579
-0.00067206472 0.1234192 0.030092878
-0.0019393116 0.12465335 0.030037757
0.089825355 0.0073469132 0.033610944
0.088837951 0.0083291456 0.033565991
0.015921503 0.081974044 0.031654295
-0.0031403154 0.10228609 0.030559899
0.080586471 0.0054676756 0.033673685
0.012568429 0.074199393 0.031904306
0.0024060458 0.084507652 0.031669445
0.085230738 -0.0001552999 0.03448895
0.082886763 0.0020784959 0.034343623
0.081912264 0.0031210259 0.034349956
0.074286796 0.010885984 0.034173045
0.012835547 0.072955176 0.032560892
0.0090299621 0.076781094 0.032482065
0.00041788816 0.085510179 0.032250095
-0.00088191032 0.086818211 0.032225028
-0.0018559545 0.087846681 0.03223893
-0.0021063089 0.088075139 0.032213207
0.074525267 0.00041879714 0.034049228
-0.00069437176 0.076458216 0.032099418
0.068974055 0.0050725639 0.03460186
0.0011864379 0.07366778 0.03288937
-0.00067082047 0.075481333 0.032772183
0.0055838525 0.059216447 0.03314805
-0.0017814562 0.066622801 0.03294855
0.054460101 -0.00026495755 0.034697488
0.046085998 0.0082807392 0.034523025
0.043781631 0.0106351 0.034479029
0.041818917 0.012562975 0.034419481
0.039709643 0.014747553 0.034371607
0.036667928 0.017773479 0.034279838
0.031282105 0.023172334 0.034097727
0.0061993375 0.048617654 0.033503253
0.0018982291 0.052912891 0.03337178
-0.00036171079 0.055230469 0.033346355
0.052973732 0.00032487512 0.035364967
0.032825768 0.01179748 0.034745745
0.013340227 0.031480588 0.034255911
-0.0002470091 0.045245379 0.033900984
-0.00094199926 0.045938164 0.033882447
0.036086939 -0.00036709011 0.034891497
0.030773871 0.0049958527 0.034765951
0.00097911805 0.035139337 0.034004871
0.00051974505 0.035587542 0.033985797
0.036739245 -0.0019111782 0.035644688
0.036449566 -0.0016282275 0.035631202
0.032587126 0.0022517219 0.035528295
0.029329821 0.0055527091 0.035451792
0.026032686 0.0088708624 0.035362016
0.010776937 0.024275959 0.034932759
0.0010620803 0.034182876 0.034766328
0.0044452548 0.02188842 0.035022642
0.0011586696 0.025277957 0.034982644
0.00040671229 0.026008755 0.034947585
0.01415284 0.0033253282 0.035707869
0.0045318604 0.013168722 0.035511561
0.0029581785 0.014644742 0.035422273
0.0017275512 0.015863121 0.035355613
0.00071707368 0.016941249 0.035366859
0.009534359 -0.00059914589 0.036225133
0.0022753775 0.0067204386 0.036028922
0.0013869852 0.0075911134 0.035984423
0.0040581673 -0.0027850717 0.03610485
0.0026533306 -0.0022139996 0.036818128
0.001881808 -0.0013996214 0.036820203
0.0007122457 0.00057664514 0.036004841
0.14012611 0.0060891807 0.033694051
0.12980533 0.0040122494 0.033322431
0.00039193034 0.13468069 0.029866105
-0.00037017465 0.13545555 0.029846117
0.13225555 0.00051359087 0.034007885
0.12656316 0.0063270181 0.033883952
0.0064868778 0.12760428 0.030713463
-0.0013531446 0.13542926 0.030439209
0.12100457 -0.00056061149 0.03387545
0.11224784 0.0083562434 0.033683475
0.0026206151 0.11907374 0.030785831
0.0013094097 0.11938866 0.031363025
-0.00014986098 0.1208472 0.03132762
-0.00043675303 0.12216666 0.030715961
-0.0016674846 0.12340593 0.030682467
0.10516483 0.0030807555 0.033915967
0.10109296 0.0071141198 0.033749051
-0.00038579106 0.10976543 0.031182924
-0.0011761785 0.11059395 0.031175356
0.10749684 -0.00019955635 0.034658305
0.00084743649 0.10754821 0.031844426
-0.00039990246 0.10878628 0.031815089
0.090109333 0.0060569495 0.034262177
0.087308213 0.0088002905 0.03412725
0.017463483 0.079401456 0.032331429
0.00071072578 0.096376568 0.031918198
-0.00056038797 0.097667322 0.031893652
-0.0018014237 0.098965682 0.031875249
0.093745768 0.0014439821 0.0350467
0.090365201 0.0047402605 0.034864001
0.01514481 0.080784 0.032914009
-0.00026711076 0.096385472 0.032548353
0.013150387 0.071687266 0.033255875
0.00067850947 0.084315419 0.032937434
-0.00056768954 0.085516259 0.032883208
0.074326217 -0.0012475848 0.035435986
0.015195318 0.058541059 0.033902816
0.013190158 0.060612246 0.03388188
0.004025355 0.06983114 0.03360074
-0.00055009872 0.074396998 0.033467852
0.054368347 0.0089284033 0.035064902
0.051349498 0.011998087 0.035005603
0.0023400262 0.061493769 0.033723496
-0.00074935704 0.064610668 0.033628337
0.06501051 -0.0018855333 0.03529989
0.063456938 -0.0011696145 0.036013782
0.058553003 0.0037679076 0.035889409
0.057509758 0.004818961 0.035845712
0.056457438 0.0059043542 0.035817172
0.054709755 0.0076249242 0.035770401
0.052927457 0.0094376802 0.035717741
0.051430792 0.010954812 0.035696074
0.010247931 0.052575335 0.034634165
0.0062079206 0.056657687 0.034520924
0.0051645115 0.057737701 0.034498617
0.0026697963 0.060269997 0.034458019
0.00084982067 0.062053621 0.0343685
0.000110358 0.062785089 0.03434277
-0.00065968186 0.06357225 0.034337927
0.054891579 -0.0015281811 0.035464626
0.044658139 0.0087963641 0.035206407
0.0009419173 0.05297029 0.034055952
-0.00012045354 0.054044969 0.034019966
0.051352598 0.0011277944 0.036093451
0.0041217059 0.048883952 0.034880728
0.003054902 0.049960949 0.034865171
0.045321137 -0.0017994195 0.035748567
0.034216329 0.0094423443 0.035484396
0.016612455 0.027217336 0.035005085
0.0090153292 0.034958027 0.034859464
-0.00012846291 0.044221163 0.034641732
0.03756877 0.0051843524 0.036295213
0.00146541 0.041638106 0.035343379
0.00070434064 0.042464584 0.035373352
0.032963559 0.00096145272 0.036242098
0.031140849 0.002835691 0.036207255
0.023326516 0.010758564 0.036040224
0.0040116459 0.030227996 0.035493795
0.0019465685 0.032319032 0.03544936
0.00865677 0.024592221 0.03631334
0.018270612 0.0070637465 0.036150865
0.0048062205 0.020678639 0.035799026
0.0015032887 0.024011552 0.035737474
0.026466131 -0.0016575605 0.036745448
0.025200948 -0.0008405894 0.037054498
0.02417089 0.00022064149 0.037029218
0.021696687 0.0027151555 0.036977731
0.019072816 0.0062251687 0.036167745
0.016835436 0.0076075345 0.036824144
0.016099468 0.0084047765 0.03684653
0.012041375 0.012493506 0.036745977
0.011271179 0.013317361 0.036753844
0.010544136 0.014065817 0.036741897
0.0097694099 0.014816448 0.036701091
0.0017723143 0.023241982 0.036053967
0.018612683 -0.0020020157 0.036593288
0.015481874 0.00030556321 0.037278831
0.012135953 0.0036679953 0.037178837
0.011361167 0.0044646263 0.037160352
0.0087060034 0.0080360621 0.03635522
0.0079198778 0.0087763965 0.036294799
0.0065137595 0.0093518794 0.037028618
0.0044407099 0.012405708 0.036286417
0.0019079596 0.01399602 0.036902562
0.0017750561 0.014957786 0.036116552
0.0056193918 0.0024904162 0.036882807
-0.029747844 -0.0004248172 0.038399637
0.14424473 0.00092741102 0.034412902
0.13249072 -0.00072750449 0.034625854
0.1297076 0.0010874197 0.035185073
0.12936038 0.0023605525 0.034477923
0.12672836 0.0040799603 0.035079192
0.00091649592 0.13221386 0.031194629
-0.00011972338 0.1331791 0.031111756
0.12394342 0.0068185851 0.034977321
0.0059789196 0.12608285 0.031928793
0.0016654953 0.13044146 0.031818524
-0.0001565069 0.13226125 0.031759903
0.11866219 -0.00029495358 0.035027813
0.1175776 0.00087847561 0.035030194
0.11585589 0.0026727021 0.035011332
0.11474833 0.0036988035 0.034915999
0.11209009 0.0064934641 0.034948654
0.11098138 0.0076180026 0.034904934
0.0033857897 0.11631589 0.032089714
-4.7571957e-05 0.11974367 0.031955186
0.10294205 0.0034017563 0.035157654
0.10064424 0.0056879893 0.03509099
0.022191584 0.084983401 0.033049032
0.021171592 0.086036824 0.03303723
0.00088568032 0.10650977 0.032489181
-0.00038858503 0.10778809 0.032454167
0.101187 0.0041800886 0.035753313
0.02224008 0.083906591 0.033675592
0.0059392452 0.10041714 0.03326365
0.0010705069 0.10533156 0.033154532
0.00036781281 0.10604437 0.033115864
-0.00037950277 0.10679606 0.03309555
0.095036417 -0.00096791983 0.035642974
0.09392713 0.00024442375 0.0356544
0.090121113 0.0030672923 0.036197904
0.086103491 0.0071896166 0.036111675
0.08503671 0.0091538653 0.035376061
0.016994454 0.077011913 0.034299493
0.016514525 0.077991463 0.033993986
0.0081492737 0.085982434 0.034100175
0.0071385652 0.086950101 0.034029953
0.0061313584 0.08797206 0.034022432
0.0050910488 0.089052811 0.034028325
0.00083560497 0.093332812 0.033895519
0.00061134249 0.093536556 0.033878274
-0.00022440404 0.094880134 0.033521991
0.084025256 -0.0008745268 0.035779666
0.082733244 0.00040885061 0.035745818
0.078691646 0.0045133978 0.035643734
0.077693686 0.0054789037 0.035597239
0.073882774 0.0093415082 0.035493173
0.072090797 0.011137538 0.035461407
0.013180248 0.07069692 0.033940919
0.0060279742 0.077868827 0.033697214
0.0052758381 0.078630477 0.033678155
0.0045941919 0.079362184 0.033712409
0.0022594929 0.081762493 0.033672109
0.080964625 0.0011265948 0.036287792
0.074198782 0.0080586299 0.036183387
0.0030600429 0.079977378 0.034338821
0.0007866621 0.082282938 0.034299165
1.6331673e-05 0.083062641 0.034275196
-0.0010277182 0.084078901 0.034211662
0.072629012 -0.00053466856 0.036019675
0.069590822 0.0026497468 0.036008678
0.066858985 0.0054030046 0.035950247
0.06581746 0.0064392015 0.035902336
0.061177008 0.011127405 0.035767175
0.0073702931 0.065472424 0.034371361
0.0065823048 0.066266194 0.034337856
0.00048230588 0.072470039 0.034196086
0.070937939 0.00030442327 0.036712017
0.06986139 0.0014349148 0.036689829
0.063314542 0.0080246329 0.036519509
0.062284067 0.0090200603 0.036460876
0.061236456 0.010098055 0.036457457
0.011006348 0.060905918 0.03516886
0.0083856806 0.063523538 0.035083037
0.0043802708 0.067560889 0.034990806
0.0018247366 0.070153259 0.0348997
0.0010822043 0.070907958 0.034890674
0.059794955 0.0014715344 0.036535449
0.055011779 0.0063917935 0.036485892
0.017429508 0.044398978 0.035524268
0.01234632 0.049530141 0.035373218
0.0067227483 0.055210114 0.03521736
0.0011754632 0.060822226 0.035089396
0.00037158281 0.061610006 0.035048835
0.052639894 -0.001145497 0.036780842
0.04961592 0.0019456521 0.036731482
0.04680001 0.0047518238 0.036631685
0.044976652 0.0066291913 0.036596999
0.036944129 0.014792919 0.036457259
0.017847613 0.034020394 0.035883877
0.010478109 0.04151696 0.035735786
0.00081302971 0.051199727 0.035427406
0.00057201087 0.051449455 0.035421267
0.051150858 -0.0006173104 0.037422676
0.043593422 0.0070963725 0.037266497
0.033682689 0.017086565 0.037014276
0.0051910058 0.045921549 0.036295526
0.0044089407 0.046720721 0.036265239
0.043709338 -0.0019943044 0.037157569
0.042741902 -0.00093197078 0.037165955
0.039676465 0.0021443963 0.037088159
0.037863292 0.0039915517 0.037021339
0.033823989 0.0080682561 0.036928281
0.03308098 0.0087732971 0.036884435
0.0091573745 0.032980584 0.036268156
0.006358698 0.035876431 0.036256783
0.0020938814 0.04015366 0.036127031
0.034316733 -0.0012592971 0.037030384
0.031531304 0.0015390962 0.036951486
0.028261587 0.0048334673 0.036859337
0.025701284 0.007416591 0.036803704
0.0072056353 0.026177302 0.036363885
0.0056487769 0.027718328 0.03627228
0.0041699857 0.029189721 0.036255557
0.0020297468 0.031333908 0.036182944
0.028376773 0.0038376078 0.037613638
0.026818484 0.0054355785 0.037571508
0.012608781 0.019741394 0.037172049
0.010790125 0.021621667 0.037171401
0.0090269446 0.023384079 0.03707768
0.0057766289 0.026721671 0.037042797
0.0021103323 0.030355081 0.036894843
0.022777408 0.0007352829 0.037731748
0.022022873 0.0015178621 0.037716407
0.019473359 0.0040850192 0.037657954
0.018729672 0.004792124 0.037614215
0.014707446 0.0089703798 0.037587598
0.013904139 0.0096939802 0.037507296
0.006754458 0.016868874 0.037272789
0.0060343742 0.017625868 0.037267804
0.0052822232 0.018412426 0.037270457
0.0028874725 0.02085571 0.037222691
0.016535789 -0.0016225725 0.0380341
0.014051124 0.00087299943 0.037968758
0.0099334419 0.0050472468 0.037869241
0.0051273704 0.009895131 0.037739966
0.0043592602 0.010732129 0.037767395
0.0035976171 0.011525452 0.03776256
0.0028582066 0.012268394 0.037737239
0.0092521459 -0.0019976795 0.037733532
0.0085178167 -0.0012578517 0.037730541
0.0036583096 0.0036398023 0.037585229
0.0019370466 0.005454123 0.037603088
0.0071120113 -0.00069600344 0.038452096
0.0063169003 0.0001424849 0.038434826
0.14371499 0.00044690818 0.035011671
0.13969138 0.0045378059 0.034917593
0.13606367 0.0082415938 0.034842912
0.13991821 0.0032915249 0.03552977
0.13700449 0.0062083155 0.035438441
0.12143357 0.0084712878 0.035585236
0.0026516318 0.12842484 0.032453038
0.00012780726 0.1309814 0.03239315
0.0036561191 0.12639618 0.033086553
0.0011466295 0.12893155 0.033031575
0.11898262 -0.0014762059 0.035742074
0.11705956 0.00040180981 0.035641324
0.11606655 0.0014423132 0.035637293
0.10918231 0.0083481967 0.035437871
0.0019019619 0.11679268 0.032678135
0.0011059046 0.11760125 0.032642551
0.11352316 0.0029952899 0.036157172
0.11244747 0.0040042847 0.036112968
0.11148906 0.0050581619 0.036133286
0.10744425 0.0090440884 0.035966359
0.0013605133 0.11633714 0.033283435
-0.00070360303 0.11841667 0.033188216
0.10342146 0.00081183016 0.036378704
0.10241321 0.0018889681 0.036379576
0.020450659 0.084767751 0.0342841
0.014567971 0.090679131 0.034115277
0.0085270777 0.096771821 0.033941977
0.097605728 0.0056822971 0.036850322
0.096591994 0.006737031 0.036827203
0.021451347 0.082694285 0.034904495
0.083371028 0.009944059 0.036054738
0.092691846 -0.00048542023 0.036925897
0.091751792 0.00052853674 0.036933497
0.0034000427 0.089787833 0.034629609
0.0020915121 0.09110754 0.034581784
0.0010745749 0.092128895 0.034553293
0.079222053 0.0019541159 0.036910523
0.078239813 0.0030464455 0.036947306
0.0094631985 0.071551092 0.035804842
0.009175472 0.072786026 0.035136648
0.0074055195 0.073653273 0.03577425
0.0015533864 0.080549434 0.034975775
0.00029675663 0.081804506 0.034944348
0.0797401 0.00046987832 0.037609756
0.012732759 0.068224795 0.035885692
0.011973083 0.069002531 0.035880744
0.0048719123 0.076116532 0.035653453
0.0026416928 0.078429244 0.035641812
0.067406893 0.0028962344 0.037269484
0.059054025 0.011361077 0.037070364
0.0095666349 0.061398707 0.03582162
0.0069250315 0.064018056 0.035710156
0.0028745458 0.068160228 0.035641707
0.0013607144 0.069665298 0.035560325
0.00011425465 0.070944428 0.035551686
0.061156347 -0.00071127713 0.037345394
0.060167246 0.00027792156 0.037301198
0.057633251 0.0018061399 0.037899852
0.056665964 0.0028672889 0.037908457
0.055336051 0.0051587224 0.037182417
0.052818269 0.0067268386 0.03778813
0.05249247 0.0080169141 0.037090328
0.051051803 0.0085191354 0.037743673
0.047974594 0.012088671 0.037318047
0.017767094 0.042187124 0.036904398
0.010205895 0.049849644 0.036717661
0.0083875954 0.051683448 0.036683582
0.0080599189 0.052867226 0.035908021
0.0039938763 0.057049863 0.035856433
0.0029859468 0.058087461 0.035836827
0.0015276894 0.058632508 0.036495939
0.0015031397 0.059564985 0.035796214
0.0019353628 0.049275167 0.036246825
0.049504891 0.00020412356 0.03813516
0.048517004 0.0012201741 0.038114954
0.047434926 0.0023057833 0.03808073
0.044649243 0.005104579 0.038001247
0.042166099 0.0076153427 0.037954122
0.041379824 0.0083982497 0.037909605
0.040606491 0.0092180148 0.037911873
0.030719012 0.019249998 0.037699558
0.014896452 0.035162546 0.037222717
0.011627138 0.038503438 0.037165925
0.0085750893 0.041590974 0.037099633
0.0072260723 0.042906635 0.037001826
0.0060092658 0.044187047 0.037021078
0.0037186295 0.047431208 0.036263749
0.0029984191 0.048160404 0.036248267
0.042346813 -0.0014301464 0.037884053
0.041048884 -0.00011985749 0.037841819
0.038211703 0.0027093962 0.037744354
0.013855711 0.027348854 0.03715045
0.010112531 0.031099297 0.037021607
0.0092747957 0.03195852 0.036990847
0.0064463317 0.034868203 0.036969658
0.0044348016 0.036873952 0.036890507
0.0031613484 0.038167253 0.036859863
0.0026443303 0.038684927 0.036848314
0.038617879 0.0014289171 0.038506389
0.035763435 0.0042813495 0.038397264
0.035009302 0.0050625801 0.03838199
0.030981623 0.0091020018 0.038285434
0.012430958 0.027928501 0.037838612
0.010170907 0.030165091 0.037739087
0.0065466315 0.033791453 0.037643917
0.032198697 -0.00089016557 0.038422257
0.031190977 9.8660588e-05 0.038391452
0.029404864 0.0019085407 0.03834391
0.022802845 0.0085776597 0.03817964
0.0093516558 0.022188365 0.037829768
0.0030740798 0.028506801 0.037679002
0.0022614598 0.02932258 0.037641663
0.023114756 -0.0004863441 0.038488902
0.020630479 0.0020437241 0.038435977
0.017336816 0.0053450465 0.038341369
0.0079220235 0.014913112 0.03813016
0.0030764788 0.019799054 0.03799301
0.023503169 -0.0017725676 0.039215017
0.021680951 9.9465251e-05 0.039180063
0.019199058 0.0026018471 0.039133955
0.018403649 0.0034415275 0.039116319
0.015112013 0.0067315698 0.039012309
0.014330432 0.0075572133 0.039009191
0.013646469 0.0082695037 0.039037079
0.011079058 0.010785058 0.038910616
0.01057367 0.0113208 0.038908385
0.0095340163 0.012433544 0.038916808
0.0088103414 0.013166964 0.038909815
0.0034329295 0.018546537 0.038718428
0.016130269 -0.0020704567 0.038776875
0.014950871 -0.0013234168 0.039119475
0.01378718 -0.00059314072 0.039465994
0.011839047 0.0022238493 0.038652718
0.01047121 0.0027394146 0.039368626
0.0084977895 0.0056512505 0.038582563
0.0077987313 0.0063752085 0.038593151
0.0070694685 0.0071547478 0.038598239
0.0049156398 0.00063233078 0.039127648
0.0031815022 0.0024155378 0.039108016
0.14021067 0.0019500926 0.036117934
0.14038783 0.00073870271 0.036718782
0.13469249 0.0065291747 0.03659559
0.12446734 0.0043998733 0.036296036
0.12542853 0.002311334 0.036870778
0.12293703 0.0049084425 0.036836661
0.12187116 0.0058737919 0.03674873
0.003900893 0.1251494 0.033717856
0.0013578609 0.12770286 0.03364167
0.0044237897 0.11227594 0.03400581
0.0013482571 0.11537179 0.033918016
0.11304702 0.0015155971 0.037444882
0.10927255 0.0053289905 0.037358336
0.0044067129 0.11128165 0.034617864
0.002916038 0.11279501 0.034592193
0.0021823347 0.11350808 0.034567531
0.0013584867 0.11435637 0.034540553
0.10373692 -0.00038529187 0.037084579
0.020507544 0.083686091 0.034922272
0.002715297 0.1017089 0.034482725
0.0019541085 0.10246523 0.034460623
0.00041151047 0.104023 0.034415632
0.098140478 0.0042995363 0.037594568
0.094858952 0.0075988621 0.037484106
0.0095627606 0.093786426 0.035271727
