# .PCD v0.7 - Point Cloud Data file format
VERSION 0.7
FIELDS x y z normal_x normal_y normal_z curvature
SIZE 4 4 4 4 4 4 4
TYPE F F F F F F F
COUNT 1 1 1 1 1 1 1
WIDTH 977
HEIGHT 1
VIEWPOINT 0 0 0 1 0 0 0
POINTS 977
DATA ascii
0.083333254 2.0127579e-18 0.011606963 0 -1 1.969196e-16 0
0.27567559 2.0213755e-18 0.011650726 0 -1 1.969196e-16 0
0.098893851 0.0031750002 0.011533318 0 1 0 0
0.11766645 0.003175 0.01169835 0 1 0 0
0.15838835 0.0031750002 0.011660991 0 1 0 0
0.19431937 0.0031749997 0.011631714 0 1 0 0
4.7828674e-09 0.0070480504 0.011618081 -1 0 0 0
0.1822028 0.047624998 0.011599901 0 -1 0 0
0.064381018 0.050799996 0.011690675 0 1 0 0
0.23041219 0.050799996 0.011579193 0 1 0 0
0.24556759 0.050799999 0.011528037 0 1 0 0
0.25220114 0.050799996 0.011727444 0 1 0 0
4.7828674e-09 0.055969153 0.01174352 -1 0 0 0
0.08858896 2.0688511e-18 0.011891817 0 -1 1.969196e-16 0
0.26650625 2.0498212e-18 0.011795178 0 -1 1.969196e-16 0
0.2011416 0.0031749997 0.011846114 0 1 0 0
0.23690927 0.0031750002 0.01176494 0 1 0 0
0.0031749953 0.026727434 0.011758948 1 0 0 0
4.7828674e-09 0.03366572 0.011945559 -1 0 0 0
0.063474193 0.047625005 0.011962082 0 -1 0 0
0.09685339 0.047625002 0.011947939 0 -1 0 0
0.14586413 0.047625002 0.011856445 0 -1 0 0
0.23168316 0.047625002 0.011822227 0 -1 0 0
0.27985883 0.050799996 0.011907501 0 1 0 0
0.0031749953 0.069839433 0.011956189 1 0 0 0
0.0015511797 0.088154703 0.011811255 -0.031218642 0.99951255 0 0
0.14617661 2.0933613e-18 0.012016284 0 -1 1.969196e-16 0
0.12964672 0.0031750002 0.01211758 0 1 0 0
0.0031749951 0.021107847 0.012167554 1 0 0 0
0.2222241 0.047625002 0.012195664 0 -1 0 0
0.24236879 0.047624998 0.012112508 0 -1 0 0
0.099941477 0.050799996 0.012142319 0 1 0 0
0.22338995 0.050799999 0.012010274 0 1 0 0
0.23368168 0.050799996 0.012130954 0 1 0 0
0.0031749955 0.077684686 0.012134187 1 0 0 0
0.17880423 0.003175 0.012392337 0 1 0 0
0.1259919 0.047625002 0.012366909 0 -1 0 0
0.22562113 0.047624998 0.012383476 0 -1 0 0
0.31787574 0.047625002 0.012297234 0 -1 0 0
0.074843802 0.050799999 0.012260193 0 1 0 0
0.13181591 0.050799999 0.012432029 0 1 0 0
0.15395349 0.050799999 0.012496765 0 1 0 0
0.22327214 0.050800003 0.0122716 0 1 0 0
0.29242533 0.050799999 0.012296131 0 1 0 0
4.7828674e-09 0.051926315 0.012319295 -1 0 0 0
0.050825391 0.066029839 0.012312246 1 0 0 0
0.047650404 0.068461671 0.012328053 -1 0 0 0
0.25215456 2.2374404e-18 0.012747949 0 -1 1.969196e-16 0
0.094562881 0.003175 0.012720613 0 1 0 0
0.099346533 0.047625002 0.012744308 0 -1 0 0
0.28221244 0.050799996 0.012723317 0 1 0 0
0.050825395 0.065008104 0.012619568 1 0 0 0
0.047650401 0.07862962 0.012581572 -1 0 0 0
0.25817031 2.2630309e-18 0.012877903 0 -1 1.969196e-16 0
0.11227705 0.0031750002 0.012979098 0 1 0 0
0.22692357 0.0031750002 0.012995141 0 1 0 0
0.23120262 0.003175 0.012800043 0 1 0 0
0.090694368 0.047625002 0.012832544 0 -1 0 0
0.26390564 0.047625005 0.012975011 0 -1 0 0
0.089139313 0.050799999 0.012804041 0 1 0 0
0.22430818 0.050799999 0.012887292 0 1 0 0
0.28113872 0.050799999 0.012866678 0 1 0 0
0.34103715 0.050799996 0.012863742 0 1 0 0
4.7828674e-09 0.073366031 0.012821227 -1 0 0 0
0.0031749955 -0.00071268762 0.013237314 1 0 0 0
0.14737055 2.3033771e-18 0.01308279 0 -1 1.969196e-16 0
0.23589401 0.003175 0.013211668 0 1 0 0
0.0031749953 0.018623466 0.013164184 1 0 0 0
4.7828674e-09 0.046077408 0.013170005 -1 0 0 0
0.16919209 0.047625002 0.013079662 0 -1 0 0
0.096955523 0.050799999 0.013077484 0 1 0 0
0.33065814 0.050799999 0.01321183 0 1 0 0
0.050825391 0.071279258 0.013186054 1 0 0 0
0.050825391 0.074004963 0.013140642 1 0 0 0
0.047650401 0.075298987 0.013095848 -1 0 0 0
0.047650401 0.086157247 0.013029808 -1 0 0 0
0.047650397 0.086910792 0.013064623 -1 0 0 0
0.10850172 2.348622e-18 0.013312553 0 -1 1.969196e-16 0
0.16567579 2.3491152e-18 0.013315057 0 -1 1.969196e-16 0
0.12577663 0.003175 0.0132966 0 1 0 0
0.3269926 0.003175 0.013346678 0 1 0 0
0.06406565 0.047624998 0.013300599 0 -1 0 0
0.30864045 0.047625002 0.013315294 0 -1 0 0
0.32738715 0.047625002 0.013288518 0 -1 0 0
0.081689686 0.050800003 0.01345405 0 1 0 0
0.24510419 0.050800003 0.013389799 0 1 0 0
0.047650401 0.072628126 0.013460428 -1 0 0 0
4.7828674e-09 0.076566674 0.013292218 -1 0 0 0
0.1129678 2.396188e-18 0.013554103 0 -1 1.969196e-16 0
0.15031575 2.4213979e-18 0.013682126 0 -1 1.969196e-16 0
0.18267912 2.4159472e-18 0.013654446 0 -1 1.969196e-16 0
0.34222424 2.4613086e-18 0.013529246 1.7906301e-18 -1 1.8369701e-16 0
4.7828674e-09 0.0011675335 0.013634339 -1 0 0 0
0.15964937 0.0031750002 0.013688121 0 1 0 0
0.34094274 0.003175 0.013749652 0 1 0 0
0.0031749951 0.04276453 0.013529412 1 0 0 0
0.21450961 0.047624998 0.013585038 0 -1 0 0
0.3556127 0.048072465 0.013525197 1 0 0 0
0.16920768 0.050800003 0.013571611 0 1 0 0
0.21777007 0.050799999 0.013709239 0 1 0 0
0.050825387 -0.00123162 0.013935112 1 0 0 0
0.28561804 2.4837041e-18 0.01399853 0 -1 1.969196e-16 0
0.32607195 2.4970438e-18 0.013881227 1.7906301e-18 -1 1.8369701e-16 0
4.7828674e-09 0.0013519218 0.0138076 -1 0 0 0
0.16441497 0.003175 0.013815958 0 1 0 0
0.07783553 0.047625002 0.013939876 0 -1 0 0
0.21314497 0.047624998 0.013752435 0 -1 0 0
0.33164486 0.047625002 0.013852514 0 -1 0 0
0.084340952 0.050799999 0.01382262 0 1 0 0
0.23813769 0.050799999 0.013961486 0 1 0 0
0.0031749953 0.066402458 0.013875528 1 0 0 0
4.7828674e-09 0.082062803 0.013773071 -1 0 0 0
0.058170125 2.509532e-18 0.014129689 0 -1 1.969196e-16 0
0.25530258 0.003175 0.01413903 0 1 0 0
4.7828674e-09 0.022402568 0.014192514 -1 0 0 0
0.075918376 0.047625005 0.014092592 0 -1 0 0
0.098161504 0.047625002 0.014123471 0 -1 0 0
0.24793448 0.047625002 0.014237491 0 -1 0 0
0.23271227 0.050799999 0.014069246 0 1 0 0
4.7828674e-09 0.073689029 0.014098851 -1 0 0 0
4.7828674e-09 -0.0013842508 0.014476388 -1 0 0 0
0.311057 2.5698868e-18 0.014424129 1.7906301e-18 -1 1.8369701e-16 0
0.3556127 0.0022038841 0.014442891 1 0 0 0
0.074281663 0.003175 0.014301593 0 1 0 0
0.16079184 0.0031750002 0.01447247 0 1 0 0
0.30306509 0.003175 0.014404617 0 1 0 0
4.7828674e-09 0.019740548 0.01433562 -1 0 0 0
0.14619546 0.047625002 0.014372814 0 -1 0 0
0.22119093 0.047625002 0.014474211 0 -1 0 0
0.3318128 0.047625002 0.014407881 0 -1 0 0
0.0031749953 0.057839304 0.014450344 1 0 0 0
4.7828674e-09 0.076997384 0.01427974 -1 0 0 0
0.047650397 0.079485312 0.014318872 -1 0 0 0
0.19680856 2.6273018e-18 0.014727751 0 -1 1.969196e-16 0
0.26876059 2.6119673e-18 0.014649878 0 -1 1.969196e-16 0
0.34923688 2.6878465e-18 0.014694102 1.7906301e-18 -1 1.8369701e-16 0
0.23501152 0.003175 0.014700755 0 1 0 0
0.2827723 0.047625002 0.014727287 0 -1 0 0
0.3021706 0.047625002 0.014534493 0 -1 0 0
0.059993345 0.050799999 0.014648858 0 1 0 0
0.087801412 0.050799999 0.014541731 0 1 0 0
0.33818808 0.050799999 0.014656173 0 1 0 0
0.094318643 2.6405611e-18 0.014795084 0 -1 1.969196e-16 0
0.33407494 2.7164913e-18 0.014997832 1.7906301e-18 -1 1.8369701e-16 0
0.230022 0.003175 0.014782023 0 1 0 0
0.24451497 0.003175 0.014916766 0 1 0 0
0.061788641 0.047625002 0.014848854 0 -1 0 0
0.18545148 0.047624998 0.014831875 0 -1 0 0
0.33235836 0.047625002 0.014945956 0 -1 0 0
0.2312154 0.050799999 0.014959351 0 1 0 0
4.7828674e-09 0.07632862 0.01496927 -1 0 0 0
0.13549672 0.0031750002 0.015016376 0 1 0 0
0.22641012 0.003175 0.015090444 0 1 0 0
0.22872303 0.003175 0.015049542 0 1 0 0
0.14818193 0.047625005 0.015104515 0 -1 0 0
0.16585419 0.050799999 0.015116024 0 1 0 0
0.093373209 2.7409612e-18 0.015304936 0 -1 1.969196e-16 0
0.10966655 2.7467231e-18 0.015334196 0 -1 1.969196e-16 0
0.24676168 2.7461828e-18 0.015331454 0 -1 1.969196e-16 0
0.25093207 2.7736079e-18 0.015470723 0 -1 1.969196e-16 0
0.093084149 0.0031749997 0.015401792 0 1 0 0
0.14979157 0.0031749997 0.015303846 0 1 0 0
0.29365867 0.003175 0.015487273 0 1 0 0
0.06749551 0.047624998 0.015367131 0 -1 0 0
0.090354659 0.047625002 0.015342532 0 -1 0 0
0.24504031 0.047624998 0.015315704 0 -1 0 0
0.2494134 0.047625005 0.015458232 0 -1 0 0
0.28941929 0.047625002 0.015323219 0 -1 0 0
0.29450971 0.047625002 0.01543552 0 -1 0 0
0.19906697 0.050799996 0.015295897 0 1 0 0
0.0031749953 0.062315829 0.01529189 1 0 0 0
0.050825391 0.073946461 0.015261119 1 0 0 0
0.067552671 2.784408e-18 0.015525568 0 -1 1.969196e-16 0
0.08547245 2.7894352e-18 0.015551099 0 -1 1.969196e-16 0
0.11493765 0.0031750002 0.015569461 0 1 0 0
0.19057083 0.003175 0.015561644 0 1 0 0
0.12718508 0.047625005 0.015677823 0 -1 0 0
0.28284898 0.047625002 0.015587216 0 -1 0 0
0.113691 0.050800003 0.015658608 0 1 0 0
0.16267589 0.050800003 0.015539503 0 1 0 0
0.18760264 0.050799996 0.015635464 0 1 0 0
0.35485744 0.050799999 0.015563452 0 1 0 0
0.050825387 0.051338516 0.015608791 1 0 0 0
0.24432655 2.8610254e-18 0.015914649 0 -1 1.969196e-16 0
0.27387568 2.8653667e-18 0.015936695 0 -1 1.969196e-16 0
0.098142192 0.047625002 0.015914559 0 -1 0 0
0.34448016 0.047625002 0.015834659 0 -1 0 0
0.080551133 0.050799999 0.015980532 0 1 0 0
0.21683978 0.050799999 0.015826767 0 1 0 0
0.21883142 0.050799999 0.015956914 0 1 0 0
0.26302564 0.050799999 0.015975108 0 1 0 0
0.26935002 0.050799999 0.015785677 0 1 0 0
0.27336204 2.8958431e-18 0.01609146 0 -1 1.969196e-16 0
0.17270799 0.003175 0.016008958 0 1 0 0
0.27805549 0.003175 0.016100273 0 1 0 0
0.24044891 0.047625005 0.016224619 0 -1 0 0
0.27385178 0.047625002 0.016207453 0 -1 0 0
0.30992034 0.047625005 0.016135089 0 -1 0 0
0.12881863 0.050799996 0.016127622 0 1 0 0
0.047650397 0.066488519 0.01611102 -1 0 0 0
0.050825391 0.073686905 0.016170939 1 0 0 0
0.050825387 0.075008713 0.01609331 1 0 0 0
0.0031749953 0.075886071 0.016217232 1 0 0 0
0.089028589 2.9599271e-18 0.016416892 0 -1 1.969196e-16 0
0.14344957 2.94438e-18 0.01633794 0 -1 1.969196e-16 0
0.19407287 2.9288309e-18 0.016258977 0 -1 1.969196e-16 0
0.19517487 2.9407102e-18 0.016319305 0 -1 1.969196e-16 0
0.34504148 3.0027297e-18 0.016449144 1.7906301e-18 -1 1.8369701e-16 0
0.07757511 0.003175 0.016485048 0 1 0 0
0.30308738 0.0031749997 0.016403429 0 1 0 0
0.30931759 0.003175 0.016375024 0 1 0 0
0.0031749953 0.0045995638 0.01648129 1 0 0 0
0.0031749953 0.030061064 0.016402204 1 0 0 0
0.047709383 0.047625002 0.016297519 0 -1 0 0
0.05959665 0.047625002 0.016342176 0 -1 0 0
0.33157414 0.047625005 0.016327685 0 -1 0 0
0.10231452 0.050799999 0.016309453 0 1 0 0
0.19341047 0.050800003 0.016459968 0 1 0 0
0.19516563 0.050799999 0.016486851 0 1 0 0
0.050825391 0.061538875 0.016305208 1 0 0 0
4.7828674e-09 0.064121351 0.016358657 -1 0 0 0
0.0031749951 0.069514528 0.0164923 1 0 0 0
0.068582743 3.0076481e-18 0.01665923 0 -1 1.969196e-16 0
0.31431684 3.0002093e-18 0.016621454 0 -1 1.969196e-16 0
0.1668148 0.0031750002 0.016559131 0 1 0 0
0.28898188 0.0031749997 0.016748399 0 1 0 0
0.24133089 0.050799999 0.016611898 0 1 0 0
0.26183066 0.050800003 0.016622389 0 1 0 0
0.33156273 0.050800003 0.016662071 0 1 0 0
0.0031749951 0.053719837 0.016722171 1 0 0 0
0.3374418 3.0731613e-18 0.016906634 1.7906301e-18 -1 1.8369701e-16 0
0.31057316 0.003175 0.016819667 0 1 0 0
0.10729431 0.047625002 0.016870178 0 -1 0 0
0.16493328 0.047625002 0.016971728 0 -1 0 0
0.2123144 0.050799999 0.016925501 0 1 0 0
0.32454634 0.050799999 0.016913792 0 1 0 0
0.12836304 3.0975213e-18 0.017115625 0 -1 1.969196e-16 0
0.18771866 3.1222395e-18 0.01724115 0 -1 1.969196e-16 0
0.20009455 3.1172597e-18 0.017215859 0 -1 1.969196e-16 0
0.080273747 0.003175 0.017035186 0 1 0 0
0.18278243 0.003175 0.01705448 0 1 0 0
0.053580839 0.047625002 0.017132388 0 -1 0 0
0.18515776 0.047625002 0.017044421 0 -1 0 0
0.30944547 0.047625002 0.017153714 0 -1 0 0
0.2048683 0.050799999 0.017147286 0 1 0 0
0.20579274 0.050799999 0.017201813 0 1 0 0
0.28268546 0.050799999 0.017236251 0 1 0 0
0.31713638 0.050799999 0.017028255 0 1 0 0
0.0031749953 0.052157 0.017231554 1 0 0 0
0.050825391 0.089643113 0.017131831 1 0 0 0
0.047650401 -0.0024788077 0.017306559 -1 0 0 0
0.29195154 3.1403416e-18 0.017333075 0 -1 1.969196e-16 0
0.32505009 3.1458971e-18 0.017361285 0 -1 1.969196e-16 0
0.077421449 0.003175 0.017361529 0 1 0 0
0.0031749953 0.0062614921 0.017305033 1 0 0 0
4.7828674e-09 0.038387805 0.017286269 -1 0 0 0
0.066480249 0.047625002 0.01725273 0 -1 0 0
0.10161449 0.047624998 0.017334117 0 -1 0 0
0.15602183 0.050800003 0.01734964 0 1 0 0
0.26213017 0.050799999 0.017266156 0 1 0 0
0.27413258 0.050799999 0.017431011 0 1 0 0
0.27982751 0.050800003 0.017363509 0 1 0 0
0.31499156 0.050799999 0.017426236 0 1 0 0
0.049725287 0.089659385 0.017252084 -0.031218644 0.99951261 0 0
0.047648385 -0.004202574 0.017599959 -0.99947912 7.4135651e-06 -0.032272626 0
0.1193355 3.1845583e-18 0.017557617 0 -1 1.969196e-16 0
0.30368528 0.0031765806 0.017585021 0 0.99971294 -0.023961192 0
0.15100765 0.047618818 0.01770464 0 -0.99884951 -0.047954816 0
0.17334005 0.047624577 0.017523576 -2.9028408e-07 -0.99988389 -0.015238037 0
0.24019632 0.047624081 0.017555006 -2.7843009e-07 -0.99971575 -0.023843313 0
0.2664887 0.047623649 0.017574344 0 -0.99976277 -0.021780739 0
0.058421683 0.050799999 0.017627766 0 1 0 0
0.23276374 0.050799999 0.01761655 0 1 0 0
0.047624309 -0.0050001922 0.017960275 -0.99430037 2.3111018e-06 -0.10661522 0
0.28437695 3.2542572e-18 0.017911563 0 -1 1.969196e-16 0
0.24716254 0.0031894515 0.01783317 -1.5076468e-08 0.99711126 -0.075955331 0
0.33892751 0.0031851807 0.017773043 7.5409062e-10 0.99785876 -0.065405346 0
0.0031909246 0.016571781 0.017851509 0.99676955 0 -0.08031524 0
0.17965974 0.047609944 0.017840808 0 -0.99674076 -0.080671467 0
0.058350999 0.050799999 0.017918373 0 1 0 0
0.078788668 0.050799996 0.017797306 0 1 0 0
0.16668247 0.050799999 0.017812952 0 1 0 0
0.2463228 0.0032188892 0.018107243 0 0.99086607 -0.13484971 0
0.33005321 0.0032127618 0.018060692 0 0.99200451 -0.12620226 0
0.122291 0.050800003 0.018192036 0 1 0 0
0.19648781 0.050799999 0.018146249 0 1 0 0
0.33606961 3.3260188e-18 0.018275984 0 -1 1.969196e-16 0
0.066854179 0.047551703 0.018294767 0 -0.984447 -0.17568208 0
0.3556127 0.049224608 0.018483607 1 0 0 0
0.061257549 0.050799999 0.018485438 0 1 0 0
0.1061504 0.050799999 0.018466292 0 1 0 0
0.142074 0.050799999 0.018489307 0 1 0 0
0.18586758 0.050800003 0.018273901 0 1 0 0
0.30485448 0.050799996 0.018346338 0 1 0 0
0.050825387 0.07349886 0.01825566 1 0 0 0
4.7828674e-09 0.074763305 0.018457053 -1 0 0 0
0.0032776734 0.076561145 0.018446039 0.97873962 0 -0.20510681 0
0.24204585 3.4184395e-18 0.018745316 0 -1 1.969196e-16 0
0.071807988 0.0033193831 0.018626228 -3.4052002e-07 0.96984982 -0.24370351 0
0.087820657 0.003322023 0.018636677 -5.3896073e-08 0.96895069 -0.24725425 0
0.10276934 0.0033119228 0.018596232 -5.3109787e-08 0.97106785 -0.23880391 0
0.24310319 0.047464333 0.018689014 0 -0.96703219 -0.25465435 0
0.35118541 0.047509447 0.018505063 0 -0.9753468 -0.22067764 0
0.3556127 0.048255801 0.018623048 1 0 0 0
0.13631697 0.050799999 0.018724596 0 1 0 0
0.1464801 0.050799999 0.01856759 0 1 0 0
4.7828674e-09 0.079919063 0.018626558 -1 0 0 0
0.14876451 3.458292e-18 0.018947696 0 -1 1.969196e-16 0
0.11388053 0.0033931667 0.018887425 -6.8218029e-08 0.95474851 -0.29741439 0
0.19404761 0.0034186458 0.018966252 -7.2617226e-08 0.9494369 -0.31395811 0
4.7828674e-09 0.022870649 0.018931834 -1 0 0 0
0.0033800597 0.038711645 0.018844901 0.95839196 1.2754949e-06 -0.28545558 0
0.0033590572 0.044603605 0.018773662 0.96176034 0 -0.27389243 0
0.050489012 0.047414303 0.018863367 0 -0.95564324 -0.2945267 0
0.32430634 0.047390811 0.018937536 -3.0197694e-07 -0.9489876 -0.31531352 0
0.33209974 0.050799999 0.018758683 0 1 0 0
0.047421828 0.08568605 0.018920198 -0.95173907 0 -0.30690852 0
0.0034425869 1.9534491e-06 0.01903636 0.94351548 -6.9292145e-07 -0.33132857 0
0.056801844 3.4883881e-18 0.019100528 0 -1 1.969196e-16 0
0.06405168 3.498967e-18 0.019154254 0 -1 1.969196e-16 0
0.069264993 3.4918226e-18 0.019117972 0 -1 1.969196e-16 0
0.079722688 3.4877798e-18 0.019097442 0 -1 1.969196e-16 0
0.095798075 3.4910661e-18 0.019114131 0 -1 1.969196e-16 0
0.16464898 3.4790894e-18 0.019053312 0 -1 1.969196e-16 0
0.16135013 0.0034629835 0.019093458 0 0.93818724 -0.34612823 0
0.11098086 0.003516874 0.019234307 -1.441058e-07 0.92920381 -0.36956775 0
0.0034339989 0.0063637504 0.019011682 0.94647288 0 -0.32278347 0
4.7828674e-09 0.015771851 0.019061809 -1 0 0 0
0.051977959 0.047343649 0.019075157 -3.0565351e-07 -0.94040424 -0.34005862 0
0.32720891 0.047309317 0.019167542 0 -0.9351266 -0.35431379 0
0.0034604268 0.088073611 0.019086465 0.94046164 0 -0.33989999 0
0.27142599 3.5577427e-18 0.019452728 0 -1 1.969196e-16 0
4.782867e-09 0.00099153433 0.019347031 -1 0 0 0
0.091800004 0.0036284612 0.019490626 -1.6529665e-07 0.90497947 -0.4254553 0
0.14501847 0.0036309257 0.01949585 -1.6529665e-07 0.90497947 -0.4254553 0
0.30361921 0.0036116154 0.019454408 0 0.9081431 -0.4186599 0
4.7828674e-09 0.022422705 0.019298704 -1 0 0 0
0.067464054 0.047192845 0.019444771 0 -0.9090634 -0.41665781 0
0.33254427 0.047249947 0.019314906 0 -0.92220467 -0.38670206 0
0.12102553 0.047272261 0.019261206 0 -0.92636007 -0.3766391 0
0.14849208 0.050799999 0.019437468 0 1 0 0
0.28699964 0.050799996 0.019448625 0 1 0 0
0.0037356811 -0.0064391326 0.019704403 0.88173699 0 -0.47174138 0
0.050825391 -0.0013935001 0.01953252 1 0 0 0
0.13489541 3.5724185e-18 0.019527256 0 -1 1.969196e-16 0
0.14439906 3.5698448e-18 0.019514184 0 -1 1.969196e-16 0
0.27574784 0.0036703681 0.019577364 0 0.89686757 -0.44229922 0
0.28949407 0.0036670759 0.019570688 0 0.89686757 -0.44229922 0
0.3146981 0.050799999 0.019517398 0 1 0 0
4.7828674e-09 0.087596036 0.019631544 -1 0 0 0
0.068382591 3.6615051e-18 0.019979656 0 -1 1.969196e-16 0
0.17120808 3.6281746e-18 0.019810397 0 -1 1.969196e-16 0
0.19607669 3.6384346e-18 0.019862499 0 -1 1.969196e-16 0
0.24110173 0.0038590471 0.01992164 0 0.85492134 -0.5187577 0
0.27341509 0.047023322 0.019779546 -2.8904188e-07 -0.87144619 -0.49049118 0
0.063495688 3.7060123e-18 0.020205673 0 -1 1.969196e-16 0
0.075342834 3.6790702e-18 0.020068856 0 -1 1.969196e-16 0
0.092129633 3.7092776e-18 0.020222256 0 -1 1.969196e-16 0
0.11745479 3.7051595e-18 0.020201342 0 -1 1.969196e-16 0
0.3556127 0.001388235 0.020136606 1 0 0 0
0.071203314 0.046884883 0.020012328 -2.8461938e-07 -0.84457177 -0.53544241 0
0.046785377 0.047073878 0.020199472 -0.81802982 0 -0.57517582 0
0.2399272 0.050799999 0.02006075 0 1 0 0
0.0040611303 0.064598277 0.020229295 0.81296349 0 -0.58231461 0
0.001595742 0.088156082 0.020198474 -0.031292558 0.99951029 -0.00017040475 0
0.1967949 0.0040822378 0.020258624 0 0.81005192 -0.58635819 0
0.31689584 0.0041910382 0.020402756 0 0.78530562 -0.61910826 0
0.34198996 0.0041541541 0.02035515 0 0.79600263 -0.60529321 0
0.35122585 0.0041968562 0.020410135 0 0.78530562 -0.61910826 0
0.071211576 0.046571072 0.020450432 -2.9183101e-07 -0.77853727 -0.62759846 0
0.16714716 0.04653303 0.020497054 0 -0.77019393 -0.63780981 0
0.2046504 0.046663839 0.020331498 0 -0.79737842 -0.60347962 0
0.24371926 0.046637606 0.020365935 0 -0.79197049 -0.6105594 0
0.28491959 0.04664769 0.020352721 0 -0.79604042 -0.6052435 0
0.16656561 0.050800003 0.02049836 0 1 0 0
0.19159107 0.050799999 0.020489531 0 1 0 0
0.19235209 0.050799996 0.020301083 0 1 0 0
0.20242834 0.050800003 0.020357138 0 1 0 0
0.0042077149 0.051104438 0.020423926 0.78386772 0 -0.62092793 0
8.308366e-07 -0.00085785193 0.020725839 -0.99979842 9.3885751e-07 0.020078436 0
0.078926899 3.7880691e-18 0.020622374 0 -1 1.969196e-16 0
4.7828674e-09 0.0038183946 0.020553043 -1 0 0 0
0.10290321 0.0043865559 0.020636156 -2.7141624e-07 0.74739194 -0.66438341 0
0.27394804 0.046434361 0.020612577 0 -0.75188774 -0.65929115 0
0.34708905 0.046357863 0.020697221 0 -0.7343049 -0.67881978 0
0.15416352 0.046509493 0.020525303 0 -0.76325369 -0.64609891 0
0.35506281 0.050799999 0.020517612 0 1 0 0
0.050825361 0.055673216 0.020657264 0.99999899 0 0.0014340759 0
0.22359437 6.8137797e-06 0.020892005 0 -0.9985128 0.054518174 0
0.30083585 0.0046651717 0.020922702 0 0.68517458 -0.72837889 0
0.32680541 0.0047321878 0.020984851 0 0.67235935 -0.74022496 0
0.064283825 0.046086002 0.020968234 0 -0.67877513 -0.73434627 0
0.12429899 0.046154957 0.020903535 0 -0.6914984 -0.72237802 0
0.27141458 0.046057068 0.020994609 0 -0.67236489 -0.74021983 0
0.32674098 0.046157721 0.020900887 0 -0.6914984 -0.72237808 0
0.28552064 0.050797522 0.020789869 0 0.99953276 0.030565931 0
0.050817922 0.067120433 0.020904005 0.99851376 0 0.054501873 0
0.19926716 1.9818721e-05 0.021071101 2.9778434e-07 -0.99560273 0.093676373 0
0.22109254 3.2999113e-05 0.021196783 0 -0.99306852 0.11753723 0
0.2417976 2.487271e-05 0.021123234 0 -0.99496883 0.10018526 0
0.25981903 3.5773981e-05 0.021220103 0 -0.99227768 0.12403664 0
0.2286943 0.0049883365 0.02120194 0 0.61910433 -0.78530878 0
0.11813381 0.045953874 0.021085311 0 -0.64609897 -0.76325369 0
0.12791047 0.045818739 0.021196358 0 -0.61911523 -0.7853002 0
0.29067299 0.045872401 0.02115323 0 -0.6327129 -0.77438647 0
0.33340886 0.045957435 0.021082263 0 -0.65279335 -0.75753605 0
0.045958456 0.046086501 0.021102924 -0.64587802 0 -0.76344067 0
0.10659603 0.04604841 0.02100246 0 -0.66590357 -0.7460379 0
0.0048670899 0.049907696 0.021103052 0.64587796 0 -0.76344067 0
0.17220116 0.050778504 0.021089397 0 0.99561155 0.093582295 0
0.29576954 0.050785411 0.021009985 0 0.99707925 0.076374322 0
0.31746408 0.050785236 0.021012122 0 0.99656433 0.082822941 0
3.0932919e-05 0.074562527 0.021179376 -0.99323118 0 0.1161548 0
0.17638011 6.1526909e-05 0.021400368 2.9763629e-07 -0.98664254 0.16290052 0
0.3288663 4.2807471e-05 0.021274295 0 -0.99086607 0.13484988 0
0.005080068 0.0047119604 0.021272514 0.59810591 0 -0.80141711 0
0.057475202 0.0050516343 0.021251053 -3.3772949e-07 0.60730243 -0.79447073 0
0.14560898 0.0051302854 0.021309681 0 0.58991295 -0.80746686 0
0.0051787938 0.011224563 0.021344597 0.57707196 0 -0.81669331 0
6.9600712e-05 0.02435334 0.021448618 -0.98582375 9.51564e-07 0.16778454 0
0.1083749 0.045432411 0.021472063 0 -0.54098409 -0.84103286 0
0.24398342 0.045388468 0.021499924 0 -0.53361189 -0.84572953 0
0.32332703 0.045390241 0.021498803 0 -0.53361189 -0.84572953 0
0.14358775 0.045671344 0.021308467 0 -0.59131706 -0.80643922 0
0.23154272 0.045507312 0.021423047 0 -0.55556875 -0.83147067 0
0.27712151 0.045738023 0.02125887 0 -0.60527873 -0.79601365 0
0.35206491 0.045641955 0.021329751 0 -0.58425277 -0.81157172 0
0.065869711 0.050721608 0.021497967 0 0.98366851 0.17998965 0
0.10542879 0.050745592 0.021355154 2.8430017e-07 0.98867851 0.1500497 0
0.18838501 0.050738994 0.021397095 0 0.9869858 0.16080761 0
0.27724719 0.050746139 0.02135152 0 0.98836344 0.15211107 0
0.087386779 0.050754897 0.021291334 0 0.99057591 0.13696499 0
0.23254117 0.050755233 0.021288782 2.9637962e-07 0.99116206 0.13265695 0
0.0053048045 0.07759206 0.021431144 0.55540305 0 -0.83158129 0
0.005516896 -0.0011072196 0.021563955 0.51143342 0 -0.85932297 0
0.11652155 8.109511e-05 0.021512575 0 -0.98285484 0.18438122 0
0.19835593 0.00012791439 0.021733683 0 -0.97338003 0.22919704 0
0.30701128 7.9249214e-05 0.021502636 0 -0.98404133 0.17794 0
0.062860399 0.0057273302 0.021681074 0 0.46441084 -0.88561994 0
0.068076842 0.0057463218 0.021690978 -4.1103249e-07 0.46059 -0.887613 0
0.23711254 0.0056603653 0.021645317 0 0.47976017 -0.87739968 0
0.0057150777 0.017649258 0.021674611 0.46565589 0 -0.88496584 0
0.0056128833 0.017922038 0.021619081 0.48855835 0 -0.87253124 0
0.19967374 0.045177415 0.021624517 0 -0.48863477 -0.87248844 0
0.27928033 0.045240406 0.021588854 0 -0.49621615 -0.86819899 0
0.090777382 0.045350295 0.021523565 0 -0.51882613 -0.85487986 0
0.061503407 0.050671697 0.021735484 0 0.97285235 0.23142664 0
0.15273875 0.050719295 0.021510428 0 0.98244905 0.18653132 0
0.20413935 0.050696563 0.021624668 0 0.9786315 0.20562197 0
0.28203183 0.050700288 0.021606714 0 0.97906125 0.20356585 0
0.045241393 0.061279155 0.021602811 -0.49644795 0 -0.86806649 0
0.0054568285 0.067059211 0.021527892 0.51854795 0 -0.8550486 0
0.045057002 0.076824382 0.021702327 -0.45779347 0 -0.88905859 0
0.045329373 0.087960884 0.021551546 -0.51111835 0 -0.85951036 0
0.22122075 0.0001432321 0.021796668 0 -0.96976554 0.24403872 0
0.054594096 0.0060479236 0.021834096 -4.3634554e-07 0.39775106 -0.9174934 0
0.16269459 0.0061833444 0.021890156 0 0.36955708 -0.92920804 0
0.32794029 0.0060256529 0.021824364 0 0.4027341 -0.915317 0
0.25305179 0.0064191404 0.021976456 0 0.32055625 -0.9472295 0
0.26206338 0.0064453743 0.02198517 0 0.31318417 -0.94969243 0
0.27133781 0.0062886975 0.02193043 0 0.3461259 -0.93818808 0
0.31098652 0.0063265814 0.021944232 0 0.33792585 -0.94117278 0
0.0059769144 0.027038626 0.021802675 0.41084185 0 -0.91170669 0
0.13103256 0.044520013 0.021927219 0 -0.34611863 -0.93819076 0
0.18114883 0.044683617 0.021863054 0 -0.37864333 -0.92554271 0
0.19240825 0.044639818 0.021880902 0 -0.370556 -0.92881012 0
0.20162071 0.044652268 0.021875881 0 -0.37864333 -0.92554271 0
0.059236906 0.050607458 0.021977939 0 0.95941257 0.28200617 0
0.1003499 0.05060127 0.021998804 2.9364432e-07 0.95819551 0.28611425 0
0.18641704 0.050630897 0.021895215 2.9194325e-07 0.96533656 0.26100844 0
0.21400718 0.050619505 0.021936085 3.037164e-07 0.96306449 0.26927087 0
0.24655414 0.050618179 0.021940807 3.037164e-07 0.96306449 0.26927087 0
0.24738829 0.050611801 0.021962933 0 0.9600457 0.27984339 0
0.28977287 0.050665703 0.021760356 0 0.97135603 0.23762883 0
0.31661266 0.050653353 0.021810051 0 0.96921283 0.24622469 0
0.016278418 -0.0061792713 0.022225 0 0 -1 0
0.020539962 -0.0059275627 0.022225 0 0 -1 0
0.027922243 -0.0056345165 0.022225 0 0 -1 0
0.033810634 -0.0051324782 0.022225 0 0 -1 0
0.020576943 -0.0048519522 0.022225 0 0 -1 0
0.040726621 -0.0046455432 0.022225 0 0 -1 0
0.0080484003 -0.002755207 0.022225 0 0 -1 0
0.018300653 -0.0027226135 0.022225 0 0 -1 0
0.029717887 -0.0016002898 0.022225 0 0 -1 0
0.032512791 -0.001748222 0.022225 0 0 -1 0
0.035418645 -0.00048908172 0.022225 0 0 -1 0
0.039340727 -0.00037900382 0.022225 0 0 -1 0
0.053297989 0.00024333359 0.022140305 2.9874485e-07 -0.94900882 0.31524953 0
0.32007641 0.00023488892 0.022114638 0 -0.94969779 0.31316793 0
0.007711865 0.0013419355 0.022219606 0.047952671 0 -0.99884963 0
0.0079169869 0.0014803268 0.022224911 0.0043489547 0 -0.99999052 0
0.031278152 0.0015166178 0.022225 0 0 -1 0
0.038507514 0.0015138846 0.022225 0 0 -1 0
0.024384324 0.0027808775 0.022225 0 0 -1 0
0.0091659641 0.0031364304 0.022225 0 0 -1 0
0.014065649 0.0036501167 0.022225 0 0 -1 0
0.015449731 0.0054881074 0.022225 0 0 -1 0
0.014968016 0.0058131455 0.022225 0 0 -1 0
0.016212715 0.006349097 0.022225 0 0 -1 0
0.17974283 0.0066133933 0.022037201 0 0.27907315 -0.96026987 0
0.2102551 0.0066645169 0.022051718 0 0.27071682 -0.96265906 0
0.27422759 0.0070282849 0.022137403 0 0.19459532 -0.98088366 0
0.06392473 0.0073754536 0.022191681 0 0.11721326 -0.99310678 0
0.17261517 0.0074220053 0.022196982 0 0.10854858 -0.99409115 0
0.34853771 0.007497624 0.022204598 0 0.091472194 -0.99580765 0
0.019624768 0.0076828063 0.022225 0 0 -1 0
0.055227391 0.0075661251 0.022210492 -5.7023158e-07 0.078401558 -0.9969219 0
0.13557847 0.0075458186 0.022208825 0 0.082543924 -0.99658746 0
0.16642667 0.0077257622 0.022220273 0 0.04795482 -0.99884951 0
0.29617116 0.007566141 0.02221049 0 0.074128389 -0.99724871 0
0.30949363 0.0075144656 0.022206144 0 0.091472194 -0.99580765 0
0.23892768 0.0079877796 0.022225 0 0 -1 0
0.35314882 0.0078915879 0.022224762 0 0.013086595 -0.99991441 0
0.036963701 0.0080731828 0.022225 0 0 -1 0
0.11396049 0.008150165 0.022225 0 0 -1 0
0.21295036 0.0080189016 0.022225 0 0 -1 0
0.33783671 0.008174493 0.022225 0 0 -1 0
0.089329146 0.0084944116 0.022225 0 0 -1 0
0.13242306 0.0084999818 0.022225 0 0 -1 0
0.14375958 0.0083947908 0.022225 0 0 -1 0
0.3523742 0.0084592896 0.022225 0 0 -1 0
0.04458515 0.0085008712 0.022225 0 0 -1 0
0.04115295 0.008776553 0.022225 0 0 -1 0
0.16781066 0.0089986669 0.022225 0 0 -1 0
0.21062396 0.0088664796 0.022225 0 0 -1 0
0.035607871 0.0090836911 0.022225 0 0 -1 0
0.10096765 0.0091441721 0.022225 0 0 -1 0
0.071133256 0.0092906617 0.022225 0 0 -1 0
0.12976073 0.0092591699 0.022225 0 0 -1 0
0.23447429 0.0092793163 0.022225 0 0 -1 0
0.33901891 0.0094095441 0.022225 0 0 -1 0
0.070966378 0.0096562067 0.022225 0 0 -1 0
0.076975338 0.0096245399 0.022225 0 0 -1 0
0.30508819 0.0096327839 0.022225 0 0 -1 0
0.21753575 0.0099073425 0.022225 0 0 -1 0
0.34270504 0.0099929804 0.022225 0 0 -1 0
0.070739754 0.010167386 0.022225 0 0 -1 0
0.0173671 0.010439164 0.022225 0 0 -1 0
0.11625123 0.010270085 0.022225 0 0 -1 0
0.13355291 0.010493038 0.022225 0 0 -1 0
0.30031303 0.010404415 0.022225 0 0 -1 0
0.072854236 0.010517508 0.022225 0 0 -1 0
0.099339247 0.010522366 0.022225 0 0 -1 0
0.10369439 0.010558651 0.022225 0 0 -1 0
0.11849259 0.010653895 0.022225 0 0 -1 0
0.12957025 0.010695049 0.022225 0 0 -1 0
0.34985128 0.010527138 0.022225 0 0 -1 0
0.014600185 0.010871422 0.022225 0 0 -1 0
0.058138598 0.010878892 0.022225 0 0 -1 0
0.092482731 0.01097087 0.022225 0 0 -1 0
0.015071481 0.011016916 0.022225 0 0 -1 0
0.20771496 0.011243274 0.022225 0 0 -1 0
0.044020697 0.011485316 0.022225 0 0 -1 0
0.25988713 0.011297066 0.022225 0 0 -1 0
0.0071438001 0.011658797 0.022158368 0.16936946 0 -0.98555267 0
0.091995701 0.011716941 0.022225 0 0 -1 0
0.018762447 0.011908227 0.022225 0 0 -1 0
0.26277494 0.01189454 0.022225 0 0 -1 0
0.036072709 0.012149618 0.022225 0 0 -1 0
0.078115672 0.012128611 0.022225 0 0 -1 0
0.15444255 0.012339951 0.022225 0 0 -1 0
0.059612244 0.012534955 0.022225 0 0 -1 0
0.13018179 0.012789769 0.022225 0 0 -1 0
0.12065582 0.013164489 0.022225 0 0 -1 0
0.13422352 0.013080537 0.022225 0 0 -1 0
0.24030741 0.013116566 0.022225 0 0 -1 0
0.25053009 0.01324998 0.022225 0 0 -1 0
0.15365663 0.01331548 0.022225 0 0 -1 0
0.27437094 0.013345424 0.022225 0 0 -1 0
0.023165803 0.013515502 0.022225 0 0 -1 0
0.15034607 0.014398543 0.022225 0 0 -1 0
0.22514623 0.014309761 0.022225 0 0 -1 0
0.18398379 0.014669152 0.022225 0 0 -1 0
0.17217191 0.014783628 0.022225 0 0 -1 0
0.19805607 0.014981924 0.022225 0 0 -1 0
0.070576966 0.015277355 0.022225 0 0 -1 0
0.077743933 0.015320878 0.022225 0 0 -1 0
0.17333387 0.01543773 0.022225 0 0 -1 0
0.2556237 0.015422584 0.022225 0 0 -1 0
0.3431116 0.015437765 0.022225 0 0 -1 0
0.35294837 0.015323909 0.022225 0 0 -1 0
0.15143451 0.015739033 0.022225 0 0 -1 0
0.195475 0.01566973 0.022225 0 0 -1 0
0.2370981 0.015697408 0.022225 0 0 -1 0
0.074311495 0.015981503 0.022225 0 0 -1 0
0.11812276 0.01592534 0.022225 0 0 -1 0
0.2311829 0.015802221 0.022225 0 0 -1 0
0.34850705 0.015841421 0.022225002 0 0 -1 0
0.012457503 0.016016001 0.022225 0 0 -1 0
0.19072497 0.016195031 0.022225 0 0 -1 0
0.29539853 0.01608395 0.022225 0 0 -1 0
0.33796537 0.016169496 0.022225002 0 0 -1 0
0.23114584 0.016690111 0.022225 0 0 -1 0
0.29943749 0.016503435 0.022225 0 0 -1 0
0.037207559 0.016775636 0.022225 0 0 -1 0
0.20739195 0.016905105 0.022225 0 0 -1 0
0.24556305 0.016793739 0.022225 0 0 -1 0
0.34421 0.016820062 0.022225002 0 0 -1 0
0.04871317 0.017004889 0.022225 0 0 -1 0
0.093852535 0.017200569 0.022225 0 0 -1 0
0.13323489 0.017154802 0.022225 0 0 -1 0
0.13390827 0.017121259 0.022225 0 0 -1 0
0.23041098 0.017150827 0.022225 0 0 -1 0
0.26373601 0.017214961 0.022225 0 0 -1 0
0.052759863 0.017335203 0.022225 0 0 -1 0
0.2164517 0.017455738 0.022225 0 0 -1 0
0.10219993 0.01767279 0.022225 0 0 -1 0
0.10956017 0.01771592 0.022225 0 0 -1 0
0.18334258 0.01762592 0.022225 0 0 -1 0
0.23690727 0.017508509 0.022225 0 0 -1 0
0.036029771 0.017796528 0.022225 0 0 -1 0
0.099974647 0.017858647 0.022225 0 0 -1 0
0.29006895 0.017793657 0.022225 0 0 -1 0
0.067550585 0.018115569 0.022225 0 0 -1 0
0.32803491 0.018235946 0.022225 0 0 -1 0
0.034285322 0.01833963 0.022225 0 0 -1 0
0.047052715 0.018443294 0.022225 0 0 -1 0
0.11541657 0.018255288 0.022225 0 0 -1 0
0.18808904 0.018405074 0.022225 0 0 -1 0
0.22701125 0.018462358 0.022225 0 0 -1 0
0.23976447 0.01834185 0.022225 0 0 -1 0
0.32628089 0.018718235 0.022225 0 0 -1 0
0.33912051 0.018568531 0.022225 0 0 -1 0
0.20195353 0.018788051 0.022225 0 0 -1 0
0.29784977 0.018997008 0.022225 0 0 -1 0
0.30732223 0.018910939 0.022225 0 0 -1 0
0.097899035 0.019057786 0.022225 0 0 -1 0
0.10587408 0.019043082 0.022225 0 0 -1 0
0.23926185 0.019236183 0.022225 0 0 -1 0
0.25345814 0.019216254 0.022225 0 0 -1 0
0.27639332 0.019058466 0.022225 0 0 -1 0
0.1948795 0.019310746 0.022225 0 0 -1 0
0.32032946 0.019389344 0.022225 0 0 -1 0
0.026722034 0.01957391 0.022225 0 0 -1 0
0.10225064 0.019625794 0.022225 0 0 -1 0
0.23987824 0.019536871 0.022225 0 0 -1 0
0.24766731 0.019587768 0.022225 0 0 -1 0
0.31990072 0.019610196 0.022225 0 0 -1 0
0.082916066 0.019965798 0.022225 0 0 -1 0
0.24635947 0.01987467 0.022225 0 0 -1 0
0.28288344 0.020140927 0.022225 0 0 -1 0
0.21798576 0.020322742 0.022225 0 0 -1 0
0.23228189 0.020347867 0.022225 0 0 -1 0
0.0190851 0.020519322 0.022225 0 0 -1 0
0.17828754 0.020555593 0.022225 0 0 -1 0
0.14779247 0.020781144 0.022225 0 0 -1 0
0.11771514 0.02105777 0.022225 0 0 -1 0
0.14180052 0.02111081 0.022225 0 0 -1 0
0.26514915 0.021108672 0.022225 0 0 -1 0
0.33216402 0.021458577 0.022225 0 0 -1 0
0.016168883 0.02169662 0.022225 0 0 -1 0
0.1348625 0.021528482 0.022225 0 0 -1 0
0.011334376 0.022240117 0.022225 0 0 -1 0
0.14916526 0.022020128 0.022225 0 0 -1 0
0.09319967 0.022302717 0.022225 0 0 -1 0
0.23438987 0.022310136 0.022225 0 0 -1 0
0.26116174 0.022335952 0.022225 0 0 -1 0
0.08823368 0.022659091 0.022225 0 0 -1 0
0.27090985 0.022713155 0.022225 0 0 -1 0
0.33594769 0.022569047 0.022225 0 0 -1 0
0.11162175 0.022847783 0.022225 0 0 -1 0
0.099956483 0.023038009 0.022225 0 0 -1 0
0.1662329 0.023257131 0.022225 0 0 -1 0
0.063762501 0.023595145 0.022225 0 0 -1 0
0.25758347 0.023607345 0.022225 0 0 -1 0
0.28864506 0.023737321 0.022225 0 0 -1 0
0.22121134 0.023766823 0.022225 0 0 -1 0
0.23768792 0.023812357 0.022225 0 0 -1 0
0.018635975 0.024165241 0.022225 0 0 -1 0
0.035572052 0.024240531 0.022225 0 0 -1 0
0.27003118 0.024022192 0.022225 0 0 -1 0
0.16641665 0.024498096 0.022225 0 0 -1 0
0.10446839 0.024710331 0.022225 0 0 -1 0
0.18104546 0.024690636 0.022225 0 0 -1 0
0.28417414 0.024676103 0.022225 0 0 -1 0
0.16150111 0.024799496 0.022225 0 0 -1 0
0.32463068 0.025049409 0.022225 0 0 -1 0
0.051834617 0.025666744 0.022225 0 0 -1 0
0.22207379 0.025723385 0.022225 0 0 -1 0
0.28873265 0.025576405 0.022225 0 0 -1 0
0.32035145 0.025603045 0.022225 0 0 -1 0
0.088739783 0.025889043 0.022225 0 0 -1 0
0.32351565 0.025905019 0.022225 0 0 -1 0
0.060072258 0.026230255 0.022225 0 0 -1 0
0.075111859 0.026028309 0.022225 0 0 -1 0
0.1878175 0.026049094 0.022225 0 0 -1 0
0.20891504 0.02607483 0.022225 0 0 -1 0
0.044591505 0.026301945 0.022225 0 0 -1 0
0.054587536 0.026476122 0.022225 0 0 -1 0
0.062478237 0.02640697 0.022225 0 0 -1 0
0.20749241 0.026295312 0.022225 0 0 -1 0
0.21723565 0.026493289 0.022225 0 0 -1 0
0.25810567 0.026429243 0.022225 0 0 -1 0
0.28270888 0.026293393 0.022225 0 0 -1 0
0.18882309 0.026689248 0.022225 0 0 -1 0
0.19696677 0.026611265 0.022225 0 0 -1 0
0.29318863 0.026653828 0.022225 0 0 -1 0
0.29818267 0.026671642 0.022225 0 0 -1 0
0.04372431 0.026905892 0.022225 0 0 -1 0
0.055668537 0.026945898 0.022225 0 0 -1 0
0.07739076 0.02695483 0.022225 0 0 -1 0
0.29483119 0.026861044 0.022225 0 0 -1 0
0.32997355 0.026824677 0.022225 0 0 -1 0
0.13823584 0.027147239 0.022225 0 0 -1 0
0.16793501 0.027165893 0.022225 0 0 -1 0
0.18731514 0.02723008 0.022225 0 0 -1 0
0.22432645 0.027178563 0.022225 0 0 -1 0
0.031120846 0.027664974 0.022225 0 0 -1 0
0.34563255 0.027717883 0.022225 0 0 -1 0
0.17336546 0.027936181 0.022225 0 0 -1 0
0.23684831 0.027853237 0.022225 0 0 -1 0
0.24587032 0.02783104 0.022225 0 0 -1 0
0.070681036 0.0280068 0.022225 0 0 -1 0
0.087740302 0.028052116 0.022225 0 0 -1 0
0.15705456 0.028278997 0.022225 0 0 -1 0
0.31050107 0.028399816 0.022225 0 0 -1 0
0.14033309 0.028738493 0.022225 0 0 -1 0
0.31056398 0.02856438 0.022225 0 0 -1 0
0.08781033 0.028884454 0.022225 0 0 -1 0
0.16791493 0.0289196 0.022225 0 0 -1 0
0.23369047 0.028750852 0.022225 0 0 -1 0
0.27581561 0.028991915 0.022225 0 0 -1 0
0.036396965 0.029496413 0.022225 0 0 -1 0
0.0071832947 0.029682508 0.02216487 0.16080663 0 -0.98698598 0
0.053065035 0.029701754 0.022225 0 0 -1 0
0.34302333 0.029672991 0.022225 0 0 -1 0
0.13679713 0.029828718 0.022225 0 0 -1 0
0.11445251 0.030118918 0.022225 0 0 -1 0
0.11936685 0.030095972 0.022225 0 0 -1 0
0.20664254 0.030121632 0.022225 0 0 -1 0
0.2541579 0.03013212 0.022225 0 0 -1 0
0.07395941 0.030385461 0.022225 0 0 -1 0
0.2025173 0.030278929 0.022225 0 0 -1 0
0.2197403 0.030297134 0.022225 0 0 -1 0
0.16101143 0.030743906 0.022225 0 0 -1 0
0.27847406 0.030723486 0.022225 0 0 -1 0
0.34970388 0.030729758 0.022225 0 0 -1 0
0.11523952 0.030932276 0.022225 0 0 -1 0
0.13950397 0.030861367 0.022225 0 0 -1 0
0.19455305 0.030919412 0.022225 0 0 -1 0
0.19699346 0.030895185 0.022225 0 0 -1 0
0.24532339 0.031125516 0.022225 0 0 -1 0
0.24657978 0.031095708 0.022225 0 0 -1 0
0.31056887 0.031089621 0.022225 0 0 -1 0
0.35362262 0.031205166 0.022225 0 0 -1 0
0.02489968 0.031446058 0.022225 0 0 -1 0
0.11206007 0.031477187 0.022225 0 0 -1 0
0.12918012 0.031286642 0.022225 0 0 -1 0
0.2159476 0.031462368 0.022225 0 0 -1 0
0.27577183 0.031517342 0.022225 0 0 -1 0
0.30909759 0.031574246 0.022225 0 0 -1 0
0.14280918 0.031984989 0.022225 0 0 -1 0
0.17573422 0.032126717 0.022224998 0 0 -1 0
0.27553266 0.03217613 0.022225 0 0 -1 0
0.33894923 0.032226034 0.022225 0 0 -1 0
0.063432947 0.03248328 0.022225 0 0 -1 0
0.068713099 0.032493182 0.022225 0 0 -1 0
0.12268703 0.03233229 0.022225 0 0 -1 0
0.12961999 0.03229988 0.022225 0 0 -1 0
0.1552853 0.032324299 0.022225 0 0 -1 0
0.034324311 0.03274237 0.022225 0 0 -1 0
0.1635803 0.0327469 0.022225 0 0 -1 0
0.30545413 0.032630339 0.022225 0 0 -1 0
0.073242188 0.032805737 0.022225 0 0 -1 0
0.25774589 0.032816768 0.022225 0 0 -1 0
0.16853333 0.033190239 0.022225 0 0 -1 0
0.31479827 0.033181485 0.022225 0 0 -1 0
0.05431629 0.033259835 0.022225 0 0 -1 0
0.09216769 0.033359148 0.022225 0 0 -1 0
0.10118573 0.033397462 0.022225 0 0 -1 0
0.27156621 0.03344325 0.022225 0 0 -1 0
0.28045395 0.033384681 0.022225 0 0 -1 0
0.24730812 0.033517092 0.022225 0 0 -1 0
0.056676619 0.033895414 0.022225 0 0 -1 0
0.21678743 0.033930819 0.022225 0 0 -1 0
0.26114896 0.033927742 0.022225 0 0 -1 0
0.033892322 0.034104761 0.022225 0 0 -1 0
0.045425158 0.034169141 0.022225 0 0 -1 0
0.081375837 0.03402783 0.022225 0 0 -1 0
0.2632376 0.034065314 0.022225 0 0 -1 0
0.27907094 0.034000661 0.022225 0 0 -1 0
0.087954849 0.034416992 0.022225 0 0 -1 0
0.10766873 0.034342479 0.022225 0 0 -1 0
0.12949839 0.034347799 0.022225 0 0 -1 0
0.10008147 0.034510035 0.022225 0 0 -1 0
0.32489771 0.034721687 0.022225 0 0 -1 0
0.12802693 0.034789138 0.022225002 0 0 -1 0
0.15791023 0.03487049 0.022225 0 0 -1 0
0.32916018 0.034970421 0.022225 0 0 -1 0
0.20716022 0.035223708 0.022225 0 0 -1 0
0.23135689 0.035079964 0.022225 0 0 -1 0
0.0099707879 0.035353772 0.022225 0 0 -1 0
0.13388635 0.035410985 0.022225 0 0 -1 0
0.25008374 0.035287824 0.022225 0 0 -1 0
0.28187692 0.03541436 0.022225 0 0 -1 0
0.0078669321 0.035595104 0.022224441 0.013081319 0 -0.99991447 0
0.15177044 0.03557298 0.022225 0 0 -1 0
0.046138801 0.03584313 0.022225 0 0 -1 0
0.055061772 0.035992205 0.022225 0 0 -1 0
0.17119472 0.035861593 0.022225 0 0 -1 0
0.21968725 0.035849977 0.022225 0 0 -1 0
0.23432055 0.035753768 0.022225 0 0 -1 0
0.075336874 0.036379527 0.022225 0 0 -1 0
0.15844905 0.036681045 0.022225 0 0 -1 0
0.29240465 0.036620397 0.022225 0 0 -1 0
0.33225074 0.036846779 0.022225 0 0 -1 0
0.090076938 0.037008233 0.022225 0 0 -1 0
0.16618764 0.037001777 0.022225 0 0 -1 0
0.18883562 0.037293669 0.022225 0 0 -1 0
0.26947778 0.037538227 0.022225 0 0 -1 0
0.19017759 0.037771333 0.022225 0 0 -1 0
0.28724703 0.037812028 0.022225 0 0 -1 0
0.069134787 0.038104288 0.022225 0 0 -1 0
0.24236156 0.038201615 0.022225 0 0 -1 0
0.29881725 0.038184214 0.022225 0 0 -1 0
0.28214327 0.038618334 0.022225 0 0 -1 0
0.31267601 0.03873118 0.022225 0 0 -1 0
0.32596868 0.038520165 0.022225 0 0 -1 0
0.3295216 0.038746376 0.022225 0 0 -1 0
0.047513846 0.038981013 0.022225 0 0 -1 0
0.30117044 0.038905021 0.022225 0 0 -1 0
0.16400462 0.03903231 0.022225 0 0 -1 0
0.2296979 0.039051283 0.022225 0 0 -1 0
0.26384011 0.039238304 0.022225 0 0 -1 0
0.0091311149 0.039255247 0.022225 0 0 -1 0
0.03482461 0.039395109 0.022225 0 0 -1 0
0.10124625 0.039333984 0.022225 0 0 -1 0
0.020685289 0.039631557 0.022225 0 0 -1 0
0.077494174 0.039551347 0.022225 0 0 -1 0
0.15976056 0.039737653 0.022225 0 0 -1 0
0.17180924 0.039634306 0.022225 0 0 -1 0
0.051658232 0.039874714 0.022225 0 0 -1 0
0.066254981 0.039843503 0.022225 0 0 -1 0
0.11362897 0.03990839 0.022225 0 0 -1 0
0.1338391 0.039980762 0.022225 0 0 -1 0
0.2651794 0.039890617 0.022225 0 0 -1 0
0.059493788 0.040193774 0.022225 0 0 -1 0
0.15488163 0.040376507 0.022225 0 0 -1 0
0.18535988 0.040408555 0.022225 0 0 -1 0
0.28587931 0.040499449 0.022225 0 0 -1 0
0.29434961 0.040398799 0.022225 0 0 -1 0
0.3084842 0.040641427 0.022225 0 0 -1 0
0.010373605 0.040806461 0.022225 0 0 -1 0
0.026113184 0.040874232 0.022225 0 0 -1 0
0.09761136 0.040884856 0.022224998 0 0 -1 0
0.16041362 0.040776618 0.022225 0 0 -1 0
0.14270182 0.041223239 0.022225 0 0 -1 0
0.23473011 0.041183051 0.022225 0 0 -1 0
0.32764399 0.041206215 0.022225 0 0 -1 0
0.3381412 0.041015971 0.022225 0 0 -1 0
0.26297343 0.041258615 0.022225 0 0 -1 0
0.041287806 0.041692518 0.022225 0 0 -1 0
0.15045713 0.041990962 0.022225 0 0 -1 0
0.28319475 0.041757345 0.022225 0 0 -1 0
0.031876393 0.042089209 0.022225 0 0 -1 0
0.077756077 0.042084347 0.022225 0 0 -1 0
0.15623878 0.042067565 0.022225 0 0 -1 0
0.34451967 0.04213503 0.022225 0 0 -1 0
0.060318992 0.042412523 0.022225 0 0 -1 0
0.31758517 0.042344563 0.022225 0 0 -1 0
0.046452869 0.042588361 0.022225 0 0 -1 0
0.14029804 0.042662971 0.022225 0 0 -1 0
0.32592383 0.042547427 0.022225 0 0 -1 0
0.19503121 0.042818438 0.022225 0 0 -1 0
0.28798449 0.042807728 0.022225 0 0 -1 0
0.023528634 0.043106101 0.022225 0 0 -1 0
0.088376991 0.043138526 0.022216953 0 -0.056691159 -0.99839181 0
0.15946932 0.043039937 0.022221658 0 -0.039259274 -0.99922907 0
0.22002076 0.043492027 0.022183182 0 -0.1348612 -0.99086452 0
0.090746082 0.043511074 0.022180591 0 -0.1348612 -0.99086452 0
0.10146454 0.043519065 0.022179501 0 -0.1348612 -0.99086452 0
0.30899045 0.043506518 0.022181211 0 -0.1348612 -0.99086452 0
0.17920974 0.043765519 0.022138584 0 -0.18647985 -0.98245883 0
0.19450481 0.043827012 0.022126269 0 -0.20364285 -0.97904527 0
0.027715985 0.044082299 0.022225 0 0 -1 0
0.12620722 0.044158805 0.022045141 0 -0.27146974 -0.96244699 0
0.016233956 0.045699734 0.022225 0 0 -1 0
0.016354343 0.046084438 0.022225 0 0 -1 0
0.023247752 0.046521474 0.022225 0 0 -1 0
0.031392369 0.047992773 0.022225 0 0 -1 0
0.021688618 0.048167847 0.022225 0 0 -1 0
0.042402111 0.050338093 0.022225 0 0 -1 0
0.079305381 0.050545219 0.022174316 0 0.9462629 0.32339838 0
0.12096481 0.050563261 0.022120275 2.8574564e-07 0.95034605 0.31119519 0
0.15873542 0.050534055 0.02220659 2.8383039e-07 0.94477695 0.32771403 0
0.19621968 0.050521728 0.022241458 0 0.94117278 0.33792585 0
0.32655889 0.050560389 0.022128966 0 0.94969136 0.31318748 0
0.023264339 0.052370518 0.022225 0 0 -1 0
0.014477147 0.052643817 0.022225 0 0 -1 0
0.03894645 0.052732877 0.022225 0 0 -1 0
0.010809843 0.053369947 0.022225 0 0 -1 0
0.035094853 0.053622708 0.022225 0 0 -1 0
0.02151522 0.05560714 0.022225 0 0 -1 0
0.029008197 0.057497915 0.022225 0 0 -1 0
0.03001802 0.057571091 0.022225 0 0 -1 0
0.040410802 0.060388055 0.022225 0 0 -1 0
0.025836241 0.061040599 0.022225 0 0 -1 0
0.028494852 0.061222877 0.022225 0 0 -1 0
0.027510274 0.061975308 0.022225 0 0 -1 0
0.011866298 0.062089719 0.022225 0 0 -1 0
0.034182519 0.062204763 0.022225 0 0 -1 0
0.038114671 0.062842943 0.022225 0 0 -1 0
0.020100547 0.063592762 0.022225 0 0 -1 0
0.020854075 0.064887203 0.022225 0 0 -1 0
0.022852097 0.064959221 0.022225 0 0 -1 0
0.033314627 0.066190816 0.022225 0 0 -1 0
0.040107295 0.066071667 0.022225 0 0 -1 0
0.01241319 0.066690862 0.022225 0 0 -1 0
0.0072726281 0.067786552 0.022178354 0.14351688 0 -0.98964792 0
0.024691317 0.068231985 0.022225 0 0 -1 0
0.03058153 0.068584189 0.022225 0 0 -1 0
0.010761864 0.06885922 0.022225 0 0 -1 0
0.030490048 0.069494173 0.022225 0 0 -1 0
0.039741877 0.069305375 0.022225 0 0 -1 0
0.04198638 0.073704317 0.022225 0 0 -1 0
0.035434444 0.073772281 0.022225 0 0 -1 0
0.028861124 0.074705191 0.022225 0 0 -1 0
0.034072004 0.07465262 0.022225 0 0 -1 0
0.018498478 0.075720102 0.022225 0 0 -1 0
0.041048188 0.075570866 0.022225 0 0 -1 0
0.025849406 0.075874582 0.022225 0 0 -1 0
0.01763067 0.076672308 0.022225 0 0 -1 0
0.012901551 0.076991275 0.022225 0 0 -1 0
0.044034436 0.077171832 0.022084909 -0.23759873 0 -0.97136343 0
0.017743826 0.078704461 0.022225 0 0 -1 0
0.034616012 0.082863398 0.022225 0 0 -1 0
0.013769181 0.083908379 0.022225 0 0 -1 0
0.030406244 0.083811596 0.022225 0 0 -1 0
0.027750183 0.085610591 0.022225 0 0 -1 0
0.0292389 0.085713819 0.022225 0 0 -1 0
0.01865055 0.086951315 0.022225 0 0 -1 0
0.020137167 0.087426037 0.022225 0 0 -1 0
0.041962739 -0.0077990899 0.022345221 -0.015615275 -0.99987811 -4.8145889e-08 0
0.037459876 -0.007728768 0.02225106 -0.015615275 -0.99987811 -4.8145889e-08 0
0.020712927 -0.007467228 0.022270303 -0.015615275 -0.99987811 -4.8145889e-08 0
0.00033710734 -0.0071201171 0.022397416 -0.92959756 1.0021386e-06 0.36857632 0
0.11284076 0.00037529381 0.022490483 2.9517653e-07 -0.92135561 0.38872084 0
0.18702523 0.050443463 0.022445437 2.901819e-07 0.92636007 0.37663916 0
0.13741136 0.00042558421 0.022605315 0 -0.91176349 0.4107157 0
0.23461515 0.00045659608 0.022672243 0 -0.90445691 0.42656499 0
0.26269144 0.0004622296 0.022684187 0 -0.90445691 0.42656499 0
0.28954041 0.00046918576 0.022698689 0 -0.9006986 0.43444464 0
0.29395217 0.00040145699 0.022551216 0 -0.91531163 0.40274647 0
0.29573807 0.00038490957 0.022513054 0 -0.91879356 0.39473847 0
0.32041037 0.00042137638 0.022595976 0 -0.91176349 0.4107157 0
0.35035127 0.00043170355 0.022618758 0 -0.90814257 0.41866106 0
0.3556127 0.020706272 0.022741096 1 0 0 0
0.3556127 0.0479974 0.022638358 1 0 0 0
0.13104379 0.050404578 0.022537496 0 0.91531706 0.4027341 0
0.2368798 0.050392758 0.022564387 2.8131851e-07 0.91614705 0.40084246 0
0.11185037 0.050219826 0.022915514 0 0.8767283 0.480986 0
0.095764324 0.050259303 0.022841493 0 0.88501346 0.46556538 0
0.12630823 0.050303668 0.022754367 0 0.8959102 0.44423524 0
0.26608807 0.00069546915 0.023115465 0 -0.85492009 0.51875973 0
0.09578675 0.00076216005 0.02322177 2.9564512e-07 -0.83986396 0.54279703 0
0.058876067 0.050042238 0.023214994 0 0.83985382 0.54281265 0
0.070625976 0.050104372 0.023115773 0 0.85379326 0.52061218 0
0.16640788 0.050161716 0.023019148 0 0.86385208 0.50374562 0
0.17965268 0.050037328 0.023222586 0 0.83985382 0.54281265 0
0.22575584 0.050097868 0.023126438 0 0.85032916 0.52625126 0
0.2315522 0.050072517 0.023167275 0 0.84574229 0.53359163 0
0.25940555 0.050130282 0.023072684 0 0.85936558 0.51136178 0
0.050136209 0.065371059 0.0231052 0.85632783 0 0.5164327 0
0.19615121 0.00089353381 0.023414599 2.9874846e-07 -0.81029797 0.58601809 0
0.22533076 0.00093412097 0.023470327 0 -0.80644655 0.59130704 0
0.23329823 0.000848094 0.023350138 0 -0.82164544 0.56999892 0
0.24642473 0.00080303452 0.023283932 0 -0.83147931 0.55555576 0
0.34636724 0.049928866 0.023383083 0 0.81662744 0.57716525 0
0.023304816 0.088834167 0.023270816 -0.031219292 0.99951255 -6.5126784e-07 0
0.0011096356 0.0084120864 0.023693282 -0.76743448 0 0.64112735 0
0.0010112486 0.012270384 0.0235717 -0.78629345 0 0.61785328 0
0.0010615215 0.015103356 0.023634844 -0.7757712 0 0.63101435 0
0.082241908 0.049708202 0.023671834 2.9310519e-07 0.77019376 0.63780999 0
0.14922041 0.049668122 0.02371964 0 0.76320952 0.64615119 0
0.335237 0.049794048 0.023564879 0 0.79068732 0.61222017 0
0.025090201 -0.0075355889 0.023819534 -0.015615294 -0.99987811 1.7510995e-07 0
0.033900887 -0.0076731867 0.023978684 -0.015615275 -0.99987811 -4.8145889e-08 0
