# .PCD v0.7 - Point Cloud Data file format
VERSION 0.7
FIELDS x y z
SIZE 4 4 4
TYPE F F F
COUNT 1 1 1
WIDTH 1340
HEIGHT 1
VIEWPOINT 0 0 0 1 0 0 0
POINTS 1340
DATA ascii
-0.15345348 -0.5821631 0.034219585
-0.15203375 -0.58213788 0.034178313
-0.14771061 -0.58217931 0.034256604
-0.14661817 -0.58219022 0.034229603
-0.14537212 -0.58216631 0.03421551
-0.14446919 -0.58214778 0.034206118
-0.12028124 -0.58218718 0.034253322
-0.11739018 -0.58219635 0.034240048
-0.1108692 -0.58217168 0.034219008
-0.10846642 -0.58217382 0.034222789
-0.10761041 -0.58217841 0.03424529
-0.20821486 -0.58157939 0.034982204
-0.18360536 -0.58155668 0.034971844
-0.18071632 -0.58158416 0.034994632
-0.17677894 -0.58156961 0.034985147
-0.17530552 -0.58158112 0.034988567
-0.14963308 -0.58157659 0.034979541
-0.13808492 -0.58158207 0.034990378
-0.13372241 -0.5815776 0.03498286
-0.13264699 -0.5815751 0.034990918
-0.12324816 -0.58155143 0.034946445
-0.11311595 -0.58155495 0.034963794
-0.11137864 -0.58155739 0.034958806
-0.11026961 -0.5815782 0.034990694
-0.10193378 -0.71189737 0.035089146
-0.10300872 -0.70154679 0.035079926
-0.10189322 -0.70154846 0.035080966
-0.10806283 -0.70081806 0.035678584
-0.10936651 -0.68257082 0.035041582
-0.10801493 -0.68181962 0.03560086
-0.10840207 -0.66453046 0.035558578
-0.1141621 -0.65671164 0.035378549
-0.11207741 -0.65672749 0.035390288
-0.10803773 -0.65671551 0.035369337
-0.1070258 -0.65669227 0.035358515
-0.10336898 -0.65669668 0.035362285
-0.11809734 -0.64897096 0.035455473
-0.11166973 -0.64892668 0.035411045
-0.10513822 -0.64895213 0.035433546
-0.10406452 -0.64894801 0.03543102
-0.11857703 -0.64119226 0.035686962
-0.11676115 -0.64120048 0.035693944
-0.11270703 -0.641954 0.035124373
-0.11060351 -0.64194757 0.035125025
-0.10773473 -0.64122736 0.035717435
-0.10670967 -0.64121634 0.035722397
-0.10463244 -0.64194417 0.035125267
-0.11428182 -0.63423544 0.035585929
-0.11317446 -0.63424444 0.035591617
-0.1121837 -0.63424224 0.03560333
-0.11108478 -0.63427454 0.035635818
-0.10994233 -0.63429654 0.035656407
-0.1088428 -0.63429433 0.035655688
-0.10671316 -0.63429445 0.035658371
-0.10595771 -0.63498443 0.035010748
-0.10979019 -0.62732458 0.035707451
-0.10766716 -0.62735224 0.035740413
-0.10654614 -0.62737644 0.035767622
-0.10541439 -0.62738633 0.035773594
-0.1204185 -0.62114626 0.035381991
-0.11963872 -0.62115663 0.035375174
-0.11354109 -0.62116373 0.035374217
-0.11583667 -0.61501789 0.035213504
-0.11477394 -0.61502433 0.035227194
-0.11373783 -0.61502272 0.035240207
-0.11264597 -0.61503464 0.035247192
-0.10829712 -0.61504346 0.035245594
-0.10646014 -0.61503291 0.035231508
-0.11015482 -0.61437166 0.035904955
-0.1068657 -0.61438328 0.035922706
-0.11712541 -0.60894424 0.035273958
-0.10930347 -0.60828274 0.035972893
-0.10819601 -0.60827219 0.035940401
-0.10714379 -0.60827106 0.035936229
-0.1336603 -0.60287672 0.035464987
-0.12763679 -0.60290205 0.035484254
-0.11022613 -0.60284323 0.035441618
-0.10908712 -0.60285985 0.035437267
-0.10660169 -0.60286909 0.035466641
-0.18056691 -0.59749091 0.035108797
-0.14734171 -0.5974974 0.035111785
-0.13648807 -0.59750819 0.035134092
-0.11190899 -0.59749889 0.035127196
-0.11074333 -0.59751314 0.035131831
-0.10753471 -0.59746945 0.035090204
-0.10641923 -0.59747565 0.035090316
-0.18390264 -0.59686732 0.035832524
-0.17154266 -0.59691131 0.035885602
-0.14203051 -0.5968554 0.035829816
-0.14124644 -0.59686017 0.035835441
-0.13867936 -0.59689319 0.035862692
-0.11558528 -0.59687328 0.035851184
-0.10938357 -0.59685439 0.035826646
-0.24492833 -0.59154981 0.035675455
-0.20906845 -0.59152746 0.03565551
-0.19648933 -0.59148616 0.035602927
-0.17806306 -0.59154177 0.035674993
-0.17257637 -0.59152687 0.035655644
-0.17114049 -0.59151787 0.035648052
-0.16504528 -0.59151345 0.035649035
-0.16178004 -0.59156471 0.035690911
-0.1490829 -0.59149915 0.035632178
-0.13002239 -0.59151971 0.035656635
-0.11699022 -0.59151083 0.035623893
-0.11506221 -0.59152609 0.035649862
-0.11296795 -0.59153724 0.035672788
-0.11073571 -0.5915516 0.035671059
-0.10673296 -0.5915311 0.035659771
-0.25062466 -0.58620358 0.035613544
-0.24665949 -0.58624482 0.035639793
-0.24123132 -0.58625364 0.035638634
-0.22056012 -0.58621556 0.035617888
-0.21807767 -0.58626896 0.035672247
-0.21329378 -0.58624452 0.035629693
-0.21258053 -0.58624113 0.035621244
-0.20251669 -0.58626193 0.035647929
-0.19821335 -0.58628929 0.035679396
-0.19597124 -0.5862835 0.035688795
-0.19092502 -0.58627027 0.035639372
-0.18489727 -0.58623737 0.035639778
-0.18190928 -0.58625621 0.035639133
-0.17975436 -0.58623242 0.035619374
-0.17648084 -0.58624971 0.035632286
-0.17549454 -0.58623892 0.035648599
-0.17434934 -0.58623874 0.035631631
-0.17144623 -0.58622152 0.035617955
-0.16671999 -0.58625352 0.035644341
-0.16128695 -0.58625025 0.035649478
-0.15914422 -0.58627141 0.035660155
-0.15477163 -0.58620602 0.035586677
-0.15266262 -0.5862332 0.035621785
-0.15152071 -0.58625007 0.035633955
-0.14717895 -0.58622038 0.03560672
-0.14504194 -0.58624667 0.03565529
-0.14219905 -0.58623838 0.035619523
-0.14112456 -0.58624506 0.035633948
-0.13852471 -0.58623087 0.035617352
-0.13454591 -0.58625305 0.035657201
-0.1273929 -0.58624691 0.035647079
-0.12660663 -0.58621031 0.035588898
-0.12555644 -0.58621007 0.035601459
-0.12015001 -0.58624625 0.035632111
-0.11723513 -0.58627588 0.035666104
-0.11544763 -0.5862003 0.03558201
-0.11360192 -0.58623314 0.035613481
-0.1124951 -0.58622503 0.035612583
-0.23783113 -0.58160442 0.035024587
-0.21718755 -0.58158982 0.035018187
-0.17862318 -0.58156842 0.035000063
-0.17245044 -0.58158875 0.035009727
-0.167327 -0.58157182 0.03500063
-0.16437986 -0.58161283 0.035009976
-0.14240631 -0.58159673 0.0350255
-0.14168324 -0.58162338 0.035042495
-0.14092393 -0.581631 0.035033952
-0.13190216 -0.58159149 0.035014901
-0.1300807 -0.58160758 0.03501853
-0.12870529 -0.58159697 0.035010703
-0.1264804 -0.58159804 0.03501197
-0.22495131 -0.58094591 0.035728145
-0.1019705 -0.70959812 0.036682524
-0.10557891 -0.70004338 0.036213286
-0.10297211 -0.70004523 0.036167301
-0.10843615 -0.69930345 0.036759179
-0.10620547 -0.6993019 0.03675602
-0.10410632 -0.69928777 0.036729895
-0.10295595 -0.69928384 0.036703166
-0.10614293 -0.68034279 0.036723986
-0.10290875 -0.68032998 0.036724757
-0.10417795 -0.67243165 0.036051791
-0.10315124 -0.67242479 0.036043476
-0.10674759 -0.67170048 0.036631722
-0.1034669 -0.67170191 0.036633767
-0.11349905 -0.6638276 0.036173187
-0.11208101 -0.66310066 0.036769476
-0.10995501 -0.66307378 0.036748257
-0.10882882 -0.66308481 0.036753464
-0.10266645 -0.66384035 0.036204699
-0.11276481 -0.65602022 0.036026713
-0.11031134 -0.65530157 0.036613688
-0.11453851 -0.64826244 0.036083914
-0.11239011 -0.64823759 0.036050133
-0.10879759 -0.64824122 0.036073234
-0.10775331 -0.64825147 0.036079444
-0.11313148 -0.6475606 0.036716234
-0.10949114 -0.64753181 0.036679704
-0.10633434 -0.64754784 0.036691103
-0.10486916 -0.64052683 0.036378227
-0.11686622 -0.63980359 0.036975298
-0.11614317 -0.63359404 0.03629858
-0.11513077 -0.63355041 0.036252365
-0.1074724 -0.63360184 0.036310691
-0.11690062 -0.63290411 0.036933105
-0.11604887 -0.62667871 0.036401518
-0.11490731 -0.62669927 0.036426894
-0.11275195 -0.62668824 0.036419112
-0.11053825 -0.62664372 0.036365576
-0.10839148 -0.62665212 0.036371604
-0.10712659 -0.619802 0.036710255
-0.11545943 -0.60761738 0.036648512
-0.11440434 -0.60760963 0.036648154
-0.19164072 -0.60223758 0.036178708
-0.1905673 -0.60223126 0.036178388
-0.13451816 -0.60220158 0.036139887
-0.13379879 -0.60222441 0.036165036
-0.11710455 -0.60224116 0.036178853
-0.11500964 -0.60223573 0.036179166
-0.1109729 -0.60220879 0.036153033
-0.10705517 -0.60159039 0.036883786
-0.18616353 -0.59622282 0.036553785
-0.18259428 -0.59623289 0.036572717
-0.17884341 -0.5962587 0.03657271
-0.14608613 -0.59623754 0.036560535
-0.14418671 -0.59623021 0.036550954
-0.14350228 -0.59622324 0.036549721
-0.14278023 -0.59621668 0.036541775
-0.14022243 -0.59625065 0.036588095
-0.11815745 -0.59622401 0.036546193
-0.1170572 -0.59623033 0.036557455
-0.11311524 -0.59625083 0.03656641
-0.24860236 -0.59090859 0.036398642
-0.24317284 -0.59094185 0.036430042
-0.24206246 -0.59090364 0.036397994
-0.24172588 -0.59088695 0.036377802
-0.2352657 -0.59087491 0.036370244
-0.21174479 -0.59090579 0.036395129
-0.20776239 -0.5909211 0.03640889
-0.20481321 -0.59091377 0.0363876
-0.17551938 -0.59092903 0.036406759
-0.17266828 -0.59090942 0.036405906
-0.16725159 -0.59091103 0.03638199
-0.15962751 -0.59094828 0.036443274
-0.15784414 -0.59087932 0.036353916
-0.15386568 -0.59092796 0.036408704
-0.14937812 -0.59088767 0.036367893
-0.13473554 -0.59092981 0.036405329
-0.13037686 -0.59093451 0.036420185
-0.1278625 -0.59090084 0.036375582
-0.12605403 -0.59091955 0.036404189
-0.10940232 -0.59093177 0.036404744
-0.24607953 -0.58563513 0.036402155
-0.23304966 -0.58558303 0.036341101
-0.22872506 -0.58566403 0.036426589
-0.22579074 -0.58560681 0.03636419
-0.2119686 -0.58563608 0.036368053
-0.19649065 -0.58567542 0.036431029
-0.18241547 -0.58564121 0.0363915
-0.1628923 -0.58560002 0.036355834
-0.13277522 -0.58567131 0.036414262
-0.11770904 -0.58567029 0.036417484
-0.10554931 -0.70884961 0.037213352
-0.10291998 -0.70886838 0.037228137
-0.10854941 -0.6890294 0.037120167
-0.10318075 -0.68904001 0.037149508
-0.10712381 -0.68828332 0.037688348
-0.10601655 -0.68830705 0.037708633
-0.10495171 -0.68830729 0.037712723
-0.10389182 -0.68830675 0.037719753
-0.10467221 -0.6796025 0.037288502
-0.10367805 -0.67959088 0.037296064
-0.10925502 -0.67096722 0.037200324
-0.10819194 -0.67098206 0.037220083
-0.10529961 -0.6709761 0.037225276
-0.10420047 -0.67096853 0.03721343
-0.1146726 -0.66238683 0.037376054
-0.10489172 -0.66237891 0.03738749
-0.10565834 -0.66163552 0.037966289
-0.11429087 -0.65455705 0.037199993
-0.10885095 -0.6545856 0.037220262
-0.10776504 -0.65457737 0.037213184
-0.11034843 -0.65386784 0.03784059
-0.10491963 -0.64683586 0.037312448
-0.1132981 -0.63915849 0.037676837
-0.11249036 -0.63986528 0.037042823
-0.11139883 -0.63985878 0.037036743
-0.10529577 -0.63913351 0.03765082
-0.11086731 -0.63219786 0.037582174
-0.1065198 -0.6322301 0.037619103
-0.11675114 -0.62600815 0.037060693
-0.11346137 -0.62602001 0.03707831
-0.11763798 -0.61916476 0.037425429
-0.11551934 -0.61917573 0.037449881
-0.11008252 -0.61918825 0.037451144
-0.11026078 -0.61304396 0.037278946
-0.1130439 -0.60695702 0.037344288
-0.13215819 -0.60096848 0.03762741
-0.11217338 -0.60095412 0.03760419
-0.18124238 -0.59561962 0.037305664
-0.18013752 -0.59561545 0.037301745
-0.16779369 -0.59559834 0.037283558
-0.14932294 -0.59565771 0.037337352
-0.14758328 -0.59561092 0.037281673
-0.11569209 -0.59561831 0.037302967
-0.25478801 -0.59032309 0.037157983
-0.24254756 -0.59033453 0.037171833
-0.21328528 -0.59030145 0.03712742
-0.20926824 -0.59028274 0.037128985
-0.20533511 -0.59032637 0.037143394
-0.19056028 -0.59025377 0.037100226
-0.18369363 -0.59029007 0.037145481
-0.15470347 -0.59029877 0.03712444
-0.15393195 -0.59031254 0.037140403
-0.1499972 -0.59029287 0.037118372
-0.14391463 -0.5902943 0.037133109
-0.13268237 -0.59031814 0.037163094
-0.12469094 -0.59031171 0.037159324
-0.12290147 -0.59031194 0.037132964
-0.11684009 -0.59027171 0.037107222
-0.11533941 -0.5903002 0.037136134
-0.23902142 -0.58969527 0.037894014
-0.23435523 -0.58967066 0.037873909
-0.1906134 -0.58967119 0.037860166
-0.18517905 -0.58968759 0.037891071
-0.15293948 -0.58970785 0.03790842
-0.13823014 -0.58967692 0.037870638
-0.23095077 -0.58505476 0.037151281
-0.22082673 -0.58500063 0.037111491
-0.21069884 -0.58502495 0.037122026
-0.13956356 -0.58502185 0.037127264
-0.12388952 -0.58503687 0.037145089
-0.23237363 -0.58496982 0.037079029
-0.172049 -0.58443546 0.03789483
-0.10691553 -0.70732683 0.038249176
-0.10328317 -0.70733923 0.038281392
-0.11289933 -0.66093528 0.03856919
-0.11928509 -0.65317136 0.038468704
-0.1110071 -0.65315992 0.038462613
-0.11397541 -0.645437 0.038590897
-0.11073285 -0.64541 0.038548607
-0.11378399 -0.631486 0.038200397
-0.11268303 -0.63148338 0.038197659
-0.1115991 -0.63149136 0.03820435
-0.10944181 -0.6315366 0.038256999
-0.10833956 -0.63154227 0.038266964
-0.11705178 -0.63084781 0.038907882
-0.11672556 -0.6308533 0.038917046
-0.11790396 -0.62466174 0.038424615
-0.19304968 -0.60570258 0.038779438
-0.13250904 -0.60568428 0.038766716
-0.1305632 -0.60571641 0.038789481
-0.12911557 -0.60571986 0.03880734
-0.12840587 -0.60571283 0.038815673
-0.14159837 -0.60034913 0.038370516
-0.13616875 -0.60033983 0.038340315
-0.17150536 -0.59501046 0.038052574
-0.16425268 -0.59501654 0.038050625
-0.17660023 -0.59433854 0.038736425
-0.17334092 -0.5943538 0.038738213
-0.16798548 -0.59432405 0.038722724
-0.16096072 -0.59496236 0.038002182
-0.14810736 -0.59437978 0.038761631
-0.14633347 -0.59435076 0.038745161
-0.14403675 -0.59498262 0.038011685
-0.25644583 -0.58909911 0.038647942
-0.24599276 -0.58907121 0.038622092
-0.23115468 -0.58911717 0.038665783
-0.17038183 -0.58906513 0.038606409
-0.12303767 -0.58907074 0.038615212
-0.10738788 -0.69551826 0.039475624
-0.10410146 -0.69551492 0.039469611
-0.11123538 -0.67740142 0.039040118
-0.15852846 -0.67665792 0.039592549
-0.18205671 -0.66800869 0.039524034
-0.17978202 -0.66879201 0.03900066
-0.10467496 -0.66804022 0.039562024
-0.10786682 -0.65946895 0.039746758
-0.1067453 -0.65947163 0.039753076
-0.11430074 -0.65242642 0.039033938
-0.10856628 -0.65244305 0.03906307
-0.11762329 -0.64470679 0.039186496
-0.11395872 -0.64472985 0.039215174
-0.11694462 -0.62396544 0.039061356
-0.11214016 -0.62398028 0.039071452
-0.13824907 -0.60504174 0.039489847
-0.13100189 -0.60504335 0.039476644
-0.18478303 -0.59904701 0.039749946
-0.14137582 -0.59906358 0.03978914
-0.13987982 -0.59969306 0.039042123
-0.13852906 -0.59905672 0.039766155
-0.17527038 -0.59372407 0.039480224
-0.16804999 -0.59369057 0.039445899
-0.16738038 -0.5937016 0.03945861
-0.14710005 -0.59372902 0.039467677
-0.11631493 -0.5937199 0.039458938
-0.15892588 -0.67516506 0.040728219
-0.18412207 -0.66728961 0.040099844
-0.18637392 -0.66656941 0.040706497
-0.18308508 -0.66655165 0.040682826
-0.11902984 -0.65102845 0.040306211
-0.12004466 -0.60976827 0.040773112
-0.13934582 -0.60440779 0.040201649
-0.1823673 -0.59841466 0.040484488
-0.14545584 -0.59839636 0.04046087
-0.14363836 -0.59840441 0.040457886
-0.14029236 -0.59844494 0.040498912
-0.1396679 -0.59842896 0.040486831
-0.13822401 -0.5984183 0.040484402
-0.13709295 -0.59842467 0.040483475
-0.17206211 -0.59310323 0.040204912
-0.16556251 -0.59311563 0.040224452
-0.16232972 -0.59314609 0.040247697
-0.16048239 -0.59311235 0.04020701
-0.15904671 -0.59307218 0.040160786
-0.14861926 -0.59314728 0.040256247
-0.1450202 -0.59310669 0.040204287
-0.17283253 -0.59248298 0.040934455
-0.17103598 -0.59251201 0.04095133
-0.16415556 -0.59251821 0.04097946
-0.1634962 -0.59251523 0.04097436
-0.16138187 -0.59250247 0.040977444
-0.15705842 -0.59246677 0.040912233
-0.15575245 -0.67440951 0.041299965
-0.1745044 -0.67366272 0.041841317
-0.18849519 -0.66514331 0.041916154
-0.18062171 -0.5977785 0.041195303
-0.17980777 -0.5977819 0.041192431
-0.14661857 -0.59777194 0.041185144
-0.14269039 -0.59776306 0.041178294
-0.14189994 -0.59777725 0.041196667
-0.16979569 -0.59188169 0.041701164
-0.16758746 -0.59182322 0.041626818
-0.16543925 -0.59185225 0.041666944
-0.17668244 -0.67294568 0.042453844
-0.17569913 -0.67217284 0.042998295
-0.18639491 -0.6643703 0.042445004
-0.1932862 -0.65655148 0.042123012
-0.12776941 -0.60841101 0.042110007
-0.13680641 -0.60780358 0.042863987
-0.13356031 -0.60779697 0.042839412
-0.13148244 -0.60781235 0.042856183
-0.12714767 -0.6077581 0.042807043
-0.18255372 -0.59650797 0.042615928
-0.1804115 -0.59649074 0.042608969
-0.14821942 -0.59649444 0.042605065
-0.17888452 -0.67221254 0.043032274
-0.17302276 -0.67220992 0.043018322
-0.17130904 -0.67220402 0.043028459
-0.17049818 -0.67221481 0.043015167
-0.1777439 -0.67148042 0.043594576
-0.17452542 -0.67142808 0.043524899
-0.18890229 -0.66364115 0.043067001
-0.18962847 -0.66287386 0.043599673
-0.19358677 -0.65510648 0.043299459
-0.11813707 -0.64673114 0.043977585
-0.13827927 -0.60116231 0.043708391
-0.13751045 -0.60117632 0.043724231
-0.13571 -0.60112256 0.043655265
-0.17610388 -0.59584993 0.043340374
-0.17106761 -0.59588462 0.043351267
-0.15840895 -0.59585583 0.043318778
-0.14290921 -0.59585011 0.043323647
-0.18064351 -0.67074561 0.044172294
-0.17997538 -0.67072028 0.044151727
-0.17166717 -0.67072898 0.044174153
-0.18285811 -0.66997021 0.044717785
-0.17892906 -0.66998386 0.044734422
-0.19032831 -0.66215754 0.044183791
-0.18715484 -0.66147876 0.044847507
-0.14053825 -0.60051721 0.044419147
-0.17796797 -0.59520191 0.044042308
-0.14329927 -0.59520352 0.044029113
-0.17989749 -0.59458321 0.044764966
-0.17872925 -0.59460431 0.044772461
-0.17373584 -0.59456879 0.044754963
-0.16764165 -0.59456342 0.044756062
-0.16320595 -0.58936584 0.044599127
-0.18174753 -0.6692512 0.045315336
-0.18727602 -0.66848773 0.045856297
-0.18396252 -0.66847247 0.045834836
-0.18067002 -0.66851842 0.045901325
-0.19183123 -0.66071796 0.045387782
-0.19077286 -0.66070718 0.045366891
-0.18785271 -0.6607188 0.045393631
-0.19361815 -0.65999311 0.045967825
-0.19254212 -0.65998709 0.04599122
-0.12055556 -0.61116141 0.045598034
-0.13800943 -0.59987587 0.045124434
-0.17453898 -0.59393758 0.045470946
-0.16042568 -0.59390932 0.045436803
-0.1593971 -0.59389895 0.045430042
-0.17210934 -0.67633456 0.046595465
-0.15833126 -0.67633963 0.046609513
-0.15548113 -0.67632627 0.046608124
-0.18504792 -0.6670174 0.046991184
-0.18287264 -0.66775054 0.046421982
-0.19514206 -0.65155822 0.046393774
-0.1336043 -0.61052871 0.046284281
-0.131788 -0.61052579 0.046295837
-0.12931183 -0.61045176 0.04622186
-0.13640343 -0.60448551 0.046274386
-0.18343453 -0.59855819 0.046532638
-0.14142613 -0.59859055 0.04656709
-0.16996728 -0.67561138 0.047179464
-0.16777262 -0.67486906 0.047750857
-0.16414604 -0.6748243 0.047692295
-0.18577553 -0.66701752 0.047005378
-0.18727636 -0.66626757 0.047570609
-0.18396465 -0.66626948 0.047565572
-0.19014344 -0.65851337 0.047129519
-0.19372252 -0.65777415 0.047708422
-0.12939546 -0.60911381 0.047565762
-0.1383256 -0.60320121 0.047701553
-0.13769923 -0.60317028 0.047677375
-0.17697763 -0.59725934 0.047921222
-0.16423595 -0.59792471 0.047234904
-0.14744386 -0.59725714 0.047916777
-0.14663987 -0.59726518 0.047919389
-0.14180633 -0.59793353 0.04725939
-0.13970073 -0.59792489 0.047226764
-0.13791484 -0.59792978 0.047244951
-0.13355011 -0.59788728 0.047172543
-0.16969314 -0.59207666 0.047671847
-0.16864441 -0.59200966 0.047603417
-0.15784217 -0.59200907 0.047598839
-0.17897095 -0.67409885 0.048288085
-0.17033939 -0.67408508 0.048268493
-0.16564047 -0.67403871 0.048208743
-0.15256917 -0.67406404 0.048253976
-0.15151119 -0.67405427 0.048243582
-0.15038149 -0.67406845 0.048242562
-0.1728781 -0.67333496 0.048840359
-0.17098495 -0.673338 0.048815742
-0.16928548 -0.67335951 0.048841927
-0.16821972 -0.67336106 0.048855949
-0.188687 -0.66555917 0.048156943
-0.18616654 -0.66553503 0.04814386
-0.18760049 -0.66479772 0.048705664
-0.1851587 -0.66478187 0.04870867
-0.19585212 -0.6562975 0.048864231
-0.19228308 -0.65632755 0.048880961
-0.19622739 -0.64939314 0.04819715
-0.13474251 -0.6025368 0.048382696
-0.13370317 -0.60252899 0.048377693
-0.13221565 -0.60254359 0.048383102
-0.17752272 -0.6726048 0.049398217
-0.17501478 -0.67255747 0.049346376
-0.16994435 -0.67259914 0.049374148
-0.17971341 -0.67184567 0.049946524
-0.17651495 -0.6718325 0.049945369
-0.19375524 -0.65554315 0.049419016
-0.1296088 -0.61380756 0.049067732
-0.1287908 -0.61380339 0.049060415
-0.12012453 -0.61380017 0.049058277
-0.13141954 -0.60718316 0.04968458
-0.14503862 -0.60120744 0.049753364
-0.14247246 -0.60124034 0.049780302
-0.17821762 -0.59595257 0.049317889
-0.14789298 -0.59597653 0.049334824
-0.16449036 -0.59014732 0.049802646
-0.16339219 -0.59015614 0.049821343
-0.17857084 -0.67110932 0.050507985
-0.19050342 -0.66254753 0.050389554
-0.19515431 -0.65410542 0.05062389
-0.19442053 -0.65482849 0.050010264
-0.12676303 -0.60645938 0.050298594
-0.14727251 -0.60054052 0.050430804
-0.13821997 -0.60057294 0.050468706
-0.17756127 -0.59530622 0.050024781
-0.14690165 -0.59532243 0.050031178
-0.14500269 -0.59531569 0.050021682
-0.17983793 -0.594684 0.050751347
-0.17690545 -0.59466791 0.050742056
-0.17075574 -0.59466958 0.05072397
-0.16062485 -0.59464151 0.050687041
-0.17178299 -0.58948183 0.050483353
-0.16642624 -0.58945251 0.050467871
-0.16209923 -0.58951658 0.050527651
-0.15877716 -0.5894593 0.050472192
-0.18140608 -0.67038375 0.051079269
-0.17754628 -0.67035556 0.051057339
-0.18042718 -0.66961467 0.051621407
-0.1797581 -0.66959769 0.05161779
-0.19085771 -0.66109198 0.051547118
-0.18837179 -0.66185856 0.051057212
-0.19743593 -0.65269041 0.051853374
-0.19554995 -0.65269202 0.051863547
-0.19748931 -0.6449846 0.051718101
-0.1322616 -0.61178595 0.051101178
-0.131575 -0.6051752 0.051708352
-0.18090595 -0.5998776 0.051124346
-0.15133181 -0.59989691 0.051126465
-0.13974722 -0.59990615 0.051150169
-0.15855926 -0.59402174 0.051433831
-0.14198519 -0.59401846 0.051436726
-0.14045589 -0.59403968 0.05146677
-0.13726269 -0.59404349 0.051461551
-0.16184762 -0.58824289 0.051956084
-0.166844 -0.67658627 0.052967247
-0.16382906 -0.67662275 0.052985515
-0.16278757 -0.67662299 0.052990828
-0.18301557 -0.66808635 0.052712642
-0.18221538 -0.66810685 0.052733537
-0.19269656 -0.66035408 0.052138031
-0.18867713 -0.66034591 0.052125186
-0.19335359 -0.65964609 0.052743018
-0.17891212 -0.59858549 0.052534744
-0.16145815 -0.59335822 0.052128512
-0.17203546 -0.59274644 0.052864607
-0.16772048 -0.59271997 0.052842181
-0.15905397 -0.59269202 0.052800905
-0.1685843 -0.67664117 0.053046878
-0.16574772 -0.67584866 0.053514484
-0.1646288 -0.67587274 0.053550422
-0.18439773 -0.6673311 0.053251311
-0.1858512 -0.66660237 0.053827208
-0.18336029 -0.66659182 0.053821843
-0.19848369 -0.65049458 0.053597663
-0.19670196 -0.65049803 0.053603224
-0.12385561 -0.61572397 0.05328472
-0.13956513 -0.60383201 0.053070258
-0.13559532 -0.60382473 0.053074241
-0.12996411 -0.60316652 0.053745516
-0.12882322 -0.60318106 0.053770062
-0.18042824 -0.59728116 0.053914629
-0.17977335 -0.59208906 0.053564291
-0.17246069 -0.5920971 0.053566474
-0.16196805 -0.59211451 0.053601012
-0.15915467 -0.59203833 0.053505033
-0.15654157 -0.59209669 0.053558547
-0.14652318 -0.59207803 0.053551439
-0.16895857 -0.67515755 0.054140933
-0.16022204 -0.67512959 0.054098845
-0.15806544 -0.67513096 0.054097727
-0.15511267 -0.67512047 0.054092441
-0.15406832 -0.6751008 0.054078288
-0.15300415 -0.67509544 0.054075763
-0.15187943 -0.675093 0.054061182
-0.15078537 -0.67512125 0.05408771
-0.17542771 -0.67437023 0.054646481
-0.17325087 -0.67437196 0.054655533
-0.1697529 -0.67437637 0.054654788
-0.16674408 -0.67433995 0.054601401
-0.16100638 -0.67435652 0.054643996
-0.1587452 -0.67438698 0.05464701
-0.15703751 -0.67435765 0.054641739
-0.1493502 -0.67436093 0.054627974
-0.18942444 -0.66515774 0.054987442
-0.18802471 -0.66585231 0.054377083
-0.18696301 -0.66511273 0.05494982
-0.18472429 -0.6658498 0.054371763
-0.19456869 -0.65738255 0.054396868
-0.19267562 -0.65741324 0.054435708
-0.1993082 -0.6497103 0.054148685
-0.20074353 -0.64212608 0.054138929
-0.19965006 -0.64143848 0.054755524
-0.17647795 -0.59661329 0.054596025
-0.14729039 -0.59661025 0.054597553
-0.16938815 -0.59081608 0.054982603
-0.16572532 -0.59080064 0.054982293
-0.15749885 -0.59077948 0.054942001
-0.17721464 -0.67357808 0.055124331
-0.17216572 -0.67360765 0.055167746
-0.15547158 -0.67363089 0.055200838
-0.15367801 -0.67360139 0.055160347
-0.1761336 -0.67283034 0.055666864
-0.17361845 -0.67284876 0.055724293
-0.17002937 -0.67287451 0.055733081
-0.15225108 -0.6728276 0.055700567
-0.14760199 -0.6728462 0.055732161
-0.14646223 -0.67286628 0.055734985
-0.1883328 -0.66437483 0.055503849
-0.19492212 -0.65587097 0.055508886
-0.19307707 -0.6559186 0.055549819
-0.20075841 -0.63996333 0.055938322
-0.13077587 -0.60772938 0.055111479
-0.16505088 -0.59598631 0.0553261
-0.14597446 -0.59529114 0.05596951
-0.16586484 -0.59014326 0.055672489
-0.16459616 -0.59082925 0.055008963
-0.16393667 -0.59082639 0.055003807
-0.16153091 -0.59016579 0.055710956
-0.17827308 -0.67212278 0.056285989
-0.17504159 -0.67208451 0.056238566
-0.17070571 -0.67210722 0.056261349
-0.14501737 -0.67209387 0.056235272
-0.18047634 -0.67134732 0.05681866
-0.17720981 -0.67135066 0.05682195
-0.17390488 -0.67135507 0.056815725
-0.188701 -0.66290522 0.056658871
-0.19522943 -0.65440738 0.056657292
-0.19352239 -0.65440613 0.056670893
-0.20003276 -0.64678794 0.056470819
-0.19821714 -0.64679462 0.056488048
-0.12413495 -0.61825264 0.056865674
-0.1230069 -0.6182394 0.056836303
-0.12193508 -0.61822796 0.056834601
-0.12906183 -0.61227089 0.056513187
-0.13808721 -0.60635173 0.056392159
-0.13340218 -0.60636377 0.056398604
-0.14709663 -0.60045195 0.05642055
-0.14008573 -0.5953297 0.056010626
-0.1807583 -0.5946306 0.056663942
-0.16480336 -0.59467483 0.056712504
-0.14167775 -0.59464163 0.056683868
-0.18328895 -0.67060792 0.057388008
-0.17939839 -0.67060173 0.057371557
-0.17824675 -0.66985399 0.057905052
-0.19126339 -0.66209197 0.05714421
-0.18766826 -0.66213667 0.057183053
-0.19199929 -0.66136128 0.057713177
-0.18908449 -0.66137081 0.057752959
-0.19777794 -0.65373737 0.05732299
-0.19591784 -0.6537115 0.057277001
-0.19415534 -0.65366769 0.057220053
-0.19675194 -0.65297931 0.057894703
-0.20088482 -0.63777691 0.057743859
-0.12913172 -0.60567266 0.057071541
-0.12838848 -0.60564935 0.057024814
-0.12621135 -0.60567844 0.057053454
-0.14208712 -0.59982657 0.057141975
-0.13951111 -0.59982264 0.057138905
-0.17928819 -0.59398907 0.057371367
-0.16927564 -0.59394813 0.057343457
-0.14283256 -0.59397471 0.057353068
-0.1845006 -0.66905606 0.058422945
-0.18150595 -0.66910493 0.058469087
-0.18046726 -0.66907817 0.058433443
-0.14184377 -0.6690672 0.058418024
-0.17940861 -0.66832572 0.058987211
-0.19379109 -0.66062224 0.0583071
-0.1927093 -0.66062957 0.058277138
-0.18979742 -0.66058832 0.058257148
-0.20003417 -0.64465815 0.058298606
-0.19824941 -0.64457619 0.058220401
-0.12305257 -0.61685646 0.05813285
-0.14726306 -0.59845948 0.058474254
-0.16674626 -0.59334046 0.058078144
-0.16131413 -0.5932833 0.058009926
-0.16092356 -0.5932883 0.058008708
-0.15808602 -0.59332472 0.058045551
-0.15733476 -0.59333038 0.058065314
-0.16206126 -0.59266913 0.058746427
-0.16905461 -0.58758205 0.058522686
-0.16970327 -0.67683172 0.059442561
-0.16793311 -0.67677414 0.059336554
-0.16570117 -0.6760515 0.059908375
-0.16490594 -0.67681324 0.059378214
-0.16384131 -0.67681879 0.059378725
-0.16056739 -0.6760667 0.059923761
-0.15949123 -0.67606801 0.059930105
-0.18549338 -0.66755223 0.05949565
-0.18259248 -0.66756678 0.059526078
-0.19232748 -0.65913111 0.05940298
-0.19880149 -0.65152383 0.059040301
-0.19710204 -0.65151519 0.059028964
-0.19523802 -0.65149367 0.059005786
-0.12349381 -0.61548698 0.059436202
-0.12972583 -0.60950488 0.05911335
-0.12637091 -0.60884207 0.059789754
-0.12528877 -0.60885423 0.059806563
-0.12242721 -0.60886264 0.059799269
-0.17373528 -0.59717548 0.05988121
-0.1705465 -0.59711367 0.059830207
-0.14919695 -0.59713596 0.059837222
-0.14884758 -0.59779328 0.059153128
-0.13615143 -0.59715003 0.059860688
-0.13506114 -0.59710693 0.059795093
-0.15784657 -0.59200233 0.05942408
-0.17003261 -0.67532194 0.060484644
-0.16455017 -0.67527622 0.060422674
-0.16345227 -0.67528242 0.060431886
-0.16238753 -0.67528552 0.06044694
-0.16128276 -0.67529821 0.06044776
-0.15626763 -0.6752913 0.060456093
-0.15303817 -0.67526186 0.06042853
-0.15188813 -0.67528749 0.060423601
-0.15083221 -0.67528933 0.060436349
-0.17074241 -0.67456061 0.060998276
-0.16787051 -0.67451978 0.060980253
-0.16612825 -0.67448741 0.060936037
-0.15812901 -0.67452431 0.060978364
-0.15697913 -0.67453516 0.06098555
-0.15301076 -0.67449981 0.060949292
-0.14943233 -0.67451853 0.060979139
-0.14832987 -0.67453462 0.060989715
-0.18911669 -0.66605407 0.060586922
-0.18773121 -0.66679817 0.060051478
-0.18657474 -0.66605204 0.060600821
-0.18441831 -0.66678357 0.060030185
-0.1992266 -0.65001136 0.060152773
-0.19743003 -0.65004075 0.060176093
-0.2015347 -0.64167833 0.060582325
-0.14055748 -0.60230386 0.06040312
-0.13845308 -0.60227722 0.060391244
-0.14386635 -0.59645957 0.060512517
-0.1423101 -0.59648567 0.0605575
-0.14198522 -0.59648442 0.060555711
-0.16370706 -0.59138167 0.060163051
-0.16378534 -0.59071839 0.060853723
-0.1583906 -0.59066343 0.060789872
-0.17400345 -0.67377001 0.061520554
-0.15042602 -0.67376047 0.061488863
-0.14576121 -0.67376924 0.06148123
-0.18547969 -0.66529673 0.061128721
-0.18769604 -0.66453081 0.061679363
-0.19337808 -0.65689456 0.061067924
-0.19781649 -0.64854425 0.061300647
-0.19859214 -0.64777929 0.061851103
-0.12729529 -0.61338323 0.061344478
-0.17133793 -0.59575933 0.061165016
-0.14314857 -0.59579402 0.061195567
-0.16016552 -0.5900045 0.061489597
-0.15909779 -0.58999765 0.061460067
-0.17281948 -0.67301852 0.062034525
-0.1710908 -0.67300427 0.062029127
-0.16933279 -0.67302746 0.062059954
-0.16816238 -0.67303962 0.062068004
-0.17934985 -0.6722545 0.062576003
-0.17801957 -0.67297632 0.062017333
-0.17682827 -0.67220998 0.062500894
-0.17432562 -0.67224836 0.062579177
-0.15113422 -0.67298806 0.062003102
-0.1490138 -0.67299366 0.062024571
-0.14614189 -0.67223215 0.062538438
-0.18980947 -0.66306365 0.062817015
-0.18799718 -0.66302949 0.06275668
-0.19380823 -0.65537488 0.062166385
-0.19627702 -0.65461344 0.06270843
-0.19898276 -0.6462732 0.062969014
-0.20122288 -0.63875705 0.062923074
-0.13023785 -0.60028291 0.062403843
-0.12841687 -0.60029471 0.062428538
-0.15875214 -0.59447539 0.062557518
-0.14575581 -0.59445661 0.062540956
-0.17825283 -0.67149287 0.063100316
-0.17574345 -0.67144656 0.063048661
-0.17723425 -0.67070508 0.063618191
-0.17464601 -0.67070717 0.063603468
-0.19226402 -0.66225785 0.063280709
-0.19304095 -0.66151488 0.063835621
-0.19012074 -0.66152537 0.063862473
-0.19482142 -0.65311247 0.063797638
-0.20221123 -0.64558262 0.063589185
-0.20036699 -0.6455583 0.063543305
-0.12070154 -0.62385952 0.063585319
-0.12888725 -0.61720651 0.063630156
-0.12518904 -0.61130464 0.063263111
-0.12481438 -0.61129862 0.06325984
-0.12339649 -0.61130071 0.06325753
-0.14147323 -0.60475194 0.063741654
-0.13682881 -0.60473871 0.063741602
-0.12851426 -0.60468942 0.063666217
-0.18524665 -0.59958935 0.063075572
-0.14760038 -0.5995658 0.06303896
-0.14186236 -0.59959561 0.063074313
-0.13202155 -0.59959829 0.063070275
-0.14365958 -0.59892297 0.063762844
-0.14079148 -0.59891576 0.063741647
-0.1386079 -0.59892339 0.063747242
-0.16786078 -0.5938198 0.063258119
-0.16463284 -0.5938313 0.063272186
-0.16321391 -0.59313893 0.063928053
-0.18290474 -0.66920406 0.064703465
-0.18148506 -0.66920447 0.064679295
-0.18005836 -0.66995549 0.064147025
-0.17927742 -0.66996682 0.064151816
-0.19442558 -0.66001421 0.064959034
-0.19156426 -0.66000038 0.06491179
-0.19086577 -0.66073197 0.064354122
-0.19740404 -0.65242487 0.064445883
-0.19554362 -0.65237242 0.06438271
-0.20069093 -0.64412862 0.064753115
-0.19930668 -0.64479792 0.064092956
-0.12962301 -0.60988909 0.06451381
-0.12741897 -0.60988694 0.064522542
-0.13113397 -0.60407317 0.06440074
-0.1487955 -0.59822744 0.064386889
-0.13577534 -0.59820092 0.064345792
-0.16946988 -0.59242785 0.064565212
-0.1661521 -0.59249288 0.064634904
-0.1485121 -0.59246081 0.064580426
-0.16311668 -0.67688441 0.065741621
-0.1850888 -0.66841394 0.065180622
-0.18172938 -0.66846216 0.065221168
-0.18044247 -0.66842431 0.065203205
-0.1840491 -0.66764557 0.065712348
-0.13878465 -0.66766703 0.065717436
-0.19235854 -0.65924841 0.065469086
-0.19780011 -0.65092379 0.065555096
-0.20216839 -0.64335811 0.065280885
-0.1996783 -0.64337039 0.065291896
-0.20164287 -0.63581675 0.06526164
-0.20092659 -0.63584042 0.065288283
-0.12139396 -0.61506253 0.065491013
-0.12032863 -0.61505693 0.065482847
-0.14962097 -0.5975492 0.06505274
-0.14268799 -0.59757835 0.065108441
-0.16729835 -0.59180319 0.065289274
-0.16309053 -0.59114748 0.065992825
-0.16295882 -0.59182113 0.065315738
-0.16186599 -0.59177095 0.065251589
-0.16078354 -0.59176219 0.065225519
-0.15975302 -0.59175313 0.065220118
-0.16159604 -0.67613053 0.066255301
-0.16053613 -0.67612374 0.066244297
-0.15652072 -0.67610514 0.066231914
-0.15546925 -0.67609376 0.066233404
-0.16816275 -0.67529899 0.066700697
-0.16630492 -0.67533594 0.066741109
-0.16446355 -0.67533237 0.066734008
-0.16342233 -0.67533261 0.066739358
-0.15723181 -0.67536253 0.066778652
-0.148592 -0.67533946 0.066742964
-0.18832985 -0.66612816 0.066771969
-0.18614545 -0.66688669 0.066237055
-0.18504696 -0.66611242 0.06674926
-0.18173575 -0.66615248 0.066814676
-0.19302484 -0.65849084 0.066016003
-0.19366992 -0.65776634 0.066591971
-0.19084737 -0.6577341 0.066546977
-0.19843408 -0.65018624 0.066121869
-0.20042716 -0.64188111 0.066439018
-0.12686075 -0.61368686 0.066766933
-0.14205998 -0.60199511 0.066354781
-0.14128089 -0.60199893 0.066346399
-0.13985208 -0.60199976 0.06635087
-0.13702647 -0.60126495 0.066952683
-0.13588205 -0.60199219 0.066354834
-0.13407122 -0.60198832 0.066350646
-0.13162118 -0.60129899 0.066984229
-0.14641289 -0.59618193 0.066374213
-0.17179988 -0.59048253 0.066659972
-0.16454634 -0.59048802 0.066657916
-0.17349064 -0.67457491 0.067263715
-0.17178875 -0.67459559 0.067290179
-0.16883911 -0.67457891 0.067307614
-0.16709927 -0.67452556 0.067228377
-0.16525063 -0.67456681 0.067269191
-0.15905645 -0.67458093 0.067274563
-0.15803525 -0.67456639 0.067286558
-0.17500524 -0.67380011 0.067800865
-0.16956896 -0.67383623 0.067830242
-0.16772333 -0.67377537 0.067748606
-0.1659905 -0.67377311 0.067746177
-0.16198666 -0.67379147 0.067791231
-0.16083361 -0.67380929 0.067788288
-0.15572461 -0.67379999 0.067781761
-0.15467997 -0.67378038 0.067767724
-0.15361607 -0.6737749 0.067765109
-0.15249157 -0.67377293 0.067750655
-0.15139769 -0.67380071 0.06777706
-0.1489502 -0.67380214 0.067801684
-0.18730396 -0.66535169 0.067293324
-0.18865049 -0.66460264 0.067816772
-0.18611492 -0.6646049 0.06782338
-0.19590056 -0.65618318 0.067586794
-0.19444399 -0.65699106 0.067091823
-0.19881299 -0.64867949 0.067213893
-0.2018179 -0.64038241 0.067542441
-0.11617137 -0.62622762 0.067316435
-0.19980276 -0.6254968 0.067928098
-0.13017619 -0.61224484 0.067988865
-0.12821385 -0.61260992 0.067695037
-0.12723899 -0.61297268 0.067388251
-0.12507237 -0.61298007 0.067396261
-0.13123742 -0.60711676 0.067123733
-0.12732311 -0.60641044 0.067728892
-0.13415946 -0.6013034 0.067005783
-0.14252245 -0.60061949 0.067653246
-0.13855402 -0.60060966 0.067650199
-0.14835107 -0.59550947 0.067049064
-0.14538002 -0.59549773 0.06703271
-0.17498989 -0.59487486 0.067738608
-0.16061415 -0.59483474 0.067711867
-0.14433312 -0.59483802 0.067712478
-0.16315059 -0.58982897 0.067349203
-0.15892366 -0.5890764 0.067936294
-0.17565748 -0.67304367 0.068322271
-0.1738517 -0.67303604 0.06831529
-0.17205265 -0.67304265 0.068290867
-0.14995162 -0.67302573 0.068287894
-0.14639892 -0.67302746 0.068276793
-0.18036133 -0.67227197 0.0688169
-0.17818336 -0.67299914 0.068242148
-0.1727553 -0.67225748 0.068798155
-0.17098559 -0.6722796 0.068821475
-0.16808985 -0.67227292 0.068860941
-0.14741805 -0.67227131 0.068823166
-0.1904324 -0.66349363 0.06866879
-0.188936 -0.66309422 0.068885036
-0.18720335 -0.66308421 0.068887606
-0.18497732 -0.66383725 0.068338878
-0.19484964 -0.65545648 0.06815958
-0.19295642 -0.65548652 0.068198361
-0.1955473 -0.65466923 0.068671711
-0.19926251 -0.6471318 0.068293177
-0.20073816 -0.6396457 0.068123773
-0.20093945 -0.6321606 0.06819129
-0.12444518 -0.61812973 0.068459086
-0.12546383 -0.61227793 0.068020709
-0.12297488 -0.61226928 0.068024151
-0.14355659 -0.59926814 0.068973243
-0.16779625 -0.5942018 0.0684333
-0.14335698 -0.59415603 0.068382747
-0.17921911 -0.67151278 0.069344722
-0.17671156 -0.67146605 0.069267973
-0.14596169 -0.67148501 0.069294274
-0.14476007 -0.67147398 0.069296151
-0.14344232 -0.67150861 0.069337741
-0.14236929 -0.67150635 0.069340035
-0.17814572 -0.67072558 0.069851108
-0.18928263 -0.6615929 0.069981605
-0.13220216 -0.66152263 0.069895133
-0.19762452 -0.65323275 0.069858871
-0.20030122 -0.64489251 0.069944687
-0.20151007 -0.63741869 0.069835931
-0.20071663 -0.63743234 0.069838561
-0.11891488 -0.63000292 0.069955282
-0.12478692 -0.60502255 0.069004841
-0.13860206 -0.60430878 0.069628306
-0.1306546 -0.60435951 0.069687009
-0.12919784 -0.6043002 0.069620065
-0.12817876 -0.60428822 0.069613673
-0.15926066 -0.59349144 0.069045708
-0.18460117 -0.66918373 0.070873603
-0.1810322 -0.66995192 0.070360444
-0.17994235 -0.6691913 0.070883825
-0.17713657 -0.66992289 0.070336834
-0.14303225 -0.66996473 0.070355184
-0.14194071 -0.66996002 0.070356272
-0.14045057 -0.66918761 0.070853174
-0.19183257 -0.66076553 0.070437834
-0.19072007 -0.66077584 0.070448816
-0.19650905 -0.65246093 0.070353061
-0.19800085 -0.65173048 0.070941135
-0.11889215 -0.6441955 0.070553236
-0.12418076 -0.61530179 0.070944078
-0.12096991 -0.61596966 0.070295624
-0.12667182 -0.60944074 0.070522279
-0.13614441 -0.60363406 0.070309632
-0.13072091 -0.60366362 0.070332408
-0.12713487 -0.60360527 0.070256151
-0.14483261 -0.60294122 0.070936903
-0.14920707 -0.59717238 0.070903055
-0.14262195 -0.5978846 0.070273787
-0.13471468 -0.59785169 0.07024359
-0.1709353 -0.59210682 0.070360355
-0.16952722 -0.59210229 0.070367672
-0.1618659 -0.59209561 0.070342436
-0.18277709 -0.66843635 0.071424827
-0.18536648 -0.66762006 0.07187508
-0.19325688 -0.65927231 0.071512453
-0.19872299 -0.6509673 0.071469955
-0.11783938 -0.64344764 0.07111308
-0.20026757 -0.64271247 0.071686707
-0.11579707 -0.62777829 0.071704872
-0.1282005 -0.61457664 0.071542121
-0.13479121 -0.60875207 0.071158372
-0.13114743 -0.60869408 0.071093626
-0.16879822 -0.59144068 0.071043208
-0.16660619 -0.59147972 0.07108631
-0.16484132 -0.59148818 0.071086869
-0.16259994 -0.59146053 0.071053274
-0.15718912 -0.59147507 0.071083367
-0.15650809 -0.59145778 0.071078621
-0.15726228 -0.59078687 0.071730249
-0.16577311 -0.67604738 0.072523162
-0.1647093 -0.67605293 0.072523654
-0.16144621 -0.67607319 0.072545528
-0.15854122 -0.67607212 0.072557278
-0.18599263 -0.6660831 0.072890036
-0.1812799 -0.66689223 0.072419696
-0.18061112 -0.66686767 0.07239943
-0.13646194 -0.66606075 0.072859779
-0.19396505 -0.65850127 0.072069585
-0.19898942 -0.64946955 0.072571948
-0.19728923 -0.64946103 0.07256069
-0.20129816 -0.64121234 0.072769344
-0.20191266 -0.63444614 0.072107263
-0.20045033 -0.63445586 0.072130516
-0.12569864 -0.61315399 0.072774932
-0.14196122 -0.60155541 0.072225921
-0.1478911 -0.59510905 0.072856747
-0.15805897 -0.59009743 0.072371908
-0.17206921 -0.67528385 0.073051229
-0.16655651 -0.67527097 0.073023714
-0.16251242 -0.67528117 0.073035538
-0.16034728 -0.67528749 0.073045261
-0.15935533 -0.67526543 0.073037967
-0.15530349 -0.67524713 0.073012605
-0.16429786 -0.67448777 0.07351727
-0.16103888 -0.67450887 0.073536649
-0.15819761 -0.67450327 0.073543534
-0.15711255 -0.67449617 0.073541366
-0.15597786 -0.67448825 0.073512115
-0.15388294 -0.67446691 0.073513776
-0.15273342 -0.67449301 0.073509082
-0.15026993 -0.67448759 0.073541887
-0.16764686 -0.67367619 0.073974632
-0.16696195 -0.6736784 0.073991597
-0.18490645 -0.66529959 0.073395215
-0.13530333 -0.66529483 0.073371038
-0.13497972 -0.66529024 0.073370121
-0.18959258 -0.66455495 0.073922344
-0.18744525 -0.66454792 0.073932543
-0.18379353 -0.66454589 0.073923759
-0.19538914 -0.65697187 0.073084719
-0.19975854 -0.64868176 0.073084809
-0.20125489 -0.64788485 0.073580496
-0.20030983 -0.64044815 0.073341511
-0.12434132 -0.61824542 0.073897459
-0.13123472 -0.61170733 0.073976584
-0.12913096 -0.605878 0.073614903
-0.12837182 -0.60016108 0.073535748
-0.17468779 -0.59444684 0.073545061
-0.16134894 -0.59441215 0.073491856
-0.17590305 -0.67371267 0.074031562
-0.17335665 -0.67372745 0.074026465
-0.1704925 -0.67374885 0.074067622
-0.16870372 -0.67371011 0.074035577
-0.16501054 -0.67370409 0.074005768
-0.15595321 -0.67371172 0.07401377
-0.15384533 -0.67369056 0.074004896
-0.15146378 -0.67371583 0.074018143
-0.1502663 -0.67370903 0.074034713
-0.14916272 -0.67372507 0.07404533
-0.17730783 -0.67292756 0.074501552
-0.17482705 -0.67294562 0.074546218
-0.17119206 -0.67297298 0.074551351
-0.14558133 -0.67293173 0.074512497
-0.13275762 -0.66298652 0.074915364
-0.19750734 -0.65541452 0.074104965
-0.19386736 -0.6554606 0.074157417
-0.19542754 -0.65464938 0.074646108
-0.20014898 -0.64714438 0.074139789
-0.20135917 -0.6389209 0.074413329
-0.20152199 -0.63152272 0.074415132
-0.20185955 -0.63078982 0.074984193
-0.12230965 -0.62413192 0.074648693
-0.12904665 -0.6175614 0.074522816
-0.12504548 -0.61754018 0.074511088
-0.12365127 -0.61752379 0.07449916
-0.12283614 -0.61173046 0.074010469
-0.14097831 -0.60517675 0.074228011
-0.13382907 -0.60452038 0.074910879
-0.15007457 -0.59944826 0.074119724
-0.14570841 -0.59945989 0.074152902
-0.17006168 -0.59371507 0.074158669
-0.16968642 -0.59373569 0.074171849
-0.14373913 -0.59303844 0.074813336
-0.1679845 -0.58803391 0.074357159
-0.17615521 -0.67217541 0.075034142
-0.17363252 -0.67218012 0.075030297
-0.17190205 -0.67216605 0.075025164
-0.14732543 -0.67215765 0.075007007
-0.1461987 -0.67216825 0.07500466
-0.17762944 -0.67135835 0.075467043
-0.17512657 -0.67139506 0.07554511
-0.14366223 -0.67140055 0.075534768
-0.17653286 -0.67058009 0.075985074
-0.19131932 -0.66224289 0.075497001
-0.18953843 -0.66226172 0.075483441
-0.1877705 -0.66223121 0.075468361
-0.18842851 -0.66147077 0.07597407
-0.19862194 -0.65317351 0.07578288
-0.1960431 -0.65388817 0.075151779
-0.20012727 -0.64485472 0.075743228
-0.20233452 -0.63002396 0.075541101
-0.12062233 -0.63004464 0.07556355
-0.1184651 -0.63003379 0.075556234
-0.19971851 -0.62340599 0.075237304
-0.14431842 -0.60380155 0.075538129
-0.14146866 -0.59806657 0.075426102
-0.18164378 -0.67898983 0.076798104
-0.18046378 -0.67063022 0.076034263
-0.1797666 -0.67062396 0.076039679
-0.14214012 -0.67062497 0.076016642
-0.18197754 -0.66983479 0.076529779
-0.1797664 -0.6698429 0.076523826
-0.17833701 -0.66983545 0.076529339
-0.14438519 -0.6698125 0.076488167
-0.14322637 -0.66984987 0.076532029
-0.14051723 -0.66983771 0.076526165
-0.19268537 -0.66068429 0.076468602
-0.19163416 -0.66066885 0.076469637
-0.19345085 -0.65992647 0.076994032
-0.19635937 -0.65237033 0.076237686
-0.19562717 -0.65236557 0.076213762
-0.20063648 -0.65167171 0.076841526
-0.19725379 -0.65164924 0.076822653
-0.20197351 -0.64340764 0.076900758
-0.20046045 -0.64337862 0.076844372
-0.20281599 -0.63667828 0.076096028
-0.20099948 -0.63593435 0.076640099
-0.12872243 -0.60884547 0.076428682
-0.12732169 -0.60884941 0.07642521
-0.13388762 -0.60238886 0.076779656
-0.13966437 -0.59737927 0.076066151
-0.1473152 -0.59664726 0.076669589
-0.16584054 -0.5917033 0.076159731
-0.16251995 -0.5916487 0.076103553
-0.1851365 -0.66826671 0.077508703
-0.18438259 -0.66828626 0.077535272
-0.18398684 -0.66829407 0.077551857
-0.13872966 -0.6682471 0.077487022
-0.13737181 -0.66746289 0.077956021
-0.19413202 -0.65916568 0.077527121
-0.19053097 -0.65993601 0.077020802
-0.12982099 -0.65914726 0.077510618
-0.19923031 -0.65014189 0.077890158
-0.20256434 -0.64266366 0.077416658
-0.20047201 -0.64265388 0.07742206
-0.19938833 -0.64260292 0.077365324
-0.20076153 -0.64191622 0.077996328
-0.20383027 -0.62706256 0.077839255
-0.12452292 -0.6204527 0.077541798
-0.12265424 -0.62047571 0.077557765
-0.12158217 -0.62047386 0.077557348
-0.14112066 -0.60170025 0.077429928
-0.16902135 -0.59600276 0.077369109
-0.15346479 -0.59601039 0.077372864
-0.18535247 -0.59528393 0.077969044
-0.16363752 -0.59523922 0.077916272
-0.15822719 -0.59528691 0.077967592
-0.14739828 -0.5952611 0.077962473
-0.14368741 -0.59598505 0.077368647
-0.14226636 -0.59599435 0.077354573
-0.14125262 -0.59598011 0.07734479
-0.13798478 -0.59528881 0.077991396
-0.17132442 -0.59032583 0.077451289
-0.15789704 -0.5903123 0.077435695
-0.1507231 -0.5903393 0.077482469
-0.16102205 -0.67665422 0.078305326
-0.16451965 -0.67586792 0.078783691
-0.16383906 -0.67587566 0.07878992
-0.16269691 -0.67589247 0.078791067
-0.15871258 -0.6758945 0.078801751
-0.15656996 -0.67585552 0.078769155
-0.18327861 -0.66751498 0.078047849
-0.18247688 -0.66753674 0.078038044
-0.18185881 -0.66751605 0.078023568
-0.19191062 -0.66673434 0.078507796
-0.1847837 -0.66670609 0.078499548
-0.19481373 -0.65839523 0.078058332
-0.1919512 -0.65838212 0.07801114
-0.19376928 -0.6576131 0.078543767
-0.1927346 -0.65761513 0.078538865
-0.19995478 -0.64936244 0.078400627
-0.19819726 -0.6493659 0.078411043
-0.20109633 -0.64855033 0.078893751
-0.19992311 -0.64860231 0.078927524
-0.20222794 -0.64113098 0.078495458
-0.20539987 -0.63295317 0.078893587
-0.20223635 -0.63293105 0.0788652
-0.1159655 -0.62632328 0.078408636
-0.20053905 -0.62558794 0.078973264
-0.11696736 -0.62559837 0.078969188
-0.20194305 -0.61900246 0.078722589
-0.11907927 -0.61975694 0.078160085
-0.20300427 -0.61899769 0.078718387
-0.12630226 -0.60599661 0.078883268
-0.19322364 -0.60095739 0.078030564
-0.1426491 -0.60098588 0.078056946
-0.14122471 -0.60027647 0.078667492
-0.17062472 -0.58960813 0.078070372
-0.16702655 -0.58893657 0.078757592
-0.15618192 -0.58893305 0.078764789
-0.16739458 -0.67508394 0.079246894
-0.16671893 -0.67508489 0.07926219
-0.16555421 -0.6750806 0.079239726
-0.16451341 -0.67508066 0.079245068
-0.16124733 -0.67510122 0.079262659
-0.16052625 -0.67509925 0.079267643
-0.15950476 -0.67508429 0.079279557
-0.15652806 -0.67506933 0.07924825
-0.15434004 -0.6750623 0.079231113
-0.1536203 -0.67508316 0.079248786
-0.15217948 -0.67508525 0.079255678
-0.15002292 -0.6751011 0.079278551
-0.14894505 -0.67508626 0.07923726
-0.17388953 -0.67431766 0.079741336
-0.17218958 -0.6743148 0.079765297
-0.17102626 -0.67434001 0.079793267
-0.17063153 -0.67434204 0.079787962
-0.16991833 -0.67431194 0.07978303
-0.16852146 -0.67426145 0.079696402
-0.15507498 -0.67427915 0.07972797
-0.15148509 -0.67429692 0.079744145
-0.13981849 -0.67428696 0.079701036
-0.18739262 -0.66516364 0.07949239
-0.18648502 -0.66515559 0.079491988
-0.1857601 -0.66514468 0.079476811
-0.18972552 -0.66438335 0.079987198
-0.18833138 -0.66437578 0.079994127
-0.13431855 -0.66436839 0.079954199
-0.196485 -0.65683413 0.079038471
-0.19516484 -0.65608382 0.07956066
-0.19440271 -0.65687311 0.079090126
-0.12794235 -0.65685207 0.079062328
-0.12211205 -0.65610385 0.079604201
-0.20389898 -0.64785463 0.079475358
-0.20247295 -0.64702892 0.079930209
-0.20177044 -0.64778268 0.079402894
-0.20033963 -0.647811 0.079434872
-0.20115921 -0.64036959 0.079038672
-0.20654193 -0.63962084 0.079578631
-0.20607443 -0.63221502 0.0794328
-0.11633593 -0.63218278 0.079393849
-0.20239317 -0.63146853 0.079998165
-0.12001969 -0.63146275 0.079989538
-0.11746931 -0.63142478 0.079945482
-0.11642457 -0.63142526 0.079951771
-0.20452957 -0.62484258 0.079549722
-0.12028325 -0.62485522 0.079528019
-0.19939421 -0.61828548 0.079315007
-0.19766383 -0.61755425 0.079913259
-0.20041989 -0.61177522 0.079311289
-0.19792874 -0.6110267 0.079888605
-0.19686744 -0.61102718 0.079906866
-0.1943344 -0.61139768 0.079610758
-0.12993225 -0.61102414 0.079882048
-0.12562186 -0.61104709 0.079903118
-0.1230428 -0.61177742 0.079325229
-0.19620463 -0.60526645 0.079509571
-0.19511154 -0.60525137 0.079471752
-0.12896124 -0.60525775 0.07946784
-0.18928429 -0.5995658 0.079284392
-0.18721715 -0.59955502 0.07930164
-0.18489924 -0.59958059 0.079292141
-0.14664638 -0.59956551 0.079297937
-0.14520699 -0.59958643 0.079335786
-0.14817579 -0.59884626 0.079902567
-0.13622011 -0.59884864 0.079906583
-0.13476138 -0.59885496 0.07991761
-0.17999564 -0.59316337 0.079875425
-0.17705862 -0.59318709 0.079888664
-0.1755888 -0.59391266 0.079265535
-0.17429641 -0.59321046 0.07992769
-0.17317107 -0.59320748 0.079907224
-0.17104682 -0.59315389 0.079869978
-0.16881749 -0.59320265 0.079913005
-0.16625589 -0.59391242 0.079287171
-0.16514158 -0.5938887 0.079263858
-0.16338663 -0.5931477 0.07984446
-0.15580742 -0.59317499 0.079869166
-0.15076804 -0.59318072 0.079878815
-0.14638709 -0.59386528 0.079233617
-0.17418133 -0.67352444 0.080221735
-0.17247753 -0.67354476 0.080248237
-0.17141199 -0.67354536 0.080262184
