# .PCD v0.7 - Point Cloud Data file format
VERSION 0.7
FIELDS x y z
SIZE 4 4 4
TYPE F F F
COUNT 1 1 1
WIDTH 1301
HEIGHT 1
VIEWPOINT 0 0 0 1 0 0 0
POINTS 1301
DATA ascii
0.093458354 -0.0028660507 -0.053756148
0.085359082 -0.0025592891 -0.052493602
0.071761668 -0.0030015614 -0.045450494
0.078061521 -0.0029815272 -0.051288992
0.050703034 -0.0020807371 -0.049324706
0.042800963 -0.0018196468 -0.052771494
0.016596496 -0.002235265 -0.04875315
0.013452172 -0.0016742737 -0.05110243
0.014176622 -0.0016688176 -0.051840186
0.29615742 -0.0053549097 -0.047138661
0.30556983 -0.0052932501 -0.055870503
0.30587262 -0.0053009391 -0.056158483
0.29436973 -0.0047942852 -0.046491146
0.30583861 -0.0047123749 -0.057132915
0.28165427 -0.005108675 -0.046867341
0.30591917 -0.0049192281 -0.06929794
0.28110188 -0.0045056129 -0.047337413
0.28249899 -0.0044701262 -0.048602298
0.26926836 -0.0044539981 -0.048358664
0.27086681 -0.0051426063 -0.048930094
0.27239239 -0.0051026866 -0.050323337
0.30863845 -0.0042173397 -0.084779426
0.31015962 -0.0048218179 -0.085232288
0.31169194 -0.004841961 -0.086679339
0.25948974 -0.0048090061 -0.050264731
0.25791568 -0.0041794954 -0.049783826
0.24841836 -0.0048818514 -0.05088675
0.2345432 -0.0046800128 -0.048818886
0.23503533 -0.0046922108 -0.04930675
0.23693196 -0.0046984307 -0.051065877
0.23753801 -0.0046554152 -0.051583707
0.18168272 -0.0037923637 -0.048160568
0.16606872 -0.0033455836 -0.050612733
0.16637442 -0.0033267839 -0.050875574
0.15930615 -0.0028594395 -0.052764833
0.12498872 -0.0024427923 -0.050634027
0.12522469 -0.0024340451 -0.050856173
0.11731181 -0.0027904797 -0.05008097
0.11825432 -0.002008378 -0.051766992
0.11943096 -0.0027569346 -0.052032515
0.10550408 -0.0022134096 -0.04639101
0.1091066 -0.0022046603 -0.049746364
0.10534064 -0.0022272221 -0.052630708
0.093769133 -0.0021784776 -0.048281953
0.093561932 -0.0020026679 -0.054491833
0.086377487 -0.001638701 -0.054024771
0.078589559 -0.0012527788 -0.053069741
0.061976507 -0.0010385819 -0.054787934
0.05085817 -0.0011823636 -0.050017416
0.04289341 -0.0011341738 -0.048077554
0.014038771 -0.00130603 -0.046845548
0.014455572 -0.00039916701 -0.047736593
0.015635133 -0.00038306438 -0.048800051
0.01431419 -0.00070395943 -0.052334554
0.2924625 -0.0042262049 -0.045766652
0.29727519 -0.0041605379 -0.050163403
0.27967629 -0.0038791855 -0.04693605
0.28354383 -0.0038501187 -0.050525576
0.26750374 -0.0038473173 -0.047651589
0.30704102 -0.0036289673 -0.084289983
0.26588726 -0.0032394347 -0.047143534
0.3065533 -0.0030187955 -0.084805787
0.30791607 -0.0029804567 -0.086038157
0.25639448 -0.0035391729 -0.049297988
0.24537075 -0.0029810441 -0.050939605
0.23283495 -0.0033661202 -0.04907158
0.23323947 -0.003156377 -0.049767464
0.23384857 -0.0033553704 -0.050018743
0.20004603 -0.0026607104 -0.048687592
0.18961284 -0.0022705942 -0.048580974
0.17182854 -0.0021607 -0.049149483
0.17466111 -0.0022197892 -0.051878422
0.16432334 -0.0018838686 -0.050701812
0.1655127 -0.0025797295 -0.050896272
0.14529406 -0.0023076416 -0.048160642
0.14551473 -0.0023127801 -0.048386738
0.14431629 -0.0014855547 -0.047979608
0.14584097 -0.0015081253 -0.04944922
0.13002817 -0.0020229737 -0.048768938
0.12652269 -0.0012324196 -0.04627268
0.12682047 -0.0012262808 -0.046552479
0.12943737 -0.0012451566 -0.048999101
0.10572731 -0.0013736844 -0.047290772
0.10800467 -0.0013407187 -0.049367145
0.10568686 -0.0013692877 -0.053646356
0.094080642 -0.0013860846 -0.049356282
0.078379735 -0.00082215702 -0.047259808
0.043229103 -0.00020197325 -0.048897043
0.014514729 0.00052648364 -0.048278525
0.022228107 0.00061627664 -0.055320375
0.35529172 -0.0030990234 -0.078415439
0.35557079 -0.0030936629 -0.078663498
0.29067999 -0.0036557857 -0.045083165
0.29519075 -0.0035806568 -0.049207598
0.29174265 -0.0030570293 -0.047071844
0.29337582 -0.0030142087 -0.048537299
0.28179827 -0.0032634386 -0.049902439
0.30650586 -0.0031089312 -0.072771654
0.30656433 -0.0025071858 -0.073805809
0.26855454 -0.0032076868 -0.04961507
0.30605757 -0.0024004267 -0.085313171
0.30736995 -0.0023665817 -0.086504459
0.25330898 -0.0022689686 -0.04829967
0.25464511 -0.0022456557 -0.049542412
0.23180632 -0.0020455229 -0.04998076
0.23207615 -0.0020457343 -0.050223902
0.30047023 -0.0016334031 -0.11355123
0.21023986 -0.0016163877 -0.050402686
0.21127112 -0.0015670413 -0.051321164
0.21194415 -0.00155351 -0.051932171
0.20026147 -0.0019478858 -0.049748942
0.20045215 -0.0012600821 -0.050816774
0.18977362 -0.0015471599 -0.049595207
0.1801077 -0.0012831965 -0.049712628
0.18062116 -0.0016479292 -0.049763545
0.14592777 -0.00074110576 -0.050305098
0.14635052 -0.0007020518 -0.05064486
0.11873263 -0.00013580441 -0.047203422
0.11955374 -0.00011154055 -0.047925383
0.12381485 -4.9989205e-05 -0.051827058
0.10727322 -0.00051201216 -0.049383894
0.093596876 -0.00052494055 -0.049561083
0.086874962 -0.00028670323 -0.049559668
0.077635407 -8.9919195e-07 -0.047256872
0.077936605 2.119178e-05 -0.047511548
0.061334804 -3.5375007e-05 -0.04922758
0.06208922 -2.186466e-05 -0.049955949
0.061398551 0.00084640121 -0.04989174
0.062187821 0.00085189485 -0.050636187
0.062954694 0.00080236234 -0.051439226
0.063204169 0.00081450411 -0.051653162
0.063959956 0.00080935273 -0.05236268
0.059512451 0.00074864901 -0.053590819
0.042824194 0.00070133217 -0.049065858
0.35480565 -0.0025406326 -0.078975603
0.29287308 -0.0024195793 -0.049063668
0.28973025 -0.0018804608 -0.047167793
0.30609441 -0.0017435015 -0.062285274
0.27555215 -0.0020619999 -0.046026751
0.27868193 -0.0020403941 -0.048926771
0.27819985 -0.0014278339 -0.049444675
0.26520044 -0.0020082444 -0.048436433
0.2665481 -0.0019759927 -0.049648657
0.26786524 -0.0019692038 -0.050891191
0.2636373 -0.001389925 -0.04793936
0.26609254 -0.0013579999 -0.050183862
0.25259209 -0.00099133665 -0.049531579
0.25388247 -0.00099050975 -0.050742015
0.23075654 -0.0010669691 -0.050407082
0.21865442 -0.0009195623 -0.049376339
0.21915589 -0.00088112836 -0.04981631
0.21982864 -0.00089711999 -0.050435007
0.20949192 -0.0009098252 -0.050604701
0.21048899 -0.00091136666 -0.051531479
0.19594491 -0.00063315826 -0.047604069
0.19006701 -0.00082846568 -0.05073598
0.19034271 -0.00011307991 -0.05186601
0.17627043 -0.00021107099 -0.047413722
0.1792677 -0.0001559332 -0.050154924
0.17074652 -0.0006906261 -0.049813688
0.17009708 1.5047844e-05 -0.050097451
0.16049099 -0.00038716802 -0.048772216
0.12876056 0.00034718879 -0.049883723
0.10610731 0.0011051982 -0.049785152
0.079854593 0.0013513591 -0.044411659
0.087480575 0.0014451358 -0.05138956
0.088111371 0.0014447153 -0.051994935
0.079579428 0.00086627388 -0.049724028
0.080609873 0.00083842443 -0.050698116
0.071697861 0.0010217291 -0.054101422
0.051887736 0.0015440445 -0.047222301
0.052190781 0.0015676968 -0.04747425
0.05882515 0.0016563277 -0.053544432
0.051404238 0.0015795912 -0.052115694
0.043728128 0.0016253912 -0.050375268
0.02420561 0.0019693787 -0.052839838
0.35488421 -0.0020190526 -0.065729693
0.35525814 -0.0020209921 -0.066084161
0.35640278 -0.0013939941 -0.082484782
0.35755545 -0.00082052988 -0.084547818
0.30527374 -0.0013229846 -0.049402982
0.30188334 -0.00079746707 -0.047289774
0.28814453 -0.0012730194 -0.04666996
0.29082653 -0.0012791227 -0.049168795
0.30611497 -0.0011519254 -0.063292474
0.28632534 -0.00069478876 -0.045965552
0.28765157 -0.00067971624 -0.047202751
0.28895342 -0.00070743903 -0.048437417
0.30618078 -0.00055159791 -0.064328313
0.2747587 -0.00084664347 -0.047250241
0.27616054 -0.0008366236 -0.048532009
0.26157263 -0.000785955 -0.047004133
0.26315778 -0.00076457614 -0.048454881
0.26445913 -0.00077584176 -0.04967685
0.23777972 -0.00038340606 -0.047598109
0.2385568 -0.0003668312 -0.048312932
0.23923862 -0.00035089173 -0.048938453
0.23993221 -0.00036822411 -0.049581185
0.24041706 -0.00035488035 -0.050023913
0.24210367 -0.00032430363 -0.051561058
0.22977483 -7.4488926e-05 -0.050879657
0.23007427 -6.9365022e-05 -0.051146045
0.21863595 -0.00023442181 -0.050278768
0.22098497 -0.00023877248 -0.052460641
0.20795327 -0.00015945011 -0.049998447
0.20875131 -0.00020882033 -0.05079338
0.20708719 0.00053278857 -0.050068423
0.20799293 0.00051467097 -0.050949037
0.1961188 8.1787235e-05 -0.048630059
0.19646472 0.00077775808 -0.049832389
0.17573233 0.00051717425 -0.047778592
0.16963544 0.00073801109 -0.050525576
0.15948911 0.0011010098 -0.04950586
0.12518908 0.0011424824 -0.047299013
0.12790333 0.001531145 -0.050258145
0.087284446 0.0019714003 -0.045705929
0.094118133 0.0019825702 -0.052115947
0.079904974 0.0022156208 -0.045119375
0.072937608 0.002489937 -0.044945344
0.079648137 0.0017269667 -0.050427467
0.080505729 0.0025773442 -0.051872894
0.080936059 0.0026012759 -0.052262008
0.062359586 0.0027935621 -0.046533838
0.063127205 0.0027750416 -0.04730165
0.064285696 0.0027656732 -0.048409402
0.064942092 0.0027718432 -0.0490233
0.024258375 0.0033479589 -0.04867138
0.024413243 0.0028730389 -0.053550988
0.30478686 -0.00074753212 -0.049953327
0.29999936 -0.00019224966 -0.046535045
0.27403325 0.00035156484 -0.048536986
0.26265585 -0.00013952923 -0.048946157
0.25952882 0.00041282922 -0.047062114
0.26088622 0.00044964999 -0.048291579
0.2502318 0.00025127653 -0.049299195
0.24807784 0.0008403121 -0.048253462
0.24974476 0.00086407363 -0.049794182
0.23830834 0.00028652372 -0.049017981
0.23938809 0.00028903189 -0.050019756
0.23992789 0.00028585666 -0.050524145
0.24070284 0.00029457302 -0.05121991
0.22778589 0.0012554633 -0.050868914
0.22909972 0.00059008668 -0.051159531
0.2064961 0.001212202 -0.050414503
0.17478177 0.0019378617 -0.048649058
0.1780569 0.0020297845 -0.051545009
0.16518211 0.0014504086 -0.047267482
0.16546234 0.0014739344 -0.04748933
0.16917332 0.0014731532 -0.050942734
0.16868876 0.0022011481 -0.051338688
0.15904173 0.0018379878 -0.049910113
0.16189797 0.0018336008 -0.052600771
0.14735915 0.002382813 -0.047359407
0.14697276 0.0024102833 -0.054370582
0.12264352 0.0023368527 -0.053030312
0.10749023 0.0028515002 -0.046106845
0.080769196 0.0030454386 -0.046610311
0.08107543 0.00302658 -0.04688257
0.072147816 0.0030218211 -0.050312325
0.061382294 0.0036680254 -0.046242565
0.059782103 0.0035025671 -0.050190404
0.057677269 0.0034088288 -0.05367139
0.044193164 0.0033149866 -0.046591461
0.051997915 0.0034068837 -0.053751796
0.044190496 0.0034689636 -0.051855177
0.023333147 0.0042594285 -0.048277207
0.023046732 0.0042555826 -0.048045054
0.30113149 0.0003698587 -0.048586905
0.30271554 0.00037809589 -0.050060764
0.30402851 0.00040131691 -0.051254243
0.29931754 0.00097119459 -0.047883987
0.30225933 0.00095269806 -0.050626829
0.30513662 0.0010052933 -0.053257152
0.30535614 0.0010094034 -0.053466752
0.28453308 0.00048572384 -0.046285912
0.28562731 0.00048892316 -0.04728657
0.28668284 0.0010846035 -0.049266338
0.27060533 0.00086137792 -0.046429783
0.27220947 0.00088365492 -0.047888532
0.27171776 0.0014886316 -0.048412785
0.30603802 0.0017224913 -0.080141976
0.30974054 0.001779156 -0.083544254
0.31127411 0.001767654 -0.084998578
0.25787652 0.0010367623 -0.046520844
0.26034772 0.0010705497 -0.048755139
0.26191694 0.0011122079 -0.05018732
0.24535497 0.0020857281 -0.047651663
0.20548654 0.0018876035 -0.050393149
0.20584439 0.0019019726 -0.050713062
0.20488237 0.0025722312 -0.050729051
0.19671163 0.0021920453 -0.051816598
0.16421746 0.0029071444 -0.0480555
0.15831593 0.002576754 -0.050039381
0.15857631 0.0025823859 -0.050303906
0.15782298 0.003323999 -0.050429821
0.14741677 0.0031449865 -0.04821147
0.089031219 0.003695877 -0.048663631
0.089043081 0.0044925613 -0.049440384
0.08959949 0.0044823913 -0.049951866
0.07276623 0.0039211134 -0.05148001
0.073411778 0.0048202425 -0.052656367
0.052358747 0.0042430493 -0.04933621
0.04463315 0.0042237826 -0.047544673
0.044401661 0.0052880719 -0.053160354
0.022588879 0.0051684752 -0.04812602
0.025535315 0.0051743882 -0.050877728
0.019617215 0.0053049424 -0.05514989
0.35475159 0.001834539 -0.072777092
0.35514724 0.0018403165 -0.073134616
0.35500997 0.0014304558 -0.086227223
0.29726189 0.0015457368 -0.046972826
0.30043462 0.0015286828 -0.049925223
0.29862505 0.0021275815 -0.049238384
0.30621117 0.0021644335 -0.056276381
0.30653012 0.0021672924 -0.056551471
0.28621382 0.0016812416 -0.049807146
0.30620956 0.0018275736 -0.068323538
0.30662331 0.0018201477 -0.068714157
0.28067908 0.0022253792 -0.045698017
0.28332746 0.0022759936 -0.048115224
0.28465253 0.0022719307 -0.049347028
0.26961446 0.0026702227 -0.048452273
0.27128044 0.0020905905 -0.048971087
0.30607101 0.0023296895 -0.081146449
0.30609864 0.0029350773 -0.08215934
0.31077534 0.0023665414 -0.085520133
0.31240231 0.0023752071 -0.087021291
0.25855076 0.0022686664 -0.04906331
0.25595063 0.0028961189 -0.047594577
0.25698298 0.0028948192 -0.048562169
0.24455145 0.0027840058 -0.047816858
0.24482173 0.0027506598 -0.048087239
0.24696168 0.0027485737 -0.050075859
0.23185857 0.0028308947 -0.046797052
0.22480185 0.0025004935 -0.050009549
0.22530253 0.0025050973 -0.050479263
0.2260734 0.0025158406 -0.051188722
0.21997689 0.0031885239 -0.046401918
0.22141343 0.0031486121 -0.047775894
0.22295064 0.0031774589 -0.049198493
0.22349893 0.0031694262 -0.049709663
0.22405009 0.0031597915 -0.050234944
0.21082646 0.0030103428 -0.047682658
0.21160473 0.0030410048 -0.048359573
0.21288303 0.0030894524 -0.049502447
0.21338271 0.0030985947 -0.049971655
0.21424705 0.0030896887 -0.050766438
0.2010171 0.0032095197 -0.048095465
0.20424724 0.003253202 -0.051053226
0.17385049 0.0033895802 -0.049481064
0.1740884 0.0033642417 -0.049723849
0.17708881 0.0034880694 -0.052369714
0.1635081 0.0036480022 -0.048235357
0.16695039 0.0043610297 -0.05232285
0.14748989 0.0039214576 -0.049092591
0.12379171 0.0042730793 -0.049149632
0.088361412 0.0045609437 -0.048655853
0.089715585 0.0053400998 -0.050680131
0.065739155 0.0056427708 -0.046174988
0.065717936 0.0053946725 -0.051581994
0.05865261 0.0052415621 -0.050365716
0.022181317 0.0060881642 -0.048249371
0.021048635 0.0056427387 -0.051855095
0.3551836 0.0023922883 -0.074180558
0.29497522 0.0026808609 -0.046839446
0.29654729 0.0026992601 -0.048303723
0.29968381 0.002691038 -0.05122067
0.3065275 0.0027425771 -0.057558551
0.28131634 0.0034310352 -0.048245192
0.28390598 0.0034585688 -0.0506237
0.26912692 0.0032892101 -0.048967496
0.30878663 0.0036035876 -0.085582107
0.31003025 0.0035814259 -0.086777642
0.24172273 0.004011373 -0.047079325
0.24332954 0.0037313695 -0.048065335
0.2439521 0.003411189 -0.048193082
0.22065383 0.0038177012 -0.047986388
0.22184262 0.0038308206 -0.049094006
0.22231729 0.0038310892 -0.049537733
0.22186126 0.0044914833 -0.050036073
0.20930178 0.0037150369 -0.047156513
0.21011139 0.0036939913 -0.047904879
0.20806092 0.0044588186 -0.046824113
0.20118888 0.0038651284 -0.049181044
0.20158175 0.0038561071 -0.04956311
0.20259151 0.0038827118 -0.050495327
0.20318235 0.0038980953 -0.05100742
0.20160969 0.0045455233 -0.050488248
0.2019958 0.0045509762 -0.050850093
0.19109991 0.0042566238 -0.049282178
0.1918412 0.004955295 -0.05084601
0.17930686 0.0040976563 -0.046861932
0.18410246 0.0044814241 -0.051726133
0.17320019 0.0048614703 -0.050564378
0.17616202 0.0049007311 -0.053216577
0.15678027 0.0048123226 -0.051116884
0.14757052 0.004673386 -0.049962968
0.1480523 0.004691401 -0.050401956
0.14821792 0.0054246201 -0.051409274
0.12825856 0.0055385809 -0.047574386
0.12282696 0.0054361271 -0.049408078
0.0949426 0.0060524293 -0.049983755
0.090016171 0.0062191896 -0.051635236
0.073180422 0.0059771514 -0.047687873
0.066118464 0.0065208888 -0.047125787
0.059780791 0.0062764436 -0.046627522
0.066352218 0.0062367721 -0.052838296
0.053918526 0.0069562728 -0.047234297
0.04483211 0.0069582728 -0.049357921
0.026022047 0.0066097742 -0.047148049
0.35490629 0.0036567871 -0.061643973
0.29263395 0.0038081617 -0.046704233
0.29576033 0.0038573113 -0.049576774
0.2797536 0.0039948216 -0.047795281
0.28245348 0.0040658773 -0.050241187
0.30642039 0.004756812 -0.073462769
0.26764953 0.0039567831 -0.048478559
0.27024668 0.0038934743 -0.050966382
0.30668178 0.0047861026 -0.085610241
0.30807889 0.0048132772 -0.086876944
0.25266057 0.0041514281 -0.046416581
0.25758696 0.0041313968 -0.051051259
0.25362515 0.004780388 -0.048306584
0.25503886 0.0047680661 -0.049619198
0.24097465 0.0046325005 -0.047366306
0.24180719 0.0046688784 -0.048082858
0.24200746 0.0046653464 -0.048284799
0.24574468 0.0046359352 -0.051796719
0.22896242 0.0047960589 -0.046906769
0.22961266 0.0047762888 -0.047514081
0.29672337 0.0056054499 -0.12026089
0.19191301 0.0056529874 -0.051780269
0.1822609 0.0055610496 -0.05132547
0.18279773 0.0055536851 -0.051819444
0.16883792 0.0062719919 -0.048210382
0.16201426 0.0058098128 -0.049426585
0.15600672 0.0063068052 -0.052042663
0.1221334 0.0066258078 -0.049888343
0.089962184 0.0068048234 -0.046154022
0.095018357 0.0069179786 -0.050712481
0.09533608 0.0069173132 -0.050987691
0.089548782 0.00703097 -0.051894426
0.073808342 0.0068605207 -0.048886925
0.06562978 0.0073807845 -0.047319293
0.066158682 0.0073988 -0.04780972
0.06693691 0.0073409835 -0.048634857
0.066449106 0.0071222465 -0.053515062
0.056563437 0.007910083 -0.050164491
0.057073995 0.007898313 -0.05069831
0.026339576 0.0075559998 -0.047947779
0.021365449 0.0079687405 -0.048432916
0.025602445 0.0079950187 -0.052365616
0.019835517 0.0084684035 -0.052078426
0.29397419 0.004414876 -0.048907474
0.29058436 0.0049328995 -0.046817183
0.29349887 0.0049810074 -0.049467906
0.30670136 0.0050645415 -0.061711684
0.27797115 0.0046355999 -0.047076926
0.26424325 0.0051129661 -0.047304794
0.26558971 0.0051708622 -0.048505187
0.26698095 0.0051617105 -0.049795136
0.30619949 0.0053863348 -0.086143896
0.26379195 0.005714979 -0.047855958
0.25189978 0.0053970292 -0.047640711
0.2497569 0.0059682867 -0.046671152
0.25294518 0.0060129398 -0.049597293
0.22742338 0.0060394867 -0.047391772
0.22782767 0.0060586724 -0.047751501
0.19701739 0.0059245527 -0.047968015
0.19731076 0.0066203745 -0.049150035
0.19772679 0.0066217156 -0.049524635
0.17813772 0.006246197 -0.048365533
0.1813478 0.0069799265 -0.052195862
0.17181276 0.0070965001 -0.051738083
0.17256294 0.0063399388 -0.051640749
0.15799689 0.0072956937 -0.047306418
0.16159692 0.0065244101 -0.049874485
0.15547822 0.0070493612 -0.052403986
0.13478123 0.0076848553 -0.048724219
0.13568585 0.0077061942 -0.049564824
0.1363671 0.0069290502 -0.049396634
0.13700049 0.0077092424 -0.050755262
0.13725214 0.0077219056 -0.050969958
0.13804613 0.0076597957 -0.0518011
0.12731309 0.007084162 -0.048255682
0.1311177 0.0079263058 -0.052526683
0.12167396 0.0074247369 -0.050223261
0.095532924 0.0076107634 -0.045742169
0.082517758 0.0078507978 -0.04604955
0.073967025 0.0086155925 -0.050323203
0.058395073 0.0084416326 -0.04691714
0.053626597 0.0087235849 -0.053377315
0.054555297 0.0087688882 -0.054188222
0.045575991 0.0087194387 -0.051257864
0.026696503 0.009419675 -0.049237326
0.027101383 0.0094194356 -0.049581729
0.28867137 0.0055004638 -0.046069309
0.28979188 0.0057994546 -0.047582746
0.29159325 0.0055356212 -0.048754543
0.30689725 0.0056483401 -0.062907502
0.27568173 0.0058063036 -0.046931803
0.27725142 0.0058066286 -0.048396289
0.27877906 0.0057744598 -0.04984501
0.27383101 0.0063719489 -0.046220124
0.2767325 0.0064065862 -0.048896268
0.30598992 0.0065347254 -0.076019391
0.30630362 0.006533416 -0.076304734
0.26484591 0.0063639199 -0.049781993
0.25118619 0.0066285194 -0.048911572
0.22604471 0.0073084868 -0.048004642
0.19792329 0.0073059965 -0.050594375
0.17725416 0.0076611261 -0.049269095
0.16798906 0.007707173 -0.049174428
0.17133392 0.0078178374 -0.052154526
0.14915946 0.0084838793 -0.048239529
0.15316397 0.0085359057 -0.051918402
0.15434361 0.0081498763 -0.052631974
0.12642315 0.0086691156 -0.048964009
0.12665366 0.0086648036 -0.049187824
0.1136674 0.008706159 -0.050679669
0.096252084 0.0093132211 -0.047736168
0.096473232 0.0093038287 -0.047960296
0.10074663 0.0093034785 -0.051930159
0.10102908 0.0093095116 -0.052197859
0.095735803 0.0085870521 -0.052768558
0.096008331 0.0085806604 -0.053012773
0.082603738 0.0086932266 -0.046823591
0.08263661 0.0095303459 -0.047554612
0.081836209 0.0090343179 -0.052251965
0.067313567 0.0093743736 -0.044866219
0.045144707 0.0096135419 -0.051395446
0.036733359 0.0097534778 -0.048762754
0.036939248 0.0097553181 -0.04899627
0.02727598 0.010354266 -0.050201476
0.3569802 0.0062672198 -0.082986251
0.35646713 0.0068118479 -0.083540291
0.3021951 0.0067144018 -0.047503471
0.30375719 0.0067252829 -0.048957184
0.28770864 0.0072314767 -0.048176125
0.27310526 0.0075426921 -0.047538087
0.27469522 0.0072806897 -0.048480615
0.25988537 0.0075384886 -0.047163501
0.26147789 0.0075745811 -0.048616126
0.2640959 0.0075748079 -0.051049724
0.2522375 0.0072553703 -0.050849006
0.24884275 0.0078260843 -0.048711851
0.25049031 0.0078631658 -0.050186321
0.21413976 0.0077625108 -0.04748936
0.21505807 0.0077397055 -0.048370153
0.21540149 0.008400782 -0.049614832
0.2043027 0.0077603282 -0.047948897
0.19793734 0.0080119278 -0.051494777
0.19183663 0.008645148 -0.046790391
0.18412341 0.0084162671 -0.048115626
0.185093 0.0084140534 -0.048992515
0.18559408 0.008414261 -0.049493715
0.18597187 0.0084078349 -0.049853459
0.17980525 0.0083369417 -0.052602842
0.16687408 0.0087920157 -0.04940027
0.14937441 0.0092137149 -0.049285859
0.14974301 0.0092287911 -0.049642041
0.15033102 0.0092661185 -0.050125226
0.15169509 0.0093121491 -0.051343337
0.15249009 0.0093044685 -0.052083522
0.13317564 0.0092060454 -0.048831329
0.13369104 0.0091955811 -0.049343169
0.12026727 0.0098242713 -0.051174223
0.11271307 0.0094420789 -0.050600931
0.11315565 0.0094746687 -0.050998434
0.10427286 0.0093222195 -0.049015313
0.09709473 0.010099825 -0.049283981
0.084388316 0.010355653 -0.049876899
0.082028046 0.010728649 -0.053744167
0.074950382 0.010269846 -0.052580819
0.067419052 0.010828924 -0.051548526
0.057325572 0.010657672 -0.047389522
0.053759679 0.010473723 -0.049485087
0.055483148 0.010551501 -0.050974026
0.045716628 0.010432725 -0.04729028
0.35477918 0.0074104108 -0.068765834
0.35478628 0.0073608393 -0.082990378
0.3557184 0.0079129888 -0.08489193
0.30174583 0.007274406 -0.048082218
0.30297333 0.007273362 -0.049252436
0.30460346 0.0073201465 -0.050716475
0.30487567 0.0073190904 -0.050973132
0.28599021 0.0078266542 -0.047523886
0.2872256 0.0078251483 -0.048699692
0.31215328 0.0083595915 -0.084690079
0.31164789 0.0089520738 -0.085210323
0.26091343 0.0081752399 -0.049087673
0.24676988 0.0084220655 -0.047758862
0.24811068 0.0090533542 -0.049965024
0.24970458 0.0090931663 -0.051403672
0.21554524 0.0090559032 -0.050686747
0.19192693 0.0093224961 -0.047770903
0.19301952 0.00934444 -0.048756689
0.18285629 0.0091154808 -0.04780893
0.18367709 0.0091092596 -0.048573181
0.18603574 0.0090930108 -0.050804108
0.18643247 0.0091039129 -0.051158935
0.18765882 0.0091105793 -0.052272767
0.18661962 0.0098016849 -0.052224323
0.1728528 0.009764133 -0.047836259
0.17575894 0.0097851809 -0.050512865
0.15579575 0.010229007 -0.048670679
0.15944336 0.010272945 -0.052024871
0.15014052 0.010012494 -0.050770178
0.15082091 0.010037627 -0.05137226
0.15186463 0.010050884 -0.05232805
0.134947 0.010602588 -0.044881076
0.13607356 0.010642054 -0.045853093
0.13675292 0.0098992791 -0.04568471
0.13707291 0.010652838 -0.046768442
0.13977297 0.010652187 -0.04931064
0.14026481 0.010668123 -0.049725458
0.14162569 0.0099567361 -0.050125822
0.14190678 0.010727854 -0.051193386
0.14244787 0.010699559 -0.051751629
0.12978341 0.0099633792 -0.046471938
0.12989971 0.010747291 -0.047353998
0.12575032 0.010225314 -0.049888983
0.12181874 0.010953988 -0.047081396
0.11612462 0.010595586 -0.048090473
0.11218898 0.010255394 -0.050880209
0.11382601 0.010332982 -0.0522587
0.11114801 0.011141009 -0.050516769
0.11163308 0.011070908 -0.051077783
0.098499 0.010945039 -0.05129905
0.099280059 0.010945117 -0.052005947
0.091448933 0.011058012 -0.050875843
0.074728131 0.011558102 -0.0476221
0.028189644 0.011835781 -0.047001317
0.019993678 0.011652024 -0.049086541
0.29839301 0.0084138447 -0.046990886
0.30281287 0.0084139025 -0.051112384
0.30386567 0.0084404964 -0.052057832
0.30589616 0.0084564714 -0.053956851
0.29938751 0.0089713745 -0.048937917
0.30077308 0.0089593735 -0.050221056
0.305388 0.009017936 -0.054503471
0.28387904 0.0089843972 -0.047567472
0.27231717 0.0087186191 -0.048799351
0.27023095 0.0092409244 -0.047915474
0.27177328 0.0092972871 -0.049310535
0.30978733 0.0095382538 -0.084480926
0.31118524 0.0095489416 -0.085758865
0.25657356 0.0093281027 -0.047035396
0.25897917 0.0093432534 -0.049242511
0.24576025 0.0096568502 -0.04875049
0.24763693 0.0096790791 -0.050479203
0.21556123 0.0097158859 -0.051638961
0.21585119 0.0097007379 -0.051922306
0.2163707 0.0097147087 -0.052389383
0.19332431 0.01000947 -0.049967766
0.19352518 0.0099890931 -0.050195992
0.19367224 0.010683787 -0.051226303
0.19409283 0.010709396 -0.05158776
0.18136631 0.010484729 -0.048226133
0.17521909 0.010474832 -0.050914869
0.16133229 0.011281414 -0.047273114
0.16544659 0.011125241 -0.050715998
0.15503229 0.010956184 -0.048810393
0.15898657 0.010997598 -0.052446187
0.13560605 0.01141353 -0.046221584
0.13713475 0.011390068 -0.047671989
0.13845511 0.01136857 -0.048953548
0.13897116 0.011389416 -0.049423978
0.13980249 0.011420724 -0.050131842
0.1311107 0.011526389 -0.049276993
0.12490696 0.011391108 -0.050288215
0.11514428 0.011384029 -0.047938183
0.11059088 0.011944167 -0.050735578
0.10267365 0.011753312 -0.049725458
0.10308051 0.011754289 -0.05008705
0.097772121 0.011719907 -0.051399246
0.074803323 0.012369337 -0.048414722
0.067887172 0.01197328 -0.047313735
0.056468904 0.012398412 -0.047827065
0.046013385 0.013126746 -0.049268499
-0.0053359121 0.012028446 -0.0063324943
-0.0057462305 0.012919432 -0.0065054446
-0.0052566156 0.012922324 -0.0069539472
0.29573786 0.0095370105 -0.046552986
0.29750255 0.0095419651 -0.048181668
0.29887658 0.0095450655 -0.049475044
0.30495524 0.0095870299 -0.055091426
0.29689461 0.010100588 -0.048627511
0.2823748 0.0095805237 -0.047158077
0.28499195 0.009559297 -0.049596548
0.28079861 0.01009434 -0.046746448
0.28447321 0.010134992 -0.050117522
0.3063744 0.010263378 -0.070410252
0.2686668 0.0098616593 -0.047439188
0.30577999 0.010089361 -0.081757322
0.30606455 0.010691289 -0.083000392
0.2547926 0.010570096 -0.047295108
0.25711292 0.010544725 -0.049501643
0.25822246 0.010548462 -0.050499767
0.24719076 0.010294438 -0.051014483
0.23324646 0.010948905 -0.049702123
0.23387203 0.010922164 -0.050326288
0.23470272 0.010902995 -0.051100209
0.19873941 0.011784066 -0.04824473
0.15434103 0.011689612 -0.048992738
0.15355591 0.012417713 -0.049096137
0.14211625 0.012231893 -0.045769453
0.1439434 0.012177913 -0.047553718
0.14422973 0.012167512 -0.047839582
0.13772346 0.012181364 -0.049021289
0.14015236 0.012196111 -0.051223725
0.13011684 0.012304293 -0.049148038
0.11332969 0.012877667 -0.047925189
0.11530636 0.012192925 -0.048853606
0.11626141 0.012940542 -0.050565824
0.10608479 0.012677659 -0.047390103
0.10982518 0.012715732 -0.050814629
0.098050505 0.013328419 -0.046926916
0.091181889 0.012530049 -0.045977056
0.091448039 0.012564419 -0.046189561
0.091840178 0.013395247 -0.047233507
0.067279369 0.013446261 -0.053324312
0.068127245 0.013482081 -0.054030597
-0.0051519424 0.013682128 -0.0025066212
0.039510205 0.014099999 -0.048977971
0.034746468 0.013670438 -0.054179773
0.29347423 0.010633582 -0.046466619
0.29501319 0.010666166 -0.04789792
0.29155424 0.011173852 -0.045755386
0.29453528 0.011227081 -0.048444644
0.28165138 0.010719921 -0.048493803
0.30558753 0.010855934 -0.070674628
0.28267878 0.011287381 -0.050458491
0.26672137 0.011073522 -0.04752709
0.3075639 0.011328715 -0.085346848
0.26352045 0.011625475 -0.045573905
0.26772624 0.011678004 -0.049479067
0.30861762 0.011915103 -0.08733125
0.25564373 0.011145527 -0.049095884
0.2442382 0.012115856 -0.051236734
0.23251241 0.011579185 -0.049963415
0.23500006 0.011555815 -0.052322268
0.23025863 0.012197227 -0.048839509
0.23187497 0.012195963 -0.050332367
0.19873986 0.012473774 -0.049154878
0.18972711 0.012063925 -0.049305111
0.18925352 0.012744949 -0.049768552
0.17680423 0.012564984 -0.046615899
0.1793111 0.012505429 -0.049070999
0.17975898 0.012522477 -0.04945901
0.17091168 0.012629827 -0.049482003
0.17117852 0.012623822 -0.049730361
0.16052683 0.012782114 -0.048190609
0.15178208 0.01318209 -0.048261896
0.14029239 0.01291869 -0.044983715
0.1416115 0.012941531 -0.046164796
0.14245346 0.012995197 -0.046894684
0.14477181 0.012944393 -0.049154863
0.13275902 0.01292252 -0.045211852
0.11880425 0.013263715 -0.04665783
0.12031506 0.013315747 -0.047978953
0.10879605 0.013480956 -0.050644964
0.10810135 0.014266079 -0.050770402
0.099435329 0.01339208 -0.048114166
0.092417091 0.014185117 -0.048540652
0.083233789 0.014288854 -0.046159938
0.075825259 0.014503424 -0.045381635
0.076765686 0.014543001 -0.046203539
0.082817703 0.014609593 -0.051792338
0.0549981 0.014133641 -0.047720432
-0.0043050423 0.014596439 -0.003849782
0.035642147 0.014987631 -0.045917913
0.028093264 0.014592769 -0.048476338
0.030377805 0.014581847 -0.050600007
0.031675443 0.014580958 -0.051876947
0.033299848 0.014606304 -0.053323045
0.018939152 0.015363517 -0.050040133
0.29274499 0.011759452 -0.047816277
0.29403079 0.011786992 -0.048991799
0.3058846 0.011843666 -0.059992939
0.2908352 0.012299226 -0.047111943
0.30539653 0.012409769 -0.060547829
0.27668294 0.01184272 -0.045893371
0.27853078 0.011827204 -0.047620609
0.27951923 0.011822947 -0.048566267
0.27984041 0.011826878 -0.048856169
0.28091523 0.011858422 -0.049831033
0.3053847 0.012005633 -0.07248053
0.27809018 0.012421183 -0.048185945
0.26723891 0.012276256 -0.050006956
0.30686432 0.012508061 -0.086669892
0.30815619 0.012524057 -0.087872922
0.30636865 0.013096617 -0.087200001
0.30767703 0.013111478 -0.088405445
0.25386423 0.012394389 -0.049346238
0.25202876 0.012979515 -0.048621669
0.25305784 0.012989633 -0.049586475
0.23046868 0.012837787 -0.049978584
0.21013187 0.012983276 -0.051226899
0.20912921 0.013613382 -0.051265985
0.19878292 0.013148296 -0.050100997
0.19912153 0.013174518 -0.05038093
0.18755285 0.01341753 -0.049112082
0.18826053 0.013410248 -0.049759671
0.18861067 0.013426514 -0.050078735
0.1788792 0.013224219 -0.049510181
0.16987742 0.013322449 -0.049391866
0.17026566 0.013325465 -0.04976362
0.1427189 0.01373265 -0.048004523
0.14542821 0.013741038 -0.050500587
0.14324145 0.013687747 -0.048549533
0.12945539 0.014382401 -0.043801397
0.12439214 0.014577223 -0.04620567
0.12541945 0.014581501 -0.04719232
0.11519134 0.014059096 -0.044022396
0.11942744 0.014111936 -0.047931984
0.11971897 0.014120389 -0.048170939
0.11656794 0.01487132 -0.046065822
0.10405068 0.014242047 -0.04703702
0.10050775 0.015081018 -0.044390455
0.1009637 0.015053142 -0.044875905
0.10153751 0.015066599 -0.045389548
0.10267131 0.015040013 -0.046519369
0.10600813 0.015101329 -0.049523056
0.10814682 0.015077259 -0.051551953
0.097440377 0.014957309 -0.047799215
0.083580285 0.015134467 -0.04715848
0.068998843 0.015461361 -0.050881758
0.034463853 0.016113279 -0.050443932
0.035026237 0.016099263 -0.050981596
0.036046788 0.016094275 -0.051957116
0.028328896 0.015467066 -0.049277544
0.028397039 0.016370829 -0.049899817
0.029214993 0.016382899 -0.050639704
0.35456604 0.012249327 -0.077814177
0.35483342 0.012254501 -0.078060225
0.35428667 0.012243915 -0.07756567
0.35505167 0.012254382 -0.078271329
0.30293649 0.013057113 -0.046290666
0.29034543 0.012847112 -0.047666192
0.29197806 0.012889745 -0.049132019
0.28881657 0.013406117 -0.0472406
0.28989124 0.013410427 -0.048241407
0.27598614 0.012998083 -0.04723686
0.27755475 0.013018094 -0.048677355
0.27419075 0.013575513 -0.046557829
0.26572707 0.012850383 -0.049564019
0.26387972 0.01342066 -0.048870116
0.25153667 0.013595642 -0.049136773
0.21721347 0.013744521 -0.04919377
0.21765645 0.014213422 -0.050199911
0.21638542 0.014359437 -0.049410194
0.20773743 0.014300485 -0.050873905
0.19489841 0.01443974 -0.048370019
0.18906315 0.014809071 -0.052292824
0.17515966 0.014619755 -0.047813371
0.16579512 0.014713178 -0.047365472
0.16889776 0.014713401 -0.050266773
0.16922253 0.014740539 -0.050524116
0.15912001 0.014945757 -0.049449697
0.14502618 0.015259514 -0.044655621
0.13032424 0.015173601 -0.045394912
0.13109897 0.015194344 -0.046101108
0.12029994 0.015319386 -0.043242931
0.11845644 0.015626552 -0.04864879
0.11715128 0.015583159 -0.047484681
0.11019576 0.015297825 -0.047190443
0.10106257 0.015855871 -0.04571937
0.092207775 0.015781203 -0.043628275
0.069012672 0.016607288 -0.046356991
0.069067016 0.016287901 -0.051634252
0.040735275 0.01658898 -0.041593194
0.030248046 0.016730981 -0.042092256
0.35170555 0.013836836 -0.078271806
0.3572486 0.013864439 -0.083407506
0.2883288 0.013966992 -0.047803447
0.30547804 0.01354497 -0.062631264
0.27523574 0.014163461 -0.048534036
0.30586004 0.014876427 -0.077915892
0.26066202 0.013998911 -0.046898305
0.26155925 0.01461342 -0.048673242
0.26208264 0.014604285 -0.049166173
0.26336566 0.0140048 -0.049382418
0.26499462 0.014045746 -0.050853714
0.24955408 0.014177795 -0.048315942
0.23600918 0.015205353 -0.04838191
0.23687214 0.014774949 -0.048430771
0.23732239 0.015244027 -0.049573377
0.23775832 0.015257878 -0.049971148
0.20685421 0.014998511 -0.050934821
0.20587648 0.015685305 -0.050905421
0.19492072 0.015117353 -0.049310356
0.19548477 0.015112559 -0.049825042
0.17449054 0.015303012 -0.048099101
0.17402364 0.015983414 -0.048562184
0.16506097 0.015419568 -0.047542453
0.16411529 0.016112637 -0.04759793
0.16457854 0.016141118 -0.047975987
0.15856077 0.015669731 -0.049800321
0.1467611 0.016281633 -0.039788172
0.1581095 0.016386917 -0.050234288
0.14503589 0.016003998 -0.045504704
0.1440113 0.016676147 -0.052559763
0.12930757 0.015908422 -0.045271203
0.11837405 0.01677932 -0.043154806
0.10737681 0.016872562 -0.04611218
0.10839516 0.016827118 -0.047139093
0.11500825 0.016892448 -0.053208932
0.098680839 0.016605472 -0.044342741
0.069109842 0.017472541 -0.047072545
0.0041143447 0.017256422 -0.0031329468
0.0048383251 0.017213229 -0.0039269552
0.048757866 0.017495887 -0.049652115
0.03711836 0.017683232 -0.049009353
0.020444214 0.018169679 -0.043519713
0.028656706 0.018181771 -0.051172912
-0.0040791109 0.018917205 -0.048602499
-0.00049879402 0.018953159 -0.051877283
-0.0028275326 0.018848605 -0.054082267
0.32024574 0.013866527 -0.019756615
0.32180119 0.013905884 -0.02117531
0.27650422 0.01386911 -0.0097814351
0.34825593 0.01436069 -0.07610248
0.34965181 0.014904946 -0.078414723
0.35515434 0.014663283 -0.083024755
0.35707927 0.014932405 -0.085310474
0.30067122 0.014681574 -0.047255665
0.30196983 0.014699121 -0.048464149
0.30333853 0.015281761 -0.050721377
0.28673941 0.014545922 -0.047326148
0.30573049 0.015246073 -0.065916225
0.27130306 0.015223493 -0.046959713
0.27154377 0.015236914 -0.047183856
0.27339253 0.014734885 -0.047823533
0.27455914 0.01532384 -0.049885005
0.31270808 0.015513305 -0.085272744
0.25842863 0.01513819 -0.046808586
0.26001292 0.015180698 -0.048250198
0.26159978 0.015202047 -0.049702674
0.25711277 0.015736951 -0.04658857
0.24501377 0.015919797 -0.047080755
0.24716441 0.015350378 -0.048056453
0.23494881 0.015797123 -0.048389256
0.22765489 0.01600817 -0.052105963
0.21057627 0.016281471 -0.046830654
0.21141885 0.016293567 -0.047590554
0.15331592 0.015980845 -0.0032358319
0.20560342 0.016340684 -0.051594794
0.17911537 0.016794477 -0.045805141
0.14548345 0.01752401 -0.047513455
0.14622618 0.016810725 -0.047337443
0.11841996 0.017548896 -0.043987557
0.1265361 0.017647956 -0.051431939
0.10859104 0.017902067 -0.041851804
0.10933179 0.017089412 -0.041817382
0.11154008 0.017176187 -0.043747425
0.10555564 0.017610867 -0.04523547
0.10443446 0.018281214 -0.051107526
0.091197237 0.018314626 -0.050957009
0.069993973 0.018299675 -0.048607171
0.069058627 0.018832088 -0.053625301
0.03571929 0.018433502 -0.043170303
0.03539668 0.018579043 -0.04794094
0.037323803 0.018588986 -0.049739942
0.040016055 0.018580066 -0.052231133
0.02905266 0.019132691 -0.05202134
0.0015092567 0.019065343 -0.049450792
0.0020517111 0.01908318 -0.049928039
0.0038766414 0.019116603 -0.051587246
0.0044467226 0.019090798 -0.052146792
-0.004491888 0.019870711 -0.048607789
-0.0039806888 0.019879533 -0.049090102
-0.002481401 0.019872935 -0.050464347
-0.0015900284 0.019873098 -0.051314324
-0.0010860562 0.019889176 -0.051778361
1.4849007e-05 0.018962597 -0.052364558
0.32164273 0.014925396 -0.023116246
0.26383913 0.014853129 -0.00011216104
0.3544594 0.015469702 -0.083909914
0.35627928 0.01547718 -0.085598424
0.29678187 0.01580666 -0.045666605
0.29854813 0.015808295 -0.047322497
0.3028115 0.015823014 -0.051260531
0.30461347 0.015860425 -0.052918106
0.28600913 0.015675638 -0.04867053
0.28731233 0.015648166 -0.049904525
0.3057878 0.015804201 -0.066986039
0.28421485 0.016222985 -0.048003793
0.26978546 0.015775789 -0.046570599
0.27266115 0.015877282 -0.04915081
0.31061119 0.016076611 -0.084322006
0.26923203 0.016359147 -0.047063157
0.31196755 0.01666907 -0.086577177
0.31330705 0.016681124 -0.087819561
0.22141798 0.016128788 -0.014488712
0.25630975 0.016920567 -0.047831655
0.25932097 0.016361125 -0.049579844
0.24428493 0.016536487 -0.047364354
0.23202209 0.016452253 -0.046570167
0.23136249 0.01707734 -0.046924576
0.21095559 0.016938774 -0.048092216
0.21179365 0.016966561 -0.048841819
0.21123546 0.017601803 -0.049283221
0.20008963 0.016930308 -0.047458395
0.19965693 0.01761321 -0.047938526
0.20365389 0.017644769 -0.051633105
0.19515668 0.01782342 -0.053154916
0.17636713 0.018164482 -0.053276211
0.11229819 0.017188536 -0.0013570338
0.10968588 0.017848605 0.00011463463
0.11180997 0.017910279 -0.0017769188
0.15671253 0.018538859 -0.051474556
0.15697317 0.018544469 -0.051739246
0.14154682 0.018232653 -0.044699192
0.1238548 0.018424273 -0.049709469
0.1102874 0.018707324 -0.044191256
0.10343623 0.019065525 -0.050928831
0.10475859 0.019095464 -0.052133009
0.10578984 0.019081332 -0.05310604
0.10632734 0.019049417 -0.053663209
0.084558532 0.019047866 -0.045595407
0.085711405 0.019060962 -0.046642438
0.091739178 0.019074004 -0.052290767
0.092306554 0.019073881 -0.052804023
0.085901514 0.019350095 -0.05272834
0.075618118 0.019590857 -0.049220443
0.077744767 0.019598834 -0.051209241
0.072538823 0.019208223 -0.051565468
0.0045313463 0.019140471 0.00041036308
0.061046287 0.019522134 -0.051911294
0.06155619 0.019504406 -0.052397966
0.049469531 0.019311832 -0.051448211
-0.0048672184 0.019057797 -0.0061748028
0.035079643 0.019333389 -0.043111138
-0.0047874898 0.019947084 -0.006818302
0.0049589053 0.019991331 -0.015904114
0.026098728 0.020159313 -0.035434559
0.040603817 0.019502886 -0.053348154
0.030682623 0.019739494 -0.049069658
0.031187862 0.019728776 -0.049556181
-0.0038854927 0.01980589 -0.022100419
0.025923282 0.020046148 -0.049629956
0.0019935742 0.020295834 -0.032404609
0.01488778 0.020389339 -0.044351012
0.019688234 0.020435462 -0.048766106
0.021533117 0.020445073 -0.050448902
0.0053627715 0.020228988 -0.049124002
0.0064367875 0.02025619 -0.050068572
0.0022823438 0.020026656 -0.050579794
0.0027906299 0.02003709 -0.051044926
0.0032198578 0.020036574 -0.05143667
-0.0037303492 0.0208349 -0.049725272
-0.0031970441 0.020821236 -0.050225481
0.29809672 0.016364058 -0.047909603
0.30413657 0.016402455 -0.053493753
0.3057774 0.016402345 -0.055015206
0.30754498 0.016409619 -0.0566836
0.30522269 0.016949767 -0.055541486
0.32738897 0.017109973 -0.07602638
0.28239793 0.017354179 -0.048341587
0.28503281 0.017355088 -0.050794542
0.22072415 0.016620301 -0.0031849742
0.30964649 0.017522886 -0.085924149
0.25535625 0.016929174 -0.046906933
0.24374871 0.017174128 -0.047822505
0.2479876 0.017190449 -0.051744372
0.24579948 0.017773978 -0.050701439
0.22980164 0.017692178 -0.0464461
0.2300072 0.01768609 -0.04665415
0.1933119 0.0180519 -0.013672799
0.22349589 0.017839294 -0.051159903
0.22246647 0.018466897 -0.051153868
0.22297433 0.018473815 -0.051626295
0.20786692 0.018219389 -0.047126412
0.20940526 0.018189168 -0.048579454
0.1999156 0.018235659 -0.049149677
0.20106134 0.01822054 -0.050258964
0.20286971 0.018295221 -0.051848412
0.20313828 0.01829569 -0.052085072
0.15292193 0.018179797 -0.015025064
0.17845199 0.018176243 -0.046961293
0.18077669 0.018906455 -0.049976096
0.17114498 0.018865606 -0.049317122
0.17261186 0.01875166 -0.050822526
0.16256829 0.018931869 -0.049661919
0.15492369 0.01925415 -0.050709695
0.15572922 0.019264599 -0.051432937
0.15701325 0.01927007 -0.052632779
0.14162821 0.019004786 -0.045578972
0.13650991 0.019650526 -0.048884034
0.13116983 0.019750006 -0.051014364
0.11827394 0.01909871 -0.045451015
0.12557054 0.019182222 -0.05213207
0.12027599 0.019942814 -0.047984987
0.061416909 0.019733386 -0.006637454
0.10385247 0.01997197 -0.04598172
0.062453628 0.019651474 -0.013685755
0.10109346 0.019855991 -0.04952088
0.069148168 0.019687882 -0.025995657
0.088595539 0.019823192 -0.043957859
0.095294893 0.019868754 -0.050150886
0.044109643 0.019867267 -0.014804818
0.077687368 0.020088641 -0.045888931
0.084865034 0.020149887 -0.05251953
0.073869854 0.020443125 -0.048275217
0.074130818 0.020404318 -0.048574418
0.0771382 0.020447927 -0.051316261
0.071799204 0.020025026 -0.051585242
0.070239395 0.020823067 -0.050873861
0.070545122 0.020845773 -0.051132441
0.020318151 0.020272788 -0.0097408295
0.043323293 0.020425724 -0.031061172
0.063929588 0.020584777 -0.050061196
0.010872543 0.020053402 -0.0061358958
0.03862597 0.020226348 -0.031807385
0.056880623 0.02036551 -0.048676372
0.059016064 0.020410443 -0.05058293
0.060353875 0.020407489 -0.051839083
0.0072280094 0.019912615 -0.0078735501
0.020699449 0.020007953 -0.020336658
0.028677508 0.020090817 -0.027659871
0.041857198 0.020148478 -0.039916471
0.053398237 0.020241849 -0.050544798
0.054052189 0.020279504 -0.051122054
0.0067759529 0.020785626 -0.0080870464
0.013437942 0.020824093 -0.014232464
0.014585413 0.020834144 -0.015289366
0.019258112 0.020861063 -0.019602954
0.026878871 0.020936485 -0.026649527
0.032391801 0.020950275 -0.031803794
0.040631697 0.021012539 -0.039384872
0.041150227 0.021019103 -0.039896712
0.046726614 0.021065027 -0.045011446
0.049873248 0.021061132 -0.047979265
0.029059723 0.020969369 -0.03374473
0.035616845 0.020115785 -0.039204709
0.039397523 0.021010483 -0.043295026
0.041500777 0.021003319 -0.045271173
0.042255998 0.021026531 -0.04598549
0.04732962 0.021112947 -0.050583094
0.047595084 0.021065144 -0.050895259
0.0011853725 0.020886598 -0.012914516
0.012182184 0.020921037 -0.023178488
0.017605036 0.020957328 -0.028204314
0.017991804 0.020964621 -0.028573617
0.018532373 0.020981736 -0.029019162
0.021972604 0.020986214 -0.032203637
0.025420949 0.021041064 -0.035364248
0.026381195 0.020171065 -0.0356538
0.034317687 0.02107971 -0.043635942
0.035152197 0.020220455 -0.043785825
0.040256262 0.021110311 -0.049118072
0.040890962 0.021105828 -0.04976055
0.042299002 0.0211314 -0.050994322
0.013993531 0.020210136 -0.02930326
0.015329644 0.020246152 -0.030474596
0.028019235 0.020348102 -0.042180806
0.032530531 0.02036937 -0.046421379
-0.0054488629 0.021023856 -0.011809707
-0.0038264841 0.021032732 -0.013306774
0.0053974018 0.021061573 -0.021873653
0.0059077293 0.021087864 -0.022335418
0.0065977648 0.021109784 -0.022943377
0.013037667 0.021120321 -0.028947756
0.013271615 0.021112408 -0.029189683
0.0019465759 0.020429464 -0.023077823
0.010362037 0.020466203 -0.030888833
0.017521255 0.020553421 -0.037429847
0.018529877 0.020535989 -0.038431793
0.020952225 0.020563519 -0.040625446
0.024107859 0.020596238 -0.043562852
0.02997832 0.020629922 -0.048968814
0.03078948 0.020637818 -0.049706936
0.0056870058 0.020784037 -0.031480893
0.011453867 0.02082471 -0.03684175
0.02525337 0.020956688 -0.049564697
-0.0026177838 0.021215357 -0.028601885
-0.0011380389 0.021191482 -0.030053765
0.0070747137 0.021289239 -0.037574641
0.012887269 0.021316754 -0.042971872
0.01346536 0.021287778 -0.043524645
0.0096340254 0.020850861 -0.044399224
0.010467216 0.02085701 -0.045151107
0.011283606 0.020886285 -0.045849353
0.015475824 0.020920038 -0.049754858
0.016563177 0.020927409 -0.050765738
0.017090335 0.020935308 -0.05122757
-0.0034798682 0.021334523 -0.037131816
-0.0023777485 0.021397771 -0.038041152
0.0047327951 0.021450616 -0.044616051
0.0058273077 0.021437747 -0.045644052
0.010551259 0.021482043 -0.04999809
0.012088552 0.021466115 -0.051498592
-0.00018073618 0.021135237 -0.044419669
0.00031782687 0.021156913 -0.04487557
0.00076509267 0.021171015 -0.045257159
0.0054362267 0.021165723 -0.049647644
0.0069524348 0.021223668 -0.050950505
0.0075824186 0.021194622 -0.051610544
0.0080866069 0.021165906 -0.052148789
-0.0014256984 0.020941773 -0.047572829
0.0048922002 0.020980885 -0.053442523
0.32575351 0.016193852 0.0039075613
0.35505402 0.016609248 -0.040697545
0.31987423 0.017326364 -0.056144506
0.29580235 0.017460171 -0.047819003
0.29739907 0.01746309 -0.049303114
0.30553663 0.017499242 -0.056843162
0.3127147 0.018084995 -0.06451124
0.31928605 0.018126605 -0.070614845
0.32100016 0.017513119 -0.07126154
0.32340017 0.018064793 -0.074516386
0.32587403 0.018156473 -0.07670401
0.27925822 0.017874405 -0.046474233
0.28064728 0.017898485 -0.047746599
0.28323242 0.0179209 -0.050125301
0.30619591 0.018032199 -0.071399629
0.28167197 0.018489586 -0.049684435
0.30569434 0.018598326 -0.07194674
0.30627432 0.018595597 -0.072475582
0.2669946 0.018162062 -0.04791069
0.30627087 0.018385135 -0.084272668
0.21341723 0.018326959 0.00058212876
0.21398713 0.018353786 8.2120299e-05
0.21456657 0.018377509 -0.00040470064
0.21944077 0.018347757 -0.0049716979
0.30575758 0.018957954 -0.084805816
0.30864507 0.018967234 -0.087494209
0.25359631 0.018140482 -0.047215283
0.25831544 0.018140472 -0.051607072
0.25386903 0.018728573 -0.048458725
0.25437433 0.018697198 -0.048968062
0.20246859 0.018071042 -0.01163587
0.20622134 0.018154293 -0.015023172
0.1978327 0.018662281 -0.0082646757
0.19860163 0.01868492 -0.008966282
0.23883656 0.018976646 -0.046186194
0.24278545 0.019028101 -0.049834356
0.21825284 0.01850486 -0.047204062
0.21882294 0.01911876 -0.048682958
0.22085807 0.019117124 -0.050597951
0.22167282 0.019119771 -0.051355198
0.22351603 0.019120533 -0.053080663
0.16118649 0.018586373 -0.0048339665
0.20709747 0.018911613 -0.047301397
0.20841753 0.018847544 -0.048599079
0.20869228 0.018845083 -0.048840478
0.21188529 0.018925644 -0.051739648
0.21244057 0.018919328 -0.052257702
0.1620068 0.019254951 -0.0065140426
0.16699146 0.019259917 -0.01115267
0.16722843 0.019270299 -0.011379331
0.19575562 0.018875783 -0.046231031
0.20045134 0.018875808 -0.050613686
0.20178884 0.01891466 -0.051817626
0.19469488 0.019523323 -0.046192259
0.19765623 0.019571012 -0.048871115
0.19970334 0.019527493 -0.050849617
0.19997813 0.019533338 -0.05109778
0.15376894 0.018907947 -0.016650766
0.18961793 0.019143462 -0.049858421
0.19030723 0.019131094 -0.050501376
0.17778297 0.019557007 -0.04812701
0.17984362 0.019533947 -0.050084725
0.18017641 0.019579478 -0.050334781
0.16000028 0.019650035 -0.048131302
0.12276165 0.020145407 -0.014527276
0.13706097 0.020193234 -0.027789041
0.13866231 0.020213654 -0.029267907
0.14605467 0.020224743 -0.036145881
0.15948859 0.020369099 -0.048532888
0.13985541 0.019886466 -0.037636235
0.14515506 0.01986276 -0.042610511
0.10009003 0.019469954 -0.0080073327
0.14632778 0.019772444 -0.050769433
0.14682783 0.019779291 -0.05123888
0.088545769 0.020124484 0.0018405169
0.10888237 0.020218121 -0.017034546
0.12744279 0.020370379 -0.034160465
0.12066215 0.020245789 -0.035139859
0.13002241 0.020357765 -0.043694615
0.13026735 0.020359403 -0.043930992
0.13561293 0.02038694 -0.048886582
0.11982702 0.02040281 -0.041386232
0.12440069 0.020453984 -0.045569852
0.096506551 0.020573767 -0.026747644
0.096777961 0.020564092 -0.027029291
0.1208393 0.020686164 -0.049344987
0.12109773 0.020678332 -0.049587741
0.12184882 0.020694224 -0.050313219
0.10824774 0.020227525 -0.043915942
0.081076995 0.020833731 -0.019555688
0.085306704 0.020842694 -0.023442939
0.089272186 0.020890381 -0.02711226
0.10124172 0.021026438 -0.038100392
0.10327838 0.020996816 -0.040067539
0.10756169 0.021057997 -0.043972194
0.11174616 0.021011472 -0.047956064
0.11252542 0.021018595 -0.048675671
0.060807377 0.020523025 -0.0068422854
0.070311695 0.020578224 -0.01565586
