# .PCD v0.7 - Point Cloud Data file format
VERSION 0.7
FIELDS x y z
SIZE 4 4 4
TYPE F F F
COUNT 1 1 1
WIDTH 1274
HEIGHT 1
VIEWPOINT 0 0 0 1 0 0 0
POINTS 1274
DATA ascii
-0.066817082 -0.011827478 0.031603225
-0.057092205 -0.014764626 0.029140312
-0.053712033 -0.015825836 0.028319648
-0.052413665 -0.016195998 0.027982987
-0.05171036 -0.016385131 0.027780987
-0.11037757 0.0073503936 0.041753631
-0.10460985 0.0054976502 0.040442429
-0.10225131 0.0048020538 0.039810579
-0.10021456 0.0041202763 0.039362431
-0.098920807 0.0037690969 0.039010759
-0.087206133 0.00015499629 0.036124125
-0.085458055 -0.00043661334 0.035742961
-0.080092698 -0.0020748302 0.034415282
-0.078393817 -0.0026359875 0.033988249
-0.073001511 -0.0043060426 0.032710623
-0.067337014 -0.0060951207 0.031334456
-0.065656044 -0.00656287 0.030893985
-0.063993618 -0.0071602892 0.030576412
-0.063666597 -0.0072522853 0.030484203
-0.061643884 -0.0078600906 0.029977955
-0.059283607 -0.0086203441 0.029424042
-0.052252322 -0.010703051 0.027586713
-0.050565153 -0.011261974 0.027208826
-0.047172591 -0.012301069 0.026335917
-0.045491114 -0.012836255 0.025954401
-0.040472455 -0.014420304 0.024755469
-0.036692403 -0.015598314 0.023834454
-0.035038039 -0.016086742 0.023427164
-0.032353915 -0.016945858 0.022761207
-0.027067356 -0.01858918 0.021508787
-0.025676936 -0.019047953 0.021186136
-0.022313766 -0.02010674 0.020379772
-0.017265379 -0.021656573 0.019134201
-0.015899375 -0.022097744 0.01879961
-0.0068759248 -0.024879068 0.016604031
-0.005236432 -0.025373563 0.01619547
-4.8562884e-05 -0.026983842 0.014896039
0.009926945 -0.030092504 0.012490302
-0.11725807 0.014970277 0.043281514
-0.11058018 0.012932882 0.041636631
-0.10926043 0.012487043 0.041339673
-0.10758636 0.012000026 0.040916428
-0.10584068 0.011406421 0.040499836
-0.10382155 0.010782048 0.040046103
-0.1021071 0.01025357 0.039613727
-0.097448736 0.0087993899 0.038455933
-0.095734946 0.0082524242 0.038079992
-0.090690941 0.0067305863 0.036806289
-0.085658774 0.0051435847 0.035614662
-0.084044881 0.0046203751 0.035213795
-0.075223193 0.0019179415 0.033053439
-0.073878765 0.0015289672 0.032686707
-0.072247148 0.00096691214 0.032326672
-0.068518929 -0.00020684674 0.031448483
-0.06655059 -0.0008054506 0.030948471
-0.064494669 -0.0014246497 0.030437373
-0.060841732 -0.0025852267 0.029587541
-0.059492208 -0.0030434821 0.029282019
-0.05664023 -0.0039228089 0.028594624
-0.054591194 -0.0045793988 0.028078413
-0.050959587 -0.0056517962 0.027154651
-0.049286537 -0.0062052384 0.026764154
-0.047674328 -0.0066332612 0.026290478
-0.042696662 -0.0081704054 0.025065966
-0.041316435 -0.0086271465 0.024753748
-0.037637942 -0.0097769573 0.023876496
-0.034086995 -0.010864668 0.022973388
-0.030548401 -0.011991618 0.022164326
-0.028909951 -0.012483068 0.021732466
-0.026871808 -0.013153214 0.021285297
-0.020135343 -0.015186373 0.019579567
-0.018836714 -0.015628394 0.019306565
-0.014073215 -0.017146219 0.018163003
-0.011438593 -0.017922055 0.017488575
-0.0087514594 -0.018777683 0.016848246
-0.0079175234 -0.019036006 0.01664084
-0.0040672272 -0.020230588 0.015696567
0.00090003014 -0.021752961 0.014483739
0.0066505671 -0.023568764 0.013111301
0.012165993 -0.025299635 0.011790983
-0.12243161 -0.038280237 0.048211198
-0.035456337 -0.065295681 0.026991067
-0.12509502 -0.030252198 0.048615593
-0.12267466 -0.030950729 0.047954224
-0.1213611 -0.031406332 0.04768385
-0.11968318 -0.031930264 0.047279585
-0.11855499 -0.025876584 0.046292264
-0.11214085 -0.027863273 0.044719748
-0.12259994 -0.023861457 0.047982525
-0.12123784 -0.024226118 0.047577254
-0.12024711 -0.02454973 0.047363725
-0.11721726 -0.025464194 0.046576094
-0.11117935 -0.02737971 0.045148686
-0.0366496 -0.050552305 0.026989929
-0.1193584 -0.012102545 0.046330515
-0.11566672 -0.01323846 0.045419529
-0.1181795 -0.0068987971 0.045216456
-0.11381031 -0.0082603227 0.044129513
-0.11276951 -0.008617349 0.043927055
-0.11232632 -0.0087308586 0.043815203
-0.044615507 -0.029753787 0.027262751
-0.043225668 -0.030207284 0.026951866
-0.11952607 -0.005720668 0.046225574
-0.11551382 -0.0069494462 0.045246758
-0.046980083 -0.028261201 0.028543187
-0.11813794 -0.0005699764 0.045202073
-0.053954907 -0.02053507 0.029575832
-0.050192796 -0.021691207 0.028638156
-0.048528187 -0.022245817 0.028269662
-0.11773197 0.005588246 0.045361333
-0.1166547 0.004471343 0.044416741
-0.1144238 0.0045764018 0.044542737
-0.11275358 0.0036228499 0.043829057
-0.11091268 0.0030741077 0.043365438
-0.10693733 0.0021894649 0.042769589
-0.1028863 0.00090762135 0.041805468
-0.098124705 -0.0012800731 0.039898902
-0.096574217 -0.0010284334 0.040252987
-0.084415212 -0.0048053125 0.03727724
-0.080706887 -0.0059252903 0.036345772
-0.077547491 -0.0076685306 0.034852196
-0.075340353 -0.0076473132 0.035075366
-0.073822387 -0.0084663779 0.034326162
-0.071939223 -0.0094355419 0.033525869
-0.070243768 -0.0099886172 0.033130884
-0.068596266 -0.010475243 0.032732211
-0.06384889 -0.012000773 0.03160863
-0.061200514 -0.012095718 0.031680293
-0.058044702 -0.013754411 0.030134076
-0.055562228 -0.01374721 0.030205786
-0.055085458 -0.014636248 0.029344186
-0.04478959 -0.017121617 0.027600758
-0.043105334 -0.017633265 0.027173959
-0.041046478 -0.018272977 0.026639838
-0.039359353 -0.018814612 0.02627665
-0.035035558 -0.02015342 0.025223382
-0.02833657 -0.022263534 0.023612414
-0.02498354 -0.023324132 0.022811063
-0.019923829 -0.024881646 0.021572087
-0.018590033 -0.025266815 0.021212716
-0.014878184 -0.026435003 0.020318013
-0.011463583 -0.028230388 0.018744688
-0.0095211864 -0.028130744 0.019054936
-0.10603172 0.0067259697 0.041484516
-0.1000223 0.0048259376 0.040029839
-0.096984923 0.0038559837 0.039309338
-0.092281871 0.002380494 0.038154949
-0.089924626 0.001711241 0.03753572
-0.081532158 -0.00088643841 0.035507217
-0.078148246 -0.0019896906 0.034693316
-0.076152951 -0.0025746338 0.034192607
-0.074469522 -0.0031418037 0.033830777
-0.067060962 -0.0054518953 0.032004647
-0.05661504 -0.0087214448 0.029516878
-0.045258962 -0.012200713 0.026651897
-0.043516688 -0.012750611 0.026263451
-0.041836597 -0.013231955 0.025786197
-0.036456421 -0.014917068 0.024514966
-0.034791641 -0.015457643 0.024125511
-0.02403786 -0.018769097 0.021465745
-0.02070982 -0.019876957 0.020732047
-0.019355416 -0.020249683 0.020340962
-0.014034547 -0.021880161 0.019044377
-0.013034247 -0.02221439 0.018803403
-0.009305805 -0.023370285 0.017894572
-0.0013339221 -0.025882266 0.015998688
0.0020485371 -0.026884433 0.015110943
0.0040928423 -0.02759077 0.01469557
0.010234207 -0.029483989 0.013170112
0.012941882 -0.03030999 0.012483623
-0.11629694 0.010624666 0.044727169
-0.1159336 0.01050942 0.044643655
-0.11459816 0.010058571 0.044349536
-0.11288574 0.0095812818 0.043865494
-0.10988212 0.0086976513 0.043101583
-0.10780897 0.0079650348 0.042670324
-0.10578891 0.0073835878 0.04214168
-0.10411727 0.0068186428 0.041765016
-0.10173095 0.0060899509 0.041171879
-0.099746101 0.00544897 0.04069034
-0.095408618 0.0040867338 0.03967768
-0.094362319 0.0037719896 0.039394669
-0.092071474 0.0030552838 0.038856566
-0.090705842 0.0026324876 0.038529493
-0.086354584 0.0013061967 0.037436839
-0.084976457 0.00089851208 0.037072606
-0.079393268 -0.00085646473 0.035719991
-0.072172463 -0.0030848496 0.033963647
-0.064834498 -0.0053894781 0.032193348
-0.063132241 -0.0059742332 0.031854272
-0.056407876 -0.0080714971 0.03019486
-0.054685771 -0.0085537955 0.029730769
-0.05311586 -0.0090364665 0.029342294
-0.051718369 -0.0094586927 0.028971178
-0.049856529 -0.010025578 0.028509788
-0.031512633 -0.01573649 0.024035711
-0.029145703 -0.016517818 0.023506436
-0.028190434 -0.016744193 0.023211339
-0.027168512 -0.017084271 0.022972789
-0.026198991 -0.017403226 0.022772977
-0.024819285 -0.017893374 0.022475924
-0.022478975 -0.018519264 0.021815252
-0.021511182 -0.018874995 0.021636887
-0.019098364 -0.019619115 0.021051386
-0.017762333 -0.01999395 0.020697828
-0.015055172 -0.020899124 0.020064812
-0.011426501 -0.021997198 0.019158849
-0.0060427189 -0.0237028 0.017864222
0.00046557188 -0.025720991 0.016293179
0.0022884756 -0.026210327 0.015782904
0.0074569881 -0.027824849 0.014534321
0.010511294 -0.028845422 0.013855644
-0.097179525 0.0094409492 0.039159779
-0.083779372 0.0052446239 0.035897627
-0.080208242 0.0041570459 0.035026971
-0.045468077 -0.0066355262 0.026541112
-0.044182815 -0.0070566982 0.02627307
-0.03570962 -0.0096801501 0.024164425
-0.020596325 -0.014388252 0.020497313
-0.0048311353 -0.019253787 0.016632419
-0.0017809868 -0.020255022 0.015939726
0.0011923611 -0.021116812 0.015152961
0.0091068298 -0.023629844 0.013277426
0.0096526295 -0.023783907 0.013132785
0.011768147 -0.024446782 0.012616921
-0.10635672 -0.07311511 0.047034644
-0.035211012 -0.070974901 0.028648842
-0.12485463 -0.035964929 0.050089281
-0.12146456 -0.036991645 0.049252506
-0.033847235 -0.064221963 0.027881414
-0.11767392 -0.031706776 0.047367007
-0.12038288 -0.030121256 0.048753034
-0.12331726 -0.022847736 0.048793484
-0.11861952 -0.024319233 0.047639687
-0.11681278 -0.018536707 0.046754509
-0.11751351 -0.017501283 0.047549173
-0.11658856 -0.011827435 0.04668276
-0.11477269 -0.011980504 0.04658033
-0.11294864 -0.007022758 0.045326337
-0.040708683 -0.029434144 0.027688209
-0.11957307 0.00055836374 0.046360068
-0.11377769 -0.0011796048 0.044905398
-0.045220748 -0.022503417 0.028131647
-0.11726724 0.00066655595 0.046417668
-0.11554143 7.4930489e-05 0.046062835
-0.11352132 -0.00050674751 0.045533899
-0.05065345 -0.020102274 0.03025076
-0.065948032 -0.010625862 0.032846369
-0.063628316 -0.011331268 0.032298356
-0.11580914 0.0056887427 0.045646325
-0.1141365 0.0052029602 0.0452228
-0.11238983 0.00460864 0.044806179
-0.08750961 -0.00312215 0.038763866
-0.080428407 -0.005268896 0.036992885
-0.075068064 -0.0070046633 0.035755161
-0.073443666 -0.0075210202 0.035371572
-0.067716025 -0.0092546809 0.03392582
-0.06565991 -0.0099911392 0.033528209
-0.063351817 -0.010655565 0.032926623
-0.061140358 -0.01137642 0.032386292
-0.059123643 -0.011980275 0.031893134
-0.057326049 -0.012505449 0.031414676
-0.05422315 -0.013431896 0.030596249
-0.052605733 -0.013964593 0.030237552
-0.050925463 -0.014481258 0.029820615
-0.031419165 -0.020510718 0.025031911
-0.026684739 -0.021984532 0.023885319
-0.025712594 -0.022281181 0.023661515
-0.022039101 -0.023441825 0.02276988
-0.01327429 -0.026189312 0.020653907
-0.012958974 -0.026294641 0.020587364
-0.11265329 0.010233128 0.044553861
-0.10579861 0.0080710929 0.042896185
-0.10145658 0.0067326557 0.041845191
-0.099466845 0.0060929041 0.04135295
-0.08774595 0.0024455097 0.038521498
-0.079312772 -0.00015821867 0.0364407
-0.073653549 -0.0019277651 0.035069276
-0.072181404 -0.0023693889 0.034697406
-0.069880866 -0.00313209 0.034185715
-0.062833168 -0.0053250641 0.032496866
-0.046130732 -0.010439945 0.02832533
-0.043060221 -0.011441424 0.027620476
-0.039654925 -0.012480272 0.02678296
-0.038022004 -0.012982652 0.026379975
-0.032619879 -0.014680186 0.025067231
-0.029895321 -0.015527707 0.024419511
-0.023248218 -0.017572533 0.022757418
-0.013452969 -0.020613287 0.020376181
-0.012117468 -0.021063376 0.020075127
-0.0057985932 -0.023031671 0.018537262
0.0046320856 -0.026304267 0.016034536
0.0073404461 -0.027081974 0.015306842
-0.10067797 -0.08221712 0.047128446
-0.098997086 -0.082706884 0.046680667
-0.12588112 -0.034788489 0.050926957
-0.12027415 -0.022982363 0.048658833
-0.1237448 -0.021105865 0.050191231
-0.11870886 -0.022692656 0.048984218
-0.12397322 -0.014714314 0.049813151
-0.12161577 -0.015438443 0.049214579
-0.12215257 -0.0089099593 0.049040671
-0.11699143 -0.0050069955 0.047038108
-0.043954447 -0.027682422 0.029187607
-0.042393237 -0.028195258 0.028854838
-0.11842871 -0.0038104006 0.048098415
-0.048553213 -0.025496151 0.031005111
-0.044818752 -0.026689703 0.030140391
-0.11867604 0.0017801514 0.047542218
-0.075976655 -0.011440348 0.037079353
-0.070553295 -0.013198473 0.035862654
-0.06385605 -0.015301662 0.034237999
-0.057156764 -0.017306041 0.032507047
-0.055801988 -0.017730029 0.032198727
-0.047744997 -0.020244207 0.030227683
-0.11552747 0.0063472134 0.046307027
-0.11382204 0.005802352 0.045896091
-0.090620011 -0.0014528073 0.040265437
-0.07819441 -0.0052838661 0.037214767
-0.07650657 -0.0058177486 0.036834184
-0.071118072 -0.007436486 0.035451677
-0.063047469 -0.010014674 0.033578772
-0.057231784 -0.011806244 0.032126069
-0.043904707 -0.015912702 0.028821355
-0.031813957 -0.019732451 0.025935909
-0.029823415 -0.020327065 0.025408082
-0.010015339 -0.026480898 0.020584028
-0.0053451806 -0.027897447 0.019431205
7.2807074e-05 -0.029594753 0.018127009
-0.091214061 0.004262127 0.040111616
-0.079054579 0.00048471242 0.03713607
-0.07341361 -0.0012726542 0.035760731
-0.068322711 -0.0028650239 0.034536112
-0.037745476 -0.012342436 0.027033499
-0.018287554 -0.018428758 0.022329245
-0.016892806 -0.0188112 0.021937709
-0.014237575 -0.019701414 0.021358812
-0.0055007711 -0.022393487 0.019185891
-0.0021537393 -0.02338716 0.018331731
0.010700896 -0.027449314 0.015284728
-0.10304429 -0.079796799 0.048801683
-0.10168171 -0.081044525 0.047917414
-0.10705295 -0.069606043 0.049545985
-0.12175123 -0.020978818 0.050369941
-0.03856802 -0.034129299 0.02934037
-0.037598431 -0.034423575 0.029117281
-0.042185433 -0.026740795 0.030171767
-0.039816588 -0.027523747 0.029643329
-0.1129085 0.00075041782 0.046827272
-0.073365211 -0.011551166 0.037224755
-0.065285616 -0.014117729 0.03532641
-0.054415174 -0.017451869 0.032605037
-0.051887281 -0.017451499 0.032620758
-0.1037852 0.0034119571 0.044190802
-0.072552457 -0.0063161384 0.036604062
-0.067195609 -0.0079625919 0.035270691
-0.039932683 -0.016421428 0.028570043
-0.031838976 -0.01896634 0.026657024
-0.02983965 -0.019538924 0.026111852
-0.019784845 -0.022713184 0.023723638
-0.11299068 0.0069764485 0.047193617
0.0053566247 -0.029745128 0.0182718
-0.045571677 -0.0091990326 0.029694172
-0.033404194 -0.012984671 0.026731875
0.010618284 -0.026706029 0.016035087
-0.085159115 0.037403062 0.037546549
-0.10436692 -0.078575976 0.049696207
-0.1020577 -0.079259545 0.049096547
-0.10542906 -0.077349976 0.050473269
-0.10338642 -0.078040339 0.05001983
-0.12741329 -0.03916119 0.053652536
-0.041997664 -0.032325782 0.030880582
-0.039312765 -0.033212163 0.030286556
-0.097106531 -0.014449827 0.045023054
-0.049336307 -0.023787044 0.032635853
-0.060960658 -0.014675997 0.034918219
-0.060590923 -0.014781425 0.034825709
-0.055279754 -0.01641186 0.033494219
-0.03241957 -0.023524038 0.02793978
-0.080621831 -0.093220204 0.045543604
-0.10915512 -0.067356363 0.051267985
-0.034944922 -0.052750804 0.031151446
-0.035115197 -0.039281547 0.03084892
-0.040445708 -0.031309471 0.031897508
-0.039460838 -0.031614505 0.031685784
-0.037026383 -0.032334976 0.031045621
-0.041437507 -0.030948449 0.032102097
-0.050382331 -0.022674425 0.033568118
-0.048377953 -0.023301817 0.033084139
-0.047443569 -0.022841141 0.033579625
-0.044285439 -0.024583256 0.03211055
-0.043354608 -0.024117485 0.032578059
-0.042655878 -0.025100753 0.031713881
-0.059098735 -0.013764465 0.035895254
-0.097417407 0.03852522 0.043098073
-0.099730924 -0.085600689 0.051277243
-0.098413721 -0.086021729 0.051006805
-0.097409278 -0.086349875 0.05076956
-0.092730619 -0.087783918 0.049610049
-0.078946747 -0.092889771 0.045681052
-0.077957615 -0.092363656 0.0460006
-0.10574496 -0.07561776 0.051730584
-0.10472368 -0.075122923 0.052067734
-0.036978252 -0.050526246 0.032936767
-0.038542084 -0.037446462 0.032368734
-0.034188747 -0.038782716 0.0313126
-0.032780252 -0.039236996 0.03095392
-0.038446233 -0.031188324 0.032145187
-0.059270084 -0.018384548 0.037126265
-0.052510083 -0.020517677 0.035493985
-0.050809525 -0.02104317 0.035098124
-0.074885249 -0.0081209745 0.040473972
-0.062544242 -0.01198937 0.037507698
-0.09374661 -0.085751712 0.050946638
-0.092373773 -0.086242273 0.050646134
-0.10720139 -0.072626323 0.053735435
-0.10614137 -0.073820271 0.052925698
-0.10512806 -0.073320687 0.053253345
-0.032959454 -0.064503208 0.033757955
-0.038296267 -0.035939582 0.033635616
-0.035948977 -0.036690995 0.03307423
-0.064000666 -0.016267283 0.039098188
-0.057274699 -0.01827802 0.037373006
-0.047229372 -0.020654585 0.035641417
-0.10039464 -0.082846537 0.053098679
-0.098092169 -0.08269354 0.053051867
-0.097414143 -0.083776452 0.052370876
-0.10614052 -0.072106548 0.054017566
-0.10810527 -0.062698543 0.054466322
-0.038636744 -0.035027698 0.034349315
-0.039383233 -0.034082334 0.035263553
-0.035707071 -0.035245135 0.034405172
-0.034668468 -0.035551183 0.034131616
-0.041116677 -0.028055873 0.034855351
-0.047040194 -0.025421448 0.036928736
-0.05910562 -0.016236415 0.039261121
-0.052044079 -0.018375833 0.037464775
-0.10137028 -0.081731446 0.053887464
-0.095349178 -0.083600335 0.052446052
-0.10247433 -0.080495767 0.054665104
-0.10038999 -0.081176206 0.054191105
-0.098732322 -0.081696071 0.053806316
-0.095691264 -0.082640089 0.053074997
-0.10944273 -0.070284411 0.055402141
-0.10746953 -0.070923388 0.054961368
-0.10849398 -0.069746643 0.055758081
-0.11149214 -0.052802779 0.05545973
-0.042694293 -0.026006805 0.036591765
-0.074213251 -0.010733863 0.043572415
-0.058181398 -0.015786624 0.03975293
-0.052791335 -0.017405197 0.038376927
-0.10510271 -0.077999339 0.056393549
-0.10312903 -0.078657746 0.055960681
-0.10074483 -0.079360545 0.055318929
-0.10884917 -0.067972705 0.056985572
-0.031059593 -0.054703679 0.035441801
-0.036780924 -0.039551079 0.036244132
-0.028772838 -0.041300852 0.034993127
-0.051479094 -0.022489289 0.039376445
-0.048811145 -0.023368483 0.038766071
-0.092019349 -0.089269482 0.054940481
-0.10412654 -0.077468783 0.056724273
-0.10212071 -0.078096762 0.05624079
-0.10510881 -0.07632903 0.057530571
-0.10988715 -0.06684503 0.057843678
-0.033942528 -0.066517062 0.038223237
-0.03213536 -0.039516684 0.036507089
-0.031024173 -0.03978654 0.036181986
-0.029569395 -0.040252887 0.035837919
-0.028521366 -0.040608481 0.03559538
-0.053937137 -0.02097024 0.040687591
-0.089715101 -0.090060212 0.054482352
-0.088321149 -0.090468436 0.054106973
-0.077306859 -0.093855649 0.051363587
-0.096031994 -0.087174729 0.056455068
-0.090070963 -0.089073718 0.055063218
-0.086311497 -0.090206958 0.054120645
-0.085016958 -0.090649389 0.053849012
-0.083600737 -0.09111318 0.053488918
-0.10245439 -0.076323234 0.057436638
-0.10341635 -0.075143665 0.058170233
-0.10823992 -0.065668695 0.058562309
-0.032117821 -0.065448113 0.039000049
-0.035554789 -0.037624717 0.03796117
-0.034387589 -0.037980773 0.03769733
-0.037675448 -0.036201842 0.039171554
-0.032237209 -0.037906788 0.037859887
-0.040574104 -0.029846657 0.038941637
-0.043957017 -0.027990744 0.040399998
-0.04261443 -0.028443396 0.040077217
-0.056046866 -0.018808136 0.042607963
-0.051180735 -0.020351524 0.041431442
-0.049293384 -0.020881219 0.040899001
-0.04725942 -0.02157012 0.040458493
-0.043598279 -0.022687159 0.03956211
-0.041563906 -0.023333242 0.039089397
-0.036218598 -0.025026105 0.037808947
-0.096368372 -0.086267404 0.057130538
-0.091712929 -0.087686077 0.055950142
-0.090352908 -0.088092841 0.055601269
-0.087983601 -0.088910587 0.055126082
-0.086630464 -0.089287117 0.054725524
-0.080323659 -0.091238245 0.053187437
-0.075581163 -0.092697665 0.052015144
-0.074274741 -0.093136877 0.051731084
-0.093405738 -0.086326636 0.056936473
-0.08461456 -0.089079164 0.054806322
-0.077276178 -0.091331497 0.052974194
-0.073237456 -0.09263847 0.052022275
-0.10478915 -0.073911771 0.059080683
-0.1084607 -0.0639465 0.059752051
-0.10653205 -0.064541586 0.059273899
-0.030967675 -0.064976715 0.03931145
-0.02997797 -0.064474851 0.039660696
-0.038007759 -0.035266817 0.039856538
-0.049396366 -0.019357646 0.0423677
-0.04503905 -0.021469086 0.040609553
-0.098424032 -0.083901115 0.058648001
-0.093693569 -0.085379183 0.057498891
-0.091330498 -0.086194023 0.057009146
-0.089959115 -0.086531006 0.056585733
-0.070903696 -0.092495717 0.052002124
-0.099056564 -0.082878634 0.059365407
-0.096024364 -0.083832122 0.05865331
-0.094984576 -0.084182404 0.058403119
-0.094036736 -0.084402218 0.058102131
-0.071526848 -0.091461122 0.052692965
-0.10786359 -0.072139226 0.060426123
-0.10579504 -0.072747365 0.059842866
-0.1037811 -0.073416457 0.059422798
-0.11014017 -0.062642291 0.060774334
-0.10917162 -0.062099561 0.061103947
-0.041062362 -0.027363319 0.041063413
-0.1000102 -0.081725128 0.060129538
-0.096686237 -0.082753494 0.059295431
-0.099016592 -0.081185743 0.060412355
-0.10815045 -0.070335388 0.061562344
-0.10623032 -0.07096111 0.06114855
-0.10415031 -0.071558096 0.060543109
-0.1071692 -0.069808163 0.06187503
-0.035381183 -0.040021129 0.041664537
-0.033010609 -0.041488342 0.040394224
-0.046512738 -0.02411912 0.043711863
-0.042787336 -0.025280185 0.042838171
-0.03545437 -0.027566304 0.041065574
-0.10038483 -0.079902977 0.061248086
-0.096651524 -0.081064254 0.060374528
-0.10851888 -0.068521336 0.062733181
-0.10750811 -0.067986056 0.063019641
-0.10969342 -0.059851009 0.062659696
-0.029710762 -0.061282903 0.042004213
-0.030030765 -0.0611641 0.042070724
-0.039833888 -0.037767723 0.043350268
-0.037795775 -0.038493134 0.042932019
-0.036156058 -0.038930997 0.04245726
-0.047592513 -0.023038425 0.04468926
-0.046861075 -0.017853435 0.043810181
-0.10175594 -0.078629553 0.062150419
-0.099367701 -0.07938008 0.061558492
-0.097323872 -0.080034874 0.061086796
-0.098319575 -0.078852087 0.061843835
-0.10823524 -0.059043817 0.063141197
-0.1089291 -0.050045419 0.063350707
-0.03167063 -0.066944763 0.043683499
-0.030495062 -0.066473432 0.043950982
-0.032851659 -0.032274388 0.042666584
-0.050605595 -0.021330424 0.046125468
-0.046622396 -0.022539027 0.045108534
-0.042529747 -0.023820095 0.044134717
-0.039894298 -0.024614608 0.043457009
-0.084529653 -0.091174304 0.059817754
-0.083153658 -0.091625161 0.059480444
-0.075842299 -0.093835264 0.057634778
-0.089931987 -0.088561706 0.061589051
-0.081213869 -0.091297485 0.059479252
-0.076485716 -0.092787445 0.058328934
-0.1030363 -0.075661942 0.063994527
-0.10202831 -0.07685864 0.063288942
-0.10098845 -0.076361947 0.063558362
-0.10007291 -0.07745903 0.062803894
-0.098997049 -0.076956294 0.063063942
-0.10575692 -0.066864736 0.063691616
-0.11020378 -0.05678663 0.064742699
-0.032884836 -0.043798067 0.044153176
-0.035573572 -0.036804125 0.044328511
-0.088899396 -0.08897844 0.061417501
-0.078864492 -0.092069566 0.05891782
-0.092967883 -0.086822197 0.062897928
-0.09157256 -0.08728572 0.062575795
-0.086896241 -0.088733569 0.061442498
-0.085562892 -0.089090697 0.061045393
-0.084151454 -0.089589529 0.060749844
-0.082846455 -0.089982912 0.060435742
-0.081509054 -0.090371415 0.060070489
-0.079241753 -0.091062173 0.059513122
-0.074152708 -0.092666849 0.058278173
-0.10340158 -0.073906615 0.065229252
-0.1013653 -0.074488714 0.064671494
-0.10948438 -0.063267104 0.066372469
-0.10816739 -0.064473405 0.06545528
-0.10619796 -0.065095462 0.064981431
-0.10919586 -0.05626912 0.065061785
-0.10925947 -0.047383137 0.065082915
-0.037929311 -0.034438282 0.046131257
-0.030882932 -0.037463788 0.043817416
-0.04367581 -0.027301179 0.04658325
-0.0423574 -0.027694291 0.04623609
-0.038676925 -0.028111262 0.046061188
-0.037785217 -0.029107779 0.045115739
-0.035943232 -0.029735461 0.044733964
-0.049837023 -0.018477239 0.048608094
-0.047420435 -0.019183079 0.047984779
-0.046116486 -0.01960741 0.047687218
-0.043792732 -0.020335317 0.047145415
-0.049198069 -0.013347181 0.047853388
-0.077121489 -0.090895467 0.059529215
-0.074816659 -0.091586642 0.058957085
-0.070454888 -0.09296789 0.057928998
-0.093580864 -0.084877163 0.064010583
-0.092596635 -0.085228518 0.063810468
-0.091208711 -0.085685447 0.063523486
-0.089893848 -0.086080864 0.063178271
-0.088846914 -0.086351715 0.062864453
-0.08756566 -0.086775228 0.06259805
-0.069441527 -0.092403337 0.058134697
-0.068127096 -0.092794068 0.057832733
-0.10576637 -0.071453393 0.066848226
-0.10372061 -0.072070368 0.066336155
-0.1023418 -0.073371381 0.065496393
-0.10131222 -0.072865091 0.06580098
-0.10635263 -0.063345052 0.066104621
-0.10958262 -0.053576075 0.06680721
-0.10827246 -0.046880051 0.065441616
-0.042033359 -0.026233012 0.047506124
-0.037385367 -0.027660672 0.046340026
-0.093892574 -0.084003739 0.064689882
-0.096876949 -0.082159996 0.065872356
-0.095534101 -0.082613051 0.065549888
-0.09421578 -0.083033592 0.06527888
-0.10477085 -0.070892148 0.067123488
-0.10775545 -0.062110949 0.067059606
-0.030125149 -0.062509499 0.046865914
-0.030004576 -0.041496668 0.045990102
-0.091167562 -0.083069727 0.064984791
-0.064070858 -0.091560744 0.0584861
-0.096854389 -0.080470383 0.066922158
-0.095225565 -0.08094956 0.066491239
-0.093873702 -0.081400253 0.066194341
-0.10607684 -0.069675729 0.068002626
-0.10169964 -0.071042433 0.066922382
-0.10504246 -0.069132224 0.068286963
-0.10578791 -0.061012164 0.067633905
-0.10781506 -0.059564922 0.068716072
-0.10765515 -0.043816 0.067667827
-0.031929433 -0.045485787 0.048382811
-0.026248954 -0.047292139 0.047043107
-0.035670884 -0.03816653 0.048676446
-0.033037059 -0.038991787 0.048049062
-0.054056689 -0.014044084 0.052329112
-0.046632767 -0.016404385 0.050557569
-0.043284886 -0.01741842 0.049724355
-0.099901691 -0.078665622 0.068143263
-0.097822629 -0.0793446 0.067678504
-0.10532086 -0.067347772 0.069375314
-0.10944851 -0.057377785 0.070198454
-0.10855246 -0.050588947 0.068803258
-0.030990079 -0.044959441 0.04879009
-0.040472448 -0.029363796 0.050377831
-0.037514336 -0.029873127 0.04994528
-0.034411289 -0.031576678 0.048509654
-0.033118047 -0.032012336 0.048238471
-0.043160863 -0.02808292 0.051307369
-0.082891181 -0.010400819 0.060117621
-0.047639705 -0.020567497 0.052143022
-0.042521775 -0.02296239 0.050274767
-0.04022181 -0.022920139 0.050393753
-0.037191577 -0.023868764 0.049625635
-0.049397253 -0.014747238 0.051886141
-0.081356928 -0.092379317 0.065082468
-0.07798107 -0.09343119 0.06426356
-0.076980442 -0.092889555 0.064534485
-0.074292444 -0.093721814 0.06385354
-0.072936647 -0.094179183 0.063586757
-0.10038734 -0.076835327 0.069336191
-0.098237619 -0.077457167 0.068775512
-0.10153178 -0.075582288 0.070087746
-0.1064401 -0.066210628 0.070280015
-0.10846329 -0.056837026 0.070515186
-0.026136532 -0.059685167 0.048883848
-0.030067749 -0.037537072 0.049228042
-0.089009978 -0.087388828 0.068418607
-0.087720022 -0.088718563 0.067681283
-0.085693069 -0.088472098 0.067672253
-0.084990017 -0.089501612 0.066939935
-0.083670557 -0.089974061 0.066682898
-0.082325794 -0.090393782 0.066366188
-0.080951422 -0.090767324 0.065973438
-0.078792691 -0.091037914 0.065723442
-0.076640464 -0.091262497 0.065461531
-0.074297003 -0.091975145 0.064841673
-0.072619557 -0.092530072 0.064472996
-0.071246535 -0.092995763 0.064180583
-0.098541349 -0.075669117 0.069902465
-0.096493006 -0.076301418 0.069365099
-0.10868663 -0.063831016 0.071933635
-0.10470118 -0.065003276 0.070861511
-0.10573053 -0.063863926 0.071687259
-0.10746989 -0.056288742 0.070806473
-0.10978724 -0.054729626 0.071922518
-0.10772774 -0.047472589 0.070824265
-0.02610606 -0.050176471 0.050172273
-0.023799807 -0.050958853 0.049714759
-0.031418525 -0.036301829 0.050185546
-0.034865133 -0.034436941 0.05165533
-0.03111434 -0.035560213 0.050715666
-0.028405689 -0.036465071 0.050082617
-0.058536038 -0.014895532 0.056865789
-0.056867637 -0.015413642 0.056452867
-0.054441445 -0.016130015 0.055793215
-0.051168986 -0.017140714 0.055013333
-0.050108559 -0.017477855 0.054726064
-0.040690437 -0.02041504 0.052451901
-0.039628401 -0.020772729 0.052224815
-0.038656414 -0.021049341 0.051982075
-0.092060968 -0.0855994 0.069718234
-0.090686768 -0.086090542 0.069417715
-0.086019635 -0.087531038 0.068295345
-0.083294652 -0.088315599 0.067566283
-0.080583543 -0.089221492 0.066934317
-0.079287499 -0.089557648 0.066557236
-0.076970421 -0.09030731 0.066024974
-0.074616924 -0.091045886 0.065479718
-0.070265502 -0.092435203 0.064456709
-0.068879411 -0.092787713 0.063999861
-0.06763161 -0.093188182 0.063746653
-0.08394219 -0.087292112 0.068255462
-0.06658867 -0.092688881 0.064021647
-0.10392377 -0.073147863 0.071730219
-0.099866375 -0.07439895 0.070737824
-0.10881495 -0.054206744 0.072260395
-0.10780933 -0.05368546 0.072556287
-0.03197968 -0.047577277 0.052272923
-0.028627932 -0.04865168 0.051463418
-0.03319668 -0.034181111 0.051917396
-0.038280375 -0.026478721 0.05276338
-0.048497856 -0.017206397 0.055027135
-0.04779426 -0.017428908 0.054854065
-0.045419104 -0.018136658 0.054239042
-0.041387394 -0.019424822 0.0533043
-0.039722845 -0.019941967 0.052901641
-0.081315413 -0.088109836 0.067629658
-0.093640819 -0.083417848 0.071120165
-0.092659429 -0.083718181 0.070878364
-0.090373009 -0.084415324 0.070316501
-0.088974364 -0.084919542 0.070020869
-0.088002771 -0.08513841 0.069698222
-0.08664427 -0.085544705 0.069349773
-0.085684478 -0.085887693 0.069179527
-0.068548985 -0.091221161 0.065014198
-0.067182221 -0.091601618 0.064589038
-0.064232342 -0.092571728 0.063978285
-0.086919293 -0.084610417 0.069933221
-0.066198006 -0.091033794 0.064858511
-0.10429014 -0.071295619 0.072842918
-0.1001603 -0.07260558 0.071863167
-0.10321717 -0.070761278 0.073076986
-0.10117848 -0.071442991 0.072612949
-0.10800433 -0.060648527 0.073882483
-0.10767902 -0.060760137 0.073808096
-0.10406645 -0.062666468 0.072341532
-0.10680579 -0.053149521 0.072848946
-0.10882668 -0.051654592 0.073849201
-0.10574889 -0.052668419 0.073171429
-0.10791749 -0.044913139 0.07256531
-0.028426938 -0.061839845 0.052977715
-0.025976621 -0.048634257 0.051432092
-0.030726776 -0.039461184 0.053092122
-0.032878108 -0.033481307 0.052454188
-0.059637971 -0.012261622 0.059160948
-0.056909978 -0.013054738 0.058456764
-0.055983432 -0.01334017 0.058226109
-0.052258611 -0.014473462 0.057273224
-0.051199071 -0.015605325 0.056367762
-0.053983897 -0.0087550078 0.057154279
-0.043595932 -0.011895876 0.054517593
-0.097012296 -0.081498712 0.072431549
-0.064855874 -0.091509432 0.064618692
-0.093286961 -0.081795022 0.072035827
-0.090989709 -0.082471713 0.071417063
-0.062525004 -0.091384791 0.064571045
-0.061121352 -0.091755986 0.064138368
-0.10554621 -0.068368189 0.074720614
-0.10453469 -0.069560423 0.07397256
-0.10356391 -0.069016695 0.074277543
-0.10217646 -0.070268691 0.073342621
-0.10661988 -0.060242772 0.074088931
-0.10782237 -0.051102106 0.074125566
-0.10678194 -0.050566748 0.07440199
-0.10626033 -0.0437342 0.073243424
-0.026246943 -0.067832485 0.054359995
-0.025925159 -0.060947932 0.053522054
-0.029790968 -0.038892902 0.053444248
-0.054706708 -0.012953572 0.058576517
-0.097301438 -0.079684511 0.073487461
-0.095324755 -0.080300227 0.073015697
-0.094015613 -0.080685914 0.0726666
-0.061437577 -0.090870619 0.064776227
-0.060130708 -0.091196105 0.064381272
-0.096271604 -0.079136685 0.073747292
-0.092947587 -0.080165595 0.072913304
-0.059154674 -0.090630747 0.064662255
-0.1025949 -0.068459906 0.074582517
-0.10383483 -0.067192741 0.075348817
-0.10763922 -0.05734181 0.075931214
-0.10579653 -0.05003538 0.074715346
-0.025777541 -0.060186706 0.054078668
-0.026947603 -0.051970683 0.054342676
-0.024457432 -0.052802183 0.053802896
-0.024996355 -0.045704111 0.053633433
-0.027806491 -0.038707633 0.053585887
-0.036550425 -0.035153683 0.056305051
-0.025811061 -0.038537681 0.053731054
-0.032278389 -0.030407088 0.054778017
-0.028244779 -0.031698193 0.053824309
-0.052267842 -0.018927786 0.058709923
-0.037437186 -0.023561565 0.055105753
-0.036032304 -0.024014819 0.054805748
-0.035018824 -0.024341548 0.054561634
-0.038749553 -0.022368558 0.056094036
-0.037112288 -0.022855388 0.055665713
-0.048080646 -0.013468541 0.058306325
-0.043981858 -0.014733156 0.057275735
-0.097316109 -0.077942401 0.074465536
-0.09527047 -0.078587674 0.073997751
-0.09358222 -0.079103202 0.073591515
-0.056017548 -0.089982986 0.064996064
-0.10486758 -0.066000603 0.076102793
-0.10182831 -0.066126093 0.075904049
-0.10649985 -0.056861985 0.076206326
-0.10595699 -0.057048503 0.076074876
-0.10781771 -0.048590139 0.07578177
-0.10675715 -0.048104942 0.076068893
-0.10655645 -0.041180976 0.075063162
-0.10555693 -0.040651955 0.075365342
-0.026504643 -0.058233701 0.055322584
-0.025273114 -0.051719353 0.054579303
-0.029094644 -0.042798247 0.055811059
-0.035571538 -0.034642853 0.056702066
-0.045205638 -0.019562885 0.058294937
-0.04488378 -0.019678246 0.058237307
-0.056423321 -0.010130484 0.061037451
-0.053121224 -0.011121575 0.060183682
-0.04435569 -0.013833204 0.05800724
-0.07434088 -0.09295278 0.070393041
-0.078396119 -0.090840369 0.071884438
-0.076024711 -0.091571845 0.07130307
-0.071985744 -0.092877999 0.07035125
-0.099992447 -0.075402848 0.076153696
-0.097994804 -0.076011412 0.075670399
-0.09560661 -0.076761998 0.075078562
-0.10094521 -0.074207976 0.076838613
-0.10316779 -0.064813145 0.076708794
-0.1049754 -0.056503914 0.076383561
-0.10545878 -0.047669876 0.076321408
-0.028123222 -0.070867993 0.058000699
-0.10452202 -0.040148012 0.075700618
-0.02563405 -0.049110007 0.056377508
-0.025266379 -0.049206689 0.056271285
-0.034406863 -0.040351249 0.057735682
-0.085365534 -0.087860167 0.074141711
-0.082674727 -0.08866635 0.073454022
-0.081334263 -0.089095712 0.073134787
-0.079958253 -0.089546591 0.072797313
-0.076349653 -0.09063448 0.07188312
-0.073971152 -0.091352448 0.071294367
-0.072647326 -0.091758065 0.070952281
-0.08332634 -0.08758565 0.074060455
-0.074278742 -0.090394922 0.071863115
-0.071631275 -0.09122207 0.071210667
-0.070253193 -0.091671042 0.070923686
-0.09925396 -0.073014647 0.077417269
-0.097386338 -0.073643811 0.077029809
-0.096296355 -0.074821256 0.076258495
-0.051064342 -0.088463992 0.065475166
-0.10647383 -0.062992863 0.078115039
-0.10417993 -0.063692972 0.077545628
-0.10542756 -0.062455222 0.078375407
-0.10662465 -0.054312278 0.077831917
-0.10560821 -0.053783804 0.078118637
-0.03203281 -0.076585516 0.060087234
-0.10626936 -0.044821206 0.078066371
-0.028458238 -0.069917947 0.058635294
-0.025815822 -0.055195905 0.057510972
-0.029789418 -0.040099274 0.057767108
-0.027468406 -0.040853363 0.057233252
-0.029944137 -0.033997528 0.057197895
-0.036052689 -0.026118506 0.058308542
-0.031721793 -0.027493887 0.057277858
-0.043144338 -0.023064809 0.06058782
-0.042097986 -0.024202837 0.059745982
-0.040438451 -0.024723716 0.059358247
-0.037129276 -0.024945132 0.059171408
-0.091054998 -0.084301308 0.076416813
-0.088361666 -0.085188687 0.075826883
-0.085008599 -0.08623828 0.075020455
-0.083685599 -0.086636163 0.074693508
-0.082352884 -0.086994275 0.074296743
-0.079636745 -0.087885559 0.073687211
-0.076031975 -0.088965774 0.072764739
-0.072287656 -0.090132654 0.071856625
-0.069230668 -0.091137789 0.071169533
-0.06792625 -0.091512963 0.070828289
-0.064906001 -0.092481621 0.070105411
-0.092335641 -0.083088249 0.077271879
-0.089068785 -0.084073812 0.076468147
-0.080254458 -0.086839952 0.074320331
-0.066906132 -0.090939909 0.071001597
-0.065591238 -0.091330439 0.070699722
-0.10060093 -0.071802557 0.078329116
-0.10163131 -0.070562713 0.079016693
-0.099603266 -0.071238309 0.078586087
-0.097567134 -0.071821585 0.078028642
-0.10447663 -0.061899222 0.078662679
-0.10611419 -0.060574587 0.079630166
-0.027094141 -0.069504537 0.058859572
-0.026008233 -0.062057145 0.058232751
-0.099364385 -0.031481609 0.076037571
-0.02791255 -0.053666368 0.058574565
-0.026848972 -0.054050349 0.058354609
-0.024513185 -0.054741818 0.057737306
-0.026893988 -0.05319003 0.058928885
-0.031458765 -0.038824774 0.058848578
-0.022765867 -0.04149079 0.056671202
-0.034262776 -0.031851351 0.058866721
-0.02657786 -0.034285799 0.057046525
-0.031296089 -0.032040745 0.05884083
-0.082120195 -0.010958161 0.070158146
-0.034758516 -0.025698805 0.05861976
-0.052764945 -0.014038183 0.062720992
-0.04804343 -0.015492292 0.061555438
-0.05380778 -0.012982134 0.063690364
-0.046748333 -0.015124818 0.061895043
-0.043315016 -0.01618946 0.061060961
-0.040981747 -0.016954081 0.060537003
-0.038334273 -0.017751087 0.059858821
-0.092686877 -0.082086377 0.077840887
-0.091349468 -0.08252956 0.077523768
-0.089372285 -0.083112814 0.076996371
-0.08798375 -0.083569467 0.076709025
-0.063237369 -0.091257721 0.070684709
-0.09035638 -0.08276248 0.077196509
-0.060833111 -0.09112785 0.070533797
-0.10395361 -0.068149209 0.080634981
-0.10195334 -0.068765394 0.08013992
-0.10059185 -0.070030414 0.079292491
-0.10510471 -0.060038727 0.079898849
-0.10597059 -0.051059462 0.079767987
-0.10441826 -0.043711357 0.078726843
-0.098368093 -0.030142821 0.076959446
-0.02984564 -0.051463664 0.060252927
-0.027686328 -0.045193572 0.059275523
-0.042547069 -0.021660736 0.061729681
-0.039173931 -0.021916851 0.061583221
-0.052859388 -0.012504164 0.064122736
-0.092296824 -0.08047805 0.078670338
-0.059817679 -0.090565868 0.070759296
-0.058494583 -0.090946928 0.070425972
-0.094630718 -0.078882761 0.079758897
-0.057413228 -0.090426475 0.070672326
-0.056080289 -0.090909854 0.070407048
-0.10026558 -0.067547567 0.08071816
-0.10305312 -0.058964171 0.080439813
-0.10512858 -0.05745472 0.0814735
-0.03351412 -0.079684138 0.063903175
-0.10693091 -0.049100261 0.0810441
-0.10471594 -0.041170105 0.080516301
-0.029527061 -0.036179461 0.06079682
-0.036523193 -0.021936091 0.061570257
-0.095615946 -0.077685915 0.080467135
-0.09456405 -0.077180818 0.08070033
-0.093602434 -0.078316532 0.079976849
-0.092263624 -0.078721352 0.079630658
-0.090621524 -0.079246387 0.079249032
-0.055714875 -0.08924339 0.071244285
-0.054366246 -0.089708552 0.070975251
-0.1024949 -0.065145731 0.082256414
-0.10120638 -0.06641458 0.081480652
-0.10407671 -0.056926899 0.081728444
-0.033156991 -0.078941464 0.064342722
-0.02644562 -0.063794434 0.062483698
-0.02578751 -0.063950241 0.062302224
-0.025097288 -0.064179517 0.062162682
-0.028234683 -0.048630893 0.062135153
-0.024853796 -0.049640991 0.061248317
-0.028014548 -0.042654626 0.061143529
-0.026259474 -0.042648863 0.061120752
-0.026158452 -0.036357693 0.060539469
-0.035764359 -0.027350212 0.062331721
-0.03710629 -0.026172457 0.063340791
-0.029717207 -0.028422786 0.061474629
-0.05411227 -0.014883641 0.067121476
-0.051072642 -0.015820881 0.066389807
-0.045316689 -0.017637029 0.065009102
-0.042319827 -0.019366337 0.063618124
-0.037569411 -0.020820728 0.062455133
-0.054915331 -0.0095259491 0.066606507
-0.079724468 -0.091298163 0.077743314
-0.096271999 -0.075760879 0.081588894
-0.053321071 -0.089151196 0.071196795
-0.097263806 -0.074605703 0.082326196
-0.095267549 -0.075198598 0.081803463
-0.051984034 -0.08869642 0.071328059
-0.10359676 -0.063990816 0.083113261
-0.10147038 -0.064610668 0.08250425
-0.10118917 -0.064698957 0.082459293
-0.10569423 -0.054719523 0.083146259
-0.027642868 -0.071179435 0.063299887
-0.027129754 -0.071318254 0.063164465
-0.10308471 -0.039977863 0.081221908
-0.026140667 -0.063049443 0.062989719
-0.025478669 -0.063225083 0.062783837
-0.02336131 -0.05702671 0.061527967
-0.09955743 -0.032477252 0.080645368
-0.098992705 -0.032643318 0.080488011
-0.03457243 -0.032915629 0.06317845
-0.031437226 -0.033553638 0.062793776
-0.029540353 -0.034484982 0.061953768
-0.027261674 -0.034430072 0.062078707
-0.025852911 -0.034885995 0.061720468
-0.040041663 -0.018454775 0.064331383
-0.065349102 -0.005425889 0.069735676
-0.062021215 -0.0064561162 0.068917699
-0.061001413 -0.006836446 0.068759389
-0.057325624 -0.0079808179 0.067869082
-0.051993474 -0.0095951669 0.066499382
-0.054966196 -0.0079289209 0.067907237
-0.052945673 -0.0085573774 0.067431718
-0.087326385 -0.086310998 0.080980331
-0.087060809 -0.087249406 0.080458365
-0.085025862 -0.087094471 0.080496818
-0.083683148 -0.08749558 0.080152243
-0.079631649 -0.088769704 0.079181463
-0.079317875 -0.089701474 0.078587443
-0.077294081 -0.08946158 0.078569032
-0.07595776 -0.089885503 0.078251988
-0.07561221 -0.090867668 0.077694818
-0.073602617 -0.090618655 0.077685699
-0.07228741 -0.090999641 0.077321783
-0.070914902 -0.091451108 0.077004872
-0.069237374 -0.09201882 0.076660767
-0.081605583 -0.08722195 0.080058299
-0.066863827 -0.091803312 0.076447017
-0.099584252 -0.072131738 0.083874583
-0.097564451 -0.072738692 0.083330497
-0.04920952 -0.087757699 0.071563452
-0.10459539 -0.062799618 0.083850443
-0.10258016 -0.063462116 0.083374962
-0.10151169 -0.06288299 0.083556518
-0.10470077 -0.054168276 0.083430335
-0.10369923 -0.05360993 0.083689317
-0.10456385 -0.044688713 0.08362107
-0.023413554 -0.055277683 0.062605016
-0.026900202 -0.046557523 0.063529611
-0.024874941 -0.047227524 0.063088492
-0.04424274 -0.022317607 0.066294633
-0.031104587 -0.026449587 0.063131951
-0.047575407 -0.02047787 0.067722507
-0.047503985 -0.01452663 0.067400083
-0.039000422 -0.017989997 0.064703733
-0.037025668 -0.01780114 0.064838901
-0.08535514 -0.086076088 0.081016615
-0.080286466 -0.087693028 0.079801016
-0.076234385 -0.088933542 0.078793012
-0.069919311 -0.090897396 0.077255577
-0.065615207 -0.092203133 0.07619378
-0.06390024 -0.092788935 0.075848877
-0.086989969 -0.084726177 0.081898496
-0.0856186 -0.08510033 0.081503734
-0.084346309 -0.085539818 0.081258222
-0.08331123 -0.085888706 0.081044458
-0.079292841 -0.087114215 0.080043547
-0.067558154 -0.090792388 0.077205837
-0.10062963 -0.070937112 0.084588081
-0.098543808 -0.071609937 0.084129594
-0.048182167 -0.087210767 0.071804941
-0.099596784 -0.07041125 0.08483386
-0.097540528 -0.07102669 0.084335998
-0.10512013 -0.060958277 0.08504492
-0.10286018 -0.061620794 0.08442688
-0.10184874 -0.061085608 0.084684864
-0.029042594 -0.075962 0.065937281
-0.10532901 -0.051397994 0.085125066
-0.02937822 -0.074987203 0.066525012
-0.10352871 -0.044175103 0.083923586
-0.1032177 -0.044292983 0.083868772
-0.025214523 -0.045426067 0.064268842
-0.025788687 -0.038415026 0.064147703
-0.025485918 -0.038499568 0.064070843
-0.036349908 -0.029973803 0.065463319
-0.035362765 -0.030279076 0.065251179
-0.031315744 -0.031522475 0.064250238
-0.028585762 -0.03238694 0.063601002
-0.027252316 -0.032763336 0.06324885
-0.033990659 -0.029929027 0.065542556
-0.029322863 -0.031371091 0.064418972
-0.037538528 -0.022810018 0.065907665
-0.035839446 -0.023327308 0.065471962
-0.034176901 -0.023875101 0.06511388
-0.03217569 -0.024438282 0.064554229
-0.055834033 -0.011215379 0.070177317
-0.047862522 -0.013663577 0.068165764
-0.09198308 -0.082306832 0.083598226
-0.088662051 -0.083301216 0.082769997
-0.063873857 -0.091038048 0.07673797
-0.062201947 -0.091567732 0.076359116
-0.092974275 -0.080195434 0.084712341
-0.089939147 -0.082057349 0.083561413
-0.088925093 -0.08233054 0.083255172
-0.08659637 -0.083135769 0.0827718
-0.062643677 -0.090561405 0.076924756
-0.05976975 -0.09139099 0.076150775
-0.1009813 -0.069065809 0.08563479
-0.097863495 -0.069203548 0.085372545
-0.046453841 -0.08603248 0.072381936
-0.045369096 -0.085546874 0.072630078
-0.099901423 -0.068522729 0.085836276
-0.10312925 -0.059830338 0.085521542
-0.10209489 -0.059293106 0.085754864
-0.10418214 -0.050919723 0.085386053
-0.10600649 -0.049486689 0.086300097
-0.10035541 -0.034898166 0.084345378
-0.025929093 -0.044348378 0.065003172
-0.022584811 -0.045453072 0.064276941
-0.022233747 -0.045536745 0.064165175
-0.026125252 -0.037469074 0.064820491
-0.051180303 -0.022921344 0.07091669
-0.029037803 -0.029812945 0.065530837
-0.042612925 -0.020409178 0.067741863
-0.038886316 -0.020764269 0.067473166
-0.033891842 -0.022325831 0.066254199
-0.06997785 -0.0059977453 0.074219964
-0.065375321 -0.006615907 0.073718198
-0.063635625 -0.0079267565 0.072628051
-0.061955266 -0.0077033918 0.072923459
-0.060610257 -0.0089571532 0.07197509
-0.055902362 -0.010402752 0.070819914
-0.05390238 -0.010988384 0.070287198
-0.052928098 -0.0112816 0.07004302
-0.049827985 -0.012212222 0.069224775
-0.046867475 -0.012367908 0.069172464
-0.045154788 -0.013671568 0.068070047
-0.043141939 -0.014338749 0.067644589
-0.042636141 -0.014475083 0.067516208
-0.0406202 -0.014664536 0.067283109
-0.06186875 -0.098567359 0.078545868
-0.090229362 -0.081100963 0.084106006
-0.086960733 -0.082098797 0.0833022
-0.085561737 -0.082602337 0.083006255
-0.060480818 -0.090362675 0.076885484
-0.06007874 -0.090495914 0.076755509
-0.058081873 -0.090165503 0.076663449
-0.05779022 -0.090247005 0.076608807
-0.10121241 -0.06731084 0.086699098
-0.098166525 -0.067368001 0.08638835
-0.10410078 -0.057838485 0.086782016
-0.10289972 -0.05736275 0.086999342
-0.10433698 -0.048282642 0.086922154
-0.10321869 -0.040919781 0.086022437
-0.025896974 -0.064888909 0.067095488
-0.025150962 -0.0651775 0.06696251
-0.099994466 -0.035038896 0.084285356
-0.023151122 -0.058131192 0.066128902
-0.025526769 -0.057299577 0.066602677
-0.096569791 -0.027581327 0.083851546
-0.03150177 -0.035018384 0.066750884
-0.024451599 -0.03636938 0.065602988
-0.03571932 -0.026943274 0.067780681
-0.026981197 -0.029668257 0.065669037
-0.058056489 -0.097948045 0.078476526
-0.092902921 -0.078516446 0.085686728
-0.089862227 -0.079459757 0.084955648
-0.055699885 -0.090094402 0.076637432
-0.095954984 -0.076661155 0.086847983
-0.094882056 -0.076133817 0.087036937
-0.093870267 -0.077340454 0.086374417
-0.08950983 -0.077812776 0.085767217
-0.054638997 -0.089580134 0.076876409
-0.054318137 -0.089688115 0.076799497
-0.053308748 -0.089975074 0.076543853
-0.050884731 -0.08979103 0.076344408
-0.10023462 -0.066757031 0.086971253
-0.10438947 -0.055139244 0.088364758
-0.034803152 -0.076779827 0.071362317
-0.10332465 -0.047720246 0.087166242
-0.10218422 -0.040367365 0.086276442
-0.10118778 -0.039805047 0.086522646
-0.025163129 -0.056576937 0.06707897
-0.023806237 -0.057019982 0.066781051
-0.0250585 -0.048981149 0.067008905
-0.023101389 -0.049566563 0.06650161
-0.022898607 -0.041982647 0.066582844
-0.030816741 -0.033618372 0.067805551
-0.028128192 -0.034421913 0.067123033
-0.026782118 -0.034856964 0.066802621
-0.025126658 -0.035336487 0.066356204
-0.028040566 -0.027635109 0.067050502
-0.049087733 -0.015992438 0.071195453
-0.046026804 -0.016940974 0.070435375
-0.035572924 -0.02018936 0.06790784
-0.053178295 -0.013967009 0.072872743
-0.040654145 -0.017825032 0.069765076
-0.042930774 -0.011142114 0.070068799
-0.070507035 -0.093266487 0.082015917
-0.067255512 -0.094217926 0.081169724
-0.078512877 -0.089842126 0.084352963
-0.074885935 -0.090983957 0.083505347
-0.097263679 -0.075429596 0.08767736
-0.092675462 -0.076832615 0.08655867
-0.051906019 -0.089525662 0.076649003
-0.096238129 -0.074845009 0.08787667
-0.095589519 -0.075048074 0.087737292
-0.093871988 -0.075580485 0.087286659
-0.047148086 -0.090159804 0.07597892
-0.050155491 -0.088327378 0.077130936
-0.1015162 -0.063713141 0.088697642
-0.10049118 -0.06491442 0.087976724
-0.038643867 -0.083290443 0.073407158
-0.10049 -0.063158974 0.088919118
-0.11042085 -0.051514439 0.090772435
-0.1034078 -0.054585308 0.088631168
-0.10239205 -0.054066069 0.088918366
-0.029611751 -0.077531636 0.070580602
-0.028395973 -0.077054843 0.070806637
-0.10294339 -0.045302883 0.088640258
-0.10717454 -0.036233373 0.089049019
-0.022539377 -0.054857232 0.068083845
-0.025717266 -0.047136895 0.068288945
-0.021409534 -0.048457582 0.06724003
-0.037237793 -0.029900003 0.070457667
-0.028147072 -0.03276366 0.068276763
-0.02644676 -0.033326142 0.067896314
-0.035088629 -0.024675239 0.069439515
-0.032384187 -0.025473358 0.068717986
-0.031105042 -0.025905939 0.068456732
-0.028745472 -0.026619572 0.067843892
-0.073966876 -0.0066678682 0.07855282
-0.068968549 -0.007385781 0.077902094
-0.053853102 -0.012924727 0.073638573
-0.050740711 -0.013853544 0.072809353
-0.049799003 -0.014159558 0.072615184
-0.046502031 -0.014351247 0.072406411
-0.042674378 -0.01634354 0.070838846
-0.040317044 -0.017130777 0.070305154
-0.052979819 -0.0073359143 0.073281631
-0.082551405 -0.087724663 0.08581423
-0.081530683 -0.08802405 0.085561037
-0.079847075 -0.088598445 0.085190609
-0.078819014 -0.088929594 0.084928825
-0.077524126 -0.089266449 0.084552012
-0.075206958 -0.090015538 0.084019497
-0.072852314 -0.090753883 0.083473712
-0.072483972 -0.090856232 0.083350331
-0.071477838 -0.0911531 0.08308702
-0.070832238 -0.091377407 0.082947485
-0.085236296 -0.08596985 0.086896561
-0.080493137 -0.087508887 0.085795581
-0.077776916 -0.088388756 0.085138723
-0.075527236 -0.089031257 0.084545217
-0.074168026 -0.089477584 0.084224746
-0.073155351 -0.089763299 0.083963864
-0.070466496 -0.090601332 0.083294243
-0.068937831 -0.091117233 0.082979195
-0.067290336 -0.091610804 0.082577556
-0.066093229 -0.091945082 0.082198411
