# .PCD v0.7 - Point Cloud Data file format
VERSION 0.7
FIELDS x y z
SIZE 4 4 4
TYPE F F F
COUNT 1 1 1
WIDTH 1346
HEIGHT 1
VIEWPOINT 0 0 0 1 0 0 0
POINTS 1346
DATA ascii
-0.046750799 -0.28668153 0.29470682
-0.031185966 -0.28088313 0.29408377
-0.030621046 -0.28089303 0.29408732
-0.02984062 -0.28005245 0.29443929
-0.027423669 -0.28084773 0.29407018
-0.026426002 -0.28001902 0.29441941
-0.029087761 -0.27920941 0.2947917
-0.025285978 -0.27920714 0.29478431
-0.024747517 -0.27920234 0.2947875
-0.021661602 -0.27921021 0.29480338
-0.015523486 -0.27169886 0.29457834
-0.13959174 -0.30901042 0.29572433
-0.13560265 -0.30901101 0.29572454
-0.13233525 -0.30900621 0.29569232
-0.13181129 -0.30901948 0.29569852
-0.12876111 -0.30899656 0.29569086
-0.12678018 -0.30488968 0.29503375
-0.12226406 -0.30489248 0.29504895
-0.11649961 -0.30488777 0.29504398
-0.11558328 -0.30488941 0.29503262
-0.11426718 -0.30407929 0.29545024
-0.11375098 -0.30407029 0.29544285
-0.11121631 -0.30488747 0.29504478
-0.11027069 -0.30407679 0.29545844
-0.10739188 -0.30403736 0.29544064
-0.10431029 -0.30411232 0.29546937
-0.10930394 -0.3032831 0.29588217
-0.10896306 -0.30328876 0.29588637
-0.10629915 -0.30322814 0.29586127
-0.10337736 -0.3033033 0.29588693
-0.097752392 -0.29910082 0.29501152
-0.094255507 -0.29911736 0.2950314
-0.093906157 -0.29910427 0.29502174
-0.092057496 -0.29910541 0.29500911
-0.09171398 -0.2991119 0.29501963
-0.089924172 -0.29913074 0.29503319
-0.086315833 -0.29909411 0.29501277
-0.090916872 -0.29830214 0.29543403
-0.089156307 -0.29830796 0.29544112
-0.087541983 -0.29832286 0.29543847
-0.085569486 -0.29828259 0.29542467
-0.083382435 -0.29831448 0.29545128
-0.086546436 -0.29751649 0.29582766
-0.084773913 -0.29747811 0.29584479
-0.08239907 -0.29750404 0.29584706
-0.080098473 -0.29746041 0.2958304
-0.079732165 -0.29745635 0.29582763
-0.066457875 -0.29251137 0.29519576
-0.065723792 -0.2925359 0.29520664
-0.061037838 -0.29251277 0.29518297
-0.064782858 -0.2917223 0.29559848
-0.060273275 -0.29171112 0.29557952
-0.059697781 -0.2917403 0.2955929
-0.058422238 -0.29090604 0.29598185
-0.053538106 -0.29085532 0.29595625
-0.045435026 -0.28582481 0.29506707
-0.041101668 -0.28587362 0.29511559
-0.040575631 -0.28587002 0.2951138
-0.039410681 -0.28504246 0.29547787
-0.038515646 -0.28503463 0.29547834
-0.037336651 -0.28422016 0.29585245
-0.036661617 -0.28421798 0.29586434
-0.035941284 -0.28421149 0.29586506
-0.020717837 -0.27840763 0.29517019
-0.017484542 -0.27835026 0.29511437
-0.016382763 -0.27837965 0.29513115
-0.01354471 -0.27837601 0.29516727
-0.019763075 -0.27757996 0.29552907
-0.016732633 -0.27751783 0.29547906
-0.018794693 -0.27673468 0.29588103
-0.015908796 -0.27669579 0.29584247
-0.13450433 -0.30820799 0.29616457
-0.13067907 -0.30821633 0.29614559
-0.12800606 -0.30816868 0.29611424
-0.12745897 -0.30816406 0.29611179
-0.12274748 -0.30819049 0.29614064
-0.12631652 -0.30738845 0.29655638
-0.12146362 -0.30737329 0.29656264
-0.12038788 -0.30739275 0.29658732
-0.11499813 -0.3073864 0.29656509
-0.10226843 -0.30247378 0.29630494
-0.099219039 -0.30245903 0.29629773
-0.098625265 -0.30247924 0.29629523
-0.10133068 -0.30163589 0.29669875
-0.097471781 -0.30165797 0.29671699
-0.096902944 -0.30166101 0.29673401
-0.094535857 -0.30160779 0.29669151
-0.092551388 -0.30164751 0.29672673
-0.081468701 -0.29670057 0.29624981
-0.07897839 -0.29664004 0.29622546
-0.074652128 -0.2966699 0.29622817
-0.073936455 -0.29666504 0.29623327
-0.078179196 -0.29583091 0.29663229
-0.073158257 -0.29585481 0.29663745
-0.072428055 -0.29585066 0.29662347
-0.071707904 -0.29584855 0.29661012
-0.057283074 -0.29006726 0.29638043
-0.056936294 -0.29006398 0.29637843
-0.052433178 -0.29004151 0.29635617
-0.051831003 -0.29006031 0.29636988
-0.05104892 -0.28924096 0.29675782
-0.050533883 -0.28923386 0.29676229
-0.046563599 -0.2892037 0.29671922
-0.0351432 -0.28338605 0.29623601
-0.034439474 -0.28338391 0.2962344
-0.03119375 -0.28338993 0.29622668
-0.030648682 -0.28338802 0.29622716
-0.029528381 -0.28255779 0.29660717
-0.026098479 -0.28255627 0.29659754
-0.025722552 -0.28255531 0.29660022
-0.028534783 -0.28173253 0.29697853
-0.024764091 -0.28172845 0.29697084
-0.11926305 -0.30659729 0.29702714
-0.11894228 -0.30659056 0.29703048
-0.11426359 -0.30658031 0.29700696
-0.11367156 -0.30657804 0.29700893
-0.11055162 -0.30661437 0.29702392
-0.11253417 -0.30578434 0.2974627
-0.10962276 -0.30579171 0.29745513
-0.10675445 -0.30578068 0.29745701
-0.10546977 -0.30500346 0.29789999
-0.10867475 -0.30496377 0.29787713
-0.10580631 -0.30498493 0.29789159
-0.10256141 -0.30494824 0.29784644
-0.10183787 -0.30495101 0.29785776
-0.093595058 -0.30079874 0.29711509
-0.091648072 -0.30084416 0.29714692
-0.089614883 -0.30043966 0.29736045
-0.088194072 -0.30084604 0.2971198
-0.087416835 -0.30001152 0.29754037
-0.086064272 -0.30083096 0.29715189
-0.085275963 -0.3000215 0.29757556
-0.083124265 -0.30005032 0.29757318
-0.082731918 -0.30004007 0.2975716
-0.080220595 -0.30000198 0.29754683
-0.081802785 -0.29920995 0.29797739
-0.079287097 -0.29920024 0.29797202
-0.078729503 -0.2992146 0.29797533
-0.070551671 -0.29504585 0.29703894
-0.066232465 -0.29508337 0.29706132
-0.065698341 -0.29504886 0.29703858
-0.06941735 -0.2942231 0.29745317
-0.064399503 -0.29418907 0.2974284
-0.063655972 -0.2941899 0.29743463
-0.062533826 -0.29339856 0.29784432
-0.05821462 -0.29339904 0.29786924
-0.057666507 -0.29338467 0.29784828
-0.049551904 -0.28841814 0.2971479
-0.045410089 -0.28840911 0.2971279
-0.044885892 -0.28841996 0.29713291
-0.044115756 -0.28761816 0.29752776
-0.043373 -0.28761637 0.29753065
-0.042237952 -0.28677309 0.29791605
-0.035209715 -0.28677356 0.29790911
-0.023628701 -0.28089899 0.29734525
-0.020763043 -0.28092563 0.29735586
-0.019617358 -0.28007168 0.29770303
-0.016525231 -0.28009564 0.29772434
-0.12988923 -0.30993357 0.29804212
-0.12644985 -0.30994213 0.29805636
-0.12554878 -0.30994007 0.29805663
-0.1242367 -0.30912781 0.29849967
-0.11901525 -0.30913675 0.2985034
-0.11847745 -0.30913526 0.29849398
-0.11792451 -0.30913588 0.29848933
-0.11716138 -0.30833942 0.29894158
-0.11646068 -0.30832851 0.29893503
-0.11335433 -0.30833405 0.29895234
-0.11261553 -0.30834407 0.29895192
-0.11027652 -0.30830035 0.29893348
-0.10106886 -0.30415601 0.29830423
-0.10073184 -0.30416963 0.29831797
-0.098127626 -0.30420414 0.29834202
-0.097576164 -0.30418748 0.29833525
-0.095206857 -0.30416694 0.29830816
-0.096449047 -0.3033576 0.29875097
-0.094266847 -0.30337265 0.29875997
-0.092490718 -0.30338529 0.29877073
-0.090894029 -0.3033942 0.29877385
-0.084492855 -0.2992166 0.29800048
-0.077592932 -0.29843214 0.29839206
-0.076899417 -0.29842392 0.29838797
-0.07115037 -0.29839432 0.29839498
-0.076120801 -0.29760209 0.29880688
-0.070352919 -0.29758331 0.29881191
-0.069825523 -0.29758689 0.2988174
-0.056531586 -0.29256523 0.29822671
-0.055799413 -0.29259232 0.29822952
-0.054853961 -0.29177907 0.29864162
-0.050495345 -0.29180226 0.29865548
-0.03426367 -0.28597024 0.29830554
-0.033486389 -0.28555852 0.29849774
-0.032774512 -0.28513131 0.29868585
-0.029511796 -0.28511608 0.29867187
-0.018631021 -0.27924249 0.29806054
-0.015763361 -0.27926847 0.29810047
-0.01108038 -0.27924389 0.29809743
-0.014775213 -0.27843982 0.29847926
-0.011551579 -0.27845782 0.29849184
-0.013832211 -0.27760911 0.29885477
-0.010578449 -0.27760598 0.29885378
-0.11169297 -0.30755851 0.29940861
-0.1093833 -0.30749351 0.29938084
-0.10883575 -0.30750376 0.29938662
-0.10626481 -0.3075763 0.29940915
-0.1059481 -0.30757031 0.29940987
-0.1080692 -0.30671611 0.29985061
-0.10518637 -0.30676335 0.29986182
-0.10465352 -0.30673832 0.29984409
-0.10136521 -0.30676115 0.29984868
-0.091561079 -0.30258039 0.29921085
-0.090101637 -0.30259398 0.299202
-0.089714944 -0.30260092 0.29919022
-0.088322461 -0.3025524 0.29919186
-0.087941617 -0.30256298 0.29920745
-0.08716137 -0.30176786 0.29964668
-0.08533977 -0.30178237 0.29964709
-0.08481501 -0.30179226 0.29964468
-0.082678139 -0.30173972 0.29962778
-0.068517476 -0.29680794 0.29925144
-0.067813374 -0.29682183 0.29925692
-0.06382072 -0.29678673 0.29922858
-0.062491056 -0.29602456 0.2996704
-0.0630657 -0.2959958 0.29965699
-0.049195185 -0.29093066 0.29902035
-0.048491724 -0.29092157 0.29902154
-0.045072153 -0.29098293 0.29907566
-0.044513885 -0.29097211 0.29907084
-0.043393034 -0.29015192 0.2994715
-0.042651296 -0.29015011 0.29946306
-0.041515984 -0.28932694 0.29986829
-0.040605754 -0.28933468 0.29987082
-0.039915241 -0.28933704 0.29988152
-0.028189223 -0.2843065 0.29906976
-0.024746608 -0.28432012 0.29909021
-0.027271561 -0.28347802 0.29945889
-0.023825213 -0.28352171 0.29948682
-0.022684457 -0.2826924 0.29987395
-0.020017063 -0.28263968 0.29982644
-0.019621709 -0.28264809 0.29983357
-0.0094395904 -0.27675584 0.2992104
-0.12233321 -0.31089106 0.30037042
-0.12164139 -0.31088358 0.30036995
-0.1207361 -0.31088305 0.30036658
-0.11678448 -0.31086874 0.30034661
-0.11544711 -0.31008339 0.30083004
-0.11251974 -0.31010264 0.30083153
-0.10022084 -0.30595231 0.30030173
-0.099651314 -0.30595529 0.30031905
-0.097284421 -0.30590254 0.30027598
-0.096354201 -0.30510515 0.30073071
-0.095300011 -0.30594191 0.30031145
-0.094406441 -0.30515063 0.30076295
-0.092753015 -0.30515099 0.30076683
-0.090953469 -0.30515221 0.30073565
-0.081558049 -0.30093619 0.30005673
-0.077081092 -0.30096057 0.30006135
-0.07670822 -0.30095804 0.30006394
-0.075577922 -0.30015922 0.30049402
-0.074477762 -0.30015454 0.30047622
-0.073333435 -0.29936519 0.30093548
-0.072629176 -0.29935575 0.30093989
-0.06140285 -0.2952081 0.300089
-0.060508903 -0.29518461 0.30009863
-0.056169204 -0.29514939 0.30006692
-0.055835389 -0.29515266 0.30007124
-0.05935986 -0.29435712 0.30051711
-0.055062022 -0.29435441 0.30050227
-0.054460034 -0.29436839 0.30051035
-0.053353794 -0.29355234 0.30093497
-0.052611154 -0.29356521 0.30093229
-0.049383231 -0.293522 0.30089203
-0.039174579 -0.2885161 0.30028942
-0.038417153 -0.28851363 0.30028531
-0.037696831 -0.28850949 0.30028191
-0.036742732 -0.28770497 0.30068532
-0.033493228 -0.28770167 0.30068079
-0.032989312 -0.28769597 0.30068484
-0.018471958 -0.28185284 0.30022827
-0.015598916 -0.28186217 0.30026409
-0.014655863 -0.28104904 0.30064929
-0.0085428646 -0.28103465 0.30062234
-0.0050794389 -0.28105104 0.30064029
-0.010073048 -0.28017056 0.3009927
-0.11160632 -0.30928621 0.30128479
-0.10928255 -0.30929241 0.30129814
-0.10855392 -0.30930281 0.30129698
-0.10740908 -0.30854899 0.30177301
-0.10454816 -0.30846974 0.30171824
-0.10382055 -0.30848351 0.30173796
-0.092003502 -0.30435291 0.30121806
-0.090186149 -0.30432978 0.30118746
-0.089838922 -0.30431646 0.30119231
-0.088233404 -0.30433995 0.30122143
-0.087270908 -0.30354688 0.30167931
-0.086919524 -0.30355421 0.30167854
-0.085101247 -0.3035607 0.30167073
-0.084580854 -0.30354053 0.30165598
-0.08225558 -0.30352747 0.30164871
-0.067559235 -0.29852882 0.30135614
-0.066468149 -0.29851934 0.30135846
-0.065357514 -0.29773939 0.30180362
-0.064980127 -0.29774699 0.30179858
-0.06069022 -0.29772711 0.30181625
-0.048239067 -0.29273838 0.30133271
-0.047540106 -0.29275802 0.30134073
-0.046381421 -0.29196286 0.30176732
-0.032189254 -0.28688326 0.30109599
-0.031644277 -0.28687856 0.30108565
-0.028401691 -0.28687876 0.30108505
-0.027266363 -0.28606051 0.30148774
-0.026323343 -0.28524595 0.30189782
-0.025923965 -0.28525996 0.30190486
-0.02326956 -0.28525341 0.3018932
-0.02273608 -0.28524044 0.301873
-0.013480919 -0.2802352 0.30103409
-0.0043068114 -0.28022942 0.3010222
-0.0093196528 -0.27935776 0.301379
-0.0087434165 -0.27939436 0.30139226
-0.0077900887 -0.27858925 0.30178812
-0.0067395628 -0.27856413 0.30178979
-0.11845086 -0.31186995 0.30263558
-0.11533376 -0.31188112 0.30265367
-0.11477762 -0.31189618 0.30265677
-0.10308883 -0.30770573 0.30221891
-0.10274159 -0.30772397 0.30222741
-0.10010631 -0.30773175 0.30224034
-0.099394031 -0.30770361 0.30222151
-0.097393036 -0.30770618 0.30221406
-0.096443623 -0.30692384 0.3026967
-0.095035397 -0.30693775 0.30270091
-0.094506606 -0.30693156 0.30270576
-0.093261324 -0.30694255 0.30270606
-0.092874654 -0.30694589 0.30269796
-0.081291333 -0.30274215 0.3021048
-0.080381401 -0.30277431 0.30210194
-0.079287209 -0.30196878 0.30254981
-0.078565516 -0.30194992 0.30254829
-0.059520662 -0.2969164 0.30221939
-0.05821513 -0.2961393 0.30265334
-0.057498753 -0.29613698 0.30266517
-0.053668559 -0.2961795 0.30269134
-0.03862232 -0.29111865 0.30217591
-0.037472755 -0.29032096 0.30260015
-0.036731493 -0.2903353 0.30260551
-0.021756094 -0.28442395 0.3022691
-0.019067761 -0.28444964 0.30230978
-0.018268449 -0.2836324 0.30272022
-0.01773848 -0.28362891 0.30272245
-0.11404748 -0.31111735 0.3031432
-0.11366632 -0.31111279 0.30314022
-0.11155465 -0.31105638 0.30311725
-0.11082269 -0.31107304 0.30313343
-0.10846018 -0.31113237 0.30314434
-0.1073711 -0.3103283 0.30362457
-0.10664705 -0.31029084 0.30358806
-0.10373022 -0.31033313 0.3036139
-0.09209314 -0.30616173 0.30315316
-0.090509564 -0.30611879 0.30316254
-0.089943461 -0.30613267 0.3031736
-0.088122167 -0.3061471 0.30317417
-0.087202661 -0.30536556 0.30363879
-0.086692333 -0.30537006 0.30364287
-0.085249119 -0.30531549 0.30362314
-0.084712505 -0.30531096 0.30361682
-0.07239864 -0.30114299 0.30300856
-0.071505457 -0.30117252 0.30302286
-0.07039272 -0.30038577 0.30347928
-0.069641247 -0.30038482 0.30346853
-0.06508889 -0.2996006 0.30392358
-0.064396955 -0.29960182 0.30392557
-0.052569892 -0.29533944 0.30309379
-0.051687196 -0.29529566 0.3030684
-0.050736662 -0.29449379 0.30351168
-0.046598561 -0.29453999 0.30355546
-0.045455433 -0.29373208 0.30398682
-0.044557888 -0.29372621 0.30398175
-0.035625901 -0.28950569 0.30301762
-0.032366857 -0.28948882 0.30300084
-0.031431079 -0.28869236 0.30343026
-0.030728837 -0.2886855 0.30343372
-0.029778024 -0.28786877 0.30385312
-0.027212812 -0.28789526 0.30387378
-0.026880624 -0.28791401 0.30387989
-0.016808346 -0.28281829 0.30313125
-0.014270505 -0.28282678 0.30313763
-0.013728444 -0.28280181 0.30312139
-0.012421601 -0.28196254 0.30350801
-0.011272265 -0.28114876 0.30389839
-0.0074949479 -0.2811757 0.30392981
-0.11416481 -0.31289932 0.30491936
-0.11360259 -0.3128804 0.30490887
-0.1112702 -0.31289709 0.30492339
-0.10240551 -0.30953857 0.30410355
-0.1016758 -0.30954498 0.30411506
-0.09965869 -0.30948824 0.30407175
-0.098739475 -0.30870357 0.30455706
-0.096791029 -0.30874908 0.30458969
-0.095137753 -0.30874929 0.3045938
-0.083577707 -0.30452889 0.30408308
-0.078352541 -0.30375805 0.30455545
-0.077424951 -0.30375019 0.3045347
-0.076707646 -0.30375665 0.30453312
-0.063294359 -0.29878196 0.30438256
-0.062570192 -0.29877028 0.30438581
-0.061838288 -0.29874548 0.30437884
-0.057480186 -0.29796034 0.30481949
-0.056553144 -0.29797089 0.30482912
-0.043246292 -0.29292518 0.30441809
-0.042365566 -0.29292929 0.30443093
-0.041457519 -0.29292363 0.30443081
-0.040548995 -0.29251736 0.30464697
-0.039789356 -0.29212311 0.30486423
-0.036729388 -0.2921226 0.30485752
-0.026131654 -0.28711036 0.30430421
-0.025579207 -0.28709874 0.30430114
-0.022910871 -0.28704655 0.30425337
-0.024652453 -0.2862795 0.30471501
-0.022106433 -0.28624526 0.30468109
-0.021376172 -0.28627017 0.30468705
-0.0063793021 -0.28036568 0.30434653
-0.0056392178 -0.28038204 0.30433905
-0.0022500637 -0.28033027 0.30429628
-0.00023450582 -0.28040126 0.30435365
-0.0023847346 -0.27951843 0.30470395
-0.11036557 -0.31213614 0.30542579
-0.10978983 -0.31216741 0.30543327
-0.10727502 -0.31209025 0.30537212
-0.10675366 -0.31208873 0.30538112
-0.10547552 -0.31133983 0.30590764
-0.10232311 -0.31135625 0.30592728
-0.094398327 -0.30796406 0.30507571
-0.092588402 -0.30794492 0.30504632
-0.090439476 -0.30795133 0.30508062
-0.089500383 -0.30717468 0.30556732
-0.087330058 -0.30717826 0.30555287
-0.075400814 -0.30297139 0.30502629
-0.074520275 -0.30296236 0.30502439
-0.069628239 -0.30214083 0.30547076
-0.068310119 -0.30135697 0.30594701
-0.067421608 -0.30138293 0.30595082
-0.066707097 -0.30140793 0.30596033
-0.055423468 -0.29717204 0.30528361
-0.0548786 -0.29719031 0.30528191
-0.051655322 -0.29714796 0.3052485
-0.050520692 -0.29637095 0.30571517
-0.049625393 -0.29639995 0.30572575
-0.035443146 -0.29131508 0.30529919
-0.034698531 -0.2913141 0.30530018
-0.033766933 -0.29050076 0.30572098
-0.031057704 -0.29050723 0.30573094
-0.030708425 -0.29050624 0.30572918
-0.02024545 -0.28545657 0.30512354
-0.018093189 -0.2854698 0.30514359
-0.01756891 -0.28547722 0.30514026
-0.016404064 -0.28467435 0.30555657
-0.015890911 -0.28466725 0.30556649
-0.012251209 -0.28380892 0.30593264
-0.011867279 -0.28383264 0.30594179
-0.1012169 -0.31055281 0.30640405
-0.099227592 -0.31056428 0.30640715
-0.098845169 -0.31056967 0.30641741
-0.098104723 -0.30979976 0.30692133
-0.096522674 -0.30979997 0.30692443
-0.094698519 -0.30981743 0.30691051
-0.086429879 -0.30637372 0.30602393
-0.083530277 -0.30638704 0.30602273
-0.082791738 -0.30641595 0.30602017
-0.08203388 -0.3056317 0.30650398
-0.081528664 -0.30561298 0.30649883
-0.080642909 -0.30559587 0.30649936
-0.074829236 -0.30480406 0.30698773
-0.062307276 -0.30056629 0.30640942
-0.061956231 -0.3005619 0.30639607
-0.061247312 -0.29977721 0.30685899
-0.060496312 -0.29980132 0.30686641
-0.059771791 -0.29979417 0.3068803
-0.048504166 -0.29559255 0.30617887
-0.047962233 -0.29557532 0.30617568
-0.02958121 -0.2897003 0.30616596
-0.028829804 -0.28971475 0.30617639
-0.025591912 -0.28890023 0.30659473
-0.024850542 -0.28889051 0.30657285
-0.011075324 -0.28304768 0.30637035
-0.010395173 -0.28304034 0.30637398
-0.0092706829 -0.2822167 0.30679601
-0.0089225983 -0.28221172 0.30680308
-0.0060003791 -0.28224066 0.30680582
-0.11030588 -0.31400838 0.30718169
-0.11319479 -0.3139424 0.3071577
-0.11264753 -0.31395769 0.30717304
-0.10938618 -0.31322137 0.30769175
-0.10866216 -0.31318435 0.3076551
-0.10555483 -0.31322497 0.30767766
-0.092346646 -0.30900571 0.3074193
-0.091806255 -0.30901486 0.30742332
-0.089792505 -0.30903426 0.30742133
-0.089072526 -0.30826443 0.30791762
-0.088730633 -0.30826482 0.30792221
-0.086565353 -0.30820844 0.30789557
-0.074097447 -0.30402681 0.30747643
-0.07337147 -0.30405331 0.30748662
-0.072472252 -0.30406857 0.30748957
-0.071350858 -0.3032524 0.30794683
-0.055216596 -0.29902691 0.307345
-0.059035271 -0.29899856 0.30735108
-0.054285318 -0.29819545 0.30778432
-0.053577721 -0.29817948 0.30777982
-0.052847598 -0.29819036 0.30779544
-0.040315602 -0.29397622 0.30707097
-0.039593529 -0.29399398 0.30707732
-0.038300313 -0.29318777 0.30752504
-0.034475259 -0.29236919 0.30796042
-0.033746365 -0.29238275 0.30796933
-0.024086624 -0.28808656 0.30700812
-0.021577962 -0.2881119 0.30704945
-0.020434717 -0.28730401 0.30749297
-0.019742224 -0.28730729 0.30749798
-0.016430458 -0.2864942 0.30792969
-0.0052636075 -0.28142312 0.30722091
-0.0046987208 -0.28140455 0.30721396
0.0026792611 -0.28142643 0.30721021
-0.003772757 -0.28056872 0.30762285
-0.0016031301 -0.28058836 0.30764535
0.0012800535 -0.28058541 0.30762559
-0.10443168 -0.31244564 0.30820054
-0.10370162 -0.31245205 0.30821225
-0.10133687 -0.31239361 0.30816901
-0.10040466 -0.31164399 0.3086895
-0.098641574 -0.31167021 0.30871615
-0.097174667 -0.31167027 0.3087211
-0.096824676 -0.31166938 0.30872059
-0.085273363 -0.30744323 0.3083947
-0.080058806 -0.30668542 0.3088946
-0.079483375 -0.30667299 0.30887485
-0.078766748 -0.30667907 0.308873
-0.066464417 -0.30250618 0.30844995
-0.065403022 -0.30247983 0.30845818
-0.064274155 -0.30167812 0.30893844
-0.06374824 -0.30165792 0.30892906
-0.048323616 -0.29743281 0.30829453
-0.047750391 -0.29743168 0.30828798
-0.04701763 -0.2966392 0.30875164
-0.046467289 -0.29663146 0.30875358
-0.045557912 -0.29663917 0.30875552
-0.044866569 -0.29664189 0.30876622
-0.032654148 -0.29157493 0.30842197
-0.028645443 -0.29081956 0.3089017
-0.027926773 -0.29080635 0.30889937
-0.015495415 -0.28567189 0.30835187
-0.014598963 -0.28565845 0.30833456
-0.013456575 -0.28486297 0.30876091
0.0012955279 -0.27977803 0.30804953
0.0013748775 -0.27897412 0.30847579
0.0035455129 -0.27898517 0.30847013
0.0047036428 -0.27818778 0.308891
-0.11239988 -0.31507891 0.30940121
-0.11164075 -0.31511217 0.30940735
-0.10841404 -0.31426904 0.30988389
-0.10752047 -0.31429732 0.30991286
-0.10677736 -0.31433448 0.30992347
-0.096115671 -0.310904 0.30923301
-0.094456144 -0.31086946 0.30920419
-0.093949109 -0.31086662 0.309214
-0.092108481 -0.31011575 0.30975056
-0.091558695 -0.31012344 0.30975485
-0.090992928 -0.3101294 0.30974659
-0.08956667 -0.31013349 0.30974638
-0.077470042 -0.30590725 0.30939683
-0.076403745 -0.30589762 0.30939415
-0.071527645 -0.30508652 0.30987033
-0.070963927 -0.30509117 0.30987835
-0.059376694 -0.30089733 0.30941004
-0.058459193 -0.30090073 0.30941653
-0.057335772 -0.3001183 0.3098973
-0.056784213 -0.30013824 0.30989495
-0.044145394 -0.29584497 0.30923679
-0.043387502 -0.29584324 0.30923253
-0.042482123 -0.29584318 0.30922973
-0.041562784 -0.29506004 0.30969357
-0.038655203 -0.29505518 0.30969048
-0.027186787 -0.29000491 0.30934608
-0.024450906 -0.28998145 0.30931252
-0.023336893 -0.28919953 0.30977172
-0.022790024 -0.28919402 0.30978554
-0.0092974156 -0.28408092 0.30923843
-0.0087426417 -0.2840881 0.30924448
-0.0076071466 -0.28330389 0.30967143
-0.0051409458 -0.28325209 0.30963472
-0.10345557 -0.31353086 0.31044495
-0.10269605 -0.31351471 0.31042463
-0.1005371 -0.31277913 0.31097844
-0.098589331 -0.31278637 0.3109895
-0.096959479 -0.31280008 0.31098166
-0.088489056 -0.30933526 0.31024292
-0.085960068 -0.30933735 0.31024021
-0.085213639 -0.30857727 0.31075445
-0.084487945 -0.30860355 0.31075099
-0.083427548 -0.30858546 0.31074575
-0.082550481 -0.30857101 0.31074888
-0.070220299 -0.30432636 0.31038097
-0.069511712 -0.3043457 0.31038237
-0.068797372 -0.30437031 0.3103919
-0.068019919 -0.30361634 0.31090048
-0.052628502 -0.2993277 0.31036249
-0.051734213 -0.29935634 0.31037295
-0.05044207 -0.2985566 0.31085572
-0.049719315 -0.29854229 0.31084919
-0.037566014 -0.29426071 0.31016326
-0.036653865 -0.29425573 0.31015837
-0.019523613 -0.28841874 0.31025198
-0.018775061 -0.2884239 0.31025228
-0.018045884 -0.28761879 0.3107115
-0.017684283 -0.28760478 0.31071126
-0.0043587708 -0.2824448 0.31006667
-0.0039980025 -0.28244343 0.31006578
-0.0032436908 -0.28164774 0.31050795
-0.0013986571 -0.28170729 0.31055841
0.0050687506 -0.28166389 0.31052029
-0.00046556792 -0.28088722 0.31097442
0.0011657291 -0.28087178 0.31094956
-0.11162922 -0.31623277 0.31160581
-0.11053631 -0.3161836 0.3115615
-0.096199617 -0.31204376 0.31149673
-0.095853329 -0.31203073 0.31148589
-0.094236746 -0.31201082 0.31151572
-0.093719788 -0.31201604 0.31151879
-0.081446156 -0.30779994 0.31126472
-0.076369315 -0.30702817 0.31178129
-0.075653344 -0.30705613 0.31179357
-0.064024299 -0.30276528 0.311369
-0.063515499 -0.30276409 0.31135321
-0.062608004 -0.30279118 0.31135845
-0.061712209 -0.30278182 0.31137431
-0.06082315 -0.30200505 0.31187811
-0.042273503 -0.29697669 0.31181097
-0.032075219 -0.2926732 0.31109092
-0.031548664 -0.29266983 0.31109253
-0.030790586 -0.29269335 0.3111065
-0.027564486 -0.29187733 0.31154588
-0.026428962 -0.29108259 0.31199664
-0.014032543 -0.28679669 0.31111762
-0.013650561 -0.28682098 0.31112564
-0.012569636 -0.28601661 0.31158128
-0.011854487 -0.28600258 0.31158289
-0.011506131 -0.28599766 0.31159002
0.0018973931 -0.28007203 0.31138316
0.0022761682 -0.28007278 0.31138432
0.0054817498 -0.28004983 0.31139117
0.0055636507 -0.27924958 0.31182688
-0.10725073 -0.31547531 0.31213266
-0.10650605 -0.31546652 0.31214297
-0.10539784 -0.31546456 0.31215203
-0.105408 -0.31471732 0.31269693
-0.10322443 -0.31465775 0.31265119
-0.10267694 -0.31467018 0.31265825
-0.091329589 -0.31127539 0.31204292
-0.090820491 -0.31127948 0.31204674
-0.088465914 -0.3104586 0.31254804
-0.087552756 -0.31047031 0.31254813
-0.074561916 -0.30629632 0.31231064
-0.07364206 -0.30628252 0.31229234
-0.072939761 -0.30623451 0.31227231
-0.06875392 -0.30554324 0.3128193
-0.056422617 -0.30121735 0.31234023
-0.055722643 -0.30119443 0.31233168
-0.054601058 -0.30043212 0.31284744
-0.041358653 -0.29620767 0.31230116
-0.040622976 -0.29620132 0.31229722
-0.039914593 -0.29618216 0.31228966
-0.025924854 -0.29108012 0.3120046
-0.022607682 -0.2903119 0.31251225
-0.021329356 -0.28953141 0.31298649
-0.010712985 -0.28519478 0.31204671
-0.007438641 -0.28442255 0.31249133
-0.0065436158 -0.28438798 0.31247666
-0.0041685305 -0.28358468 0.31293079
-0.0036263226 -0.28360808 0.31295443
0.0054221754 -0.27845338 0.31226707
-0.11428548 -0.317375 0.31377354
-0.11355626 -0.31740847 0.3137835
-0.10054561 -0.31395045 0.31323081
-0.099987231 -0.31395054 0.31322891
-0.098549075 -0.3139514 0.3132349
-0.096185617 -0.31316459 0.31374758
-0.095678166 -0.31316179 0.31375742
-0.081037305 -0.30895126 0.31358072
-0.080504924 -0.3089602 0.31358433
-0.079943463 -0.30897042 0.31360644
-0.067507774 -0.30474845 0.31333548
-0.066416949 -0.30472463 0.3133361
-0.065714709 -0.30469918 0.31332257
-0.049700718 -0.29968399 0.31337243
-0.048800536 -0.29967719 0.3133691
-0.048421167 -0.29890049 0.31386364
-0.047514379 -0.29890257 0.31386429
-0.046632677 -0.29890713 0.31387702
-0.036233276 -0.29460603 0.313241
-0.035527412 -0.2946173 0.31325132
-0.03446373 -0.29460654 0.313254
-0.033346612 -0.29381934 0.3137362
-0.030838115 -0.29387116 0.3137655
-0.017509738 -0.28870103 0.31342945
-0.01680545 -0.28868857 0.31341544
-0.016024766 -0.28790399 0.31387535
-0.015492737 -0.28791276 0.3138715
-0.0026725465 -0.28284195 0.31342447
-0.0012474668 -0.28280815 0.31338808
-0.00032019222 -0.282004 0.31383222
0.01044284 -0.27604029 0.31357571
-0.10959882 -0.31660482 0.31430763
-0.10870743 -0.31664383 0.31432921
-0.10538694 -0.31587207 0.31488663
-0.10462593 -0.3158533 0.31486332
-0.093482308 -0.31243071 0.31432655
-0.09273342 -0.31243929 0.31431982
-0.090417102 -0.31166857 0.31484663
-0.089887775 -0.31164366 0.31484315
-0.07922814 -0.30820334 0.31413984
-0.078511171 -0.30819514 0.31413785
-0.077781633 -0.3081916 0.314134
-0.060581427 -0.303193 0.31435552
-0.059862513 -0.30318847 0.31436118
-0.059112173 -0.30242249 0.31486842
-0.05837911 -0.30243993 0.31486073
-0.045340348 -0.29812437 0.31437463
-0.044447761 -0.29812244 0.31437251
-0.04373692 -0.29813093 0.31436843
-0.030073352 -0.29308066 0.31424677
-0.029367829 -0.29306126 0.31423602
-0.026251614 -0.29225785 0.31468791
-0.010567763 -0.2863557 0.31485212
-0.0096517308 -0.28638059 0.31484371
0.0024558443 -0.28123286 0.31428704
0.0035409573 -0.28041792 0.3147448
-0.11644675 -0.31855649 0.3159157
-0.11571305 -0.31857204 0.31592578
-0.10228174 -0.31512916 0.31544381
-0.10192415 -0.31513706 0.31545028
-0.10034133 -0.31513739 0.3154538
-0.097790822 -0.3144035 0.31598461
-0.086617529 -0.31093284 0.31538394
-0.08553955 -0.31093577 0.31538051
-0.08465609 -0.3109138 0.31537807
-0.083404206 -0.31015483 0.31592569
-0.082496211 -0.31015787 0.31591734
-0.072546773 -0.30663407 0.31517285
-0.071641572 -0.30666128 0.31518254
-0.070552327 -0.30669603 0.31519398
-0.054236189 -0.30164817 0.31536531
-0.053521786 -0.30167389 0.31537431
-0.052963886 -0.30167261 0.31537622
-0.052256145 -0.30088627 0.31588766
-0.05152477 -0.30087504 0.31588173
-0.0395495 -0.29656774 0.31536347
-0.038636222 -0.29656395 0.31536472
-0.037905209 -0.29655463 0.31534803
-0.025334083 -0.29149011 0.31517312
-0.024608402 -0.29148433 0.31518975
-0.02153486 -0.29071867 0.31569123
-0.020781189 -0.29072526 0.3156867
-0.0069692754 -0.28553176 0.31527597
-0.0061975014 -0.28473699 0.31573895
-0.0056614587 -0.28473973 0.315741
0.0063020717 -0.27961522 0.31518799
0.0074237115 -0.27882814 0.31563675
0.0083377035 -0.27881879 0.31564185
-0.11302398 -0.31786811 0.31650543
-0.11248967 -0.31784421 0.31648779
-0.1115666 -0.31780532 0.31644979
-0.098350413 -0.31440303 0.31600255
-0.095466398 -0.31363097 0.31656671
-0.074551277 -0.30861506 0.31699079
-0.065308109 -0.30511755 0.31621373
-0.064401098 -0.30514446 0.31621891
-0.063302785 -0.30437425 0.31676048
-0.062616684 -0.30437535 0.3167707
-0.033545539 -0.29500473 0.31635574
-0.032441016 -0.2950356 0.31637362
-0.029571652 -0.29422686 0.3168478
-0.019513289 -0.28991884 0.31617531
-0.0032478471 -0.28401142 0.31626171
-0.0029046643 -0.28400058 0.31624728
-0.0025336388 -0.28399038 0.31623587
-0.00052899419 -0.28319085 0.31668267
1.267163e-05 -0.28319347 0.31668255
0.0083474647 -0.27803069 0.31609079
0.011774173 -0.27803853 0.31612039
-0.10830246 -0.31711739 0.31705719
-0.10753983 -0.31711781 0.31707725
-0.10680483 -0.31711414 0.31707841
-0.10428215 -0.31632632 0.31761029
-0.10373798 -0.31634849 0.31762129
-0.10177388 -0.31637165 0.31764185
-0.092573471 -0.31291029 0.31712338
-0.091842584 -0.31290403 0.31712458
-0.089528777 -0.31211099 0.31765372
-0.088616043 -0.31212544 0.31765887
-0.077261187 -0.30866581 0.31702495
-0.076532453 -0.30867863 0.31703028
-0.075608395 -0.30868036 0.3170203
-0.074732073 -0.30788547 0.31753996
-0.057507474 -0.30282107 0.31778061
-0.056426223 -0.30282867 0.31779763
-0.055695359 -0.30285805 0.31782344
-0.043360941 -0.29857582 0.31741944
-0.042453524 -0.29857495 0.31741902
-0.041365918 -0.29778561 0.31792408
-0.04099093 -0.29778507 0.31792364
-0.02845923 -0.29344398 0.31732437
-0.027766705 -0.29344088 0.31732926
-0.024814984 -0.29268789 0.31786591
-0.015103464 -0.28836504 0.31710604
-0.014422022 -0.28835833 0.31711
-0.013532272 -0.28834188 0.31711528
-0.012964978 -0.28833407 0.31712389
-0.012222099 -0.28754476 0.31761128
0.00077716343 -0.28241101 0.31715569
0.0029435381 -0.28160098 0.31762955
0.0035098572 -0.28159499 0.31762397
0.0042062951 -0.28159195 0.31762433
-0.11893973 -0.31979662 0.31803411
-0.11555225 -0.31909335 0.31863785
-0.11462583 -0.31912529 0.31864408
-0.10180706 -0.31563261 0.31821036
-0.099807501 -0.31563288 0.31821874
-0.097458743 -0.31486085 0.31876352
-0.082142137 -0.31063643 0.31874487
-0.081401445 -0.31064722 0.31876957
-0.080679432 -0.31064084 0.31878006
-0.070027009 -0.30718449 0.31810981
-0.069325015 -0.30716005 0.31811574
-0.069327645 -0.30641651 0.31865048
-0.068418726 -0.30639833 0.31866226
-0.067508139 -0.30637035 0.31865227
-0.066742249 -0.30635244 0.31862119
-0.050622612 -0.30132926 0.31887567
-0.037369214 -0.29702169 0.31843442
-0.036693253 -0.29701141 0.31843585
-0.036639296 -0.29624578 0.31894845
-0.035567768 -0.29623601 0.31894866
-0.024069455 -0.29190877 0.31836456
-0.023371452 -0.29191405 0.31837049
-0.0093305949 -0.28679097 0.31808096
-0.0085928189 -0.28676406 0.31807044
0.0077345339 -0.28001481 0.31856167
0.0080580078 -0.28000951 0.31857145
-0.11103491 -0.31833017 0.31919506
-0.11052588 -0.31835082 0.31921327
-0.10976258 -0.3183797 0.3192147
-0.10647158 -0.31760371 0.3197915
-0.10572805 -0.31759003 0.31977469
-0.094564222 -0.31414786 0.31936702
-0.092049219 -0.31340396 0.31991985
-0.091534629 -0.31338167 0.31991392
-0.090986453 -0.31336805 0.31991073
-0.079611219 -0.30988884 0.3193315
-0.078711137 -0.30989009 0.31933555
-0.062223665 -0.30488381 0.31973559
-0.061717648 -0.30487725 0.31973746
-0.049361154 -0.30055833 0.31940091
-0.048441391 -0.30057135 0.31940877
-0.047393952 -0.30056453 0.31941548
-0.046678487 -0.30056143 0.31941354
-0.045571838 -0.29980251 0.31993765
-0.044840321 -0.29980898 0.31993574
-0.032321975 -0.29551625 0.31949016
-0.03159532 -0.29550153 0.3194859
-0.030882474 -0.29547834 0.31946725
-0.01864353 -0.29031751 0.31933621
-0.017554747 -0.29032484 0.31931892
-0.016444128 -0.28957635 0.319823
-0.0052947029 -0.28519046 0.31904992
-0.0047562243 -0.28522575 0.31907097
-0.0023989154 -0.28441301 0.31951737
0.0088443756 -0.2792165 0.31905049
0.0093720052 -0.27921697 0.31905514
0.010503845 -0.27844167 0.31952268
-0.12147602 -0.32110995 0.32015207
-0.1205745 -0.32109672 0.3201479
-0.11810402 -0.32033738 0.32073057
-0.11755555 -0.32035255 0.32074606
-0.11699525 -0.32035765 0.32074478
-0.10340512 -0.3168951 0.32039508
-0.10138968 -0.31641045 0.32078984
-0.099099725 -0.31617239 0.3209531
-0.088107549 -0.31267822 0.32048237
-0.087369561 -0.31268811 0.32048133
-0.086484335 -0.31266469 0.3204765
-0.073480554 -0.30837667 0.32043561
-0.072402202 -0.3084062 0.32044029
-0.07147859 -0.30844712 0.3204608
-0.060601618 -0.30412945 0.32028058
-0.059508964 -0.30413517 0.32025692
-0.041222259 -0.29827598 0.32098845
-0.040318467 -0.29827219 0.32099608
-0.039415918 -0.29826459 0.32097688
-0.038706455 -0.29828045 0.32098067
-0.027397376 -0.29394451 0.32047465
-0.026502976 -0.29394189 0.32049236
-0.012278197 -0.28801632 0.32085866
-0.011538496 -0.28803271 0.32085094
-0.010804681 -0.28804857 0.32084507
0.00075377419 -0.28287113 0.3204824
0.0014525986 -0.28285578 0.32048613
0.015681118 -0.27633804 0.32075524
-0.11414816 -0.31965643 0.32134938
-0.1134155 -0.31962088 0.32130849
-0.11251689 -0.31960478 0.32130367
-0.10849023 -0.31893742 0.32195747
-0.10795294 -0.31891739 0.32194874
-0.09909609 -0.31545335 0.32154927
-0.096599378 -0.31542549 0.32157207
-0.085432932 -0.31191576 0.32105142
-0.084531911 -0.31191769 0.32105407
-0.083605394 -0.31191134 0.32103264
-0.055194072 -0.30261436 0.32134902
-0.05446431 -0.30263582 0.32135674
-0.053391069 -0.30261245 0.32135376
-0.052497111 -0.30260473 0.32134825
-0.022692941 -0.29242212 0.32153279
-0.0073822797 -0.28642985 0.32180598
-0.006641651 -0.28644383 0.3218199
0.0049250508 -0.28127795 0.32144332
0.0054789148 -0.2812866 0.32144207
0.0061976872 -0.28128204 0.32144576
-0.12404849 -0.32239026 0.32222676
-0.12349606 -0.32239664 0.32222068
-0.12294188 -0.32239935 0.32221892
-0.12409663 -0.32167011 0.32283482
-0.12026563 -0.32165384 0.32281432
-0.11958741 -0.32164034 0.32280916
-0.10905821 -0.31820923 0.32254574
-0.1086845 -0.3182137 0.32255787
-0.10507499 -0.31818783 0.32253206
-0.094248533 -0.31471628 0.32215324
-0.093544662 -0.31471577 0.32215625
-0.090495028 -0.31394395 0.32271579
-0.089585908 -0.31396019 0.32272255
-0.07803677 -0.30972663 0.32278532
-0.077514581 -0.30973291 0.32278788
-0.076595269 -0.30971977 0.32276952
-0.075531691 -0.30966404 0.32274678
-0.065362051 -0.30615664 0.32209098
-0.064479582 -0.30614451 0.32210612
-0.063779399 -0.30615613 0.32212088
-0.035075746 -0.29673654 0.32203975
-0.034523405 -0.29674667 0.32204878
-0.033793472 -0.29677799 0.32206362
-0.021404693 -0.2916463 0.32205185
-0.020510055 -0.29161161 0.32203779
-0.0042720996 -0.28569978 0.32233778
-0.0044168895 -0.28493765 0.32285541
0.010572378 -0.27974111 0.32243928
0.011458217 -0.27973124 0.32243529
0.011512062 -0.27896431 0.32292321
-0.11613104 -0.32100666 0.32345173
-0.11581284 -0.32100105 0.32345247
-0.11545274 -0.3209919 0.32345307
-0.10526171 -0.31744874 0.32311767
-0.10293913 -0.3174845 0.32314652
-0.1029842 -0.31676227 0.32374331
-0.10114922 -0.31675968 0.32375175
-0.1006275 -0.31676644 0.32374758
-0.098274268 -0.31673789 0.32374787
-0.090887837 -0.31320056 0.32329741
-0.058325827 -0.30462024 0.32318565
-0.057784513 -0.30463755 0.32320383
-0.056866866 -0.30466482 0.32322603
-0.059036009 -0.30388787 0.323742
-0.058508478 -0.30387133 0.32373506
-0.05687236 -0.30391297 0.32378024
-0.043453313 -0.29959249 0.32351664
-0.042730458 -0.29957825 0.32351109
-0.041865584 -0.29957262 0.32351527
-0.030193837 -0.29520786 0.32307225
-0.029479444 -0.29520559 0.32307106
-0.028924774 -0.2952117 0.32308286
-0.016318424 -0.29011181 0.32304487
-0.015812151 -0.29009649 0.32304585
-0.014916438 -0.29008266 0.32305443
-0.014515603 -0.28931195 0.32356605
-0.013791141 -0.28930193 0.32357705
-0.0013550452 -0.28413332 0.3233062
-0.00079631619 -0.28414202 0.32331279
0.0017498878 -0.28334287 0.32381231
0.0024606418 -0.28333884 0.32381147
0.0031996074 -0.28334996 0.32381061
0.012973965 -0.27814427 0.32339934
0.013501775 -0.27813625 0.32339704
-0.1272305 -0.32302305 0.32486972
-0.12651701 -0.32301497 0.32486847
-0.12558988 -0.32301062 0.32487485
-0.11636702 -0.32027608 0.32406557
-0.11223181 -0.31951132 0.32464439
-0.11153287 -0.31954136 0.32466415
-0.11059029 -0.31955621 0.32466012
-0.098475896 -0.31600338 0.32432741
-0.09612979 -0.31530485 0.32495916
-0.095583424 -0.31531346 0.32495484
-0.082582727 -0.31177551 0.32447448
-0.070148572 -0.30750373 0.32450113
-0.069423378 -0.30749306 0.32450435
-0.068523407 -0.30746338 0.32449251
-0.067593478 -0.30745181 0.32445371
-0.066881776 -0.3074725 0.32444739
-0.038389549 -0.29807097 0.32459393
-0.037510846 -0.29806045 0.32459489
-0.036597546 -0.29805809 0.32459432
-0.025471736 -0.29369882 0.3241716
-0.024583409 -0.29371497 0.32417798
-0.01014815 -0.28778112 0.32458586
-0.0094504701 -0.28775045 0.32457262
0.0028086531 -0.28255603 0.3243086
-0.12233345 -0.32234043 0.32551807
-0.12161519 -0.32232067 0.32551193
-0.10726387 -0.31832245 0.32567224
-0.10677075 -0.31878489 0.32525003
-0.10445355 -0.31811386 0.32590285
-0.10246944 -0.31811717 0.32590553
-0.09256544 -0.31455696 0.32553014
-0.082605302 -0.31103835 0.32504335
-0.081526212 -0.31103572 0.32506478
-0.08045283 -0.31102893 0.32506192
-0.079565987 -0.31104463 0.32507253
-0.060754862 -0.3060042 0.32559618
-0.050572786 -0.30165964 0.32544512
-0.049999088 -0.30167177 0.32544634
-0.032100063 -0.29656032 0.32568532
-0.03173526 -0.29654461 0.32567385
-0.02021612 -0.29138157 0.32573634
-0.019503986 -0.29137433 0.32572141
-0.018416297 -0.29139456 0.32571277
-0.017669009 -0.29143572 0.32572594
-0.006343361 -0.28623146 0.32562646
-0.005790724 -0.28626227 0.32564488
0.0068370076 -0.2810033 0.32531726
0.0075800517 -0.28100175 0.32533231
0.0084928181 -0.2810179 0.32533419
0.0090203816 -0.28102842 0.32533017
0.011202922 -0.28025216 0.32582173
-0.13214742 -0.32440764 0.32692108
-0.13144635 -0.32440087 0.32692233
-0.13053705 -0.32440817 0.32691956
-0.12962182 -0.32440975 0.32690787
-0.12871869 -0.3244077 0.32690412
-0.11859795 -0.3216019 0.32613871
-0.11787085 -0.32161203 0.32613823
-0.11900212 -0.32087958 0.32675007
-0.11375795 -0.32087052 0.32672411
-0.10463727 -0.31738865 0.32650697
-0.10252114 -0.31739786 0.32651848
-0.099968202 -0.31737995 0.32648546
-0.088235088 -0.31316563 0.32672781
-0.087547742 -0.31314325 0.32672203
-0.086488873 -0.31312808 0.32672632
-0.085589811 -0.3131333 0.32672733
-0.084658712 -0.313122 0.32670036
-0.07418099 -0.30882514 0.32681012
-0.073455036 -0.30884159 0.32680905
-0.072546102 -0.30887973 0.32682848
-0.071674868 -0.30888319 0.32683146
-0.062556647 -0.3052713 0.32621005
-0.061456412 -0.30528602 0.32620677
-0.060725905 -0.3052862 0.32619035
-0.049277481 -0.30092686 0.32601011
-0.048610598 -0.30092001 0.32601687
-0.047514632 -0.30091572 0.32601333
-0.046431009 -0.30092359 0.32601017
-0.045528986 -0.30093896 0.32601428
-0.044969469 -0.30094713 0.32601827
-0.032445479 -0.29582754 0.32624587
-0.027013214 -0.29504901 0.32678077
-0.0034561891 -0.28545338 0.32611385
-0.0028877808 -0.28545713 0.32611102
0.00033696892 -0.2846809 0.32663494
-0.11505765 -0.32021615 0.32739654
-0.11451411 -0.32018811 0.32736242
-0.11394721 -0.32016751 0.32734203
-0.10034309 -0.31670275 0.32710981
-0.099996485 -0.31669065 0.32709873
-0.09750843 -0.31596044 0.32774547
-0.094250448 -0.3159661 0.32773179
-0.084682837 -0.31240511 0.32731134
-0.083972715 -0.31240344 0.32729694
-0.055449463 -0.30362529 0.32748708
-0.054276269 -0.30341789 0.32762522
-0.05339022 -0.30304381 0.32790676
-0.052467998 -0.30303976 0.32789907
-0.041207626 -0.29941553 0.32711977
-0.040473342 -0.29941219 0.32710606
-0.039952654 -0.29942757 0.32711235
-0.041392125 -0.29867187 0.32768652
-0.028269812 -0.29430056 0.3272936
-0.027375648 -0.29429781 0.32731125
-0.011718267 -0.28914529 0.32732117
-0.012602131 -0.28836575 0.32786337
-0.011864413 -0.28838679 0.32785785
-0.00030911621 -0.28394112 0.32714105
0.00019804026 -0.28392601 0.32714534
0.01433304 -0.27791691 0.32731342
0.015246083 -0.27793196 0.32732445
0.016344305 -0.27714738 0.32780904
-0.14211664 -0.32650888 0.32825539
-0.14173435 -0.32649547 0.32823801
-0.13671571 -0.325813 0.32891464
-0.13544112 -0.32579818 0.32889205
-0.13458133 -0.32579109 0.32889482
-0.13367683 -0.32581365 0.32891834
-0.12461523 -0.3230111 0.32819855
-0.12369502 -0.32302168 0.32819557
-0.12102839 -0.322285 0.32881638
-0.12053502 -0.32227534 0.328812
-0.10941279 -0.31951469 0.32803196
-0.10887504 -0.31949472 0.32802328
-0.10980654 -0.31880632 0.32865357
-0.10601059 -0.31878293 0.3286337
-0.09500283 -0.31527191 0.32835376
-0.094466433 -0.31526774 0.3283574
-0.091082223 -0.31451812 0.32894695
-0.090519756 -0.31452972 0.32895148
-0.089797735 -0.31455797 0.32894868
-0.064623937 -0.30739221 0.32800201
-0.066274524 -0.30664814 0.32854864
-0.065391898 -0.30663583 0.32856381
-0.064691819 -0.30664724 0.32857856
-0.035614636 -0.29717371 0.32879248
-0.034532603 -0.29721296 0.32881275
-0.023398569 -0.29280889 0.32841122
-0.022509277 -0.29279739 0.32841969
-0.021784324 -0.29276812 0.32840315
-0.0079185665 -0.28757372 0.32836163
-0.0084622819 -0.2867943 0.32887343
-0.007931849 -0.28680158 0.32887882
0.0036487726 -0.28237635 0.32816273
0.0043769721 -0.28238478 0.32816228
0.0052952534 -0.28237045 0.32816842
0.017615568 -0.27634087 0.32827669
0.01958661 -0.27634105 0.32830378
0.018699117 -0.27555516 0.32877398
0.019440589 -0.27555758 0.32878894
-0.1360599 -0.3251262 0.32956448
-0.13568509 -0.32511893 0.32956284
-0.12107369 -0.32159624 0.32945782
-0.11641277 -0.32164463 0.32948306
-0.10620996 -0.31806153 0.32924682
-0.10370786 -0.31809336 0.32927799
-0.10394459 -0.31739253 0.3299
-0.10158777 -0.3173964 0.32990432
-0.091264397 -0.31379694 0.32955649
-0.078444608 -0.31027317 0.32914495
-0.077525593 -0.31026039 0.32912669
-0.076461896 -0.31020465 0.32910386
-0.075717807 -0.31020471 0.32911068
-0.030246103 -0.29566556 0.32988036
-0.029854443 -0.29567271 0.32988802
-0.0051865643 -0.28608093 0.3294369
-0.0046486948 -0.28606844 0.32942256
-0.002105447 -0.28531495 0.32994413
-0.0017434552 -0.28532761 0.32994556
-0.14851023 -0.32793552 0.33022717
-0.14430942 -0.32748994 0.33065817
-0.14363798 -0.32793587 0.33021128
-0.12717853 -0.32373977 0.33085677
-0.12640755 -0.32373968 0.33086437
-0.1173403 -0.32094663 0.3301225
-0.11660665 -0.32096022 0.33012193
-0.11157627 -0.32024527 0.33074406
-0.10177773 -0.31668413 0.33053491
-0.099282146 -0.31665307 0.33051503
-0.098903522 -0.3166624 0.33053091
-0.070402853 -0.30808678 0.330946
-0.069489479 -0.30805388 0.33093417
-0.068559796 -0.30804279 0.3308953
-0.067848489 -0.30806339 0.33088887
-0.059455812 -0.30441195 0.33027834
-0.058550458 -0.30442411 0.33029762
-0.057461727 -0.30445775 0.33032632
-0.044229507 -0.3000893 0.33018854
-0.043492664 -0.30008054 0.3301852
-0.042805407 -0.30007517 0.33018908
-0.044200953 -0.29936048 0.33076334
-0.030577093 -0.29492116 0.33043227
-0.016373273 -0.28977191 0.33055443
-0.015462964 -0.2897577 0.33056226
-0.01456688 -0.28974959 0.33057722
-0.0022907718 -0.28454334 0.33046499
0.010574493 -0.27932778 0.33024332
0.01164562 -0.27929807 0.33023867
0.012557399 -0.27928996 0.33023226
0.013832288 -0.27930441 0.33024189
-0.13958527 -0.3265816 0.33154348
-0.13850392 -0.32659563 0.33155629
-0.13777813 -0.32658431 0.33155826
-0.12736407 -0.32305688 0.33150381
-0.12246013 -0.32305822 0.33151871
-0.11238357 -0.31952411 0.33138645
-0.11181384 -0.31955341 0.33139107
-0.099283807 -0.31594402 0.33113426
-0.096401416 -0.31562522 0.33147913
-0.093198024 -0.31523079 0.33176693
-0.092856765 -0.31523129 0.33175984
-0.081246413 -0.31166685 0.33140153
-0.080548428 -0.3116827 0.33141267
-0.079992048 -0.31170145 0.33141983
-0.070588097 -0.30736834 0.33154461
-0.069673426 -0.30735087 0.33154249
-0.038118798 -0.29785332 0.33189613
-0.037383121 -0.29785249 0.33189747
-0.0262329 -0.29344407 0.33159041
-0.025535272 -0.29344895 0.33159629
-0.024808781 -0.29346806 0.33159801
-0.010079692 -0.2882137 0.33162165
0.0011759322 -0.28300431 0.33152831
0.0024355692 -0.28300661 0.33152747
0.0016894861 -0.28299701 0.3315267
-0.15564306 -0.32938865 0.33213523
-0.15129207 -0.32940426 0.33213687
-0.15057488 -0.32940224 0.33214998
-0.14987934 -0.32940295 0.33215412
-0.1522271 -0.32873958 0.33280647
-0.15149796 -0.32873929 0.33281291
-0.13999227 -0.32589614 0.33218592
-0.12265444 -0.32239228 0.3321805
-0.12289677 -0.32171386 0.3328366
-0.11875256 -0.32168606 0.33282879
-0.10768475 -0.31857041 0.33221927
-0.10497741 -0.3181453 0.332683
-0.093233809 -0.31452993 0.33239627
-0.082526118 -0.3109636 0.33201706
-0.081644073 -0.31095517 0.3320154
-0.038302213 -0.29712018 0.33246806
-0.010388792 -0.28748468 0.33217609
-0.0064145178 -0.28676286 0.33275723
-0.14617349 -0.32807443 0.33348173
-0.14563142 -0.32807663 0.33349076
-0.12945387 -0.32454979 0.33353418
-0.12893462 -0.32454351 0.33352691
-0.11935019 -0.32098484 0.33347985
-0.11899203 -0.32099578 0.33348605
-0.11392133 -0.32098004 0.33345854
-0.10497755 -0.31744328 0.33331844
-0.10283091 -0.31744924 0.33332342
-0.10289507 -0.31674796 0.33396336
-0.10034249 -0.3167308 0.33393037
-0.093264408 -0.31384295 0.33302346
-0.073593669 -0.30883849 0.33385667
-0.072523631 -0.30886129 0.33386922
-0.062124368 -0.30520552 0.333334
-0.061393574 -0.30520025 0.33331206
-0.060684241 -0.30515483 0.33327579
-0.047079906 -0.30006278 0.33383989
-0.046449799 -0.30062264 0.33340028
-0.045615595 -0.30082029 0.33326063
-0.032365128 -0.29637054 0.3330341
-0.033081818 -0.29566649 0.3336356
-0.032557406 -0.29565448 0.33362371
-0.019224038 -0.29117662 0.33321783
-0.01848552 -0.29121399 0.33322939
-0.017949592 -0.29122984 0.33323693
-0.020126645 -0.29041713 0.33379301
-0.019588053 -0.29041708 0.33378208
-0.0064088637 -0.28601101 0.3333008
-0.0067771692 -0.28560263 0.3335534
-0.0037017553 -0.28521937 0.33379716
0.0077008191 -0.28071764 0.33313954
0.0084128091 -0.28073606 0.33313701
0.0069935843 -0.27994218 0.33366185
0.0075222026 -0.27994275 0.33366659
-0.16221163 -0.33088976 0.33403081
-0.15939027 -0.33066773 0.33425686
-0.15704532 -0.33022803 0.33471823
-0.1569913 -0.3308821 0.33402908
-0.14639784 -0.32739252 0.33415341
-0.14153674 -0.327371 0.33413884
-0.14215893 -0.32669735 0.33481941
-0.14181934 -0.32668397 0.3348161
-0.13150364 -0.32386729 0.3342171
-0.1304075 -0.32387498 0.33420923
-0.12968034 -0.32387364 0.33420029
-0.12427418 -0.32320708 0.33487907
-0.1145107 -0.32027885 0.33408725
-0.11396884 -0.32028469 0.33410102
-0.11512023 -0.31962496 0.33477008
-0.11473099 -0.31960684 0.33474961
-0.10926992 -0.31961557 0.33478379
-0.10055654 -0.31606543 0.33457634
-0.09787365 -0.31604311 0.33460721
-0.088271573 -0.31246084 0.33427057
-0.087550186 -0.31244251 0.3342689
-0.086488508 -0.3124359 0.33427453
-0.085393846 -0.31243658 0.33425984
-0.084487982 -0.31243822 0.33425039
-0.074357681 -0.30809185 0.33446097
-0.073983058 -0.30809948 0.33445618
-0.040271875 -0.2986021 0.33499673
-0.033083994 -0.29493779 0.33420902
-0.027502865 -0.29416743 0.33476651
-0.0039126356 -0.28446329 0.33434331
-0.00028757032 -0.28371471 0.3348926
6.5329179e-05 -0.28370464 0.33489212
0.022269214 -0.27314529 0.3343423
0.023163736 -0.27235779 0.33485669
0.024415409 -0.27234483 0.33485076
-0.16919824 -0.33242893 0.33589539
-0.16846354 -0.33242688 0.33589923
-0.16773775 -0.33242023 0.33589807
-0.15712431 -0.32957405 0.33541015
-0.15423231 -0.32956061 0.33540255
-0.15369123 -0.32956377 0.33539647
-0.14220639 -0.3260529 0.33551198
-0.12451729 -0.32251608 0.33554235
-0.10947426 -0.31894821 0.33545077
-0.097922899 -0.31534714 0.33524367
-0.094650015 -0.31535259 0.33523086
-0.097927839 -0.31464967 0.33588251
-0.094683707 -0.31466782 0.3358829
-0.063736796 -0.30668378 0.33571017
-0.053341337 -0.30300981 0.33510828
-0.055171676 -0.30231065 0.33572459
-0.054449201 -0.30229259 0.33571935
-0.053741019 -0.30228847 0.33571541
-0.05228062 -0.30227816 0.3357071
-0.051560409 -0.30228335 0.33570576
-0.03989147 -0.29860488 0.33500168
-0.041177172 -0.2978586 0.33558941
-0.040442839 -0.29785544 0.33557564
-0.028224882 -0.29343587 0.33531675
-0.027677255 -0.29343033 0.33533069
-0.012357912 -0.28823805 0.3354789
-0.011851844 -0.28822991 0.33547023
-0.00024902748 -0.28297007 0.33542928
-0.17050608 -0.33174625 0.33657414
-0.1696016 -0.33178279 0.3365972
-0.1634865 -0.3317695 0.33659491
-0.15430623 -0.32891467 0.33610332
-0.14768265 -0.32823145 0.33675605
-0.13362777 -0.32539201 0.33622023
-0.13618439 -0.32471451 0.33688846
-0.13545771 -0.32470345 0.336869
-0.13440247 -0.32470611 0.3368834
-0.12512174 -0.32183138 0.33621746
-0.12474058 -0.32183933 0.33621562
-0.12117912 -0.32112902 0.33685765
-0.12071212 -0.3215743 0.33641088
-0.10970785 -0.31827721 0.33611038
