# .PCD v0.7 - Point Cloud Data file format
VERSION 0.7
FIELDS x y z
SIZE 4 4 4
TYPE F F F
COUNT 1 1 1
WIDTH 1380
HEIGHT 1
VIEWPOINT 0 0 0 1 0 0 0
POINTS 1380
DATA ascii
0.56042939 -0.25835472 0.03772451
0.55154181 -0.26790956 0.037931316
0.55157572 -0.26678851 0.03794032
0.55151737 -0.26313812 0.037896659
0.55156225 -0.26024535 0.037926875
0.5515123 -0.25971353 0.037892178
0.54329103 -0.26286316 0.037739843
0.50947297 -0.28393954 0.037798312
0.50615752 -0.28672743 0.037282541
0.70660841 -0.17586294 0.038839169
0.69704282 -0.18313618 0.038383286
0.69704169 -0.18244506 0.03838535
0.69706661 -0.18156287 0.038409494
0.69701552 -0.13855144 0.038356937
0.68680823 -0.18906674 0.038819175
0.68681353 -0.18557632 0.038817048
0.67814279 -0.19462389 0.038463738
0.66168338 -0.20159143 0.038013041
0.66168648 -0.20068651 0.038004126
0.6531269 -0.20841321 0.038434669
0.65313715 -0.20528477 0.038438588
0.64542359 -0.21035773 0.03856181
0.64542115 -0.20947388 0.038563929
0.63846713 -0.21293932 0.03831093
0.63776511 -0.21299803 0.038960818
0.63151622 -0.21809556 0.038229462
0.63081044 -0.21829164 0.038861096
0.6246503 -0.22146365 0.038421854
0.61848855 -0.22429831 0.038104348
0.61848992 -0.2237764 0.038107965
0.61781108 -0.22472766 0.038777903
0.61171061 -0.22921549 0.038682759
0.61171412 -0.22862804 0.038667947
0.60571057 -0.23504087 0.038807679
0.60567325 -0.23143378 0.038772088
0.60026968 -0.2346776 0.038280908
0.59963602 -0.23545845 0.03899885
0.58382058 -0.24564122 0.038644746
0.56892467 -0.25420848 0.038840249
0.55985659 -0.25869164 0.038509361
0.54708582 -0.26215827 0.038140412
0.54657531 -0.26663387 0.038968001
0.53462082 -0.26965439 0.03877921
0.52708447 -0.27441293 0.038570642
0.51965064 -0.28123093 0.038726158
0.51274163 -0.28440532 0.038347121
0.49573335 -0.29396605 0.038154248
0.46125594 -0.31199294 0.038881026
0.73942477 -0.1295182 0.039718036
0.70507073 -0.17585678 0.03989378
0.70506567 -0.13778837 0.039887253
0.69553584 -0.1853229 0.03948009
0.6955356 -0.18491955 0.039472502
0.6955356 -0.18330458 0.039478
0.69553006 -0.18274519 0.039473932
0.6860649 -0.18901058 0.039369337
0.68532377 -0.18906634 0.039960358
0.67667383 -0.19423524 0.039611451
0.66803837 -0.19776398 0.039533928
0.66023719 -0.20091213 0.039210852
0.65946752 -0.20258546 0.039757311
0.65949446 -0.20199835 0.039794169
0.65243 -0.20640734 0.039049633
0.65242887 -0.20551625 0.03905344
0.65170741 -0.20646995 0.039667796
0.64471447 -0.21072745 0.039185423
0.63704634 -0.2173683 0.039579906
0.63707173 -0.21342318 0.0395923
0.61712581 -0.22565439 0.039413575
0.61106414 -0.22960749 0.039379656
0.59903425 -0.23851962 0.039735142
0.58323371 -0.24568997 0.039404687
0.58324271 -0.23917037 0.039422467
0.57281959 -0.25505668 0.039851509
0.56380469 -0.25432175 0.039378949
0.56386369 -0.25212997 0.039442215
0.5549289 -0.26411563 0.039417028
0.54614627 -0.2685982 0.039874062
0.54611737 -0.26572087 0.039835617
0.54605824 -0.26134437 0.039810069
0.51924735 -0.33320397 0.039626613
0.51923424 -0.28055209 0.03962322
0.51234531 -0.28477827 0.03925379
0.48876002 -0.29559174 0.039782498
0.48558909 -0.29637837 0.039761987
0.73861992 -0.12518609 0.040151212
0.71465421 -0.16357709 0.040624149
0.70427668 -0.1766552 0.040398609
0.70429838 -0.13779302 0.040415268
0.69477206 -0.18371719 0.04002481
0.67568797 -0.19452219 0.040392857
0.66730219 -0.19776678 0.040111754
0.66655928 -0.19780028 0.040693123
0.65873379 -0.20429879 0.040328454
0.6587227 -0.20354713 0.040344153
0.65873885 -0.20276883 0.040353265
0.65878445 -0.20128424 0.040401094
0.6509825 -0.20686191 0.040281836
0.6363731 -0.21342133 0.040232394
0.62947249 -0.22037321 0.040236969
0.62881011 -0.2203798 0.040903233
0.62263072 -0.22553241 0.040431254
0.61043894 -0.23271364 0.040098172
0.60436362 -0.28342718 0.040157259
0.6037572 -0.23573403 0.040894646
0.5924387 -0.292371 0.040895786
0.59246486 -0.2362003 0.040930178
0.58719486 -0.24702403 0.040819671
0.56326461 -0.26345822 0.040213812
0.56327039 -0.25626835 0.040221389
0.56325448 -0.25585538 0.040193729
0.55440551 -0.26859078 0.040237576
0.55440217 -0.25952473 0.040233891
0.55437666 -0.2584846 0.040216438
0.54564607 -0.26764727 0.040724795
0.54559922 -0.26267618 0.040683974
0.54178393 -0.27265307 0.040255237
0.53369081 -0.27753186 0.040518131
0.50146157 -0.28984928 0.040572669
0.49159917 -0.2951549 0.040815469
0.48530599 -0.34894121 0.040718243
0.48531756 -0.29666039 0.040712655
0.47903144 -0.3025848 0.040855426
0.47302338 -0.30609855 0.040260464
0.47307119 -0.30354956 0.04028232
0.46992695 -0.30407187 0.040556516
0.4668856 -0.30925509 0.040941484
0.46689016 -0.30872992 0.040946778
0.4640049 -0.30792338 0.040383197
0.73629111 -0.13086452 0.041659035
0.71307737 -0.17151001 0.041600324
0.71309555 -0.16935422 0.041643452
0.71309572 -0.16870557 0.041669872
0.7131021 -0.16147034 0.041665651
0.71305728 -0.16008756 0.041611046
0.70238829 -0.13778162 0.041736174
0.70201367 -0.13589172 0.041996274
0.69250011 -0.18317498 0.041647602
0.68383032 -0.19768305 0.0410388
0.68379039 -0.19158883 0.041014198
0.67439872 -0.19572672 0.041270562
0.67442858 -0.1948137 0.041319437
0.6736539 -0.19624591 0.041840471
0.66513067 -0.20210803 0.041925613
0.66548669 -0.20155519 0.041608587
0.66581535 -0.19781016 0.041265488
0.64953828 -0.20795755 0.041476626
0.63498718 -0.21738648 0.041509051
0.62188435 -0.27175671 0.041025642
0.62193799 -0.2671212 0.041081514
0.62125254 -0.26530015 0.041734133
0.60911286 -0.2332115 0.041480545
0.59711975 -0.27888888 0.041892894
0.56660199 -0.26188844 0.041935444
0.56659842 -0.26083338 0.041923653
0.56658357 -0.25681648 0.041915853
0.56661969 -0.25541934 0.041954361
0.56272715 -0.26389852 0.041021325
0.53320694 -0.27094972 0.041384459
0.52951556 -0.32535651 0.041303895
0.52947015 -0.27525273 0.041245699
0.51478714 -0.27969876 0.041678783
0.50433588 -0.28900829 0.041907299
0.50429612 -0.28793195 0.041870091
0.49128872 -0.29541767 0.041767381
0.49129733 -0.29214758 0.041757334
0.48813835 -0.31543586 0.041697685
0.48815021 -0.30449572 0.041694097
0.48811623 -0.29724398 0.041659284
0.48811358 -0.29613668 0.041658647
0.48813987 -0.29577845 0.041671216
0.48813871 -0.29407346 0.041675176
0.48497432 -0.29906082 0.041625477
0.48187724 -0.29810137 0.041694447
0.478787 -0.30326563 0.041797947
0.47567853 -0.35634267 0.041994993
0.47567737 -0.35545057 0.041992582
0.4756645 -0.30706 0.041986037
0.47593012 -0.30127111 0.041009415
0.46976438 -0.36019608 0.041560061
0.46978283 -0.35931748 0.041600741
0.46973744 -0.35871664 0.041550431
0.46974668 -0.35190254 0.041564561
0.46668223 -0.35350034 0.041934066
0.46672103 -0.34954733 0.041944008
0.46668628 -0.324357 0.041930582
0.46667233 -0.31825644 0.041921016
0.46669316 -0.31678328 0.041933678
0.46669933 -0.30819339 0.041947931
0.46668637 -0.3074404 0.041918445
0.46376261 -0.30900249 0.04133046
0.46380699 -0.30845803 0.041346684
0.46077985 -0.34443688 0.041867506
0.46083334 -0.33401552 0.041900635
0.46076235 -0.32929239 0.041848727
0.46082157 -0.32643038 0.04189121
0.46079794 -0.32285455 0.04186755
0.46077791 -0.3142384 0.041871477
0.46079099 -0.31368744 0.041868784
0.45789251 -0.31364062 0.041409768
0.45204651 -0.32625535 0.041736737
0.45205626 -0.32552961 0.041747164
0.44910678 -0.31776619 0.041422009
0.74756831 -0.12640996 0.042459026
0.74675637 -0.12390612 0.042913746
0.73552513 -0.16283888 0.042157784
0.73549289 -0.1613806 0.042109758
0.73469204 -0.22048232 0.042572264
0.73474377 -0.16203208 0.042636704
0.73471671 -0.16137378 0.042595576
0.73471659 -0.15843353 0.042599481
0.73473179 -0.1576827 0.042628355
0.71232778 -0.1702123 0.042136408
0.71232295 -0.16932751 0.042146325
0.71229088 -0.158531 0.042095933
0.71230602 -0.15611006 0.042141516
0.71231681 -0.15571412 0.042153869
0.71235883 -0.14951785 0.042192027
0.70203137 -0.1481169 0.042023052
0.70203453 -0.14773057 0.042017855
0.70201784 -0.14578933 0.042016804
0.70126528 -0.14661945 0.042542279
0.70126748 -0.14586923 0.042541508
0.70125914 -0.14449587 0.042542771
0.70126885 -0.14379247 0.042552751
0.7012102 -0.14098933 0.042499509
0.70126194 -0.13869749 0.042546887
0.69100207 -0.18742637 0.042726953
0.68228823 -0.19174363 0.042116381
0.6815657 -0.19189341 0.042687479
0.67296433 -0.24737088 0.042459916
0.67293185 -0.19789539 0.04241138
0.67244017 -0.19656639 0.042801157
0.65660471 -0.20619859 0.042189907
0.64113164 -0.26492074 0.042268142
0.640495 -0.21532536 0.042965833
0.63426787 -0.22718854 0.042145595
0.63428438 -0.21747223 0.042156763
0.62744981 -0.22007 0.042214718
0.62734842 -0.21762428 0.042107493
0.62676209 -0.27667916 0.042867668
0.62670487 -0.22336324 0.042807277
0.62674558 -0.22164415 0.042840794
0.62675446 -0.22033787 0.042862002
0.62054169 -0.22821544 0.042358179
0.60846919 -0.23795314 0.042171802
0.60845369 -0.22975898 0.042163864
0.60844189 -0.2289739 0.042143855
0.60778409 -0.28524005 0.042841967
0.60246497 -0.23863876 0.042325299
0.60242593 -0.2378953 0.042276446
0.60239238 -0.23679517 0.042253423
0.60180736 -0.23940422 0.042993493
0.5964486 -0.23932521 0.042569935
0.5912599 -0.23858005 0.042428654
0.5808087 -0.25258109 0.042422213
0.57568252 -0.2529186 0.042656951
0.56605715 -0.25547317 0.042731412
0.56607306 -0.25440741 0.042752516
0.56154507 -0.2602528 0.042567648
0.5571804 -0.26419729 0.042579148
0.55711228 -0.26260746 0.042532243
0.55717582 -0.26166257 0.04258357
0.54893386 -0.26063666 0.042051855
0.54893571 -0.25997448 0.042059951
0.54024702 -0.26814699 0.04274755
0.53647989 -0.27180126 0.042442109
0.53273892 -0.27127615 0.042250089
0.52851999 -0.27602357 0.042980406
0.52853912 -0.27531606 0.042979956
0.52486461 -0.33378464 0.042975858
0.51801574 -0.28304842 0.042340335
0.51801431 -0.28261191 0.042326707
0.51798522 -0.31542671 0.042310469
0.51435167 -0.31703356 0.042566754
0.51433527 -0.31659651 0.042542189
0.51069558 -0.29521409 0.042831451
0.50748003 -0.31633827 0.042313766
0.50393349 -0.29144508 0.042798482
0.50396907 -0.28963453 0.042825494
0.50391805 -0.28677318 0.042780749
0.50079638 -0.33186755 0.042468276
0.50077796 -0.31485483 0.04246204
0.50083309 -0.31012282 0.042479392
0.5007717 -0.29053706 0.042450681
0.49408042 -0.34687603 0.04283502
0.49411321 -0.31664503 0.042862453
0.49416512 -0.3100403 0.042905968
0.49413493 -0.30970654 0.042882096
0.49416316 -0.30614257 0.042900775
0.49414596 -0.3058112 0.042902119
0.49413145 -0.30319944 0.042877581
0.49414364 -0.29889476 0.042878177
0.49410683 -0.29639277 0.04285343
0.49408072 -0.29570302 0.042839814
0.49412218 -0.29462329 0.04287577
0.49100405 -0.34371248 0.042742241
0.49100485 -0.30002689 0.042730547
0.49097058 -0.34910086 0.042712148
0.49097562 -0.34870154 0.042712543
0.49099061 -0.33717123 0.042715725
0.49094272 -0.31993985 0.042698961
0.4909949 -0.29932043 0.042725146
0.48786011 -0.33225635 0.042654738
0.48783386 -0.32575735 0.042610228
0.48789388 -0.30652428 0.042667639
0.48785779 -0.30185756 0.042640187
0.48784745 -0.30007386 0.042638145
0.48785996 -0.29968348 0.042639382
0.48786977 -0.29868519 0.042639621
0.48472032 -0.34057078 0.042603739
0.48472708 -0.33481681 0.042623002
0.48474923 -0.30920342 0.042624813
0.48470074 -0.30334845 0.04260657
0.48473817 -0.30011818 0.042622443
0.48164868 -0.34890106 0.042675536
0.48165768 -0.34176141 0.042708978
0.4816069 -0.33055064 0.042647164
0.48162216 -0.32965854 0.042670742
0.48162585 -0.32821506 0.042664036
0.48159409 -0.32728431 0.04263784
0.48161986 -0.31828895 0.042639475
0.4816213 -0.31731093 0.042662032
0.48160344 -0.30999392 0.042641096
0.47852632 -0.35404509 0.042788059
0.47854507 -0.35349053 0.042787962
0.47854054 -0.35279137 0.042790741
0.47854584 -0.34469238 0.04279859
0.47849408 -0.3432616 0.042740237
0.47853309 -0.34038553 0.042793795
0.47851121 -0.33550036 0.042760778
0.47845885 -0.33458325 0.042724106
0.478515 -0.33350801 0.042777758
0.47850695 -0.33228365 0.042780489
0.47852901 -0.33176956 0.042793393
0.4785299 -0.32346067 0.042785801
0.47854328 -0.32256615 0.042798318
0.47854036 -0.3151921 0.042782564
0.47848839 -0.31338212 0.042755216
0.4785136 -0.31268093 0.04277534
0.47854319 -0.3115907 0.04278503
0.47854701 -0.31067881 0.042790294
0.47854191 -0.3060976 0.042783957
0.47850373 -0.30402997 0.042765912
0.47569039 -0.35927537 0.042009056
0.47546482 -0.35889041 0.042977601
0.4754312 -0.35595694 0.042950258
0.47545943 -0.3545129 0.042974789
0.4754422 -0.34641469 0.04294676
0.47548527 -0.3456549 0.042979211
0.47542775 -0.34474599 0.04295288
0.47546163 -0.34367925 0.042978477
0.47548991 -0.34228885 0.042997099
0.47543594 -0.33756137 0.04294917
0.47540551 -0.33666751 0.042914942
0.47543132 -0.32747433 0.042934738
0.47544751 -0.32624888 0.042966835
0.4754557 -0.3255524 0.042979367
0.47545141 -0.32480547 0.042960454
0.47541904 -0.32371449 0.04293713
0.47542885 -0.30658409 0.042937506
0.47544971 -0.30550134 0.04295364
0.4725664 -0.35648471 0.042213958
0.47261152 -0.35051712 0.042237349
0.47264034 -0.34100768 0.042249363
0.47257245 -0.33990976 0.04219282
0.47264519 -0.3326658 0.042261526
0.47257921 -0.32909027 0.042219114
0.47260079 -0.32768261 0.04223454
0.47259179 -0.30932873 0.042227473
0.47261092 -0.30860648 0.042232592
0.47263458 -0.30788264 0.042241387
0.46949509 -0.35818511 0.042493597
0.46950787 -0.35762426 0.042497162
0.46952918 -0.35656789 0.042537902
0.46953127 -0.35262886 0.042536955
0.46955955 -0.35155568 0.042553499
0.46951652 -0.34976411 0.042537581
0.46953118 -0.34401113 0.042520639
0.46953326 -0.3434329 0.042514376
0.46956709 -0.34252059 0.042550188
0.46955168 -0.34144697 0.04254986
0.46955544 -0.34053937 0.042553902
0.46954012 -0.33999538 0.04253938
0.46955815 -0.33535776 0.042563956
0.46955562 -0.3345764 0.042549126
0.46950811 -0.33351922 0.042499121
0.46952659 -0.32414407 0.042512964
0.46952936 -0.3234618 0.042531598
0.46954888 -0.32239196 0.042554423
0.46954677 -0.32147539 0.042538613
0.46950716 -0.32057214 0.042506635
0.46953464 -0.31949496 0.042525828
0.46956164 -0.31447965 0.042546477
0.46952093 -0.3134082 0.04252179
0.46948671 -0.31263629 0.042492446
0.4664866 -0.35352457 0.04290833
0.46644625 -0.352393 0.042871829
0.46650022 -0.3473531 0.042912275
0.46652523 -0.34643871 0.042926021
0.4664852 -0.34556878 0.042909015
0.46647602 -0.34446898 0.042887613
0.46650079 -0.34376159 0.042899497
0.46649125 -0.34268385 0.042895336
0.46648848 -0.34159839 0.042882666
0.46651638 -0.33800256 0.04292741
0.46653622 -0.33748484 0.042935401
0.46647984 -0.33654177 0.042888612
0.46648076 -0.33545718 0.042897526
0.46651021 -0.33474609 0.042925779
0.46646827 -0.33119816 0.042887524
0.46649727 -0.33046603 0.042908724
0.46653181 -0.32954171 0.042936701
0.46646485 -0.32861781 0.042876989
0.46643957 -0.32754448 0.042873085
0.46649748 -0.32647493 0.042909365
0.46648392 -0.32542452 0.042913903
0.46649659 -0.32468757 0.042917039
0.4664852 -0.32399338 0.042913355
0.46649083 -0.31734467 0.042912617
0.46651554 -0.31626767 0.042928867
0.46649265 -0.31547278 0.042901263
0.46645269 -0.31463167 0.042878002
0.46648127 -0.31389248 0.042886481
0.46361515 -0.35832459 0.042337354
0.46366954 -0.35721472 0.042349949
0.4636589 -0.3565093 0.042369913
0.46364895 -0.35542476 0.042360693
0.46363705 -0.34950012 0.042355575
0.46364886 -0.34860671 0.042364817
0.46364078 -0.34751138 0.042363275
0.46359491 -0.34679461 0.042329486
0.46363863 -0.34121192 0.042338639
0.46363822 -0.34030762 0.042336628
0.46364009 -0.33995759 0.042332448
0.46367517 -0.33886066 0.042368919
0.46365368 -0.33222479 0.042374548
0.46367306 -0.33149889 0.042385183
0.4636035 -0.33022395 0.042302787
0.46361077 -0.32984734 0.042324148
0.46363676 -0.32123718 0.042344287
0.46363229 -0.32067436 0.042339716
0.46365049 -0.3194423 0.042367849
0.46365917 -0.31854951 0.042374134
0.46360958 -0.3174454 0.042321425
0.46362516 -0.31676322 0.04234504
0.46365517 -0.31135434 0.042362783
0.46366355 -0.3104634 0.042367995
0.46061805 -0.35021317 0.0428579
0.46057862 -0.34949103 0.042820398
0.46058524 -0.34859431 0.042826131
0.4606488 -0.34335235 0.042863857
0.46062052 -0.34247231 0.042859316
0.46060088 -0.34155771 0.042828362
0.46061745 -0.34083325 0.042844992
0.46062458 -0.33505753 0.0428528
0.46065354 -0.33456022 0.042869352
0.46061873 -0.3334741 0.042838611
0.46059898 -0.33252847 0.042831287
0.46062124 -0.33180839 0.042845562
0.46061444 -0.32737517 0.042840175
0.46065593 -0.3264766 0.0428776
0.46061003 -0.3255372 0.042834137
0.46055716 -0.32462013 0.042798433
0.46061334 -0.32354447 0.042850297
0.46060532 -0.32231987 0.042852551
0.46062556 -0.32142827 0.042860057
0.46062618 -0.32049641 0.04285356
0.46062133 -0.31994912 0.04284275
0.46064609 -0.31315368 0.042864934
0.46064299 -0.31282935 0.042878076
0.45776594 -0.34640798 0.04242276
0.45776474 -0.345516 0.042420343
0.45779589 -0.34480873 0.042433303
0.45776966 -0.3384769 0.042405117
0.4577634 -0.33742058 0.042400729
0.45776689 -0.33651805 0.042404376
0.45778993 -0.33542746 0.042425402
0.45777252 -0.3345038 0.042425752
0.45778847 -0.33377922 0.042435948
0.45777792 -0.32932144 0.042434707
0.45779324 -0.3286224 0.042445641
0.45774847 -0.32749236 0.042396583
0.45773596 -0.32660839 0.042381633
0.45776817 -0.31653896 0.042418394
0.45778036 -0.31565553 0.042436525
0.45775488 -0.31333655 0.042411778
0.45473889 -0.33793443 0.042996299
0.45492896 -0.33146188 0.042053983
0.45492062 -0.33039331 0.042045008
0.45487493 -0.32942492 0.042014547
0.45490313 -0.3287462 0.042035714
0.45489565 -0.32432082 0.042030301
0.45492634 -0.32355654 0.042054195
0.45493144 -0.32261199 0.042050816
0.45470819 -0.3213807 0.042980265
0.45489484 -0.3204518 0.042039849
0.45490211 -0.31958497 0.042038787
0.45490655 -0.31852886 0.042053912
0.45490989 -0.31742355 0.04204439
0.45490602 -0.31668577 0.042033304
0.45489445 -0.31594574 0.042017568
0.45192492 -0.33542937 0.042708624
0.45191377 -0.33438134 0.04270009
0.45191509 -0.33346388 0.042699128
0.45194978 -0.33236399 0.042728338
0.45193502 -0.32660964 0.04273133
0.45191064 -0.32443658 0.042704761
0.4518818 -0.32353926 0.042671606
0.44904083 -0.33000228 0.042447425
0.44904032 -0.32127008 0.042439237
0.44906998 -0.32051051 0.042460829
0.44909537 -0.31978637 0.042482365
0.44620264 -0.32321215 0.042266898
0.74517041 -0.12132119 0.043837495
0.74595064 -0.11774164 0.043365795
0.73392141 -0.15774517 0.043085687
0.71001989 -0.17616168 0.043705352
0.71003002 -0.17503269 0.043713395
0.70050174 -0.1441101 0.043074671
0.70050776 -0.14300294 0.04307675
0.70047253 -0.14161918 0.043027632
0.70046431 -0.14020061 0.043035306
0.7004751 -0.1394197 0.043041952
0.69971156 -0.14158458 0.043562662
0.69971806 -0.13902979 0.043570478
0.67222697 -0.20655727 0.043048389
0.66359711 -0.19750737 0.043000523
0.64743006 -0.21193391 0.043336194
0.63291258 -0.21747324 0.043431669
0.62601471 -0.22816008 0.043474413
0.61994505 -0.27872947 0.043125153
0.61984885 -0.22724509 0.043025203
0.61986899 -0.22682244 0.04304361
0.61316305 -0.22635871 0.043550141
0.61316055 -0.22528911 0.043562301
0.60716474 -0.27132154 0.043573011
0.60713935 -0.22953132 0.043560468
0.59586567 -0.2470569 0.043358512
0.5906437 -0.23864269 0.043158948
0.58537912 -0.24401063 0.043070648
0.58476943 -0.24338982 0.04381597
0.57962459 -0.26098198 0.043948248
0.5796324 -0.250534 0.043946128
0.57501441 -0.2987237 0.043364119
0.56992954 -0.2545557 0.043749284
0.56992626 -0.25310722 0.043748345
0.56549764 -0.26639301 0.043540772
0.56099564 -0.27976918 0.043346014
0.55228209 -0.30801076 0.043529261
0.55225676 -0.27235809 0.043496616
0.54784924 -0.27892807 0.043685738
0.53979629 -0.31935725 0.043628894
0.53976452 -0.30786648 0.043615736
0.53973955 -0.27869081 0.043576144
0.53977656 -0.26976311 0.04364378
0.53974378 -0.26864269 0.043598142
0.53601182 -0.27191013 0.043305952
0.53230631 -0.32273585 0.04315079
0.53227812 -0.27557054 0.043130293
0.53180176 -0.30668545 0.043994866
0.5317812 -0.30240849 0.043953937
0.53175813 -0.27940813 0.043947686
0.53176856 -0.27468535 0.043954507
0.52808326 -0.33243659 0.043861963
0.52809024 -0.32294148 0.043862868
0.52807575 -0.31937963 0.043856725
0.52811104 -0.30862364 0.043894075
0.52811354 -0.29928488 0.043893412
0.52812755 -0.29887679 0.043890718
0.52818358 -0.29309371 0.043931492
0.52815694 -0.28699324 0.043925557
0.52809596 -0.28091136 0.043863885
0.52805215 -0.27750337 0.043834098
0.52804863 -0.27656528 0.043824334
0.52441376 -0.3151989 0.043872546
0.52442425 -0.31124589 0.043860517
0.52442819 -0.31081513 0.043850172
0.5244562 -0.29540765 0.043889705
0.52443016 -0.28386402 0.043870535
0.52440649 -0.28049415 0.043851189
0.52119529 -0.28231773 0.043045335
0.52075928 -0.33124888 0.043921936
0.520733 -0.31962243 0.043906324
0.52075678 -0.31849706 0.043928437
0.52077395 -0.31781051 0.043949239
0.52075553 -0.31137201 0.043923195
0.52083385 -0.28900537 0.043981314
0.52081382 -0.2863754 0.043980472
0.52081287 -0.28328195 0.043982994
0.51756912 -0.31487018 0.043211807
0.5175947 -0.28183064 0.043241583
0.5139128 -0.32772893 0.043427967
0.51393175 -0.314282 0.043444499
0.51392615 -0.2992259 0.043428626
0.51396286 -0.28734571 0.043477826
0.51396811 -0.28593621 0.04347368
0.51397401 -0.28201094 0.043480583
0.51026845 -0.33121446 0.043733593
0.51032102 -0.33014369 0.043757629
0.51032096 -0.32974991 0.043756887
0.51035804 -0.31951076 0.043798536
0.51029789 -0.31755298 0.0437603
0.51036561 -0.31559935 0.043785665
0.5103482 -0.31492424 0.043794036
0.51032364 -0.30042556 0.043735784
0.51034242 -0.29796875 0.043763399
0.51034743 -0.29360816 0.043779667
0.51035643 -0.28754318 0.04378619
0.51030052 -0.28626031 0.043736957
0.50713688 -0.31087691 0.043260761
0.50708532 -0.30728692 0.043215528
0.50713736 -0.30404773 0.043247089
0.50713766 -0.29688144 0.043264877
0.50716859 -0.29582092 0.043262996
0.50716341 -0.29474196 0.043272078
0.50711972 -0.29286572 0.043256607
0.50715125 -0.29144976 0.043261781
0.50715142 -0.29071057 0.043267101
0.50715792 -0.28641936 0.043258447
0.50354481 -0.33537331 0.043709308
0.50357443 -0.33463329 0.04371921
0.50358653 -0.33063254 0.043716151
0.50358957 -0.32981426 0.043738231
0.50361496 -0.32529265 0.043751504
0.50360984 -0.32489657 0.043751117
0.50356168 -0.31842017 0.043720156
0.50358325 -0.31746316 0.043718956
0.50359678 -0.31694686 0.043732643
0.50362343 -0.31575808 0.043778401
0.50355124 -0.31428817 0.043717995
0.50359601 -0.31256944 0.043745108
0.50363129 -0.31150365 0.04377282
0.5035587 -0.3060526 0.043719806
0.50355679 -0.30570382 0.043717667
0.50358588 -0.30266947 0.043737926
0.50358266 -0.29711032 0.043740496
0.50356776 -0.29635036 0.043711256
0.50360763 -0.29438359 0.043748766
0.50360167 -0.2902624 0.043755356
0.50360727 -0.28918764 0.043765936
0.50043797 -0.3400231 0.043391146
0.5004065 -0.33719128 0.043374103
0.50040746 -0.33252111 0.043371797
0.50035822 -0.32959381 0.043334525
0.50041437 -0.3085919 0.043374527
0.50042504 -0.30715176 0.043388095
0.50043577 -0.3026216 0.043381363
0.50042582 -0.29315627 0.043392248
0.5004459 -0.29118425 0.04339318
0.50039303 -0.28986844 0.043354195
0.49725446 -0.3346847 0.043098211
0.49729073 -0.32131127 0.043101143
0.497262 -0.320658 0.04310948
0.49729013 -0.3162342 0.043102425
0.49728 -0.31256351 0.043103728
0.49728391 -0.30286103 0.043099169
0.4972603 -0.29530239 0.043084607
0.49725732 -0.2934818 0.043069847
0.49723166 -0.29277697 0.043053135
0.497269 -0.29136971 0.043101877
0.49689689 -0.33203533 0.04399899
0.49687278 -0.33171663 0.043981545
0.49687344 -0.32825744 0.043979574
0.49687701 -0.32753986 0.043987345
0.49689847 -0.31473416 0.043997403
0.4969115 -0.31397149 0.043997411
0.49689484 -0.30593321 0.043995433
0.49687883 -0.3016777 0.043989789
0.4937644 -0.34649754 0.043790385
0.49378631 -0.34573993 0.043801099
0.49378711 -0.34123823 0.043806769
0.49378926 -0.34055316 0.0438269
0.49378544 -0.33946687 0.043815382
0.49378735 -0.33834511 0.043799225
0.49378169 -0.33744618 0.043792702
0.49380708 -0.33568397 0.043834597
0.49376878 -0.33456567 0.043782238
0.49377632 -0.33349645 0.043795019
0.49379307 -0.3207463 0.043808039
0.49379393 -0.3162193 0.043800458
0.49379873 -0.3158046 0.043805633
0.49381736 -0.30243933 0.043821752
0.49381071 -0.30135906 0.04383206
0.49379107 -0.29913586 0.043803312
0.49380568 -0.29845572 0.043821242
0.49374419 -0.29530206 0.043780599
0.49378318 -0.29454005 0.043808311
0.49375263 -0.2905809 0.043776795
0.49067497 -0.34740394 0.043683149
0.49068528 -0.3294155 0.04368417
0.49063104 -0.32851186 0.043631513
0.49063954 -0.32745945 0.0436492
0.49068689 -0.32635638 0.043680493
0.49066314 -0.32529101 0.043660667
0.49060944 -0.32455042 0.043617677
0.49065521 -0.32345763 0.043642923
0.49067417 -0.32242107 0.043663736
0.49068147 -0.32153779 0.043680143
0.49064198 -0.32058641 0.043643918
0.49068451 -0.31737179 0.043677647
0.49064755 -0.31644821 0.043646924
0.49064332 -0.31574047 0.043649644
0.49070901 -0.31229436 0.043703604
0.49064878 -0.31157628 0.043647517
0.4906452 -0.31088057 0.043651097
0.49066871 -0.30934379 0.043674435
0.49069169 -0.30874953 0.043688446
0.49066362 -0.30747423 0.043657426
0.4906435 -0.30659601 0.043663513
0.49067712 -0.30536413 0.04366798
0.49071851 -0.30445439 0.0436932
0.49069539 -0.30396736 0.043696318
0.49064091 -0.30243799 0.043638524
0.49065551 -0.29600608 0.043651521
0.48754874 -0.35013437 0.043586437
0.48757899 -0.34963417 0.04360418
0.48753023 -0.34419197 0.043562513
0.48751384 -0.34328744 0.043550033
0.48753512 -0.34265894 0.043572944
0.48757753 -0.34188923 0.04360966
0.48753691 -0.34060648 0.043565877
0.48755062 -0.33651018 0.043593444
0.48755071 -0.33538568 0.043582592
0.48753944 -0.33447507 0.04356445
0.48754019 -0.33359602 0.043578271
0.4875623 -0.33269984 0.043597993
0.48753935 -0.33143374 0.043567989
0.48752812 -0.33035952 0.043566819
0.48754126 -0.32947648 0.043581925
0.48755175 -0.32896322 0.04358672
0.48754048 -0.31322306 0.04356961
0.48755357 -0.31251287 0.04357601
0.48757052 -0.31157744 0.043587364
0.48756543 -0.29928032 0.043598916
0.4875848 -0.29892546 0.043592311
0.4844493 -0.35343298 0.043568172
0.48443943 -0.35258052 0.043556832
0.48441306 -0.34641275 0.04353556
0.48442861 -0.34550694 0.043559007
0.48445591 -0.34446433 0.043590739
0.48445368 -0.34376138 0.043587357
0.48446608 -0.32633084 0.043593682
0.48443374 -0.32536948 0.043558013
0.48439837 -0.3245239 0.043539278
0.48443547 -0.32361057 0.043560121
0.48447719 -0.32270604 0.043591209
0.48440856 -0.32144389 0.043539818
0.48439497 -0.32054013 0.043533124
0.48444825 -0.31946081 0.043566164
0.48445871 -0.31840694 0.043584757
0.48444396 -0.31747761 0.043563601
0.48441234 -0.31640911 0.04355593
0.48444498 -0.31551629 0.043568123
0.48447174 -0.31459928 0.043582857
0.48444575 -0.31354547 0.043578397
0.48442167 -0.31226623 0.043557379
0.48445132 -0.30846289 0.043578025
0.48442012 -0.30757028 0.043550659
0.48444206 -0.30662158 0.04355276
0.48446229 -0.30547339 0.043590959
0.48446944 -0.30437124 0.043584377
0.48441508 -0.30328014 0.043562982
0.48444211 -0.30243179 0.043575987
0.48448196 -0.30152169 0.043592434
0.48448277 -0.30065805 0.04360272
0.48442012 -0.29936346 0.043545891
0.48135272 -0.35604188 0.043626457
0.48140416 -0.34917372 0.043653309
0.48134923 -0.34830728 0.043624874
0.48136634 -0.34740138 0.043643478
0.48136994 -0.34635174 0.043635983
0.48138425 -0.34545884 0.04365094
0.48136771 -0.34126198 0.043637402
0.48132429 -0.34056625 0.043592468
0.48132589 -0.33953166 0.04360345
0.48137 -0.33844289 0.043639671
0.48135278 -0.33303627 0.043634381
0.48134547 -0.33251756 0.043629736
0.48135296 -0.33156478 0.043617513
0.48136133 -0.32907778 0.043642871
0.48136547 -0.32873785 0.043648217
0.48130515 -0.32763445 0.043575976
0.48133594 -0.32656208 0.043612722
0.48134744 -0.32569242 0.043630276
0.48135012 -0.30944097 0.0436166
0.4813647 -0.30850789 0.04362464
0.48137435 -0.30742368 0.04363592
0.47826689 -0.35221583 0.0437603
0.47824797 -0.3514792 0.043721709
0.47827366 -0.35038957 0.043739349
0.47826511 -0.34949541 0.043726072
0.47826424 -0.34879172 0.043726139
0.47824827 -0.34244636 0.043725494
0.4782798 -0.34139347 0.043755244
0.47827986 -0.34067616 0.043766305
0.47831446 -0.33597216 0.04377589
0.47828341 -0.33277795 0.043748118
0.47829497 -0.32307231 0.043760184
0.47823641 -0.32161641 0.043713238
0.47824958 -0.32055458 0.043728139
0.47829339 -0.31946144 0.043756697
0.47825831 -0.31839252 0.043733526
0.47821364 -0.31745386 0.043699935
0.47826108 -0.31656113 0.043724541
0.47827551 -0.31571475 0.043742388
0.47828177 -0.31443807 0.043753091
0.47827157 -0.31229433 0.043741908
0.47826895 -0.31014109 0.043763578
0.47824973 -0.30937371 0.043725565
0.47829175 -0.30523378 0.043763705
0.47824824 -0.30448467 0.04372159
0.47825608 -0.30355147 0.043716162
0.47828507 -0.30204904 0.043756768
0.47516903 -0.35339388 0.043917138
0.47521758 -0.34512079 0.043935273
0.47521991 -0.34419155 0.043947302
0.47520635 -0.34329036 0.043932103
0.47522813 -0.34295738 0.043949973
0.47548324 -0.3383522 0.043004598
0.47517988 -0.33615324 0.043909565
0.47520751 -0.32854405 0.043928791
0.47519562 -0.32746559 0.043917447
0.47519681 -0.32677478 0.043918621
0.47515988 -0.32424185 0.043881241
0.475191 -0.32319903 0.043924004
0.47519875 -0.32263309 0.043927882
0.47520217 -0.30621675 0.043923259
0.47520733 -0.30588034 0.043919448
0.47235453 -0.35644689 0.043193109
0.47232971 -0.35550287 0.043166589
0.47238061 -0.35100296 0.043206099
0.47239894 -0.34957632 0.043218132
0.4723672 -0.34851608 0.043199528
0.47236755 -0.34741554 0.043188319
0.47237626 -0.34650329 0.043190848
0.47237682 -0.34599116 0.043192718
0.47240004 -0.34023347 0.043218229
0.47234714 -0.33927095 0.043178312
0.47238234 -0.33841228 0.043208122
0.4723883 -0.33773082 0.043221127
0.47236598 -0.33417016 0.043194186
0.47239798 -0.33340383 0.043219123
0.47238544 -0.33227649 0.043193933
0.47232097 -0.33156797 0.043157116
0.47235373 -0.33048823 0.043190822
0.47238335 -0.32961541 0.043207157
0.47237617 -0.32856676 0.043220341
0.4723815 -0.32799599 0.04321437
0.47238362 -0.32027757 0.043209933
0.47240096 -0.31957492 0.043226637
0.47236839 -0.31861374 0.043191988
0.47234434 -0.31757841 0.043176886
0.47238111 -0.31650639 0.043208115
0.47237712 -0.31506014 0.04320224
0.47234735 -0.3135865 0.043172449
0.4723832 -0.3123796 0.043202475
0.472395 -0.31147575 0.043216784
0.47235474 -0.31035674 0.043185472
0.4723452 -0.30962938 0.043187454
0.47240621 -0.3074564 0.043215308
0.47236738 -0.30642158 0.043193955
0.46934894 -0.35724628 0.043482326
0.46932042 -0.35657448 0.043503545
0.46933958 -0.35588855 0.043535091
0.46929866 -0.35042557 0.043506157
0.46931452 -0.34139633 0.04350853
0.46930739 -0.33421415 0.043499503
0.46934593 -0.32519281 0.043515
0.46932614 -0.32469177 0.043504357
0.46934491 -0.32237715 0.043531109
0.46630326 -0.30954865 0.043882485
0.46629998 -0.30737573 0.043881606
0.46348315 -0.35757959 0.04334322
0.4634248 -0.35451889 0.043295979
0.46346754 -0.35362253 0.043321788
0.46347135 -0.35260072 0.043354649
0.46351847 -0.3391858 0.043367878
0.46346387 -0.33831918 0.043340214
0.46348187 -0.33741137 0.043358684
0.46344936 -0.33058164 0.043315101
0.46344152 -0.32955384 0.043321107
0.46345714 -0.32017821 0.043330077
0.46346679 -0.31800041 0.043332744
0.46346262 -0.31619042 0.043330014
0.46341646 -0.30954689 0.043297254
0.46047759 -0.3123835 0.043848187
0.4576368 -0.32985315 0.043423325
0.45760781 -0.31725368 0.043394968
0.45763549 -0.31509483 0.043417428
0.45762089 -0.314751 0.043397803
0.45759562 -0.31399226 0.043381937
0.45478776 -0.34047326 0.043040421
0.45481175 -0.33976054 0.043053273
0.45476866 -0.33759296 0.043025892
0.45474273 -0.32214078 0.043009769
0.45476547 -0.31636271 0.043019183
0.45181307 -0.3313022 0.043725532
0.44900209 -0.32758093 0.043483496
0.44896853 -0.32935482 0.043461632
0.44897017 -0.32862321 0.043461476
0.44897649 -0.32720962 0.043460831
0.4489212 -0.32641095 0.043416254
0.44895023 -0.32556963 0.043442897
0.44896057 -0.31925476 0.043438416
0.44889662 -0.31854537 0.043403223
0.44614094 -0.32203895 0.043287817
0.75733489 -0.14359808 0.044639714
0.74440551 -0.14360152 0.044348355
0.74437684 -0.11908515 0.044295985
0.74435925 -0.11738592 0.0443005
0.7196036 -0.1286387 0.044661291
0.70927501 -0.17751598 0.044230875
0.70926625 -0.17613961 0.044230506
0.70924217 -0.17529798 0.044221234
0.70923042 -0.15850808 0.044206604
0.70921648 -0.15491983 0.044178661
0.70849794 -0.17781977 0.044732969
0.70850194 -0.17642574 0.044742718
0.69894582 -0.19095813 0.044113886
0.69894361 -0.14053349 0.044080898
0.67930794 -0.19136101 0.044351339
0.67856336 -0.19411401 0.044911016
0.67857081 -0.19336723 0.044922009
0.67071825 -0.19737548 0.044143688
0.67070419 -0.19652638 0.044128049
0.66220409 -0.20319131 0.044240478
0.66214776 -0.19646682 0.044180788
0.64603001 -0.25731701 0.044613753
0.63838041 -0.25926864 0.044849955
0.63838702 -0.25276652 0.044866011
0.63839799 -0.22611237 0.044874292
0.63833946 -0.20961791 0.044800654
0.63218039 -0.21865982 0.04405475
0.63147509 -0.27022001 0.044699587
0.63149363 -0.22194123 0.044726692
0.63143462 -0.21983761 0.044652626
0.63150835 -0.21794084 0.044711281
0.62531739 -0.22312911 0.044108626
0.62538171 -0.22027256 0.044162739
0.62468195 -0.27539781 0.044815704
0.62464553 -0.25886193 0.044784546
0.62464416 -0.2347313 0.044771414
0.62467432 -0.22675984 0.044819526
0.61182141 -0.28518498 0.044899743
0.60650492 -0.23025577 0.044270914
0.60585499 -0.26056972 0.044956163
0.59523612 -0.27616537 0.044053655
0.59523708 -0.25393108 0.044079404
0.59463674 -0.29534018 0.044816926
0.59455603 -0.2515139 0.04474635
0.58935374 -0.26849237 0.044584222
0.58932984 -0.25792241 0.044583824
0.58934575 -0.24930438 0.044582713
0.58417958 -0.24845921 0.044579763
0.58413798 -0.24472703 0.044533916
0.57896477 -0.25215372 0.044657692
0.5789637 -0.24708261 0.044647533
0.57446295 -0.28875721 0.044157069
0.57440597 -0.2506555 0.044110704
0.57443923 -0.24990995 0.044135451
0.57385093 -0.29334173 0.044904672
0.57385504 -0.29142147 0.044914443
0.57385421 -0.27302718 0.044899005
0.57383275 -0.2726588 0.044899214
0.57388252 -0.25178972 0.044915553
0.56937706 -0.28378198 0.044538103
0.56935292 -0.25825283 0.044522282
0.56488353 -0.2629196 0.044288561
0.56046724 -0.2713027 0.04417976
0.55992568 -0.27747217 0.044995815
0.55986112 -0.26455665 0.04493665
0.55990094 -0.25773183 0.044965241
0.55987823 -0.25413397 0.04496298
0.55986691 -0.25377619 0.044935446
0.55607909 -0.29405937 0.044191528
0.55546552 -0.2927146 0.044947181
0.55547208 -0.291776 0.044937484
0.5555138 -0.28869617 0.044993352
0.55547345 -0.28759044 0.04492547
0.55550724 -0.28510579 0.044963375
0.5555017 -0.2844179 0.044977471
0.5555138 -0.28043717 0.044981994
0.55546665 -0.27217314 0.044933848
0.55170369 -0.31246573 0.04431323
0.55175334 -0.3073954 0.044355787
0.5517233 -0.2963326 0.044322282
0.55165064 -0.26602364 0.0442601
0.55163425 -0.26568973 0.044256505
0.55169171 -0.26350716 0.044305347
0.5516938 -0.26208988 0.044303533
0.54732293 -0.31111866 0.044491533
0.54734075 -0.28881738 0.044516444
0.54734862 -0.28179777 0.044526812
0.54735625 -0.27617696 0.04452087
0.54735017 -0.27368808 0.044517417
0.5435707 -0.31724921 0.044051185
0.54306823 -0.31525379 0.044880416
0.54307568 -0.30730033 0.044882938
0.54359543 -0.30107954 0.044070266
0.54333252 -0.30040282 0.044485107
0.54310483 -0.29906169 0.044922587
0.54311657 -0.29871678 0.044929422
0.5431022 -0.29652455 0.044914525
0.54310745 -0.2956053 0.044923175
0.54306197 -0.29298437 0.044879444
0.54306835 -0.29136914 0.044885926
0.54304397 -0.28933465 0.044855218
0.54303807 -0.27456334 0.044847805
0.54304039 -0.27346978 0.044852737
0.53928214 -0.31830934 0.044484198
0.53929502 -0.31071857 0.044493534
0.53925681 -0.30662131 0.044448588
0.53925031 -0.28250831 0.044440016
0.5393042 -0.27678546 0.044497002
0.53925967 -0.2742202 0.044468742
0.53554195 -0.31963322 0.044182509
0.53556478 -0.31206518 0.044196058
0.53558886 -0.29947075 0.044237938
0.53557456 -0.29554728 0.044228345
0.53555429 -0.29009211 0.044201624
0.535568 -0.28977594 0.044210758
0.5313459 -0.31768802 0.044847775
0.53132117 -0.31302994 0.04483543
0.53132153 -0.27738991 0.044837691
0.53132087 -0.27628896 0.044823334
0.5276469 -0.3180843 0.044744119
0.52765906 -0.31740621 0.044763561
0.52759749 -0.31425276 0.044721738
0.52767825 -0.30739698 0.044762619
0.52765709 -0.3059541 0.044774272
0.52766174 -0.29836124 0.044749264
0.52770865 -0.29012087 0.044805232
0.52771527 -0.28937247 0.044804968
0.52770019 -0.28761253 0.044799481
0.52758926 -0.28139848 0.044697549
0.52761477 -0.28037211 0.044731386
0.52763307 -0.27785543 0.044741802
0.52401686 -0.32296056 0.044776008
0.52400053 -0.30130893 0.04476193
0.52401859 -0.29307771 0.044785935
0.52400088 -0.28124481 0.044757608
0.52400273 -0.28092876 0.044762116
0.52396423 -0.32184356 0.044735625
0.52394211 -0.31716108 0.044717357
0.52397633 -0.31391484 0.044740491
0.52397656 -0.30812642 0.044717018
0.52393526 -0.30728549 0.04471869
0.5239926 -0.30080765 0.044759504
0.52397925 -0.29738951 0.044749271
0.52399695 -0.28338516 0.044759028
0.52398545 -0.28198516 0.044753499
0.5239079 -0.2797673 0.044695765
0.52033848 -0.33400938 0.044834994
0.52034718 -0.33032566 0.044821672
0.52033585 -0.31333342 0.044831082
0.52032739 -0.30905738 0.044818383
0.52033132 -0.30862647 0.044808067
0.52031916 -0.3016578 0.044819765
0.52035588 -0.29337478 0.044836257
0.52032357 -0.29289401 0.044825558
0.52037543 -0.2841754 0.044846047
0.51709455 -0.33102205 0.044068534
0.5171001 -0.32544237 0.044070266
0.51712799 -0.32087249 0.044107944
0.51711106 -0.31796214 0.044085443
0.51712006 -0.31024152 0.04408925
0.51712316 -0.30424529 0.044067178
0.51713687 -0.2970939 0.044100579
0.5171259 -0.29350808 0.044098809
0.51667035 -0.33054194 0.044960897
0.51670766 -0.32210299 0.044977076
0.51667053 -0.31725267 0.044957813
0.51669151 -0.31653512 0.044981495
0.5166685 -0.31313238 0.044962976
0.51666051 -0.31257689 0.044956826
0.51669949 -0.30938023 0.044979043
0.51667595 -0.30881244 0.04496086
0.51666075 -0.30325806 0.044963837
0.51669461 -0.30254182 0.044990603
0.51672614 -0.30148187 0.044993583
0.5167051 -0.2930395 0.044998229
0.51672429 -0.28942186 0.044992629
0.51353204 -0.33123758 0.044351745
0.51353687 -0.33087987 0.044348843
0.51351047 -0.32725164 0.044326868
0.51351547 -0.32683793 0.044332426
0.51353234 -0.31314698 0.044346731
0.51353711 -0.31273678 0.04435287
0.51350844 -0.31016898 0.044329546
0.51352882 -0.30966461 0.044347651
0.5134601 -0.30633643 0.044307034
0.51351202 -0.30557257 0.044344444
0.51352221 -0.29838863 0.04435169
0.5134846 -0.29742092 0.044312976
0.51348537 -0.29329267 0.044313725
0.51353598 -0.29009584 0.04435375
0.50994748 -0.33718282 0.044687804
0.50994432 -0.33646688 0.044682074
0.50986737 -0.33538103 0.044621989
0.50990766 -0.3344655 0.04464091
0.50992948 -0.33376348 0.044664543
0.50994259 -0.33286953 0.044675332
0.50990111 -0.32707208 0.044647008
0.50990349 -0.32656658 0.044655386
0.50991178 -0.32595897 0.044647083
0.50989634 -0.32203972 0.044640373
0.50990987 -0.32127598 0.044640392
0.50993443 -0.32054552 0.044666588
0.50995743 -0.31939635 0.044695832
0.50993985 -0.31849432 0.04467164
0.50993454 -0.31692296 0.044685874
0.50992769 -0.31418481 0.044671558
0.50989789 -0.3134495 0.044641007
0.50992507 -0.31253704 0.044665061
0.50989664 -0.3093279 0.044646531
0.50992644 -0.30629212 0.044667378
0.50992441 -0.30541208 0.044660259
0.50990546 -0.30108216 0.044651877
0.50988948 -0.29963124 0.044641852
0.50993067 -0.29853854 0.04467418
0.50993657 -0.29712412 0.044663448
0.50994772 -0.29281017 0.044695564
0.50993246 -0.28939724 0.044678804
0.50994641 -0.28882813 0.044678446
0.5099625 -0.28543109 0.044693593
0.5067777 -0.32745805 0.044183854
0.50675815 -0.32326621 0.044161953
0.50677174 -0.32253397 0.04417254
0.50677299 -0.32195723 0.04417656
0.50678343 -0.309524 0.044178866
0.50677723 -0.30878609 0.044188127
0.50675386 -0.30640477 0.044164009
0.50676703 -0.30571091 0.04418049
0.50671661 -0.30235842 0.044152841
0.50675881 -0.30161309 0.044172466
0.50676554 -0.29426056 0.044191372
0.50672978 -0.29364216 0.044145562
0.50677419 -0.2923854 0.044180468
0.50678021 -0.29026905 0.04419684
0.50673598 -0.28953445 0.044141978
0.50670457 -0.28879723 0.044113375
0.50321841 -0.34027141 0.044653051
0.50317317 -0.33991665 0.044612721
0.50319946 -0.33592045 0.044638794
0.50324243 -0.33344609 0.044674989
0.50320476 -0.33237949 0.044652145
0.50316262 -0.33161274 0.044615775
0.5032019 -0.33056411 0.044644181
0.50319731 -0.32335973 0.044643942
0.50320357 -0.32244086 0.044651188
0.50321573 -0.32189184 0.04465704
0.50323331 -0.3160342 0.044677559
0.50326753 -0.31528649 0.044701386
0.50323284 -0.31475866 0.044665717
0.50320715 -0.31352016 0.044669341
0.50324768 -0.31105793 0.044697523
0.50323093 -0.31062093 0.044673361
0.50319445 -0.30952787 0.044638578
0.50323427 -0.30844554 0.044672828
0.50317049 -0.30524519 0.044626676
0.50319183 -0.3048287 0.044643037
0.50322223 -0.30200616 0.044657879
0.50320715 -0.30147427 0.044646367
0.50318331 -0.30094969 0.04463432
0.50318509 -0.29624778 0.044626199
0.50319463 -0.29534411 0.044656016
0.50324219 -0.29358247 0.044665672
0.50324631 -0.28974241 0.04468349
0.50004423 -0.34601152 0.044307109
0.50004792 -0.34459427 0.044299107
0.50006765 -0.34336251 0.044316866
0.50007057 -0.34243163 0.044308886
0.50006193 -0.34171635 0.0442959
0.50006706 -0.33634514 0.044306055
0.50006545 -0.32466108 0.044308249
0.50009692 -0.3235693 0.044323035
0.50008756 -0.32267496 0.044324867
0.50007659 -0.3193503 0.04430531
0.5000881 -0.31863311 0.044314403
0.50008613 -0.30632529 0.044326153
0.50009924 -0.30562636 0.044321314
0.50008827 -0.30490509 0.044331882
0.50008327 -0.30200171 0.044321023
0.50006396 -0.30167952 0.044320773
0.50005955 -0.29826584 0.044312071
0.50007826 -0.29750788 0.044303939
0.50006241 -0.29644459 0.044308823
0.49657649 -0.33911169 0.044950705
0.49659306 -0.33822286 0.044970609
0.49693784 -0.3377924 0.044044901
0.49660432 -0.3369509 0.044974122
0.4969075 -0.33235332 0.044001602
0.49689001 -0.33132657 0.04400653
0.49691877 -0.33060774 0.04401553
0.49695379 -0.32951882 0.044045165
0.49692416 -0.32881433 0.044023387
0.49693018 -0.32662329 0.044015046
0.49693784 -0.3255938 0.044035647
0.49693665 -0.32466233 0.044028111
0.49691513 -0.32017455 0.044014856
0.49690399 -0.31943169 0.044009645
0.49657431 -0.31855896 0.044940192
0.49691513 -0.31528336 0.044016633
0.49690616 -0.31440401 0.044013806
0.49693841 -0.31343019 0.044015706
0.49694747 -0.31247234 0.044050694
0.49690917 -0.31062794 0.044013221
0.49692044 -0.30960679 0.044032592
0.49696404 -0.30852103 0.044048298
0.4969393 -0.30705357 0.044035688
0.49691111 -0.30653441 0.044010498
0.49675015 -0.30538094 0.044488639
0.49690011 -0.30219668 0.044005334
0.49656129 -0.30116519 0.044941936
0.49692091 -0.29936332 0.044018637
0.49692783 -0.29844546 0.04402101
0.49692425 -0.29343048 0.044026621
0.49673343 -0.29172871 0.044486534
0.49342635 -0.3470701 0.044696607
0.49345276 -0.34607112 0.044741709
0.49349552 -0.34455517 0.044769075
0.49340996 -0.34346589 0.044702549
0.49344322 -0.34238592 0.04473808
0.4934648 -0.34168601 0.044753544
0.49346814 -0.33989832 0.044761933
0.49345204 -0.33345237 0.044746418
0.49346316 -0.33255368 0.044758089
0.49348253 -0.33180779 0.044764969
0.49345785 -0.32119882 0.044750325
0.49349234 -0.32011405 0.044766359
0.49349552 -0.31955725 0.044763625
0.49348533 -0.31519216 0.044755131
0.49348909 -0.31444886 0.044761755
0.49346194 -0.29804567 0.044762954
0.49037275 -0.34820414 0.044630893
0.49036506 -0.34788108 0.0446284
0.49038357 -0.34659642 0.044640724
0.49035668 -0.32662946 0.044608049
0.49038482 -0.32573622 0.044630051
0.49034014 -0.31036836 0.044582084
0.49036676 -0.30982774 0.044600118
0.49037316 -0.30528858 0.044633377
0.49034762 -0.30310598 0.044604752
0.49032813 -0.29841894 0.044589344
0.48729885 -0.34902304 0.044575322
0.48727369 -0.34864998 0.044549864
0.48721227 -0.34358761 0.044480737
0.48722652 -0.34292582 0.044516049
0.48729205 -0.34126353 0.044566579
0.4871892 -0.33961859 0.044481471
0.48724511 -0.33854353 0.044535901
0.4872466 -0.33749881 0.04453915
0.48725969 -0.32849669 0.044544335
0.48726508 -0.31154019 0.044540059
0.4841525 -0.35302323 0.044503517
0.48416004 -0.35159954 0.044513758
0.48415709 -0.34548491 0.044524476
0.4841758 -0.32209083 0.044542812
0.48413807 -0.31270793 0.044507049
0.48417374 -0.30653346 0.044515084
0.47212529 -0.35499606 0.044162665
0.472159 -0.31283918 0.044173155
0.47217631 -0.30711004 0.044192825
0.47215396 -0.30677724 0.044198059
0.45742658 -0.31440991 0.044348355
0.44882274 -0.32689902 0.04440628
0.75653136 -0.14288147 0.045089658
0.7557047 -0.2015357 0.045527682
0.75573164 -0.14208084 0.045539562
0.75572717 -0.14062482 0.045528773
0.73002189 -0.12919837 0.045516755
0.7292127 -0.14895283 0.045975093
0.72920889 -0.14677145 0.045962375
0.7292012 -0.14564326 0.045942586
0.71803552 -0.22697571 0.045654222
0.71881163 -0.2230103 0.045150865
0.71885353 -0.21923567 0.045220867
0.71885979 -0.21869913 0.045213275
0.71801251 -0.16793017 0.045631509
0.71806848 -0.15596062 0.045698274
0.70771295 -0.17824495 0.045246668
0.70769918 -0.14334539 0.045236159
0.70773 -0.142261 0.045277774
0.70692855 -0.18075444 0.045720916
0.706918 -0.17966866 0.045721717
0.70692903 -0.17824902 0.04575948
0.70689428 -0.15624113 0.045683533
0.70695907 -0.15195321 0.045770451
0.70695454 -0.14655361 0.045768
0.70692062 -0.14406501 0.04573743
0.70695263 -0.14251716 0.04577234
0.68719816 -0.19389589 0.045408923
0.68644065 -0.18819943 0.045955628
0.68644834 -0.1874052 0.045954794
0.67781013 -0.19160773 0.04547736
0.66923708 -0.1971948 0.045298543
0.66847885 -0.20873855 0.045850381
0.66853136 -0.20619312 0.045906749
0.66849846 -0.19718207 0.045887925
0.66069269 -0.24295852 0.045366619
0.66072762 -0.24151005 0.045395344
0.66071767 -0.20983358 0.045374971
0.65226638 -0.21922943 0.045773815
0.64457327 -0.22573644 0.045794558
0.64457059 -0.21962506 0.045798499
0.6376431 -0.2618134 0.045449074
0.63763428 -0.25782111 0.045437466
0.63767487 -0.21505743 0.045482852
0.63007402 -0.27175391 0.045968246
0.63081461 -0.24391016 0.045383532
0.63072389 -0.22739808 0.045277007
0.63042313 -0.22591884 0.04564188
0.63077599 -0.22120617 0.045340732
0.63006866 -0.22054714 0.045982879
0.63003278 -0.21981822 0.04591471
0.6307832 -0.21159032 0.045339447
0.62396765 -0.26174122 0.045431022
0.62395293 -0.22754025 0.045425888
0.61789173 -0.26838496 0.045096301
0.61721563 -0.26524839 0.045753926
0.61790204 -0.23635024 0.045109998
0.61722457 -0.23564576 0.045773286
0.61719292 -0.23456447 0.045741718
0.61114049 -0.2816405 0.045557242
0.61120194 -0.27944657 0.045624033
0.61116076 -0.25171611 0.045594648
0.61120075 -0.25033972 0.045620721
0.61119044 -0.24999894 0.045618944
0.61115885 -0.24470609 0.045576707
0.61111438 -0.23587041 0.045546949
0.60512227 -0.28482765 0.045590714
0.605178 -0.25852829 0.04562078
0.60519207 -0.23502909 0.0456292
0.60518366 -0.23434001 0.045638327
0.60514796 -0.23345034 0.04558805
0.59984094 -0.26416078 0.045095928
0.59919322 -0.2635406 0.045819916
0.59982985 -0.24681973 0.045093954
0.59987593 -0.24566075 0.045123436
0.59925377 -0.24370533 0.045851901
0.59918362 -0.24230032 0.045798834
0.59916025 -0.24151975 0.045759976
0.59394634 -0.27456254 0.045498591
0.5939433 -0.24182186 0.045490313
0.59397447 -0.24003831 0.045531519
0.59389603 -0.23891509 0.045430921
0.58874255 -0.26767716 0.045321099
0.58876348 -0.26658058 0.045348629
0.58835918 -0.26445821 0.04562084
0.58803499 -0.26382419 0.04597595
0.5887326 -0.25728169 0.0453314
0.58874953 -0.25619581 0.045329757
0.58805132 -0.25353414 0.04599151
0.58873922 -0.24535611 0.045339357
0.58352232 -0.2968435 0.045282517
0.58350009 -0.27808094 0.045267213
0.58354104 -0.26977137 0.04528309
0.58352584 -0.26873732 0.045295268
0.58356839 -0.25757253 0.045314182
0.58352053 -0.24500866 0.045274254
0.58289391 -0.27031541 0.045999087
0.58285606 -0.25587466 0.045983013
0.5784061 -0.28746748 0.045435484
0.57833874 -0.27020022 0.045378204
0.57835907 -0.26302344 0.04538054
0.5783177 -0.25834832 0.04534578
0.57835054 -0.25796291 0.045381777
0.57836533 -0.24878792 0.045398802
0.57832891 -0.24754781 0.045376398
0.57323557 -0.30119735 0.045662563
0.57328844 -0.29617599 0.045698877
0.57326615 -0.29506704 0.045664344
0.57326001 -0.29437974 0.045678735
0.57326269 -0.29006362 0.045680877
0.57329369 -0.27531368 0.04570096
0.57328373 -0.27440819 0.04569748
0.57324928 -0.26490679 0.045654245
0.57326251 -0.26378044 0.045673203
0.57327604 -0.25408906 0.045677964
