# .PCD v0.7 - Point Cloud Data file format
VERSION 0.7
FIELDS x y z
SIZE 4 4 4
TYPE F F F
COUNT 1 1 1
WIDTH 1363
HEIGHT 1
VIEWPOINT 0 0 0 1 0 0 0
POINTS 1363
DATA ascii
-0.040864754 -0.2972042 0.33989632
-0.039758015 -0.29794848 0.33930328
-0.030035432 -0.29346073 0.33907497
-0.027479274 -0.29347795 0.3391135
-0.026045339 -0.29274592 0.3397119
-0.015571961 -0.28824902 0.33932361
-0.014134867 -0.28749815 0.33991155
-0.012660906 -0.28754213 0.33990762
-0.0014458592 -0.28299269 0.33935663
0.001109365 -0.28221086 0.33990878
0.008805044 -0.27766088 0.33925721
0.010969712 -0.27768824 0.33925191
0.010266867 -0.27693421 0.33979255
0.024106277 -0.2707943 0.33998752
0.025566056 -0.27081013 0.33996773
-0.19162674 -0.33429226 0.34096426
-0.18621217 -0.33428878 0.34097132
-0.18333821 -0.33428046 0.34094766
-0.17304288 -0.33143133 0.34058678
-0.16546041 -0.3314186 0.34059051
-0.15803568 -0.32854003 0.34011635
-0.15113795 -0.3285417 0.34012771
-0.15665165 -0.32789224 0.34081873
-0.1412479 -0.32493818 0.34021652
-0.13981697 -0.32497013 0.34023848
-0.1383718 -0.3249945 0.340269
-0.13662003 -0.32432106 0.34095299
-0.13520096 -0.32427549 0.34091747
-0.12193928 -0.32136101 0.34026709
-0.12528777 -0.32070753 0.3409701
-0.12419099 -0.32071283 0.340965
-0.12058368 -0.3206816 0.34094268
-0.10982322 -0.31779051 0.3402217
-0.10837601 -0.31774378 0.34018216
-0.10698701 -0.31705743 0.34084409
-0.098781966 -0.31411743 0.34000155
-0.097712629 -0.31413195 0.34002414
-0.095148392 -0.31415573 0.34002697
-0.096285999 -0.31345487 0.34068301
-0.092350267 -0.31341767 0.34065205
-0.081455052 -0.30907518 0.34098163
-0.080350101 -0.30979297 0.34036466
-0.077501729 -0.3097381 0.34032404
-0.06605038 -0.30539334 0.34053826
-0.054908846 -0.30098307 0.34060213
-0.052035715 -0.30096143 0.34060082
-0.038002491 -0.29648742 0.34050059
-0.028221512 -0.29202634 0.34025908
-0.024596764 -0.29204065 0.34029514
-0.026810776 -0.29128394 0.34086007
-0.023166407 -0.29130846 0.34088424
-0.016296554 -0.28679273 0.34045735
-0.010905824 -0.28676429 0.34045029
-0.0094522024 -0.28672835 0.34043238
0.013505054 -0.27615139 0.34032178
0.015320155 -0.2761845 0.34034634
0.012800178 -0.27539894 0.34086913
-0.19028522 -0.33365965 0.34168988
-0.18703313 -0.33366501 0.34169361
-0.18126811 -0.33365971 0.34169444
-0.16411278 -0.33079118 0.34131342
-0.16302641 -0.33078673 0.34130272
-0.15422846 -0.32723317 0.34152764
-0.15314908 -0.32721081 0.34149921
-0.1494887 -0.32724458 0.34155211
-0.13816497 -0.32366613 0.34165162
-0.13343617 -0.32365841 0.34164363
-0.13203515 -0.32365009 0.34164605
-0.1192004 -0.32003936 0.34164426
-0.11811907 -0.32007208 0.34165195
-0.10562186 -0.31640866 0.34153321
-0.10453156 -0.31642333 0.34154934
-0.094566509 -0.3120932 0.34198907
-0.093441702 -0.3127442 0.34131682
-0.090610087 -0.3127518 0.34130898
-0.078623444 -0.30841812 0.34164509
-0.06748984 -0.30465829 0.34113851
-0.063906565 -0.30399001 0.34180474
-0.062461354 -0.30399069 0.34180877
-0.061045956 -0.30397329 0.34176758
-0.053157941 -0.30024394 0.34120637
-0.050244123 -0.30025139 0.34121311
-0.048811857 -0.30024028 0.34121281
-0.039081991 -0.29578456 0.34109852
-0.036564011 -0.29576507 0.34110114
-0.033666119 -0.29508093 0.3417277
-0.025372162 -0.29055056 0.34146175
-0.021739833 -0.29053971 0.34144914
-0.011956075 -0.28531122 0.34162226
-0.010529157 -0.28530246 0.34159994
-0.0076470911 -0.28527278 0.34161183
0.014954293 -0.27465403 0.34141341
0.017860187 -0.27462107 0.34137696
0.02595737 -0.2692703 0.34102398
-0.21993138 -0.3387855 0.34299779
-0.2059574 -0.33658087 0.34203309
-0.19838366 -0.33653343 0.34200853
-0.20283645 -0.33591786 0.34274596
-0.20173787 -0.33591965 0.34275344
-0.20064892 -0.33594865 0.34277332
-0.19416076 -0.33591428 0.34273714
-0.18891439 -0.33303514 0.34242278
-0.18781585 -0.33305115 0.34240639
-0.18388115 -0.33304352 0.34243011
-0.17919719 -0.33305207 0.34244063
-0.16166116 -0.33012676 0.34200773
-0.16820423 -0.32952559 0.34274194
-0.16717547 -0.32950571 0.34273258
-0.1517356 -0.32660767 0.34222257
-0.15064071 -0.32660091 0.34223151
-0.14810419 -0.32655463 0.34219489
-0.14666678 -0.32658938 0.34221053
-0.14521711 -0.3265948 0.34222239
-0.13462813 -0.32230926 0.34298646
-0.12248298 -0.31939819 0.3423304
-0.12140878 -0.31937215 0.34231168
-0.11673547 -0.31941229 0.3423284
-0.11567098 -0.31936964 0.34230581
-0.11456551 -0.31934246 0.3422786
-0.10781363 -0.31571653 0.34218663
-0.10313313 -0.31574687 0.34221256
-0.10205914 -0.31574342 0.34220767
-0.087417096 -0.31138107 0.34261322
-0.076853529 -0.30766359 0.34224361
-0.075416028 -0.30765456 0.34224549
-0.073621795 -0.30701277 0.34290972
-0.072168559 -0.30702969 0.34291998
-0.047054164 -0.2988154 0.34243053
-0.044556789 -0.29881749 0.34242779
-0.037341539 -0.29432151 0.34229833
-0.032250971 -0.29431829 0.34229013
-0.034393717 -0.29361865 0.34291306
-0.023934128 -0.28984579 0.34205386
-0.020321202 -0.28978801 0.34201339
-0.019269433 -0.28980085 0.34200016
-0.006207204 -0.28457287 0.34220344
-0.0048176358 -0.28381419 0.34274575
-0.0011791412 -0.28380549 0.34273577
0.00216842 -0.2792289 0.34213835
0.0044029057 -0.27923852 0.34213144
0.0054790946 -0.27923119 0.34214199
0.0065608951 -0.27922308 0.34216928
0.020405089 -0.27312407 0.34249046
0.021499971 -0.27314314 0.3424972
-0.21715058 -0.33820862 0.34377185
-0.2142704 -0.33819312 0.34377301
-0.2134416 -0.33881482 0.34302163
-0.21236217 -0.33880463 0.34302425
-0.21127811 -0.3387982 0.34302515
-0.20814392 -0.33819538 0.34375036
-0.19928928 -0.33529493 0.34347141
-0.19533785 -0.3352899 0.34350765
-0.18178861 -0.33241609 0.34313813
-0.17601354 -0.33242878 0.34315506
-0.17492913 -0.33242205 0.34315392
-0.17973222 -0.33178094 0.34388191
-0.17681362 -0.33176813 0.34385896
-0.16580644 -0.32885087 0.34343156
-0.16471317 -0.32884568 0.34344086
-0.16000013 -0.32884738 0.34343779
-0.15639028 -0.32886443 0.34345439
-0.14897513 -0.32529965 0.34365502
-0.14356248 -0.32529199 0.34363651
-0.14213881 -0.32526344 0.34360895
-0.1406662 -0.32528925 0.34361571
-0.13610549 -0.32234076 0.34303325
-0.13291019 -0.32167566 0.34371409
-0.13152151 -0.32167807 0.34372148
-0.13003057 -0.32168376 0.34371072
-0.12857161 -0.32168007 0.34370399
-0.11973645 -0.31800476 0.34365588
-0.11288215 -0.31803033 0.34367001
-0.089992084 -0.3106848 0.34327129
-0.088545904 -0.31072983 0.34326765
-0.08563447 -0.31070367 0.34327826
-0.084076464 -0.31070027 0.34325626
-0.059301145 -0.30252853 0.34300441
-0.061845813 -0.30186453 0.34368774
-0.060386155 -0.30188149 0.3436662
-0.057557907 -0.30186111 0.34366751
-0.049577039 -0.29811141 0.34304592
-0.048135873 -0.29809868 0.34305361
-0.045286916 -0.29740921 0.34365955
-0.042798709 -0.29738382 0.34366459
-0.032970648 -0.29292226 0.34352514
-0.03047106 -0.29287043 0.34347489
-0.022129308 -0.28838989 0.3432183
-0.021078415 -0.28835741 0.34321681
-0.016051598 -0.28763118 0.34377977
-0.0069636363 -0.28304204 0.3433103
-0.0033635669 -0.28306916 0.34329987
-0.0019226874 -0.28233358 0.34387261
0.020038012 -0.27160278 0.34355596
-0.23402633 -0.34044299 0.34469986
-0.21509486 -0.33756053 0.34450537
-0.197932 -0.33467358 0.34421918
-0.19648787 -0.33469498 0.34424078
-0.17038526 -0.33117521 0.34461588
-0.16333616 -0.32825941 0.34417936
-0.14471154 -0.32466009 0.34433532
-0.12721676 -0.32102183 0.34439215
-0.1183222 -0.31736237 0.34435686
-0.1172493 -0.31737486 0.34436518
-0.1114758 -0.31740272 0.34435368
-0.10228074 -0.31303364 0.34487915
-0.10117789 -0.31303793 0.34488246
-0.10009186 -0.31304023 0.34485361
-0.099026889 -0.31300569 0.34484774
-0.09795177 -0.3130261 0.34487423
-0.08090049 -0.30932355 0.34458619
-0.070111871 -0.30560246 0.34420636
-0.071559235 -0.30494881 0.34484139
-0.066522084 -0.30490986 0.34480575
-0.055413466 -0.30048349 0.3449313
-0.052550342 -0.30045766 0.34492779
-0.041363213 -0.2966578 0.34426972
-0.043536101 -0.29596904 0.34488815
-0.031232785 -0.29144481 0.34470481
-0.02868104 -0.29143751 0.34468266
-0.019299392 -0.28686476 0.34436017
-0.017851371 -0.28614146 0.34492785
-0.014609781 -0.28688696 0.34437874
-0.010286177 -0.28686401 0.34433728
-0.0051505454 -0.2816149 0.34448677
-0.00048891397 -0.28159979 0.34445164
0.010933516 -0.27627808 0.34439135
0.010194713 -0.27550519 0.34495103
0.015962575 -0.27549955 0.34492949
0.019345945 -0.27084711 0.34408984
0.026597165 -0.2701543 0.34465829
-0.23267652 -0.33989942 0.34546843
-0.23159796 -0.33989641 0.3454822
-0.23051563 -0.33984771 0.3454594
-0.22834229 -0.33987927 0.34548047
-0.22728671 -0.33986941 0.34548897
-0.20871189 -0.33697563 0.34525284
-0.2047153 -0.3369565 0.34522885
-0.19202904 -0.33345744 0.3457092
-0.18552683 -0.33345762 0.3457239
-0.1617064 -0.32695991 0.34559882
-0.1606096 -0.32695663 0.34559768
-0.15697552 -0.3269698 0.3456004
-0.14582913 -0.32398802 0.34502006
-0.12554374 -0.31969696 0.34578949
-0.11554366 -0.31608194 0.34572843
-0.11447494 -0.31605291 0.3457194
-0.11337627 -0.31600812 0.34567049
-0.10977802 -0.31606284 0.34573078
-0.10724371 -0.31600681 0.34568852
-0.096540466 -0.31235161 0.34555084
-0.093994826 -0.31235138 0.34553456
-0.09259396 -0.3123202 0.34552217
-0.085054912 -0.30864543 0.34524548
-0.082002029 -0.30863056 0.34523335
-0.083207682 -0.30794883 0.34586135
-0.068023533 -0.30417958 0.34544
-0.056902137 -0.29973572 0.34553778
-0.053643342 -0.2997469 0.3455514
-0.027267054 -0.29072034 0.34529209
-0.02945455 -0.28997892 0.34587422
-0.0033656117 -0.2801201 0.34560856
0.0021170641 -0.28083459 0.34501991
0.0083904089 -0.27473608 0.34550071
0.022947012 -0.26936999 0.34520745
0.026588162 -0.2693826 0.34519768
0.025484847 -0.26858464 0.34574276
-0.22591345 -0.33926922 0.34620586
-0.22480723 -0.33926558 0.34621027
-0.22162479 -0.33927518 0.34623697
-0.19461143 -0.33282986 0.34646997
-0.1717491 -0.32925162 0.34677321
-0.17093064 -0.32987234 0.34603798
-0.15561777 -0.3263129 0.34631959
-0.15458846 -0.3263151 0.34632191
-0.14134862 -0.32269442 0.34643611
-0.13843679 -0.32270896 0.34645572
-0.12775047 -0.31905237 0.34647122
-0.11199874 -0.31535155 0.34637752
-0.10841777 -0.31536645 0.34639201
-0.10589662 -0.31536227 0.34638247
-0.094831325 -0.31100789 0.34687781
-0.078861348 -0.30729148 0.34655929
-0.077380434 -0.30726698 0.34652808
-0.06947282 -0.30352464 0.34613165
-0.064456545 -0.30352747 0.34611362
-0.054789849 -0.29836759 0.34681126
-0.041784272 -0.29452598 0.3461116
-0.039267138 -0.29452962 0.3460992
-0.036721628 -0.29451773 0.34610724
-0.016055277 -0.28471786 0.34610674
-0.012118448 -0.2839776 0.34672904
-0.010662899 -0.28399628 0.34671068
-0.0092269015 -0.28394195 0.34668604
-0.0019314004 -0.27936754 0.34615868
0.015615609 -0.27401978 0.34607023
0.013764055 -0.27399513 0.34604752
0.028028373 -0.26789647 0.34628692
-0.21956521 -0.33870116 0.34701064
-0.18931809 -0.33222678 0.34719557
-0.18794483 -0.33162051 0.34792638
-0.15321097 -0.32565957 0.34701103
-0.15209621 -0.32569045 0.34702265
-0.15073705 -0.32506189 0.34773973
-0.14845698 -0.32566458 0.34701961
-0.13958758 -0.32204014 0.34712678
-0.13672027 -0.32205436 0.34716356
-0.12384861 -0.31838962 0.34717411
-0.1227506 -0.31840715 0.34718031
-0.12136652 -0.31774491 0.34786701
-0.10449637 -0.31471363 0.34708399
-0.089090936 -0.31034845 0.34752545
-0.08769349 -0.31031507 0.34751728
-0.079963252 -0.30656731 0.34719238
-0.075622246 -0.30653352 0.34717014
-0.073873796 -0.30589104 0.34784314
-0.067390561 -0.30209294 0.34737611
-0.065566726 -0.30212757 0.34735906
-0.059505358 -0.30138972 0.34797728
-0.047232598 -0.29761848 0.34742987
-0.040019382 -0.29309282 0.34734479
-0.037531078 -0.29309469 0.34733039
-0.034603357 -0.29238188 0.3479459
-0.025147669 -0.28854802 0.34711111
-0.024069075 -0.28855988 0.34712094
-0.013204766 -0.2832354 0.34730074
-0.00014316758 -0.27788919 0.34729588
0.0013216391 -0.2771697 0.3478801
0.0024072276 -0.27714422 0.34787187
0.0046599605 -0.27714673 0.34787062
0.005736683 -0.27715552 0.34787479
0.0078934133 -0.2771326 0.34790933
0.013403867 -0.27251107 0.34717345
0.015600564 -0.27176061 0.34772274
0.027659208 -0.26634794 0.34736317
-0.20081279 -0.33459127 0.34828699
-0.19836788 -0.33392537 0.34898368
-0.15902315 -0.32739949 0.34898019
-0.15360895 -0.32738984 0.34896597
-0.14933109 -0.32442209 0.34848011
-0.14715965 -0.32437065 0.34842473
-0.14394791 -0.32440212 0.34846643
-0.13465585 -0.32073414 0.34854093
-0.13320971 -0.32073534 0.34855914
-0.13181433 -0.32075825 0.34857395
-0.13036835 -0.32076329 0.34856582
-0.11999771 -0.31704399 0.34853294
-0.106393 -0.31334329 0.34840703
-0.093121558 -0.30965352 0.34820375
-0.091725573 -0.30960861 0.34818751
-0.090234391 -0.30962285 0.34818876
-0.063834585 -0.30143595 0.34803289
-0.062420003 -0.3014262 0.34804377
-0.052675139 -0.29692742 0.34805754
-0.051218178 -0.29692674 0.34805
-0.049790047 -0.29692769 0.3480528
-0.048351146 -0.29691491 0.348066
-0.022271626 -0.2871286 0.34831142
-0.020877276 -0.28638986 0.3489185
0.017774824 -0.27102894 0.34828639
0.020994455 -0.27024066 0.3488307
0.023163181 -0.27025452 0.34884095
0.029834529 -0.26486674 0.34845707
-0.14769942 -0.32313728 0.34991485
-0.14647949 -0.32374528 0.34914351
-0.14505009 -0.32378832 0.34917408
-0.13617267 -0.32012704 0.34927517
-0.12726198 -0.31945857 0.34996158
-0.11833676 -0.3157343 0.34992841
-0.11726201 -0.3157509 0.34993887
-0.11145587 -0.31578678 0.34992993
-0.1050097 -0.31267935 0.34909064
-0.10361776 -0.31204039 0.34979659
-0.10255697 -0.31204048 0.34980151
-0.076485351 -0.30454838 0.34916443
-0.073268518 -0.30381581 0.34979829
-0.071837135 -0.30387259 0.34982654
-0.060281117 -0.3000651 0.34931049
-0.045167159 -0.29551902 0.34931025
-0.0477417 -0.29480529 0.34994483
-0.046270639 -0.29479444 0.34993908
-0.035415873 -0.29094467 0.34917107
-0.032814447 -0.29099876 0.34919736
-0.031441096 -0.29026359 0.34980798
-0.01585556 -0.2856662 0.34948525
-0.0096377805 -0.28107923 0.34906161
-0.0067488672 -0.28101084 0.34902692
-0.14341916 -0.3224971 0.35060835
-0.14197585 -0.32250726 0.35060522
-0.14055197 -0.32247552 0.35057572
-0.13271326 -0.31878042 0.35066056
-0.13127111 -0.31882223 0.35068706
-0.12984113 -0.31881905 0.35067803
-0.12841804 -0.31881839 0.35066614
-0.12589182 -0.31880581 0.3506718
-0.12153461 -0.31879178 0.3506586
-0.11586718 -0.31514362 0.3506391
-0.11479825 -0.31512773 0.35063693
-0.1137246 -0.31507698 0.35058931
-0.11009476 -0.31512204 0.35063884
-0.10114755 -0.31137598 0.35048309
-0.10007384 -0.31137168 0.35046297
-0.098981649 -0.31135777 0.35044226
-0.097914964 -0.31135941 0.35046986
-0.096833237 -0.31136608 0.35048237
-0.088224195 -0.30762091 0.35018992
-0.08678437 -0.30761155 0.35017988
-0.085358143 -0.30761042 0.35019228
-0.08353579 -0.30692813 0.35082716
-0.08194086 -0.306927 0.35085627
-0.05712067 -0.29861066 0.35055777
-0.043410402 -0.29412109 0.35057157
-0.03365507 -0.28951734 0.3503913
-0.028554522 -0.28951192 0.35037768
-0.029690556 -0.28879634 0.35099557
-0.028610811 -0.28879637 0.35098511
-0.027123544 -0.2888245 0.3509993
-0.019099737 -0.28490904 0.35008967
-0.017679293 -0.28418246 0.35066965
-0.014445549 -0.28421304 0.35069066
-0.004940147 -0.27959016 0.35023755
-0.0060605854 -0.27881125 0.35077253
0.0022950585 -0.27882841 0.35079107
0.0082399799 -0.27343974 0.35074019
0.011504887 -0.27348644 0.35075584
-0.13881095 -0.32185847 0.35132116
-0.12451214 -0.31815937 0.35138524
-0.12341194 -0.31817278 0.35138378
-0.12231396 -0.3181836 0.35138702
-0.11233275 -0.31441391 0.35128972
-0.10872401 -0.31445384 0.35132852
-0.095124267 -0.31004032 0.35184014
-0.094029047 -0.31005368 0.35184035
-0.079113796 -0.30628148 0.35154706
-0.059676133 -0.29797515 0.35123754
-0.05534777 -0.29796278 0.35122287
-0.053608958 -0.29725513 0.35186383
-0.044559889 -0.2933962 0.35118699
-0.042027652 -0.29338679 0.35118532
-0.039483257 -0.29337662 0.35117736
-0.040606715 -0.29268265 0.3518258
-0.025718365 -0.28809792 0.35163605
-0.016274046 -0.28348085 0.35126358
-0.012653099 -0.28348333 0.35131317
-0.0021237631 -0.27811581 0.35137972
0.010756264 -0.27271214 0.35133144
0.024646435 -0.26652229 0.3516241
0.025713822 -0.26650694 0.35161975
-0.13564652 -0.32121816 0.35203898
-0.1439943 -0.3205958 0.35274786
-0.11093425 -0.31379777 0.35200649
-0.10702415 -0.31310415 0.35268107
-0.092323765 -0.30933616 0.35250154
-0.090886921 -0.30933636 0.3524929
-0.051817577 -0.29654944 0.35249478
-0.050371874 -0.29654673 0.35250163
-0.023197779 -0.2874091 0.35226038
-0.023959672 -0.28666803 0.35287493
-0.086593345 -0.30869314 0.35317525
-0.059792958 -0.30037114 0.35302782
-0.037397224 -0.29127651 0.35306421
-0.033420939 -0.2906 0.35371652
0.0036667546 -0.27517641 0.35371485
0.0048024291 -0.27518728 0.35371691
0.0058931746 -0.2752035 0.3537139
0.019353239 -0.27046946 0.35300136
-0.016081948 -0.28455052 0.35468617
0.0083991671 -0.27444276 0.35433841
0.046505071 -0.25579002 0.35496908
0.015952962 -0.27301639 0.35549852
0.018462246 -0.27297294 0.35548073
0.021722335 -0.272982 0.35549226
0.028002121 -0.26683617 0.35588691
0.029099666 -0.26680282 0.35589182
-0.031150909 -0.30085352 0.35687304
0.024756197 -0.26604539 0.35646206
0.028023602 -0.26610386 0.35645583
0.044381529 -0.25425008 0.3560482
0.056568921 -0.24711992 0.35631117
-0.012026542 -0.29098392 0.35763767
0.00079943589 -0.28094366 0.35774207
0.007104543 -0.27623907 0.35730326
0.011773097 -0.27625135 0.35728261
0.0063732639 -0.27552241 0.35787755
0.040164016 -0.25907904 0.35718334
-0.013885287 -0.29025307 0.35823628
-0.012135377 -0.28955841 0.35888979
-0.0092572905 -0.2895821 0.3588903
-0.012349765 -0.28564876 0.35807371
-0.0083857384 -0.28565669 0.3581062
0.014275063 -0.27483729 0.35850519
0.01934737 -0.27480987 0.35848963
0.019813707 -0.26858589 0.35897189
0.02834315 -0.2631076 0.3587316
0.031231763 -0.2630924 0.35874104
0.032329738 -0.26381826 0.35814059
-0.067809887 -0.31417939 0.3598702
-0.063864961 -0.31422141 0.35991791
-0.062397368 -0.31421313 0.35990933
-0.057318009 -0.31103545 0.35912359
-0.058465123 -0.31039998 0.35981441
-0.054145683 -0.30654663 0.35961595
-0.05162859 -0.30657625 0.35961699
-0.046919815 -0.30655426 0.35960349
-0.043305475 -0.30266994 0.35928211
-0.036049604 -0.30269271 0.35927361
-0.015737697 -0.28891116 0.3595545
-0.0045034448 -0.28422737 0.35931575
0.0061531016 -0.27880529 0.35961536
0.012088748 -0.27408171 0.35908294
0.013905107 -0.27409732 0.35909423
0.022011947 -0.26787832 0.35958704
0.025262721 -0.26788184 0.35957092
0.03087873 -0.26163831 0.35988131
0.034821887 -0.26161417 0.35985264
0.041219637 -0.25606248 0.35940024
0.04772716 -0.2553058 0.35997182
-0.11502848 -0.32795963 0.36069602
-0.081540391 -0.3173756 0.36062661
-0.07900621 -0.31738722 0.3606517
-0.071855515 -0.31358734 0.36064249
-0.068955712 -0.31360763 0.36064011
-0.066440769 -0.31354713 0.36060807
-0.064995721 -0.3135941 0.36063331
-0.051376861 -0.30525538 0.36099446
-0.039384563 -0.30138287 0.36066955
-0.035781261 -0.30134529 0.36062887
-0.034377296 -0.30134717 0.36064753
-0.027435023 -0.29743081 0.3601867
-0.024201097 -0.29746971 0.36017203
-0.023144653 -0.29744887 0.36017659
-0.039807707 -0.29675323 0.3608439
-0.025000392 -0.29674739 0.36081821
-0.021740228 -0.29675856 0.36085716
-0.023081949 -0.292813 0.3602258
-0.021669425 -0.29216382 0.36088732
-0.019118333 -0.29282594 0.36026958
-0.017326804 -0.29218295 0.36091861
-0.016261484 -0.2921637 0.36089829
-0.013698977 -0.29281926 0.36025718
-0.016893839 -0.28818178 0.36018944
-0.00751402 -0.28819048 0.36016074
-0.0064114016 -0.2882081 0.36016837
-0.017660698 -0.28749868 0.36081544
-0.015478574 -0.28750196 0.36083919
-0.014023824 -0.28752106 0.36082083
-0.010062038 -0.28751898 0.36084443
-0.0093234526 -0.28751123 0.36083499
-0.0079067843 -0.28749388 0.36080411
-0.0050201165 -0.28749296 0.36080647
-0.0020461299 -0.28749734 0.36080012
-0.0049252044 -0.2828126 0.36056697
-0.00087960385 -0.2827906 0.36057287
0.0014058443 -0.27808517 0.36019081
0.0025409958 -0.27809539 0.36019287
0.00325294 -0.27810302 0.36018687
0.0072100027 -0.27738613 0.36083782
0.017457323 -0.2718946 0.36084834
-0.11262977 -0.32740739 0.36149892
-0.10542256 -0.32741106 0.36149907
-0.0968877 -0.32367656 0.36178011
-0.090279773 -0.31990951 0.36199164
-0.081612989 -0.31673503 0.36135054
-0.07692764 -0.3167223 0.36134878
-0.06145899 -0.3129425 0.36134046
-0.060383894 -0.31293491 0.36134806
-0.073037282 -0.3090792 0.36123842
-0.071206354 -0.30910555 0.36120456
-0.058983445 -0.30910704 0.36123088
-0.057507209 -0.30910662 0.36122653
-0.056063518 -0.30909473 0.36123464
-0.074160136 -0.30846441 0.36195678
-0.061558645 -0.30848494 0.36193809
-0.054699712 -0.30844381 0.3619304
-0.06404265 -0.30461311 0.36169493
-0.062978171 -0.30455741 0.36164522
-0.054684106 -0.30458337 0.36169112
-0.052168719 -0.30457655 0.36168301
-0.046410266 -0.30457541 0.36167395
-0.040607076 -0.30459583 0.36170781
-0.039144199 -0.30456197 0.36166254
-0.038059324 -0.30455977 0.36166316
-0.050673351 -0.30067384 0.36132687
-0.047093801 -0.30067602 0.36132035
-0.040951345 -0.30067068 0.36131528
-0.032239705 -0.30069166 0.36135057
-0.029740585 -0.30067974 0.36134288
-0.028355025 -0.2999846 0.36199388
-0.025741909 -0.29605734 0.3614977
-0.020283842 -0.29147083 0.36155176
-0.0065633883 -0.29145581 0.36154607
-0.0035669676 -0.28678426 0.36144373
0.0023798805 -0.28209442 0.36121178
-0.0089483336 -0.28136894 0.36180872
-0.0024268974 -0.2814191 0.36183277
0.0019881632 -0.28140563 0.36182725
0.0037864742 -0.28138235 0.36186317
0.0050037811 -0.27666661 0.36142302
0.0060840626 -0.27665716 0.36145011
0.0093316622 -0.27669057 0.36144865
0.013676574 -0.27667499 0.36142761
0.011701401 -0.27123067 0.36148763
-0.16784531 -0.34277463 0.36243907
-0.16037787 -0.33974874 0.36240292
-0.13908787 -0.33972895 0.36239955
-0.13849686 -0.33360276 0.36211419
-0.12570141 -0.32994729 0.36262673
-0.12355439 -0.32991585 0.36260229
-0.1224485 -0.32989013 0.36257365
-0.10885394 -0.3262184 0.36298752
-0.10697696 -0.32680425 0.3622596
-0.10563301 -0.32306045 0.3625488
-0.099878348 -0.32304013 0.36253342
-0.098456845 -0.32306072 0.36253718
-0.095898859 -0.32306471 0.36253598
-0.094433382 -0.32307398 0.36254865
-0.092882387 -0.32306933 0.36252427
-0.093113072 -0.31929952 0.36273479
-0.08814051 -0.31992573 0.36201328
-0.086698912 -0.31994978 0.36201915
-0.085022099 -0.31925696 0.36271158
-0.084635973 -0.31925401 0.36271015
-0.083908975 -0.31926242 0.36271372
-0.078081869 -0.31613359 0.36211297
-0.077036761 -0.31610119 0.36209357
-0.075389959 -0.31612039 0.36205691
-0.073797539 -0.31612894 0.36209103
-0.072333977 -0.31612849 0.36209914
-0.070888221 -0.31615317 0.36209875
-0.087562218 -0.31548825 0.36281368
-0.085058838 -0.31552222 0.3628335
-0.083580047 -0.31549919 0.36280182
-0.069176197 -0.31547275 0.36276993
-0.068086423 -0.31545758 0.36277622
-0.083902664 -0.31231278 0.36208579
-0.057221677 -0.31229085 0.36206511
-0.082175985 -0.31170014 0.36280835
-0.079290681 -0.31163809 0.36277086
-0.075329423 -0.31166431 0.36280438
-0.068101779 -0.30781808 0.36264798
-0.051894393 -0.3078115 0.3626394
-0.050816756 -0.30779806 0.36263695
-0.047841366 -0.30003619 0.36201221
-0.031590879 -0.30003527 0.36202982
-0.030487116 -0.3000429 0.36202338
-0.054015294 -0.29935351 0.36267567
-0.045393571 -0.29934236 0.36269233
-0.043939121 -0.29933044 0.36267009
-0.042847499 -0.299346 0.36267787
-0.040684465 -0.29933321 0.3626785
-0.039547417 -0.29935539 0.36269271
-0.037058059 -0.29933199 0.36267
-0.033795904 -0.29934844 0.36267594
-0.027264632 -0.2947557 0.36287162
-0.019325444 -0.29475844 0.3628602
-0.013932911 -0.29475781 0.36287135
-0.02290608 -0.29005656 0.36285636
-0.010623106 -0.2907795 0.36220965
-0.0095247095 -0.29077566 0.36219236
-0.0047948756 -0.29007354 0.36285233
0.0007607725 -0.28608832 0.36211783
-0.0017829047 -0.28540108 0.36272573
0.0019611812 -0.28070602 0.3624498
0.0052022543 -0.28069523 0.36248505
0.0069858935 -0.28071383 0.36248291
0.010396395 -0.27595428 0.36205271
0.038427744 -0.25789061 0.362717
-0.16870318 -0.34223044 0.36324936
-0.15495078 -0.34223422 0.36325607
-0.14547263 -0.3386007 0.36399272
-0.14465828 -0.33609504 0.36307642
-0.13348508 -0.33613178 0.36310712
-0.14732897 -0.3355656 0.36389962
-0.14264224 -0.33555084 0.36389658
-0.14158104 -0.33555844 0.36390588
-0.13868144 -0.33555704 0.36388674
-0.13442142 -0.33244729 0.36368719
-0.13332382 -0.33245414 0.36368915
-0.13222732 -0.33247095 0.363695
-0.13006882 -0.33242598 0.36366364
-0.12540239 -0.33246925 0.36368936
-0.12359782 -0.332427 0.36365336
-0.11788424 -0.3293359 0.36338833
-0.10970084 -0.32562327 0.36378023
-0.10753646 -0.32560199 0.36376187
-0.10535807 -0.32562494 0.36379153
-0.1042773 -0.32563594 0.36379114
-0.10319816 -0.32561868 0.36377522
-0.10179614 -0.32558814 0.36376253
-0.10033559 -0.32560498 0.36376601
-0.10036788 -0.32243133 0.36328876
-0.096716926 -0.32248181 0.3632831
-0.096785605 -0.31866398 0.36346895
-0.09133561 -0.31867921 0.36344245
-0.088660903 -0.31867278 0.36346841
-0.087223954 -0.31870866 0.3634972
-0.08580143 -0.31871349 0.36348552
-0.083271913 -0.31865662 0.36346173
-0.08217261 -0.31869847 0.3634786
-0.08071921 -0.31871548 0.36348867
-0.097885303 -0.31488866 0.363561
-0.077906057 -0.31104317 0.36350372
-0.072126664 -0.31103408 0.36347282
-0.0693027 -0.31102878 0.36351827
-0.064963907 -0.31101713 0.36348301
-0.063518226 -0.31105804 0.3635031
-0.058125835 -0.31102541 0.36350319
-0.070697226 -0.30715075 0.36331251
-0.069289573 -0.307163 0.36333835
-0.068922766 -0.30716476 0.36334798
-0.064947538 -0.30715498 0.36331525
-0.049435511 -0.30714682 0.36334816
-0.058072157 -0.30327347 0.36307204
-0.056605347 -0.30326456 0.36306325
-0.055541009 -0.30326295 0.36307555
-0.047991108 -0.30325791 0.36307469
-0.046894744 -0.3032465 0.36306688
-0.044750731 -0.30325404 0.36306345
-0.042161044 -0.30325741 0.36306518
-0.060634091 -0.30257875 0.36373743
-0.054861825 -0.30260366 0.36376145
-0.053457431 -0.30260578 0.36376828
-0.050937455 -0.30260763 0.36375764
-0.04877615 -0.30260488 0.36375549
-0.040752508 -0.30264243 0.363783
-0.037888397 -0.30258805 0.36373404
-0.032234319 -0.29867607 0.36337897
-0.0078034331 -0.28940532 0.36350045
-0.0067268694 -0.28941035 0.36350864
-0.0076866038 -0.28471968 0.36338449
-0.0055311937 -0.28470898 0.36335912
-0.00036794186 -0.28472045 0.36336264
0.0024927098 -0.28470033 0.36340138
-0.00031987863 -0.27998385 0.3630802
0.009449305 -0.27927852 0.36372167
0.011993766 -0.27928758 0.36371469
0.015639577 -0.27999634 0.3631025
0.02336134 -0.26346523 0.36309221
0.031672813 -0.26346824 0.36307657
0.028442595 -0.26278162 0.3636764
0.033478301 -0.26276332 0.36365333
0.035291314 -0.2627393 0.36366114
0.038527709 -0.26276982 0.36368912
0.047424562 -0.25715226 0.36329138
0.059982892 -0.24442102 0.36309561
-0.17952234 -0.34475708 0.36404312
-0.17843169 -0.34474829 0.36404139
-0.17246935 -0.34422034 0.36485946
-0.16162513 -0.34422272 0.36488053
-0.16503258 -0.34115788 0.36489061
-0.1617572 -0.34118316 0.36487961
-0.16029453 -0.34117597 0.36490133
-0.15229964 -0.33864865 0.36401635
-0.15065283 -0.33806819 0.36479038
-0.14942226 -0.33863589 0.3640151
-0.14811665 -0.33811253 0.36484498
-0.1477343 -0.33810815 0.36483741
-0.14688902 -0.33864561 0.36403081
-0.13947965 -0.33808565 0.36481678
-0.1399024 -0.33500376 0.36469254
-0.13411383 -0.33500245 0.36469504
-0.14274602 -0.33497486 0.364685
-0.13882987 -0.33499995 0.36468035
-0.13738076 -0.33499423 0.36467969
-0.13630129 -0.3349894 0.3646861
-0.135214 -0.33498955 0.36469656
-0.13525787 -0.33188587 0.36445737
-0.13164835 -0.33190244 0.36447868
-0.13057165 -0.3318795 0.36445999
-0.12840009 -0.33187243 0.3644678
-0.12732789 -0.33188352 0.36447608
-0.12623262 -0.33192548 0.3644824
-0.12299019 -0.33186552 0.36445126
-0.12188543 -0.33191118 0.36446196
-0.12082049 -0.33190516 0.36447984
-0.11722634 -0.3318626 0.36444637
-0.12088093 -0.32874569 0.36415508
-0.11953321 -0.32820272 0.36493322
-0.11724512 -0.32873976 0.36414841
-0.1161596 -0.32872704 0.36413556
-0.11444577 -0.32846683 0.36454898
-0.11270981 -0.32818308 0.36494994
-0.11160807 -0.32818601 0.36495382
-0.11051898 -0.3250334 0.3645477
-0.10257536 -0.32500902 0.36453429
-0.098635584 -0.32505441 0.36452579
-0.11529575 -0.32127231 0.36480552
-0.1004312 -0.32183033 0.36404681
-0.098993793 -0.32183143 0.36403772
-0.097541973 -0.32186952 0.36404386
-0.095003285 -0.32185593 0.36404231
-0.093563609 -0.32185647 0.36403096
-0.091935679 -0.32185951 0.36403617
-0.090857901 -0.3218517 0.36404225
-0.08809144 -0.32128361 0.36481714
-0.086643256 -0.32122833 0.36477488
-0.095061243 -0.31809452 0.36421213
-0.081535839 -0.31810004 0.36422628
-0.080119871 -0.31808579 0.36423069
-0.078708574 -0.31805357 0.36423033
-0.10956778 -0.31741583 0.36493245
-0.091916218 -0.31745696 0.36496609
-0.090779126 -0.31423852 0.36426634
-0.089338973 -0.31423923 0.36425522
-0.094850287 -0.31358626 0.36498934
-0.093428537 -0.31360704 0.36499307
-0.090870179 -0.31361079 0.36499128
-0.087431863 -0.31361639 0.36498931
-0.079089284 -0.31035325 0.36419553
-0.077254727 -0.31042382 0.36422762
-0.068632483 -0.31039289 0.36422819
-0.07991685 -0.30971116 0.36491004
-0.07588324 -0.30978596 0.36494634
-0.074144728 -0.30973902 0.36494818
-0.067169458 -0.30651599 0.36406016
-0.066073835 -0.30652294 0.36405987
-0.065721825 -0.3065418 0.36405998
-0.063198365 -0.30647209 0.36400908
-0.060320053 -0.30653003 0.36405134
-0.059242189 -0.30651239 0.36404392
-0.050610632 -0.30650112 0.36403927
-0.048066314 -0.30649072 0.36403069
-0.045553848 -0.30649337 0.36404026
-0.044467289 -0.3064962 0.36403406
-0.061869681 -0.30586198 0.3647438
-0.043776084 -0.30193433 0.36444706
-0.042668972 -0.30193406 0.36444923
-0.043689735 -0.29799071 0.36402979
-0.0019811466 -0.28870785 0.36416262
0.0069085043 -0.27859843 0.36436099
0.013402202 -0.27855498 0.36431929
0.01520969 -0.27856734 0.36434871
-0.19091401 -0.34672099 0.36558297
-0.17697248 -0.34368932 0.36569047
-0.17478679 -0.34368888 0.36569089
-0.17372473 -0.34369862 0.36569798
-0.17263642 -0.34369543 0.36568704
-0.17137657 -0.34366721 0.36567122
-0.17008467 -0.3436816 0.3656798
-0.16685134 -0.34368587 0.36568981
-0.16579489 -0.34369072 0.36569002
-0.16471606 -0.34366903 0.36566061
-0.16371714 -0.34061751 0.36569315
-0.16263631 -0.34061378 0.36568156
-0.15934612 -0.34063676 0.36572987
-0.15790547 -0.34059104 0.36565995
-0.15645228 -0.34063506 0.36568692
-0.15536505 -0.34063625 0.36569685
-0.15249214 -0.34059644 0.36566254
-0.15005541 -0.33752894 0.36560416
-0.14608857 -0.33753905 0.36562812
-0.14463995 -0.33750647 0.36561728
-0.14337152 -0.33754802 0.36564314
-0.14215213 -0.33753717 0.36564341
-0.1454359 -0.33444047 0.36549422
-0.13242213 -0.33444721 0.36549106
-0.13028628 -0.33441114 0.36547667
-0.12812035 -0.33447495 0.36549693
-0.12926853 -0.33127624 0.36522996
-0.12382154 -0.33128488 0.36520737
-0.12022457 -0.33133689 0.36526901
-0.11027613 -0.32760572 0.3656975
-0.1092103 -0.32757246 0.36569089
-0.10813376 -0.32759225 0.36571854
-0.10703484 -0.32759476 0.36572915
-0.10130776 -0.32066834 0.36556798
-0.089284264 -0.32064745 0.36555541
-0.10824556 -0.31682736 0.36569518
-0.10715449 -0.31684104 0.36571148
-0.10103362 -0.31683376 0.36571598
-0.093119927 -0.31683078 0.36568427
-0.091672689 -0.31300691 0.36571538
-0.089405082 -0.31362 0.36500362
-0.078519441 -0.31302905 0.36574829
-0.087573908 -0.31299037 0.36570886
-0.085031159 -0.31298685 0.36573291
-0.075270563 -0.30913451 0.3656646
-0.072567105 -0.3090893 0.3656199
-0.070926771 -0.30912012 0.36562809
-0.061189912 -0.305222 0.3654508
-0.05832193 -0.30521107 0.36545107
-0.052173581 -0.30522195 0.36545151
-0.038742259 -0.30129221 0.36515024
-0.04740857 -0.29668587 0.36539876
-0.029299639 -0.29670051 0.36541653
-0.025732014 -0.29665479 0.36537132
0.00047521442 -0.28732088 0.36550051
0.005309483 -0.282653 0.36531273
0.00021495399 -0.28192109 0.36592233
0.0073821475 -0.28191909 0.36593938
0.011025284 -0.28190601 0.36591408
-0.21619655 -0.35175955 0.36686108
-0.21115275 -0.35175568 0.36684966
-0.20250106 -0.35175753 0.36686602
-0.19527227 -0.34924847 0.36626184
-0.18084118 -0.34924975 0.36626434
-0.17975146 -0.34924725 0.36626017
-0.18784221 -0.34619346 0.36639842
-0.18492386 -0.34622508 0.36642304
-0.18094197 -0.34622887 0.36642691
-0.17883547 -0.34621793 0.36642566
-0.17556843 -0.34624442 0.36643922
-0.17568853 -0.34313795 0.36648616
-0.17315203 -0.34316581 0.36652049
-0.16881143 -0.34317619 0.36651167
-0.16771416 -0.34317908 0.36651057
-0.1633862 -0.34318775 0.3665055
-0.16228947 -0.34318209 0.36651468
-0.16019374 -0.34010482 0.3665292
-0.15879592 -0.34009439 0.36653605
-0.15479939 -0.34009093 0.36651331
-0.15370253 -0.34010157 0.36651522
-0.15084392 -0.34009099 0.36650053
-0.14153679 -0.33699858 0.36644232
-0.18670428 -0.33387974 0.36628142
-0.14055234 -0.33387479 0.36629063
-0.13147782 -0.33385682 0.36626336
-0.12897924 -0.3338685 0.36628294
-0.1388385 -0.32384551 0.36607116
-0.13742004 -0.32380199 0.3660351
-0.13455276 -0.32383221 0.36607242
-0.13067114 -0.3232421 0.36681473
-0.12271573 -0.32001042 0.36628571
-0.1216362 -0.32003549 0.36630824
-0.11404405 -0.32006472 0.366321
-0.1129877 -0.32003671 0.36630362
-0.10179694 -0.32005447 0.36631829
-0.10579692 -0.31622633 0.36644879
-0.10472209 -0.31622282 0.36644405
-0.10361783 -0.31622511 0.36641514
-0.10255773 -0.31620178 0.3664265
-0.10148776 -0.31621543 0.36644924
-0.10037967 -0.31622431 0.36645529
-0.099297509 -0.31623599 0.36645487
-0.098219372 -0.31621829 0.36643955
-0.097853035 -0.31620228 0.36643571
-0.096817851 -0.31618759 0.36642703
-0.095358074 -0.31620425 0.36643049
-0.093911767 -0.31624857 0.36642721
-0.085800499 -0.31235459 0.3664515
-0.083296336 -0.31239191 0.36647478
-0.081849232 -0.31233627 0.36643311
-0.080751464 -0.31231904 0.36643189
-0.060927134 -0.30848211 0.3663612
-0.050789785 -0.30458567 0.3661643
-0.0017118971 -0.28122327 0.36656344
0.0026948112 -0.28121415 0.36658901
0.0056009875 -0.28126171 0.36659241
0.0073677381 -0.28122219 0.36658442
0.025234407 -0.26539448 0.36626896
-0.24739604 -0.35971862 0.36745194
-0.23708515 -0.356776 0.36788228
-0.22377379 -0.3567864 0.36793411
-0.2277343 -0.35426679 0.36743245
-0.21910752 -0.35429534 0.3674258
-0.21314988 -0.35126528 0.36771381
-0.21205595 -0.3513028 0.36774269
-0.20968664 -0.35125121 0.36769411
-0.20842694 -0.35127175 0.36771736
-0.20590806 -0.35126683 0.36770704
-0.20447375 -0.35127172 0.3677142
-0.20336214 -0.35127813 0.36771753
-0.20158994 -0.35127383 0.36771697
-0.19904435 -0.35127491 0.36771968
-0.19436052 -0.35128799 0.36770815
-0.19150481 -0.35127985 0.36773902
-0.20516464 -0.34872586 0.36711338
-0.20011356 -0.34874186 0.36709839
-0.19901749 -0.34875745 0.36708152
-0.19749293 -0.34849891 0.36752144
-0.19596761 -0.34824291 0.36795431
-0.19413972 -0.34823865 0.36793229
-0.19307347 -0.3482495 0.3679291
-0.19254872 -0.34875357 0.36708874
-0.19128865 -0.34824237 0.36794636
-0.19072716 -0.34875414 0.36711317
-0.18947412 -0.34823793 0.36794388
-0.18874151 -0.34821936 0.36791873
-0.18764816 -0.34826458 0.36793506
-0.18658251 -0.34825557 0.36795223
-0.18548217 -0.34826431 0.36795461
-0.18441658 -0.34822088 0.36792466
-0.18280545 -0.34873739 0.36708885
-0.18153228 -0.34827107 0.36795667
-0.18580957 -0.34571844 0.36725849
-0.18364444 -0.3457208 0.36726424
-0.18255177 -0.34566817 0.36722809
-0.17966343 -0.3457261 0.36727008
-0.17754719 -0.34569141 0.36724275
-0.17645626 -0.34568399 0.36725119
-0.17430303 -0.3457095 0.36726174
-0.17320447 -0.34570757 0.3672601
-0.17066903 -0.34571442 0.3672581
-0.15533447 -0.33642173 0.36720777
-0.14023437 -0.3364459 0.36723867
-0.18358178 -0.33331028 0.36706895
-0.12658009 -0.33334234 0.36708617
-0.12527306 -0.33273435 0.36783272
-0.15158506 -0.32644033 0.36728868
-0.14760272 -0.32644001 0.36725551
-0.13822231 -0.32640797 0.36725506
-0.11732515 -0.32644892 0.36727756
-0.11375124 -0.32642278 0.36725524
-0.13544248 -0.32265288 0.36759546
-0.13257445 -0.32264936 0.36758235
-0.13147274 -0.32264802 0.36758101
-0.13007443 -0.32264584 0.3675777
-0.12899771 -0.32264027 0.36759597
-0.12789984 -0.32264552 0.3675912
-0.1268045 -0.32266539 0.36759838
-0.12466699 -0.32260978 0.36756551
-0.12248497 -0.32264608 0.36759594
-0.1203184 -0.32266033 0.36759323
-0.11922003 -0.32261831 0.36754307
-0.11814798 -0.32262772 0.36757129
-0.11704163 -0.32267427 0.36758214
-0.115978 -0.32266736 0.36759964
-0.1202914 -0.31946182 0.36706764
-0.11814561 -0.31942952 0.36704305
-0.11704061 -0.3194038 0.36701539
-0.11596913 -0.31942469 0.36704856
-0.11124822 -0.31940582 0.36702976
-0.11020662 -0.31942755 0.36704445
-0.10911049 -0.31944653 0.36706737
-0.10804747 -0.31944397 0.36706921
-0.10694492 -0.31944731 0.36707288
-0.10586028 -0.31945041 0.36704344
-0.10479499 -0.31941679 0.36703706
-0.10345632 -0.31883109 0.36781567
-0.089308955 -0.3149845 0.36788726
-0.074106328 -0.31499168 0.36790875
-0.082688294 -0.30719373 0.36779153
-0.057695318 -0.2993378 0.36722073
-0.055606291 -0.29866493 0.36791071
0.0028668575 -0.28529736 0.36745247
0.0095035275 -0.28054306 0.36723518
0.01022053 -0.28055707 0.36724535
-0.33450359 -0.37212977 0.3687239
-0.30967137 -0.3696495 0.36856452
-0.2656011 -0.36181051 0.36873937
-0.24868153 -0.35929671 0.3683393
-0.23374166 -0.35633755 0.36880532
-0.23188347 -0.35633847 0.36879471
-0.23010367 -0.35633537 0.36880496
-0.22939028 -0.35633042 0.36880296
-0.22758189 -0.35630289 0.3687945
-0.22649652 -0.35632747 0.36880425
-0.22468585 -0.35633183 0.3688046
-0.22250374 -0.35630849 0.36878198
-0.22149943 -0.3563163 0.36878034
-0.21856292 -0.3563017 0.36875594
-0.22470291 -0.35380763 0.36830953
-0.22359271 -0.35381535 0.36830118
-0.22251922 -0.35381207 0.36830717
-0.22160169 -0.35378242 0.36828846
-0.22068501 -0.35378924 0.36828053
-0.21965677 -0.35379156 0.36827523
-0.21854517 -0.35383224 0.36829382
-0.21784991 -0.35382992 0.368294
-0.21637993 -0.35377997 0.36825562
-0.21568497 -0.35379511 0.36827001
-0.2149561 -0.35379708 0.36827108
-0.21385823 -0.35381103 0.36828944
-0.21277313 -0.35380551 0.36828199
-0.21167855 -0.35377967 0.36824384
-0.21060343 -0.35379639 0.36827311
-0.20918581 -0.3538129 0.36829355
-0.20775779 -0.35378525 0.36828098
-0.20786786 -0.35079104 0.36857942
-0.2068032 -0.35077342 0.3685886
-0.20534331 -0.35077882 0.36855322
-0.20395006 -0.35078588 0.36856776
-0.20284781 -0.35078672 0.36856925
-0.20067888 -0.35079536 0.36856431
-0.19977409 -0.35080141 0.36855912
-0.19778705 -0.35077816 0.36857986
-0.19599159 -0.35078761 0.36857632
-0.16364901 -0.32901573 0.36838329
-0.15131265 -0.32900709 0.36835578
-0.15024464 -0.32581955 0.36800182
-0.14880523 -0.32585242 0.36801735
-0.14486091 -0.32582277 0.36800793
-0.14314026 -0.32526475 0.36878806
-0.1417463 -0.32527542 0.36882228
-0.14028624 -0.32526562 0.36882061
-0.13880919 -0.3252371 0.36877343
-0.13738936 -0.32525879 0.36880949
-0.13657668 -0.32584858 0.36804447
-0.13556531 -0.32555729 0.36842662
-0.13451004 -0.32526699 0.36880663
-0.13091718 -0.32525352 0.36881024
-0.12981868 -0.32526067 0.36881196
-0.12872186 -0.32527763 0.36881793
-0.12681276 -0.32581511 0.36801314
-0.12547353 -0.32204777 0.3683427
0.0049854335 -0.28458863 0.36809838
-0.35159457 -0.37422657 0.36973894
-0.34730282 -0.37423643 0.3697423
-0.34188613 -0.37421456 0.36973205
-0.33545285 -0.37174785 0.36961558
-0.33330306 -0.37175316 0.36966786
-0.3282274 -0.37172097 0.36963534
-0.29833269 -0.37172642 0.36962488
-0.27767348 -0.36386147 0.36992598
-0.26077217 -0.36138481 0.36961681
-0.25572088 -0.36136323 0.36961308
-0.25356105 -0.36135286 0.36960071
-0.25139493 -0.36136344 0.36959898
-0.2502999 -0.36136964 0.36961037
-0.24814266 -0.36134583 0.36960575
-0.24957472 -0.35884538 0.36921945
-0.24743871 -0.35881898 0.36920071
-0.24309166 -0.35882813 0.3692151
-0.24237001 -0.35883746 0.36922973
-0.24093795 -0.35885802 0.36924237
-0.23987278 -0.35885304 0.36924648
-0.23875834 -0.35883096 0.36918756
-0.23767622 -0.3588309 0.36921334
-0.23661171 -0.35885346 0.36923078
-0.23552319 -0.35885945 0.36923951
-0.23370965 -0.35883394 0.36921617
-0.22722121 -0.35885972 0.36924487
-0.2324862 -0.35583448 0.36963406
-0.22814023 -0.35583687 0.36965057
-0.22521941 -0.35587803 0.36966622
-0.22414653 -0.35587198 0.36967754
-0.22055914 -0.35586846 0.3696478
-0.21946578 -0.35590237 0.36967236
-0.21008818 -0.35332596 0.36913514
-0.20864257 -0.3533318 0.36915505
-0.2061141 -0.35332263 0.36912841
-0.21849319 -0.33792254 0.36977333
-0.21670306 -0.33794013 0.36979118
-0.2105756 -0.33794686 0.36976847
-0.20948131 -0.3379814 0.36979252
-0.18933235 -0.33479735 0.36966035
-0.17925733 -0.33162075 0.36943501
-0.17203623 -0.33165914 0.36947027
-0.16451158 -0.33161053 0.36943972
-0.15543838 -0.33165413 0.36947846
-0.15977825 -0.32847342 0.36917719
-0.15435229 -0.32847652 0.36918133
-0.15326829 -0.32846954 0.36919737
-0.15219641 -0.32844371 0.36916617
-0.15070422 -0.32845435 0.36915362
-0.14929251 -0.32847837 0.36917406
-0.14533958 -0.32844874 0.36914822
-0.14389378 -0.32846907 0.36918193
-0.14246802 -0.32846263 0.36918586
-0.15846476 -0.3278853 0.36996657
-0.15740751 -0.32789013 0.36996675
-0.1563274 -0.32786945 0.36993828
-0.15520665 -0.32791236 0.36995736
-0.14761347 -0.32789052 0.36996406
-0.14074928 -0.32786804 0.36993942
-0.35568616 -0.3787466 0.37065873
-0.35390085 -0.37878254 0.37069315
-0.3705453 -0.37630129 0.37067646
-0.36943653 -0.3763217 0.37067667
-0.36552912 -0.3763324 0.37068978
-0.34928593 -0.37632659 0.37070397
-0.33774611 -0.3763372 0.37067422
-0.3568885 -0.37381685 0.37063509
-0.35511115 -0.37387201 0.37065795
-0.3533124 -0.37382779 0.37063271
-0.34068897 -0.37383065 0.3706452
-0.32525438 -0.37137565 0.37058294
-0.32025552 -0.36888075 0.37039864
-0.27971429 -0.36347297 0.37083584
-0.27862442 -0.36346817 0.37084624
-0.27429518 -0.36346269 0.37083423
-0.2732389 -0.3634575 0.37083831
-0.27213913 -0.36346146 0.37082797
-0.27104643 -0.36346555 0.37084004
-0.26998219 -0.36346406 0.37085468
-0.26852894 -0.36343923 0.3708216
-0.26711774 -0.36344427 0.37084454
-0.26634753 -0.36348799 0.37084669
-0.265279 -0.36347377 0.37084672
-0.26418936 -0.36342919 0.37080845
-0.26349139 -0.36343989 0.37082347
-0.2624355 -0.36346117 0.37083668
-0.26135424 -0.36347282 0.37083802
-0.26025641 -0.36345288 0.37082466
-0.2562533 -0.36346671 0.37082702
-0.25517684 -0.36344835 0.37081584
-0.25410596 -0.36346239 0.37082887
-0.26348746 -0.36093724 0.37050116
-0.2595368 -0.36094746 0.37050536
-0.25843534 -0.36091417 0.37048224
-0.25731456 -0.36093339 0.37050107
-0.25628731 -0.36093387 0.37049967
-0.25447258 -0.3609449 0.37049243
-0.25231189 -0.36094686 0.37050018
-0.24905443 -0.36091128 0.37047556
-0.24473418 -0.36091092 0.37048978
-0.24150456 -0.36092982 0.37052023
-0.23428755 -0.35838079 0.37009662
-0.23139593 -0.35840923 0.37012798
-0.2281442 -0.35839698 0.37012425
-0.2524856 -0.35795984 0.37097532
-0.25142369 -0.35795152 0.37098017
-0.25031415 -0.35797629 0.37098733
-0.24565274 -0.35795987 0.37098834
-0.24457946 -0.35797614 0.37099037
-0.24349731 -0.3579562 0.37099183
-0.28321579 -0.3498328 0.37029746
-0.25312784 -0.34363148 0.37058014
-0.24919067 -0.3436572 0.37059689
-0.23015083 -0.3405427 0.37066051
-0.22581697 -0.34055445 0.37064204
-0.22363907 -0.34053096 0.37062722
-0.22220817 -0.3405461 0.37065917
-0.19702525 -0.33740643 0.37058458
-0.19052601 -0.33739847 0.37059587
-0.18479936 -0.33426124 0.37045181
-0.17794642 -0.33109394 0.37025461
-0.17686141 -0.33108744 0.37025377
-0.17397518 -0.33104604 0.37022454
-0.17287628 -0.33109292 0.37025866
-0.17077304 -0.33108026 0.37025642
-0.16968855 -0.33106446 0.37023911
-0.16859691 -0.33105761 0.37024775
-0.16750526 -0.33110729 0.3702704
-0.16644312 -0.33108327 0.37025765
-0.16534568 -0.33108065 0.37025619
-0.16280639 -0.33108959 0.37025481
-0.16171423 -0.33109361 0.37025878
-0.16064037 -0.33107421 0.37026173
-0.15851618 -0.33105937 0.37023702
-0.15740398 -0.33108857 0.37024817
-0.39567745 -0.37845558 0.37163109
-0.39055979 -0.37842885 0.37159649
-0.38121775 -0.37843394 0.37161106
-0.36436975 -0.37595621 0.37165222
-0.30963898 -0.36846182 0.37128401
-0.30710143 -0.36851224 0.37134051
-0.30352756 -0.36847746 0.37132901
-0.30212098 -0.36848173 0.37132496
-0.29993102 -0.36848384 0.37130642
-0.2988497 -0.3684999 0.37133178
-0.29122144 -0.3684862 0.37131986
-0.28905192 -0.36846581 0.37129644
-0.29922464 -0.36597523 0.37110046
-0.29559532 -0.36596403 0.37108836
-0.29452196 -0.3659758 0.3711015
-0.29230726 -0.3659912 0.37111658
-0.2894671 -0.36598042 0.37111267
-0.28837654 -0.3659758 0.37111127
-0.28714609 -0.36553949 0.37197039
-0.28546774 -0.3659763 0.37109798
-0.28439388 -0.36598861 0.37111312
-0.28327632 -0.36596027 0.37109193
-0.28258333 -0.36595222 0.37109336
-0.28151205 -0.36598188 0.37110519
-0.28040862 -0.36599365 0.37112188
-0.27933651 -0.36596552 0.37109727
-0.27843064 -0.36596608 0.37110654
-0.27737868 -0.36597386 0.37110299
-0.27629006 -0.36597866 0.371104
-0.27520585 -0.36597335 0.37111488
-0.27394003 -0.36597338 0.37109858
-0.27284926 -0.36599109 0.37111571
-0.27179876 -0.36596835 0.37111747
-0.26887956 -0.36595693 0.37111315
-0.26224992 -0.36046708 0.37136424
-0.26117161 -0.36049566 0.37139317
-0.30874187 -0.35190284 0.37173617
-0.27800232 -0.3493045 0.3711049
-0.2722325 -0.34933802 0.37114078
-0.26413783 -0.34315616 0.37142548
-0.16856298 -0.3431631 0.37143829
-0.23391838 -0.34004286 0.37148294
-0.23066142 -0.34002942 0.37147874
-0.22959377 -0.34002548 0.37148225
-0.22739862 -0.34000292 0.37145069
-0.2252461 -0.34003106 0.3714754
-0.21732987 -0.34002721 0.37148559
-0.21514921 -0.34003007 0.3714838
-0.20438881 -0.33690196 0.37142754
-0.2007605 -0.33687019 0.37140334
-0.19574173 -0.33369613 0.37125087
-0.19323045 -0.3337003 0.37126225
-0.18925054 -0.33371067 0.37126958
-0.18818811 -0.3337011 0.37127757
-0.18635894 -0.33369756 0.3712562
-0.1852905 -0.33370951 0.37125364
-0.18350898 -0.3337006 0.37126967
-0.18275315 -0.33371347 0.37128088
-0.18169425 -0.33369616 0.37126699
-0.1809603 -0.33367819 0.3712427
-0.17986423 -0.33372495 0.37125903
-0.17880048 -0.33371451 0.37127486
-0.1777015 -0.33372265 0.37127697
-0.17663541 -0.33367923 0.37124813
-0.17482787 -0.33369905 0.37125781
-0.1737508 -0.3337301 0.37127957
-0.17267196 -0.33371034 0.3712759
-0.17158277 -0.33370754 0.37127203
-0.17051338 -0.33367649 0.37125087
-0.16940601 -0.33372757 0.37128603
-0.1636515 -0.33050036 0.37103999
-0.15937622 -0.33051711 0.37105954
-0.1560951 -0.33053845 0.37104464
-0.17422521 -0.32992306 0.37181541
-0.16376688 -0.3267526 0.3715328
-0.16014874 -0.3267594 0.37153274
-0.39950952 -0.37810382 0.37256712
-0.3984378 -0.37809551 0.37255374
-0.39122683 -0.37809971 0.37255251
-0.38473341 -0.37809876 0.37255362
-0.38004497 -0.37811261 0.37258828
-0.33793753 -0.37311941 0.37254059
-0.33687502 -0.3730928 0.37247276
-0.33577409 -0.3731299 0.37248909
-0.33252445 -0.37308398 0.37247744
-0.33125788 -0.37311244 0.37250853
-0.32998684 -0.37314001 0.37252682
-0.3271091 -0.3731268 0.37252161
-0.32608992 -0.373115 0.37252554
-0.32459792 -0.37311924 0.37250748
-0.33183619 -0.37058342 0.37237585
-0.33075798 -0.37058836 0.37238434
-0.32534158 -0.37061778 0.37241176
-0.32392368 -0.37059718 0.37238342
-0.32281491 -0.37061909 0.37240115
-0.32175124 -0.3706075 0.37239116
-0.3206726 -0.37060311 0.37238476
-0.31956401 -0.37061653 0.37240675
-0.31849301 -0.37058976 0.37241197
-0.3172527 -0.37061563 0.37240863
-0.31600785 -0.37060195 0.37240118
-0.31473961 -0.37058723 0.3723906
-0.31348553 -0.37059772 0.37241298
-0.31240904 -0.37061405 0.37241805
-0.31129777 -0.37058982 0.37236381
-0.30987862 -0.37060666 0.37238303
-0.3087689 -0.37062386 0.37241954
-0.30768761 -0.37060156 0.37238237
-0.30622563 -0.37060305 0.37238732
-0.30513728 -0.37060958 0.37240019
-0.30374464 -0.37060741 0.37240839
-0.29905868 -0.37060857 0.37240961
-0.3189013 -0.36810103 0.37223828
-0.31781366 -0.36808527 0.37223235
-0.31527728 -0.36811891 0.37225613
-0.31170321 -0.36808717 0.3722485
-0.31060559 -0.36809447 0.3722412
-0.30808261 -0.36809477 0.37222648
-0.30589274 -0.36806571 0.37219137
-0.30427533 -0.36809695 0.37223125
-0.30303326 -0.36808655 0.37224329
-0.30088109 -0.36809471 0.37222868
-0.29943523 -0.36808237 0.37222609
-0.29833549 -0.36810917 0.37224337
-0.29726496 -0.3680881 0.37222984
-0.29618043 -0.36807606 0.37221786
-0.29507715 -0.36809602 0.37223521
-0.29360753 -0.36810267 0.37223777
-0.29251575 -0.36808094 0.37222138
-0.28999743 -0.36811185 0.37224549
-0.28494167 -0.36808869 0.37222686
-0.28317133 -0.36808875 0.37222928
-0.28605017 -0.36558518 0.3720006
