# .PCD v0.7 - Point Cloud Data file format
VERSION 0.7
FIELDS x y z
SIZE 4 4 4
TYPE F F F
COUNT 1 1 1
WIDTH 1420
HEIGHT 1
VIEWPOINT 0 0 0 1 0 0 0
POINTS 1420
DATA ascii
0.16231513 0.39146513 0.037234899
0.12239158 0.39218646 0.037871342
0.12848338 0.3922177 0.037862197
0.16178936 0.40350902 0.037611999
0.16248021 0.40348011 0.037652548
0.1618785 0.41400021 0.037334491
0.16009268 0.41918349 0.037406113
0.1626004 0.42887247 0.037244625
0.15677795 0.43392652 0.037757695
0.1629293 0.43394059 0.037748512
0.11413577 0.44283116 0.037569311
0.153137 0.44280732 0.037585821
0.15797386 0.45540053 0.037391182
0.11412516 0.45972764 0.037784733
0.11143681 0.46345639 0.03750322
0.16123679 0.47094256 0.037174862
0.15497997 0.47148609 0.037976399
0.1404534 0.47513902 0.037974041
0.15411827 0.47514868 0.037982427
0.15883091 0.47511101 0.03799054
0.15350825 0.47835755 0.037178848
0.13905749 0.48566753 0.037561297
0.12918055 0.48926795 0.037866667
0.14367875 0.48932099 0.037810758
0.13400719 0.49606609 0.037822541
0.14339069 0.49608409 0.037799466
0.15787157 0.49605751 0.0378155
0.15820733 0.49923164 0.037435807
0.1103633 0.50244528 0.037103735
0.15067548 0.50242388 0.037115704
0.12800905 0.5059036 0.037840948
0.129089 0.50588083 0.037844609
0.1442219 0.50586385 0.0378736
0.14741385 0.50581706 0.037918769
0.1566835 0.50595397 0.037813712
0.15739971 0.5059073 0.037849691
0.12077177 0.50903809 0.037679743
0.13154525 0.50903773 0.03771339
0.13262904 0.50900728 0.037742518
0.15098655 0.50902414 0.037707709
0.15139085 0.50901151 0.037718229
0.15549111 0.50903761 0.037707444
0.13616171 0.51219893 0.03760343
0.1405153 0.51214528 0.037647646
0.15093049 0.5120877 0.037680436
0.15570304 0.51217401 0.037615456
0.12145075 0.51533008 0.037579093
0.12534726 0.51528502 0.037579965
0.13646796 0.51530284 0.037603624
0.13865969 0.51526594 0.037627179
0.15488219 0.51526213 0.037615374
0.1552099 0.5152477 0.037632145
0.1206418 0.51836681 0.037663817
0.13048208 0.51838899 0.037646625
0.13106307 0.51841044 0.037633605
0.13533649 0.51844013 0.037598625
0.13607025 0.51837993 0.037638389
0.14367157 0.51838315 0.037667628
0.15807265 0.51834786 0.037694845
0.11070147 0.52147543 0.037796419
0.11103219 0.52148038 0.037794854
0.11906898 0.52144921 0.03778128
0.1345427 0.52144969 0.037780195
0.13528103 0.52146202 0.037784878
0.13600579 0.52143157 0.037829619
0.13935775 0.52146417 0.037803311
0.14276153 0.52147949 0.037785742
0.1433481 0.52144647 0.03779975
0.14893454 0.52148962 0.037761949
0.14945877 0.52146775 0.03777425
0.15022081 0.52147365 0.037761614
0.15451574 0.52146125 0.037793886
0.155213 0.52144992 0.037794214
0.15791506 0.52147692 0.037769355
0.11136428 0.52456105 0.037928246
0.11420691 0.52453232 0.037974451
0.12346122 0.52455366 0.037970077
0.12437347 0.52453578 0.037967738
0.12546268 0.52455139 0.037952516
0.12848091 0.52454126 0.037961382
0.12922198 0.52456212 0.03793589
0.1335541 0.52454078 0.037957635
0.13442975 0.52458763 0.037925374
0.13511041 0.52458411 0.037945751
0.13874605 0.52461481 0.037895408
0.13947967 0.52455592 0.037937429
0.14017347 0.52456987 0.037955657
0.14272344 0.52460945 0.037920706
0.14340517 0.52457583 0.037954487
0.14412391 0.52455437 0.037963413
0.14668998 0.52460694 0.037924111
0.14739779 0.52455223 0.03797048
0.14833808 0.5245297 0.037969097
0.15390846 0.52450919 0.037981674
0.15460846 0.5245434 0.037963461
0.11063612 0.52738047 0.037256021
0.11861408 0.52738929 0.037232123
0.12676495 0.52737445 0.037235163
0.12824097 0.52745438 0.037196822
0.13268727 0.52739453 0.037227251
0.13718191 0.52740753 0.037218176
0.14611328 0.52740145 0.037237726
0.10964501 0.5304774 0.037513819
0.11000082 0.53049839 0.037497722
0.11394587 0.53048772 0.037497789
0.11436909 0.53048027 0.037482962
0.11755788 0.53043771 0.037557073
0.11848098 0.53047609 0.037515353
0.1190317 0.53047299 0.037533354
0.12662736 0.5304662 0.037536107
0.12753579 0.53044814 0.037539992
0.12823969 0.53043163 0.037549157
0.13144246 0.53045392 0.037538033
0.13237509 0.53046072 0.037519969
0.1365602 0.53043908 0.037546571
0.13741603 0.53047502 0.037517101
0.13812217 0.53050023 0.037500396
0.14138171 0.53044856 0.037549302
0.14245829 0.5304848 0.037495401
0.14313033 0.53044772 0.037534062
0.14573115 0.53050959 0.037502013
0.14637843 0.53050077 0.037515368
0.1489082 0.53044307 0.037541054
0.15038431 0.5304755 0.037532058
0.15682805 0.53045416 0.037530199
0.15758756 0.53042543 0.037552781
0.11342612 0.53348327 0.037915573
0.11431813 0.53348625 0.037929259
0.11526427 0.53352058 0.037881032
0.11737409 0.53351033 0.037917729
0.11807808 0.53348625 0.037934478
0.12138197 0.5335176 0.037901204
0.12250078 0.53346372 0.037923254
0.12361893 0.53354788 0.037888393
0.12466598 0.53351545 0.037890255
0.12559009 0.53348559 0.037906352
0.12648761 0.53349006 0.037915595
0.12721375 0.53354323 0.037871134
0.13157222 0.53354871 0.037881151
0.13243234 0.53349626 0.03791393
0.13566303 0.533508 0.037888046
0.13654673 0.53350663 0.037912376
0.13726828 0.53348011 0.037934586
0.14069265 0.5335077 0.037902825
0.14161015 0.53348446 0.037912756
0.14249155 0.5334782 0.037947144
0.14304525 0.53350896 0.037904318
0.14552236 0.53350538 0.037920896
0.14659771 0.53353274 0.037904169
0.1492812 0.53350741 0.037912905
0.15039206 0.53347981 0.03792268
0.15380794 0.53348649 0.037922204
0.15413937 0.53350347 0.037924733
0.15560767 0.53350925 0.037896752
0.15653619 0.53350466 0.037896711
0.11145911 0.53633022 0.037377045
0.11256099 0.53635859 0.037339248
0.11330163 0.53639251 0.037318163
0.11783308 0.53636575 0.03731792
0.11864984 0.53636551 0.037352834
0.12065533 0.53632849 0.037386417
0.12178135 0.53637058 0.037335649
0.12233207 0.53636718 0.037353706
0.12976736 0.53637099 0.037344325
0.13064075 0.53634131 0.037366442
0.13154003 0.53632587 0.037369024
0.13209367 0.53634983 0.037350934
0.13490424 0.53633577 0.03736753
0.13549948 0.53634739 0.037349105
0.13602924 0.5363692 0.037322618
0.13969648 0.53633368 0.037377346
0.14035621 0.53635263 0.0373463
0.14142486 0.53638613 0.037331372
0.14558318 0.53639174 0.037307221
0.14644906 0.53635478 0.037346628
0.14935616 0.53640777 0.03731931
0.15022025 0.53636229 0.037363488
0.15185744 0.53631961 0.037383258
0.15294957 0.53639418 0.037335422
0.15351647 0.53638184 0.037341665
0.1543906 0.53634727 0.037365161
0.11060315 0.53940189 0.037815105
0.11201358 0.53940225 0.037832428
0.11635557 0.53935182 0.037848257
0.11742058 0.53935969 0.037871089
0.11836439 0.53938544 0.037834264
0.1208345 0.53937709 0.037868071
0.12156206 0.53936404 0.037872173
0.1254054 0.53935266 0.03786058
0.12653646 0.53938961 0.037846826
0.12759328 0.53940487 0.037824854
0.12848476 0.53936517 0.037845962
0.12939706 0.53935003 0.03786128
0.13013393 0.53938186 0.037845522
0.13485217 0.53943419 0.037817799
0.13553464 0.53938043 0.037846044
0.13859692 0.53938675 0.037807997
0.1394664 0.53937614 0.037848826
0.14019862 0.5393734 0.037864041
0.14379552 0.5393858 0.037838701
0.144519 0.53935778 0.037854578
0.14559326 0.53935397 0.037878625
0.14950433 0.53937805 0.037863269
0.1502277 0.53944629 0.03782557
0.15255702 0.53937852 0.037855636
0.15348804 0.53935218 0.037865218
0.1542328 0.5394032 0.037841376
0.15743282 0.53937328 0.037861254
0.11062163 0.54223979 0.037401609
0.11116081 0.54220235 0.03741198
0.11437342 0.54221869 0.037440069
0.11563534 0.5422278 0.037401866
0.11657086 0.54225552 0.037380606
0.11726236 0.54225016 0.03737542
0.12072402 0.54225439 0.037371632
0.12175399 0.54223186 0.037409361
0.12374064 0.54220152 0.037459739
0.12449133 0.54222608 0.037412539
0.1254071 0.54224598 0.037406679
0.13250422 0.54226696 0.037381198
0.13357502 0.54222941 0.037416656
0.13443142 0.54220831 0.037428819
0.13518381 0.54221654 0.037416406
0.13785189 0.54223418 0.037409306
0.13855809 0.54221958 0.037417058
0.13950726 0.54224044 0.037386071
0.14007789 0.5422377 0.037365317
0.14256296 0.54221094 0.037435934
0.14362842 0.5422315 0.03740184
0.14453304 0.54226357 0.037385348
0.14795303 0.54223323 0.037414126
0.14847052 0.54227018 0.037373368
0.1495375 0.54222405 0.037403226
0.15025139 0.54223692 0.037421431
0.15246138 0.54228127 0.037381113
0.15348691 0.5422383 0.037423078
0.15402147 0.54222924 0.03742056
0.15640143 0.54227638 0.037389029
0.15761858 0.54222649 0.037430238
0.15823418 0.54220557 0.03742611
0.11348346 0.5450772 0.037035555
0.11456755 0.54527402 0.037994564
0.11961833 0.54506755 0.037038263
0.12068427 0.54507101 0.037070438
0.12124068 0.54508454 0.037043881
0.12393349 0.54508924 0.037059117
0.12444133 0.54508334 0.037062656
0.12773275 0.54510403 0.037032265
0.12829626 0.54510498 0.037039973
0.12941793 0.54507077 0.037054516
0.13067293 0.54519582 0.037505705
0.1312024 0.54510164 0.037025921
0.13755649 0.54512596 0.037023623
0.1384621 0.54511869 0.03702271
0.13912418 0.54508066 0.037049927
0.14237764 0.54509497 0.037027668
0.14306557 0.5450955 0.037042275
0.14664337 0.54511887 0.037028152
0.14741433 0.54508358 0.03703602
0.14833885 0.54507327 0.037047569
0.14940763 0.5450719 0.037064049
0.15258348 0.54508066 0.037064198
0.15351152 0.54518473 0.03734836
0.1559875 0.5450967 0.037047178
0.11112347 0.54803181 0.037743788
0.11367619 0.54809624 0.037692256
0.11402425 0.5480839 0.037705515
0.11687565 0.54810548 0.037696317
0.11760291 0.54806852 0.037736949
0.11850819 0.54806006 0.037715014
0.11961919 0.54810774 0.037683852
0.12374082 0.54810822 0.037676781
0.12449214 0.54808557 0.037685305
0.12696972 0.54805171 0.037756581
0.12754482 0.54806149 0.037723098
0.1282762 0.5480969 0.037693817
0.13313326 0.54807019 0.037710581
0.13461721 0.54807258 0.037715402
0.13555199 0.54812437 0.03767335
0.13626283 0.54809737 0.037701454
0.13749897 0.54806149 0.03772229
0.14181778 0.54806781 0.037709292
0.14254841 0.54808629 0.037690666
0.14577886 0.54806828 0.037724573
0.14651665 0.54806423 0.037720051
0.14757368 0.54810989 0.037684031
0.1526053 0.54808176 0.037692808
0.15330163 0.54809362 0.037710223
0.15585324 0.54813302 0.037677299
0.15633857 0.548114 0.037700661
0.11097217 0.550964 0.037428543
0.11365327 0.55095261 0.03745522
0.11634231 0.55090952 0.037458703
0.11744794 0.55098069 0.037417553
0.11816403 0.55099392 0.037420008
0.1217792 0.55096322 0.037407096
0.12248722 0.55093265 0.037433039
0.12353626 0.55092204 0.037474655
0.12466836 0.55094397 0.037448134
0.12676832 0.55095088 0.037450723
0.12749028 0.55093431 0.037474956
0.12825024 0.55093509 0.037470907
0.13060957 0.55095232 0.037453417
0.13151196 0.55094242 0.037449427
0.13243565 0.55089307 0.037475269
0.13321075 0.55098116 0.037441403
0.13410196 0.55096787 0.03742291
0.14058486 0.55096269 0.03744112
0.14149919 0.55098593 0.037425768
0.14219135 0.55093116 0.037460733
0.1449255 0.55094957 0.037403699
0.1455946 0.55094469 0.037441205
0.14648059 0.55094177 0.037461523
0.14986184 0.55096781 0.03744179
0.15062964 0.5509336 0.037452102
0.15138653 0.55091739 0.037461519
0.15224749 0.55091453 0.037492182
0.15543887 0.55093855 0.03747157
0.156178 0.55094618 0.037461471
0.15671006 0.5510096 0.037430048
0.1134547 0.55380815 0.037234668
0.11402395 0.55379033 0.03725177
0.11585525 0.55386889 0.037224781
0.11653492 0.55383623 0.037228227
0.11726043 0.55381286 0.037242439
0.12048629 0.5538131 0.037262157
0.12155414 0.55378795 0.037257187
0.1226773 0.55382586 0.037228715
0.12586424 0.55379128 0.037263751
0.1268068 0.55383062 0.037220489
0.12756452 0.55382097 0.037213951
0.12805688 0.55380142 0.037240602
0.13058904 0.55378723 0.037271276
0.13134381 0.55382383 0.037228044
0.13531989 0.55385625 0.037222948
0.13640228 0.55380344 0.037243735
0.1374948 0.55378211 0.03726184
0.1386025 0.55383992 0.037222996
0.13965985 0.55381584 0.037249796
0.14056748 0.55379766 0.037254121
0.14127082 0.55378127 0.037262786
0.14447927 0.5538007 0.037252959
0.14540863 0.55380881 0.03723561
0.14618257 0.55381525 0.037224047
0.14864168 0.55378371 0.037277155
0.14939895 0.55379164 0.037260946
0.15083966 0.55383623 0.037224505
0.15458998 0.55382091 0.037237737
0.15531403 0.55384701 0.037203107
0.15653816 0.55382216 0.037247192
0.11261156 0.55666792 0.03708452
0.1134893 0.55669177 0.037078783
0.11597368 0.55663359 0.037134312
0.1165207 0.556651 0.037138123
0.11707628 0.55671751 0.037081178
0.11957327 0.55664957 0.037109997
0.12048328 0.55671394 0.037072975
0.12107047 0.55673337 0.037062567
0.12388819 0.5566833 0.037089709
0.12464753 0.55671954 0.037068214
0.12536523 0.5566895 0.037072666
0.1264126 0.55665958 0.037112512
0.1275034 0.55666935 0.037117437
0.13036671 0.5566833 0.03711652
0.13106844 0.55666101 0.037132543
0.13348573 0.55669779 0.03709605
0.13436857 0.55669391 0.037100255
0.13548669 0.55664051 0.037121035
0.1362631 0.55671453 0.037104897
0.1436162 0.55669236 0.037095439
0.14455852 0.55672491 0.037081182
0.14527181 0.55667233 0.037109558
0.14848498 0.5566864 0.037076481
0.14934599 0.55668473 0.037106108
0.15368313 0.55668181 0.037101652
0.15459701 0.55666053 0.03711094
0.11079016 0.55959332 0.037990443
0.11163533 0.55958956 0.037498906
0.11274707 0.55955458 0.037010495
0.1134932 0.55954218 0.037014004
0.11651313 0.55955493 0.037003245
0.11724904 0.55953944 0.037017755
0.12372971 0.55956203 0.03704191
0.12441754 0.5595336 0.037036046
0.1253261 0.55955529 0.037002597
0.13343874 0.55953896 0.037042242
0.13421747 0.55954367 0.037019785
0.13943124 0.5595566 0.037008565
0.14036095 0.55953693 0.037019264
0.14127815 0.55954403 0.037025992
0.14289203 0.55957049 0.037015576
0.14359692 0.55954587 0.037026212
0.14429459 0.55952555 0.037035163
0.14770535 0.55954927 0.03701923
0.14845735 0.55955023 0.037010428
0.15281543 0.55953836 0.03702667
0.1536499 0.55959684 0.037501656
0.15746605 0.55953807 0.037040267
0.11937898 0.5623911 0.037019234
0.13017589 0.56242168 0.037009139
0.13376877 0.56243587 0.037004363
0.13428715 0.56241727 0.037013303
0.13869455 0.56238168 0.037012111
0.13907334 0.56239831 0.037002321
0.15591937 0.56251723 0.037949301
0.10969067 0.56532502 0.037005395
0.11182842 0.56531507 0.037030403
0.11235777 0.56529731 0.037031915
0.1139819 0.56532538 0.037986457
0.1146327 0.56534719 0.037994932
0.11557579 0.56534243 0.037493497
0.11632383 0.56531245 0.037007175
0.12009767 0.56530809 0.037001655
0.12151328 0.56530571 0.037039179
0.12694004 0.56532407 0.037036855
0.12762776 0.56529593 0.03703123
0.13250935 0.56531256 0.037016314
0.13647205 0.56530261 0.037041977
0.13721395 0.56530249 0.037022348
0.14108279 0.56535327 0.037012413
0.14280808 0.56530905 0.037009533
0.14357123 0.56529903 0.037014849
0.14448786 0.56530631 0.037021447
0.14663085 0.56530714 0.037023626
0.15057701 0.56531453 0.037014574
0.15147027 0.56530833 0.037011795
0.15433466 0.56532407 0.037014436
0.1556555 0.5653044 0.037027683
0.11866266 0.56818593 0.037079912
0.11955214 0.5682075 0.037076425
0.12240529 0.56816709 0.037118174
0.12311128 0.56818962 0.037122779
0.12563753 0.56818545 0.037094384
0.12654412 0.56819934 0.037085097
0.13050833 0.56821358 0.037077632
0.13141787 0.56823158 0.037055817
0.13248405 0.56818104 0.037093289
0.13337639 0.56818807 0.037118856
0.13643956 0.56820226 0.037098672
0.13713667 0.56820393 0.037114196
0.13954401 0.56822175 0.037077941
0.14043093 0.5682174 0.037091061
0.14135379 0.56819808 0.037098564
0.14769983 0.56821704 0.037094634
0.14875594 0.56819493 0.03710125
0.14948776 0.56818473 0.037102427
0.15060797 0.56824648 0.037076294
0.15379471 0.56821859 0.037065599
0.15455529 0.56821406 0.037061438
0.15559649 0.56820768 0.037096001
0.10998833 0.57114255 0.037190165
0.110401 0.57112169 0.037196461
0.11267185 0.57108837 0.037229098
0.1132302 0.57110584 0.037211653
0.11431527 0.57112205 0.037211075
0.11537227 0.57107174 0.037256069
0.11647654 0.5710578 0.037262965
0.11758289 0.57107937 0.037220076
0.1186136 0.5710969 0.037222549
0.12187809 0.57109714 0.037207898
0.1223802 0.57110155 0.03721723
0.12564528 0.57113689 0.037213508
0.1261349 0.57111853 0.037214644
0.12866339 0.57112986 0.037206691
0.12940994 0.57113171 0.037206888
0.13118681 0.57105565 0.037251897
0.13590991 0.57109094 0.037232567
0.13643157 0.57111102 0.037208568
0.13718945 0.57110137 0.037202265
0.13946918 0.57106996 0.037265994
0.140616 0.5710752 0.037240662
0.14367682 0.57104135 0.037258245
0.1446166 0.57113099 0.037221052
0.14567181 0.57109571 0.037222318
0.14659208 0.57106698 0.03723738
0.14730147 0.57106239 0.037251528
0.14859423 0.5711261 0.037204325
0.14929256 0.57110167 0.03723567
0.15290973 0.57112038 0.037214
0.1536074 0.57108152 0.037240356
0.15447414 0.57107204 0.037240867
0.14255443 0.57398885 0.037415072
0.15193567 0.57396412 0.037440669
0.15268263 0.57395107 0.037441202
0.15339044 0.57399964 0.037422173
0.15679875 0.57397896 0.037416454
0.115172 0.5740037 0.037401535
0.11266422 0.57978809 0.037015337
0.11339876 0.57975805 0.037023321
0.11413875 0.57978958 0.037008613
0.12384456 0.57978845 0.037008405
0.12456807 0.57977462 0.037008476
0.12850308 0.57975799 0.037021141
0.13175201 0.5797922 0.037004329
0.13211539 0.5797624 0.037008226
0.13566795 0.57976389 0.03702883
0.13623714 0.57976657 0.037013873
0.14271855 0.57978582 0.037008047
0.14548129 0.57977402 0.03701685
0.15468743 0.57977474 0.037023921
0.15557936 0.57976651 0.037022308
0.15631729 0.57978284 0.037008993
0.11608568 0.58270848 0.03734991
0.15465415 0.58271742 0.037354276
0.1154722 0.58556712 0.037811615
0.11359468 0.58854556 0.037303623
0.11449346 0.58854431 0.037316885
0.13120174 0.58856905 0.037290614
0.13766503 0.58851826 0.037324753
0.14379689 0.58852524 0.037305228
0.15139478 0.59445268 0.037505534
0.12794691 0.59751272 0.037151951
0.12872472 0.59754443 0.037122827
0.13335186 0.59751296 0.037148345
0.20477292 0.24106258 0.038747936
0.17741382 0.28996307 0.038717229
0.18588641 0.28997409 0.038687631
0.19073004 0.28998637 0.038689092
0.19530168 0.28995603 0.038750295
0.12066191 0.30026329 0.038605321
0.12249741 0.30032724 0.038541414
0.16642466 0.300282 0.038574114
0.16752324 0.30027616 0.03858602
0.16887611 0.31053317 0.038785253
0.15925756 0.31994605 0.038804952
0.1665436 0.3191691 0.03828897
0.16375208 0.32858235 0.038532477
0.16739407 0.32857215 0.038557913
0.164249 0.35257077 0.038340025
0.16706797 0.35259652 0.038308542
0.16782567 0.35328579 0.038952369
0.12037936 0.3739211 0.03853457
0.12111819 0.3739363 0.038510941
0.16174391 0.37394238 0.038502764
0.16242343 0.37392116 0.03852978
0.11733866 0.39881188 0.038731288
0.16191596 0.39881724 0.038756378
0.16362843 0.39860648 0.038505927
0.16452456 0.39812964 0.038076475
0.16555512 0.39845252 0.038427096
0.12610835 0.40409774 0.038374595
0.12603316 0.41000611 0.038873713
0.12753588 0.41526163 0.038799252
0.12188357 0.41982311 0.03814273
0.15951812 0.42041284 0.038907073
0.16350216 0.42038757 0.038921341
0.15521348 0.42999786 0.038798992
0.14400584 0.43004519 0.038790811
0.16024226 0.43003088 0.038787466
0.16268608 0.43006533 0.038777985
0.15590292 0.43891221 0.038431697
0.15408209 0.44337559 0.038401037
0.16197401 0.44336766 0.038390327
0.14462066 0.44774896 0.038490344
0.1475001 0.44774991 0.038491271
0.15077984 0.44775683 0.038495522
0.15391725 0.44777793 0.038484491
0.12318942 0.45214796 0.038675524
0.14122927 0.45213544 0.038703613
0.1585454 0.45208967 0.038717102
0.16036686 0.45589751 0.038211558
0.1150699 0.46019912 0.038636371
0.1283839 0.46022326 0.038628843
0.1414811 0.46021867 0.038640898
0.1530008 0.46023941 0.038621936
0.15802026 0.46020311 0.038651831
0.13625696 0.46396267 0.038355533
0.13737249 0.46398139 0.038328495
0.11713398 0.46769434 0.038146198
0.13682127 0.46771049 0.038121104
0.16043627 0.46773452 0.038105421
0.13181022 0.46822047 0.038950644
0.13211298 0.46821195 0.038963463
0.14223653 0.46819365 0.038989704
0.14655608 0.46819162 0.03898219
0.11874765 0.47187865 0.038879536
0.12483305 0.47185171 0.038905598
0.1280455 0.4718498 0.038917162
0.12915877 0.47193509 0.038839534
0.13220954 0.47186136 0.038916383
0.13639325 0.4718647 0.038899988
0.14619461 0.47191477 0.038847692
0.15982267 0.47190273 0.038882121
0.16001254 0.47141701 0.038016707
0.16200036 0.47189701 0.038880389
0.11768004 0.4755488 0.03888708
0.11860019 0.47560567 0.038852867
0.1217688 0.47558498 0.038880248
0.12439114 0.4755792 0.038842373
0.12504259 0.47557008 0.038847912
0.12903115 0.47557175 0.038874067
0.14636821 0.47558886 0.038861033
0.15954411 0.47509909 0.038008418
0.16154063 0.475609 0.038842853
0.13159117 0.47877604 0.038063396
0.13518173 0.47879958 0.038074996
0.1144667 0.47923023 0.038930591
0.12347895 0.47922516 0.038949933
0.12928021 0.47922313 0.038937788
0.13003433 0.47925258 0.038938206
0.14658108 0.47924954 0.038926601
0.15816262 0.47928596 0.038901284
0.12622106 0.48247963 0.038199093
0.12715602 0.48247504 0.038179576
0.13984144 0.48249471 0.038156807
0.1404641 0.48248023 0.038190052
0.15392241 0.48246604 0.038196284
0.15927833 0.48241526 0.038225815
0.12047988 0.48615766 0.038407229
0.12560561 0.48608452 0.038440794
0.12703595 0.4860397 0.038461264
0.14030892 0.48605412 0.038467653
0.11747402 0.48966557 0.038767558
0.11855152 0.4896825 0.038755827
0.12267131 0.48974216 0.038727298
0.13225529 0.48967963 0.038739957
0.14084187 0.48965329 0.038780093
0.14520386 0.4896701 0.038764022
0.15053809 0.48967057 0.038776629
0.12148094 0.49287736 0.038214214
0.15423676 0.49287236 0.038247436
0.15865633 0.49289227 0.038227566
0.12230438 0.49641687 0.03873647
0.12620509 0.4964872 0.038713206
0.12983018 0.49639642 0.038745258
0.13522765 0.49640226 0.038734782
0.13665783 0.49640507 0.038725991
0.13705179 0.49641848 0.038724829
0.1413309 0.49638098 0.038757555
0.1445947 0.49638772 0.038760129
0.14875096 0.49641442 0.038736373
0.14964941 0.49638569 0.03876153
0.1500645 0.49638623 0.0387589
0.15429142 0.49640441 0.03875709
0.15523708 0.49641967 0.038736042
0.15723568 0.49641818 0.038730588
0.15870595 0.49638921 0.038770251
0.1154452 0.49959165 0.038343485
0.1194371 0.49956191 0.038390007
0.12552652 0.49957466 0.038356122
0.12876597 0.49963164 0.03834109
0.12984133 0.49956912 0.038394947
0.14782894 0.49954724 0.038412679
0.14844322 0.49959242 0.038369276
0.15294918 0.49963707 0.03832316
0.15936685 0.49958551 0.038370151
0.12370613 0.50272882 0.038093064
0.13229305 0.50273675 0.038098961
0.13916677 0.50273013 0.038088597
0.14785084 0.50272167 0.038092684
0.14817861 0.50270748 0.038109776
0.15212908 0.50274402 0.038078498
0.15787581 0.50272369 0.038107131
0.11841303 0.50308287 0.038992267
0.12667599 0.50313032 0.038960811
0.12708923 0.50308478 0.038988005
0.1298863 0.50314492 0.038999666
0.13064709 0.50312221 0.038991746
0.13462076 0.50312179 0.03899119
0.15441209 0.50310934 0.038993292
0.11440757 0.50617194 0.038831461
0.1195187 0.50621206 0.038780116
0.12464368 0.50624323 0.03878472
0.12949738 0.50619483 0.038808353
0.1303893 0.50620383 0.038831472
0.13346365 0.50621188 0.038817834
0.13435933 0.50619698 0.038823634
0.13764203 0.5061996 0.038816478
0.13851973 0.50618732 0.038830504
0.1393944 0.50622445 0.038813997
0.14465833 0.50622857 0.038798753
0.14506522 0.50621873 0.038815565
0.14862037 0.50625157 0.038774468
0.15169522 0.50619823 0.038823448
0.15245527 0.50623155 0.038783669
0.15316385 0.50623703 0.038778603
0.11080113 0.50936246 0.038629256
0.11166668 0.50932413 0.038658548
0.11221781 0.50930762 0.038666714
0.11838329 0.50935984 0.038643789
0.11938763 0.50932777 0.038666829
0.12298983 0.50933623 0.038665641
0.12355766 0.50931883 0.038685139
0.12447599 0.5093165 0.038668368
0.12842366 0.50931501 0.038682785
0.12950552 0.50932682 0.038670447
0.13040549 0.50936925 0.038611978
0.13343868 0.50938427 0.038639288
0.13668004 0.50929809 0.038691636
0.13740861 0.50934947 0.038654536
0.13833848 0.50935936 0.038648564
0.14243349 0.50933325 0.038655594
0.14353397 0.50932908 0.038647782
0.14478427 0.50932509 0.038653355
0.14570618 0.50929332 0.038685858
0.14766419 0.50931996 0.038679618
0.14854947 0.50930214 0.038685378
0.15179807 0.5093075 0.038682483
0.15233648 0.50930989 0.038695034
0.15650001 0.50931668 0.038678549
0.10977113 0.51246297 0.038573395
0.11034733 0.51242101 0.03858839
0.11773106 0.51242667 0.038596872
0.11848262 0.51243633 0.038582783
0.11901432 0.51247561 0.038566563
0.12241781 0.51245642 0.03855997
0.12319744 0.51245546 0.038541351
0.12763891 0.51248133 0.03855101
0.13283634 0.51244277 0.038570296
0.13354784 0.51245677 0.03858979
0.13657781 0.51247293 0.038585264
0.14091787 0.51244599 0.038598038
0.14153475 0.51242304 0.038594522
0.14271939 0.51246583 0.038584247
0.14780879 0.51243097 0.0385882
0.14852992 0.5124613 0.038583212
0.15157092 0.51246715 0.038565498
0.15212891 0.51250446 0.038531739
0.15482795 0.51241815 0.038615819
0.15541047 0.51246178 0.038577255
0.1564756 0.5124765 0.038551662
0.11261889 0.51550591 0.038593244
0.113556 0.51559675 0.038551193
0.11459923 0.51556623 0.038553275
0.11552441 0.51553583 0.038569953
0.11753377 0.51559126 0.038533829
0.11838818 0.51555288 0.038582552
0.12184569 0.51558524 0.038543727
0.12253562 0.51555192 0.038572323
0.12648365 0.51555562 0.03857654
0.12720513 0.51552957 0.038599081
0.12832111 0.51553297 0.03856995
0.13154706 0.51553357 0.038576797
0.13261318 0.51553762 0.038597286
0.13332686 0.51557589 0.03854372
0.13653424 0.51558286 0.038571123
0.13748723 0.51560712 0.038533837
0.13979158 0.51553178 0.038587537
0.14051831 0.51554644 0.038578793
0.14143217 0.51559997 0.03854255
0.14554235 0.51555955 0.038560346
0.14647329 0.51555371 0.038560431
0.14735577 0.5155524 0.038556837
0.14845076 0.51553404 0.038572025
0.15149873 0.51554096 0.038584884
0.15220594 0.51551586 0.038595241
0.15453988 0.51555622 0.038562518
0.15559638 0.51554739 0.038597703
0.15922442 0.51556468 0.038559444
0.11085179 0.51862466 0.038640346
0.11179572 0.51866341 0.03860265
0.11234561 0.51866049 0.038620971
0.12137091 0.51862538 0.038635101
0.12210685 0.51864398 0.038618289
0.12551144 0.51864189 0.038616445
0.12643394 0.51865888 0.038579989
0.12712696 0.51865971 0.038591433
0.13159356 0.51868314 0.038599502
0.13234448 0.51865101 0.038620122
0.13580334 0.51866198 0.038587183
0.13663095 0.5186491 0.038622029
0.13717577 0.51864773 0.038639419
0.13968155 0.51869309 0.038597222
0.14041129 0.51865292 0.038631391
0.14440408 0.51864064 0.038633794
0.14546826 0.51862776 0.038644105
0.14634535 0.51866364 0.038628254
0.15089735 0.51860833 0.038646795
0.15143085 0.51864964 0.03862096
0.15216452 0.51865488 0.038629901
0.15463024 0.51861137 0.038650554
0.15540278 0.51869619 0.038579721
0.11164209 0.52171624 0.038766462
0.11219057 0.52169943 0.038788501
0.11548781 0.52170312 0.038755111
0.11661932 0.52174056 0.03874062
0.11750096 0.52176571 0.03871258
0.11838111 0.52172506 0.038736388
0.11966014 0.52170193 0.038759757
0.12058744 0.52175927 0.038713988
0.12131721 0.5217489 0.038720265
0.12493411 0.52178472 0.038710631
0.12561426 0.52173245 0.0387398
0.12629762 0.52173412 0.038736064
0.12954867 0.52172709 0.038743194
0.13045317 0.52171338 0.038765736
0.13120711 0.52171159 0.038760222
0.13498956 0.521703 0.038752496
0.13564801 0.52171659 0.03877423
0.1365754 0.5217399 0.038729522
0.13995215 0.52175665 0.038734794
0.14052725 0.52178848 0.03871407
0.14392665 0.52171075 0.038748987
0.14449158 0.52176094 0.038729053
0.1485846 0.52173829 0.038734496
0.15075463 0.52171981 0.038730476
0.15150261 0.52172458 0.038732558
0.15582308 0.52168334 0.038775928
0.11205286 0.52480578 0.038925081
0.11467111 0.52477717 0.038930587
0.11537135 0.52480793 0.038913734
0.11606446 0.52480042 0.038930442
0.12585407 0.52481937 0.038912971
0.12985837 0.52479869 0.038900446
0.13021776 0.52480018 0.038876012
0.13451061 0.52482218 0.038900919
0.14056879 0.52479303 0.0389437
0.14885414 0.52477443 0.03894484
0.14918438 0.52479231 0.038947068
0.1555571 0.52480042 0.038934354
0.15780622 0.52448857 0.038007211
0.15897039 0.52484828 0.038878191
0.11158204 0.5276202 0.038197957
0.11442247 0.52761507 0.038225546
0.11518517 0.52761507 0.038221277
0.11806396 0.52763581 0.038185593
0.11957291 0.52759862 0.038218837
0.12048218 0.52766657 0.038176652
0.12135753 0.52763045 0.038187429
0.12245283 0.52760041 0.038206495
0.12355104 0.52762377 0.038198367
0.12431002 0.52767128 0.038155958
0.12792403 0.52766085 0.038185455
0.12878782 0.52763146 0.038193267
0.12927431 0.52761042 0.038213853
0.1321649 0.52763236 0.038171627
0.13359857 0.52761161 0.038219269
0.13433495 0.52760875 0.038215213
0.13774085 0.52760452 0.038207285
0.13865626 0.52760375 0.038219288
0.13973802 0.52762341 0.038201623
0.14273819 0.52760881 0.0382296
0.14346522 0.52766979 0.038187247
0.14672822 0.52759147 0.03822602
0.14765048 0.5276469 0.038195603
0.14800218 0.52765989 0.038183004
0.15156436 0.52763307 0.038203761
0.15248936 0.52762109 0.038193766
0.1534059 0.52761805 0.038193204
0.15447339 0.52761662 0.038190104
0.15769953 0.52760404 0.038224991
0.15809411 0.52760732 0.038215835
0.11054963 0.53068835 0.038469631
0.11471468 0.530671 0.038489688
0.11504021 0.53066218 0.038503051
0.12881249 0.53066415 0.038508534
0.13335103 0.53067482 0.03847396
0.13846114 0.53069651 0.03850187
0.14352378 0.53068268 0.038511291
0.14714557 0.53066111 0.038527653
0.15148187 0.53065026 0.038525961
0.10874778 0.53372502 0.038870413
0.11492375 0.5337019 0.038881842
0.11383307 0.53655297 0.03829604
0.12126675 0.53651708 0.038342416
0.13645476 0.53653836 0.038312692
0.14967269 0.53657746 0.038313452
0.1551415 0.53649151 0.038364191
0.15727493 0.54237008 0.038420711
0.11060783 0.54525304 0.038023159
0.12031293 0.54521358 0.038049985
0.12177959 0.5452404 0.038006093
0.12500945 0.54521942 0.038048103
0.12865612 0.5451985 0.038035661
0.13014871 0.54527128 0.038006499
0.13193908 0.54521132 0.038026541
0.13227454 0.54519832 0.038034655
0.13301829 0.54519272 0.038053636
0.14361113 0.5452112 0.038051389
0.14738399 0.54521906 0.038034339
0.15654969 0.54519755 0.038051326
0.15708253 0.54520893 0.03803518
0.11059335 0.551054 0.038416702
0.15168443 0.55103159 0.038454272
0.11040229 0.55387318 0.038242135
0.1502049 0.55390501 0.038231585
0.15579298 0.55389786 0.03822222
0.15611425 0.55388498 0.038242619
0.1498518 0.55675113 0.038114332
0.15271726 0.55679166 0.038067274
0.15303671 0.55677998 0.038089179
0.14712051 0.55960298 0.038022935
0.15180066 0.55959058 0.038039062
0.15217423 0.55960357 0.038023952
0.15682337 0.55960459 0.038040347
0.11285716 0.56532341 0.038044613
0.11337012 0.56532234 0.038028646
0.15482008 0.56533355 0.038027991
0.15610576 0.56532824 0.038008444
0.15516558 0.56821024 0.038086258
0.15540674 0.58845264 0.038292523
0.18581995 0.24185091 0.039196853
0.20351362 0.24188691 0.039151724
0.20597085 0.24184483 0.039199907
0.11112928 0.24272549 0.039552528
0.12601763 0.24268621 0.039608739
0.134978 0.2426734 0.039619811
0.14427653 0.2426616 0.039652381
0.15688118 0.2426818 0.039620075
0.11513558 0.25560087 0.039334033
0.18078926 0.25556189 0.039377265
0.19878444 0.25638694 0.039795067
0.2064293 0.25638539 0.039810836
0.11656144 0.2683872 0.039551131
0.19019696 0.280375 0.039726164
0.11265376 0.29071784 0.03926279
0.11319128 0.29072219 0.039261471
0.17110252 0.2907331 0.039245319
0.17579743 0.29074275 0.039226919
0.18087798 0.29073137 0.039233092
0.18469393 0.29078931 0.039198089
0.1856699 0.29077691 0.039188813
0.19038063 0.29075694 0.03921498
0.19141772 0.29077983 0.039187182
0.19601226 0.29072857 0.039260492
0.20146868 0.29071873 0.039273199
0.20366448 0.29081881 0.039143842
0.11174899 0.29146397 0.039801091
0.11251149 0.29148591 0.039786682
0.11386734 0.29149538 0.039781764
0.175589 0.29154527 0.039709654
0.17729068 0.29148328 0.039757311
0.18408969 0.29152149 0.039729387
0.1855385 0.29154474 0.039700318
0.19018534 0.29152095 0.039731886
0.1936757 0.29149985 0.039726079
0.19428372 0.2915324 0.039726429
0.19548661 0.29150617 0.03975502
0.19932282 0.29153955 0.039712645
0.20616853 0.29149848 0.039735973
0.20726037 0.29148912 0.039750189
0.14923733 0.30105555 0.039108191
0.15714544 0.30103678 0.039097667
0.16493389 0.30107415 0.039080478
0.16792345 0.30180311 0.039635796
0.15198037 0.31197429 0.039931539
0.16597128 0.31126398 0.039349448
0.16814241 0.31129152 0.039332252
0.15013003 0.312029 0.03987807
0.1667484 0.31202513 0.039883282
0.16747859 0.31201267 0.039889771
0.16692171 0.32066852 0.039388768
0.13379368 0.32146704 0.039912447
0.16701555 0.32925856 0.039166659
0.16301909 0.33003241 0.039744914
0.15629768 0.33855557 0.039793272
0.16529346 0.34631681 0.039560109
0.16606712 0.34629619 0.039585229
0.14221823 0.35397482 0.039629932
0.15953732 0.3540079 0.039557029
0.16053042 0.36097211 0.039169472
0.12310556 0.36162442 0.039836779
0.11499617 0.37461793 0.039159913
0.11857978 0.37467009 0.039147176
0.13178581 0.37468135 0.039134685
0.14160496 0.37533391 0.039795928
0.1467534 0.37532115 0.039812144
0.15920684 0.37530959 0.03983473
0.14239782 0.38141829 0.03943393
0.15862992 0.38138181 0.039491508
0.16271609 0.3874383 0.039320447
0.16384465 0.38742858 0.039306469
0.12614289 0.394135 0.039954707
0.13841501 0.39413679 0.039945345
0.15509397 0.39948124 0.039423227
0.1618489 0.39943647 0.039459407
0.11557972 0.40471989 0.039106529
0.12168252 0.40479857 0.039050501
0.14857608 0.40479547 0.039060261
0.15857548 0.40473616 0.039089452
0.16087714 0.40477329 0.039061777
0.16201809 0.40479875 0.039017472
0.11370486 0.40542841 0.03976116
0.14428234 0.4054209 0.039760325
0.1532563 0.405451 0.039744232
0.15648976 0.4053694 0.039824966
0.12382933 0.41061872 0.039606694
0.14507535 0.4106282 0.039611157
0.14935952 0.4106347 0.039596707
0.15511191 0.41584647 0.039563078
0.16628066 0.41579914 0.039602421
0.15587738 0.42099601 0.039661698
0.13930544 0.42102116 0.039667837
0.13388464 0.42615253 0.039913684
0.14465556 0.42610407 0.03995626
0.14734346 0.4261378 0.039942913
0.15156388 0.42612666 0.039919216
0.15220937 0.42611009 0.039941791
0.15653497 0.42610455 0.039936773
0.11866948 0.43062878 0.039553117
0.12275591 0.43063575 0.03955492
0.13132885 0.43068111 0.039517447
0.13496101 0.43059713 0.039570939
0.1353668 0.43061775 0.039560515
0.14111882 0.43060499 0.039576076
0.16369838 0.43063331 0.039538212
0.12335223 0.43509007 0.039306629
0.14970654 0.43506271 0.039341137
0.11833096 0.43949157 0.039211951
0.13277271 0.43955034 0.039166268
0.14283463 0.43950373 0.039200172
0.15003201 0.43953526 0.039176743
0.15668312 0.43948102 0.039225753
0.1127651 0.44006562 0.03999364
0.11891177 0.44007087 0.039978318
0.12449551 0.44007748 0.039981652
0.13731408 0.44013602 0.039952505
0.15136606 0.44005448 0.039998107
0.13268477 0.44392675 0.039192542
0.14098403 0.4439252 0.039183494
0.1467199 0.44394881 0.039177164
0.13324937 0.44448364 0.039984722
0.14731005 0.44449937 0.039969623
0.11849719 0.44826221 0.039341725
0.12854975 0.44831538 0.039289441
0.13263562 0.44832271 0.039291352
0.14196435 0.44835854 0.039264612
0.14234337 0.44830704 0.039281279
0.15382332 0.44829261 0.039324071
0.15854988 0.44831073 0.039282091
0.11940765 0.45264161 0.039521821
0.13277638 0.45264655 0.039518293
0.15190506 0.45266634 0.039505657
0.11676881 0.45692557 0.039878633
0.11711743 0.45696503 0.039861355
0.12393883 0.45691621 0.039907429
0.12437016 0.45695537 0.039866559
0.13276166 0.45643854 0.039036579
0.13481349 0.45695835 0.039848249
0.13881725 0.45695859 0.039879095
0.14252904 0.45647562 0.039005
0.14363781 0.45696139 0.039862063
0.14652103 0.45648867 0.03900294
0.14744604 0.4569298 0.039862219
0.1497995 0.45643616 0.039034057
0.15041453 0.45672727 0.039427966
0.15315276 0.45691758 0.039909121
0.15947172 0.45644778 0.039021477
0.11604628 0.46070826 0.039465845
0.1243057 0.46069533 0.039490048
0.13399285 0.46072406 0.039494302
0.13839939 0.46069139 0.039505027
0.14275059 0.46068984 0.03950619
0.15353355 0.46071833 0.039486915
0.15751442 0.46068454 0.039501749
0.12533411 0.46450996 0.03913755
0.13288841 0.46449339 0.039155148
0.13831848 0.46446329 0.039185438
0.14164469 0.46447515 0.039184183
0.14253998 0.46448845 0.039158445
0.14698231 0.4644978 0.039159592
0.150635 0.46452236 0.039137911
0.13349396 0.46500182 0.039984126
0.11854374 0.46868008 0.039858773
0.12109014 0.46864843 0.03983904
0.12540519 0.46864539 0.039871041
0.1326108 0.46868026 0.039846901
0.13338423 0.46864939 0.039858036
0.13871965 0.46865058 0.039870452
0.13966388 0.46866548 0.039848123
0.1426118 0.46816742 0.039009836
0.1554257 0.46864766 0.039860189
0.15860966 0.46865135 0.039855041
0.11813602 0.47234511 0.03977051
0.12611645 0.47236329 0.039758131
0.1329641 0.47236419 0.039745882
0.14321136 0.47236383 0.039732214
0.14708292 0.4723798 0.039726321
0.15316358 0.47231472 0.03978049
0.15676317 0.47235084 0.039748181
0.13026401 0.47598374 0.039777096
0.13819629 0.47599846 0.039763462
0.11195618 0.47603762 0.039702244
0.11227575 0.47602338 0.039717034
0.13750082 0.47601801 0.039746132
0.14283586 0.47601902 0.039758611
0.14395124 0.47603804 0.039732169
0.14690578 0.47601026 0.039760254
0.14725369 0.47600096 0.039772596
0.14803633 0.47604585 0.039734267
0.15719932 0.47608608 0.039698336
0.11534938 0.47967625 0.03983707
0.11894381 0.47967476 0.039826468
0.1239576 0.47968179 0.03983802
0.12505025 0.47969115 0.039808679
0.13066393 0.47966915 0.039834689
0.13407469 0.47971278 0.039802741
0.13843477 0.47970325 0.039792966
0.14280397 0.47968382 0.039811347
0.14331973 0.47967613 0.039813053
0.14780653 0.47968072 0.039809991
0.14814177 0.47968507 0.039809242
0.15184283 0.47967559 0.03981629
0.15254021 0.47967303 0.039825354
0.15690607 0.47965205 0.039831962
0.15723586 0.47963834 0.039847597
0.15977153 0.4796797 0.039802492
0.12765425 0.48286879 0.039086211
0.13629162 0.48288 0.03908357
0.13777608 0.48284018 0.039129872
0.14207727 0.4828518 0.039113108
0.14639992 0.4828828 0.039099429
0.14749214 0.48288256 0.039091147
0.15170348 0.48287833 0.039096974
0.11560333 0.48331714 0.039952207
0.11969835 0.48335147 0.039952494
0.12020406 0.48332411 0.039989121
0.12279052 0.48332745 0.03997729
0.12332997 0.48334432 0.039957341
0.12998784 0.48329055 0.039972503
0.13032389 0.4832921 0.039981876
0.13143694 0.48328197 0.039991673
0.14298722 0.48329198 0.039978456
0.143516 0.48334974 0.039939415
0.14797941 0.48331201 0.039977502
0.14840853 0.48328757 0.039981715
0.15244058 0.48332292 0.039953891
0.15657425 0.48332542 0.039966609
0.11376774 0.48652285 0.03932257
0.11848891 0.48649704 0.039324258
0.11919287 0.48649061 0.039354067
0.12245828 0.4864831 0.039352518
0.12780228 0.4864952 0.03935539
0.13450718 0.48648351 0.039351862
0.13682956 0.48648584 0.039339755
0.13758612 0.48653525 0.039300334
0.14087901 0.48650223 0.039330993
0.14160311 0.48651934 0.039297964
0.14227924 0.48651719 0.039310597
0.14663187 0.48650557 0.039323039
0.14733946 0.48649359 0.039327152
0.15165302 0.48649985 0.039322793
0.15568674 0.48648953 0.039333913
0.11327857 0.49006206 0.039680988
0.11451876 0.49008113 0.039652292
0.11919975 0.49011278 0.03962164
0.12010655 0.4900707 0.039645139
0.12334445 0.49012858 0.03962969
0.12677079 0.49010599 0.039653499
0.1275124 0.49009842 0.039654896
0.12801516 0.49006516 0.039687019
0.13341841 0.49006861 0.039654985
0.1345149 0.49004102 0.039684154
0.13523999 0.49005449 0.039674528
0.1377072 0.49004102 0.039687257
0.1384398 0.49003571 0.03969878
0.1415109 0.4900496 0.039702907
0.14225835 0.49004203 0.039703351
0.14565733 0.49006182 0.039690454
0.14623418 0.49004555 0.039689694
0.15143052 0.49008536 0.039668113
0.15221235 0.49005985 0.039664894
0.1565623 0.49011296 0.039630562
0.15960932 0.490049 0.039694604
0.1129263 0.49325591 0.039135352
0.11757848 0.49327487 0.039147504
0.11831412 0.49324131 0.039172441
0.12279266 0.49325287 0.039176751
0.12329656 0.4932394 0.039196786
0.12582365 0.49326873 0.039171923
0.12640148 0.49324089 0.039180037
0.13095251 0.49320221 0.039195798
0.13159963 0.49324721 0.039181348
0.13781065 0.49325657 0.039174911
0.13811412 0.49324614 0.039176479
0.14137387 0.49330008 0.039116751
0.14465746 0.49325705 0.039163273
0.14538598 0.49327332 0.039138362
0.14968854 0.49332708 0.039114572
0.15041056 0.49326044 0.039155543
0.15111828 0.49324822 0.039159603
0.15576303 0.49325424 0.039159235
0.11246875 0.4967767 0.039664198
0.11322761 0.49677503 0.0396544
0.11664051 0.49675512 0.039692484
0.11738607 0.49676311 0.03966878
0.12241432 0.49676913 0.039675806
0.12331569 0.49681532 0.039611425
0.12675834 0.49683136 0.039626744
0.13050681 0.49681294 0.039647739
0.13124847 0.49680561 0.039648954
0.13769472 0.49677134 0.039653953
0.13862178 0.49674463 0.039681263
0.14183408 0.49673653 0.039697342
0.14216679 0.49671561 0.039714184
0.14544573 0.49675328 0.039696932
0.14939395 0.49676859 0.039684378
0.15068603 0.4967944 0.039643142
0.15480298 0.49680275 0.039668325
0.15594891 0.49676657 0.039659195
0.15627858 0.49678731 0.039658405
0.11273718 0.49998522 0.039274786
0.11597311 0.4999342 0.039279211
0.11633199 0.49993533 0.039254688
0.11701638 0.49992043 0.039304838
0.12077826 0.49996603 0.039275892
0.12146509 0.49995112 0.039296828
0.1259518 0.49991721 0.039308086
0.12650201 0.49993658 0.039317112
0.12953267 0.49995255 0.039312385
0.13027474 0.49992782 0.039316002
0.13101655 0.49990547 0.039328083
0.13387364 0.49992555 0.039325044
0.13464904 0.49990511 0.039323509
0.13548177 0.49993968 0.039319493
0.13639581 0.49994475 0.039303344
0.13712981 0.49991781 0.039304964
0.14148521 0.49994051 0.039310243
0.14236143 0.49991661 0.039326832
0.144734 0.49997115 0.039270561
0.14541808 0.49996012 0.039284404
0.14961708 0.49995959 0.039277975
0.15008855 0.49994904 0.039304599
0.15374896 0.49997032 0.039279617
0.15465057 0.49992895 0.039303977
0.15538347 0.49994111 0.039313275
0.16139346 0.49994785 0.039304323
0.15339744 0.50001121 0.039255906
0.11089903 0.50309235 0.039001763
0.11148739 0.50340819 0.039974216
0.1120773 0.5033958 0.039963625
0.11556777 0.50318289 0.039339259
0.11629561 0.50339478 0.039972499
0.11707023 0.50340933 0.039950393
0.1196641 0.50307149 0.039035134
0.12078875 0.50305557 0.03904232
0.12148452 0.50305665 0.039024737
0.12209499 0.5034343 0.039930828
0.12561592 0.50305474 0.039052971
0.12935847 0.50307947 0.039034564
0.13370359 0.50307667 0.039024126
0.13425031 0.503111 0.039003793
0.1352129 0.50323796 0.039505441
0.13968879 0.50307256 0.039006662
0.14035878 0.50306904 0.039012037
0.14145413 0.50305045 0.03902778
0.14227989 0.50337052 0.039984982
0.14466223 0.50305676 0.039043002
0.14525521 0.5032028 0.039519321
0.1460956 0.50306606 0.039028749
0.14859936 0.50306422 0.039054006
0.14921951 0.50303572 0.039061386
0.15280017 0.50306118 0.039038587
0.15353703 0.50304437 0.039046217
0.15409398 0.5030629 0.039019093
0.15763703 0.50308782 0.039034225
0.15837169 0.50309378 0.039031122
0.15935016 0.50323951 0.039487991
0.11489531 0.50650883 0.039757468
0.11542535 0.50654244 0.039740402
0.11602736 0.50657129 0.039732091
0.11996561 0.50653768 0.039697457
0.12063456 0.50653303 0.039739307
0.12548292 0.50653523 0.039747644
0.126394 0.50651187 0.039757367
0.14001906 0.50654346 0.039742067
0.14545676 0.50653255 0.039758794
0.15847558 0.50653446 0.039754614
0.11264315 0.50962406 0.039618459
0.11340031 0.50964749 0.039603841
0.11449835 0.50967085 0.039585914
0.11536777 0.50962853 0.039623212
0.12022007 0.50963342 0.039604772
0.12459826 0.50962222 0.039631657
0.12524703 0.50963545 0.039608959
0.1342532 0.50969791 0.039571859
0.1443345 0.50964868 0.039595515
0.14544147 0.50959653 0.039634656
0.15734696 0.50961626 0.039629493
0.11950928 0.51278555 0.039516158
0.12413201 0.51273704 0.039530702
0.12858337 0.51276624 0.039523173
0.12914127 0.51274055 0.039539158
0.13412142 0.51273948 0.039561812
0.13755882 0.51274669 0.039542906
0.14224756 0.51273674 0.039553057
0.14314249 0.51276237 0.039542384
0.14928353 0.51272976 0.039557133
0.15252212 0.51278293 0.03951912
0.15658227 0.51278049 0.039498582
0.11648664 0.51582122 0.039536908
0.12326032 0.51581967 0.039538976
0.12764162 0.51582503 0.039539367
0.1280556 0.51581526 0.03954934
0.15608713 0.5157975 0.039563969
0.11133283 0.51889873 0.039587818
0.11272591 0.51892203 0.039587725
0.11307985 0.51893032 0.039567582
0.12272796 0.5189482 0.039568741
0.1265198 0.5189203 0.039557464
0.15595341 0.51895261 0.039569896
0.1110495 0.55966651 0.039000034
0.15661728 0.56542444 0.039974529
0.12673399 0.24346119 0.040079515
0.16687596 0.24345261 0.040067408
0.20177004 0.24347734 0.040035281
0.20635551 0.24346423 0.040108718
0.10805839 0.24427271 0.040507965
0.11797783 0.24427968 0.040538128
0.1184122 0.24423492 0.040590052
0.12025562 0.24430859 0.040488694
0.17220229 0.24431175 0.04047716
0.20436308 0.24427283 0.040496737
0.1127272 0.25798208 0.040719219
0.12996069 0.25798208 0.040751468
0.14075679 0.25799447 0.040723477
0.14552358 0.2579959 0.040710926
0.14942619 0.25724465 0.040206004
0.1670309 0.25719041 0.040256523
0.17268804 0.25796646 0.040737487
0.17725682 0.25793779 0.040802252
0.18875861 0.25715047 0.040317398
0.18947986 0.25795645 0.040786598
0.19636625 0.25797623 0.040731288
0.1995126 0.25717419 0.040263135
0.19706857 0.25800407 0.040721305
0.2050373 0.258012 0.040702637
0.12703431 0.27077758 0.040972948
0.14034095 0.27004218 0.040453453
0.14185488 0.27076113 0.040994585
0.14218703 0.27075183 0.04099391
0.15067232 0.27077025 0.040990014
0.19164538 0.27003181 0.04043876
0.19302121 0.27082318 0.040936198
0.20430484 0.2812286 0.040129744
0.11247566 0.29223716 0.040315032
0.11896375 0.29229647 0.040230662
0.17349213 0.29228663 0.040231366
0.1779936 0.29227006 0.040261354
0.18083164 0.29234022 0.040214445
0.18125558 0.29231745 0.040218338
0.19498658 0.29231119 0.040240284
0.19531134 0.29229581 0.040256809
0.20054382 0.29228663 0.040239543
0.20690638 0.29228657 0.040238775
0.20728153 0.29226381 0.040268648
0.11496267 0.29305047 0.04078979
0.16253662 0.2930482 0.040769581
0.16797644 0.29301828 0.040797167
0.16870889 0.29306686 0.040736549
0.16941485 0.29312176 0.040679231
0.17331818 0.29304957 0.040776141
0.20040303 0.29306018 0.040749546
0.20153397 0.29303581 0.040779103
0.1195702 0.31275773 0.040500637
0.13282952 0.31275862 0.040465884
0.15088022 0.31277794 0.040436972
0.16823509 0.31276995 0.040440608
0.13146189 0.31355476 0.040950656
0.13686168 0.3135519 0.040948022
0.13725474 0.31353593 0.040963389
0.14224812 0.31354392 0.040957101
0.15194449 0.31352919 0.040978711
0.15970057 0.32221812 0.040441684
0.158485 0.33929414 0.040359329
0.13041809 0.34775579 0.04075022
0.13145295 0.34771866 0.040791128
0.15593866 0.34775794 0.040743396
0.16634282 0.3477596 0.040753148
0.12742347 0.35468787 0.040209644
0.14399779 0.35536331 0.040885631
0.12991363 0.36235183 0.040468935
0.13894051 0.36234701 0.040470071
0.15981442 0.36233395 0.040459052
0.11973029 0.36993045 0.040948719
0.12370121 0.36925232 0.040312033
0.12895629 0.3699311 0.040985566
0.1295397 0.36991221 0.040984418
0.13335678 0.36994606 0.040951639
0.14021951 0.36915678 0.040401496
0.15241286 0.36914665 0.040436596
0.1480093 0.37599277 0.040468354
0.13657165 0.38279599 0.040763848
0.14379454 0.38275772 0.040799573
0.14743742 0.3820672 0.040139169
0.15963301 0.38205624 0.040171951
0.12198403 0.38882226 0.040608015
0.12491959 0.38882309 0.040610753
0.14216462 0.38885176 0.040576417
0.14574084 0.38881886 0.040603861
0.16263449 0.38877749 0.040663749
0.16301334 0.38878715 0.040661037
0.11671901 0.39483106 0.040632334
0.14364633 0.39484495 0.040601831
0.15518603 0.39483643 0.040617868
0.11938137 0.40015483 0.040112931
0.12750071 0.40078849 0.040836286
0.13477185 0.40073717 0.040869452
0.14481974 0.40077668 0.040819936
0.15635556 0.40073663 0.040859167
0.16284087 0.4001255 0.040149201
0.11648643 0.40599138 0.040540073
0.133068 0.40603089 0.040526703
0.13625526 0.40603924 0.040528502
0.14562878 0.40602636 0.040511705
0.15029702 0.40603071 0.040503148
0.15387771 0.40606946 0.04047773
0.1208787 0.41133708 0.04026838
0.1552183 0.41126263 0.040321469
0.11479476 0.41647661 0.040291365
0.12557727 0.41643977 0.0403031
0.12663132 0.4164232 0.040330213
0.12880251 0.41646427 0.040303778
0.13167101 0.41647989 0.040277224
0.14208066 0.41645944 0.040324077
0.15573478 0.41647524 0.040274736
0.160088 0.41648144 0.040290374
0.12697735 0.42166591 0.040387485
0.13273153 0.42159331 0.040431712
0.13307115 0.42158729 0.040434439
0.13601622 0.42159748 0.040436599
0.13992956 0.42162424 0.040408149
0.14026678 0.42160285 0.040427733
0.1439018 0.42164135 0.040390663
0.15145439 0.42159557 0.040433116
0.15252927 0.42167008 0.040388022
0.15646607 0.42161149 0.040408842
0.11897016 0.42672557 0.040694457
0.13197795 0.42670685 0.040703937
0.13447997 0.42672586 0.040697563
