# .PCD v0.7 - Point Cloud Data file format
VERSION 0.7
FIELDS x y z
SIZE 4 4 4
TYPE F F F
COUNT 1 1 1
WIDTH 1357
HEIGHT 1
VIEWPOINT 0 0 0 1 0 0 0
POINTS 1357
DATA ascii
-0.023220742 -0.29241732 0.32153386
-0.02247183 -0.29242393 0.32153526
-0.021753388 -0.29241884 0.3215414
-0.007436947 -0.28642982 0.32180148
-0.0066946158 -0.28643769 0.32182193
-0.12622499 -0.32239175 0.3222062
-0.12567383 -0.32239202 0.3222051
-0.10730009 -0.31818467 0.32253847
-0.10639729 -0.31816646 0.32251668
-0.10551581 -0.31817004 0.32251969
-0.095234498 -0.31470367 0.32216105
-0.094499081 -0.31471014 0.32215464
-0.093614139 -0.31471404 0.32214561
-0.092542015 -0.31467977 0.32213601
-0.091828831 -0.31466511 0.32212988
-0.091111317 -0.31393394 0.32271853
-0.09039095 -0.31395239 0.32272351
-0.089682013 -0.31396225 0.32272434
-0.081156291 -0.31044158 0.32220083
-0.074364856 -0.30967879 0.32275048
-0.073998138 -0.3096894 0.32275724
-0.066190153 -0.30613762 0.32208031
-0.065650389 -0.30615816 0.32208893
-0.064744271 -0.30541173 0.32265049
-0.061146565 -0.30543175 0.32268614
-0.06061846 -0.30543399 0.32267258
-0.047230575 -0.30033174 0.32298043
-0.046497021 -0.30033004 0.32297337
-0.045410302 -0.30034319 0.32297364
-0.036475223 -0.29674175 0.32203951
-0.035229594 -0.29673713 0.32204583
-0.032129537 -0.29601225 0.32259437
-0.031761881 -0.29600337 0.32258743
-0.031269062 -0.29597944 0.32256627
-0.02102547 -0.29163507 0.32204649
-0.02049515 -0.29161227 0.32202697
-0.019770065 -0.29159188 0.32201082
-0.018291231 -0.29083085 0.32251185
-0.017385282 -0.29086012 0.32251903
-0.0053988914 -0.28570309 0.32235131
-0.0045118909 -0.28570724 0.32235068
0.015878344 -0.27970195 0.32241347
-0.1012376 -0.31676292 0.32375622
-0.10051906 -0.31675792 0.32373482
-0.099598922 -0.3167468 0.3237147
-0.098884314 -0.3167229 0.32372236
-0.088583708 -0.31325635 0.3233088
-0.087678976 -0.31325436 0.32330173
-0.08646927 -0.31250149 0.32388714
-0.085727081 -0.31249535 0.32388863
-0.07328219 -0.30895621 0.3233287
-0.072743073 -0.30897772 0.32333797
-0.071478263 -0.30826673 0.32392573
-0.070757076 -0.30824709 0.32392803
-0.059366018 -0.3046411 0.32319036
-0.058634032 -0.3046214 0.32318559
-0.057751365 -0.30388081 0.32375023
-0.032140024 -0.29525843 0.32312059
0.013457508 -0.27813706 0.32339746
0.014549259 -0.27735624 0.32387435
-0.13058834 -0.32372764 0.3242645
-0.12628718 -0.323726 0.32425049
-0.1253905 -0.32301727 0.32488418
-0.12448972 -0.32302067 0.32489079
-0.12358557 -0.32302499 0.3248834
-0.11547326 -0.32026243 0.32404149
-0.11457843 -0.3202517 0.3240436
-0.11346826 -0.32021537 0.32401216
-0.11256526 -0.32022756 0.32403284
-0.081446022 -0.3117626 0.32447562
-0.080717683 -0.31175444 0.32447097
-0.070060238 -0.30750343 0.324503
-0.052339111 -0.30241886 0.3248921
-0.051779497 -0.30241966 0.32489192
-0.040326599 -0.29843336 0.32432109
-0.039634287 -0.29881194 0.3240397
-0.038553249 -0.29844841 0.32432392
-0.010194711 -0.2877835 0.32458729
-0.0095105376 -0.28775561 0.32457232
-0.0089661423 -0.28774312 0.32456225
0.0033430553 -0.28178051 0.32480535
0.0048157908 -0.28180486 0.32480121
0.015672373 -0.27658257 0.3243649
0.016392885 -0.27659187 0.32437259
0.017470848 -0.27656764 0.32434639
0.018523576 -0.27654701 0.3243283
-0.12234518 -0.32233533 0.32552165
-0.12145399 -0.32231539 0.32550517
-0.12075059 -0.32229215 0.32549238
-0.1032672 -0.31811008 0.32590568
-0.10273358 -0.31811404 0.32590607
-0.080031112 -0.31102681 0.32506356
-0.079449147 -0.31105354 0.32507986
-0.078927204 -0.31106642 0.32507837
-0.078202426 -0.31033665 0.32566828
-0.077486224 -0.31034002 0.325665
-0.065199502 -0.30674279 0.32504705
-0.064650647 -0.30675286 0.32506064
-0.063564979 -0.30601671 0.32563499
-0.051060282 -0.30166459 0.32544965
-0.050532158 -0.30166531 0.32544881
-0.049621824 -0.30167595 0.32545611
-0.048743822 -0.30166727 0.32545954
-0.034562085 -0.29656109 0.32569587
-0.033644475 -0.29659563 0.3257091
0.0058981772 -0.28102341 0.32530513
0.0066094124 -0.28100654 0.32531449
0.0073211547 -0.28100455 0.32533506
0.0085972212 -0.280233 0.3258366
0.0093253367 -0.28025076 0.32583165
-0.13622409 -0.32509917 0.32627955
-0.13585123 -0.32509616 0.32626948
-0.13081698 -0.32510948 0.32627556
-0.13012159 -0.32440981 0.32691514
-0.1295937 -0.32440853 0.32690883
-0.11952121 -0.32158276 0.32611957
-0.1184248 -0.32160145 0.32613751
-0.11735028 -0.32162634 0.32613724
-0.10436524 -0.31739384 0.32650894
-0.10366662 -0.3174004 0.32651752
-0.086033598 -0.31312701 0.3267307
-0.085660905 -0.3131339 0.32673225
-0.076244459 -0.30955172 0.326213
-0.075704552 -0.30953354 0.32620689
-0.074976079 -0.30879998 0.32679117
-0.070676118 -0.30885845 0.3268449
-0.062328212 -0.30526906 0.32621455
-0.058174085 -0.30525544 0.32617763
-0.057288237 -0.30452752 0.32676274
-0.056381751 -0.30455267 0.32677421
-0.044234477 -0.30019155 0.32657167
-0.043513864 -0.30017278 0.32656512
-0.042428225 -0.30016688 0.32657349
-0.030229179 -0.29502723 0.32673544
-0.029519571 -0.29502809 0.3267391
-0.028603535 -0.2950533 0.32675213
-0.015682371 -0.28988615 0.32678729
-0.0031274301 -0.28468594 0.32662514
-0.002397707 -0.28469169 0.32662472
-0.001498107 -0.28469962 0.32662815
-0.00097421888 -0.28471535 0.3266336
0.010462156 -0.27950037 0.32633075
-0.12836863 -0.32371238 0.32754686
-0.097578973 -0.31596184 0.32774243
-0.084586792 -0.31240395 0.32730436
-0.083331138 -0.31169128 0.32790929
-0.069602571 -0.3081108 0.32742617
-0.068859503 -0.30808356 0.32740164
-0.068178207 -0.30734795 0.32796866
-0.067644089 -0.3073557 0.32795286
-0.055340175 -0.30380952 0.32734576
-0.054611925 -0.30378971 0.32733834
-0.053870499 -0.30378267 0.32733276
-0.027523749 -0.29429632 0.32730657
-0.026619762 -0.2942923 0.32731947
-0.025901387 -0.29428861 0.3273254
-0.025165895 -0.29353848 0.3278679
-0.024467373 -0.2935572 0.3278693
-0.014394362 -0.28911248 0.32732335
-0.013468728 -0.28912699 0.3273319
-0.012486284 -0.28914866 0.32733297
-0.011780445 -0.2891497 0.32732406
-0.00021065469 -0.28394306 0.32714859
0.00049115933 -0.28392109 0.32714233
0.0013840068 -0.28390309 0.32714027
0.0026844258 -0.28313762 0.32765189
0.0032207759 -0.28314391 0.32765174
0.0041120942 -0.28315666 0.32764879
-0.13630266 -0.3264913 0.32824579
-0.13524881 -0.32579851 0.32889301
-0.13454306 -0.32579333 0.32890061
-0.12734447 -0.32300952 0.32818371
-0.12697576 -0.32300764 0.32818019
-0.11054546 -0.31952655 0.32802522
-0.10932215 -0.31881225 0.32866371
-0.10842817 -0.31878647 0.32864606
-0.10751709 -0.31876576 0.32862103
-0.10662224 -0.31876159 0.32861868
-0.10589118 -0.31877849 0.32863206
-0.096535221 -0.31525084 0.32836348
-0.095602788 -0.31526098 0.32835725
-0.094535552 -0.31526619 0.32834682
-0.093463451 -0.31523219 0.32833713
-0.092382699 -0.31521782 0.32833448
-0.092412852 -0.31450322 0.328944
-0.091508508 -0.31451768 0.32895291
-0.090956949 -0.31453043 0.32895157
-0.066729292 -0.30664638 0.32854319
-0.062822029 -0.3066588 0.328592
-0.03726675 -0.29767084 0.32841754
-0.036498252 -0.29791516 0.32823598
-0.02318437 -0.29281145 0.32841471
-0.022474274 -0.29279754 0.32841566
-0.021769352 -0.29276857 0.32839245
-0.020494564 -0.29199299 0.32891631
-0.019758981 -0.29199889 0.3289097
-0.0081731435 -0.28679463 0.32887122
-0.0074191224 -0.28681216 0.32889792
-0.0065003391 -0.28685617 0.3289285
-0.0058000181 -0.28685117 0.32892239
0.0070156408 -0.28158835 0.32871473
-0.13350111 -0.32512036 0.32956597
-0.10073182 -0.31738466 0.32987165
-0.099145278 -0.31737605 0.32990265
-0.090278052 -0.31381744 0.32956618
-0.08952982 -0.31384286 0.32956558
-0.075460963 -0.31021351 0.32910335
-0.074928217 -0.31022963 0.32911441
-0.074224062 -0.30951318 0.329714
-0.073883727 -0.30952331 0.32971662
-0.062071569 -0.30593896 0.32917237
-0.061367676 -0.30557558 0.32945141
-0.060477413 -0.30517349 0.32971087
-0.047087859 -0.30081892 0.3296183
-0.046515733 -0.30082649 0.32961851
-0.04561216 -0.30084428 0.32962355
-0.032018818 -0.29641888 0.32933703
-0.031637434 -0.29641554 0.32932219
-0.032501843 -0.29570514 0.32992345
-0.031992644 -0.2956835 0.32990417
-0.019026214 -0.29125085 0.32944575
-0.018475905 -0.2912674 0.32944995
-0.017599458 -0.29129222 0.32947019
-0.004710421 -0.28607339 0.32942545
0.0099266227 -0.28087109 0.32921958
0.010680836 -0.28008735 0.32972765
0.01120744 -0.28006929 0.32972628
0.019767446 -0.27477184 0.32927591
0.020920176 -0.27400488 0.32979646
0.021635601 -0.27402803 0.32980219
-0.13244882 -0.32444531 0.33022329
-0.13194999 -0.32443911 0.33022299
-0.12760584 -0.3244378 0.3302049
-0.13125704 -0.32374424 0.33087593
-0.12657645 -0.32374573 0.33086601
-0.12586017 -0.32374513 0.33087289
-0.11541912 -0.32023489 0.33074847
-0.11454056 -0.3207176 0.33023301
-0.11353818 -0.32089877 0.33008975
-0.11280707 -0.32093507 0.33010268
-0.11193523 -0.32026669 0.33075252
-0.10149609 -0.31668493 0.33053127
-0.10097916 -0.3166827 0.33051151
-0.099518806 -0.3166534 0.33050647
-0.088286847 -0.31312671 0.33017141
-0.087775186 -0.31310931 0.33017001
-0.087113589 -0.31238896 0.33078498
-0.086716361 -0.3123889 0.33078608
-0.083278283 -0.31239223 0.33079121
-0.082598165 -0.31238514 0.3307898
-0.073142871 -0.30882245 0.33032885
-0.072609812 -0.30884424 0.33034003
-0.071550637 -0.30810285 0.33093852
-0.067422479 -0.30807644 0.3308993
-0.059410147 -0.30441579 0.33028227
-0.058519781 -0.30368382 0.33087695
0.012316408 -0.27928907 0.33023542
0.013578646 -0.27853051 0.33074656
-0.14043885 -0.32656547 0.33151838
-0.1251626 -0.32306173 0.33152977
-0.12462378 -0.3230612 0.33152452
-0.081359439 -0.31166449 0.33139905
-0.070682459 -0.30737045 0.33154368
-0.066522397 -0.30735004 0.33150592
-0.040584028 -0.29858521 0.33131245
-0.039508909 -0.29860374 0.33132395
-0.038781308 -0.29859611 0.33132687
0.014686801 -0.2777645 0.33126977
0.015041877 -0.27777636 0.33127481
0.016508343 -0.27697939 0.33175921
0.017577255 -0.27695969 0.33174172
-0.13923106 -0.32590458 0.33220935
-0.13851446 -0.32591671 0.33222067
-0.13764119 -0.32557079 0.33254558
-0.13171606 -0.32522738 0.33287996
-0.12339053 -0.32239011 0.3321816
-0.12251736 -0.32238814 0.33218139
-0.12179425 -0.32236105 0.33216053
-0.12058785 -0.32165754 0.33280626
-0.11949193 -0.32167503 0.33282542
-0.1184073 -0.32169196 0.33282891
-0.11751829 -0.32170999 0.33282024
-0.11696337 -0.32169956 0.33281618
-0.10308336 -0.31814751 0.33268884
-0.080283605 -0.31096756 0.33203
-0.079558291 -0.31098965 0.33203438
-0.078328125 -0.310287 0.33265191
-0.065476716 -0.30663285 0.33212504
-0.064398795 -0.30591843 0.33273116
-0.04863802 -0.30225188 0.33208263
-0.050614625 -0.30153215 0.33266693
-0.049551129 -0.30152687 0.33267257
-0.048853312 -0.30152288 0.3326748
-0.034124617 -0.29715541 0.33249214
-0.010431226 -0.28749061 0.33217698
-0.0095685795 -0.28746328 0.3321605
0.019427519 -0.2754187 0.3327826
-0.13085669 -0.32455185 0.33354527
-0.10453688 -0.31744659 0.33332202
-0.10345063 -0.31744352 0.33332369
-0.087050498 -0.31314102 0.33364564
-0.086724155 -0.31313974 0.33365098
-0.077257752 -0.3095378 0.3332364
-0.076413691 -0.30878544 0.33382991
-0.071358465 -0.30883339 0.3338812
-0.063493609 -0.30519307 0.33333257
-0.059227671 -0.30515301 0.33328569
-0.058306664 -0.30445528 0.3339082
-0.057601385 -0.30446947 0.33391961
-0.034461852 -0.29641399 0.33306682
-0.034830254 -0.29564378 0.33362561
-0.15618467 -0.33023688 0.33473146
-0.14403008 -0.32741472 0.33418563
-0.14350489 -0.32740718 0.33417511
-0.14260767 -0.32737371 0.33414793
-0.14189994 -0.32736328 0.33413437
-0.14427736 -0.32673818 0.33486435
-0.13779256 -0.3267231 0.33485389
-0.13019252 -0.32387066 0.33420891
-0.1295082 -0.32353741 0.33453506
-0.1287995 -0.32319665 0.33487186
-0.08602041 -0.31244117 0.33427903
-0.085653976 -0.312442 0.33426687
-0.084777251 -0.31172609 0.33487129
-0.070486009 -0.30811036 0.33449534
-0.05636007 -0.30376592 0.33452865
-0.055469379 -0.30374396 0.33452088
-0.043461531 -0.29932821 0.33442304
-0.042371895 -0.29932338 0.3344281
-0.03017845 -0.29414475 0.3347258
-0.029273618 -0.29416054 0.33473343
-0.028362369 -0.29417107 0.33475026
-0.012068807 -0.28897506 0.33491451
-0.0030256638 -0.2837114 0.33488002
-0.002490737 -0.28371751 0.33488289
-0.0015946802 -0.28372839 0.33488712
0.0096234605 -0.27844769 0.33472094
0.010024204 -0.27846384 0.33472341
0.014703258 -0.27846134 0.33472288
0.015374763 -0.27842847 0.33469298
-0.17011069 -0.33243629 0.3359037
-0.16973169 -0.33244589 0.33591065
-0.15729845 -0.32958332 0.33540508
-0.15656714 -0.32956907 0.33541349
-0.15532753 -0.32957879 0.33542663
-0.15440303 -0.32956573 0.33539948
-0.15346484 -0.3295635 0.33539283
-0.1528969 -0.32958636 0.3354027
-0.13677511 -0.32604843 0.33551967
-0.12812801 -0.32251433 0.33553377
-0.097305641 -0.31465152 0.33588606
-0.09639018 -0.31466028 0.33588621
-0.0954566 -0.31467465 0.33588132
-0.094418839 -0.31465113 0.33586437
-0.093700789 -0.31463337 0.3358627
-0.083882168 -0.31103069 0.33550489
-0.069398969 -0.30736801 0.33508605
-0.068375513 -0.30664527 0.33566582
-0.054405384 -0.30301082 0.33511496
-0.053492475 -0.30301154 0.33510986
-0.0525942 -0.30300272 0.33511072
-0.044191629 -0.29861823 0.33501273
-0.043822829 -0.29860377 0.33500609
-0.029462 -0.29340166 0.33529961
-0.027283262 -0.2934283 0.33533138
-0.026571929 -0.29342344 0.33534089
-0.025313204 -0.29269436 0.3359153
-0.02480422 -0.29270712 0.33591622
-0.015056616 -0.28820339 0.3354716
-0.014509553 -0.28819942 0.33547682
-0.01357612 -0.28821903 0.33548447
-0.012411851 -0.28824073 0.3354812
-0.00031656888 -0.28297591 0.33543324
0.00056678016 -0.28295162 0.33542776
0.0014570781 -0.28293878 0.33542681
0.0025594807 -0.28219324 0.33596826
0.0034768737 -0.28220585 0.33596587
0.0041855518 -0.28220335 0.33597144
-0.15734091 -0.32892925 0.33609983
-0.1522716 -0.32893214 0.33609781
-0.15154807 -0.32892871 0.33610892
-0.15033554 -0.32827562 0.33681297
-0.1494735 -0.32827017 0.33681545
-0.14857641 -0.32822528 0.33676839
-0.14638823 -0.32828403 0.3367922
-0.14584629 -0.32828319 0.336799
-0.1357348 -0.32537502 0.33619273
-0.13472393 -0.32470199 0.33687931
-0.11047437 -0.31828153 0.33610621
-0.10959043 -0.31827202 0.33611211
-0.10867272 -0.31824398 0.33609101
-0.10651731 -0.31823936 0.33608031
-0.10598069 -0.31825212 0.33608979
-0.10745241 -0.31753966 0.33672225
-0.10675621 -0.31753683 0.33671877
-0.094625771 -0.31397873 0.33651322
-0.092478298 -0.31392884 0.33650097
-0.083218299 -0.3103326 0.33614343
-0.077104665 -0.31028402 0.33612925
-0.076215908 -0.30958113 0.33675531
-0.063546248 -0.30596873 0.33632585
-0.062465798 -0.30526841 0.33693278
-0.03700538 -0.29712337 0.33617842
-0.036482859 -0.29712605 0.33618098
-0.037202366 -0.29639569 0.33675969
-0.024065875 -0.29196957 0.33648545
-0.023685237 -0.29197586 0.33648869
0.0049256291 -0.28143659 0.33651552
0.0054343054 -0.28142786 0.33652651
0.027179291 -0.2700775 0.33638307
0.027162308 -0.26929682 0.33688706
-0.17669669 -0.3339873 0.3377049
-0.15914318 -0.33047739 0.33799857
-0.14735198 -0.32757521 0.33745024
-0.14663374 -0.32760417 0.33747157
-0.13369523 -0.32404801 0.33757052
-0.12885356 -0.32405323 0.33755925
-0.091236681 -0.3132531 0.33714551
-0.09071593 -0.31325808 0.33714625
-0.090003416 -0.31257248 0.33778813
-0.089636818 -0.31258875 0.33778659
-0.075190149 -0.30889672 0.33739385
-0.061759342 -0.30456078 0.33753738
-0.045626972 -0.30014381 0.33751932
-0.031624246 -0.29565558 0.33731607
-0.032034945 -0.294927 0.33792061
-0.031653754 -0.29492402 0.33790591
-0.022631882 -0.29122689 0.33706185
-0.021560013 -0.29118809 0.33703372
-0.020308908 -0.29043311 0.3375898
-0.019379757 -0.29044807 0.33758089
-0.0064709592 -0.28524193 0.33772418
-0.0055866069 -0.28523377 0.33771178
-0.0047011618 -0.28521705 0.33768559
0.0065207751 -0.28067175 0.3370876
0.0074287755 -0.28068379 0.33708891
0.0074089728 -0.2799184 0.33763209
0.008161393 -0.27993685 0.33762729
-0.17751996 -0.33329821 0.33840299
-0.17693517 -0.33332807 0.33840674
-0.17120333 -0.33333659 0.33843282
-0.15874934 -0.33048543 0.33800122
-0.15955566 -0.32982066 0.33870211
-0.1326561 -0.3233923 0.33825374
-0.12818021 -0.32338384 0.33823481
-0.12781307 -0.32338506 0.33823532
-0.12717353 -0.32271454 0.33891752
-0.12679707 -0.3227112 0.33892292
-0.11502895 -0.31911078 0.3388451
-0.11448532 -0.31909472 0.3388277
-0.11355424 -0.31944361 0.3385146
-0.11233864 -0.31961229 0.33842579
-0.1003598 -0.31617713 0.33802763
-0.099463657 -0.31618237 0.33805335
-0.098909467 -0.31619474 0.33806184
-0.10055868 -0.31551233 0.33868194
-0.099672042 -0.31548065 0.33868909
-0.088775873 -0.31189981 0.33842099
-0.074315146 -0.30820301 0.33802435
-0.073974773 -0.30821303 0.33802691
-0.073246948 -0.30752945 0.33866647
-0.068577252 -0.30748421 0.33862585
-0.061099317 -0.30383822 0.33813998
-0.060724765 -0.3038187 0.33812258
-0.046199571 -0.29940426 0.33811104
-0.04565569 -0.29941896 0.33811772
-0.046595201 -0.29867053 0.33870953
-0.032020427 -0.29420775 0.33851629
-0.018298687 -0.2897346 0.33815795
-0.017599642 -0.28974971 0.33817413
-0.016719731 -0.28972858 0.3381761
-0.0072067678 -0.28444287 0.3382434
-0.0066696084 -0.28446594 0.33826387
0.0096329842 -0.27921906 0.3381699
0.01052146 -0.27845144 0.33870614
0.011065972 -0.27842957 0.33870247
0.020961216 -0.27308467 0.33839944
0.021646176 -0.27311018 0.33840728
0.022209864 -0.27309734 0.33841184
0.023450984 -0.27231663 0.33893239
-0.19257131 -0.33555967 0.33952817
-0.18519406 -0.33554637 0.33951199
-0.17776713 -0.33267558 0.33914018
-0.1715312 -0.3324466 0.33935931
-0.16035751 -0.32914716 0.339394
-0.15997884 -0.32915646 0.33940163
-0.12611547 -0.322043 0.33960548
-0.12577549 -0.32204366 0.33960816
-0.11510514 -0.31845358 0.33953398
-0.10115559 -0.31482798 0.33936149
-0.10081856 -0.31482846 0.33934844
-0.087741956 -0.31118065 0.33905706
-0.08341638 -0.3111729 0.33906534
-0.082410946 -0.31046945 0.33970398
-0.072543643 -0.30684489 0.3393023
-0.067539208 -0.30644625 0.3395744
-0.038682599 -0.29721624 0.33990201
0.011773485 -0.27766803 0.33924454
0.012154728 -0.27766335 0.33924317
0.012879848 -0.27690363 0.33978125
0.024734356 -0.27155897 0.3394472
0.025289981 -0.27157375 0.33944073
-0.19284216 -0.33492145 0.3402366
-0.18528314 -0.33490941 0.34023675
-0.17177443 -0.33137393 0.34054238
-0.14028251 -0.32429606 0.34091538
-0.1329398 -0.32431161 0.34095183
-0.1250914 -0.32137936 0.34029084
-0.12455206 -0.32137895 0.34028566
-0.12351175 -0.32072598 0.3409664
-0.12297382 -0.32072958 0.34097284
-0.081358179 -0.30976665 0.34033787
-0.080317855 -0.30907905 0.34099132
-0.066319659 -0.30538785 0.34052509
-0.039415479 -0.29650342 0.34049752
-0.038902324 -0.29650104 0.34050369
0.013586845 -0.27615529 0.34031996
0.014502515 -0.27540988 0.34086794
-0.20613351 -0.33718681 0.34129292
-0.20579812 -0.33717313 0.3412835
-0.1994168 -0.33712932 0.34124413
-0.1997125 -0.33652002 0.34197861
-0.18511608 -0.33364686 0.34169582
-0.17927605 -0.3336879 0.34172413
-0.17891528 -0.33367419 0.34171396
-0.17186008 -0.33074 0.34126666
-0.16544534 -0.33011457 0.34199741
-0.16447625 -0.33081448 0.34131986
-0.16360424 -0.3307904 0.34130445
-0.16250816 -0.33078238 0.3412987
-0.16182509 -0.33075407 0.34128749
-0.13926876 -0.32365412 0.34162492
-0.13837416 -0.32366714 0.34164572
-0.13226764 -0.32364604 0.34164321
-0.13188519 -0.32365337 0.34164113
-0.12234178 -0.3200632 0.3416529
-0.12178309 -0.32004392 0.34163547
-0.11658742 -0.32006222 0.34163919
-0.088039316 -0.31206986 0.34196141
-0.079743065 -0.30910653 0.34100378
-0.079085641 -0.30841413 0.34163958
-0.078712091 -0.30841562 0.34164411
-0.065477729 -0.30468374 0.34116724
-0.061145 -0.30465782 0.34112462
-0.060276043 -0.30393836 0.34174764
-0.048240148 -0.30023769 0.34120691
-0.048452087 -0.29952651 0.34182477
-0.039806027 -0.29576075 0.3410854
-0.033487774 -0.29543501 0.34142229
-0.0092640435 -0.28525969 0.34157851
-0.0089126499 -0.28562307 0.34129006
0.015594122 -0.27466115 0.34142116
0.018289626 -0.27461958 0.34137791
0.020139737 -0.27465329 0.34141091
0.016522383 -0.27391505 0.34196463
0.017576341 -0.27387416 0.34192702
0.018281057 -0.27386525 0.34191966
0.019402159 -0.27386627 0.34193587
0.022291612 -0.27387491 0.34195432
-0.20621942 -0.33657458 0.34202632
-0.19980425 -0.33591723 0.34273866
-0.19397536 -0.33591932 0.34274009
-0.18518977 -0.33301944 0.34242705
-0.17935605 -0.33307016 0.34245625
-0.16510677 -0.33012486 0.34201273
-0.16472739 -0.33015516 0.34203064
-0.16331954 -0.33014908 0.34201792
-0.16642171 -0.32949609 0.34271994
-0.16572863 -0.32947564 0.34270874
-0.13734047 -0.32300913 0.34232926
-0.13123238 -0.32300624 0.34233153
-0.12059408 -0.31935021 0.34229922
-0.11950999 -0.31935674 0.34231111
-0.11841734 -0.31937286 0.34232092
-0.1175334 -0.31939754 0.34231821
-0.11679333 -0.31939292 0.34230745
-0.10317329 -0.31529021 0.34265891
-0.10249847 -0.31574938 0.34221846
-0.087324597 -0.31138286 0.34261563
-0.086953796 -0.31137899 0.34261572
-0.078022502 -0.30772796 0.3422873
-0.07301151 -0.30773789 0.34228188
-0.072642177 -0.30772457 0.34227759
-0.071949564 -0.30701721 0.34292126
-0.064432748 -0.30328086 0.34242886
-0.059403747 -0.3032321 0.34238374
-0.049176514 -0.29881909 0.34243733
-0.048664104 -0.29881215 0.34244075
-0.03370665 -0.29436776 0.34232634
-0.03387801 -0.29364604 0.3429282
-0.0092915799 -0.2845248 0.34215626
-0.0092549128 -0.2838003 0.34273371
-0.2076872 -0.33821395 0.34376362
-0.18523952 -0.33240661 0.34315535
-0.17941573 -0.33243641 0.34318125
-0.18530981 -0.33178875 0.34388667
-0.1797073 -0.33179659 0.34390104
-0.17305934 -0.3317714 0.34386778
-0.14200029 -0.32525828 0.34359834
-0.14166254 -0.32526121 0.3435967
-0.13056366 -0.32234523 0.34302285
-0.10350477 -0.31439126 0.34354478
-0.085990399 -0.31000361 0.3439272
-0.071283914 -0.306317 0.34356537
-0.058730349 -0.30253804 0.34301361
-0.058003973 -0.3018522 0.34365687
-0.049551301 -0.29811007 0.34304816
-0.0092321904 -0.28307533 0.34331337
-0.23228565 -0.34049231 0.34470791
-0.22558688 -0.34044698 0.34467325
-0.20777245 -0.33759299 0.34451178
-0.19964053 -0.33470163 0.34423304
-0.19384404 -0.3343761 0.34458804
-0.17996028 -0.33116639 0.34461957
-0.17312194 -0.33117223 0.34461385
-0.14244382 -0.32463762 0.3443251
-0.12961407 -0.32102597 0.34440359
-0.10352886 -0.31371257 0.34421366
-0.085299946 -0.30932352 0.34458202
-0.070585661 -0.30561438 0.34421012
-0.069899604 -0.30491406 0.34485614
-0.057308421 -0.30115706 0.34429625
-0.056975003 -0.30115902 0.34429905
-0.056264158 -0.30046719 0.34492987
-0.055897661 -0.30048114 0.34493616
-0.041499659 -0.29666167 0.3442699
-0.042247772 -0.29595324 0.34488887
-0.041881103 -0.29595029 0.34489262
-0.033575546 -0.29217929 0.34411937
0.015678188 -0.27550641 0.34493911
-0.22572555 -0.33985084 0.34543675
-0.21652314 -0.33699602 0.34527791
-0.20789084 -0.33697701 0.34525362
-0.1868026 -0.3334682 0.3457216
-0.173218 -0.33055884 0.34535316
-0.15525118 -0.32696152 0.34561062
-0.15468405 -0.32696241 0.34561387
-0.1428553 -0.32401389 0.34505174
-0.13784023 -0.32400045 0.34504694
-0.14329879 -0.32336202 0.34576374
-0.14291772 -0.3233687 0.34575975
-0.13717297 -0.32334626 0.34575406
-0.13679987 -0.32334381 0.34574434
-0.12896422 -0.32037342 0.34508783
-0.12831222 -0.31971708 0.34578058
-0.078508615 -0.30867675 0.34525511
-0.084296465 -0.30795088 0.34587643
-0.077806532 -0.30797154 0.34589052
-0.069227345 -0.30420846 0.34548658
-0.064891413 -0.30422068 0.34547651
-0.055220954 -0.29977918 0.34556717
-0.054887861 -0.29976916 0.34556285
-0.051620036 -0.2997373 0.34554687
-0.042289685 -0.29524139 0.34549704
-0.2412838 -0.34215361 0.34635574
-0.24074352 -0.3421388 0.34634939
-0.22614571 -0.33927324 0.34621012
-0.22580911 -0.33926186 0.34619889
-0.2083561 -0.33636734 0.3460094
-0.2099034 -0.33576915 0.34677565
-0.18724751 -0.33285236 0.34644952
-0.16758302 -0.32960957 0.34644139
-0.15656212 -0.32632974 0.34630781
-0.15565358 -0.32631338 0.3463183
-0.15405004 -0.3263247 0.34631771
-0.15347493 -0.32630593 0.34629461
-0.15292513 -0.32630107 0.34629115
-0.14334908 -0.32271007 0.34645897
-0.13615498 -0.32269308 0.34644181
-0.077126272 -0.3072516 0.34652337
-0.064210787 -0.30352861 0.34611255
-0.068185091 -0.30279896 0.34675637
-0.063502945 -0.30282792 0.34675664
-0.05418073 -0.29905218 0.34618336
-0.053464547 -0.29903892 0.34617957
-0.052556705 -0.29903764 0.34617299
-0.051997777 -0.29903835 0.34617275
-0.042294696 -0.29452658 0.34610781
-0.026621129 -0.28927696 0.34649414
-0.011160134 -0.28436866 0.34642413
-0.010804283 -0.28472027 0.34612364
-0.23373005 -0.34130913 0.34752047
-0.23412506 -0.34099215 0.34791088
-0.22646996 -0.33869064 0.34700954
-0.21953084 -0.33810487 0.3477594
-0.21841209 -0.3384937 0.34726182
-0.21487398 -0.33807892 0.34775409
-0.18851382 -0.33161247 0.34793371
-0.155901 -0.32568151 0.34702796
-0.1522475 -0.3256819 0.3470163
-0.15171236 -0.32569736 0.34702343
-0.15071753 -0.32505828 0.34774977
-0.13551919 -0.3220413 0.34714249
-0.13484943 -0.32139039 0.34784383
-0.12733953 -0.31839892 0.34716699
-0.10513109 -0.31402591 0.34774113
-0.10474952 -0.31437349 0.34741569
-0.076481886 -0.30654326 0.34716728
-0.075787649 -0.30584845 0.34781885
-0.067493811 -0.30209067 0.34738204
-0.03514228 -0.29309458 0.34734374
-0.034769591 -0.29310104 0.34734744
-0.035192236 -0.29237017 0.34794763
-0.027542477 -0.28853884 0.34707198
-0.025365908 -0.28854772 0.34710684
-0.024312578 -0.28782165 0.34771076
-0.023944125 -0.28782704 0.34771127
-0.011157898 -0.2832689 0.34730828
-0.012196288 -0.28250343 0.34788752
-0.011621582 -0.28251842 0.34789371
-0.00028113759 -0.27789429 0.34730184
0.00025149234 -0.27789968 0.34730303
0.0015153139 -0.27717412 0.34788185
0.0025747286 -0.27714419 0.34787461
0.0034645605 -0.27713132 0.34787369
0.0047642216 -0.2771481 0.34787214
-0.24848528 -0.34332421 0.34878781
-0.14952968 -0.32442331 0.34847853
-0.14830844 -0.32441357 0.34847832
-0.14485192 -0.3244327 0.34846681
-0.13418894 -0.32074258 0.3485449
-0.13385282 -0.3207387 0.34855086
-0.10734867 -0.31336442 0.34843454
-0.1062576 -0.31334275 0.34840593
-0.10538594 -0.31334543 0.34840944
-0.093035117 -0.30964601 0.34819198
-0.092470333 -0.30962735 0.34819064
-0.091959417 -0.30961704 0.34819022
-0.085119396 -0.30963138 0.34816384
-0.09127564 -0.30893216 0.34885085
-0.090735607 -0.30893612 0.34885645
-0.075089894 -0.30515918 0.34847119
-0.066836983 -0.30139112 0.3480041
-0.062345583 -0.30142817 0.34804353
-0.035182789 -0.29165801 0.34856236
-0.023251887 -0.2871179 0.3483122
-0.02291639 -0.28712371 0.34831211
-0.022190746 -0.28640291 0.3489095
-0.021810122 -0.28640917 0.34891278
-0.013467196 -0.28178245 0.34845874
0.0045557786 -0.27640173 0.34844404
0.0056504253 -0.27641732 0.34844071
0.0061821607 -0.27641153 0.34844685
0.029268419 -0.26409459 0.34899497
-0.15749249 -0.32678911 0.34970763
-0.14854017 -0.32379386 0.34920973
-0.14729905 -0.32373875 0.3491531
-0.14637221 -0.32374653 0.34914318
-0.14546612 -0.32378384 0.34916925
-0.14493899 -0.32380065 0.34917843
-0.13319083 -0.32008824 0.34926087
-0.13254057 -0.31944728 0.34996948
-0.12768617 -0.31946188 0.34996349
-0.10559305 -0.31266722 0.34908074
-0.089867413 -0.30827394 0.3495262
-0.084100939 -0.30827671 0.34949049
-0.074414998 -0.30448118 0.34912491
-0.073762998 -0.30380526 0.34978622
-0.06118235 -0.30003911 0.34932163
-0.060271792 -0.29935837 0.34995279
-0.043697156 -0.29551941 0.34931198
-0.043891646 -0.29483002 0.3499451
-0.035223484 -0.29059041 0.34947786
-0.028345831 -0.29096785 0.34916291
-0.027277123 -0.29096171 0.34917897
-0.026239172 -0.29024267 0.34980205
-0.02112985 -0.28568649 0.34951425
-0.020412961 -0.28566575 0.3495104
0.0069099762 -0.27566028 0.34901983
0.0072529968 -0.27565163 0.34902415
0.0079393405 -0.27491048 0.34960797
0.0083143609 -0.27491111 0.34961832
-0.13170111 -0.31881851 0.35068241
-0.12685984 -0.31881157 0.35066351
-0.12540546 -0.31880566 0.35067594
-0.11159064 -0.31511793 0.35061887
-0.11051504 -0.31513554 0.35063159
-0.10961274 -0.31512412 0.35064593
-0.10855028 -0.31509835 0.35062963
-0.10782878 -0.31508175 0.3506085
-0.097452588 -0.31136402 0.35047737
-0.096559137 -0.31136766 0.35048702
-0.095625959 -0.31137779 0.35048091
-0.094726272 -0.31139001 0.35047477
-0.08919587 -0.30760399 0.3501907
-0.088854723 -0.3076053 0.35019225
-0.083422258 -0.30760905 0.35016644
-0.082778022 -0.30693865 0.35084462
-0.059438854 -0.29865766 0.35057831
-0.043933149 -0.29412267 0.35057083
-0.029497862 -0.28951102 0.35037085
-0.019345494 -0.28491589 0.35008311
-0.018813685 -0.28490204 0.35007423
-0.017555458 -0.28418624 0.35066393
-0.016814366 -0.28420106 0.35065931
-0.013955565 -0.28419781 0.35069311
-0.012470583 -0.28422797 0.35070491
-0.0024222131 -0.2795788 0.35020256
-0.0018893075 -0.27958533 0.35020292
-0.00045469395 -0.2796067 0.35021189
-0.0044066682 -0.27886099 0.35082343
-0.0035160349 -0.27886796 0.35082471
-0.0027976348 -0.27885437 0.35080057
0.00063360675 -0.27886239 0.35079557
-0.12620111 -0.31816518 0.35136801
-0.12586658 -0.31816229 0.35137117
-0.11256462 -0.31440815 0.35128018
-0.11182988 -0.31442952 0.35130104
-0.11074597 -0.31448811 0.35132036
-0.11261708 -0.31375393 0.35196513
-0.1119196 -0.31376109 0.35198581
-0.099294841 -0.31070977 0.35112619
-0.098576866 -0.31068572 0.35112384
-0.097867064 -0.31067979 0.35114104
-0.08209084 -0.30625632 0.35152185
-0.067374073 -0.30242655 0.35107604
-0.066673733 -0.30174947 0.35172871
-0.043974221 -0.29340634 0.35119081
-0.043986555 -0.29269332 0.35181737
-0.030571507 -0.28882751 0.35102692
-0.029909436 -0.28844786 0.35131246
-0.016115079 -0.28349715 0.35126644
-0.015416224 -0.28351203 0.35128251
-0.014372793 -0.28348628 0.35128495
-0.013988062 -0.28348163 0.35128924
0.027245134 -0.26654011 0.35160702
-0.089490756 -0.30937994 0.35250241
-0.065980487 -0.30107933 0.35238716
-0.0440314 -0.29198378 0.35244316
-0.03717681 -0.2919744 0.3524389
-0.036819287 -0.29197088 0.35243598
-0.021999519 -0.28740826 0.3522642
-0.0209761 -0.28666475 0.35285786
0.025804097 -0.2657592 0.35217839
0.026520807 -0.26538476 0.35245103
0.027263507 -0.26578036 0.35215944
-0.088652141 -0.30873179 0.3531763
-0.060289755 -0.30039427 0.35304829
0.029097741 -0.26432273 0.35328951
-0.12403364 -0.31492063 0.35489666
0.025254216 -0.26826704 0.35473001
-0.11362682 -0.3142564 0.35556227
-0.087362915 -0.30672151 0.35521102
0.057015017 -0.24788363 0.35578763
0.036679395 -0.25978032 0.35659492
0.044875301 -0.25349522 0.35659194
0.055635184 -0.24714468 0.35631528
-0.061642289 -0.31233662 0.3577061
0.037402913 -0.2590287 0.35715324
0.039363414 -0.25903499 0.3571732
-0.060644906 -0.3116903 0.35840592
-0.054229118 -0.30720481 0.35892028
-0.016603235 -0.29029742 0.35827425
-0.017041663 -0.28958362 0.35890886
-0.014070088 -0.28957701 0.35888451
-0.011085244 -0.28560567 0.35805237
0.0096939877 -0.27483666 0.35849765
0.013990765 -0.27483121 0.35849833
0.015804091 -0.27479044 0.35845396
0.020143436 -0.27479547 0.35848707
0.029187018 -0.26388162 0.35816991
-0.070812196 -0.3142181 0.35993618
-0.059677444 -0.3103947 0.35981488
-0.047809321 -0.30652869 0.35958916
-0.044903543 -0.3026832 0.35927546
-0.03968396 -0.30271024 0.35930836
-0.034113131 -0.30268389 0.35930264
-0.032310508 -0.30270737 0.35930496
0.010736902 -0.27412158 0.35909277
0.011469061 -0.27409303 0.35908675
0.02499642 -0.26787105 0.35957286
0.025703492 -0.26789361 0.35957536
0.02646976 -0.26791912 0.35958827
0.030645009 -0.2623772 0.35930941
-0.071612231 -0.31358683 0.36064577
-0.070204481 -0.31357834 0.36065388
-0.063700788 -0.30974898 0.36052212
-0.062990308 -0.30976382 0.36052909
-0.04717708 -0.30973589 0.36051783
-0.043211553 -0.30134198 0.36064205
-0.039949726 -0.30138439 0.36067089
-0.032080319 -0.30136961 0.36066467
-0.0399062 -0.29743299 0.36018038
-0.016788421 -0.29217711 0.36090958
-0.014298649 -0.29211247 0.36087453
-0.013547257 -0.29212788 0.36090085
-0.01486978 -0.28752461 0.36083308
-0.01342977 -0.28750265 0.36081296
-0.010208346 -0.28751111 0.36084253
-0.0095003294 -0.2875154 0.36084232
-0.00075662439 -0.28279373 0.36057347
0.00035228828 -0.28280929 0.36057174
0.0098411134 -0.27809486 0.36021438
0.010199951 -0.27809119 0.36021048
0.0065351496 -0.27736703 0.36084214
0.010669959 -0.2719287 0.36089158
0.022811402 -0.26716027 0.3601777
0.023198722 -0.26715389 0.36018229
0.030988082 -0.26091182 0.36045092
0.032392662 -0.26085722 0.36044335
0.0349981 -0.26088461 0.36043173
-0.10650924 -0.3236469 0.36177811
-0.082618862 -0.3167102 0.36132911
-0.077213772 -0.31672603 0.3613621
-0.076373443 -0.31294975 0.36137566
-0.069171071 -0.31295714 0.36136264
-0.062333435 -0.30912921 0.36123914
-0.061640766 -0.30912301 0.36123887
-0.060749497 -0.30910069 0.36123121
-0.059823759 -0.30909896 0.36122456
-0.057480235 -0.30910528 0.36122891
-0.053354297 -0.30911943 0.36123481
-0.054115627 -0.30457854 0.36168984
-0.05360122 -0.30457395 0.36169297
-0.048175953 -0.30456892 0.36169368
-0.046578217 -0.30456176 0.36166602
-0.039371137 -0.30455941 0.36165914
-0.038642369 -0.30455899 0.36165535
-0.037919667 -0.30456537 0.36165887
-0.047953729 -0.3006987 0.36132973
-0.034619059 -0.30068812 0.36131802
-0.033899717 -0.30068526 0.36132893
-0.017965879 -0.29147166 0.36157304
-0.01431423 -0.29142982 0.3615267
-0.0075556384 -0.28679669 0.36144245
-0.0033002757 -0.28211999 0.36120042
-0.0029483852 -0.28213063 0.36120552
0.0012146153 -0.28211248 0.36119586
-0.0017113378 -0.28140688 0.36182952
-0.00080445659 -0.28138918 0.36182678
0.00062132272 -0.28139383 0.36182562
0.0094377594 -0.27669197 0.36144289
0.011951509 -0.27668014 0.36144227
-0.11796344 -0.33299768 0.36286831
-0.12542036 -0.32994154 0.3626138
-0.12486146 -0.3299427 0.36260265
-0.12378582 -0.32993108 0.3626132
-0.10554503 -0.32306331 0.36255351
-0.10228227 -0.32308841 0.36255047
-0.099396057 -0.32305744 0.36254349
-0.091939457 -0.31928989 0.36270407
-0.090287566 -0.31929833 0.36273307
-0.089766599 -0.3192941 0.36273384
-0.083663121 -0.3192749 0.36271375
-0.076078907 -0.31609413 0.36204857
-0.075512275 -0.31611079 0.36205038
-0.076143637 -0.31546357 0.36279294
-0.074525505 -0.31549799 0.36278927
-0.070372045 -0.31552035 0.36281815
-0.069674499 -0.31549501 0.36279085
-0.076461218 -0.31231844 0.36208725
-0.052054454 -0.30781826 0.36264056
-0.051327374 -0.30779853 0.36263299
-0.048364431 -0.30003747 0.36201119
-0.047991157 -0.3000395 0.36201215
-0.042679716 -0.29934472 0.36268014
-0.041593466 -0.29933712 0.36267707
-0.038683753 -0.29938319 0.36270866
-0.033667874 -0.2993502 0.36268309
-0.031673972 -0.29935426 0.36270034
-0.016630907 -0.29470801 0.36281711
-0.013530127 -0.28544173 0.36274979
0.0090678828 -0.27599543 0.36206377
0.014606372 -0.27047038 0.36207348
0.019286148 -0.26972109 0.36265078
0.026359351 -0.26420483 0.36250818
-0.16172197 -0.33861911 0.36399648
-0.14614829 -0.33556288 0.3638992
-0.13642316 -0.33555102 0.36389059
-0.13069814 -0.33244666 0.36367115
-0.11558937 -0.32932237 0.36337191
-0.11486207 -0.329339 0.36338401
-0.11032882 -0.32562873 0.3637923
-0.10995025 -0.32562891 0.36378977
-0.10815747 -0.32560152 0.36374733
-0.10490167 -0.32246333 0.36330763
-0.098046288 -0.32247075 0.36329678
-0.097679384 -0.32248598 0.36329526
-0.095938422 -0.32246026 0.36328903
-0.089075707 -0.32249108 0.36330885
-0.090744361 -0.31868517 0.36345315
-0.081238478 -0.31872556 0.36349076
-0.080869749 -0.3187134 0.36348674
-0.082346521 -0.3148278 0.36351413
-0.085230522 -0.31102255 0.36349937
-0.069736362 -0.31103864 0.36351064
-0.070824079 -0.30713925 0.36330563
-0.069380023 -0.30715612 0.36333084
-0.065076619 -0.30715767 0.36331972
-0.064714469 -0.30713463 0.36329889
-0.051394209 -0.30715755 0.36333817
-0.050314307 -0.30714938 0.36334375
-0.064346015 -0.30327225 0.36308935
-0.063761353 -0.30328733 0.36308056
-0.043076932 -0.30324695 0.36306965
-0.041813314 -0.30326939 0.36308342
-0.038394291 -0.3032442 0.36303702
-0.037685998 -0.30324006 0.36304152
-0.051619194 -0.30259937 0.36376056
-0.050695661 -0.30261016 0.3637616
-0.036665849 -0.30260721 0.36374143
-0.034138586 -0.30260038 0.36377689
-0.032620799 -0.29867783 0.36337256
-0.0074721836 -0.28471807 0.36338013
-0.0060476176 -0.28471377 0.36336252
-0.0053076167 -0.2847144 0.36336619
-0.0088166054 -0.2799668 0.36307117
-0.00050710043 -0.27998433 0.36307931
0.00019019195 -0.279971 0.36307883
0.0034491816 -0.2799738 0.36309218
0.0046694838 -0.27926257 0.36373979
0.0053834901 -0.27927023 0.36374182
0.0075674234 -0.27931073 0.36373234
0.008833997 -0.27927873 0.36372742
0.012792868 -0.27926409 0.36369464
0.013167513 -0.27996391 0.36306721
0.01114897 -0.27452722 0.36328
0.022516405 -0.26901469 0.36328441
0.026877223 -0.26904124 0.36327687
0.028290378 -0.26900813 0.36326611
0.037105724 -0.25717446 0.36328259
0.042523116 -0.25717965 0.36331356
0.049665906 -0.25082427 0.36331838
-0.16651616 -0.34169748 0.36406466
-0.15718748 -0.33807462 0.36481977
-0.15645501 -0.33805585 0.36479038
-0.15542015 -0.33822179 0.36460346
-0.1546943 -0.33866635 0.36402208
-0.1537437 -0.33809999 0.36483762
-0.14298174 -0.33808881 0.36483502
-0.14409357 -0.33498421 0.36467391
-0.14372498 -0.33498302 0.36467063
-0.13745323 -0.33499569 0.36467946
-0.13690163 -0.33499622 0.36467788
-0.13800848 -0.33189312 0.36447191
-0.13152833 -0.33189851 0.36447898
-0.13047326 -0.3318783 0.36446029
-0.12975501 -0.33185625 0.36444747
-0.12848334 -0.33186793 0.36446413
-0.1136533 -0.32818431 0.36494705
-0.10933301 -0.32503077 0.36453924
-0.10510087 -0.32123354 0.36479554
-0.097066738 -0.32189241 0.36404264
-0.096514396 -0.321879 0.3640393
-0.095640674 -0.3218587 0.3640399
-0.094907425 -0.3218523 0.36404169
-0.09100005 -0.32185119 0.36404267
-0.090435058 -0.32184714 0.36403841
-0.089439563 -0.32166186 0.36430714
-0.082404643 -0.31805959 0.36420226
-0.081477717 -0.31809825 0.36422199
-0.091842458 -0.3174482 0.36495593
-0.093190387 -0.3142646 0.36427128
-0.092840701 -0.31427601 0.36426705
-0.084240541 -0.31037998 0.36420834
-0.074873373 -0.31039664 0.3642467
-0.070937015 -0.31039014 0.3642135
-0.069834769 -0.31040537 0.36422294
-0.076386549 -0.30979189 0.36494562
-0.075663865 -0.30977318 0.36494765
-0.076299414 -0.30649593 0.36403418
-0.07015758 -0.306508 0.36401513
-0.069635957 -0.30651349 0.36402279
-0.06351947 -0.30647138 0.36400554
-0.057402574 -0.30649984 0.3640399
-0.05685471 -0.30650756 0.36403823
-0.055778701 -0.3065125 0.36404681
-0.051814556 -0.30653137 0.36405206
-0.050401077 -0.30650434 0.36404327
-0.045340549 -0.30649593 0.36404282
-0.06486731 -0.30588078 0.36474496
-0.050054383 -0.30195931 0.36445317
-0.046245534 -0.30193335 0.36444539
-0.042151656 -0.30192962 0.36445087
-0.041765869 -0.3019394 0.36445946
-0.042400584 -0.29801393 0.36403492
-0.046059355 -0.29734674 0.36471838
-0.0068151578 -0.28401452 0.36401019
-0.0053450149 -0.28401759 0.36400497
0.00040458975 -0.28401384 0.36400777
-0.011864252 -0.28333589 0.36465853
0.0064438242 -0.27858385 0.36436337
0.007012384 -0.27860364 0.36436504
0.0095244553 -0.27856961 0.36434999
0.010219943 -0.27858588 0.36434841
0.011309597 -0.27859837 0.36436561
0.013455035 -0.27855474 0.36431983
0.0044498933 -0.27785385 0.36496726
0.0101947 -0.27787131 0.36497301
0.025780659 -0.26760656 0.36447161
-0.22762927 -0.35519707 0.36569917
-0.18767628 -0.34670067 0.36555687
-0.18001808 -0.34366778 0.36566404
-0.17266202 -0.34369409 0.36568671
-0.16063948 -0.34063911 0.36570993
-0.15973699 -0.34064752 0.36572671
-0.15387098 -0.33756647 0.36563829
-0.14417152 -0.33752641 0.36563107
-0.14308001 -0.33754531 0.36564058
-0.14475878 -0.33443311 0.36547914
-0.1391772 -0.33443961 0.36548597
-0.1384684 -0.3344439 0.36547962
-0.13773923 -0.33443823 0.36547786
-0.13595802 -0.33443063 0.36548206
-0.1273421 -0.33130264 0.36525264
-0.11339875 -0.32760149 0.36572412
-0.11249363 -0.32759711 0.36572427
-0.11195765 -0.3276009 0.36572462
-0.10797676 -0.32443136 0.36527106
-0.11057795 -0.32063666 0.36554205
-0.097812966 -0.32064545 0.36554849
-0.087916188 -0.32067668 0.36556736
-0.10595742 -0.31683946 0.36571121
-0.10454419 -0.31684139 0.36568701
-0.090465516 -0.31682619 0.36565766
-0.083267644 -0.31333894 0.3653844
-0.06893824 -0.31300634 0.36572096
-0.091219872 -0.31299147 0.3657186
-0.090507992 -0.31298399 0.36572161
-0.076124765 -0.31298798 0.36574909
-0.077207938 -0.30911696 0.36563826
-0.076813608 -0.30913758 0.36565107
-0.063492686 -0.30517986 0.36540413
-0.050476007 -0.30129072 0.36514413
-0.035685752 -0.30129686 0.36513183
-0.040716261 -0.29666486 0.36539218
-0.26225737 -0.36557686 0.36636889
-0.21140014 -0.35176831 0.36686453
-0.20306443 -0.35176441 0.36686838
-0.20408195 -0.34923807 0.3662366
-0.20372553 -0.34923983 0.36623991
-0.1883561 -0.34622368 0.3664394
-0.18688926 -0.34621796 0.36639547
-0.18258053 -0.34617722 0.36638242
-0.17918816 -0.3462345 0.3664397
-0.1715548 -0.34315741 0.36650431
-0.17046969 -0.34314862 0.36650082
-0.16938448 -0.34316534 0.36650255
-0.15902045 -0.34010735 0.36654246
-0.15221606 -0.33701262 0.36644936
-0.14320654 -0.33700207 0.36644673
-0.14449169 -0.33697361 0.36642885
-0.1435862 -0.33699515 0.36644629
-0.14507478 -0.33387741 0.36628798
-0.12672874 -0.33074504 0.36604095
-0.13414645 -0.3232415 0.36683032
-0.11289436 -0.32321241 0.36679596
-0.10816394 -0.32354775 0.3664273
-0.11863951 -0.32004976 0.36630234
-0.10996531 -0.32004043 0.36630046
-0.10535102 -0.31622788 0.36645591
-0.10479084 -0.31622636 0.36644685
-0.091456115 -0.31238234 0.36644822
-0.085193858 -0.31234708 0.36644718
-0.084470361 -0.31236622 0.36646533
-0.083384395 -0.31238985 0.36647359
-0.084425978 -0.30847707 0.36636609
-0.067577668 -0.30848551 0.3663812
-0.063235156 -0.30848053 0.36636248
-0.053883422 -0.30848756 0.36636168
0.0067470926 -0.2812331 0.36658818
0.0289269 -0.26541385 0.36626899
0.029995514 -0.26466441 0.36686271
-0.23989546 -0.35679412 0.36792687
-0.2168304 -0.3542482 0.3673937
-0.21827087 -0.35126758 0.36771446
-0.21251458 -0.35128081 0.36773071
-0.21195368 -0.35130411 0.3677468
-0.21083264 -0.35126758 0.36770377
-0.207568 -0.35127619 0.367735
-0.20646051 -0.35126665 0.36772677
-0.20252208 -0.35127336 0.36772573
-0.20179288 -0.35127646 0.36772099
-0.19741991 -0.34825131 0.36794993
-0.19647336 -0.3484064 0.36766633
-0.19305611 -0.34875578 0.36709073
-0.1924275 -0.34850505 0.36752161
-0.1914411 -0.34825554 0.3679626
-0.18621892 -0.3482731 0.36796597
-0.18569604 -0.34827873 0.3679679
-0.18851534 -0.34572598 0.36728472
-0.18780258 -0.34569234 0.36724973
-0.1832985 -0.34570462 0.36725307
-0.18238893 -0.34566981 0.36722368
-0.17825486 -0.34571233 0.36725771
-0.17753822 -0.34568483 0.36724004
-0.17663197 -0.34568241 0.3672435
-0.16953085 -0.34264147 0.3673344
-0.15987784 -0.33645925 0.36723483
-0.115774 -0.32958978 0.36759454
-0.1230064 -0.32643902 0.36724666
-0.14472109 -0.32581809 0.36799711
-0.13445988 -0.3226445 0.36759529
-0.13353591 -0.32265851 0.3675918
-0.11227121 -0.32262951 0.36757112
-0.095371269 -0.3226406 0.36758417
-0.11945934 -0.31945524 0.36704764
-0.11798713 -0.31942609 0.3670316
-0.10933212 -0.31944457 0.36706632
-0.10837112 -0.31883934 0.36782035
-0.10762612 -0.31883508 0.36782086
-0.091131397 -0.31497768 0.36791384
-0.08566568 -0.3117274 0.36718017
-0.083478093 -0.31176236 0.36719769
-0.08422897 -0.3072058 0.3677941
-0.076694645 -0.30719575 0.36778453
-0.069418155 -0.30784905 0.36708701
-0.069455691 -0.30324501 0.36753118
0.0060050767 -0.28056914 0.36723745
0.0074122632 -0.28053063 0.36722815
0.00055992068 -0.27982569 0.36784425
0.0095522869 -0.27984387 0.36786881
-0.31447554 -0.36965132 0.36857772
-0.31197569 -0.36966857 0.3686161
-0.28748491 -0.36968046 0.36858803
-0.30804923 -0.36718121 0.36837476
-0.23359661 -0.3563315 0.36879671
-0.23250389 -0.35631514 0.36877096
-0.21849178 -0.35630226 0.36875874
-0.22926591 -0.35380864 0.3683067
-0.22854626 -0.35380933 0.36830306
-0.22783743 -0.35381055 0.36830509
-0.22638386 -0.35377577 0.36828128
-0.22547963 -0.35379046 0.36829302
-0.22476611 -0.35380647 0.36830199
-0.22332844 -0.35381323 0.36830157
-0.22244039 -0.35380059 0.36830279
-0.22151558 -0.35377866 0.36828303
-0.22079593 -0.35378265 0.36827341
-0.21629722 -0.35378721 0.36825755
-0.2157608 -0.35379529 0.36826909
-0.21117455 -0.35377792 0.36825499
-0.21028954 -0.35379529 0.36827463
-0.2047095 -0.35381618 0.36829147
-0.21141833 -0.35081026 0.36858961
-0.20666617 -0.35078385 0.36859927
-0.20590249 -0.3507787 0.36856344
-0.20161793 -0.35078931 0.36857629
-0.20051777 -0.3507978 0.36856031
-0.19981188 -0.3508049 0.36855808
-0.1952076 -0.35078889 0.36856294
-0.19599618 -0.34772921 0.36879221
-0.17570151 -0.34520555 0.36810941
-0.17883471 -0.34160027 0.36898416
-0.16580309 -0.33902928 0.36813983
-0.16628283 -0.33849755 0.36896145
-0.16592507 -0.33849654 0.36895862
-0.16049594 -0.33849573 0.36896127
-0.19645889 -0.33589178 0.36803097
-0.15932453 -0.33591497 0.36804414
-0.15230924 -0.33591598 0.36806715
-0.14507917 -0.33534151 0.36884335
-0.16568112 -0.32904813 0.3683973
-0.16457134 -0.32903656 0.36839283
-0.15048718 -0.32903504 0.36837667
-0.14042845 -0.32901314 0.36837918
-0.14508361 -0.32582995 0.36800891
-0.14413561 -0.32523805 0.36876929
-0.1433901 -0.32525417 0.36878178
-0.14249319 -0.32526863 0.36880648
-0.14159125 -0.32527912 0.36881495
-0.1404645 -0.32555485 0.36842027
-0.13951054 -0.32583588 0.36801934
-0.13421533 -0.32526931 0.3688041
-0.13362449 -0.32556278 0.36841568
-0.12824161 -0.32205009 0.36835855
-0.1278778 -0.32205066 0.3683579
-0.12610236 -0.32206893 0.36836246
-0.12536971 -0.32204565 0.36834159
-0.1244776 -0.32202232 0.36832774
-0.12338553 -0.32203603 0.36834687
-0.12248126 -0.32205063 0.36835206
-0.12176945 -0.32206798 0.36834967
-0.081468709 -0.31050304 0.36864382
0.0075526531 -0.28391233 0.36875862
0.016880767 -0.2736156 0.36872125
-0.34985933 -0.37419507 0.36972928
-0.32070687 -0.37419721 0.36973825
-0.30313605 -0.37175933 0.3696467
-0.31036454 -0.36925614 0.36947599
-0.26427591 -0.36139852 0.36963689
-0.25304154 -0.36136502 0.36960897
-0.25251645 -0.36137465 0.36960745
-0.24550076 -0.36137989 0.36962709
-0.24834563 -0.35885736 0.36922169
-0.24780977 -0.35884082 0.36920494
-0.24332595 -0.3588315 0.36921474
-0.24294639 -0.35882869 0.36921173
-0.23740298 -0.35883784 0.36922145
-0.2365022 -0.35885885 0.36923233
-0.23918073 -0.35587558 0.36967006
-0.23847274 -0.35587335 0.36967549
-0.23232894 -0.35584462 0.36963734
-0.21903659 -0.35588023 0.36966342
-0.21869779 -0.3558619 0.36964014
-0.22405946 -0.35334307 0.36916465
-0.2222468 -0.35332909 0.36916876
-0.22009328 -0.35331765 0.36914444
-0.21507092 -0.35333055 0.36913285
-0.21451505 -0.35332084 0.36913967
-0.21063831 -0.35331288 0.36913046
-0.20955822 -0.35332119 0.36914307
-0.20487913 -0.3533462 0.36916554
-0.20536718 -0.35029206 0.36940998
-0.19997674 -0.33794296 0.36979982
-0.18158355 -0.33165979 0.36948532
-0.17584239 -0.33165038 0.36946213
-0.16144107 -0.33164045 0.36945829
-0.15708911 -0.33165696 0.36945543
-0.15672867 -0.33165312 0.36946017
-0.16610788 -0.32849413 0.36920011
-0.16506757 -0.32846579 0.36917782
-0.16361174 -0.32845238 0.36917123
-0.14952812 -0.32848984 0.36917633
-0.1488039 -0.32847062 0.36918581
-0.12975587 -0.3284733 0.3691881
-0.16552936 -0.32792017 0.3699764
-0.14856869 -0.32790816 0.36997244
-0.14749113 -0.32790565 0.36996841
-0.14679809 -0.32788578 0.36994973
-0.1402822 -0.32787538 0.36994302
-0.12771024 -0.32785392 0.36993495
-0.12626278 -0.3278788 0.36996013
-0.13449611 -0.32468808 0.36958411
-0.12726718 -0.32145542 0.36911228
-0.12653191 -0.32147154 0.36911991
-0.12222893 -0.32144821 0.36911356
-0.3779375 -0.37628987 0.37069863
-0.35364479 -0.37629968 0.3706983
-0.34609044 -0.37631854 0.37068263
-0.35581198 -0.37384808 0.37065649
-0.35469702 -0.37387624 0.37067944
-0.34616634 -0.3738606 0.37064138
-0.34577155 -0.37386444 0.37063214
-0.26821971 -0.36343408 0.37081647
-0.26751149 -0.36343312 0.37083617
-0.26662534 -0.36347166 0.37084171
-0.26337931 -0.36093077 0.37050596
-0.25145712 -0.36093774 0.37049162
-0.25055546 -0.36092561 0.37048954
-0.24606544 -0.36095837 0.37050599
-0.24571756 -0.36096171 0.37051478
-0.24226373 -0.35838813 0.37010437
-0.2417177 -0.35841021 0.37011805
-0.23668575 -0.35840476 0.37011313
-0.23595883 -0.35841253 0.37010971
-0.24659461 -0.35793352 0.37097445
-0.23757309 -0.35793719 0.37096119
-0.22710136 -0.35284477 0.37002289
-0.22349747 -0.35286948 0.37002909
-0.22349359 -0.34054551 0.3706274
-0.2181333 -0.34053394 0.37064928
-0.22502814 -0.33741167 0.3705996
-0.21063112 -0.33740288 0.37058455
-0.18101305 -0.33110705 0.37028387
-0.17562589 -0.33108419 0.37025404
-0.17488933 -0.33104277 0.37022316
