# .PCD v0.7 - Point Cloud Data file format
VERSION 0.7
FIELDS x y z normal_x normal_y normal_z curvature
SIZE 4 4 4 4 4 4 4
TYPE F F F F F F F
COUNT 1 1 1 1 1 1 1
WIDTH 802
HEIGHT 1
VIEWPOINT 0 0 0 1 0 0 0
POINTS 802
DATA ascii
-0.012699992 -0.095382623 0.03750493 -1 -8.5852669e-08 1.5134273e-08 0
-0.044354677 -0.09436211 0.037510984 -0.32968345 0.94409156 0 0
-0.079840086 -0.089347914 0.037571248 0.5771392 0.8166458 0 0
-0.097222447 -0.076540738 0.0376601 -0.900702 -0.43443754 0 0
6.4032566e-09 -0.073244721 0.037542045 1 8.7422777e-08 0 0
-0.019610675 -0.068732113 0.037703112 -0.95502013 0.29654109 0 0
4.4016222e-09 -0.050348688 0.037558518 1 8.7422777e-08 0 0
2.2577107e-09 -0.025825199 0.037594598 1 8.7422777e-08 0 0
-0.061151713 -0.012927012 0.037648864 -0.091502279 0.99580491 0 0
-0.14616349 -0.012700013 0.037607636 9.1258201e-08 -1 -3.3845748e-08 0
-0.10004763 -0.012700009 0.037698142 9.1258201e-08 -1 -3.3845748e-08 0
-0.075708255 -0.012700006 0.037567355 9.1258201e-08 -1 -3.3845748e-08 0
-0.073318645 -0.012700006 0.037702531 9.1258201e-08 -1 -3.3845748e-08 0
-0.056625295 -0.012700005 0.03750683 9.1258201e-08 -1 -3.3845748e-08 0
-0.043778624 -3.8272487e-09 0.037648164 -8.7422777e-08 1 0 0
1.1901975e-08 -0.13614272 0.037969448 1 8.7422777e-08 0 0
-0.034628667 -0.095493056 0.037955001 0.51128906 -0.85940886 0 0
-0.071371183 -0.093877472 0.037844427 0.36244836 0.93200386 0 0
-0.080235496 -0.089065813 0.037801586 0.58426183 0.81156528 0 0
7.1281083e-09 -0.081536055 0.037752748 1 8.7422777e-08 0 0
-0.095947981 -0.063881114 0.037962258 0.98555636 0.16934772 0 0
-0.10118848 -0.05080954 0.037772167 -0.98965061 0.14349833 0 0
-0.026719898 -0.024848359 0.037897136 0.68518287 0.72837114 0 0
-0.037021499 -0.017595273 0.037775081 0.45009628 0.89298004 0 0
-0.023553964 -0.012700002 0.037795465 9.1258201e-08 -1 -3.3845748e-08 0
-0.12498942 -1.0926922e-08 0.037965059 -8.7422777e-08 1 0 0
-0.026296085 -2.2988766e-09 0.037952743 -8.7422777e-08 1 0 0
-0.010414918 -0.13984007 0.0381 0 0 1 0
-0.012623585 -0.13740374 0.0381 0 0 1 0
-0.011248919 -0.13705342 0.0381 0 0 1 0
-0.001279654 -0.13711037 0.0381 0 0 1 0
-0.011577507 -0.12870371 0.0381 0 0 1 0
-0.0038043943 -0.12822835 0.0381 0 0 1 0
-0.0047646416 -0.12242542 0.0381 0 0 1 0
-0.0035578287 -0.12172062 0.038100004 0 0 1 0
-0.003497351 -0.11958394 0.0381 0 0 1 0
-0.0037070888 -0.11727209 0.0381 0 0 1 0
-0.012159594 -0.11687724 0.0381 0 0 1 0
-0.010753404 -0.1153817 0.0381 0 0 1 0
-0.0081476979 -0.11037566 0.0381 0 0 1 0
-0.010807215 -0.1090525 0.0381 0 0 1 0
-0.0094953757 -0.10860233 0.0381 0 0 1 0
-0.010068926 -0.10754016 0.0381 0 0 1 0
-0.011534082 -0.10620274 0.038099997 0 0 1 0
-0.0015506198 -0.10555924 0.038099997 0 0 1 0
-0.0081510535 -0.10142401 0.0381 0 0 1 0
-0.00095044437 -0.098114893 0.038100004 0 0 1 0
-0.012265584 -0.096855603 0.0381 0 0 1 0
-0.0018651909 -0.095463619 0.0381 0 0 1 0
-0.0003044343 -0.094528064 0.038099997 0 0 1 0
-0.01091799 -0.088766158 0.0381 0 0 1 0
-0.0032460105 -0.088768199 0.0381 0 0 1 0
-0.0022158085 -0.087741442 0.0381 0 0 1 0
-0.082385689 -0.087395087 0.038007569 0.63943231 0.76884747 0 0
-0.01196377 -0.087173559 0.0381 0 0 1 0
-0.0047335615 -0.085408404 0.0381 0 0 1 0
-0.0020025049 -0.084628448 0.0381 0 0 1 0
-0.0061372234 -0.084267788 0.0381 0 0 1 0
-0.0022805901 -0.084298499 0.0381 0 0 1 0
-0.020197745 -0.081828944 0.03817033 0.83147216 -0.55556649 0 0
-0.011265795 -0.079051487 0.0381 0 0 1 0
-0.010563774 -0.07908152 0.0381 0 0 1 0
-0.0057794312 -0.076976947 0.038100004 0 0 1 0
-0.0060633714 -0.076269217 0.0381 0 0 1 0
-0.0046042586 -0.073748052 0.0381 0 0 1 0
-0.0027944965 -0.073435374 0.0381 0 0 1 0
-0.010472951 -0.07284914 0.0381 0 0 1 0
-0.0063216216 -0.072730064 0.0381 0 0 1 0
-0.099309012 -0.071436867 0.038243536 -0.94693071 -0.32143787 0 0
-0.0090968683 -0.070128947 0.0381 0 0 1 0
-0.011717375 -0.069516554 0.0381 0 0 1 0
-0.011815636 -0.069241732 0.0381 0 0 1 0
6.0304197e-09 -0.068979964 0.038013812 1 8.7422777e-08 0 0
-0.0004901085 -0.067102596 0.0381 0 0 1 0
-0.011637487 -0.066927202 0.0381 0 0 1 0
-0.01259518 -0.066450089 0.0381 0 0 1 0
-0.009835396 -0.063922152 0.0381 0 0 1 0
-0.0045564426 -0.063624017 0.0381 0 0 1 0
-0.0069732969 -0.063131787 0.0381 0 0 1 0
-0.011481132 -0.062721372 0.0381 0 0 1 0
-0.0021029157 -0.061691996 0.0381 0 0 1 0
-0.007548478 -0.061305799 0.0381 0 0 1 0
-0.0053875376 -0.059293892 0.0381 0 0 1 0
-0.011506516 -0.058841564 0.0381 0 0 1 0
-0.0061193593 -0.057408608 0.0381 0 0 1 0
-0.10165071 -0.05722085 0.038189609 -0.99999052 -0.004360145 0 0
-0.0120044 -0.056621894 0.0381 0 0 1 0
-0.010588204 -0.054643542 0.0381 0 0 1 0
-0.0010289394 -0.054426055 0.0381 0 0 1 0
-0.0046805842 -0.051503439 0.038100004 0 0 1 0
-0.0040070144 -0.05064033 0.0381 0 0 1 0
-0.0020996728 -0.050520677 0.038099997 0 0 1 0
-0.012699996 -0.050461326 0.038038507 -1 -8.5852669e-08 1.5134273e-08 0
-0.006581041 -0.04869001 0.038100004 0 0 1 0
-0.0095831025 -0.04264576 0.0381 0 0 1 0
-0.0069245254 -0.041357767 0.038100004 0 0 1 0
-0.0011017589 -0.040440209 0.0381 0 0 1 0
-0.010215797 -0.039905984 0.0381 0 0 1 0
3.4884893e-09 -0.039903663 0.038063392 1 8.7422777e-08 0 0
-0.0092043821 -0.039196536 0.0381 0 0 1 0
-0.0096519263 -0.038747452 0.0381 0 0 1 0
-0.0053697643 -0.038600877 0.0381 0 0 1 0
-0.005267302 -0.03830687 0.0381 0 0 1 0
-0.010427647 -0.034103516 0.0381 0 0 1 0
-0.0049318643 -0.034051906 0.0381 0 0 1 0
-0.0040065823 -0.033614341 0.0381 0 0 1 0
-0.0086948089 -0.033135723 0.0381 0 0 1 0
-0.010572283 -0.03205641 0.0381 0 0 1 0
-0.0085234074 -0.03215947 0.0381 0 0 1 0
-0.0013529309 -0.02836637 0.0381 0 0 1 0
-0.011034532 -0.027613485 0.0381 0 0 1 0
-0.012699998 -0.026460214 0.038027227 -1 -8.5852669e-08 1.5134273e-08 0
-0.0044163102 -0.025826499 0.0381 0 0 1 0
-0.078518443 -0.024162477 0.0381594 0.54098207 -0.84103417 0 0
-0.0048609003 -0.023019074 0.0381 0 0 1 0
-0.0019862335 -0.022129899 0.0381 0 0 1 0
-0.040379915 -0.021661658 0.038241524 -0.42656758 -0.90445572 0 0
-0.0090596545 -0.020125942 0.0381 0 0 1 0
-0.010568749 -0.01964259 0.0381 0 0 1 0
-0.0033108806 -0.019490354 0.038099997 0 0 1 0
-0.0074212761 -0.018314268 0.0381 0 0 1 0
-0.012514218 -0.016939254 0.0381 0 0 1 0
-3.3959735e-05 -0.015692942 0.0381 0 0 1 0
-0.010360969 -0.014122553 0.0381 0 0 1 0
-0.1313923 -0.012521314 0.0381 0 0 1 0
-0.11010438 -0.012520445 0.038100004 0 0 1 0
-0.075965188 -0.012512537 0.038100004 0 0 1 0
-0.14748086 -0.012417219 0.038100004 0 0 1 0
-0.04335285 -0.01249685 0.0381 0 0 1 0
-0.038600408 -0.012165333 0.038099997 0 0 1 0
-0.019165048 -0.011934571 0.0381 0 0 1 0
-0.14121068 -0.011646854 0.0381 0 0 1 0
-0.14150102 -0.011307504 0.0381 0 0 1 0
-0.08258608 -0.011090344 0.0381 0 0 1 0
-0.044694122 -0.011234578 0.0381 0 0 1 0
-0.036181629 -0.011220742 0.0381 0 0 1 0
-0.15267254 -0.010636747 0.0381 0 0 1 0
-0.14107493 -0.010567358 0.038099997 0 0 1 0
-0.10476141 -0.01071799 0.0381 0 0 1 0
-0.019812699 -0.010671509 0.0381 0 0 1 0
-0.034063268 -0.010298721 0.0381 0 0 1 0
-0.04302527 -0.010183498 0.0381 0 0 1 0
-0.089921311 -0.0098662553 0.0381 0 0 1 0
-0.038518876 -0.0099194478 0.0381 0 0 1 0
-0.031195087 -0.0098775737 0.0381 0 0 1 0
-0.01407518 -0.0098962029 0.0381 0 0 1 0
-0.11486968 -0.0092781829 0.0381 0 0 1 0
-0.060334671 -0.0093268435 0.0381 0 0 1 0
-0.097062506 -0.0090558967 0.038100004 0 0 1 0
-0.078667819 -0.0091861058 0.0381 0 0 1 0
-0.038629711 -0.0090629077 0.0381 0 0 1 0
-0.064690277 -0.0087587833 0.0381 0 0 1 0
-0.13362548 -0.0085789151 0.0381 0 0 1 0
-0.094536394 -0.0085083777 0.0381 0 0 1 0
-0.0090135951 -0.0087057343 0.0381 0 0 1 0
-0.10326602 -0.0082021728 0.0381 0 0 1 0
-0.056964375 -0.0080522131 0.0381 0 0 1 0
-0.12150746 -0.0077865962 0.0381 0 0 1 0
-0.058228131 -0.0078333886 0.0381 0 0 1 0
-0.13562258 -0.0076590776 0.0381 0 0 1 0
-0.049148515 -0.0076295687 0.0381 0 0 1 0
-0.04879358 -0.0075920476 0.0381 0 0 1 0
-0.0032362728 -0.0075185536 0.0381 0 0 1 0
-0.11828151 -0.0073827528 0.0381 0 0 1 0
-0.044800233 -0.0074708592 0.0381 0 0 1 0
-0.03345941 -0.0074866442 0.0381 0 0 1 0
-0.15150648 -0.007171893 0.0381 0 0 1 0
-0.012662084 -0.0066992147 0.0381 0 0 1 0
-0.050367501 -0.0063867802 0.0381 0 0 1 0
-0.03439559 -0.0064231786 0.0381 0 0 1 0
-0.14533377 -0.0062179426 0.0381 0 0 1 0
-0.1239979 -0.005915653 0.0381 0 0 1 0
-0.12357502 -0.0058910348 0.0381 0 0 1 0
-0.0076382011 -0.0053650141 0.0381 0 0 1 0
-0.065098479 -0.0051033329 0.0381 0 0 1 0
-0.025700049 -0.0050789588 0.0381 0 0 1 0
-0.0044480991 -0.0050666151 0.0381 0 0 1 0
-0.0041771666 -0.0049433894 0.0381 0 0 1 0
-0.075062945 -0.004653147 0.0381 0 0 1 0
-0.054808892 -0.0041369586 0.0381 0 0 1 0
-0.022542024 -0.0042444002 0.0381 0 0 1 0
-0.13751556 -0.0039008914 0.038100004 0 0 1 0
-0.071466736 -0.0039029231 0.0381 0 0 1 0
-0.13658115 -0.0036393353 0.038099997 0 0 1 0
-0.12894174 -0.0036766853 0.038099997 0 0 1 0
-0.11687936 -0.0036836476 0.038099997 0 0 1 0
-0.10776591 -0.0035513307 0.0381 0 0 1 0
-0.09039893 -0.0036355092 0.0381 0 0 1 0
-0.15477121 -0.0034571683 0.0381 0 0 1 0
-0.12674715 -0.0034996709 0.0381 0 0 1 0
-0.08316265 -0.0033412597 0.0381 0 0 1 0
-0.080448568 -0.0033863522 0.0381 0 0 1 0
-0.071779996 -0.0034888464 0.0381 0 0 1 0
-0.064874105 -0.0030207927 0.0381 0 0 1 0
-0.041754827 -0.0031571607 0.0381 0 0 1 0
-0.062234152 -0.0028473123 0.0381 0 0 1 0
-0.1441095 -0.0025469132 0.0381 0 0 1 0
-0.075857222 -0.0026058664 0.0381 0 0 1 0
-0.13776664 -0.0023050439 0.0381 0 0 1 0
-0.050896894 -0.0024104144 0.0381 0 0 1 0
-0.0033834097 -0.0023502475 0.0381 0 0 1 0
-0.11363777 -0.0020519472 0.0381 0 0 1 0
-0.021747731 -0.0020010127 0.0381 0 0 1 0
-0.14726616 -0.0016988401 0.0381 0 0 1 0
-0.078438312 -0.0016465622 0.0381 0 0 1 0
-0.034233689 -0.001502952 0.0381 0 0 1 0
-0.13147096 -0.0010163934 0.0381 0 0 1 0
-0.10058464 -0.00083117152 0.0381 0 0 1 0
-0.13273139 -0.00049694447 0.0381 0 0 1 0
-0.12177804 -0.00049062137 0.0381 0 0 1 0
-0.11473978 -0.00048509976 0.0381 0 0 1 0
-0.091738462 -0.00034125065 0.0381 0 0 1 0
-0.01822124 -0.00046035569 0.0381 0 0 1 0
-0.00036441008 -3.1857739e-11 0.03800289 -8.7422777e-08 1 0 0
-0.057709903 -0.10164753 0.038455661 -0.013080318 -0.99991447 0 0
-0.040239599 -0.098287314 0.038353637 0.37865832 -0.92553657 0 0
-0.028853429 -0.029953726 0.03826968 -0.72236103 -0.69151622 0 0
-0.076532826 -0.017175339 0.038274623 -0.43444529 0.90069824 0 0
-0.06153357 -0.10143887 0.038575329 -0.10018643 -0.99496871 0 0
-0.07760261 -0.096691743 0.038654901 -0.45787653 -0.88901579 0 0
-0.035517722 -0.096002996 0.038561858 0.48862207 -0.87249553 0 0
-0.10161501 -0.055428058 0.038645547 -0.99922901 0.039260019 0 0
-0.10122936 -0.051096529 0.038579926 -0.99086511 0.13485692 0 0
-0.095258877 -0.047322981 0.03861184 0.96704179 -0.25461784 0 0
-0.094797052 -0.045689262 0.038581014 0.95501858 -0.29654604 0 0
-0.022092646 -0.029939357 0.038610667 0.79068947 0.61221749 0 0
-0.029884739 -0.028919514 0.038575102 -0.69778788 -0.71630442 0 0
-0.039453808 -0.022114944 0.038733684 -0.45009926 -0.89297855 0 0
-0.049022131 -0.10089162 0.038854226 0.18652336 -0.98245054 0 0
-0.038839038 -0.097680725 0.038831934 0.41073123 -0.91175652 0 0
-0.054425754 -0.09642183 0.038773395 -0.074110039 0.99725008 0 0
-0.053275257 -0.096323177 0.038902685 -0.10018844 0.99496847 0 0
-0.034980271 -0.095698185 0.03898387 0.49620926 -0.86820298 0 0
-0.044028427 -0.094247714 0.038809791 -0.33791506 0.94117665 0 0
-0.040277574 -0.092691682 0.038955845 -0.42656758 0.90445572 0 0
-0.021225072 -0.073066428 0.038958192 -0.91531163 0.40274647 0 0
-0.013002221 -0.061919454 0.038985133 0.99405622 -0.1088682 0 0
-0.023562197 -0.036843576 0.038807124 -0.85491151 -0.51877385 0 0
-0.025950335 -0.033339016 0.038843971 -0.79600227 -0.60529375 0 0
-0.023022402 -0.028782461 0.038853787 0.76884127 0.6394397 0 0
-0.08019571 -0.019161295 0.03876036 -0.51877367 0.85491168 0 0
-0.056069307 -0.017898202 0.038966812 -0.030535154 -0.99953371 0 0
-0.058728725 -0.10162444 0.039129186 -0.030540049 -0.99953353 0 0
-0.053199034 -0.10146993 0.039123628 0.091505542 -0.99580461 0 0
-0.06793005 -0.10033636 0.039181639 -0.23769234 -0.97134054 0 0
-0.040081535 -0.09822154 0.039012853 0.38670588 -0.92220312 0 0
-0.083810396 -0.092805505 0.039089564 -0.59832698 -0.80125213 0 0
-0.080318987 -0.089005612 0.039033607 0.59130722 0.80644643 0 0
-0.013397838 -0.04964656 0.039066754 0.98555636 0.16934779 0 0
-0.098740473 -0.041382249 0.0391431 -0.93513823 0.35428306 0 0
-0.028064214 -0.030799443 0.039246123 -0.7402178 -0.67236716 0 0
-0.047918875 -0.01899321 0.039107207 -0.23768656 -0.97134191 0 0
-0.044905629 -0.099916331 0.039276727 0.27983403 -0.96004838 0 0
-0.072144739 -0.099063076 0.039323241 -0.33792019 -0.94117481 0 0
-0.047130946 -0.095208339 0.039254531 -0.25461784 0.96704179 0 0
-0.099314861 -0.071419656 0.03934864 -0.94693071 -0.32143787 0 0
-0.1007131 -0.048120938 0.039398789 -0.97904199 0.20365857 0 0
-0.09458822 -0.045028213 0.039380893 0.9497 -0.31316116 0 0
-0.0978835 -0.039293177 0.039460573 -0.91531175 0.40274602 0 0
-0.086613931 -0.031107668 0.039286498 0.74605644 -0.66588277 0 0
-0.093036741 -0.030903455 0.039344549 -0.80644667 0.59130681 0 0
-0.035540823 -0.024385713 0.039495554 -0.54829621 -0.83628422 0 0
-0.080407426 -0.019289766 0.0393521 -0.51877367 0.85491168 0 0
-0.03505411 -0.08968918 0.03953629 -0.56280142 0.82659215 0 0
-0.088996433 -0.080331497 0.039605562 0.80644643 0.59130722 0 0
-0.026198382 -0.025347773 0.03956946 0.69779301 0.71629947 0 0
-0.035150349 -0.024646897 0.039665893 -0.56280142 -0.82659215 0 0
-0.076715209 -0.023066398 0.039565209 0.49622193 -0.86819571 0 0
-0.051613927 -0.013103726 0.039621826 0.12619869 0.99200499 0 0
-0.043426372 -0.099462532 0.039970979 0.31317791 -0.94969451 0 0
-0.02133134 -0.083452441 0.039898172 0.80644608 -0.5913077 0 0
-0.096876293 -0.077241272 0.0397695 -0.89298201 -0.45009246 0 0
-0.014466435 -0.069430619 0.039993383 0.96245611 -0.27143747 0 0
-0.02401441 -0.036114093 0.039754052 -0.84572953 -0.53361189 0 0
-0.095612153 -0.034832671 0.039851692 -0.86383605 0.50377315 0 0
-0.025372526 -0.026172973 0.039841864 0.71629947 0.69779301 0 0
-0.070223607 -0.020101203 0.039989814 0.32968491 -0.94409102 0 0
-0.068589687 -0.019567486 0.039964188 0.28819543 -0.95757163 0 0
-0.036298975 -0.090503849 0.040181633 -0.53360409 0.84573442 0 0
-0.101048 -0.064495325 0.040119775 -0.98699862 -0.16072869 0 0
-0.029187782 -0.022689121 0.040155888 0.63270396 0.7743938 0 0
-0.056956902 -0.012751868 0.04002171 0.0043649045 0.99999046 0 0
-0.038065679 -0.091549382 0.040273778 -0.48860931 0.87250274 0 0
-0.014730912 -0.070318669 0.040486246 0.95502013 -0.29654104 0 0
-0.021532638 -0.03067619 0.040494613 0.80125326 0.59832537 0 0
-0.08886373 -0.026003981 0.040251635 -0.71018529 0.70401484 0 0
-0.034525253 -0.025079308 0.040395387 -0.57714641 -0.81664068 0 0
-0.040850982 -0.015867218 0.040475436 0.3705568 0.92880982 0 0
-0.053422373 -0.096337996 0.040609099 -0.10018844 0.99496847 0 0
-0.038343664 -0.091702722 0.040588669 -0.48100495 0.87671793 0 0
-0.087866254 -0.081809744 0.040716328 0.77988064 0.62592828 0 0
-0.095310561 -0.047525257 0.040747188 0.96923208 -0.24614866 0 0
-0.081721306 -0.026464378 0.040724121 0.62592494 -0.77988333 0 0
-0.025910238 -0.025630789 0.040542025 0.70401484 0.71018529 0 0
-0.055815 -0.017906092 0.040603384 -0.03925911 -0.99922907 0 0
-0.070613652 -0.014822966 0.040707074 -0.30486712 0.9523949 0 0
-0.053326175 -0.10148161 0.040949237 0.091505542 -0.99580461 0 0
-0.046659719 -0.10038241 0.040750001 0.23769234 -0.97134054 0 0
-0.064266466 -0.095879629 0.040999994 0.17794713 0.98404002 0 0
-0.094930485 -0.068266273 0.040961929 0.96004939 0.27983072 0 0
-0.013642319 -0.066058569 0.040988974 0.98078525 -0.19509053 0 0
-0.018062493 -0.053433523 0.04087051 -0.99580485 -0.091502875 0 0
-0.091985263 -0.038870178 0.04093311 0.88497901 -0.46563095 0 0
-0.05659128 -0.10164621 0.041004207 0.013080318 -0.99991447 0 0
-0.029268377 -0.091777749 0.041063279 0.62591934 -0.7798878 0 0
-0.077022746 -0.091157548 0.041083887 0.50376165 0.86384267 0 0
-0.020802805 -0.082715124 0.041084681 0.81663555 -0.57715368 0 0
-0.036974043 -0.017619709 0.04100243 0.45787641 0.88901585 0 0
-0.059914656 -0.10156789 0.041367471 -0.065401584 -0.99785906 0 0
-0.043582551 -0.094085954 0.041328095 -0.34611893 0.93819064 0 0
-0.087188587 -0.082631171 0.041264169 0.76321989 0.64613885 0 0
-0.015823264 -0.073439144 0.041342691 0.93200666 -0.36244115 0 0
-0.014134384 -0.068203211 0.041662626 0.96923131 -0.24615173 0 0
-0.018415481 -0.050744146 0.041506518 -0.98699635 -0.16074289 0 0
-0.092801049 -0.073892117 0.041933902 0.90445375 0.42657176 0 0
-0.017881822 -0.057149004 0.041834861 -0.99999052 -0.0043644952 0 0
-0.018554088 -0.035241533 0.0418768 0.86819881 0.49621654 0 0
-0.031706341 -0.020788791 0.041929893 0.56998956 0.82165194 0 0
-0.07917349 -0.095839836 0.042183053 -0.49621752 -0.86819828 0 0
-0.081111997 -0.094671398 0.042032588 -0.54096437 -0.84104556 0 0
-0.070586167 -0.094171241 0.042010445 0.33791506 0.94117665 0 0
-0.028948175 -0.084546283 0.042204082 -0.71630186 0.69779062 0 0
-0.013431177 -0.049454015 0.042165522 0.98404044 0.17794515 0 0
-0.081408262 -0.026216969 0.04212749 0.61908704 -0.78532237 0 0
-0.088590257 -0.025728833 0.042232752 -0.70401728 0.71018291 0 0
-0.044880997 -0.014492461 0.042024676 0.27982962 0.96004969 0 0
-0.042884804 -0.093820848 0.042441078 -0.36244836 0.93200386 0 0
-0.092985332 -0.073493809 0.042354308 0.91176295 0.41071677 0 0
-0.081058808 -0.094705299 0.042715974 -0.53362149 -0.84572345 0 0
-0.082284003 -0.093896903 0.042537227 -0.56279856 -0.82659411 0 0
-0.072169773 -0.093558848 0.0425198 0.37864217 0.92554313 0 0
-0.020101557 -0.081684045 0.0426093 0.83628327 -0.5482977 0 0
-0.10163712 -0.056108467 0.042657748 -0.99976194 0.021819973 0 0
-0.020444725 -0.043237906 0.042560406 -0.93513525 -0.35429108 0 0
-0.021660827 -0.04038167 0.042661123 -0.90445572 -0.42656758 0 0
-0.091870278 -0.029383685 0.042604323 -0.7798878 0.62591934 0 0
-0.068521 -0.10018474 0.042870577 -0.25459731 -0.96704721 0 0
-0.042132359 -0.093517937 0.042820595 -0.38670823 0.92220211 0 0
-0.016770851 -0.075672597 0.042863309 0.90814567 -0.41865435 0 0
-0.096516721 -0.057679318 0.042988062 0.99991429 0.013093625 0 0
-0.017884502 -0.05765149 0.04297968 -0.99991435 0.013088197 0 0
-0.01904553 -0.047705036 0.042928115 -0.97134191 -0.23768656 0 0
-0.017114107 -0.037995692 0.042872556 0.90069646 0.43444905 0 0
-0.03703133 -0.017590314 0.042784192 0.45009628 0.89298004 0 0
-0.062545985 -0.013073619 0.042808574 -0.11753691 0.99306852 0 0
-0.036730751 -0.096656598 0.043108068 0.45787263 -0.88901782 0 0
-0.06400913 -0.095925994 0.043232687 0.16934772 0.98555636 0 0
-0.072894916 -0.093251996 0.04301817 0.40273279 0.9153176 0 0
-0.09212184 -0.084701449 0.043142974 -0.78531623 -0.61909485 0 0
-0.087663688 -0.082060069 0.043109968 0.77439153 0.6327067 0 0
-0.014345144 -0.068997838 0.043171406 0.96478742 -0.26303086 0 0
-0.09393394 -0.043177411 0.043026276 0.93513703 -0.35428634 0 0
-0.092202663 -0.029802676 0.043244597 -0.78531438 0.61909723 0 0
-0.051861823 -0.018246125 0.043077298 -0.13484964 -0.99086607 0 0
-0.041898474 -0.015468187 0.043116 0.34611711 0.93819135 0 0
-0.057058554 -0.096519388 0.043406747 -0.0043644952 0.99999052 0 0
-0.035605919 -0.096052393 0.043330267 0.48862207 -0.87249553 0 0
-0.018960582 -0.079860389 0.043344386 0.85940462 -0.51129615 0 0
-0.040779795 -0.021475144 0.043284047 -0.41865677 -0.90814453 0 0
-0.054975547 -0.012806867 0.043330245 0.047978435 0.99884838 0 0
-0.052641328 -0.10141604 0.043594576 0.10018643 -0.99496871 0 0
-0.035554998 -0.09602388 0.043655585 0.48862207 -0.87249553 0 0
-0.091115251 -0.07709527 0.043705024 0.86384267 0.50376165 0 0
-0.10081795 -0.04863805 0.043746512 -0.98078519 0.19509102 0 0
-0.014073965 -0.046436291 0.043742288 0.96923071 0.24615403 0 0
-0.015483908 -0.041855838 0.043556683 0.93819135 0.34611711 0 0
-0.093643539 -0.031750653 0.043685254 -0.8216452 0.56999928 0 0
-0.04060369 -0.021556331 0.043678973 -0.41865677 -0.90814453 0 0
-0.06472601 -0.013392859 0.043524835 -0.16934779 0.98555636 0 0
-0.093597457 -0.031684615 0.043997295 -0.81664783 0.57713628 0 0
-0.051981516 -0.018229838 0.043876696 -0.13484964 -0.99086607 0 0
-0.081793308 -0.094227664 0.044150144 -0.55557311 -0.83146769 0 0
-0.088133194 -0.081473514 0.044095367 0.78532505 0.6190837 0 0
-0.021075921 -0.072723798 0.044095684 -0.91879004 0.39474666 0 0
-0.096471593 -0.059144434 0.044128008 0.99884897 0.047966465 0 0
-0.096494116 -0.055779859 0.044016734 0.99922907 -0.03925911 0 0
-0.098840602 -0.041646894 0.044191692 -0.93819052 0.34611923 0 0
-0.016125076 -0.040213197 0.044212423 0.92553991 0.37865004 0 0
-0.088604964 -0.033541214 0.04402414 0.8012529 -0.59832585 0 0
-0.069062486 -0.019713638 0.044219721 0.30486396 -0.95239592 0 0
-0.056978911 -0.10164984 0.04430265 0.004360103 -0.99999052 0 0
-0.058471788 -0.096499145 0.044393197 0.030551756 0.99953318 0 0
-0.019329585 -0.0466295 0.04445076 -0.96245557 -0.27143943 0 0
-0.091250211 -0.037537754 0.044407792 0.86383998 -0.50376642 0 0
-0.079055943 -0.095906638 0.044531483 -0.48861802 -0.87249786 0 0
-0.065527312 -0.095627874 0.044690371 0.21219164 0.97722811 0 0
-0.081823297 -0.094207637 0.044645172 -0.55557311 -0.83146769 0 0
-0.099067301 -0.07213296 0.044533372 -0.94117481 -0.33792019 0 0
-0.10132602 -0.051839016 0.044667337 -0.99306923 0.11753105 0 0
-0.023072258 -0.037676122 0.044650115 -0.86819839 -0.49621725 0 0
-0.038803391 -0.01673694 0.044715747 0.41071925 0.91176188 0 0
-0.089938022 -0.08726839 0.044796433 -0.73432606 -0.67879689 0 0
-0.015217984 -0.071802571 0.044867493 0.94408917 -0.32969031 0 0
-0.096371159 -0.053783454 0.044812322 0.99656481 -0.082817256 0 0
-0.022088917 -0.039505437 0.044814292 -0.89297855 -0.45009926 0 0
-0.095531829 -0.034694929 0.0448713 -0.86383605 0.50377315 0 0
-0.02584861 -0.025691882 0.04489325 0.70401484 0.71018529 0 0
-0.035151232 -0.018605707 0.044856515 0.49621654 0.86819881 0 0
-0.045309268 -0.014371037 0.044893116 0.2714397 0.96245551 0 0
-0.023057504 -0.085661352 0.045122623 0.76884127 -0.6394397 0 0
-0.093908094 -0.0712924 0.045009144 0.93200386 0.36244836 0 0
-0.034257829 -0.025269758 0.045042209 -0.5842495 -0.8115741 0 0
-0.074375272 -0.021831071 0.045245953 0.43444389 -0.9006989 0 0
-0.042580165 -0.020701349 0.045204442 -0.37055662 -0.92880988 0 0
-0.034919735 -0.018738672 0.045000538 0.50376952 0.86383808 0 0
-0.054270439 -0.096410282 0.04525381 -0.074110039 0.99725008 0 0
-0.047770355 -0.095372066 0.045284472 -0.23768143 0.97134316 0 0
-0.042924512 -0.093836293 0.045306325 -0.36244836 0.93200386 0 0
-0.094837293 -0.068579152 0.045348153 0.95757312 0.28819045 0 0
-0.095987111 -0.050750278 0.045479789 0.98699892 -0.16072702 0 0
-0.087471254 -0.032107502 0.045312818 0.76884747 -0.63943231 0 0
-0.086581841 -0.083329901 0.045621373 0.74605405 0.66588539 0 0
-0.091848068 -0.075789429 0.04554338 0.88089472 0.47331235 0 0
-0.094500206 -0.069640309 0.045613319 0.94970113 0.31315795 0 0
-0.020044511 -0.044340309 0.045514561 -0.94408983 -0.32968828 0 0
-0.07906919 -0.018502386 0.045626413 -0.48861802 0.87249786 0 0
-0.0506666 -0.01323384 0.04564333 0.14349127 0.98965162 0 0
-0.053069554 -0.012943582 0.045649245 0.091503158 0.99580479 0 0
-0.048373118 -0.10076527 0.045791756 0.19509102 -0.98078519 0 0
-0.094357878 -0.070059001 0.04589507 0.94409275 0.32968009 0 0
-0.018139835 -0.061698236 0.045886345 -0.99306846 0.11753792 0 0
-0.025695905 -0.025844552 0.045866642 0.71018529 0.70401484 0 0
-0.045099884 -0.019790214 0.04589108 -0.30486396 -0.95239592 0 0
-0.033221722 -0.088361487 0.046104979 -0.61222619 0.79068273 0 0
-0.10006519 -0.068965778 0.04604163 -0.96478868 -0.26302642 0 0
-0.01297427 -0.061648201 0.046234533 0.99496871 -0.10018643 0 0
-0.020034499 -0.044368982 0.046073839 -0.94408983 -0.32968828 0 0
-0.03145754 -0.020964613 0.046240695 0.57714915 0.81663877 0 0
-0.053401496 -0.018065717 0.046218384 -0.10018307 -0.99496901 0 0
-0.037035733 -0.017588096 0.046035919 0.45009628 0.89298004 0 0
-0.06931749 -0.01443454 0.046072744 -0.27144191 0.96245486 0 0
-0.066947192 -0.01383288 0.046152562 -0.22069764 0.97534227 0 0
-0.020510357 -0.043065839 0.046399605 -0.93200755 -0.36243892 0 0
-0.065778315 -0.013586583 0.046310719 -0.19509053 0.98078525 0 0
-0.088015571 -0.089235567 0.046588138 -0.69151479 -0.72236234 0 0
-0.017883515 -0.056825288 0.046653043 -0.99991435 -0.013088055 0 0
-0.018129714 -0.052791666 0.046723224 -0.99394995 -0.1098339 0 0
-0.074165784 -0.016115829 0.046730828 -0.37865004 0.92553991 0 0
-0.055083703 -0.012801671 0.046659432 0.047978435 0.99884838 0 0
-0.084652983 -0.08534947 0.046957221 0.69779617 0.71629637 0 0
-0.019265875 -0.046860985 0.046758201 -0.96478689 -0.26303288 0 0
-0.084585458 -0.022188321 0.046979014 -0.61909193 0.78531861 0 0
-0.048834048 -0.018782474 0.046916042 -0.21217385 -0.97723198 0 0
-0.036980908 -0.017616171 0.046812989 0.45787641 0.88901585 0 0
-0.049908943 -0.095837593 0.047122858 -0.18652338 0.9824506 0 0
-0.080821805 -0.088633783 0.047064669 0.59833109 0.80124903 0 0
-0.013698643 -0.066329539 0.047172837 0.97904527 -0.20364285 0 0
-0.095733076 -0.049374044 0.047191259 0.98078316 -0.19510131 0 0
-0.091336712 -0.037689038 0.047153972 0.86819369 -0.49622545 0 0
-0.087733828 -0.032427385 0.047010325 0.77439153 -0.6327067 0 0
-0.083247691 -0.027746499 0.047196232 0.65934509 -0.75184047 0 0
-0.032397784 -0.094087012 0.047351811 0.55557752 -0.83146477 0 0
-0.091005087 -0.037119936 0.047263037 0.85940385 -0.5112974 0 0
-0.052840319 -0.10143609 0.047565952 0.10018643 -0.99496871 0 0
-0.084238753 -0.085747898 0.047507577 0.68518251 0.72837144 0 0
-0.024782438 -0.079450339 0.047744095 -0.82658875 0.56280643 0 0
-0.014250448 -0.068648554 0.047705669 0.96704596 -0.25460178 0 0
-0.018242519 -0.062513344 0.047532365 -0.99086607 0.13484964 0 0
-0.093881838 -0.043041673 0.047681823 0.93200386 -0.36244836 0 0
-0.083375923 -0.02786085 0.047604881 0.66588539 -0.74605405 0 0
-0.082804099 -0.027360436 0.04773996 0.65274996 -0.75757343 0 0
-0.08794716 -0.025100555 0.047573902 -0.69151729 0.72235996 0 0
-0.068039373 -0.014092786 0.047646601 -0.24615173 0.96923131 0 0
-0.099725708 -0.070139669 0.047991596 -0.95757329 -0.2881901 0 0
-0.095784724 -0.064767972 0.047995772 0.98078394 0.19509716 0 0
-0.014366062 -0.045327041 0.047989786 0.96478677 0.26303333 0 0
-0.018582664 -0.035191536 0.04776822 0.86819881 0.49621654 0 0
-0.025834076 -0.033491902 0.047906905 -0.79600227 -0.60529375 0 0
-0.057206534 -0.096519977 0.048047543 0.0043644952 0.99999052 0 0
-0.096403107 -0.054173999 0.048120007 0.99725008 -0.074110039 0 0
-0.020646771 -0.04271695 0.048243798 -0.92880988 -0.37055662 0 0
-0.026146509 -0.033084325 0.048077665 -0.79068536 -0.61222279 0 0
-0.085578904 -0.029985838 0.048151352 0.72236639 -0.6915105 0 0
-0.052952994 -0.012954293 0.048085697 0.091503158 0.99580479 0 0
-0.042922266 -0.093835421 0.048253156 -0.36244836 0.93200386 0 0
-0.094394371 -0.081540152 0.048310943 -0.83628106 -0.5483011 0 0
-0.097710118 -0.075497292 0.048473097 -0.91175652 -0.41073123 0 0
-0.096244656 -0.061842702 0.04844391 0.99306846 0.11753792 0 0
-0.034596343 -0.018927786 0.048280507 0.51129615 0.85940462 0 0
-0.072450832 -0.015448897 0.048430812 -0.34611711 0.93819135 0 0
-0.076777935 -0.09710706 0.048618093 -0.44228974 -0.89687228 0 0
-0.071467549 -0.093839996 0.048509084 0.36244836 0.93200386 0 0
-0.095076963 -0.067754552 0.048597805 0.96245331 0.2714473 0 0
-0.019095656 -0.047507055 0.048550934 -0.96923077 -0.24615376 0 0
-0.02035483 -0.043476366 0.048525896 -0.93819243 -0.34611413 0 0
-0.055578291 -0.01791539 0.048640389 -0.03925911 -0.99922907 0 0
-0.058477879 -0.1016321 0.048818823 -0.030540049 -0.99953353 0 0
-0.059797131 -0.096433833 0.048752509 0.065402769 0.99785894 0 0
-0.017935608 -0.055140764 0.048799284 -0.99839187 -0.056690045 0 0
-0.085220344 -0.029616501 0.048888862 0.71018618 -0.70401394 0 0
-0.043147236 -0.015031124 0.048949376 0.31316492 0.94969875 0 0
-0.057963029 -0.10164422 0.049110137 -0.013080318 -0.99991447 0 0
-0.056225557 -0.10163969 0.049136318 0.021819973 -0.99976194 0 0
-0.026035037 -0.081173323 0.049174685 -0.79068124 0.6122281 0 0
-0.025182236 -0.080021992 0.049110226 -0.81664068 0.57714641 0 0
-0.021554511 -0.040607627 0.049163759 -0.90814453 -0.41865677 0 0
-0.01693226 -0.038379699 0.0490973 0.90445423 0.42657065 0 0
-0.026860921 -0.032190979 0.049243063 -0.77438885 -0.63270998 0 0
-0.028772445 -0.030038321 0.049152717 -0.72236103 -0.69151622 0 0
-0.059371248 -0.10159738 0.049319055 -0.047980368 -0.99884832 0 0
-0.034956671 -0.095684484 0.049254425 0.50377315 -0.86383605 0 0
-0.07107202 -0.093991607 0.049362183 0.35428634 0.93513703 0 0
-0.0880538 -0.081574216 0.049462967 0.78532505 0.6190837 0 0
-0.091465428 -0.076485813 0.049485832 0.87250012 0.48861396 0 0
-0.10119252 -0.050837368 0.049464505 -0.98965061 0.14349833 0 0
-0.028056636 -0.030807789 0.049261 -0.7402178 -0.67236716 0 0
-0.032489914 -0.026617164 0.04937024 -0.62591964 -0.77988756 0 0
-0.029821452 -0.022184126 0.04948917 0.61909425 0.78531671 0 0
-0.040982418 -0.021382654 0.049253888 -0.41071677 -0.91176295 0 0
-0.041872099 -0.02099281 0.049429342 -0.38671747 -0.9221983 0 0
-0.054319642 -0.012844695 0.049485903 0.065404594 0.99785888 0 0
-0.036749318 -0.096666165 0.04951299 0.45787263 -0.88901782 0 0
-0.038999826 -0.09205348 0.049583018 -0.46563095 0.88497901 0 0
-0.094533481 -0.069539413 0.049552914 0.94970113 0.31315795 0 0
-0.078822613 -0.024360696 0.04951771 0.54829121 -0.8362875 0 0
-0.032110661 -0.020509418 0.04956118 0.56280631 0.82658881 0 0
-0.080112517 -0.01911081 0.049618233 -0.51877367 0.85491168 0 0
-0.083269581 -0.027765928 0.04995675 0.66588539 -0.74605405 0 0
-0.075954609 -0.02264229 0.049769171 0.47332919 -0.88088566 0 0
-0.079380028 -0.018679818 0.049829364 -0.49622479 0.8681941 0 0
-0.079430535 -0.089632638 0.050199792 0.56280643 0.82658875 0 0
-0.018543806 -0.079142079 0.050157119 0.8681941 -0.49622479 0 0
-0.012820709 -0.059685584 0.050062425 0.99839181 -0.056691229 0 0
-0.035558779 -0.018375613 0.050113246 0.48862207 0.87249553 0 0
-0.061018396 -0.018067559 0.050149854 0.10018844 -0.99496847 0 0
-0.057156738 -0.012750996 0.050034523 0.0043649045 0.99999046 0 0
-0.059014097 -0.10161343 0.05028829 -0.039260402 -0.99922901 0 0
-0.086275592 -0.083670191 0.050477639 0.74021024 0.67237556 0 0
-0.015965888 -0.073797964 0.050417431 0.92880851 -0.37056011 0 0
-0.09864974 -0.073255494 0.05046526 -0.93200505 -0.36244532 0 0
-0.09259592 -0.030313063 0.050480142 -0.7960059 0.60528892 0 0
-0.052257903 -0.096207716 0.050739355 -0.12620184 0.99200463 0 0
-0.024716653 -0.079353705 0.050516117 -0.82658875 0.56280643 0 0
-0.10055725 -0.047403745 0.05062345 -0.97534281 0.22069535 0 0
-0.014005419 -0.046715997 0.050742418 0.97134215 0.23768553 0 0
-0.088851422 -0.033872321 0.050563559 0.80644262 -0.59131241 0 0
-0.078800544 -0.024346227 0.050533131 0.54829121 -0.8362875 0 0
-0.080526054 -0.019362956 0.050507482 -0.52620918 0.85035521 0 0
-0.061819613 -0.096247405 0.050759688 0.11753792 0.99306846 0 0
-0.065480441 -0.095638052 0.050983898 0.21219164 0.97722811 0 0
-0.091136605 -0.085908398 0.050803054 -0.76323253 -0.64612389 0 0
-0.10161208 -0.055353418 0.050798345 -0.99922901 0.039260019 0 0
-0.092854336 -0.040623356 0.050888754 0.90814042 -0.41866571 0 0
-0.091617569 -0.038188465 0.050958831 0.87671793 -0.48100495 0 0
-0.08203093 -0.026714113 0.050935872 0.63270998 -0.77438885 0 0
-0.050135028 -0.018522 0.050791055 -0.17794526 -0.98404044 0 0
-0.049844503 -0.10103779 0.051151812 0.16935246 -0.98555559 0 0
-0.017739134 -0.077659458 0.051188435 0.88901389 -0.45788035 0 0
-0.016193822 -0.074352898 0.051213522 0.92220283 -0.38670653 0 0
-0.018058151 -0.053480759 0.051075928 -0.99580485 -0.091502875 0 0
-0.013776267 -0.047709808 0.051173892 0.97723097 0.21217835 0 0
-0.08585798 -0.030279862 0.051227562 0.72837144 -0.68518251 0 0
-0.055938907 -0.017902188 0.051229879 -0.030535154 -0.99953371 0 0
-0.061003961 -0.096335508 0.051327974 0.10018844 0.99496847 0 0
-0.079971768 -0.095374763 0.051337793 -0.51128906 -0.85940886 0 0
-0.032398224 -0.094087303 0.051431745 0.55557752 -0.83146477 0 0
-0.10099307 -0.064817183 0.051478729 -0.98555559 -0.16935246 0 0
-0.10123689 -0.063249782 0.051354341 -0.99086511 -0.13485692 0 0
-0.017977273 -0.054459564 0.051408965 -0.997859 -0.065402053 0 0
-0.039182831 -0.022253368 0.051302411 -0.45787364 -0.88901728 0 0
-0.072891593 -0.09878888 0.051526751 -0.35428306 -0.93513823 0 0
-0.091506347 -0.085466109 0.05174993 -0.77439618 -0.6327011 0 0
-0.10164993 -0.05739937 0.051663537 -0.99999052 -0.004360145 0 0
-0.03086333 -0.028006183 0.05170735 -0.67236716 -0.7402178 0 0
-0.038450755 -0.022640262 0.051565982 -0.47332013 -0.88089055 0 0
-0.078426689 -0.018146262 0.051589832 -0.48098946 0.87672645 0 0
-0.091505438 -0.085467219 0.051760074 -0.77439618 -0.6327011 0 0
-0.10022909 -0.068352483 0.051970392 -0.96704721 -0.25459731 0 0
-0.012773161 -0.055803742 0.051819701 0.99953353 0.030540049 0 0
-0.090586178 -0.036430754 0.051885948 0.85035098 -0.52621597 0 0
-0.059204679 -0.017932901 0.051873155 0.047982715 -0.9988482 0 0
-0.07390964 -0.016011037 0.051889554 -0.37865004 0.92553991 0 0
-0.057829998 -0.012755656 0.051824898 -0.01308752 0.99991441 0 0
-0.036858212 -0.023553316 0.052109219 -0.51877385 -0.85491151 0 0
-0.032268733 -0.020401791 0.052041922 0.56280631 0.82658881 0 0
-0.072915025 -0.015621612 0.052195523 -0.35428515 0.93513745 0 0
-0.07542906 -0.092039131 0.052472934 0.46562651 0.88498133 0 0
-0.089510202 -0.087727457 0.052334063 -0.72836632 -0.68518794 0 0
-0.030349318 -0.085923322 0.052447069 -0.68518251 0.72837144 0 0
-0.018811438 -0.065701 0.05237842 -0.9772315 0.2121761 0 0
-0.039600648 -0.016384102 0.052259661 0.39474326 0.91879147 0 0
-0.068975993 -0.0143392 0.052319355 -0.26303086 0.96478742 0 0
-0.062373161 -0.013053164 0.052340638 -0.11753691 0.99306852 0 0
-0.053991184 -0.012867178 0.052455366 0.074107111 0.99725032 0 0
-0.059258908 -0.10160278 0.052657589 -0.047980368 -0.99884832 0 0
-0.098940514 -0.07248389 0.052542277 -0.93819052 -0.34611923 0 0
-0.020980125 -0.072499283 0.052707411 -0.9221983 0.38671747 0 0
-0.027393883 -0.024226202 0.052710705 0.67236465 0.74022007 0 0
-0.043290075 -0.020424966 0.052606344 -0.35429108 -0.93513525 0 0
-0.052276172 -0.01302479 0.05272856 0.1088682 0.99405622 0 0
-0.076391563 -0.097294405 0.052795243 -0.43443754 -0.900702 0 0
-0.05141212 -0.096091464 0.052777156 -0.14348671 0.98965228 0 0
-0.018253939 -0.078622982 0.052958805 0.87672645 -0.48098946 0 0
-0.023221746 -0.07698451 0.052963916 -0.86384034 0.5037657 0 0
-0.09188503 -0.075720638 0.052828815 0.88089472 0.47331235 0 0
-0.09984991 -0.069723822 0.052981485 -0.96004838 -0.27983403 0 0
-0.10090481 -0.065309919 0.052999511 -0.98245019 -0.18652512 0 0
-0.094152473 -0.043763205 0.052969918 0.94117665 -0.33791506 0 0
-0.050617561 -0.013241068 0.052989736 0.15212502 0.98836124 0 0
-0.075212099 -0.097837888 0.053079028 -0.4027496 -0.9153102 0 0
-0.076560289 -0.09721303 0.053103965 -0.43443754 -0.900702 0 0
-0.046667077 -0.095082618 0.053207286 -0.27144447 0.96245414 0 0
-0.081576407 -0.094370618 0.053146638 -0.5483011 -0.83628106 0 0
-0.093534701 -0.072228789 0.0530148 0.92554313 0.37864217 0 0
-0.013752572 -0.066582665 0.053210761 0.97723109 -0.21217807 0 0
-0.096508555 -0.056264862 0.053100564 0.99976236 -0.021800995 0 0
-0.014243471 -0.04577956 0.053127632 0.96704662 0.25459942 0 0
-0.037226293 -0.017492047 0.053129435 0.45009628 0.89298004 0 0
-0.07127738 -0.093913808 0.053387262 0.35428634 0.93513703 0 0
-0.093716949 -0.071779564 0.053311497 0.9288103 0.37055567 0 0
-0.01445356 -0.069384977 0.053313967 0.96245611 -0.27143747 0 0
-0.096507058 -0.056196116 0.053390849 0.99976236 -0.021800995 0 0
-0.07559894 -0.022451861 0.053377591 0.46560955 -0.88499033 0 0
-0.043427784 -0.099463001 0.053561658 0.31317791 -0.94969451 0 0
-0.039308317 -0.097890168 0.053697981 0.40274602 -0.91531175 0 0
-0.038123012 -0.097348273 0.053503662 0.42657849 -0.90445054 0 0
-0.044871353 -0.094536513 0.053649027 -0.31316116 0.9497 0 0
-0.088584684 -0.0886783 0.053548235 -0.70401728 -0.71018291 0 0
-0.021678051 -0.074056461 0.053545505 -0.90445375 0.42657176 0 0
-0.048616089 -0.018830478 0.053595088 -0.2206994 -0.97534192 0 0
-0.073768303 -0.015954068 0.05364855 -0.37056011 0.92880851 0 0
-0.025304062 -0.088158362 0.053847563 0.71630418 -0.69778824 0 0
-0.094426543 -0.069858365 0.053924508 0.94692528 0.3214539 0 0
-0.012778357 -0.055637218 0.053799059 0.99922901 0.039260019 0 0
-0.094795525 -0.04568433 0.053874861 0.95501858 -0.29654604 0 0
-0.081346974 -0.019881355 0.053818341 -0.54097456 0.841039 0 0
-0.028678274 -0.091292553 0.054187328 0.6394397 -0.76884127 0 0
-0.094126806 -0.070708275 0.054038357 0.93819064 0.34611893 0 0
-0.10022374 -0.068372786 0.054238014 -0.96704721 -0.25459731 0 0
-0.095965192 -0.063780896 0.05409101 0.98555636 0.16934772 0 0
-0.10160205 -0.055127893 0.054117847 -0.99884826 0.047980826 0 0
-0.013356734 -0.049886949 0.054022737 0.98699635 0.16074273 0 0
-0.077706143 -0.017763196 0.054217454 -0.45788035 0.88901389 0 0
-0.069474563 -0.099922568 0.054412112 -0.27983403 -0.96004838 0 0
-0.023615818 -0.028083246 0.054336451 0.75756544 0.65275931 0 0
-0.063834608 -0.018445633 0.054454863 0.16934772 -0.98555636 0 0
-0.071915537 -0.099144161 0.054692954 -0.32967958 -0.94409287 0 0
-0.096507773 -0.056229092 0.054748747 0.99976236 -0.021800995 0 0
-0.018735297 -0.034925509 0.054523215 0.86383808 0.50376952 0 0
-0.031857446 -0.020683967 0.0546165 0.56998956 0.82165194 0 0
-0.034999445 -0.018692464 0.054539636 0.49621654 0.86819881 0 0
-0.053040348 -0.018102527 0.054623693 -0.10886858 -0.99405617 0 0
-0.049679715 -0.013392149 0.054697465 0.16934779 0.98555636 0 0
-0.055204667 -0.012795862 0.054733865 0.047978435 0.99884838 0 0
-0.063261494 -0.10123532 0.054999575 -0.13485692 -0.99086511 0 0
-0.055675328 -0.09649004 0.054960597 -0.03925911 0.99922907 0 0
-0.085586779 -0.084407553 0.054990496 0.72236639 0.6915105 0 0
-0.093428016 -0.082956761 0.05485782 -0.81664461 -0.57714081 0 0
-0.096318848 -0.078308821 0.054792728 -0.88089514 -0.4733116 0 0
-0.014981922 -0.07110519 0.054853529 0.94969875 -0.31316492 0 0
-0.013731065 -0.066483609 0.054909192 0.97723109 -0.21217807 0 0
-0.10159222 -0.059478249 0.054799713 -0.99884832 -0.047980368 0 0
-0.087964579 -0.032714382 0.054853074 0.77988493 -0.62592298 0 0
-0.034407388 -0.025162611 0.054970991 -0.57714641 -0.81664068 0 0
-0.049608283 -0.013404425 0.054829448 0.16934779 0.98555636 0 0
-0.060470805 -0.096383423 0.055206008 0.082816362 0.99656487 0 0
-0.045399021 -0.094706945 0.055137556 -0.29654604 0.95501858 0 0
-0.020363443 -0.082076564 0.055134729 0.82659185 -0.56280184 0 0
-0.08793515 -0.081723906 0.055047072 0.77988064 0.62592828 0 0
-0.094216026 -0.070461392 0.055210948 0.94117665 0.33791506 0 0
-0.01866499 -0.065009877 0.055217318 -0.98078603 0.19508672 0 0
-0.044180006 -0.014700782 0.055210322 0.29653829 0.95502096 0 0
-0.051612943 -0.096120581 0.055422537 -0.14348671 0.98965228 0 0
-0.022193249 -0.084591731 0.055425901 0.78531861 -0.61909193 0 0
-0.013902994 -0.047146745 0.055321511 0.97337919 0.22920084 0 0
-0.021220073 -0.041346528 0.055354465 -0.91531163 -0.40274647 0 0
-0.028445091 -0.023305723 0.055498656 0.64612675 0.7632302 0 0
-0.059421219 -0.017944727 0.055323415 0.056689426 -0.99839187 0 0
-0.077502564 -0.017658345 0.055492088 -0.45788035 0.88901389 0 0
-0.063113838 -0.013146207 0.055435076 -0.13485222 0.99086571 0 0
-0.059980508 -0.012838046 0.055370491 -0.065403968 0.99785888 0 0
-0.080957867 -0.088530891 0.055709817 0.60527819 0.79601407 0 0
-0.097610563 -0.075716354 0.055599488 -0.9081493 -0.41864645 0 0
-0.014161645 -0.046091057 0.055529196 0.96923071 0.24615403 0 0
-0.075250983 -0.016580835 0.055656489 -0.4027496 0.9153102 0 0
-0.012825537 -0.054631017 0.055836767 0.99839181 0.056690685 0 0
-0.018474637 -0.035381947 0.055762194 0.87249553 0.48862207 0 0
-0.071728505 -0.015192132 0.055857453 -0.32969031 0.94408917 0 0
-0.055201322 -0.012796022 0.055760674 0.047978435 0.99884838 0 0
-0.060153231 -0.10155225 0.056180198 -0.065401584 -0.99785906 0 0
-0.05923954 -0.1016037 0.056134541 -0.047980368 -0.99884832 0 0
-0.028694155 -0.091305763 0.056163605 0.6394397 -0.76884127 0 0
-0.089131787 -0.080143854 0.056007668 0.81156528 0.58426183 0 0
-0.090495043 -0.078116566 0.056173664 0.84573752 0.53359914 0 0
-0.093542531 -0.072209634 0.056226127 0.92554313 0.37864217 0 0
-0.096445754 -0.059615023 0.056085739 0.99785894 0.065402769 0 0
-0.10018897 -0.045896731 0.056020226 -0.96704781 0.25459492 0 0
-0.018217783 -0.035844527 0.056019533 0.87672418 0.48099348 0 0
-0.052774034 -0.09626992 0.056322373 -0.1088525 0.99405795 0 0
-0.099569023 -0.070643701 0.056371097 -0.95239562 -0.30486494 0 0
-0.080949634 -0.025864454 0.056262556 0.60528845 -0.7960062 0 0
-0.026159283 -0.025385864 0.056387611 0.69779301 0.71629947 0 0
-0.075093687 -0.02218895 0.056259826 0.45787364 -0.88901728 0 0
-0.074605145 -0.016299982 0.05645014 -0.39474732 0.91878974 0 0
-0.049568832 -0.013411202 0.056277379 0.16934779 0.98555636 0 0
-0.053454094 -0.012909367 0.056486458 0.082808629 0.99656546 0 0
-0.061897419 -0.10140179 0.056633435 -0.1088682 -0.99405622 0 0
-0.079519361 -0.089571543 0.056675188 0.56998879 0.82165247 0 0
-0.093268484 -0.083179384 0.056724865 -0.81157225 -0.58425212 0 0
-0.099810034 -0.069859512 0.056552175 -0.95757329 -0.2881901 0 0
-0.10164288 -0.056372508 0.056652904 -0.99976194 0.021819973 0 0
-0.029681392 -0.029117608 0.056747023 -0.69778788 -0.71630442 0 0
-0.085949473 -0.023299772 0.056608699 -0.64612675 0.7632302 0 0
-0.037061982 -0.023430998 0.056631204 -0.51129335 -0.85940623 0 0
-0.04003571 -0.021826543 0.056534108 -0.43444389 -0.9006989 0 0
-0.085107557 -0.084898874 0.056847334 0.71019429 0.70400584 0 0
-0.013931489 -0.047025729 0.056814197 0.97337919 0.22920084 0 0
-0.092862085 -0.030666981 0.056791507 -0.80124861 0.59833151 0 0
-0.083630204 -0.021461692 0.056794338 -0.5913077 0.80644608 0 0
-0.072424389 -0.020948732 0.056791101 0.38671747 -0.9221983 0 0
-0.0809232 -0.019610748 0.056885697 -0.53361464 0.8457278 0 0
-0.072843902 -0.093274072 0.057091489 0.3947604 0.91878414 0 0
-0.099900186 -0.044850297 0.057027239 -0.96004838 0.27983403 0 0
-0.020287188 -0.043659724 0.057200838 -0.93819243 -0.34611413 0 0
-0.055247124 -0.10160779 0.057361104 0.047980826 -0.99884826 0 0
-0.024683051 -0.087505817 0.05728342 0.73432368 -0.67879951 0 0
-0.044088691 -0.094269224 0.057727057 -0.32968345 0.94409156 0 0
-0.024613667 -0.079202458 0.057708483 -0.82658875 0.56280643 0 0
-0.013120675 -0.051480621 0.057653375 0.99200499 0.12619869 0 0
-0.033573292 -0.025772672 0.05773636 -0.59832239 -0.80125552 0 0
-0.043390289 -0.020386996 0.057552431 -0.35429108 -0.93513525 0 0
-0.068504661 -0.10018904 0.057987228 -0.25459731 -0.96704721 0 0
-0.079795577 -0.095479578 0.057997908 -0.51128906 -0.85940886 0 0
-0.031707682 -0.087135471 0.057995576 -0.64613885 0.76321989 0 0
-0.096483693 -0.058887325 0.057998911 0.99922907 0.039258685 0 0
-0.10065164 -0.047831051 0.057902694 -0.97723347 0.21216688 0 0
-0.080061391 -0.025210463 0.057916429 0.58425468 -0.81157041 0 0
-0.052991297 -0.018107899 0.057799265 -0.10886858 -0.99405617 0 0
-0.067266539 -0.095209405 0.058112733 0.25461516 0.96704251 0 0
-0.034152668 -0.089056142 0.058112647 -0.58425671 0.81156898 0 0
-0.094009317 -0.071025275 0.05820721 0.93513703 0.35428634 0 0
-0.026072767 -0.025470141 0.058199272 0.69779301 0.71629947 0 0
-0.017949238 -0.054900706 0.05849449 -0.99839187 -0.056690045 0 0
-0.09707509 -0.037558876 0.058316622 -0.89687228 0.44228974 0 0
-0.092133142 -0.029714487 0.058366463 -0.78531438 0.61909723 0 0
-0.064964123 -0.013434178 0.058275368 -0.17794347 0.98404074 0 0
-0.024050785 -0.078344822 0.058702573 -0.84103417 0.54098207 0 0
-0.10160722 -0.059166122 0.058702178 -0.99884832 -0.047980368 0 0
-0.093419656 -0.041897997 0.058710936 0.92220211 -0.38670823 0 0
-0.017526874 -0.037157185 0.058693036 0.89298004 0.45009628 0 0
-0.071445189 -0.099306196 0.058784485 -0.32143787 -0.94693071 0 0
-0.071012929 -0.099450104 0.058951654 -0.31317791 -0.94969451 0 0
-0.039040305 -0.097771399 0.058986709 0.41073123 -0.91175652 0 0
-0.037522793 -0.097057313 0.058950253 0.44228974 -0.89687228 0 0
-0.063501813 -0.096011475 0.058775105 0.16072531 0.98699921 0 0
-0.095422179 -0.066426359 0.058981545 0.97134382 0.23767895 0 0
-0.086743481 -0.03125469 0.058767505 0.75184083 -0.65934473 0 0
-0.090880916 -0.028193649 0.058795191 -0.75756061 0.6527648 0 0
-0.028787211 -0.091383167 0.059002392 0.6394397 -0.76884127 0 0
-0.07845781 -0.090278134 0.059043378 0.54098588 0.84103173 0 0
-0.035503101 -0.089991152 0.059184704 -0.54829997 0.83628178 0 0
-0.030789429 -0.086328305 0.05911864 -0.67237014 0.74021512 0 0
-0.092516616 -0.074485973 0.059225686 0.89687175 0.44229081 0 0
-0.016051818 -0.074009344 0.059226029 0.92553991 -0.37865004 0 0
-0.068200879 -0.019452052 0.059238162 0.27983072 -0.96004939 0 0
-0.074950606 -0.016448669 0.059002534 -0.4027496 0.9153102 0 0
-0.067789599 -0.095067084 0.059433512 0.2714473 0.96245331 0 0
-0.019207213 -0.047077995 0.059443593 -0.96704578 -0.25460258 0 0
-0.099172488 -0.04256722 0.059253599 -0.94409889 0.32966244 0 0
-0.016415283 -0.039528061 0.059313998 0.91879147 0.39474326 0 0
-0.091351122 -0.028748712 0.059496436 -0.76884127 0.6394397 0 0
-0.074742056 -0.092390336 0.059511665 0.44229081 0.89687175 0 0
-0.024793468 -0.079466529 0.05966055 -0.82658875 0.56280643 0 0
-0.10119057 -0.050823949 0.059559751 -0.98965061 0.14349833 0 0
-0.027712861 -0.031192265 0.059677772 -0.75184047 -0.65934509 0 0
-0.025442071 -0.026101585 0.059664614 0.71629947 0.69779301 0 0
-0.083902851 -0.021665148 0.059503213 -0.59832072 0.80125672 0 0
-0.080384091 -0.019275604 0.05971054 -0.51877367 0.85491168 0 0
-0.060619764 -0.10151887 0.059771229 -0.074122138 -0.99724919 0 0
-0.025374593 -0.080289409 0.059928231 -0.81157041 0.58425468 0 0
-0.096404865 -0.054197669 0.05989356 0.99725008 -0.074110039 0 0
-0.02839797 -0.03043557 0.059853517 -0.73432297 -0.67880034 0 0
-0.033212911 -0.026046949 0.059908271 -0.61222279 -0.79068536 0 0
-0.070395455 -0.014754767 0.059973761 -0.29654104 0.95502013 0 0
-0.079066522 -0.089878932 0.060210958 0.55557179 0.83146858 0 0
-0.094508961 -0.044787854 0.060089357 0.9497 -0.31316116 0 0
-0.016719166 -0.038842835 0.060016986 0.91176188 0.41071925 0 0
-0.060654387 -0.01288531 0.060234509 -0.074107811 0.99725026 0 0
-0.076315023 -0.097331084 0.060262594 -0.42658225 -0.90444887 0 0
-0.077975139 -0.096497104 0.060348008 -0.46562615 -0.88498157 0 0
-0.030952003 -0.093072347 0.060407121 0.59130681 -0.80644667 0 0
-0.026766356 -0.082094885 0.060402386 -0.77438885 0.63270998 0 0
-0.018030262 -0.053785387 0.060474072 -0.99656564 -0.082806475 0 0
-0.016529866 -0.039266434 0.060363449 0.91531175 0.40274602 0 0
-0.088636644 -0.025774898 0.06028403 -0.71018529 0.70401484 0 0
-0.056036554 -0.017899204 0.060401611 -0.030535154 -0.99953371 0 0
-0.05931025 -0.096463189 0.060708109 0.056694839 0.99839157 0 0
-0.09744522 -0.038328581 0.060640611 -0.90445054 0.42657849 0 0
-0.062059112 -0.018183146 0.060695041 0.1261965 -0.99200529 0 0
-0.060842857 -0.012900672 0.060562767 -0.082808629 0.99656546 0 0
-0.082904197 -0.086954921 0.060944438 0.65274376 0.75757879 0 0
-0.019232232 -0.067417227 0.060782049 -0.96478766 0.26303014 0 0
-0.095887139 -0.064224899 0.060943551 0.98404002 0.17794713 0 0
-0.018668639 -0.049373388 0.060827583 -0.98078519 -0.19509086 0 0
-0.032192152 -0.093947679 0.061068535 0.56280303 -0.82659107 0 0
-0.042127546 -0.09351591 0.061199088 -0.38670823 0.92220211 0 0
-0.03597822 -0.090300284 0.06122005 -0.54098094 0.84103495 0 0
-0.023842545 -0.078014702 0.061105926 -0.850348 0.5262208 0 0
-0.096132688 -0.062705055 0.061188757 0.98965251 0.14348517 0 0
-0.049989205 -0.018548787 0.061057214 -0.18652338 -0.9824506 0 0
-0.051053509 -0.013178088 0.061151996 0.13485222 0.99086571 0 0
-0.053181715 -0.10146833 0.061360564 0.091505542 -0.99580461 0 0
