# .PCD v0.7 - Point Cloud Data file format
VERSION 0.7
FIELDS x y z normal_x normal_y normal_z curvature
SIZE 4 4 4 4 4 4 4
TYPE F F F F F F F
COUNT 1 1 1 1 1 1 1
WIDTH 1166
HEIGHT 1
VIEWPOINT 0 0 0 1 0 0 0
POINTS 1166
DATA ascii
0.12803861 0 0.0046194084 0 -1 0 0
0.012758333 0.0127 0.0045805462 0 1 0 0
0.12259117 0.012699999 0.0046408027 0 1 0 0
0.14207092 0.012700001 0.0045815762 0 1 0 0
0 0.042075459 0.0046403757 -1 0 0 0
0 0.11133623 0.0047142473 -1 0 0 0
0.0127 0.1421065 0.0046562115 1 0 0 0
0.00043372359 0.142875 0.0046030832 0 1 0 0
0.055213086 0 0.0048917998 0 -1 0 0
0.067388974 0 0.0049167448 0 -1 0 0
0.11067978 0 0.0047595943 0 -1 0 0
0.095008969 0.0127 0.0048205927 0 1 0 0
0.11375677 0.012700001 0.0048576477 0 1 0 0
0.14093013 0.0127 0.0048984764 0 1 0 0
0 0.072252728 0.0049804305 -1 0 0 0
0 0.074879356 0.0048388215 -1 0 0 0
0 0.1051579 0.0048320475 -1 0 0 0
0.0127 0.11443359 0.0049643097 1 0 0 0
0.012699999 0.11507568 0.004955119 1 0 0 0
0.012700001 0.13189641 0.0048792395 1 0 0 0
0.040565677 0 0.0052248905 0 -1 0 0
0.092200235 0 0.0050867065 0 -1 0 0
0.1189281 0 0.0052328515 0 -1 0 0
0.11493921 0.0127 0.0051165624 0 1 0 0
0.14740095 0.012700001 0.0051398971 0 1 0 0
0 0.013480993 0.0051238923 -1 0 0 0
0.0127 0.06026521 0.0051112454 1 0 0 0
0 0.1001649 0.0051685665 -1 0 0 0
0 0.11118207 0.0050223703 -1 0 0 0
0.0073474371 0.142875 0.0051768743 0 1 0 0
0.0081463894 0 0.0053998735 0 -1 0 0
0.022723123 0.0127 0.0053908713 0 1 0 0
0.088921852 0.0127 0.0053514964 0 1 0 0
0.094458289 0.0127 0.0053352546 0 1 0 0
0 0.037952688 0.0054362053 -1 0 0 0
0 0.1118663 0.0053574378 -1 0 0 0
0.00082503672 0 0.0057437601 0 -1 0 0
0.044267274 0 0.0056086513 0 -1 0 0
0.10222758 0 0.0055828164 0 -1 0 0
0.13348196 0 0.0057417545 0 -1 0 0
0.14647087 0 0.0055091255 0 -1 0 0
0.028018106 0.012699999 0.0056058234 0 1 0 0
0.082733482 0.012700001 0.0056807329 0 1 0 0
0 0.080016293 0.0055446541 -1 0 0 0
0 0.092266291 0.0055026598 -1 0 0 0
0.011060565 0.142875 0.0055292277 0 1 0 0
0.12478468 0 0.0058039548 0 -1 0 0
0.033593915 0.0127 0.0058680945 0 1 0 0
0.036606971 0.0127 0.0058826185 0 1 0 0
0.05590044 0.0127 0.005779916 0 1 0 0
0.056777604 0.0127 0.0058906954 0 1 0 0
0.05867799 0.012699999 0.0059738411 0 1 0 0
0.1055344 0.0127 0.0057813413 0 1 0 0
0.0127 0.049815349 0.0059688673 1 0 0 0
0.012700001 0.050586499 0.005864345 1 0 0 0
0 0.067948021 0.0059815459 -1 0 0 0
0.012699999 0.12645312 0.0057827113 1 0 0 0
0 0.14000019 0.0059568966 -1 0 0 0
0.017681975 0 0.0061101443 0 -1 0 0
0.058833931 0 0.0062054507 0 -1 0 0
0.095780611 0 0.0060646506 0 -1 0 0
0.026938789 0.012699999 0.0060159164 0 1 0 0
0.053039603 0.0127 0.0060993354 0 1 0 0
0.087208971 0.0127 0.0061946767 0 1 0 0
0.10574705 0.0127 0.006138904 0 1 0 0
0 0.039531678 0.0060138181 -1 0 0 0
0 0.083802305 0.0061725248 -1 0 0 0
0.097661018 0 0.0063352981 0 -1 0 0
0.11021736 0 0.00631651 0 -1 0 0
0.11345657 0 0.0063319495 0 -1 0 0
0.041930661 0.0127 0.0063230605 0 1 0 0
0.042536117 0.0127 0.0064494903 0 1 0 0
0.0127 0.022184117 0.0064181355 1 0 0 0
0.0127 0.047057349 0.0064521749 1 0 0 0
0.0127 0.075125039 0.0063759014 1 0 0 0
0 0.12484349 0.0064543532 -1 0 0 0
0 0.13661392 0.0062578456 -1 0 0 0
0.006660142 0.142875 0.00641324 0 1 0 0
0.012700001 0.080250792 0.0066858632 1 0 0 0
0 0.12993164 0.0066644661 -1 0 0 0
0.0047746268 0 0.006945068 0 -1 0 0
0.099002145 0 0.0068592443 0 -1 0 0
0.039022859 0.0127 0.006941448 0 1 0 0
0.012699999 0.13862798 0.0068506477 1 0 0 0
0.11571476 0 0.0071902997 0 -1 0 0
0.13993195 0 0.0070433933 0 -1 0 0
0.064728916 0.0127 0.0071868007 0 1 0 0
0 0.025796659 0.007081524 -1 0 0 0
0 0.11106379 0.0072022425 -1 0 0 0
0 0.121677 0.0070983414 -1 0 0 0
0 0.1336875 0.0071203187 -1 0 0 0
0.15557501 0.0084101548 0.0073869005 1 0 0 0
0.14826022 0.012700001 0.0073412945 0 1 0 0
0 0.06703046 0.0074332673 -1 0 0 0
0 0.069944918 0.0073180855 -1 0 0 0
0.0033278177 0 0.007671169 0 -1 0 0
0.023081582 0.012699999 0.0075979512 0 1 0 0
0.040341601 0.0127 0.007631849 0 1 0 0
0.10291552 0.0127 0.00765887 0 1 0 0
0 0.034178656 0.0077236998 -1 0 0 0
0.012700001 0.055399403 0.0075334823 1 0 0 0
0 0.072290532 0.0076102642 -1 0 0 0
0 0.11945523 0.0076341215 -1 0 0 0
0.012699999 0.12900388 0.0077304742 1 0 0 0
0 0.01148577 0.0079223178 -1 0 0 0
0.057346307 0.012699999 0.0078298412 0 1 0 0
0.0127 0.025547208 0.0079395818 1 0 0 0
0 0.043105371 0.0079692565 -1 0 0 0
0.011689822 0 0.0081854826 0 -1 0 0
0.11066096 0.012699999 0.0081418213 0 1 0 0
0 0.049746312 0.0080388924 -1 0 0 0
0.00022289493 0 0.0083703157 0 -1 0 0
0.017213086 0 0.0084267603 0 -1 0 0
0.055659711 0 0.0084525971 0 -1 0 0
0.12056611 0 0.008461481 0 -1 0 0
0.13331226 0.012700001 0.0083634695 0 1 0 0
0 0.024068808 0.0083588585 -1 0 0 0
0 0.043488022 0.008380332 -1 0 0 0
0 0.060292333 0.0084729185 -1 0 0 0
0.012700001 0.11573486 0.008412797 1 0 0 0
0 0.13221455 0.0084416596 -1 0 0 0
0.0053761196 0 0.0086701605 0 -1 0 0
0.018505139 0 0.0086714998 0 -1 0 0
0.14941636 0 0.0085092131 0 -1 0 0
0.15557501 0.0019086431 0.0087317023 1 0 0 0
0 0.011237577 0.008599991 -1 0 0 0
0.012699999 0.019617375 0.0085858358 1 0 0 0
0.0127 0.023265533 0.0085305236 1 0 0 0
0.031549014 0 0.0088556651 0 -1 0 0
0.15557501 0.0073357103 0.0087902779 1 0 0 0
0 0.0084937019 0.008995072 -1 0 0 0
0.014370538 0.0127 0.0089495769 0 1 0 0
0.051879518 0.0127 0.0089343805 0 1 0 0
0.063840427 0.0127 0.0088218227 0 1 0 0
0.14577554 0.012699999 0.0088405665 0 1 0 0
0 0.020895537 0.0089290673 -1 0 0 0
0 0.090413556 0.0088314125 -1 0 0 0
0 0.12006956 0.0089221857 -1 0 0 0
0.012699999 0.12442089 0.0088005206 1 0 0 0
0.0127 0.1254811 0.0088677667 1 0 0 0
0.095178224 0.012699999 0.0091289096 0 1 0 0
0.012699999 0.038499147 0.0090559702 1 0 0 0
0.0127 0.062540613 0.0090010976 1 0 0 0
0.15150887 0 0.0094825868 0 -1 0 0
0.057632942 0.0127 0.0092614228 0 1 0 0
0.11384932 0.0127 0.009400893 0 1 0 0
0.13599977 0.012699999 0.0093466043 0 1 0 0
0 0.013524682 0.0093207769 -1 0 0 0
0.012700001 0.039818589 0.0094598383 1 0 0 0
0.0127 0.056462422 0.0093878768 1 0 0 0
0.0127 0.066826306 0.009430822 1 0 0 0
0 0.10969745 0.0092584416 -1 0 0 0
0.099892542 0.012700001 0.0097496863 0 1 0 0
0 0.022774311 0.0095396163 -1 0 0 0
0 0.035857569 0.0097228531 -1 0 0 0
0.012699999 0.036359735 0.0096220393 1 0 0 0
0.0127 0.08106415 0.009591897 1 0 0 0
0.0127 0.094007701 0.0095779439 1 0 0 0
0 0.10883849 0.0095574241 -1 0 0 0
0 0.11931592 0.0097040851 -1 0 0 0
0 0.13723375 0.0097471457 -1 0 0 0
0.05370646 0 0.0098032672 0 -1 0 0
0.08205507 0 0.0099588642 0 -1 0 0
0.020096408 0.0127 0.0098231323 0 1 0 0
0 0.047266077 0.0098336935 -1 0 0 0
0.0038209558 0.142875 0.0098320134 0 1 0 0
0.050091486 0 0.010180482 0 -1 0 0
0.15164447 0 0.010169093 0 -1 0 0
0.090271212 0.0127 0.010197966 0 1 0 0
0.09921363 0.012699999 0.010101942 0 1 0 0
0.14108384 0.012700001 0.01001372 0 1 0 0
0.0127 0.076922216 0.010088549 1 0 0 0
0.0127 0.097779453 0.010075772 1 0 0 0
0.0127 0.10728993 0.010166103 1 0 0 0
0 0.13249919 0.010234505 -1 0 0 0
0.038797852 0 0.010278909 0 -1 0 0
0.047036309 0 0.010395566 0 -1 0 0
0.13171829 0 0.010285976 0 -1 0 0
0.13570215 0 0.010434098 0 -1 0 0
0.12747709 0.0127 0.010255923 0 1 0 0
0.0127 0.016319219 0.010349775 1 0 0 0
0 0.091684356 0.010353417 -1 0 0 0
0.0127 0.10588227 0.010287738 1 0 0 0
0.049354598 0 0.010698653 0 -1 0 0
0 0.0030809629 0.010509828 -1 0 0 0
0.083951473 0.0127 0.010570453 0 1 0 0
0.096907638 0.012700001 0.010571996 0 1 0 0
0.0127 0.078637183 0.010529547 1 0 0 0
0.0127 0.090162307 0.010647582 1 0 0 0
0 0.10114498 0.010701963 -1 0 0 0
0 0.11491057 0.010654067 -1 0 0 0
0.15557501 0.00093012356 0.010942962 1 0 0 0
0.12255777 0.012700001 0.010898128 0 1 0 0
0.012700001 0.034850411 0.010814733 1 0 0 0
0 0.044524986 0.010977378 -1 0 0 0
0.0127 0.060129199 0.010810283 1 0 0 0
0.0127 0.071339943 0.010993305 1 0 0 0
0 0.08905787 0.010917884 -1 0 0 0
0.024249367 0 0.011147154 0 -1 0 0
0.058646634 0.012699999 0.011134124 0 1 0 0
0.11993418 0.0127 0.011144488 0 1 0 0
0 0.015042801 0.0112352 -1 0 0 0
0.0127 0.11995119 0.011165553 1 0 0 0
0.0127 0.13134298 0.011027811 1 0 0 0
0.060717061 0 0.011352174 0 -1 0 0
0.062913552 0.012699999 0.011473519 0 1 0 0
0.080838412 0.012699999 0.011260075 0 1 0 0
0.0127 0.064439356 0.011311028 1 0 0 0
0.0127 0.091321036 0.011285054 1 0 0 0
0 0.094918206 0.01141811 -1 0 0 0
0 0.097408138 0.011342388 -1 0 0 0
0 0.11272875 0.011333099 -1 0 0 0
0.08249452 0.012700001 0.011591188 0 1 0 0
0.091967419 0.012699999 0.011563051 0 1 0 0
0.14310887 0.0127 0.011680014 0 1 0 0
0.0127 0.046118304 0.011725627 1 0 0 0
0.078216329 0 0.011760984 0 -1 0 0
0.074119911 0.0127 0.011806043 0 1 0 0
0.13613248 0.012699999 0.011979121 0 1 0 0
0 0.0266876 0.011792066 -1 0 0 0
0.012699999 0.037258849 0.011836473 1 0 0 0
0.0127 0.047789674 0.011906663 1 0 0 0
0 0.09614449 0.011989516 -1 0 0 0
0.0127 0.12662709 0.011842185 1 0 0 0
0.0040744813 0.142875 0.011911189 0 1 0 0
0.088553838 0 0.012221729 0 -1 0 0
0.10456316 0 0.012172614 0 -1 0 0
0.037732568 0.0127 0.012166125 0 1 0 0
0.078515068 0.0127 0.012033255 0 1 0 0
0.095710158 0.0127 0.012072533 0 1 0 0
0 0.054519236 0.012155908 -1 0 0 0
0 0.077021278 0.012173194 -1 0 0 0
0.15306872 0 0.012386906 0 -1 0 0
0.15557501 0.0021639811 0.012260679 1 0 0 0
0.099251404 0.0127 0.012396325 0 1 0 0
0.012700001 0.029014682 0.012427771 1 0 0 0
0.0127 0.029494148 0.01231265 1 0 0 0
0.0127 0.10867871 0.012476551 1 0 0 0
0.077612862 0 0.01258267 0 -1 0 0
0 0.012254527 0.012719309 -1 0 0 0
0.10704586 0.012902278 0.0127 0 0 -1 0
0.062487576 0.013134122 0.0127 0 0 -1 0
0.10695805 0.013151593 0.0127 0 0 -1 0
0.097049832 0.013386682 0.0127 0 0 -1 0
0.10373889 0.013844838 0.012699999 0 0 -1 0
0.071312517 0.014334477 0.0127 0 0 -1 0
0.092332222 0.014398448 0.0127 0 0 -1 0
0.10481557 0.015230381 0.012699999 0 0 -1 0
0.1133348 0.015426795 0.012711744 1 0 0 0
0.10613299 0.015899135 0.0127 0 0 -1 0
0.081885807 0.016100112 0.0127 0 0 -1 0
0.10235009 0.016153907 0.012700001 0 0 -1 0
0.067960739 0.016365422 0.0127 0 0 -1 0
0.10415623 0.017107055 0.012699999 0 0 -1 0
0.082276382 0.017368017 0.0127 0 0 -1 0
0.070754558 0.017551299 0.012699999 0 0 -1 0
0.086436778 0.01763921 0.0127 0 0 -1 0
0.07664264 0.018301049 0.012699999 0 0 -1 0
0.081561565 0.018508814 0.0127 0 0 -1 0
0.084440202 0.018961644 0.0127 0 0 -1 0
0.054422393 0.020053493 0.0127 0 0 -1 0
0.086564183 0.020380249 0.0127 0 0 -1 0
0.060431235 0.020854374 0.0127 0 0 -1 0
0.10304923 0.021132931 0.012699999 0 0 -1 0
0.10961205 0.021427877 0.0127 0 0 -1 0
0.07067848 0.022417651 0.012700001 0 0 -1 0
0.077454545 0.022780092 0.0127 0 0 -1 0
0.089349613 0.022964533 0.0127 0 0 -1 0
0.098314077 0.022848304 0.012700001 0 0 -1 0
0.096396282 0.023410475 0.012699999 0 0 -1 0
0.065317519 0.02389947 0.0127 0 0 -1 0
0.057682756 0.02401313 0.0127 0 0 -1 0
0.06054341 0.024610899 0.0127 0 0 -1 0
0.063431352 0.02491793 0.0127 0 0 -1 0
0.047865115 0.025079746 0.0127 0 0 -1 0
0.10465153 0.025364757 0.012700001 0 0 -1 0
0.087769695 0.025730278 0.0127 0 0 -1 0
0.095182553 0.025673421 0.0127 0 0 -1 0
0.087654479 0.025893828 0.0127 0 0 -1 0
0.065855637 0.026199844 0.0127 0 0 -1 0
0.10434062 0.02630306 0.012700001 0 0 -1 0
0.104908 0.026355468 0.012700001 0 0 -1 0
0.10962619 0.026420575 0.0127 0 0 -1 0
0.072021157 0.026710976 0.012700001 0 0 -1 0
0.11084606 0.026717938 0.0127 0 0 -1 0
0.083865978 0.026816985 0.012699999 0 0 -1 0
0.094139993 0.02687821 0.0127 0 0 -1 0
0.107427 0.026909944 0.012700001 0 0 -1 0
0.083534732 0.027355157 0.012699999 0 0 -1 0
0.070302717 0.027551062 0.0127 0 0 -1 0
0.096051276 0.027582375 0.012700001 0 0 -1 0
0.10624529 0.027871739 0.0127 0 0 -1 0
0.048809923 0.028208794 0.0127 0 0 -1 0
0.053796444 0.028181195 0.0127 0 0 -1 0
0.056200132 0.028215146 0.0127 0 0 -1 0
0.089595318 0.028204549 0.0127 0 0 -1 0
0.064970724 0.028480031 0.0127 0 0 -1 0
0.068342507 0.028439615 0.0127 0 0 -1 0
0.050600912 0.028982453 0.012700001 0 0 -1 0
0.058078554 0.029377967 0.012700001 0 0 -1 0
0.079149656 0.02931596 0.0127 0 0 -1 0
0.10154928 0.029656742 0.012699999 0 0 -1 0
0.089540407 0.029757362 0.0127 0 0 -1 0
0.089249425 0.030238537 0.0127 0 0 -1 0
0.091570131 0.030556887 0.0127 0 0 -1 0
0.045214511 0.030899946 0.012699999 0 0 -1 0
0.092184722 0.03094263 0.0127 0 0 -1 0
0.094142169 0.03100279 0.0127 0 0 -1 0
0.066749185 0.03169563 0.012699999 0 0 -1 0
0.087333113 0.031705189 0.0127 0 0 -1 0
0.097452089 0.032074463 0.012700001 0 0 -1 0
0.07003253 0.032648824 0.012700001 0 0 -1 0
0.089598283 0.032737866 0.0127 0 0 -1 0
0.066412508 0.03395075 0.0127 0 0 -1 0
0.043453962 0.034368962 0.012700001 0 0 -1 0
0.093402423 0.034542181 0.0127 0 0 -1 0
0.060369629 0.035918694 0.012700001 0 0 -1 0
0.035488237 0.036044508 0.0127 0 0 -1 0
0.10234091 0.036448047 0.0127 0 0 -1 0
0.10580883 0.03640138 0.012699999 0 0 -1 0
0.10174708 0.036592253 0.012700001 0 0 -1 0
0.10553968 0.036744893 0.0127 0 0 -1 0
0.064634986 0.036916148 0.012699999 0 0 -1 0
0.07972309 0.036967468 0.0127 0 0 -1 0
0.093729988 0.037040666 0.012700001 0 0 -1 0
0.093372002 0.037310094 0.0127 0 0 -1 0
0.065559939 0.037825726 0.0127 0 0 -1 0
0.075248569 0.038220942 0.012699999 0 0 -1 0
0.091086976 0.038062688 0.0127 0 0 -1 0
0.091223694 0.038418096 0.012700001 0 0 -1 0
0.03482249 0.038635526 0.0127 0 0 -1 0
0.088099845 0.03881048 0.012700001 0 0 -1 0
0.060638845 0.039110564 0.012699999 0 0 -1 0
0.073427089 0.039100036 0.012700001 0 0 -1 0
0.078262575 0.039117161 0.0127 0 0 -1 0
0.095513895 0.039037026 0.012700001 0 0 -1 0
0.094267778 0.04008472 0.0127 0 0 -1 0
0.10243732 0.040242411 0.012699999 0 0 -1 0
0.056490947 0.040535185 0.0127 0 0 -1 0
0.035872757 0.041082751 0.012699999 0 0 -1 0
0.11293706 0.041064538 0.0127 0 0 -1 0
0.029547773 0.041572224 0.012703622 -0.70710683 -0.70710683 7.3838692e-08 0
0.09530656 0.042176656 0.0127 0 0 -1 0
0.059893206 0.042427558 0.012699999 0 0 -1 0
0.1097681 0.04232822 0.0127 0 0 -1 0
0.11204553 0.042446613 0.0127 0 0 -1 0
0.10772705 0.042601027 0.0127 0 0 -1 0
0.046990909 0.042980544 0.0127 0 0 -1 0
0.049837898 0.043245081 0.012700001 0 0 -1 0
0.1003289 0.044937305 0.0127 0 0 -1 0
0.084722325 0.045099836 0.0127 0 0 -1 0
0.070788823 0.045466546 0.012699999 0 0 -1 0
0 0.045697507 0.012508973 -1 0 0 0
0.038413573 0.045547295 0.0127 0 0 -1 0
0.034848694 0.046239026 0.012700001 0 0 -1 0
0.11241822 0.046355534 0.012699999 0 0 -1 0
0.061027937 0.047132235 0.0127 0 0 -1 0
0.10249184 0.047700606 0.0127 0 0 -1 0
0.034058634 0.048173837 0.0127 0 0 -1 0
0.041043464 0.048326198 0.012699999 0 0 -1 0
0.063595191 0.048322029 0.012700001 0 0 -1 0
0.095167562 0.048478179 0.012699999 0 0 -1 0
0.099271178 0.048504852 0.012699999 0 0 -1 0
0.041902602 0.04885694 0.012700001 0 0 -1 0
0.080199324 0.048893336 0.0127 0 0 -1 0
0.042316221 0.049878851 0.0127 0 0 -1 0
0.10233025 0.05014196 0.0127 0 0 -1 0
0.083926037 0.050451297 0.012699999 0 0 -1 0
0.084820822 0.050638046 0.012700001 0 0 -1 0
0.054670677 0.051752955 0.0127 0 0 -1 0
0.091224298 0.052377898 0.012699999 0 0 -1 0
0.037989896 0.052766819 0.0127 0 0 -1 0
0.042300634 0.052802227 0.012699999 0 0 -1 0
0.10253818 0.052766234 0.012700001 0 0 -1 0
0.096083909 0.05365476 0.0127 0 0 -1 0
0.07871002 0.054472562 0.0127 0 0 -1 0
0.041407634 0.054657359 0.0127 0 0 -1 0
0.061532967 0.054552287 0.012699999 0 0 -1 0
0.063213006 0.054723106 0.0127 0 0 -1 0
0.068322606 0.054525673 0.012699999 0 0 -1 0
0.088920571 0.054525934 0.0127 0 0 -1 0
0.04488302 0.055319093 0.0127 0 0 -1 0
0.10506371 0.055406824 0.0127 0 0 -1 0
0.056899596 0.055643193 0.0127 0 0 -1 0
0.0588063 0.055864133 0.0127 0 0 -1 0
0.043957714 0.056003921 0.0127 0 0 -1 0
0.067272574 0.056014996 0.012699999 0 0 -1 0
0.022106932 0.056257781 0.0127 0 0 -1 0
0.03090208 0.056370698 0.012699999 0 0 -1 0
0.039310165 0.056735672 0.0127 0 0 -1 0
0.016132172 0.056972023 0.0127 0 0 -1 0
0.036296792 0.057028648 0.0127 0 0 -1 0
0.077127248 0.057347231 0.0127 0 0 -1 0
0.061774734 0.057500511 0.0127 0 0 -1 0
0.083506659 0.058012024 0.0127 0 0 -1 0
0.089056209 0.058061801 0.012700001 0 0 -1 0
0.11070025 0.058353122 0.0127 0 0 -1 0
0.10117845 0.058523372 0.0127 0 0 -1 0
0.10393302 0.058561977 0.012700001 0 0 -1 0
0.03224685 0.059301 0.012700001 0 0 -1 0
0.052436687 0.059607763 0.0127 0 0 -1 0
0.086847052 0.059875086 0.0127 0 0 -1 0
0.044201873 0.060031682 0.012700001 0 0 -1 0
0.07715492 0.060063522 0.012700001 0 0 -1 0
0.080449931 0.060217686 0.0127 0 0 -1 0
0.10844426 0.06011527 0.012700001 0 0 -1 0
0.099735662 0.060488369 0.012699999 0 0 -1 0
0.047217615 0.060585693 0.012699999 0 0 -1 0
0.025419053 0.060864899 0.012700001 0 0 -1 0
0.062550597 0.060854893 0.012700001 0 0 -1 0
0.071110822 0.061273485 0.012700001 0 0 -1 0
0.088338837 0.061423395 0.0127 0 0 -1 0
0.091542706 0.06135805 0.0127 0 0 -1 0
0.059474163 0.061746657 0.012699999 0 0 -1 0
0.10174599 0.061914392 0.012700001 0 0 -1 0
0.041419633 0.062131397 0.0127 0 0 -1 0
0.079371631 0.062204096 0.0127 0 0 -1 0
0.078506127 0.062830031 0.0127 0 0 -1 0
0.1098919 0.062981434 0.0127 0 0 -1 0
0.02611728 0.063673638 0.0127 0 0 -1 0
0.04957198 0.063533813 0.0127 0 0 -1 0
0.069122158 0.063573509 0.0127 0 0 -1 0
0.084671363 0.064040303 0.012700001 0 0 -1 0
0.065293752 0.064373016 0.012699999 0 0 -1 0
0.078247704 0.064307235 0.012700001 0 0 -1 0
0.030264702 0.064653225 0.012699999 0 0 -1 0
0.085976638 0.064935751 0.0127 0 0 -1 0
0.015863532 0.065162651 0.0127 0 0 -1 0
0.0986811 0.065153301 0.0127 0 0 -1 0
0.10014911 0.065143205 0.0127 0 0 -1 0
0.054627601 0.065454498 0.012700001 0 0 -1 0
0.10659324 0.065316029 0.012700001 0 0 -1 0
0.05112429 0.065596811 0.012700001 0 0 -1 0
0.052658923 0.065935388 0.0127 0 0 -1 0
0.077792652 0.06603957 0.0127 0 0 -1 0
0.026361695 0.066511735 0.0127 0 0 -1 0
0.092739277 0.066599682 0.0127 0 0 -1 0
0.023712941 0.066994786 0.012700001 0 0 -1 0
0.03573104 0.06684614 0.0127 0 0 -1 0
0.044085413 0.067046791 0.012700001 0 0 -1 0
0.095292285 0.067053996 0.0127 0 0 -1 0
0.10279824 0.067009978 0.012700001 0 0 -1 0
0.073975697 0.067670234 0.012699999 0 0 -1 0
0.041398004 0.068117 0.012700001 0 0 -1 0
0.016580798 0.068529822 0.0127 0 0 -1 0
0.11047813 0.068672337 0.012699999 0 0 -1 0
0.020611454 0.069059163 0.0127 0 0 -1 0
0.10387394 0.069112144 0.012699999 0 0 -1 0
0.089582928 0.070161164 0.012699999 0 0 -1 0
0.097223975 0.070237167 0.0127 0 0 -1 0
0.1004445 0.070213556 0.012699999 0 0 -1 0
0.036643997 0.07049787 0.012699999 0 0 -1 0
0.1005632 0.071418725 0.012700001 0 0 -1 0
0.049495604 0.072171673 0.012699999 0 0 -1 0
0.083830141 0.072164856 0.012700001 0 0 -1 0
0.091263793 0.07201542 0.0127 0 0 -1 0
0.023276191 0.072324514 0.0127 0 0 -1 0
0.091527164 0.072702333 0.012699999 0 0 -1 0
0.096866727 0.072717845 0.0127 0 0 -1 0
0.10196415 0.072873734 0.0127 0 0 -1 0
0.10957511 0.072962672 0.012700001 0 0 -1 0
0.027043451 0.073143303 0.012699999 0 0 -1 0
0.0401439 0.073256724 0.0127 0 0 -1 0
0.099188268 0.073315002 0.012699999 0 0 -1 0
0.031744447 0.073606327 0.0127 0 0 -1 0
0.077035069 0.073663205 0.012699999 0 0 -1 0
0.013044434 0.073848158 0.0127 0 0 -1 0
0.082399912 0.073755205 0.012699999 0 0 -1 0
0.10816336 0.073881142 0.012699999 0 0 -1 0
0.078623213 0.074042432 0.012700001 0 0 -1 0
0.084719025 0.074964508 0.0127 0 0 -1 0
0.061501052 0.075381793 0.0127 0 0 -1 0
0.10333772 0.075399354 0.012699999 0 0 -1 0
0.065623067 0.075713933 0.012699999 0 0 -1 0
0.017581888 0.075904556 0.0127 0 0 -1 0
0.077819161 0.075912639 0.0127 0 0 -1 0
0.094802737 0.075881258 0.012699999 0 0 -1 0
0.060182832 0.076188557 0.0127 0 0 -1 0
0.057569753 0.076261371 0.0127 0 0 -1 0
0.068358138 0.076329477 0.012699999 0 0 -1 0
0.080421641 0.076272957 0.0127 0 0 -1 0
0.095884651 0.076752827 0.012699999 0 0 -1 0
0.11145964 0.077134706 0.0127 0 0 -1 0
0.053710841 0.077382833 0.012699999 0 0 -1 0
0.10139062 0.077345945 0.0127 0 0 -1 0
0.10846256 0.078279123 0.012700001 0 0 -1 0
0.01720147 0.078733981 0.012700001 0 0 -1 0
0.041681912 0.078628957 0.012699999 0 0 -1 0
0.088919081 0.078584023 0.0127 0 0 -1 0
0.04670899 0.078771748 0.012700001 0 0 -1 0
0.025547208 0.079908498 0.0127 0 0 -1 0
0.11013201 0.080104247 0.012700001 0 0 -1 0
0.10774585 0.080361336 0.0127 0 0 -1 0
0.036378212 0.080700912 0.012699999 0 0 -1 0
0.087504201 0.080672905 0.012699999 0 0 -1 0
0.043520931 0.081445888 0.012699999 0 0 -1 0
0.028997902 0.081537887 0.0127 0 0 -1 0
0.076031744 0.081575885 0.0127 0 0 -1 0
0.017686997 0.081791088 0.0127 0 0 -1 0
0.018831246 0.081786186 0.0127 0 0 -1 0
0.029205237 0.081771478 0.0127 0 0 -1 0
0.070458412 0.081849575 0.012700001 0 0 -1 0
0.097631983 0.081976309 0.0127 0 0 -1 0
0.053139143 0.082172617 0.0127 0 0 -1 0
0.017503768 0.082323417 0.012700001 0 0 -1 0
0.025788033 0.082346715 0.012700001 0 0 -1 0
0.037618 0.08229138 0.012700001 0 0 -1 0
0.055320926 0.08273764 0.0127 0 0 -1 0
0.015643492 0.082930677 0.0127 0 0 -1 0
0.033900179 0.083652802 0.0127 0 0 -1 0
0.043878764 0.084237732 0.012700001 0 0 -1 0
0.014469003 0.084867865 0.0127 0 0 -1 0
0.030685592 0.085764192 0.0127 0 0 -1 0
0.0372939 0.085982382 0.0127 0 0 -1 0
0.073086873 0.086201794 0.012700001 0 0 -1 0
0 0.086283475 0.012562853 -1 0 0 0
0.10013497 0.086420186 0.012700001 0 0 -1 0
0.11122589 0.086286061 0.012700001 0 0 -1 0
0.018705767 0.086523727 0.0127 0 0 -1 0
0.022425013 0.086756378 0.0127 0 0 -1 0
0.062956959 0.087237224 0.012699999 0 0 -1 0
0.034093551 0.087417021 0.012700001 0 0 -1 0
0.062074736 0.087695248 0.0127 0 0 -1 0
0.064231373 0.087563947 0.012699999 0 0 -1 0
0.051372956 0.08790525 0.0127 0 0 -1 0
0.077239349 0.087858424 0.012699999 0 0 -1 0
0.085403495 0.087996118 0.012699999 0 0 -1 0
0.095404044 0.088371843 0.012699999 0 0 -1 0
0.11113231 0.088327333 0.012700001 0 0 -1 0
0.037844807 0.088694766 0.012700001 0 0 -1 0
0.077682093 0.088684134 0.012699999 0 0 -1 0
0.10255682 0.088622697 0.0127 0 0 -1 0
0.05160477 0.088766478 0.012700001 0 0 -1 0
0.048899125 0.089318335 0.0127 0 0 -1 0
0.094936125 0.089328289 0.012700001 0 0 -1 0
0.10930623 0.089379653 0.0127 0 0 -1 0
0.047262602 0.089555763 0.0127 0 0 -1 0
0.05755543 0.089781806 0.0127 0 0 -1 0
0.078838244 0.08991196 0.012699999 0 0 -1 0
0.073630877 0.090051629 0.012700001 0 0 -1 0
0.047595628 0.090410694 0.0127 0 0 -1 0
0.10036972 0.090343311 0.0127 0 0 -1 0
0.013429026 0.090704724 0.0127 0 0 -1 0
0.055440731 0.090724781 0.012700001 0 0 -1 0
0.07819248 0.090746924 0.012699999 0 0 -1 0
0.10087726 0.090678312 0.012700001 0 0 -1 0
0.030983575 0.091176488 0.0127 0 0 -1 0
0.067649558 0.091179274 0.0127 0 0 -1 0
0.05253458 0.091391772 0.0127 0 0 -1 0
0.0127 0.091737367 0.012605507 1 0 0 0
0.082390681 0.091592349 0.0127 0 0 -1 0
0.037242565 0.092242315 0.012699999 0 0 -1 0
0.042944245 0.092424482 0.0127 0 0 -1 0
0.048752531 0.092855573 0.0127 0 0 -1 0
0.056027319 0.09337189 0.012700001 0 0 -1 0
0.046384614 0.093868867 0.0127 0 0 -1 0
0.055184003 0.093834527 0.0127 0 0 -1 0
0.081729986 0.093888722 0.0127 0 0 -1 0
0.01443137 0.094011627 0.0127 0 0 -1 0
0.044950072 0.094028145 0.012700001 0 0 -1 0
0.02519365 0.094475091 0.0127 0 0 -1 0
0.058062691 0.094295233 0.012699999 0 0 -1 0
0.080935948 0.095076531 0.012699999 0 0 -1 0
0.090425581 0.095157512 0.0127 0 0 -1 0
0.08909487 0.095257558 0.0127 0 0 -1 0
0.10236101 0.095602125 0.0127 0 0 -1 0
0.035668645 0.095813304 0.0127 0 0 -1 0
0.050222054 0.09592627 0.0127 0 0 -1 0
0.10095359 0.095795862 0.0127 0 0 -1 0
0.014170617 0.096389696 0.012700001 0 0 -1 0
0.017506834 0.096699633 0.012699999 0 0 -1 0
0.0814927 0.096739031 0.012700001 0 0 -1 0
0.035687666 0.096994221 0.0127 0 0 -1 0
0.016060935 0.097645268 0.0127 0 0 -1 0
0.05073842 0.097530976 0.012700001 0 0 -1 0
0.044311769 0.098382264 0.0127 0 0 -1 0
0.057190802 0.099124402 0.0127 0 0 -1 0
0.065166086 0.099705428 0.0127 0 0 -1 0
0.056308661 0.10013824 0.0127 0 0 -1 0
0.077509299 0.10001501 0.012699999 0 0 -1 0
0.057486027 0.10055704 0.012700001 0 0 -1 0
0.10340932 0.10064537 0.0127 0 0 -1 0
0.037507966 0.10109332 0.0127 0 0 -1 0
0.069393337 0.10108134 0.0127 0 0 -1 0
0.018605936 0.1013333 0.012699999 0 0 -1 0
0.029545886 0.10138707 0.0127 0 0 -1 0
0.050941862 0.10131864 0.012700001 0 0 -1 0
0.097352594 0.10143585 0.0127 0 0 -1 0
0.10208008 0.10142674 0.0127 0 0 -1 0
0.092732854 0.1016828 0.012700001 0 0 -1 0
0.093585588 0.10158028 0.012699999 0 0 -1 0
0.07167653 0.10216633 0.012700001 0 0 -1 0
0.11144239 0.10208011 0.0127 0 0 -1 0
0.029674029 0.1027442 0.0127 0 0 -1 0
0.085985258 0.10276487 0.0127 0 0 -1 0
0.01911667 0.10380305 0.012700001 0 0 -1 0
0.089944683 0.10393953 0.012699999 0 0 -1 0
0.10014831 0.10381489 0.0127 0 0 -1 0
0.027389247 0.10417584 0.012700001 0 0 -1 0
0.042714003 0.10400833 0.012699999 0 0 -1 0
0.051685143 0.10424679 0.012699999 0 0 -1 0
0.070293002 0.10400604 0.012699999 0 0 -1 0
0.076721668 0.1040431 0.012699999 0 0 -1 0
0.052865256 0.10441361 0.0127 0 0 -1 0
0.10637951 0.10441359 0.0127 0 0 -1 0
0.10836499 0.10461129 0.0127 0 0 -1 0
0.078023322 0.10488086 0.012700001 0 0 -1 0
0.10316479 0.10498342 0.0127 0 0 -1 0
0.091016382 0.10549296 0.0127 0 0 -1 0
0.10665311 0.10530189 0.0127 0 0 -1 0
0.039905813 0.10560654 0.012700001 0 0 -1 0
0.036399182 0.10578667 0.0127 0 0 -1 0
0.020866789 0.10611266 0.0127 0 0 -1 0
0.063582674 0.10658345 0.0127 0 0 -1 0
0.091634579 0.1071031 0.0127 0 0 -1 0
0.060192455 0.1077245 0.012699999 0 0 -1 0
0.072106294 0.10770871 0.012699999 0 0 -1 0
0.089982286 0.1077828 0.0127 0 0 -1 0
0.034924962 0.10821535 0.012699999 0 0 -1 0
0.064316966 0.10816415 0.0127 0 0 -1 0
0.10314146 0.10809331 0.0127 0 0 -1 0
0.061372772 0.10837677 0.0127 0 0 -1 0
0.071143389 0.10844152 0.012700001 0 0 -1 0
0.076899372 0.108628 0.0127 0 0 -1 0
0.10009979 0.10866525 0.0127 0 0 -1 0
0.018658103 0.10879986 0.0127 0 0 -1 0
0.069409966 0.10894542 0.0127 0 0 -1 0
0.012930765 0.10908454 0.0127 0 0 -1 0
0.038240314 0.10902819 0.0127 0 0 -1 0
0.018276071 0.10937618 0.012700001 0 0 -1 0
0.033685397 0.1098918 0.012700001 0 0 -1 0
0.055469077 0.10989803 0.012699999 0 0 -1 0
0.082153611 0.10982437 0.0127 0 0 -1 0
0.11170621 0.11000866 0.012699999 0 0 -1 0
0.10127109 0.11036982 0.0127 0 0 -1 0
0.017524254 0.11058243 0.0127 0 0 -1 0
0.022312634 0.11085068 0.012700001 0 0 -1 0
0.030621354 0.11075278 0.0127 0 0 -1 0
0.040916484 0.11112602 0.012699999 0 0 -1 0
0.05477478 0.11109809 0.012699999 0 0 -1 0
0.060427919 0.11119902 0.012699999 0 0 -1 0
0.11297135 0.11137802 0.012699999 0 0 -1 0
0.084377065 0.11151434 0.0127 0 0 -1 0
0.086247921 0.11196849 0.012699999 0 0 -1 0
0.093745925 0.11191558 0.0127 0 0 -1 0
0.013656214 0.11242255 0.0127 0 0 -1 0
0.022523798 0.11248699 0.0127 0 0 -1 0
0.029454371 0.11237143 0.0127 0 0 -1 0
0.097706564 0.11239906 0.0127 0 0 -1 0
0.078683287 0.11256587 0.012700001 0 0 -1 0
0.027377445 0.11314316 0.0127 0 0 -1 0
0.014583128 0.11345751 0.0127 0 0 -1 0
0.032434776 0.1137412 0.012731339 0 1 0 0
0.056238919 0.11350025 0.0127 0 0 -1 0
0.0741864 0.11350681 0.012700001 0 0 -1 0
0.098692678 0.11362672 0.012699999 0 0 -1 0
0.10794902 0.11370201 0.0127 0 0 -1 0
0 0.11597011 0.01274247 -1 0 0 0
0.12723997 0 0.012949675 0 -1 0 0
0.12840047 0 0.012795567 0 -1 0 0
0.029302856 0.0127 0.012800971 0 1 0 0
0.050355382 0.020764617 0.012993985 -0.70710683 -0.70710683 7.3838692e-08 0
0.1133348 0.081615537 0.01290114 1 0 0 0
0.051097274 0.1137412 0.012780868 0 1 0 0
0.15557501 0.0086364923 0.013164395 1 0 0 0
0.042460427 0.0127 0.013164812 0 1 0 0
0.13531341 0.0127 0.013125056 0 1 0 0
0 0.027802384 0.013033845 -1 0 0 0
0 0.040200844 0.013049751 -1 0 0 0
0 0.045911059 0.013053405 -1 0 0 0
0.1133348 0.053111486 0.013185436 1 0 0 0
0 0.064026557 0.013166431 -1 0 0 0
0.11333479 0.068150125 0.013026016 1 0 0 0
0 0.07948038 0.013067528 -1 0 0 0
0.064169131 0.1137412 0.013134491 0 1 0 0
0.04605981 0 0.013393465 0 -1 0 0
0.051858991 0 0.013488235 0 -1 0 0
0.086072177 0 0.01344726 0 -1 0 0
0.15557501 0.011166766 0.013458508 1 0 0 0
0.033476532 0.0127 0.013273551 0 1 0 0
0 0.016903056 0.013334224 -1 0 0 0
0.012700001 0.018164327 0.013326094 1 0 0 0
0.027257316 0.043862682 0.013279812 -0.70710683 -0.70710683 7.3838692e-08 0
0.1133348 0.063850671 0.013318101 1 0 0 0
0.1133348 0.1103713 0.013286442 1 0 0 0
0 0.11095396 0.013426811 -1 0 0 0
0.075814202 0 0.013670028 0 -1 0 0
0.11454289 0 0.013660234 0 -1 0 0
0.15557501 0.0028967066 0.013646009 1 0 0 0
0.044965006 0.012699999 0.013593651 0 1 0 0
0.012700001 0.016247841 0.013510911 1 0 0 0
0.04814332 0.02297668 0.013691102 -0.70710683 -0.70710683 7.3838692e-08 0
0.012700001 0.034545485 0.013674308 1 0 0 0
0.026809454 0.044310544 0.013509404 -0.70710683 -0.70710683 7.3838692e-08 0
0.1133348 0.056089841 0.013605371 1 0 0 0
0.1133348 0.08143881 0.013745708 1 0 0 0
0.089541569 0 0.013759503 0 -1 0 0
0.093994021 0 0.013772517 0 -1 0 0
0.020023189 0.0127 0.013832623 0 1 0 0
0.045959432 0.0127 0.013916379 0 1 0 0
0.12256837 0.0127 0.013903117 0 1 0 0
0.13472471 0.0127 0.013943093 0 1 0 0
0.1427218 0.012699999 0.01396485 0 1 0 0
0.0127 0.028429268 0.013869077 1 0 0 0
0.11333479 0.067248158 0.013884682 1 0 0 0
0.1133348 0.092152216 0.013938334 1 0 0 0
0 0.12574606 0.013780167 -1 0 0 0
4.197823e-05 0.142875 0.013820479 0 1 0 0
0.072429694 0 0.01418132 0 -1 0 0
0.15448692 0 0.014154372 0 -1 0 0
0.1133348 0.014717661 0.014210118 1 0 0 0
0.03902347 0.032096528 0.01421782 -0.70710683 -0.70710683 7.3838692e-08 0
0.038815364 0.032304633 0.014101973 -0.70710683 -0.70710683 7.3838692e-08 0
0.027010258 0.044109743 0.014068807 -0.70710683 -0.70710683 7.3838692e-08 0
0.019663239 0.051456761 0.014167147 -0.70710683 -0.70710683 7.3838692e-08 0
0.1133348 0.056613848 0.014084008 1 0 0 0
0.11333479 0.090898395 0.01410659 1 0 0 0
0.059173666 0.1137412 0.014133913 0 1 0 0
0.10176736 0.1137412 0.014070175 0 1 0 0
0 0.11785423 0.014226139 -1 0 0 0
0.13192928 0.0127 0.01443255 0 1 0 0
0.050668709 0.020451292 0.014466242 -0.70710683 -0.70710683 7.3838692e-08 0
0.026028438 0.1137412 0.01426949 0 1 0 0
0.033637118 0.1137412 0.014315362 0 1 0 0
0.074407175 0.1137412 0.014326489 0 1 0 0
0 0.13686681 0.014401649 -1 0 0 0
0.036203787 0 0.014626762 0 -1 0 0
0.059049483 0 0.014624341 0 -1 0 0
0.026769223 0.012699999 0.014539974 0 1 0 0
0.11333479 0.020249356 0.014685027 1 0 0 0
0.045480043 0.025639961 0.014501349 -0.70710683 -0.70710683 7.3838692e-08 0
0.1133348 0.039864574 0.014710391 1 0 0 0
0 0.089865223 0.014540184 -1 0 0 0
0.020549608 0.1137412 0.014582721 0 1 0 0
0.032040089 0.11374119 0.01459792 0 1 0 0
0.04461775 0.1137412 0.014505692 0 1 0 0
0 0.13933317 0.014660938 -1 0 0 0
0.031164555 0 0.014952503 0 -1 0 0
0.057941433 0 0.014863335 0 -1 0 0
0.14211975 0 0.014941992 0 -1 0 0
0 0.00033510139 0.014781109 -1 0 0 0
0.13320485 0.012699999 0.014924256 0 1 0 0
0.0127 0.014274383 0.014908245 1 0 0 0
0.016513003 0.054606996 0.014879525 -0.70710683 -0.70710683 0 0
0 0.11188928 0.014893124 -1 0 0 0
0.022151774 0.1137412 0.014783779 0 1 0 0
0 0.11692671 0.014944209 -1 0 0 0
0.054745201 0 0.015095732 0 -1 0 0
0.14105424 0 0.015197 0 -1 0 0
0.1460014 0 0.015165316 0 -1 0 0
0.15557501 0.0014802436 0.015145307 1 0 0 0
0.12581569 0.0127 0.015171131 0 1 0 0
0.14075662 0.012699999 0.015016375 0 1 0 0
0 0.024610601 0.015183973 -1 0 0 0
0 0.02645296 0.015024117 -1 0 0 0
0 0.064893581 0.015112664 -1 0 0 0
0.1133348 0.094882995 0.015123554 1 0 0 0
0.1133348 0.10083485 0.015010554 1 0 0 0
0.022836657 0.1137412 0.015072873 0 1 0 0
0.069006726 0.11374119 0.01516109 0 1 0 0
0.10000521 0.1137412 0.015097629 0 1 0 0
0.0087241074 0.142875 0.015019437 0 1 0 0
0.15557501 0.0090995301 0.015406058 1 0 0 0
0.028145457 0.012700001 0.015490049 0 1 0 0
0.04466429 0.0127 0.015263729 0 1 0 0
0.14764564 0.0127 0.015274726 0 1 0 0
0 0.020468416 0.015323049 -1 0 0 0
0 0.023249477 0.01538419 -1 0 0 0
0.012760601 0.058359399 0.015433768 -0.70710683 -0.70710671 1.1855206e-07 0
0.10182326 0.1137412 0.015370857 0 1 0 0
0.14307457 0.0127 0.015728323 0 1 0 0
0.033726044 0.1137412 0.015508255 0 1 0 0
0.11182629 0.1137412 0.0157307 0 1 0 0
0.10265288 0 0.015817139 0 -1 0 0
0.15557501 0.0015135901 0.015981324 1 0 0 0
0.023136159 0.0127 0.015925458 0 1 0 0
0.14158399 0.0127 0.015974043 0 1 0 0
0.1133348 0.017555546 0.015884161 1 0 0 0
0.1133348 0.02805141 0.015929356 1 0 0 0
0.10261261 0 0.016226191 0 -1 0 0
0.053695109 0.012699999 0.01618192 0 1 0 0
0.1133348 0.016719885 0.01601347 1 0 0 0
0.0127 0.018621121 0.016225696 1 0 0 0
0.0127 0.02113644 0.016216131 1 0 0 0
0.1133348 0.026283305 0.016048959 1 0 0 0
0.0127 0.030338464 0.016244922 1 0 0 0
0.012700001 0.048035681 0.016213313 1 0 0 0
0.022651812 0.048468184 0.016202657 -0.70710683 -0.70710683 0 0
0.019662308 0.051457696 0.016094163 -0.70710683 -0.70710683 0 0
0 0.053789787 0.016139159 -1 0 0 0
0.0026049705 0.142875 0.016018851 0 1 0 0
0.12240359 0.0127 0.016268425 0 1 0 0
0.1133348 0.020684639 0.01629675 1 0 0 0
0 0.024190567 0.016447926 -1 0 0 0
0.0127 0.034709506 0.016365414 1 0 0 0
0.017651312 0.053468682 0.016337816 -0.70710683 -0.70710683 0 0
0.11106113 0.1137412 0.016258437 0 1 0 0
0.0086540021 0.142875 0.016338702 0 1 0 0
0.081762902 0 0.016621409 0 -1 0 0
0.057756372 0.0127 0.016537294 0 1 0 0
0.049832746 0.021287255 0.016725015 -0.70710683 -0.70710683 7.3838692e-08 0
0.02944139 0.041678607 0.016565436 -0.70710683 -0.70710683 7.3838692e-08 0
0 0.066364653 0.016713226 -1 0 0 0
0.1133348 0.079522111 0.016616572 1 0 0 0
0 0.097140133 0.01663062 -1 0 0 0
0 0.11416878 0.016515298 -1 0 0 0
0.012699999 0.13239342 0.016553126 1 0 0 0
0.0026313018 0.142875 0.016576825 0 1 0 0
0.01465578 0 0.016938129 0 -1 0 0
0.032312244 0 0.016852263 0 -1 0 0
0.041466303 0 0.016849998 0 -1 0 0
0.072995774 0 0.016888637 0 -1 0 0
0.12156419 0 0.016863031 0 -1 0 0
0.1454702 0 0.016782826 0 -1 0 0
0.053351149 0.017768849 0.016893424 -0.70710683 -0.70710683 7.3838692e-08 0
0.012699999 0.045111123 0.016969053 1 0 0 0
0.1133348 0.066409066 0.01686587 1 0 0 0
0.0127 0.11607891 0.016890403 1 0 0 0
0 0.13033278 0.016942635 -1 0 0 0
0.02347512 0 0.017141242 0 -1 0 0
0 0.053751156 0.017197713 -1 0 0 0
0.11333479 0.094360411 0.017099068 1 0 0 0
0.00029224766 0 0.017391782 0 -1 0 0
0.13376942 0 0.017358758 0 -1 0 0
0.1133348 0.058305722 0.017481675 1 0 0 0
0.011497668 0 0.01750336 0 -1 0 0
0.011611883 0 0.017588034 0 -1 0 0
0.028630218 0 0.017544147 0 -1 0 0
0.062681958 0 0.017741686 0 -1 0 0
0.057069521 0.014050478 0.01773949 -0.70710671 -0.70710683 1.0867272e-07 0
0.050650351 0.020469649 0.017746639 -0.70710683 -0.70710683 7.3838692e-08 0
0.1133348 0.039716009 0.017578684 1 0 0 0
0.022963187 0.048156813 0.017500089 -0.70710683 -0.70710683 0 0
0.051992025 0.1137412 0.017679639 0 1 0 0
0.0062948009 0.142875 0.017744517 0 1 0 0
0.058178842 0 0.01785898 0 -1 0 0
0.12469024 0 0.017929263 0 -1 0 0
0.038731582 0.0127 0.017859098 0 1 0 0
0.14748795 0.012700001 0.017951505 0 1 0 0
0.1133348 0.013229344 0.017900795 1 0 0 0
0 0.02894379 0.017817538 -1 0 0 0
0.1133348 0.079367891 0.017769035 1 0 0 0
0 0.10059643 0.017981943 -1 0 0 0
0.010208749 0 0.018141147 0 -1 0 0
0.034338515 0 0.018222116 0 -1 0 0
0.1391111 0 0.018114259 0 -1 0 0
0.1133348 0.047082208 0.018204607 1 0 0 0
0.012699999 0.04889296 0.018195823 1 0 0 0
0.11333479 0.10227524 0.018157203 1 0 0 0
0.028552564 0.1137412 0.01816199 0 1 0 0
0.062849745 0.1137412 0.018230939 0 1 0 0
0 0.1201502 0.018184643 -1 0 0 0
0.083443381 0 0.018300276 0 -1 0 0
0.13607517 0.0127 0.018434573 0 1 0 0
0.0127 0.051052667 0.018264197 1 0 0 0
0 0.076575741 0.018277584 -1 0 0 0
0.11333479 0.095480829 0.018280111 1 0 0 0
0.055817891 0.1137412 0.018300107 0 1 0 0
0.10588003 0.1137412 0.018298471 0 1 0 0
0.0127 0.1264154 0.018377153 1 0 0 0
0 0.14012605 0.018254545 -1 0 0 0
0.05407789 0 0.018608211 0 -1 0 0
0.083091103 0 0.018583028 0 -1 0 0
0.029082121 0.012700001 0.018603144 0 1 0 0
0 0.015102891 0.018685814 -1 0 0 0
0.11333479 0.025065279 0.018572384 1 0 0 0
0.024769003 0.046350993 0.01852023 -0.70710683 -0.70710683 0 0
0.0127 0.047270373 0.018609775 1 0 0 0
0.02132697 0.049793035 0.018505497 -0.70710683 -0.70710683 0 0
0.11333479 0.092292577 0.01856406 1 0 0 0
0 0.11218604 0.018552864 -1 0 0 0
0.057279997 0.1137412 0.01850828 0 1 0 0
0 0.13662273 0.018740086 -1 0 0 0
0 0.14143509 0.018568156 -1 0 0 0
0.086779892 0 0.018776016 0 -1 0 0
0.10949428 0 0.01886872 0 -1 0 0
0.14340034 0.0127 0.018951796 0 1 0 0
0.012699999 0.016863726 0.018985616 1 0 0 0
0 0.041417703 0.018927122 -1 0 0 0
0.012700001 0.041842036 0.018849552 1 0 0 0
0 0.046311326 0.018907633 -1 0 0 0
0.074635074 0 0.019039845 0 -1 0 0
0.075021997 0 0.019015964 0 -1 0 0
0.11261008 0 0.019208806 0 -1 0 0
0.11496744 0 0.019199369 0 -1 0 0
0.14776215 0.012700001 0.019033402 0 1 0 0
0 0.037550505 0.019083543 -1 0 0 0
0.032412495 0.038707502 0.019039681 -0.70710683 -0.70710683 0 0
0.013892847 0.05722715 0.019145237 -0.70710683 -0.70710671 1.1855206e-07 0
0.1133348 0.072020933 0.019152462 1 0 0 0
0.1133348 0.084739096 0.019126562 1 0 0 0
0.069643773 0.1137412 0.019140527 0 1 0 0
0.090896159 0 0.019416876 0 -1 0 0
0.01879034 0.052329659 0.019464523 -0.70710683 -0.70710683 0 0
0.1133348 0.059328225 0.019323893 1 0 0 0
0.11333479 0.087499 0.019256584 1 0 0 0
0.0127 0.11859117 0.019448463 1 0 0 0
0.016552126 0 0.019714065 0 -1 0 0
0.027656248 0 0.019561706 0 -1 0 0
0.064872712 0 0.019584103 0 -1 0 0
0.12788732 0 0.019595062 0 -1 0 0
0.13302156 0.012699999 0.019592598 0 1 0 0
0 0.060762253 0.019627191 -1 0 0 0
0 0.1112471 0.019680601 -1 0 0 0
0.036936108 0.11374119 0.019509947 0 1 0 0
0.030419979 0 0.019877978 0 -1 0 0
0.053668782 0 0.019856598 0 -1 0 0
0.15557501 0.0091650225 0.019953828 1 0 0 0
0 0.012521829 0.019837158 -1 0 0 0
0.041158166 0.0127 0.019938387 0 1 0 0
0.14035767 0.0127 0.019806445 0 1 0 0
0.050346561 0.020773433 0.019759841 -0.70710683 -0.70710683 7.3838692e-08 0
0 0.025966231 0.019920127 -1 0 0 0
0.11333479 0.028359804 0.019937865 1 0 0 0
0.022473715 0.048646282 0.019812483 -0.70710683 -0.70710683 0 0
0.012699999 0.12876257 0.019815475 1 0 0 0
0.042073499 0 0.020070072 0 -1 0 0
0 0.012804501 0.020179166 -1 0 0 0
0 0.023253938 0.020133471 -1 0 0 0
0.012700001 0.036467366 0.020244449 1 0 0 0
0.027083803 0.1137412 0.020104287 0 1 0 0
0.09355519 0.11374119 0.020077024 0 1 0 0
0.012700001 0.11593223 0.020133613 1 0 0 0
0.005228939 0 0.020279787 0 -1 0 0
0.076810196 0 0.020265354 0 -1 0 0
0.10077447 0 0.020419722 0 -1 0 0
0.15296626 0 0.020364875 0 -1 0 0
0 0.0076736477 0.020375578 -1 0 0 0
0.13998735 0.012699999 0.020254206 0 1 0 0
0 0.039517988 0.02048466 -1 0 0 0
0 0.048840597 0.02038091 -1 0 0 0
0.068133026 0.1137412 0.020343233 0 1 0 0
0.012699999 0.14028171 0.020351756 1 0 0 0
0.019765384 0 0.02060418 0 -1 0 0
0 0.012549943 0.020607635 -1 0 0 0
0.1133348 0.076178841 0.02070717 1 0 0 0
0 0.13516739 0.020582877 -1 0 0 0
0.079453379 0 0.020801185 0 -1 0 0
0.030544292 0.012699999 0.02093414 0 1 0 0
0.047988318 0.02313168 0.020911913 -0.70710683 -0.70710683 7.3838692e-08 0
0 0.025626006 0.020851979 -1 0 0 0
0.012700001 0.031430595 0.02098183 1 0 0 0
0 0.047438484 0.020949116 -1 0 0 0
0 0.052745257 0.020840313 -1 0 0 0
0.0127 0.12793329 0.020872738 1 0 0 0
0.062438216 0 0.021233859 0 -1 0 0
0.067154728 0 0.021075839 0 -1 0 0
0.076179668 0 0.021238979 0 -1 0 0
0.077293076 0 0.021067077 0 -1 0 0
0.11553328 0 0.021111393 0 -1 0 0
0.15557501 0.009906305 0.02102406 1 0 0 0
0 0.010775073 0.021231716 -1 0 0 0
0 0.023222679 0.021146489 -1 0 0 0
0.0127 0.036765337 0.021144424 1 0 0 0
0.021220699 0.049899302 0.021023186 -0.70710683 -0.70710683 0 0
0.1133348 0.10123856 0.021100663 1 0 0 0
0.084593214 0.11374119 0.021180566 0 1 0 0
0.10525299 0.11374119 0.021080334 0 1 0 0
0.13143145 0 0.021287562 0 -1 0 0
0.042947978 0.0127 0.021445461 0 1 0 0
0.12010464 0.0127 0.021323033 0 1 0 0
0.14108297 0.012699999 0.021327792 0 1 0 0
0 0.022942713 0.021315951 -1 0 0 0
0.1133348 0.035493985 0.021291049 1 0 0 0
0.012700001 0.039150421 0.021295423 1 0 0 0
0 0.047970977 0.021455232 -1 0 0 0
0 0.06328202 0.021329461 -1 0 0 0
0.11333479 0.068601571 0.021331709 1 0 0 0
0 0.082750864 0.021262361 -1 0 0 0
0 0.092856213 0.021356419 -1 0 0 0
0 0.13206965 0.021420002 -1 0 0 0
0.080218598 0 0.021563681 0 -1 0 0
0.12675363 0 0.021505091 0 -1 0 0
0.13548821 0 0.021725934 0 -1 0 0
0.0127 0.034026336 0.021616518 1 0 0 0
0.029441744 0.041678257 0.021529082 -0.70710683 -0.70710683 0 0
0.012700001 0.05354619 0.021501742 1 0 0 0
0 0.061195094 0.021697316 -1 0 0 0
0.1133348 0.099857405 0.021658525 1 0 0 0
0.079413839 0.11374119 0.021678545 0 1 0 0
0 0.13408168 0.021630116 -1 0 0 0
0.035147343 0 0.021816568 0 -1 0 0
0.049791597 0 0.021846546 0 -1 0 0
0.060727209 0 0.021820396 0 -1 0 0
0.078296199 0 0.021951649 0 -1 0 0
0.13162185 0 0.021974809 0 -1 0 0
0.13979474 0 0.0218099 0 -1 0 0
0.15557501 0.0095053464 0.021812165 1 0 0 0
0.11333479 0.024903048 0.021914778 1 0 0 0
0.045689464 0.025430534 0.021850981 -0.70710683 -0.70710683 7.3838692e-08 0
0.040745988 0.030374005 0.021808315 -0.70710683 -0.70710683 0 0
0.019602608 0.05151739 0.021852881 -0.70710683 -0.70710683 0 0
0 0.054235931 0.021910219 -1 0 0 0
0 0.09837915 0.021930885 -1 0 0 0
0.10314322 0.11374119 0.021948865 0 1 0 0
0.0127 0.13333921 0.021794889 1 0 0 0
0.098744817 0 0.022105543 0 -1 0 0
0.12420446 0.012699999 0.022093734 0 1 0 0
0.058355723 0.012764274 0.022000652 -0.70710671 -0.70710683 1.0867272e-07 0
0.11333479 0.027505424 0.022119509 1 0 0 0
0.0127 0.035412975 0.022120526 1 0 0 0
0.035840452 0.035279546 0.022061337 -0.70710683 -0.70710683 0 0
0 0.036915667 0.022029746 -1 0 0 0
0.024066292 0.047053702 0.022167016 -0.70710683 -0.70710683 0 0
0.1133348 0.058802634 0.022091068 1 0 0 0
0.11333479 0.07238593 0.02202962 1 0 0 0
0.017316155 0.1137412 0.022249505 0 1 0 0
0.090720177 0.1137412 0.022016143 0 1 0 0
0 0.12292956 0.022091065 -1 0 0 0
0.005796345 0.14287499 0.022091519 0 1 0 0
0.052497622 0 0.02237298 0 -1 0 0
0.1276758 0 0.022441376 0 -1 0 0
0.13407147 0.0127 0.022364365 0 1 0 0
0.012700001 0.022744741 0.022389978 1 0 0 0
0.0127 0.033344109 0.022283524 1 0 0 0
0.012699999 0.041028026 0.0223196 1 0 0 0
0.013682532 0.057437468 0.022410225 -0.70710683 -0.70710671 1.1855206e-07 0
0.1133348 0.10862797 0.0223333 1 0 0 0
0.046823815 0.1137412 0.022429409 0 1 0 0
0.095002688 0.1137412 0.022283083 0 1 0 0
0.0004320553 0.14287502 0.022287494 0 1 0 0
0.0096765365 0.142875 0.022461385 0 1 0 0
0.054790422 0.016329581 0.022681117 -0.70710671 -0.70710683 1.0867272e-07 0
0.052521575 0.018598426 0.022672348 -0.70710683 -0.70710683 7.3838692e-08 0
0.030219488 0.040900514 0.022658931 -0.70710683 -0.70710683 0 0
0.0127 0.050778337 0.022726774 1 0 0 0
0.06424401 0.1137412 0.022561964 0 1 0 0
0.014052562 0 0.022778004 0 -1 0 0
0.021856509 0 0.022822481 0 -1 0 0
0.15557501 0.00039805588 0.022833835 1 0 0 0
0 0.0065517155 0.022836672 -1 0 0 0
0.15557501 0.0099888472 0.022897277 1 0 0 0
0.13917477 0.0127 0.022836743 0 1 0 0
0.13935673 0.0127 0.02299938 0 1 0 0
0.1133348 0.016316989 0.022787577 1 0 0 0
0.1133348 0.017883833 0.022893082 1 0 0 0
0.051382877 0.019737123 0.022943357 -0.70710683 -0.70710683 7.3838692e-08 0
0.0127 0.027872175 0.022827607 1 0 0 0
0 0.072386861 0.022838583 -1 0 0 0
0.11333479 0.10841229 0.022839351 1 0 0 0
0.043042768 0.1137412 0.022958199 0 1 0 0
0 0.11461265 0.022973625 -1 0 0 0
0.0127 0.1185586 0.022924453 1 0 0 0
0 0.12505051 0.022777027 -1 0 0 0
0.0127 0.13206285 0.022869747 1 0 0 0
0.00032099392 0 0.023103479 0 -1 0 0
0.072985336 0 0.02303537 0 -1 0 0
0 0.0092931781 0.023210427 -1 0 0 0
0.015628044 0.0127 0.023112442 0 1 0 0
0.14378917 0.0127 0.023046326 0 1 0 0
0 0.051317882 0.023077762 -1 0 0 0
0 0.094979927 0.023047544 -1 0 0 0
0 0.11289711 0.023013633 -1 0 0 0
0.012699999 0.13339426 0.023231262 1 0 0 0
0.0897213 0 0.023443898 0 -1 0 0
0.11934299 0.0127 0.023295078 0 1 0 0
0.13494164 0.0127 0.023429189 0 1 0 0
0.1381412 0.0127 0.023376469 0 1 0 0
0.025649201 0.0454708 0.023422323 -0.70710683 -0.70710683 0 0
0.023342241 0.047777757 0.023460768 -0.70710683 -0.70710683 0 0
0.1133348 0.10677478 0.023371344 1 0 0 0
0.076682255 0.11374119 0.023422614 0 1 0 0
0.0087761739 0 0.023518324 0 -1 0 0
0.089272417 0 0.023692459 0 -1 0 0
0.093848646 0 0.023521556 0 -1 0 0
0.056258805 0.012700001 0.023551786 0 1 0 0
0 0.013232541 0.023670899 -1 0 0 0
0.11333479 0.025315695 0.023601966 1 0 0 0
0.1133348 0.072127014 0.023657732 1 0 0 0
0.1133348 0.10994247 0.023739578 1 0 0 0
0.03618256 0.1137412 0.023717292 0 1 0 0
0.054907579 0.1137412 0.023715325 0 1 0 0
0 0.11776778 0.023521975 -1 0 0 0
0 0.12700917 0.023665559 -1 0 0 0
0.046441838 0 0.023797367 0 -1 0 0
0.08454106 0 0.023867527 0 -1 0 0
0.15557501 0.00098457455 0.023946477 1 0 0 0
0.15557501 0.0080410251 0.023934087 1 0 0 0
0.12435977 0.012699999 0.023972686 0 1 0 0
0.1133348 0.088457532 0.023853049 1 0 0 0
0 0.10014256 0.023979492 -1 0 0 0
0 0.11060233 0.023797382 -1 0 0 0
0.046453565 0.11374119 0.023968672 0 1 0 0
0.067664199 0.11374119 0.023787506 0 1 0 0
0.0127 0.11531249 0.023973005 1 0 0 0
0.0127 0.11626299 0.023928469 1 0 0 0
0 0.11810809 0.02381089 -1 0 0 0
0 0.12411563 0.023818817 -1 0 0 0
0 0.13916372 0.023830796 -1 0 0 0
0 4.4355438e-05 0.024115302 -1 0 0 0
0.10989027 0 0.024054216 0 -1 0 0
0.12058821 0 0.024052242 0 -1 0 0
0.021256462 0.0127 0.024108961 0 1 0 0
0.0127 0.0311659 0.024078412 1 0 0 0
0.035663571 0.035456426 0.0241847 -0.70710683 -0.70710683 0 0
0 0.044357095 0.024003757 -1 0 0 0
0 0.053641852 0.024224127 -1 0 0 0
0.1133348 0.082695022 0.024115317 1 0 0 0
0.023420688 0.1137412 0.024141885 0 1 0 0
0.041277096 0.11374119 0.024071209 0 1 0 0
0.06475044 0.1137412 0.024082551 0 1 0 0
0 0.14127217 0.024147296 -1 0 0 0
0.012248462 0.142875 0.024240106 0 1 0 0
0.067343093 0 0.024409913 0 -1 0 0
0.1133348 0.088956617 0.024256339 1 0 0 0
0.023122409 0.1137412 0.024431735 0 1 0 0
0.064528331 0 0.024529178 0 -1 0 0
0.075874083 0 0.02471309 0 -1 0 0
0.12669846 0.012699999 0.024648916 0 1 0 0
0.15311939 0.012699999 0.024660736 0 1 0 0
0.053967237 0.017152762 0.02460669 -0.70710671 -0.70710683 1.0867272e-07 0
0 0.025080375 0.02458594 -1 0 0 0
0.1133348 0.052295402 0.024589762 1 0 0 0
0.01595144 0.055168558 0.024584185 -0.70710683 -0.70710671 1.1855206e-07 0
0.015433742 0.055686258 0.024623137 -0.70710683 -0.70710671 1.1855206e-07 0
0 0.094274998 0.024599418 -1 0 0 0
0.11333479 0.10303543 0.024601625 1 0 0 0
0.031814035 0.11374119 0.024590466 0 1 0 0
0 0.12695321 0.024574019 -1 0 0 0
0 0.13012408 0.024598779 -1 0 0 0
0.012699999 0.13817258 0.024546182 1 0 0 0
0.010686856 0 0.024856579 0 -1 0 0
0.11811596 0 0.024787327 0 -1 0 0
0.013377733 0.012699999 0.024850793 0 1 0 0
0.05724889 0.012700001 0.024961609 0 1 0 0
0.1553662 0.012700001 0.024887761 0 1 0 0
0.074029066 0.012930312 0.024891999 0 0 1 0
0.053290408 0.013126186 0.024892 0 0 -1 0
0.10741232 0.01322214 0.024892 0 0 1 0
0.050859369 0.013369508 0.024892 0 0 -1 0
0.051958546 0.013498085 0.024892002 0 0 -1 0
0.06862846 0.013337644 0.024892 0 0 1 0
0.10094945 0.013446699 0.024891999 0 0 1 0
0.10796955 0.013652334 0.024892 0 0 1 0
0.052328758 0.013910644 0.024892 0 0 -1 0
0.080506459 0.014209677 0.024891999 0 0 1 0
0.052056972 0.014509661 0.024892 0 0 -1 0
0.044391599 0.014988721 0.024892 0 0 -1 0
0.054851778 0.01489434 0.024891999 0 0 -1 0
0.10135388 0.016553175 0.024892 0 0 1 0
0.076558426 0.017113512 0.024892 0 0 1 0
0.094895698 0.017067943 0.024892002 0 0 1 0
0.097434282 0.017156485 0.024892 0 0 1 0
0.10121538 0.017115453 0.024891999 0 0 1 0
0.042409956 0.017423945 0.024891999 0 0 -1 0
0.090084605 0.017398655 0.024892 0 0 1 0
0.10971695 0.017483512 0.024892 0 0 1 0
0.095219344 0.018114612 0.024891999 0 0 1 0
0.11315109 0.018093538 0.024891999 0 0 1 0
0.047231615 0.018441999 0.024892 0 0 -1 0
0.060354214 0.01827378 0.024892 0 0 1 0
0.080050036 0.01867713 0.024892002 0 0 1 0
0.089368083 0.018672422 0.024892002 0 0 1 0
0.092572324 0.019204251 0.024892 0 0 1 0
0.034047764 0.019345695 0.024892 0 0 -1 0
0.088934734 0.019413926 0.024891999 0 0 1 0
0.043001581 0.019636404 0.024891999 0 0 -1 0
0.065369308 0.020427074 0.024892 0 0 1 0
0.083378725 0.020904699 0.024892 0 0 1 0
0.10234711 0.021342281 0.024892 0 0 1 0
0.09085466 0.022680372 0.024891999 0 0 1 0
0.088652171 0.023471972 0.024892002 0 0 1 0
0.030860644 0.023813717 0.024892 0 0 -1 0
0.070758753 0.023881435 0.024892002 0 0 1 0
0.051490866 0.024165574 0.024892 0 0 1 0
0.1104722 0.024146179 0.024892 0 0 1 0
