# .PCD v0.7 - Point Cloud Data file format
VERSION 0.7
FIELDS x y z normal_x normal_y normal_z curvature
SIZE 4 4 4 4 4 4 4
TYPE F F F F F F F
COUNT 1 1 1 1 1 1 1
WIDTH 859
HEIGHT 1
VIEWPOINT 0 0 0 1 0 0 0
POINTS 859
DATA ascii
0.0127 0.12516741 0.034824185 1 0 0 0
0.025693994 0.0127 0.035089359 0 1 0 0
0.09333124 0.0127 0.035234366 0 1 0 0
0.10767538 0.012700001 0.03501587 0 1 0 0
0.14993493 0.0127 0.035171948 0 1 0 0
0.07106296 0.014968002 0.035170075 0.31316492 -0.94969875 0 0
0.098115727 0.039829284 0.035133578 0.91879499 -0.39473516 0 0
0.015671618 0.073047027 0.035196416 -0.93513668 0.35428727 0 0
0.012699999 0.078620873 0.035116825 1 0 0 0
0 0.098274514 0.035243198 -1 0 0 0
0.084965073 0 0.035328947 0 -1 0 0
0.091517337 0 0.035436802 0 -1 0 0
0.11037491 0 0.035389565 0 -1 0 0
0.13310322 0 0.035461415 0 -1 0 0
0.13724545 0 0.035306972 0 -1 0 0
0.071822695 0.012699999 0.035261467 0 1 0 0
0.047153343 0.013901442 0.035380632 -0.22920084 -0.97337919 0 0
0.047743417 0.01903614 0.035330512 0.23768656 0.97134191 0 0
0 0.035283182 0.035253759 -1 0 0 0
0.096088424 0.06301038 0.035359681 -0.98965251 -0.14348517 0 0
0.10110557 0.06414111 0.035406042 0.98836148 0.15212359 0 0
0.014837271 0.070658363 0.035410527 -0.9523949 0.30486712 0 0
0.022703972 0.076067217 0.035350475 0.87673205 -0.48097908 0 0
0.090140454 0.087046191 0.035290793 0.74022251 0.67236203 0 0
0.045074712 0.09996441 0.035340048 -0.27144191 0.96245486 0 0
0.0127 0.10418739 0.035308287 1 0 0 0
0.0033294572 0.142875 0.035421193 0 1 0 0
0.074973941 0.022128122 0.035513829 -0.45009488 0.89298075 0 0
0.028962918 0.022872841 0.035600744 -0.63270396 -0.7743938 0 0
0.020330422 0.032374095 0.035685286 -0.83146918 -0.5555709 0 0
0.088534422 0.033448383 0.035677124 -0.79601008 0.60528344 0 0
0.092607737 0.040103454 0.035691533 -0.90070319 0.4344351 0 0
0.01336302 0.049849212 0.035656314 -0.98555636 -0.16934779 0 0
0.012699999 0.059489943 0.03559605 1 0 0 0
0.012700001 0.061829217 0.03574685 1 0 0 0
0.10131103 0.062684268 0.035572171 0.99200577 0.12619278 0 0
0.0127 0.077924244 0.035648983 1 0 0 0
0.025391674 0.080313101 0.03561502 0.806449 -0.59130365 0 0
0.026036568 0.08117529 0.035582863 0.79068124 -0.6122281 0 0
0.012700001 0.097093292 0.035545759 1 0 0 0
0.045371521 0.10004766 0.035557218 -0.26302886 0.96478796 0 0
0.066072464 0.10075642 0.035525311 0.20365664 0.97904241 0 0
0.004405227 0.142875 0.035733175 0 1 0 0
0.11731913 0 0.035953805 0 -1 0 0
0.15557501 0.0070476709 0.035883475 1 0 0 0
0.023186864 0.0127 0.035982128 0 1 0 0
0.058523744 0.012699999 0.035982937 0 1 0 0
0.072327346 0.015404087 0.035967115 0.33791801 -0.94117552 0 0
0 0.015536225 0.035971407 -1 0 0 0
0.031153928 0.02774648 0.035997067 0.65934777 0.75183815 0 0
0 0.034169175 0.035956249 -1 0 0 0
0.016030194 0.040445119 0.035887025 -0.92553991 -0.37865004 0 0
0.0127 0.062964171 0.035815917 1 0 0 0
0.0127 0.063868977 0.035786297 1 0 0 0
0.10099934 0.064780749 0.035925332 0.98555559 0.16935246 0 0
0.019161738 0.067150868 0.035803448 0.9670465 -0.25459993 0 0
0.0127 0.070453078 0.035831906 1 0 0 0
0.026182137 0.081363291 0.035833057 0.79068124 -0.6122281 0 0
0.075221233 0.092146963 0.035773832 -0.45786506 -0.88902169 0 0
0 0.11726122 0.03594999 -1 0 0 0
0.0069143609 0 0.036151715 0 -1 0 0
0.13279817 0 0.036081839 0 -1 0 0
0.023014043 0.012699999 0.03614071 0 1 0 0
0.080605306 0.012699999 0.036169045 0 1 0 0
0.057782706 0.012755033 0.036049724 0.01308752 -0.99991441 0 0
0.039726019 0.016330237 0.036249012 -0.39474326 -0.91879147 0 0
0.093583748 0.042292692 0.036101863 -0.92554164 0.37864596 0 0
0.10063049 0.047733575 0.03621402 0.97723347 -0.21216688 0 0
0 0.051125877 0.036069855 -1 0 0 0
0.10100164 0.064767405 0.036103927 0.98555559 0.16935246 0 0
0.012699999 0.077665962 0.036249857 1 0 0 0
0.081226088 0.09459801 0.03603965 0.54096437 0.84104556 0 0
0.047373295 0.095271975 0.036129922 0.24614866 -0.96923208 0 0
0.0127 0.11993 0.036145039 1 0 0 0
0 0.13635473 0.036208704 -1 0 0 0
0 0.14190549 0.036192846 -1 0 0 0
0.037291545 0 0.036259886 0 -1 0 0
0.12459081 0 0.0364151 0 -1 0 0
0.01319895 0.0127 0.036349993 0 1 0 0
0.03362491 0.019518299 0.036466438 -0.53361899 -0.84572506 0 0
0.08343336 0.021317353 0.036293704 0.5913077 -0.80644608 0 0
0.096343726 0.036139049 0.036368527 0.88089514 -0.4733116 0 0
0.0127 0.04319429 0.036360394 1 0 0 0
0.10112837 0.050408591 0.036405221 0.98836124 -0.15212502 0 0
0.0127 0.11562572 0.036280449 1 0 0 0
0.0127 0.13390413 0.036355346 1 0 0 0
0.022806916 0 0.036587659 0 -1 0 0
0.056484785 0 0.03654094 0 -1 0 0
0.048414022 0.0127 0.036553338 0 1 0 0
0.059253439 0.0127 0.036569878 0 1 0 0
0.060260762 0.012699999 0.036667578 0 1 0 0
0.10602052 0.0127 0.036608256 0 1 0 0
0.020727931 0.031794071 0.036542203 -0.82164973 -0.56999284 0 0
0 0.034854632 0.036697835 -1 0 0 0
0.090493068 0.036281899 0.036703512 -0.84573442 0.53360409 0 0
0.016890408 0.038469668 0.036594629 -0.908144 -0.41865802 0 0
0.074154377 0.092677079 0.036695838 -0.4344351 -0.90070319 0 0
0.040624518 0.092854872 0.036670197 0.41866571 -0.90814042 0 0
0 0.11174681 0.036710784 -1 0 0 0
0.080313399 0 0.03692681 0 -1 0 0
0.15557501 0.011323272 0.036760829 1 0 0 0
0.087956265 0.012699999 0.036791503 0 1 0 0
0.03633583 0.01795218 0.036779471 -0.46561483 -0.88498753 0 0
0.032219548 0.020435277 0.036882192 -0.56280631 -0.82658881 0 0
0.028022051 0.023668805 0.036987111 -0.65934324 -0.75184214 0 0
0.090688735 0.02797181 0.036953043 0.75184447 -0.6593405 0 0
0.092525557 0.030220522 0.036918797 0.7960059 -0.60528892 0 0
0.097868837 0.039259847 0.036921926 0.91531175 -0.40274602 0 0
0.020799942 0.042336468 0.036882114 0.92554164 0.37864596 0 0
0 0.049095549 0.036778819 -1 0 0 0
0.096152879 0.062558837 0.036876284 -0.99086392 -0.13486563 0 0
0.10122762 0.063317984 0.036835205 0.99086511 0.13485692 0 0
0 0.066514887 0.036884096 -1 0 0 0
0.015891017 0.073610283 0.036955349 -0.92880851 0.37056011 0 0
0.012700001 0.085875563 0.036815703 1 0 0 0
0.033165105 0.088317633 0.036806021 0.61222619 -0.79068273 0 0
0.069702625 0.094479419 0.036781296 -0.3214539 -0.94692528 0 0
0.077959597 0.096505277 0.036811493 0.46562615 0.88498157 0 0
0.0127 0.015631586 0.037168898 1 0 0 0
0.07579276 0.01682625 0.037050322 0.41865435 -0.90814567 0 0
0.087476134 0.024655614 0.037045456 0.67879951 -0.73432368 0 0
0.088878021 0.026018383 0.037015617 0.71018529 -0.70401484 0 0
0.019839298 0.033120003 0.037169002 -0.841039 -0.54097456 0 0
0.017265432 0.037682705 0.03719417 -0.89687413 -0.44228587 0 0
0.019519921 0.045969926 0.037196994 0.95757163 0.28819543 0 0
0.021686047 0.08393085 0.037083965 -0.80125672 0.59832072 0 0
0.092700981 0.083950371 0.037140004 0.80125213 0.59832698 0 0
0.034960594 0.095686756 0.037200019 -0.50377315 0.86383605 0 0
0 0.11378716 0.037234303 -1 0 0 0
0.074327372 0 0.037394792 0 -1 0 0
0.063460462 0.018383404 0.037265461 -0.16074115 0.98699659 0 0
0.087046057 0.024261024 0.037270471 0.67236465 -0.74022007 0 0
0.097698197 0.03887783 0.037274353 0.91175652 -0.41073123 0 0
0.0127 0.047441952 0.037273522 1 0 0 0
0.099764109 0.070012137 0.037370753 0.95757329 0.2881901 0 0
0.093778744 0.071624696 0.037453339 -0.9288103 -0.37055567 0 0
0 0.13491327 0.037398074 -1 0 0 0
0.11249202 0 0.037572805 0 -1 0 0
0.15541454 0 0.037700061 0 -1 0 0
0.13598192 0.012699999 0.037748992 0 1 0 0
0.041046128 0.015790731 0.037572231 -0.36244115 -0.93200666 0 0
0.080190942 0.019158395 0.03762766 0.51877367 -0.85491168 0 0
0.032257665 0.020409327 0.0376468 -0.56280631 -0.82658881 0 0
0.085820682 0.030240213 0.037598293 -0.72837144 0.68518251 0 0
0.0127 0.043079387 0.037511684 1 0 0 0
0.094033688 0.043440931 0.037593603 -0.93819064 0.34611893 0 0
0.095345169 0.047661528 0.037684608 -0.96923208 0.24614866 0 0
0.01335461 0.049900014 0.037741225 -0.98699635 -0.16074273 0 0
0.020684144 0.082544416 0.037609473 -0.82164663 0.56999731 0 0
0 0.095214821 0.03765814 -1 0 0 0
0 0.14221998 0.037705448 -1 0 0 0
0.05042851 0 0.037830967 0 -1 0 0
0 0.00082667271 0.037839141 -1 0 0 0
0.052623838 0.012699999 0.037837204 0 1 0 0
0.062833786 0.0127 0.037936755 0 1 0 0
0.078491151 0.018181622 0.037959483 0.48098946 -0.87672645 0 0
0.08247526 0.020636166 0.037844505 0.56999731 -0.82164663 0 0
0.035455234 0.024442375 0.037994735 0.5555681 0.83147109 0 0
0.086471207 0.030947747 0.037883103 -0.74605644 0.66588277 0 0
0.093745515 0.031897634 0.037832286 0.8216452 -0.56999928 0 0
0.018591039 0.035176888 0.037891723 -0.86819881 -0.49621654 0 0
0 0.048598308 0.037857547 -1 0 0 0
0.0127 0.049590167 0.037926368 1 0 0 0
0.10222776 0 0.038007848 0 -1 0 0
0.0087591223 0.00045049653 0.0381 0 0 1 0
0.10018111 0.00079861091 0.038100004 0 0 1 0
0.016173186 0.0012056874 0.0381 0 0 1 0
0.031315316 0.0010595791 0.038100004 0 0 1 0
0.034090493 0.0012038663 0.0381 0 0 1 0
0.051543754 0.0012473589 0.038100004 0 0 1 0
0.094762228 0.0012582041 0.0381 0 0 1 0
0.12211505 0.0014328806 0.0381 0 0 1 0
0.021225192 0.0015443277 0.0381 0 0 1 0
0.073424488 0.0018890144 0.0381 0 0 1 0
0.13071695 0.0019611132 0.038099997 0 0 1 0
0.049094364 0.0023065084 0.0381 0 0 1 0
0.10151695 0.002468385 0.0381 0 0 1 0
0.14536382 0.0022813189 0.038099997 0 0 1 0
0.14924175 0.0024453443 0.0381 0 0 1 0
0.011807793 0.0027215891 0.0381 0 0 1 0
0.033887818 0.0027464346 0.0381 0 0 1 0
0.059250582 0.0025669271 0.0381 0 0 1 0
0.14427717 0.0026617835 0.0381 0 0 1 0
0.056508251 0.0027763834 0.0381 0 0 1 0
0.069860294 0.0029944673 0.0381 0 0 1 0
0.11007617 0.0029606803 0.0381 0 0 1 0
0.079609521 0.0030522558 0.0381 0 0 1 0
0.09244889 0.0031326609 0.0381 0 0 1 0
0.0078639258 0.0033428245 0.0381 0 0 1 0
0.013462621 0.003383833 0.0381 0 0 1 0
0.058227338 0.003672567 0.0381 0 0 1 0
0.14190742 0.0036737963 0.0381 0 0 1 0
0.036229882 0.0039441045 0.0381 0 0 1 0
0.053230956 0.003762153 0.0381 0 0 1 0
0.12171072 0.0039598378 0.0381 0 0 1 0
0.13850524 0.0038361403 0.038099997 0 0 1 0
0.10718001 0.004120159 0.0381 0 0 1 0
0.039332438 0.0042606676 0.0381 0 0 1 0
0.10665765 0.0044279126 0.0381 0 0 1 0
0.054285821 0.0046518683 0.0381 0 0 1 0
0.077102557 0.0045992178 0.0381 0 0 1 0
0.067618117 0.0049091373 0.0381 0 0 1 0
0.12594262 0.0048231152 0.0381 0 0 1 0
0.044782043 0.005177876 0.0381 0 0 1 0
0.053376354 0.0052851662 0.0381 0 0 1 0
0.059264537 0.0053074495 0.0381 0 0 1 0
0.098858096 0.0055200392 0.038099997 0 0 1 0
0.10884967 0.0056378036 0.0381 0 0 1 0
0.14175752 0.0056196004 0.0381 0 0 1 0
0.047616605 0.0057577631 0.0381 0 0 1 0
0.016802417 0.0064346301 0.0381 0 0 1 0
0.15131539 0.0064427359 0.0381 0 0 1 0
0.050451007 0.0067190593 0.0381 0 0 1 0
0.10497984 0.0067184488 0.0381 0 0 1 0
0.050855041 0.007138066 0.0381 0 0 1 0
0.0036114838 0.00729685 0.0381 0 0 1 0
0.13730936 0.007305006 0.0381 0 0 1 0
0.078315012 0.0077081518 0.0381 0 0 1 0
0.12034243 0.0076927003 0.0381 0 0 1 0
0.15548559 0.0076225544 0.0381 0 0 1 0
0.0030488956 0.0078837406 0.0381 0 0 1 0
0.017845329 0.0078064464 0.038100004 0 0 1 0
0.04602788 0.0077966643 0.0381 0 0 1 0
0.11238336 0.0077813542 0.038099997 0 0 1 0
0.14059311 0.0077985874 0.038100004 0 0 1 0
0.15079349 0.00790291 0.0381 0 0 1 0
0.10272603 0.0080967313 0.0381 0 0 1 0
0.065027781 0.0082844719 0.0381 0 0 1 0
0.10594355 0.0083315298 0.038100004 0 0 1 0
0.060395565 0.0086048897 0.0381 0 0 1 0
0.10800403 0.0087440982 0.0381 0 0 1 0
0.03400021 0.0087783588 0.038099997 0 0 1 0
0.019225813 0.0090558445 0.0381 0 0 1 0
0.021873482 0.0090900166 0.0381 0 0 1 0
0.14349803 0.0090044821 0.0381 0 0 1 0
0.018869564 0.0094835805 0.0381 0 0 1 0
0.083913311 0.009514411 0.0381 0 0 1 0
0.10888836 0.0095039317 0.038099997 0 0 1 0
0.002394828 0.0099154562 0.038099997 0 0 1 0
0.0041800477 0.0097657479 0.0381 0 0 1 0
0.056454327 0.0098174121 0.0381 0 0 1 0
0.021843236 0.010054304 0.038099997 0 0 1 0
0.12278011 0.010122233 0.0381 0 0 1 0
0.011272956 0.010360108 0.0381 0 0 1 0
0.095567867 0.01049225 0.0381 0 0 1 0
0.1226724 0.010480309 0.0381 0 0 1 0
0.14226072 0.010330021 0.0381 0 0 1 0
0.014971292 0.010504737 0.038100004 0 0 1 0
0.062804572 0.010682838 0.0381 0 0 1 0
0.043629635 0.010935038 0.0381 0 0 1 0
0.062271416 0.010793169 0.0381 0 0 1 0
0.093196027 0.010766882 0.038099997 0 0 1 0
0.050682969 0.011114626 0.0381 0 0 1 0
0.075196452 0.011034887 0.038099997 0 0 1 0
0.10865572 0.011024158 0.0381 0 0 1 0
0.095195681 0.011293299 0.0381 0 0 1 0
0.014750304 0.011566942 0.0381 0 0 1 0
0.037281722 0.011559926 0.0381 0 0 1 0
0.044763595 0.011705052 0.0381 0 0 1 0
0.070811428 0.011538174 0.0381 0 0 1 0
0.01399656 0.012155739 0.0381 0 0 1 0
0.040692538 0.012223589 0.038100004 0 0 1 0
0.11334436 0.012110347 0.0381 0 0 1 0
0.010295447 0.012281318 0.0381 0 0 1 0
0.047111798 0.012278934 0.0381 0 0 1 0
0.090520725 0.012402028 0.0381 0 0 1 0
0.096474402 0.01239654 0.038099997 0 0 1 0
0.14694297 0.012476742 0.0381 0 0 1 0
0.057096492 0.012597578 0.0381 0 0 1 0
0.078817949 0.01265464 0.0381 0 0 1 0
0.0041855769 0.01383718 0.0381 0 0 1 0
0.006053261 0.01617948 0.0381 0 0 1 0
0.0019281844 0.016274933 0.038099997 0 0 1 0
0.0060742907 0.016877955 0.0381 0 0 1 0
0.0088872556 0.018131249 0.038100004 0 0 1 0
0.011811844 0.018352922 0.0381 0 0 1 0
0.012101132 0.018385015 0.0381 0 0 1 0
0.003688717 0.0210285 0.0381 0 0 1 0
0.041232463 0.021270266 0.038237818 0.40274647 0.91531163 0 0
0.0027196831 0.0224309 0.038099997 0 0 1 0
0.0036517605 0.023164412 0.0381 0 0 1 0
0.0070355646 0.023147967 0.0381 0 0 1 0
0.080246419 0.025343653 0.038210314 -0.58425468 0.81157041 0 0
0.0096263289 0.025727626 0.0381 0 0 1 0
0.003584699 0.026119584 0.0381 0 0 1 0
0.0053943829 0.031368874 0.0381 0 0 1 0
0.00085928396 0.036446322 0.0381 0 0 1 0
0.0044056163 0.042212576 0.0381 0 0 1 0
0.020725312 0.042520091 0.038073327 0.92880988 0.37055662 0 0
0.00069653045 0.043884758 0.0381 0 0 1 0
0.0083012544 0.04507459 0.0381 0 0 1 0
0.0027420262 0.046280693 0.0381 0 0 1 0
0.0026289758 0.049621958 0.0381 0 0 1 0
0.0056742597 0.050552383 0.038100004 0 0 1 0
0.0017317794 0.05190153 0.0381 0 0 1 0
0.0098743802 0.054398134 0.0381 0 0 1 0
0.0079660974 0.056069054 0.0381 0 0 1 0
0.0090138149 0.056124914 0.0381 0 0 1 0
0.00044657823 0.057304587 0.0381 0 0 1 0
0.0031703438 0.057576831 0.0381 0 0 1 0
0.096356109 0.060782909 0.038074151 -0.99580485 -0.091502875 0 0
0.0047699916 0.067248903 0.0381 0 0 1 0
0.0063251443 0.068083614 0.0381 0 0 1 0
0.00058702356 0.069160976 0.0381 0 0 1 0
0.0075874939 0.069438972 0.0381 0 0 1 0
0.011647187 0.079121977 0.0381 0 0 1 0
0.0091044763 0.079465121 0.0381 0 0 1 0
0.0087866876 0.079938732 0.0381 0 0 1 0
0.010881616 0.080525428 0.0381 0 0 1 0
0.011371325 0.081223175 0.0381 0 0 1 0
0.00773184 0.081532925 0.0381 0 0 1 0
0.0017218024 0.082053907 0.038100004 0 0 1 0
0.0046583381 0.083385065 0.038100004 0 0 1 0
0.001591736 0.086934634 0.038100004 0 0 1 0
0.0013223045 0.089233734 0.0381 0 0 1 0
0.003504606 0.090892099 0.0381 0 0 1 0
0.00017387958 0.091221265 0.0381 0 0 1 0
0.008132549 0.096460126 0.0381 0 0 1 0
0.0070909001 0.097808629 0.0381 0 0 1 0
0.0084036198 0.1043874 0.0381 0 0 1 0
0.0015297538 0.10690229 0.038099997 0 0 1 0
0.0057568019 0.10876761 0.0381 0 0 1 0
0.0075247805 0.10939609 0.0381 0 0 1 0
0.00061465934 0.11273519 0.0381 0 0 1 0
0.0047848369 0.112924 0.0381 0 0 1 0
0.0064610569 0.11305018 0.0381 0 0 1 0
0.0021897003 0.11435517 0.0381 0 0 1 0
0.012565798 0.11441751 0.0381 0 0 1 0
0.0017376748 0.11587236 0.0381 0 0 1 0
0.011068215 0.11774387 0.0381 0 0 1 0
0.0016466253 0.11947012 0.0381 0 0 1 0
0.011059212 0.12470278 0.0381 0 0 1 0
0.012572233 0.1252339 0.0381 0 0 1 0
0.011401352 0.12655836 0.0381 0 0 1 0
0.0090611149 0.12872185 0.0381 0 0 1 0
0.012695346 0.13087282 0.0381 0 0 1 0
0.0074724816 0.13316804 0.038100004 0 0 1 0
0.0082579972 0.1337353 0.0381 0 0 1 0
0.011127098 0.13573077 0.038100004 0 0 1 0
0.012243616 0.13722603 0.038099997 0 0 1 0
0.0038568315 0.13888659 0.0381 0 0 1 0
0.00099139439 0.13908239 0.038099997 0 0 1 0
0.0090755206 0.13945533 0.0381 0 0 1 0
0.010697597 0.13973805 0.0381 0 0 1 0
0.012227086 0.14032245 0.038100004 0 0 1 0
0.0039939149 0.14096589 0.0381 0 0 1 0
0.0043758163 0.14167373 0.038099997 0 0 1 0
0.0031256187 0.14254689 0.0381 0 0 1 0
0.0763987 0.017110636 0.038513653 0.43444529 -0.90069824 0 0
0.09168943 0.076082155 0.038518175 -0.87672293 -0.4809958 0 0
0.021966353 0.030102465 0.038825735 -0.79068947 -0.61221749 0 0
0.020771813 0.042405225 0.038801007 0.92554164 0.37864596 0 0
0.094658792 0.045247976 0.038962439 -0.95239592 0.30486396 0 0
0.013934433 0.047013234 0.038904235 -0.97337919 -0.22920084 0 0
0.012844246 0.060075179 0.038975697 -0.99785888 0.065403968 0 0
0.027251005 0.082676046 0.0387915 0.76322794 -0.64612937 0 0
0.077968083 0.096500814 0.038928598 0.46562615 0.88498157 0 0
0.075779021 0.097581685 0.038895272 0.41864645 0.9081493 0 0
0.045301799 0.014373139 0.039173346 -0.2714397 -0.96245551 0 0
0.031922597 0.020638768 0.039038427 -0.56999284 -0.82164973 0 0
0.023482962 0.036974628 0.039058656 0.85940623 0.51129335 0 0
0.096466579 0.059248984 0.03922075 -0.99884897 -0.047966465 0 0
0.089382306 0.087862283 0.039157346 0.72236234 0.69151479 0 0
0.040605493 0.098436445 0.039141931 -0.37055266 0.92881149 0 0
0.060192723 0.10154966 0.039068203 0.065401584 0.99785906 0 0
0.058541059 0.017904576 0.039334793 -0.030535486 0.99953371 0 0
0.032202497 0.020446885 0.039336279 -0.56280631 -0.82658881 0 0
0.026023811 0.025518205 0.039310481 -0.70401484 -0.71018529 0 0
0.0959576 0.050576471 0.039434582 -0.98555636 0.16934772 0 0
0.087302104 0.089906864 0.039433129 0.67879689 0.73432606 0 0
0.076497041 0.091459148 0.039372727 -0.48861396 -0.87250012 0 0
0.058870848 0.017917253 0.03970708 -0.039258685 0.99922907 0 0
0.023844 0.036384556 0.039543904 0.85035098 0.52621597 0 0
0.058900647 0.012783716 0.039977498 0.039260402 -0.99922901 0 0
0.01806502 0.053408355 0.039857998 0.99496847 0.10018844 0 0
0.093945988 0.071192414 0.03983641 -0.93513703 -0.35428634 0 0
0.032752544 0.094322987 0.039813228 -0.54829663 0.83628392 0 0
0.05196555 0.101341 0.039947141 -0.11753105 0.99306923 0 0
0.075830296 0.016843554 0.040244259 0.41865435 -0.90814567 0 0
0.072424591 0.020948812 0.040198624 -0.38671747 0.9221983 0 0
0.088727944 0.025866993 0.040107995 0.71018529 -0.70401484 0 0
0.08269757 0.027269226 0.040218405 -0.64612937 0.76322794 0 0
0.01901347 0.034452319 0.040063005 -0.85940462 -0.51129615 0 0
0.09982457 0.044590846 0.040244166 0.96004838 -0.27983403 0 0
0.018014042 0.060420942 0.040148739 0.99656576 -0.082805581 0 0
0.09427882 0.081716411 0.040154085 0.83628106 0.5483011 0 0
0.032497898 0.087790839 0.040207725 0.62592298 -0.77988493 0 0
0.035566039 0.018371543 0.040287655 -0.48862207 -0.87249553 0 0
0.041330285 0.021227224 0.040258978 0.40274647 0.91531163 0 0
0.096403055 0.054173175 0.040330794 -0.99725008 0.074110039 0 0
0.020157464 0.070383117 0.040395975 0.94117492 -0.33791989 0 0
0.093445614 0.072441697 0.040409256 -0.92220211 -0.38670823 0 0
0.023652082 0.08636044 0.040416595 -0.75756544 0.65275931 0 0
0.068198331 0.094950296 0.040477909 -0.27983072 -0.96004939 0 0
0.051118899 0.09604653 0.040413007 0.15212736 -0.98836094 0 0
0.06871815 0.1001327 0.040452674 0.26302642 0.96478868 0 0
0.078415088 0.018139891 0.040676251 0.48098946 -0.87672645 0 0
0.027071221 0.024520885 0.0405774 -0.67880189 -0.73432148 0 0
0.01544993 0.041947946 0.040567871 -0.93819135 -0.34611711 0 0
0.019326303 0.067760468 0.040560208 0.96245474 -0.27144226 0 0
0.058166739 0.10163988 0.040616613 0.021819763 0.99976194 0 0
0.066011027 0.018881503 0.040763982 -0.2206994 0.97534192 0 0
0.08399184 0.028421825 0.040854152 -0.67880034 0.73432297 0 0
0.091332331 0.03768136 0.040925518 -0.86819369 0.49622545 0 0
0.096391588 0.060372368 0.040769383 -0.99656487 -0.082816362 0 0
0.012894501 0.060768656 0.040770568 -0.99656546 0.082808629 0 0
0.018913181 0.066146918 0.040880207 0.97337979 -0.22919819 0 0
0.01884689 0.079667442 0.040866829 -0.86383808 0.50376952 0 0
0.080754258 0.088684216 0.040816445 -0.59833109 -0.80124903 0 0
0.01316167 0.051174112 0.041228279 -0.99086571 -0.13485222 0 0
0.018286332 0.051576328 0.041174974 0.98965073 0.14349735 0 0
0.017883716 0.05759114 0.041159265 0.99991435 -0.013088197 0 0
0.10094635 0.065080717 0.04120224 0.98404157 0.17793882 0 0
0.082580462 0.093692444 0.041096363 0.57000375 0.8216421 0 0
0.063046731 0.096082851 0.041112993 -0.15212899 -0.9883607 0 0
0.05288158 0.096281692 0.041155268 0.1088525 -0.99405795 0 0
0.031010907 0.021286068 0.041345976 -0.59130996 -0.80644441 0 0
0.091704644 0.03834717 0.041324303 -0.87671793 0.48100495 0 0
0.095482551 0.048229758 0.041290626 -0.97338098 0.22919303 0 0
0.10163249 0.058464862 0.041313536 0.99953353 0.030540049 0 0
0.033869758 0.095035069 0.041488092 -0.52620918 0.85035521 0 0
0.052809704 0.096273817 0.041306019 0.1088525 -0.99405795 0 0
0.020624831 0.031942688 0.041588806 -0.82164973 -0.56999284 0 0
0.090995878 0.037104446 0.041726276 -0.85940385 0.5112974 0 0
0.066095047 0.013649875 0.04190506 0.20364285 -0.97904527 0 0
0.024580985 0.027006205 0.04175815 -0.73432148 -0.67880189 0 0
0.0142047 0.045926832 0.041969314 -0.96704662 -0.25459942 0 0
0.096517958 0.057585262 0.041971356 -0.99991429 -0.013093625 0 0
0.092362761 0.074796811 0.041883789 -0.8929764 -0.45010355 0 0
0.032750223 0.087992981 0.041753076 0.61908901 -0.78532088 0 0
0.032954335 0.088153884 0.041981496 0.61908901 -0.78532088 0 0
0.088744603 0.0885178 0.041846935 0.71018291 0.70401728 0 0
0.074467421 0.092525765 0.041818805 -0.44229081 -0.89687175 0 0
0.084080592 0.09260197 0.041825004 0.60529119 0.79600418 0 0
0.051973775 0.096170709 0.041785799 0.13486563 -0.99086392 0 0
0.0442077 0.014692202 0.042193986 -0.28819713 -0.95757109 0 0
0.025379581 0.026165729 0.042102758 -0.71629947 -0.69779301 0 0
0.088955648 0.026097603 0.042099487 0.71629947 -0.69779301 0 0
0.09189184 0.03869364 0.042109467 -0.88089955 0.47330326 0 0
0.09459421 0.045046344 0.042011887 -0.9497 0.31316116 0 0
0.087669559 0.089564674 0.042189971 0.68518794 0.72836632 0 0
0.045715172 0.014260426 0.042270131 -0.25459942 -0.96704662 0 0
0.017039625 0.038152061 0.042496637 -0.90445423 -0.42657065 0 0
0.019817602 0.069386229 0.042318225 0.94969946 -0.31316283 0 0
0.073409937 0.015811913 0.042579293 0.36244115 -0.93200666 0 0
0.05959212 0.017954424 0.042553626 -0.056689426 0.99839187 0 0
0.017008992 0.038217016 0.04260055 -0.90445423 -0.42657065 0 0
0.091904737 0.038717635 0.042525761 -0.88089955 0.47330326 0 0
0.093821205 0.042885736 0.042643387 -0.93200386 0.36244836 0 0
0.10164417 0.056436092 0.042692281 0.99991447 -0.013080318 0 0
0.081553407 0.088070214 0.042715199 -0.6190837 -0.78532505 0 0
0.034385514 0.095348388 0.042734995 -0.51128906 0.85940886 0 0
0.056521963 0.096514106 0.042633355 0.013093483 -0.99991429 0 0
0.051703218 0.018267935 0.042894851 0.14349735 0.98965073 0 0
0.081074044 0.025959048 0.042963579 -0.60528845 0.7960062 0 0
0.026271014 0.032924775 0.042906336 0.7853182 0.61909235 0 0
0.095105335 0.04674954 0.042929616 -0.96478963 0.26302281 0 0
0.020866856 0.072228692 0.042969264 0.92554313 -0.37864217 0 0
0.029458618 0.085063837 0.042830735 0.70401394 -0.71018618 0 0
0.077858396 0.090655774 0.04291806 -0.5262208 -0.850348 0 0
0.051324192 0.096078128 0.042818252 0.15212736 -0.98836094 0 0
0.076518625 0.017168483 0.0431941 0.43444529 -0.90069824 0 0
0.026567437 0.024992373 0.043045074 -0.69151247 -0.72236449 0 0
0.092101634 0.039092351 0.043102011 -0.88902169 0.45786506 0 0
0.029574731 0.085178941 0.043217711 0.70401394 -0.71018618 0 0
0.088858947 0.02599914 0.043360449 0.71018529 -0.70401484 0 0
0.095954709 0.05055964 0.043463551 -0.98555636 0.16934772 0 0
0.018068241 0.053376377 0.043431934 0.99496847 0.10018844 0 0
0.03117062 0.086669758 0.043392029 0.65934473 -0.75184083 0 0
0.049744993 0.013380928 0.043733917 -0.16934779 -0.98555636 0 0
0.04748974 0.019100059 0.043705977 0.24615376 0.96923077 0 0
0.04679545 0.019283745 0.043582562 0.26303288 0.96478689 0 0
0.07954374 0.024846969 0.043732341 -0.56999248 0.82164997 0 0
0.083326355 0.027816597 0.043688849 -0.66588539 0.74605405 0 0
0.095921516 0.035372235 0.043561015 0.87249553 -0.48862207 0 0
0.10140484 0.052532006 0.043563507 0.99405622 -0.1088682 0 0
0.094632916 0.081171811 0.043702327 0.84104556 0.54096437 0 0
0.064856477 0.095767125 0.043508239 -0.19509716 -0.98078394 0 0
0.055941481 0.096499495 0.043698341 0.030551424 -0.99953318 0 0
0.096213125 0.052300483 0.043915596 -0.99200463 0.12620184 0 0
0.10146597 0.053156011 0.043913599 0.99580461 -0.091505542 0 0
0.023256097 0.077043399 0.043877941 0.86384034 -0.5037657 0 0
0.048119724 0.095456645 0.0437814 0.22919303 -0.97338098 0 0
0.035330683 0.018503347 0.044172522 -0.48862207 -0.87249553 0 0
0.086393535 0.030861268 0.044153504 -0.74021512 0.67237014 0 0
0.020704594 0.031827711 0.044182096 -0.82164973 -0.56999284 0 0
0.017440964 0.037327636 0.04403485 -0.89298004 -0.45009628 0 0
0.021858022 0.084157392 0.044100098 -0.79600185 0.60529423 0 0
0.096199818 0.052195925 0.044480328 -0.99200463 0.12620184 0 0
0.017888006 0.056495491 0.044303887 0.999762 0.021817273 0 0
0.017906131 0.058587775 0.044350423 0.99922907 -0.039258685 0 0
0.099323101 0.071395382 0.044348001 0.94693071 0.32143787 0 0
0.094568253 0.081272334 0.044384308 0.84104556 0.54096437 0 0
0.074985132 0.092267834 0.044440173 -0.45010355 -0.8929764 0 0
0.041331165 0.015680484 0.044634264 -0.35428727 -0.93513668 0 0
0.052176572 0.018204246 0.044541746 0.1261965 0.99200529 0 0
0.039749488 0.021966917 0.04472363 0.44229081 0.89687175 0 0
0.021404084 0.040934835 0.044594016 0.91176116 0.41072085 0 0
0.017980229 0.054419689 0.044541687 0.99725008 0.074110039 0 0
0.022434456 0.075565867 0.044615664 0.88499033 -0.46560955 0 0
0.023006178 0.076609857 0.044515163 0.86819571 -0.49622193 0 0
0.042301752 0.099079192 0.044680234 -0.33792019 0.94117481 0 0
0.049547363 0.018634036 0.044798762 0.19509086 0.98078519 0 0
0.020906899 0.042076956 0.044965405 0.9221983 0.38671747 0 0
0.019068323 0.047614701 0.044893503 0.96923077 0.24615376 0 0
0.096378289 0.06053251 0.044947974 -0.99656487 -0.082816362 0 0
0.065411933 0.095652923 0.044785023 -0.21219164 -0.97722811 0 0
0.053490907 0.096344374 0.044966195 0.091502875 -0.99580485 0 0
0.069319494 0.014435099 0.045062087 0.2714397 -0.96245551 0 0
0.088415951 0.033292569 0.045227759 -0.79601008 0.60528344 0 0
0.093362235 0.041762874 0.045081109 -0.91878581 0.39475644 0 0
0.10094021 0.065114692 0.045056585 0.98404157 0.17793882 0 0
0.095554799 0.065857671 0.045047991 -0.97534192 -0.2206994 0 0
0.088247567 0.089010619 0.045062497 0.69778824 0.71630418 0 0
0.027040703 0.089852512 0.045214266 -0.67879927 0.73432386 0 0
0.075814158 0.091834784 0.045142386 -0.47331235 -0.88089472 0 0
0.04513894 0.01441907 0.045350902 -0.2714397 -0.96245551 0 0
0.036130674 0.024003949 0.045348674 0.53361189 0.84572953 0 0
0.032287981 0.026781667 0.04533802 0.63270998 0.77438885 0 0
0.020416042 0.043313615 0.045346387 0.93513525 0.35429108 0 0
0.017951995 0.054852258 0.045409501 0.99839187 0.056690045 0 0
0.094049126 0.070918836 0.045361444 -0.93819064 -0.34611893 0 0
0.024111591 0.07843934 0.045340456 0.84103417 -0.54098207 0 0
0.083250687 0.093217157 0.045402098 0.58425212 0.81157225 0 0
0.051263347 0.096068762 0.045320664 0.15212736 -0.98836094 0 0
0.043280952 0.099414565 0.045496356 -0.31317791 0.94969451 0 0
0.051941775 0.013063416 0.04551103 -0.11753579 -0.9930687 0 0
0.078999422 0.018463308 0.04563196 0.48861802 -0.87249786 0 0
0.072885953 0.021145662 0.045636147 -0.40274647 0.91531163 0 0
0.027129941 0.031868555 0.04551094 0.76322794 0.64612937 0 0
0.015048012 0.071305573 0.0455558 -0.94693071 0.32143787 0 0
0.02093754 0.072397709 0.045513969 0.9221983 -0.38671747 0 0
0.01829135 0.078691162 0.045533121 -0.87672645 0.48098946 0 0
0.025156766 0.079985946 0.045524977 0.81664068 -0.57714641 0 0
0.048426606 0.095528245 0.045616485 0.2206994 -0.97534192 0 0
0.036224652 0.096389718 0.045733381 -0.4733116 0.88089514 0 0
0.056376494 0.012758628 0.045828998 -0.021815173 -0.99976206 0 0
0.042932712 0.015103448 0.045795873 -0.32143787 -0.94693071 0 0
0.013034114 0.052191 0.045807034 -0.99405622 -0.1088682 0 0
0.095111124 0.067630842 0.045783933 -0.9647904 -0.26302007 0 0
0.014145358 0.068246402 0.045847103 -0.96923131 0.24615173 0 0
0.020015879 0.081553355 0.045767292 -0.83628327 0.5482977 0 0
0.084865481 0.085140668 0.045821372 -0.70400584 -0.71019429 0 0
0.040638059 0.092861116 0.045958295 0.41866571 -0.90814042 0 0
0.064034536 0.095921569 0.045836642 -0.17794713 -0.98404002 0 0
0.056947686 0.096518889 0.045915563 0.0043644952 -0.99999052 0 0
0.034382135 0.019055225 0.046044998 -0.51129615 -0.85940462 0 0
0.070624307 0.020244062 0.046209119 -0.33791989 0.94117492 0 0
0.094414137 0.032891586 0.046060152 0.83628392 -0.54829663 0 0
0.035261311 0.089829646 0.046173867 0.55557179 -0.83146858 0 0
0.078876235 0.090005755 0.046181366 -0.54829502 -0.83628505 0 0
0.034561701 0.018948393 0.046358332 -0.51129615 -0.85940462 0 0
0.091100156 0.028450143 0.046470527 0.76323253 -0.64612389 0 0
0.091805629 0.029303133 0.04643495 0.7798878 -0.62591934 0 0
0.021715041 0.040266871 0.046352874 0.9006989 0.43444389 0 0
0.025179902 0.080018684 0.046419136 0.81664068 -0.57714641 0 0
0.027022801 0.082405254 0.046336479 0.76884478 -0.63943553 0 0
0.038806099 0.091951549 0.046351857 0.46563095 -0.88497901 0 0
0.071701847 0.093747959 0.046353471 -0.37055567 -0.9288103 0 0
0.058722798 0.012776983 0.04662963 0.030540049 -0.99953353 0 0
0.032435216 0.020289581 0.046524949 -0.5555709 -0.83146918 0 0
0.036725428 0.02363389 0.046642929 0.51877385 0.85491151 0 0
0.015122202 0.042877465 0.046534404 -0.94693071 -0.32143787 0 0
0.099251643 0.042795729 0.046500273 0.94693071 -0.32143787 0 0
0.012903484 0.060876757 0.046709646 -0.99656546 0.082808629 0 0
0.092879839 0.073722951 0.046577793 -0.90814042 -0.41866571 0 0
0.027825519 0.083336353 0.046712726 0.74605405 -0.66588539 0 0
0.022332482 0.08476834 0.046574801 -0.78531861 0.61909193 0 0
0.041016158 0.015802387 0.046867229 -0.36244115 -0.93200666 0 0
0.027729549 0.023925595 0.046779394 -0.66588342 -0.74605584 0 0
0.088861451 0.026001677 0.046798572 0.71018529 -0.70401484 0 0
0.018407227 0.078899287 0.046880607 -0.87249786 0.48861802 0 0
0.043556329 0.099504501 0.046800151 -0.30486494 0.95239562 0 0
0.035138391 0.018613042 0.047151111 -0.49621654 -0.86819881 0 0
0.078443184 0.024114059 0.047035202 -0.54098207 0.84103417 0 0
0.091329344 0.02872251 0.047027849 0.76884127 -0.6394397 0 0
0.090368651 0.036084708 0.047032442 -0.84573442 0.53360409 0 0
0.099185802 0.042605303 0.047113404 0.94409287 -0.32967958 0 0
0.095164016 0.067436814 0.047132067 -0.9647904 -0.26302007 0 0
0.094939537 0.068235233 0.047046926 -0.96004939 -0.27983072 0 0
0.032407921 0.087717928 0.047248814 0.6327067 -0.77439153 0 0
0.032331724 0.094042704 0.047206722 -0.56280303 0.82659107 0 0
0.049005903 0.10088854 0.047175311 -0.18652336 0.98245054 0 0
0.052117839 0.018211719 0.047394618 0.1261965 0.99200529 0 0
0.0375067 0.023169493 0.047415331 0.50377041 0.8638376 0 0
0.095797293 0.03515368 0.047331989 0.86820298 -0.49620926 0 0
0.09399575 0.043340512 0.047287926 -0.93513703 0.35428634 0 0
0.095757961 0.049499087 0.04740867 -0.98078316 0.19510131 0 0
0.017896507 0.056124657 0.047406726 0.99953371 0.030535154 0 0
0.089662232 0.079387061 0.047355123 -0.82658875 -0.56280643 0 0
0.073496215 0.092984252 0.047344193 -0.41071677 -0.91176295 0 0
0.053340741 0.012918781 0.047536049 -0.082808629 -0.99656546 0 0
0.038692445 0.016787706 0.047628269 -0.41865802 -0.908144 0 0
0.058579028 0.017905788 0.047634292 -0.039258685 0.99922907 0 0
0.021205474 0.073021881 0.047653858 0.91531163 -0.40274647 0 0
0.030025065 0.085616462 0.047572244 0.6915105 -0.72236639 0 0
0.057888687 0.017887626 0.047763679 -0.021817036 0.999762 0 0
0.092779063 0.0305558 0.047849424 0.80124861 -0.59833151 0 0
0.01754244 0.03712631 0.047818117 -0.89298004 -0.45009628 0 0
0.092096239 0.075319715 0.047975432 -0.88902169 -0.45786506 0 0
0.019181173 0.080228478 0.047900915 -0.85491168 0.51877367 0 0
0.087322459 0.089888036 0.04784701 0.67879689 0.73432606 0 0
0.083639599 0.092933029 0.047932681 0.59130454 0.8064484 0 0
0.043673977 0.094119668 0.047807977 0.34611893 -0.93819064 0 0
0.059450511 0.012808037 0.048014957 0.047977973 -0.99884844 0 0
0.059743296 0.012823991 0.048156723 0.056691229 -0.99839181 0 0
0.046504762 0.014057111 0.048020441 -0.23768553 -0.97134215 0 0
0.062049992 0.01818198 0.048226725 -0.1261965 0.99200529 0 0
0.096282013 0.036024205 0.04814554 0.88089514 -0.4733116 0 0
0.092795573 0.040497854 0.048181564 -0.90445572 0.42656758 0 0
0.099118136 0.042411529 0.048110195 0.94409287 -0.32967958 0 0
0.078074589 0.090521529 0.048124734 -0.53359914 -0.84573752 0 0
0.09125825 0.037551746 0.048490949 -0.86819369 0.49622545 0 0
0.016441736 0.039466731 0.048309825 -0.91531175 -0.40274602 0 0
0.021091949 0.072761089 0.048477203 0.91879004 -0.39474666 0 0
0.088837251 0.088424347 0.048277467 0.71018291 0.70401728 0 0
0.069034643 0.094696879 0.048265792 -0.30486396 -0.95239592 0 0
0.047812872 0.1006477 0.0482843 -0.21216688 0.97723347 0 0
0.043364756 0.01495939 0.048570968 -0.31316492 -0.94969875 0 0
0.082717232 0.02728587 0.048683666 -0.64612937 0.76322794 0 0
0.023201875 0.037451178 0.048604958 0.8638376 0.50377041 0 0
0.033084914 0.088255547 0.048508778 0.61222619 -0.79068273 0 0
0.083242662 0.021178663 0.0488915 0.5842458 -0.81157678 0 0
0.086559057 0.023826227 0.0489076 0.65934324 -0.75184214 0 0
0.027656151 0.031256933 0.04877219 0.75183815 0.65934777 0 0
0.020083643 0.044228252 0.048764557 0.94408983 0.32968828 0 0
0.094298899 0.044173669 0.048932783 -0.94409156 0.32968345 0 0
0.099076986 0.072106011 0.048750311 0.94117481 0.33792019 0 0
0.037122209 0.091006435 0.048895486 0.5112974 -0.85940385 0 0
0.06626375 0.10071664 0.048775621 0.20365664 0.97904241 0 0
0.086308844 0.023607619 0.049204443 0.65275931 -0.75756544 0 0
0.091360807 0.028760348 0.049034286 0.76884127 -0.6394397 0 0
0.096215062 0.062085837 0.049089603 -0.99200463 -0.12620184 0 0
0.071324058 0.093895793 0.049186151 -0.36244836 -0.93200386 0 0
0.06284979 0.013111624 0.049392588 0.12619749 -0.99200517 0 0
0.038328245 0.016956531 0.049348734 -0.42657065 -0.90445423 0 0
0.076116309 0.016976791 0.049372539 0.42657438 -0.9044525 0 0
0.081183843 0.019776423 0.049342267 0.54097456 -0.841039 0 0
0.098721422 0.041331965 0.049256779 0.93513823 -0.35428306 0 0
0.017883383 0.056835905 0.049451821 0.99991435 0.013088055 0 0
0.013566323 0.065676212 0.049392108 -0.98245019 0.18652512 0 0
0.015053626 0.071322113 0.049366806 -0.94693071 0.32143787 0 0
0.091801278 0.085103892 0.049265578 0.7798878 0.62591934 0 0
0.091275536 0.02865782 0.049689494 0.76884127 -0.6394397 0 0
0.10093054 0.049233444 0.04950621 0.98404127 -0.1779405 0 0
0.013650569 0.066098392 0.049538344 -0.97904527 0.20364285 0 0
0.057502355 0.09651868 0.049553543 -0.0043644952 -0.99999052 0 0
0.063086711 0.1012591 0.049678143 0.13485692 0.99086511 0 0
0.068451636 0.014198611 0.049839161 0.25460178 -0.96704596 0 0
0.097289696 0.076401323 0.049958188 0.900702 0.43443754 0 0
0.07179451 0.099186428 0.049844667 0.32967958 0.94409287 0 0
0.08358781 0.028051186 0.050015841 -0.67237258 0.74021292 0 0
0.095833123 0.049885452 0.05022911 -0.9824506 0.18652338 0 0
0.094139367 0.081925452 0.050047256 0.83146769 0.55557311 0 0
0.051361345 0.09608385 0.05018156 0.15212736 -0.98836094 0 0
0.04378815 0.099578708 0.050082337 -0.30486494 0.95239562 0 0
0.05136665 0.10126613 0.050148506 -0.13485692 0.99086511 0 0
0.062005576 0.013011659 0.050278142 0.1088682 -0.99405622 0 0
0.046995308 0.013938656 0.050328579 -0.22920084 -0.97337919 0 0
0.069577731 0.019880753 0.050300866 -0.31316283 0.94969946 0 0
0.072558954 0.021005156 0.050283298 -0.38671747 0.9221983 0 0
0.10076393 0.066035211 0.05031031 0.98078477 0.19509284 0 0
0.020839106 0.072160862 0.050301932 0.92554313 -0.37864217 0 0
0.022304606 0.075318262 0.050331324 0.88901728 -0.45787364 0 0
0.093791537 0.082437627 0.050292086 0.8216421 0.57000375 0 0
0.025540007 0.088399783 0.050372634 -0.71018291 0.70401728 0 0
0.027469594 0.090243988 0.050334565 -0.66588604 0.74605346 0 0
0.06149137 0.10144311 0.050330348 0.10018643 0.99496871 0 0
0.091251664 0.028629113 0.050516918 0.76884127 -0.6394397 0 0
0.096501783 0.058385488 0.05068003 -0.99953318 -0.030551756 0 0
0.016430056 0.074907921 0.050629754 -0.91879147 0.39474326 0 0
0.017224576 0.076634914 0.05064575 -0.90069824 0.43444529 0 0
0.02014458 0.081749365 0.050505929 -0.83147216 0.55556649 0 0
0.047287188 0.10053089 0.050626069 -0.22069535 0.97534281 0 0
0.06301488 0.013132734 0.05091545 0.13485222 -0.99086571 0 0
0.10048087 0.04707142 0.050794259 0.97337866 -0.22920312 0 0
0.10103348 0.049819514 0.05090671 0.98555559 -0.16935246 0 0
0.012922316 0.053300932 0.050898589 -0.99580479 -0.091503158 0 0
0.096376158 0.053843468 0.050838742 -0.99656481 0.082817256 0 0
0.024844309 0.079539895 0.050976221 0.82164997 -0.56999248 0 0
0.051797535 0.096146725 0.050988253 0.13486563 -0.99086392 0 0
0.089972243 0.035474721 0.051211014 -0.83146858 0.55557179 0 0
0.097184479 0.037782148 0.051244389 0.90070021 -0.43444127 0 0
0.022755669 0.038240157 0.05113757 0.8767271 0.48098823 0 0
0.016024835 0.040458225 0.051023755 -0.92553991 -0.37865004 0 0
0.020680992 0.042631183 0.051137313 0.92880988 0.37055662 0 0
0.088703319 0.08072868 0.05112917 -0.80124903 -0.59833109 0 0
0.027643871 0.083130673 0.051214326 0.75184047 -0.65934509 0 0
0.022272894 0.084692754 0.051226158 -0.78531861 0.61909193 0 0
0.029193304 0.02268461 0.051352598 -0.63270396 -0.7743938 0 0
0.028280927 0.023445481 0.051343769 -0.65275931 -0.75756544 0 0
0.020149272 0.032645207 0.051429871 -0.83146918 -0.5555709 0 0
0.093063511 0.041081324 0.051270664 -0.91176116 0.41072085 0 0
0.012938643 0.053123251 0.051409118 -0.99580479 -0.091503158 0 0
0.096420549 0.05440861 0.05135078 -0.99725008 0.074110039 0 0
0.034768786 0.089492835 0.051449701 0.56999391 -0.82164896 0 0
0.056937486 0.012751949 0.051690288 -0.0043649045 -0.99999046 0 0
0.040514011 0.016002011 0.051513694 -0.37865004 -0.92553991 0 0
0.028170675 0.083719358 0.051672705 0.74021292 -0.67237258 0 0
0.076190472 0.017011771 0.051882558 0.42657438 -0.9044525 0 0
0.072848879 0.021129666 0.051759273 -0.39474666 0.91879004 0 0
0.015085494 0.042985603 0.051795661 -0.94693071 -0.32143787 0 0
0.01493811 0.070972309 0.051997282 -0.94969875 0.31316492 0 0
0.022369798 0.07544297 0.051912978 0.88499033 -0.46560955 0 0
0.094175383 0.081871554 0.051906444 0.83146769 0.55557311 0 0
0.060363524 0.096392334 0.051966019 -0.082816362 -0.99656487 0 0
0.06875506 0.10012265 0.051828563 0.26302642 0.96478868 0 0
0.017292643 0.076774068 0.052048992 -0.89687413 0.44228587 0 0
0.088733874 0.080687761 0.052130062 -0.80124903 -0.59833109 0 0
0.042847805 0.015132271 0.052319556 -0.32143787 -0.94693071 0 0
0.040944338 0.015830316 0.052372839 -0.36244115 -0.93200666 0 0
0.067572415 0.01927455 0.052290902 -0.26303014 0.96478766 0 0
0.018969122 0.048017286 0.052464135 0.97134191 0.23768656 0 0
0.058463342 0.10163255 0.052397676 0.030540049 0.99953353 0 0
0.052193068 0.013033886 0.05253534 -0.1088682 -0.99405622 0 0
0.023203038 0.037449181 0.052700743 0.8638376 0.50377041 0 0
0.025475644 0.088334478 0.052523945 -0.71630418 0.69778824 0 0
0.078601032 0.090186007 0.052515045 -0.54098588 -0.84103173 0 0
0.039244756 0.092180133 0.05261787 0.45786506 -0.88902169 0 0
0.053570073 0.096351638 0.052538037 0.091502875 -0.99580485 0 0
0.033385593 0.019669298 0.052806918 -0.53361899 -0.84572506 0 0
0.088701546 0.033670548 0.052817166 -0.8012529 0.59832585 0 0
0.091262236 0.037558723 0.052876182 -0.86819369 0.49622545 0 0
0.096367367 0.060660444 0.052882526 -0.99580485 -0.091502875 0 0
0.099519059 0.070799783 0.052888528 0.95239562 0.30486494 0 0
0.060315378 0.018005271 0.053161193 -0.082805581 0.99656576 0 0
0.080307066 0.019228864 0.053013589 0.51877367 -0.85491168 0 0
0.095317453 0.047552388 0.053182572 -0.96923208 0.24614866 0 0
0.018800616 0.048750471 0.053026848 0.97723198 0.21217385 0 0
0.10163826 0.056160804 0.053102933 0.99976194 -0.021819973 0 0
0.018004399 0.060304895 0.05320248 0.99656576 -0.082805581 0 0
0.027886504 0.083404675 0.053143892 0.74605405 -0.66588539 0 0
0.021369215 0.041012242 0.053460442 0.91176116 0.41072085 0 0
0.096154749 0.051856477 0.053347744 -0.99086392 0.13486563 0 0
0.0958312 0.079188608 0.053445444 0.86819828 0.49621752 0 0
0.024125926 0.086896501 0.053345174 -0.74605793 0.66588104 0 0
0.033554681 0.094838992 0.053463981 -0.53362584 0.84572071 0 0
0.017995549 0.054213535 0.053586688 0.99725008 0.074110039 0 0
0.087149113 0.090046965 0.053625997 0.67236203 0.74022251 0 0
0.064199567 0.095891729 0.053651173 -0.17794713 -0.98404002 0 0
0.033281095 0.019735681 0.053928822 -0.54097456 -0.841039 0 0
0.029617637 0.029180126 0.053825617 0.70401669 0.7101835 0 0
0.019556789 0.045847431 0.053883195 0.95757163 0.28819543 0 0
0.074172348 0.09828309 0.053994708 0.37865832 0.92553657 0 0
0.041449722 0.021174669 0.054021921 0.40274647 0.91531163 0 0
0.024966467 0.026594501 0.054090124 -0.72236449 -0.69151247 0 0
0.019557822 0.033562265 0.054109454 -0.84572506 -0.53361899 0 0
0.018589277 0.049775921 0.05410067 0.9824506 0.18652338 0 0
0.1007659 0.066025302 0.05420028 0.98078477 0.19509284 0 0
0.022692461 0.076046236 0.054073561 0.87673205 -0.48097908 0 0
0.038367115 0.091715589 0.054169774 0.48100495 -0.87671793 0 0
0.057811975 0.096514992 0.054204382 -0.013093625 -0.99991429 0 0
0.017881688 0.03646981 0.05446231 -0.88498753 -0.46561483 0 0
0.08616434 0.090918504 0.054307844 0.6527648 0.75756061 0 0
0.029106908 0.022755196 0.054536566 -0.63270396 -0.7743938 0 0
0.032547958 0.026570579 0.054711092 0.62591964 0.77988756 0 0
0.092415422 0.030076865 0.05451902 0.79068714 -0.61222047 0 0
0.10113472 0.050449871 0.054559279 0.98836124 -0.15212502 0 0
0.021312268 0.083426416 0.054691844 -0.80644608 0.5913077 0 0
0.077408224 0.096791856 0.054748163 0.45787653 0.88901579 0 0
0.036463089 0.023795404 0.054963741 0.52621597 0.85035098 0 0
0.088055335 0.032829322 0.054937154 -0.78532088 0.61908901 0 0
0.092629261 0.040148076 0.054868083 -0.90070319 0.4344351 0 0
0.01790061 0.055990335 0.054979324 0.99953371 0.030535154 0 0
0.017882239 0.057347529 0.054820903 0.99999052 -0.0043644952 0 0
0.095778599 0.07928063 0.054853901 0.86819828 0.49621752 0 0
0.061118349 0.096323982 0.054794345 -0.10018844 -0.99496847 0 0
0.040326979 0.09832307 0.054772727 -0.37865832 0.92553657 0 0
0.062564626 0.10132578 0.054989591 0.11753219 0.99306911 0 0
0.079232186 0.018595314 0.055129789 0.49622479 -0.8681941 0 0
0.021022342 0.031376086 0.055185534 -0.81157678 -0.5842458 0 0
0.04388158 0.094194986 0.055070478 0.33791506 -0.94117665 0 0
0.053042017 0.10145549 0.05510971 -0.091505542 0.99580461 0 0
0.053823974 0.101522 0.055137262 -0.074121431 0.99724925 0 0
0.040648777 0.015947886 0.055469994 -0.3705568 -0.92880982 0 0
0.026230425 0.032976262 0.055485915 0.7853182 0.61909235 0 0
0.10120076 0.050894205 0.055252533 0.98965061 -0.14349833 0 0
0.096466124 0.055143192 0.055281375 -0.99884897 0.047965944 0 0
0.017932385 0.059194069 0.05546245 0.9988482 -0.047982715 0 0
0.018161204 0.061878741 0.055279847 0.99306846 -0.11753792 0 0
0.092677742 0.074152991 0.055349108 -0.90070319 -0.4344351 0 0
0.038595296 0.091839008 0.055439912 0.47330326 -0.88089955 0 0
0.080803938 0.019535491 0.055587154 0.53361464 -0.8457278 0 0
0.031875536 0.020671414 0.055552281 -0.56999284 -0.82164973 0 0
0.042806197 0.020611331 0.055567011 0.36243892 0.93200755 0 0
0.085185297 0.029581139 0.055513024 -0.71018618 0.70401394 0 0
0.020585049 0.032000035 0.055714522 -0.82164973 -0.56999284 0 0
0.10079211 0.04850807 0.055654537 0.98078519 -0.19509102 0 0
0.056523431 0.10164532 0.055628583 -0.013080318 0.99991447 0 0
0.069735214 0.014555011 0.055842534 0.27982962 -0.96004969 0 0
0.070124269 0.020066503 0.055945344 -0.32968491 0.94409102 0 0
0.082338363 0.026967168 0.055824891 -0.63943553 0.76884478 0 0
0.09565638 0.079493091 0.055968471 0.86383605 0.50377315 0 0
0.029566919 0.085171193 0.055774845 0.70401394 -0.71018618 0 0
0.026221143 0.089075997 0.055929177 -0.69779301 0.71629947 0 0
0.059727501 0.012823096 0.056087997 0.056691229 -0.99839181 0 0
0.040455263 0.02162612 0.0561998 0.42656758 0.90445572 0 0
0.019900393 0.044764299 0.056009501 0.94969845 0.31316608 0 0
0.088078067 0.089175746 0.056237392 0.69151479 0.72236234 0 0
0.086880177 0.090290241 0.056075271 0.66588372 0.7460556 0 0
0.041638739 0.093308896 0.056195673 0.39475644 -0.91878581 0 0
0.042205952 0.0990448 0.056086302 -0.33792019 0.94117481 0 0
0.049235176 0.10093085 0.056044467 -0.1779405 0.98404127 0 0
0.077011697 0.091163993 0.056293499 -0.50376165 -0.86384267 0 0
0.073781788 0.092852712 0.056256704 -0.41866571 -0.90814042 0 0
0.044298537 0.0943425 0.05633444 0.32968345 -0.94409156 0 0
0.060494795 0.012873444 0.056579974 0.074107811 -0.99725026 0 0
0.10145424 0.061373238 0.056602702 0.99580467 0.091504663 0 0
0.0568767 0.10164939 0.056707926 -0.004360103 0.99999052 0 0
0.055852108 0.012771687 0.056903269 -0.030540049 -0.99953353 0 0
0.047775924 0.013761916 0.056763139 -0.21217607 -0.9772315 0 0
0.061338831 0.018100068 0.056904607 -0.10886858 0.99405617 0 0
0.079399154 0.024747603 0.056972422 -0.56280643 0.82658875 0 0
0.025611214 0.033789512 0.056976955 0.80125552 0.59832239 0 0
0.10125845 0.051310174 0.056978021 0.99086511 -0.13485692 0 0
0.012765355 0.058333337 0.056898948 -0.99976206 0.021814963 0 0
0.018343568 0.078785613 0.056956448 -0.87249786 0.48861802 0 0
0.095636122 0.07952784 0.056930028 0.86383605 0.50377315 0 0
0.098778605 0.041482925 0.057209965 0.93513823 -0.35428306 0 0
0.047868609 0.1006598 0.057134885 -0.21216688 0.97723347 0 0
0.09058173 0.027849797 0.057491567 0.75184447 -0.6593405 0 0
0.093382701 0.041810527 0.057408907 -0.91878581 0.39475644 0 0
0.017881913 0.057272706 0.05742405 0.99999052 -0.0043644952 0 0
0.02004594 0.070065372 0.05747623 0.94409102 -0.32968491 0 0
0.099548765 0.070706993 0.05746324 0.95239562 0.30486494 0 0
0.099450722 0.071011029 0.057275314 0.94969451 0.31317791 0 0
0.087995343 0.08164838 0.05736009 -0.78532505 -0.6190837 0 0
0.035119738 0.095777892 0.057366706 -0.49620926 0.86820298 0 0
0.033168443 0.019808142 0.057567928 -0.54097456 -0.841039 0 0
0.082429975 0.02704335 0.057523385 -0.63943553 0.76884478 0 0
0.030656777 0.028193802 0.057585172 0.67236716 0.7402178 0 0
0.097816706 0.075260229 0.057593562 0.9153102 0.4027496 0 0
0.083287038 0.093190975 0.057547539 0.58425212 0.81157225 0 0
0.068945363 0.10007076 0.057670973 0.26302642 0.96478868 0 0
0.05295606 0.012954005 0.05779158 -0.091503158 -0.99580479 0 0
0.063853063 0.018448798 0.057898629 -0.16934772 0.98555636 0 0
0.033337809 0.025951255 0.057872891 0.60529375 0.79600227 0 0
0.094966099 0.033758298 0.057832353 0.85035521 -0.52620918 0 0
0.093782388 0.042786054 0.057752073 -0.92881179 0.37055194 0 0
0.019370252 0.067916289 0.057946488 0.96245474 -0.27144226 0 0
0.031185787 0.086683057 0.057858661 0.65934473 -0.75184083 0 0
0.085026532 0.091863364 0.05799358 0.62591934 0.7798878 0 0
0.081376404 0.094501324 0.057920255 0.54096437 0.84104556 0 0
0.076193906 0.097388208 0.057881415 0.42658225 0.90444887 0 0
0.061028786 0.0180686 0.058069721 -0.10018844 0.99496847 0 0
0.033182357 0.019799192 0.058059525 -0.54097456 -0.841039 0 0
0.043497305 0.020347111 0.058112793 0.34611413 0.93819243 0 0
0.099792853 0.044484973 0.058117524 0.95757246 -0.28819272 0 0
0.095093161 0.046704888 0.058096774 -0.96478963 0.26302281 0 0
0.10152647 0.060517412 0.058165953 0.99724919 0.074122138 0 0
0.018477364 0.064019293 0.058041193 0.98555636 -0.16934772 0 0
0.090403467 0.078261703 0.058003202 -0.84573752 -0.53359914 0 0
0.03779918 0.09139967 0.058170427 0.49622545 -0.86819369 0 0
0.05873473 0.017911905 0.058458306 -0.039258685 0.99922907 0 0
0.062014952 0.018177522 0.058308203 -0.1261965 0.99200529 0 0
0.024354782 0.027252328 0.058266267 -0.74022007 -0.67236465 0 0
0.09533371 0.0476164 0.058319602 -0.96923208 0.24614866 0 0
0.013886569 0.067184478 0.058269933 -0.97534227 0.22069764 0 0
0.087909892 0.089336731 0.058253013 0.69151479 0.72236234 0 0
