# .PCD v0.7 - Point Cloud Data file format
VERSION 0.7
FIELDS x y z
SIZE 4 4 4
TYPE F F F
COUNT 1 1 1
WIDTH 1342
HEIGHT 1
VIEWPOINT 0 0 0 1 0 0 0
POINTS 1342
DATA ascii
-0.37398237 -0.75731379 0.044608738
-0.365022 -0.7573266 0.04461981
-0.35572347 -0.7573384 0.04465238
-0.34311882 -0.7573182 0.044620074
-0.38486442 -0.74439913 0.044334032
-0.31921074 -0.74443811 0.044377264
-0.30121556 -0.74361306 0.044795066
-0.2935707 -0.74361461 0.044810835
-0.38343856 -0.7316128 0.04455113
-0.30980304 -0.719625 0.044726163
-0.38734624 -0.70928216 0.044262789
-0.38680872 -0.70927781 0.04426147
-0.32889748 -0.7092669 0.044245318
-0.32420257 -0.70925725 0.044226918
-0.31912202 -0.70926863 0.044233091
-0.31530607 -0.70921069 0.044198088
-0.3143301 -0.70922309 0.044188812
-0.30961937 -0.70924306 0.044214979
-0.30858228 -0.70922017 0.044187181
-0.30398774 -0.70927143 0.044260491
-0.29853132 -0.70928127 0.044273198
-0.29633552 -0.70918119 0.044143841
-0.38825101 -0.70853603 0.04480109
-0.38748851 -0.70851409 0.04478668
-0.38613266 -0.70850462 0.044781763
-0.324411 -0.70845473 0.044709653
-0.32270932 -0.70851672 0.04475731
-0.31591031 -0.70847851 0.044729386
-0.3144615 -0.70845526 0.044700317
-0.30981466 -0.70847905 0.044731885
-0.3063243 -0.70850015 0.044726077
-0.30571628 -0.7084676 0.044726428
-0.30451339 -0.70849383 0.044755019
-0.30067718 -0.70846045 0.044712644
-0.29383147 -0.70850152 0.044735972
-0.29273963 -0.70851088 0.044750188
-0.35076267 -0.69894445 0.04410819
-0.34285456 -0.69896322 0.044097666
-0.33506611 -0.69892585 0.044080477
-0.33207655 -0.69819689 0.044635795
-0.34801963 -0.68802571 0.044931538
-0.33402872 -0.68873602 0.044349447
-0.33185759 -0.68870848 0.044332251
-0.34986997 -0.687971 0.044878069
-0.3332516 -0.68797487 0.044883281
-0.33252141 -0.68798733 0.04488977
-0.33307829 -0.67933148 0.044388767
-0.36620632 -0.67853296 0.044912446
-0.33298445 -0.67074144 0.044166658
-0.33698091 -0.66996759 0.044744913
-0.34370232 -0.66144443 0.044793271
-0.33470654 -0.65368319 0.044560108
-0.33393288 -0.65370381 0.044585228
-0.35778177 -0.64602518 0.044629931
-0.34046268 -0.6459921 0.044557028
-0.33946958 -0.63902789 0.044169471
-0.37689444 -0.63837558 0.044836778
-0.38500383 -0.62538207 0.044159912
-0.38142022 -0.62532991 0.044147175
-0.36821419 -0.62531865 0.044134684
-0.35839504 -0.62466609 0.044795927
-0.3532466 -0.62467885 0.044812143
-0.34079316 -0.62469041 0.044834729
-0.35760218 -0.61858171 0.044433929
-0.34137008 -0.61861819 0.044491507
-0.33728391 -0.6125617 0.044320446
-0.33615535 -0.61257142 0.044306468
-0.37385711 -0.605865 0.044954706
-0.36158499 -0.60586321 0.044945344
-0.34490603 -0.60051876 0.044423226
-0.3381511 -0.60056353 0.044459406
-0.38442028 -0.59528011 0.044106528
-0.37831748 -0.59520143 0.0440505
-0.35142392 -0.59520453 0.04406026
-0.34142452 -0.59526384 0.044089451
-0.33912286 -0.59522671 0.044061776
-0.33798191 -0.59520125 0.044017471
-0.38629514 -0.59457159 0.044761159
-0.35571766 -0.5945791 0.044760324
-0.3467437 -0.594549 0.044744231
-0.34351024 -0.5946306 0.044824965
-0.37617067 -0.58938128 0.044606693
-0.35492465 -0.5893718 0.044611156
-0.35064048 -0.5893653 0.044596706
-0.34488809 -0.58415353 0.044563077
-0.33371934 -0.58420086 0.04460242
-0.34412262 -0.57900399 0.044661697
-0.36069456 -0.57897884 0.044667836
-0.36611536 -0.57384747 0.044913683
-0.35534444 -0.57389593 0.044956259
-0.35265654 -0.5738622 0.044942912
-0.34843612 -0.57387334 0.044919215
-0.34779063 -0.57388991 0.04494179
-0.34346503 -0.57389545 0.044936772
-0.38133052 -0.56937122 0.044553116
-0.37724409 -0.56936425 0.044554919
-0.36867115 -0.56931889 0.044517446
-0.36503899 -0.56940287 0.044570938
-0.3646332 -0.56938225 0.044560514
-0.35888118 -0.56939501 0.044576075
-0.33630162 -0.56936669 0.044538211
-0.37664777 -0.56490993 0.044306628
-0.35029346 -0.56493729 0.044341136
-0.38166904 -0.56050843 0.04421195
-0.36722729 -0.56044966 0.044166267
-0.35716537 -0.56049627 0.044200171
-0.34996799 -0.56046474 0.044176742
-0.34331688 -0.56051898 0.044225752
-0.3872349 -0.55993438 0.044993639
-0.38108823 -0.55992913 0.044978317
-0.37550449 -0.55992252 0.044981651
-0.36268592 -0.55986398 0.044952504
-0.34863394 -0.55994552 0.044998106
-0.36731523 -0.55607325 0.044192541
-0.35901597 -0.5560748 0.044183493
-0.3532801 -0.55605119 0.044177163
-0.36675063 -0.55551636 0.044984721
-0.35268995 -0.55550063 0.044969622
-0.38150281 -0.55173779 0.044341724
-0.37145025 -0.55168462 0.04428944
-0.36736438 -0.55167729 0.044291351
-0.35803565 -0.55164146 0.044264611
-0.35765663 -0.55169296 0.044281278
-0.34617668 -0.55170739 0.04432407
-0.34145012 -0.55168927 0.04428209
-0.38059235 -0.54735839 0.04452182
-0.36722362 -0.54735345 0.044518292
-0.34809494 -0.54733366 0.044505656
-0.38323119 -0.54307443 0.044878632
-0.38288257 -0.54303497 0.044861354
-0.37606117 -0.54308379 0.044907428
-0.37562984 -0.54304463 0.044866558
-0.36723834 -0.54356146 0.044036578
-0.36518651 -0.54304165 0.044848248
-0.36118275 -0.54304141 0.044879094
-0.35747096 -0.54352438 0.044004999
-0.35636219 -0.54303861 0.044862062
-0.35347897 -0.54351133 0.044002939
-0.35255396 -0.5430702 0.044862218
-0.3502005 -0.54356384 0.044034056
-0.34958547 -0.54327273 0.044427965
-0.34684724 -0.54308242 0.04490912
-0.34052828 -0.54355222 0.044021476
-0.38395372 -0.53929174 0.044465844
-0.3756943 -0.53930467 0.044490047
-0.36600715 -0.53927594 0.044494301
-0.36160061 -0.53930861 0.044505026
-0.35724941 -0.53931016 0.044506188
-0.34646645 -0.53928167 0.044486914
-0.34248558 -0.53931546 0.044501748
-0.37466589 -0.53549004 0.044137549
-0.36711159 -0.53550661 0.044155147
-0.36168152 -0.53553671 0.044185437
-0.35835531 -0.53552485 0.044184182
-0.35746002 -0.53551155 0.044158444
-0.35301769 -0.5355022 0.044159591
-0.349365 -0.53547764 0.04413791
-0.36650604 -0.53499818 0.044984125
-0.38145626 -0.53131992 0.044858772
-0.37890986 -0.53135157 0.044839039
-0.37459481 -0.53135461 0.04487104
-0.3673892 -0.53131974 0.0448469
-0.36661577 -0.53135061 0.044858035
-0.36128035 -0.53134942 0.044870451
-0.36033612 -0.53133452 0.044848122
-0.3573882 -0.53183258 0.044009835
-0.3445743 -0.53135234 0.044860188
-0.34139034 -0.53134865 0.04485504
-0.38186398 -0.52765489 0.044770509
-0.37388355 -0.52763671 0.04475813
-0.3670359 -0.52763581 0.044745881
-0.35678864 -0.52763617 0.044732213
-0.35291708 -0.5276202 0.04472632
-0.34683642 -0.52768528 0.044780489
-0.34323683 -0.52764916 0.04474818
-0.36973599 -0.52401626 0.044777095
-0.36180371 -0.52400154 0.044763461
-0.38804382 -0.52396238 0.044702243
-0.38772425 -0.52397662 0.044717032
-0.36249918 -0.52398199 0.044746131
-0.35716414 -0.52398098 0.04475861
-0.35604876 -0.52396196 0.044732168
-0.35309422 -0.52398974 0.044760253
-0.35274631 -0.52399904 0.044772595
-0.35196367 -0.52395415 0.044734266
-0.34280068 -0.52391392 0.044698335
-0.38465062 -0.52032375 0.044837069
-0.38105619 -0.52032524 0.044826467
-0.3760424 -0.52031821 0.044838019
-0.37494975 -0.52030885 0.044808678
-0.36933607 -0.52033085 0.044834688
-0.36592531 -0.52028722 0.04480274
-0.36156523 -0.52029675 0.044792965
-0.35719603 -0.52031618 0.044811346
-0.35668027 -0.52032387 0.044813052
-0.35219347 -0.52031928 0.04480999
-0.35185823 -0.52031493 0.044809241
-0.34815717 -0.52032441 0.044816289
-0.34745979 -0.52032697 0.044825353
-0.34309393 -0.52034795 0.044831961
-0.34276414 -0.52036166 0.044847596
-0.34022847 -0.5203203 0.044802491
-0.37234575 -0.51713121 0.04408621
-0.36370838 -0.51712 0.044083569
-0.36222392 -0.51715982 0.044129871
-0.35792273 -0.5171482 0.044113107
-0.35360008 -0.5171172 0.044099428
-0.35250786 -0.51711744 0.044091146
-0.34829652 -0.51712167 0.044096973
-0.38439667 -0.51668286 0.044952206
-0.38030165 -0.51664853 0.044952493
-0.37979594 -0.51667589 0.04498912
-0.37720948 -0.51667255 0.044977289
-0.37667003 -0.51665568 0.04495734
-0.37001216 -0.51670945 0.044972502
-0.36967611 -0.5167079 0.044981875
-0.36856306 -0.51671803 0.044991672
-0.35701278 -0.51670802 0.044978455
-0.356484 -0.51665026 0.044939414
-0.35202059 -0.51668799 0.044977501
-0.35159147 -0.51671243 0.044981714
-0.34755942 -0.51667708 0.04495389
-0.34342575 -0.51667458 0.044966608
-0.38623226 -0.51347715 0.044322569
-0.38151109 -0.51350296 0.044324256
-0.38080713 -0.51350939 0.044354066
-0.37754172 -0.5135169 0.044352517
-0.37219772 -0.5135048 0.044355389
-0.36549282 -0.51351649 0.044351861
-0.36317044 -0.51351416 0.044339754
-0.36241388 -0.51346475 0.044300333
-0.35912099 -0.51349777 0.044330992
-0.35839689 -0.51348066 0.044297963
-0.35772076 -0.51348281 0.044310596
-0.35336813 -0.51349443 0.044323038
-0.35266054 -0.51350641 0.044327151
-0.34834698 -0.51350015 0.044322792
-0.34431326 -0.51351047 0.044333912
-0.38672143 -0.50993794 0.044680987
-0.38548124 -0.50991887 0.044652291
-0.38080025 -0.50988722 0.044621639
-0.37989345 -0.5099293 0.044645138
-0.37665555 -0.50987142 0.044629689
-0.37322921 -0.50989401 0.044653498
-0.3724876 -0.50990158 0.044654895
-0.37198484 -0.50993484 0.044687018
-0.36658159 -0.50993139 0.044654984
-0.3654851 -0.50995898 0.044684153
-0.36476001 -0.50994551 0.044674527
-0.3622928 -0.50995898 0.044687256
-0.3615602 -0.50996423 0.044698779
-0.3584891 -0.5099504 0.044702906
-0.35774165 -0.50995797 0.044703349
-0.35434267 -0.50993818 0.044690453
-0.35376582 -0.50995445 0.044689693
-0.34856948 -0.50991464 0.044668112
-0.34778765 -0.50994015 0.044664893
-0.3434377 -0.50988704 0.044630561
-0.34039068 -0.509951 0.044694602
-0.3870737 -0.50674409 0.044135351
-0.38242152 -0.50672513 0.044147503
-0.38168588 -0.50675869 0.04417244
-0.37720734 -0.50674713 0.04417675
-0.37670344 -0.5067606 0.044196784
-0.37417635 -0.50673127 0.044171922
-0.37359852 -0.50675911 0.044180036
-0.36904749 -0.50679779 0.044195797
-0.36840037 -0.50675279 0.044181347
-0.36218935 -0.50674343 0.04417491
-0.36188588 -0.50675386 0.044176478
-0.35862613 -0.50669992 0.04411675
-0.35534254 -0.50674295 0.044163272
-0.35461402 -0.50672668 0.044138361
-0.35031146 -0.50667292 0.044114571
-0.34958944 -0.50673956 0.044155542
-0.34888172 -0.50675178 0.044159602
-0.34423697 -0.50674576 0.044159234
-0.38753125 -0.5032233 0.044664197
-0.38677239 -0.50322497 0.044654399
-0.38335949 -0.50324488 0.044692483
-0.38261393 -0.50323689 0.044668779
-0.37758568 -0.50323087 0.044675805
-0.37668431 -0.50318468 0.044611424
-0.37324166 -0.50316864 0.044626743
-0.36949319 -0.50318706 0.044647738
-0.36875153 -0.50319439 0.044648953
-0.36230528 -0.50322866 0.044653952
-0.36137822 -0.50325537 0.044681262
-0.35816592 -0.50326347 0.044697341
-0.35783321 -0.50328439 0.044714183
-0.35455427 -0.50324667 0.044696931
-0.35060605 -0.50323141 0.044684377
-0.34931397 -0.5032056 0.044643141
-0.34519702 -0.50319725 0.044668324
-0.34405109 -0.50323343 0.044659194
-0.34372142 -0.50321269 0.044658404
-0.38726282 -0.50001478 0.044274785
-0.38402689 -0.5000658 0.04427921
-0.38366801 -0.50006467 0.044254687
-0.38298362 -0.50007957 0.044304837
-0.37922174 -0.50003397 0.044275891
-0.37853491 -0.50004888 0.044296827
-0.3740482 -0.50008279 0.044308085
-0.37349799 -0.50006342 0.044317111
-0.37046733 -0.50004745 0.044312384
-0.36972526 -0.50007218 0.044316001
-0.36898345 -0.50009453 0.044328082
-0.36612636 -0.50007445 0.044325043
-0.36535096 -0.50009489 0.044323508
-0.36451823 -0.50006032 0.044319492
-0.36360419 -0.50005525 0.044303346
-0.36287019 -0.50008219 0.044304963
-0.35851482 -0.50005949 0.044310242
-0.35763857 -0.50008339 0.044326831
-0.355266 -0.50002885 0.04427056
-0.35458192 -0.50003988 0.044284403
-0.35038292 -0.50004041 0.044277973
-0.34991145 -0.50005096 0.044304598
-0.34625104 -0.50002968 0.044279616
-0.34534943 -0.50007105 0.044303976
-0.34461653 -0.50005889 0.044313274
-0.33860654 -0.50005215 0.044304322
-0.34660256 -0.49998879 0.044255905
-0.38910097 -0.49690765 0.044001762
-0.38851261 -0.49659178 0.044974215
-0.3879227 -0.49660417 0.044963624
-0.38443223 -0.49681708 0.044339258
-0.38370439 -0.49660522 0.044972498
-0.38292977 -0.49659067 0.044950392
-0.3803359 -0.49692851 0.044035133
-0.37921125 -0.49694443 0.044042319
-0.37851548 -0.49694335 0.044024736
-0.37790501 -0.49656567 0.044930827
-0.37438408 -0.49694526 0.04405297
-0.37064153 -0.49692053 0.044034563
-0.36629641 -0.49692333 0.044024125
-0.36574969 -0.496889 0.044003792
-0.3647871 -0.49676204 0.04450544
-0.36031121 -0.49692744 0.044006661
-0.35964122 -0.49693093 0.044012036
-0.35854587 -0.49694952 0.044027779
-0.35772011 -0.49662951 0.044984981
-0.35533777 -0.49694321 0.044043001
-0.35474479 -0.4967972 0.04451932
-0.3539044 -0.49693397 0.044028748
-0.35140064 -0.49693578 0.044054005
-0.35078049 -0.49696428 0.044061385
-0.34719983 -0.49693879 0.044038586
-0.34646297 -0.49695566 0.044046216
-0.34590602 -0.4969371 0.044019092
-0.34236297 -0.49691218 0.044034224
-0.34162831 -0.49690622 0.044031121
-0.34064984 -0.49676049 0.04448799
-0.38510469 -0.4934912 0.044757467
-0.38457465 -0.49345756 0.044740401
-0.38397264 -0.49342874 0.04473209
-0.38003439 -0.49346232 0.044697456
-0.37936544 -0.49346697 0.044739306
-0.37451708 -0.49346477 0.044747643
-0.373606 -0.49348813 0.044757366
-0.35998094 -0.49345654 0.044742066
-0.35454324 -0.49346748 0.044758793
-0.34152442 -0.49346554 0.044754613
-0.38735685 -0.49037594 0.044618458
-0.38659969 -0.49035251 0.04460384
-0.38550165 -0.49032915 0.044585913
-0.38463223 -0.49037144 0.044623211
-0.37977993 -0.49036658 0.044604771
-0.37540174 -0.49037778 0.044631656
-0.37475297 -0.49036455 0.044608958
-0.3657468 -0.49030206 0.044571858
-0.3556655 -0.49035132 0.044595513
-0.35455853 -0.49040347 0.044634655
-0.34265304 -0.49038371 0.044629492
-0.38049072 -0.48721442 0.044516157
-0.37586799 -0.48726299 0.044530701
-0.37141663 -0.48723379 0.044523172
-0.37085873 -0.48725945 0.044539157
-0.36587858 -0.48726052 0.044561811
-0.36244118 -0.48725328 0.044542905
-0.35775244 -0.48726326 0.044553056
-0.35685751 -0.48723763 0.044542383
-0.35071647 -0.48727021 0.044557132
-0.34747788 -0.48721707 0.044519119
-0.34341773 -0.48721951 0.044498581
-0.38351336 -0.48417878 0.044536907
-0.37673968 -0.48418036 0.044538975
-0.37235838 -0.484175 0.044539366
-0.3719444 -0.48418474 0.044549339
-0.34391287 -0.48420247 0.044563968
-0.38866717 -0.48110127 0.044587817
-0.38727409 -0.48107797 0.044587724
-0.38692015 -0.48106968 0.044567581
-0.37727204 -0.48105183 0.04456874
-0.3734802 -0.4810797 0.044557463
-0.34404659 -0.48104739 0.044569895
-0.3889505 -0.44033352 0.044000033
-0.34338272 -0.43457556 0.044974528
-0.37326601 -0.75653881 0.045079514
-0.33312404 -0.75654739 0.045067407
-0.29822996 -0.75652266 0.04503528
-0.29364449 -0.75653577 0.045108717
-0.39194161 -0.75572729 0.045507964
-0.38202217 -0.75572032 0.045538127
-0.3815878 -0.75576508 0.045590051
-0.37974438 -0.75569141 0.045488693
-0.32779771 -0.75568825 0.045477159
-0.29563692 -0.75572717 0.045496736
-0.3872728 -0.74201792 0.045719218
-0.37003931 -0.74201792 0.045751467
-0.35924321 -0.74200553 0.045723476
-0.35447642 -0.7420041 0.045710925
-0.35057381 -0.74275535 0.045206003
-0.3329691 -0.74280959 0.045256522
-0.32731196 -0.74203354 0.045737486
-0.32274318 -0.74206221 0.045802251
-0.31124139 -0.74284953 0.045317397
-0.31052014 -0.74204355 0.045786597
-0.30363375 -0.74202377 0.045731287
-0.3004874 -0.74282581 0.045263134
-0.30293143 -0.74199593 0.045721304
-0.2949627 -0.741988 0.045702636
-0.37296569 -0.72922242 0.045972947
-0.35965905 -0.72995782 0.045453452
-0.35814512 -0.72923887 0.045994584
-0.35781297 -0.72924817 0.045993909
-0.34932768 -0.72922975 0.045990013
-0.30835462 -0.72996819 0.045438759
-0.30697879 -0.72917682 0.045936197
-0.29569516 -0.7187714 0.045129742
-0.38752434 -0.70776284 0.045315031
-0.38103625 -0.70770353 0.045230661
-0.32650787 -0.70771337 0.045231365
-0.3220064 -0.70772994 0.045261353
-0.31916836 -0.70765978 0.045214444
-0.31874442 -0.70768255 0.045218337
-0.30501342 -0.70768881 0.045240283
-0.30468866 -0.70770419 0.045256808
-0.29945618 -0.70771337 0.045239542
-0.29309362 -0.70771343 0.045238774
-0.29271847 -0.70773619 0.045268647
-0.38503733 -0.70694953 0.045789789
-0.33746338 -0.7069518 0.04576958
-0.33202356 -0.70698172 0.045797165
-0.33129111 -0.70693314 0.045736548
-0.33058515 -0.70687824 0.04567923
-0.32668182 -0.70695043 0.04577614
-0.29959697 -0.70693982 0.045749545
-0.29846603 -0.70696419 0.045779102
-0.3804298 -0.68724227 0.045500636
-0.36717048 -0.68724138 0.045465883
-0.34911978 -0.68722206 0.045436971
-0.33176491 -0.68723005 0.045440607
-0.36853811 -0.68644524 0.045950655
-0.36313832 -0.6864481 0.045948021
-0.36274526 -0.68646407 0.045963388
-0.35775188 -0.68645608 0.0459571
-0.34805551 -0.68647081 0.04597871
-0.34029943 -0.67778188 0.045441683
-0.341515 -0.66070586 0.045359328
-0.36958191 -0.65224421 0.045750219
-0.36854705 -0.65228134 0.045791127
-0.34406134 -0.65224206 0.045743395
-0.33365718 -0.6522404 0.045753147
-0.37257653 -0.64531213 0.045209642
-0.35600221 -0.64463669 0.04588563
-0.37008637 -0.63764817 0.045468934
-0.36105949 -0.63765299 0.04547007
-0.34018558 -0.63766605 0.045459051
-0.38026971 -0.63006955 0.045948718
-0.37629879 -0.63074768 0.045312032
-0.37104371 -0.6300689 0.045985565
-0.3704603 -0.63008779 0.045984417
-0.36664322 -0.63005394 0.045951638
-0.35978049 -0.63084322 0.045401495
-0.34758714 -0.63085335 0.045436595
-0.3519907 -0.62400723 0.045468353
-0.36342835 -0.61720401 0.045763846
-0.35620546 -0.61724228 0.045799572
-0.35256258 -0.6179328 0.045139167
-0.34036699 -0.61794376 0.04517195
-0.37801597 -0.61117774 0.045608014
-0.37508041 -0.61117691 0.045610752
-0.35783538 -0.61114824 0.045576416
-0.35425916 -0.61118114 0.04560386
-0.33736551 -0.61122251 0.045663748
-0.33698666 -0.61121285 0.045661036
-0.38328099 -0.60516894 0.045632333
-0.35635367 -0.60515505 0.04560183
-0.34481397 -0.60516357 0.045617867
-0.38061863 -0.59984517 0.04511293
-0.37249929 -0.59921151 0.045836285
-0.36522815 -0.59926283 0.045869451
-0.35518026 -0.59922332 0.045819934
-0.34364444 -0.59926337 0.045859165
-0.33715913 -0.5998745 0.0451492
-0.38351357 -0.59400862 0.045540072
-0.366932 -0.59396911 0.045526702
-0.36374474 -0.59396076 0.045528501
-0.35437122 -0.59397364 0.045511704
-0.34970298 -0.59396929 0.045503147
-0.34612229 -0.59393054 0.045477729
-0.3791213 -0.58866292 0.045268379
-0.3447817 -0.58873737 0.045321468
-0.38520524 -0.58352339 0.045291364
-0.37442273 -0.58356023 0.045303099
-0.37336868 -0.5835768 0.045330212
-0.37119749 -0.58353573 0.045303777
-0.36832899 -0.58352011 0.045277223
-0.35791934 -0.58354056 0.045324076
-0.34426522 -0.58352476 0.045274734
-0.339912 -0.58351856 0.045290373
-0.37302265 -0.57833409 0.045387484
-0.36726847 -0.57840669 0.045431711
-0.36692885 -0.57841271 0.045434438
-0.36398378 -0.57840252 0.045436598
-0.36007044 -0.57837576 0.045408148
-0.35973322 -0.57839715 0.045427732
-0.3560982 -0.57835865 0.045390662
-0.34854561 -0.57840443 0.045433115
-0.34747073 -0.57832992 0.045388021
-0.34353393 -0.57838851 0.045408841
-0.38102984 -0.57327443 0.045694456
-0.36802205 -0.57329315 0.045703936
-0.36552003 -0.57327414 0.045697562
-0.3428961 -0.57329619 0.045712575
-0.37165618 -0.56876028 0.045304537
-0.36766979 -0.56874484 0.045301698
-0.35793906 -0.56883287 0.045348782
-0.35438171 -0.56880754 0.045341145
-0.34717691 -0.56882364 0.045352452
-0.34211823 -0.56874067 0.045302477
-0.33980191 -0.56879443 0.045337271
-0.38174704 -0.56434041 0.04509332
-0.37234691 -0.56433618 0.045102298
-0.36697719 -0.5643909 0.045135669
-0.36048403 -0.56433815 0.045104779
-0.35741529 -0.56432295 0.045086101
-0.35399339 -0.56438029 0.045118429
-0.34068868 -0.56436014 0.045111485
-0.37140101 -0.56378567 0.045901153
-0.35972166 -0.56378651 0.045892458
-0.35275084 -0.56376398 0.045887936
-0.34120566 -0.56379437 0.045884535
-0.34079686 -0.56378514 0.045898788
-0.37419674 -0.55935228 0.045765527
-0.37035695 -0.55934662 0.045789618
-0.36603114 -0.55934578 0.045757104
-0.36172691 -0.55937576 0.04577262
-0.35602185 -0.55938637 0.045820389
-0.34828681 -0.55994987 0.045002803
-0.3425816 -0.55995411 0.045029238
-0.34084126 -0.55932105 0.045736849
-0.36634222 -0.5555433 0.045014642
-0.36576509 -0.55500877 0.045831069
-0.3620525 -0.55556822 0.045025259
-0.35750398 -0.55500931 0.045825973
-0.34906885 -0.55555737 0.045008268
-0.34056753 -0.55501562 0.045829207
-0.37046629 -0.55499476 0.04581866
-0.36076373 -0.55491298 0.045753196
-0.35170281 -0.55499214 0.045812901
-0.3754828 -0.55110162 0.045052212
-0.36139801 -0.55114615 0.045089249
-0.35138765 -0.55118787 0.045152139
-0.34775376 -0.55117965 0.04510941
-0.38866466 -0.55063641 0.045928162
-0.37940601 -0.55060339 0.045901977
-0.36532697 -0.55061817 0.045932204
-0.35615364 -0.55062836 0.045927424
-0.35326079 -0.55059636 0.045912303
-0.34680638 -0.55063695 0.045943867
-0.38360578 -0.54683882 0.045366798
-0.3760708 -0.54680985 0.04534784
-0.36996025 -0.54683971 0.045371808
-0.350573 -0.54683691 0.045358781
-0.37906328 -0.54250115 0.045665495
-0.37433615 -0.54250741 0.045667376
-0.37371513 -0.54252028 0.045701515
-0.37056947 -0.54247403 0.045647629
-0.36465836 -0.54253983 0.045697607
-0.36062428 -0.54254329 0.045703858
-0.35992736 -0.54254586 0.045713302
-0.35162947 -0.54254639 0.0457041
-0.34190997 -0.54257625 0.045722786
-0.37950277 -0.53880692 0.04535304
-0.37843949 -0.53882325 0.045349382
-0.35576624 -0.53876805 0.045309696
-0.33835721 -0.53877741 0.045325331
-0.38546145 -0.53506744 0.045052752
-0.38427535 -0.53505075 0.045063853
-0.3714084 -0.53506708 0.045059487
-0.37082776 -0.53504002 0.045028709
-0.35208911 -0.53504139 0.045023762
-0.38146397 -0.53457224 0.045879468
-0.37720764 -0.53458637 0.045921907
-0.36416349 -0.53456336 0.045905784
-0.35550454 -0.53457439 0.04590454
-0.35475951 -0.53459066 0.045919485
-0.35027736 -0.53458655 0.045914497
-0.34972841 -0.53452688 0.045867216
-0.34686103 -0.53459263 0.045907285
-0.38425511 -0.53084481 0.045701362
-0.37763959 -0.53087848 0.045711722
-0.37617815 -0.53084844 0.04570413
-0.37333894 -0.53093141 0.045768496
-0.37004125 -0.53090882 0.045755617
-0.36611193 -0.53087997 0.045737341
-0.36462447 -0.53083926 0.045680404
-0.36389551 -0.5307886 0.04565835
-0.3593919 -0.53087163 0.045710005
-0.35122466 -0.53082758 0.045688797
-0.35035852 -0.53083998 0.045686655
-0.34965718 -0.53085208 0.045704786
-0.34619176 -0.53086531 0.04569792
-0.34329337 -0.53086627 0.045712229
-0.34293586 -0.53083074 0.045683261
-0.34047484 -0.5308941 0.045724582
-0.38461983 -0.52718407 0.045633629
-0.38349825 -0.52720374 0.045629062
-0.38057014 -0.52723026 0.045650654
-0.37939316 -0.5271641 0.045626108
-0.37847114 -0.5271793 0.045612276
-0.37700394 -0.52719259 0.045610223
-0.37306622 -0.52720094 0.045645673
-0.36926454 -0.52719283 0.045621455
-0.36546299 -0.52715778 0.045598861
-0.36021394 -0.52718049 0.045621306
-0.35952568 -0.52717173 0.045627125
-0.35575965 -0.52717775 0.045612473
-0.3513597 -0.52718216 0.045622211
-0.35061821 -0.52720493 0.045643039
-0.34526083 -0.52712607 0.045580391
-0.34233493 -0.52719629 0.045630075
-0.38432798 -0.52347463 0.045585345
-0.383661 -0.52350265 0.04562372
-0.38034931 -0.52347803 0.045585487
-0.37964478 -0.52352953 0.045634136
-0.37887198 -0.52353948 0.045619071
-0.37333554 -0.5235548 0.045631878
-0.3724328 -0.52353591 0.045627102
-0.369239 -0.5235889 0.045673013
-0.36887613 -0.52353024 0.045623135
-0.36558726 -0.52355999 0.045657154
-0.3648262 -0.52351475 0.045614492
-0.36087778 -0.52353477 0.045612484
-0.35944289 -0.52348638 0.045589011
-0.35622773 -0.52352262 0.045620456
-0.35545683 -0.52353901 0.045615885
-0.35126513 -0.5234952 0.045584321
-0.3471249 -0.52348453 0.045594171
-0.34662315 -0.52348959 0.045592129
-0.33960092 -0.5235436 0.045626298
-0.38821542 -0.51990891 0.045715753
-0.38752282 -0.51991671 0.04575073
-0.38696995 -0.51988608 0.045703359
-0.38417065 -0.51989526 0.045735523
-0.38359791 -0.51988018 0.04571604
-0.38036132 -0.51990032 0.045721933
-0.37961951 -0.51991582 0.045725171
-0.37369043 -0.51989245 0.045705788
-0.37278154 -0.51989675 0.045693696
-0.36846134 -0.51989973 0.045721993
-0.3650074 -0.51990181 0.045710847
-0.36467955 -0.51991534 0.045728516
-0.36208516 -0.51986104 0.045667566
-0.36052543 -0.51988757 0.045703635
-0.35999462 -0.51990056 0.045728587
-0.35564262 -0.51987708 0.045714825
-0.3545886 -0.5198648 0.045711458
-0.35128942 -0.51987952 0.045706261
-0.35074079 -0.51990998 0.045732111
-0.34676537 -0.51989502 0.045712642
-0.38840708 -0.51624024 0.045846064
-0.38428393 -0.51622069 0.045814537
-0.38322997 -0.51629007 0.045879688
-0.38063678 -0.51622629 0.045843989
-0.37547478 -0.51628405 0.045898132
-0.37486115 -0.5162912 0.045879606
-0.36926597 -0.51674742 0.045012381
-0.36849508 -0.51649845 0.04544013
-0.36766246 -0.51626748 0.045887228
-0.36609694 -0.51673102 0.045004584
-0.3655405 -0.51675248 0.045029789
-0.36169654 -0.51673257 0.045022111
-0.36045083 -0.51625913 0.045865279
-0.3573615 -0.51672679 0.045005295
-0.35578468 -0.51619714 0.045825686
-0.35111547 -0.51627082 0.045875926
-0.35076487 -0.51627064 0.045866162
-0.34709457 -0.51623875 0.045842279
-0.34261179 -0.51624179 0.045853216
-0.38892034 -0.51312655 0.045269296
-0.38550353 -0.51309663 0.045234814
-0.38495788 -0.51312715 0.045242354
-0.380344 -0.51310766 0.04526769
-0.3797707 -0.51309299 0.045248646
-0.37707487 -0.51310325 0.045246273
-0.37653497 -0.51311243 0.045254208
-0.37597001 -0.51313722 0.045269713
-0.37150633 -0.51308143 0.045243055
-0.37058651 -0.51309538 0.045229148
-0.36949259 -0.51310611 0.045232698
-0.36463311 -0.51311278 0.045254558
-0.3613821 -0.51310766 0.045237735
-0.35726359 -0.51308066 0.045234039
-0.35690442 -0.51308995 0.045228139
-0.35213959 -0.5130927 0.045246731
-0.35164228 -0.51308674 0.04524374
-0.34746277 -0.51309162 0.045238957
-0.34347489 -0.5130983 0.045239042
-0.38617787 -0.50955445 0.045600664
-0.38584861 -0.50955582 0.04557839
-0.38477615 -0.5095014 0.045548264
-0.37944314 -0.50954473 0.045577291
-0.37620944 -0.50948727 0.045551594
-0.37129778 -0.5095408 0.045585692
-0.36428162 -0.50951165 0.045567583
-0.3606616 -0.50949067 0.045538977
-0.35307956 -0.50954169 0.045571677
-0.35255098 -0.50948393 0.045533091
-0.34362593 -0.50951076 0.045547329
-0.38743475 -0.50636899 0.045042545
-0.38640308 -0.5063777 0.04508359
-0.38570166 -0.50637484 0.045095723
-0.38119575 -0.50639975 0.045088783
-0.38046286 -0.50639117 0.045102511
-0.37618077 -0.5063892 0.045113757
-0.37583515 -0.50634295 0.045076218
-0.37258473 -0.50639307 0.045105398
-0.36720404 -0.50636089 0.045075644
-0.36645532 -0.50636804 0.045077499
-0.36551809 -0.50637686 0.045070112
-0.36122686 -0.5063864 0.045103136
-0.36070549 -0.50638855 0.045103546
-0.35762012 -0.50638002 0.045083955
-0.35365963 -0.50635111 0.045070268
-0.3482039 -0.50636256 0.045089409
-0.34772927 -0.5063585 0.045094647
-0.34517038 -0.50636679 0.045071453
-0.34332654 -0.50638962 0.045104608
-0.3879388 -0.50285965 0.045595538
-0.38145527 -0.50282949 0.04555539
-0.37248927 -0.50280803 0.045559391
-0.36813509 -0.50286156 0.045604348
-0.35735834 -0.50285882 0.045589596
-0.38828167 -0.49972185 0.04523319
-0.38771302 -0.49968547 0.045220993
-0.38682592 -0.49968815 0.045212284
-0.38254315 -0.49971589 0.045239914
-0.38146588 -0.49974319 0.045268953
-0.37730294 -0.49974346 0.045245521
-0.37676618 -0.49973172 0.045247864
-0.37288967 -0.49972415 0.045266822
-0.36851615 -0.49975342 0.045269072
-0.34108239 -0.49970397 0.045217428
-0.34075755 -0.49971363 0.04523081
-0.3875179 -0.49626225 0.045904413
-0.38319042 -0.49626064 0.045892078
-0.34105828 -0.49625009 0.045898762
-0.34100765 -0.48386377 0.045480601
-0.34259763 -0.45434782 0.045994818
-0.38648874 -0.75333112 0.046864115
-0.29769006 -0.75336885 0.046894874
-0.2951932 -0.75328344 0.046823286
-0.36929485 -0.74124348 0.046230998
-0.34936547 -0.74118537 0.046133392
-0.33644387 -0.7412684 0.046243131
-0.33176124 -0.74125463 0.046202969
-0.31692073 -0.74129361 0.04626124
-0.30647773 -0.74127257 0.046248689
-0.38607913 -0.74044204 0.046644647
-0.38216516 -0.74045521 0.046693191
-0.38183743 -0.7404508 0.046686236
-0.36847091 -0.7404964 0.046750363
-0.35802981 -0.7404322 0.046648502
-0.3486779 -0.74039829 0.046620011
-0.3418358 -0.74046445 0.046698462
-0.32162097 -0.7404781 0.046733718
-0.30250338 -0.74043626 0.046666626
-0.29891667 -0.74045503 0.046683747
-0.37219295 -0.72844529 0.046473306
-0.34480971 -0.72847807 0.046498206
-0.32689133 -0.72841263 0.046466362
-0.31235215 -0.72840983 0.046455067
-0.38654521 -0.72763431 0.046904836
-0.37683174 -0.7276625 0.046945732
-0.35663012 -0.727696 0.046976801
-0.33854771 -0.72766787 0.046978429
-0.32144552 -0.72765237 0.0469447
-0.35592496 -0.71726847 0.046184842
-0.3313348 -0.71724415 0.046134062
-0.31355298 -0.71726424 0.046159144
-0.3121435 -0.71726167 0.046157222
-0.29621407 -0.71724617 0.046156265
-0.34032837 -0.71645969 0.046631917
-0.33561558 -0.71643013 0.046587624
-0.32848048 -0.71650046 0.046682343
-0.29273009 -0.71651632 0.04669971
-0.37993556 -0.70615917 0.046242613
-0.36518016 -0.70614755 0.04623758
-0.33134329 -0.70618755 0.046303585
-0.29773661 -0.70619982 0.046299104
-0.37376806 -0.70538527 0.046751767
-0.35938337 -0.70540291 0.046783846
-0.35295156 -0.70544368 0.046821434
-0.34561822 -0.70536882 0.046745796
-0.33630258 -0.7054022 0.046781041
-0.33562535 -0.70538241 0.046758804
-0.37096649 -0.69508964 0.046693332
-0.36446196 -0.69592893 0.046233151
-0.34359443 -0.69594365 0.04627623
-0.35704449 -0.68567884 0.046476465
-0.36118251 -0.67705905 0.046043336
-0.3539578 -0.67710507 0.046068512
-0.33781585 -0.6771183 0.046110507
-0.35005686 -0.67627758 0.046537057
-0.33314815 -0.67633301 0.046618603
-0.33201772 -0.6763587 0.046638768
-0.37691364 -0.66778338 0.046475362
-0.36556029 -0.66781914 0.046510473
-0.35746577 -0.66775542 0.0464321
-0.35237476 -0.66776699 0.046434082
-0.35133687 -0.66700757 0.046997253
-0.34667012 -0.66774172 0.046441104
-0.34984171 -0.66697431 0.046936814
-0.36425439 -0.65931439 0.046646964
-0.35560116 -0.65921366 0.046538662
-0.34373569 -0.6592803 0.046592373
-0.34053394 -0.65920347 0.046495836
-0.37754342 -0.6515584 0.046403006
-0.36887664 -0.65152377 0.046370022
-0.35592145 -0.65156585 0.046416435
-0.34841508 -0.65152347 0.046354935
-0.34301314 -0.65152991 0.046366796
-0.34114483 -0.651483 0.046290688
-0.37687042 -0.65082729 0.046985507
-0.37285033 -0.65083516 0.046989389
-0.36751893 -0.6508283 0.046995685
-0.36674827 -0.65085715 0.046993785
-0.34156752 -0.65077657 0.04694435
-0.34048951 -0.65075368 0.046912208
-0.37800026 -0.64384788 0.0464026
-0.37401888 -0.64310753 0.046997279
-0.35528859 -0.64391178 0.04649578
-0.35497701 -0.64392376 0.046512924
-0.34741476 -0.64385802 0.046423968
-0.34632367 -0.64310205 0.046996169
-0.34592786 -0.6431269 0.046997812
-0.34161717 -0.6438219 0.046363063
-0.34056443 -0.64310527 0.04699105
-0.37655631 -0.6369769 0.046094459
-0.37192482 -0.63623595 0.046703849
-0.36939588 -0.63698179 0.046129078
-0.36873436 -0.63626903 0.046739388
-0.36419827 -0.63628846 0.046749778
-0.35861373 -0.63629776 0.046747103
-0.34641096 -0.63628018 0.046758525
-0.34574622 -0.6362626 0.046747595
-0.3384918 -0.63623595 0.046714388
-0.3469291 -0.63015598 0.046062861
-0.3436099 -0.63011861 0.046025302
-0.37441486 -0.62942547 0.046649598
-0.36918315 -0.62940389 0.046631884
-0.3656092 -0.62939996 0.046635389
-0.35841748 -0.62939447 0.046625663
-0.33822852 -0.62937653 0.046592068
-0.37363201 -0.62330461 0.046115141
-0.36538467 -0.62326998 0.046095446
-0.35132837 -0.62332958 0.04612086
-0.35064691 -0.62330651 0.046141036
-0.33737612 -0.62331259 0.046125844
-0.38119483 -0.6225999 0.046740208
-0.36727166 -0.6225611 0.046744879
-0.36396745 -0.6226061 0.046760462
-0.35642824 -0.62262237 0.046770111
-0.34963334 -0.62259191 0.046758529
-0.34780413 -0.62265813 0.046821281
-0.34546489 -0.62263596 0.046808865
-0.3373912 -0.6226083 0.04676836
-0.33634844 -0.62263066 0.046796951
-0.37603083 -0.61653149 0.04644414
-0.37255043 -0.61651778 0.046397749
-0.36237198 -0.61654025 0.046426695
-0.35912582 -0.61648482 0.046383053
-0.35086992 -0.61649162 0.046377454
-0.37553012 -0.61054581 0.046329044
-0.35366467 -0.61050045 0.046272743
-0.34353855 -0.61051905 0.046316627
-0.34284449 -0.6104911 0.04628155
-0.38149142 -0.60984802 0.046975125
-0.37989232 -0.60985178 0.046977036
-0.37698576 -0.60985583 0.046961248
-0.37273213 -0.60983455 0.046986386
-0.36572003 -0.6098147 0.046949282
-0.36120272 -0.60983557 0.046946369
-0.36066568 -0.60979712 0.04692924
-0.35687354 -0.60983717 0.046962757
-0.3851538 -0.60455173 0.046350963
-0.37289259 -0.6045236 0.046343047
-0.36899132 -0.60452694 0.046346378
-0.36499587 -0.60453343 0.046331249
-0.34918666 -0.6045472 0.046357248
-0.34307545 -0.60382354 0.046956658
-0.34273461 -0.6038388 0.04698405
-0.33879334 -0.60384393 0.046998076
-0.379695 -0.598571 0.046542615
-0.37828884 -0.59859771 0.046550114
-0.37032211 -0.59860492 0.046551205
-0.36762044 -0.59855855 0.046513021
-0.36427143 -0.59861159 0.046584085
-0.36388218 -0.59860021 0.046555314
-0.34666976 -0.59859312 0.046543155
-0.34511492 -0.59855115 0.046510972
-0.3792412 -0.59333777 0.046230726
-0.37386966 -0.5933032 0.04619706
-0.36630699 -0.59334677 0.046246521
-0.36274451 -0.59333611 0.046246316
-0.35856128 -0.59334683 0.046229467
-0.34903625 -0.59332353 0.046215508
-0.37933713 -0.59271079 0.046947025
-0.36566946 -0.59272867 0.046981528
-0.36208025 -0.59273618 0.046973608
-0.34806958 -0.59267509 0.046922814
-0.34516832 -0.59266466 0.0469268
-0.34481129 -0.5927031 0.046958942
-0.3727459 -0.58812296 0.04606301
-0.34900895 -0.58810592 0.046040066
-0.3403742 -0.58811301 0.046056543
-0.37457743 -0.58744621 0.04675008
-0.36918196 -0.58749312 0.046796307
-0.36848715 -0.58751404 0.046795122
-0.3573336 -0.587448 0.046771638
-0.35230184 -0.58742881 0.046741541
-0.3397401 -0.5875116 0.046819706
-0.37703621 -0.58291173 0.046040975
-0.37641847 -0.58226246 0.046746511
-0.37272832 -0.58294666 0.046048351
-0.36014327 -0.58296639 0.046084147
-0.35931683 -0.58234859 0.046811327
-0.3564719 -0.58234048 0.046811074
-0.35589594 -0.58234936 0.046813723
-0.35255969 -0.5829531 0.04604717
-0.34830335 -0.58294147 0.04605864
-0.34774086 -0.58292055 0.04604052
-0.346928 -0.58231461 0.046778448
-0.38479269 -0.57717437 0.046909116
-0.37633413 -0.57777232 0.04614922
-0.37573951 -0.57716614 0.046905689
-0.37237787 -0.57778192 0.046156481
-0.37176731 -0.5771966 0.046916157
-0.36911646 -0.57775033 0.046142321
-0.36853933 -0.57714432 0.046905424
-0.36606419 -0.57720548 0.046964888
-0.36276346 -0.57721311 0.04693836
-0.35265195 -0.57782018 0.0462185
-0.35088021 -0.57714307 0.046880089
-0.34657684 -0.57712841 0.04688593
-0.37604845 -0.57270777 0.046480913
-0.37535617 -0.57270414 0.046480902
-0.36163366 -0.57270497 0.046473116
-0.35808465 -0.57269812 0.046483222
-0.35088888 -0.57273626 0.046492867
-0.34622705 -0.57270706 0.046455227
-0.33976111 -0.57262951 0.046418384
-0.37207064 -0.56817824 0.046083659
-0.35735294 -0.5682379 0.046105716
-0.35301989 -0.56824899 0.046126902
-0.34227028 -0.56819659 0.046094052
-0.37540418 -0.5676108 0.046858586
-0.37025315 -0.56762064 0.046875358
-0.35998902 -0.56761521 0.046875235
-0.34535602 -0.56761515 0.046855584
-0.36933216 -0.56316364 0.046644129
-0.36180419 -0.56322294 0.046678755
-0.35601982 -0.5632295 0.046689142
-0.35209161 -0.56318766 0.046667129
-0.37863326 -0.55879986 0.046571992
-0.37084827 -0.55876291 0.04653639
-0.36513647 -0.5587852 0.046579536
-0.35175997 -0.55881029 0.046571445
-0.3445791 -0.55877566 0.04657682
-0.3886815 -0.55442953 0.046613161
-0.3836816 -0.5544377 0.04663714
-0.37392473 -0.5544005 0.04660733
-0.36953676 -0.55445123 0.046622962
-0.36409384 -0.55439889 0.046577767
-0.35650352 -0.55442655 0.046600647
-0.34608066 -0.55444664 0.046602115
-0.38878351 -0.55010176 0.046733506
-0.38593587 -0.5501039 0.046770334
-0.38302076 -0.55003601 0.046691991
-0.37396687 -0.55008322 0.046737868
-0.37254456 -0.55007696 0.046746444
-0.36968341 -0.55008256 0.046729963
-0.36389568 -0.55008221 0.046738748
-0.35919827 -0.55013371 0.046778936
-0.34583741 -0.55009431 0.046753321
-0.34136611 -0.55012596 0.046775527
-0.34046257 -0.55005646 0.046714019
-0.38232279 -0.54635233 0.046217788
-0.37362424 -0.54631907 0.046170671
-0.36863425 -0.54629797 0.046169866
-0.36476088 -0.5463115 0.046185199
-0.36020306 -0.54630262 0.046166133
-0.35629699 -0.54626411 0.04614738
-0.35234582 -0.54632831 0.04618613
-0.34946516 -0.54632789 0.046187203
-0.34618649 -0.54632038 0.04619132
-0.34172511 -0.54632235 0.046180226
-0.37663704 -0.54575926 0.046964474
-0.37309355 -0.54574907 0.046967845
-0.36766452 -0.54577899 0.046998773
-0.36344242 -0.54575431 0.046971671
-0.3585901 -0.54577136 0.046979412
-0.35463014 -0.54578269 0.046987306
-0.38646275 -0.54202557 0.046534128
-0.37782484 -0.54203343 0.046536118
-0.3683826 -0.54202414 0.046549771
-0.35938683 -0.54202497 0.046534851
-0.3546907 -0.54207623 0.046574585
-0.35108003 -0.54205328 0.046551492
-0.34783536 -0.54204798 0.046550289
-0.38123801 -0.53833902 0.046200998
-0.38070738 -0.53831297 0.04618042
-0.37733853 -0.5383265 0.046202525
-0.37674162 -0.53825116 0.046132464
-0.37384284 -0.53832746 0.046212479
-0.36915827 -0.5383026 0.046165723
-0.36373818 -0.53830659 0.046169423
-0.35970575 -0.53827173 0.046140518
-0.35433459 -0.53827822 0.046148624
-0.35037363 -0.53828996 0.046156675
-0.34729543 -0.53827351 0.046156649
-0.34680349 -0.53825551 0.046153072
-0.34390119 -0.53828859 0.046173837
-0.36770484 -0.53773576 0.046974063
-0.36246771 -0.53778148 0.046994954
-0.38816857 -0.53411102 0.046773233
-0.38706779 -0.53405935 0.046743628
-0.38671276 -0.53404784 0.046729311
-0.38352665 -0.53406221 0.046752885
-0.38280803 -0.53406966 0.046741255
-0.3817004 -0.53408897 0.046751406
-0.3809582 -0.53409231 0.046739865
-0.37663949 -0.53409201 0.046765003
-0.37321863 -0.53409255 0.046751313
-0.37269005 -0.53411198 0.046775095
-0.36874428 -0.5340727 0.046740737
-0.36348027 -0.53407133 0.046756815
-0.36260259 -0.53405964 0.046756551
-0.35857621 -0.53411198 0.046784513
-0.35422128 -0.534118 0.046783898
-0.34921652 -0.53402472 0.046709348
-0.34342948 -0.53410095 0.046759672
-0.34270972 -0.53410441 0.046760004
-0.38323852 -0.53039938 0.046593737
-0.37998569 -0.53040636 0.046573386
-0.37634799 -0.53041452 0.046583712
-0.37529129 -0.53039539 0.04658607
-0.37279683 -0.53039938 0.046580456
-0.36336318 -0.53035647 0.046546083
-0.35797694 -0.53039134 0.046568062
-0.35502607 -0.53035641 0.04653782
-0.35429782 -0.53038204 0.046584617
-0.35394165 -0.53039563 0.046574339
-0.35070321 -0.53036523 0.046552457
-0.3488771 -0.53042018 0.046590872
-0.38731188 -0.52669269 0.046483677
-0.38695762 -0.52665049 0.046466205
-0.38258809 -0.52668762 0.046471
-0.37757558 -0.52672899 0.046492837
-0.3761076 -0.52672172 0.046478953
-0.37218407 -0.52673829 0.046512
-0.36856499 -0.52675188 0.046516031
-0.3646183 -0.52671319 0.046482284
-0.36388054 -0.52673692 0.046515822
-0.35847574 -0.5267005 0.04649825
-0.35009593 -0.52675807 0.046524871
-0.34954172 -0.52672982 0.046498213
-0.3461611 -0.52676928 0.046524636
-0.38670969 -0.52306312 0.046498749
-0.38308474 -0.52308619 0.046515848
-0.37836853 -0.52312219 0.046527326
-0.36829782 -0.52303612 0.046458889
-0.36794892 -0.52302414 0.046446487
-0.36429897 -0.52305973 0.046483617
-0.36039573 -0.52304083 0.046464629
-0.35997659 -0.52301848 0.046440169
-0.35441607 -0.52306783 0.046480387
-0.35037914 -0.52305841 0.046490572
-0.35963339 -0.5229978 0.046443563
-0.38863 -0.51948041 0.046597078
-0.37311181 -0.5194549 0.046575066
-0.37206772 -0.51945066 0.046579383
-0.38881522 -0.51583326 0.046744347
-0.34654936 -0.5158304 0.046751354
-0.38912901 -0.51269817 0.046158921
-0.3844184 -0.51271945 0.046151187
-0.38355809 -0.51272142 0.046185657
-0.37547836 -0.51271141 0.046148125
-0.34695029 -0.5127098 0.046161097
-0.34259674 -0.51271254 0.046161547
-0.34465685 -0.50916344 0.046519693
-0.34387231 -0.50911993 0.046482794
-0.34064737 -0.50598115 0.04601004
-0.33979863 -0.50560737 0.046920527
-0.34060016 -0.50250894 0.046528652
-0.34136331 -0.4928171 0.046626449
-0.39089954 -0.47748807 0.046604324
-0.38538298 -0.75253999 0.047346029
-0.37958902 -0.75259846 0.04738155
-0.35793072 -0.7525757 0.047378216
-0.35300168 -0.7525574 0.047388025
-0.34973678 -0.7524963 0.047293808
-0.3475118 -0.75257504 0.047360659
-0.34470722 -0.75247794 0.047287386
-0.34040746 -0.75250649 0.047327328
-0.33534947 -0.75253195 0.047323152
-0.3201035 -0.7524873 0.047277756
-0.31114081 -0.75252962 0.047351576
-0.30779168 -0.75254571 0.047329281
-0.29980016 -0.75253278 0.047308657
-0.38530543 -0.75174391 0.047786154
-0.37887141 -0.7517851 0.047827154
-0.3701334 -0.7517783 0.047807299
-0.36984369 -0.75173676 0.047783621
-0.35225353 -0.75175136 0.047814589
-0.33012474 -0.75172538 0.047778495
-0.32527715 -0.75171232 0.04776597
-0.32036456 -0.75166941 0.047704283
-0.31930324 -0.75170761 0.047761697
-0.31890658 -0.75174659 0.047776569
-0.3139495 -0.7516951 0.047745496
-0.3070263 -0.75176316 0.047778443
-0.30420989 -0.75171977 0.047757775
-0.30155343 -0.75169915 0.04769076
-0.29398677 -0.75172669 0.047742881
-0.38101906 -0.73965675 0.047133245
-0.35294643 -0.73965091 0.047124941
-0.33888891 -0.73967963 0.04715601
-0.33062744 -0.73967773 0.047150563
-0.31576836 -0.73969758 0.047213502
-0.30893403 -0.73965347 0.04714388
-0.30750394 -0.73961073 0.0471038
-0.30530563 -0.73969007 0.047189422
-0.3046203 -0.73969239 0.047199562
-0.30141205 -0.73962015 0.047135357
-0.29816398 -0.73965842 0.047134545
-0.29555175 -0.73966748 0.04714556
-0.2933698 -0.73964381 0.04712636
-0.3745259 -0.73883039 0.047564
-0.36729002 -0.73892337 0.047661144
-0.3669661 -0.73890269 0.047655094
-0.35682783 -0.73888892 0.047598559
-0.34319136 -0.73882347 0.047558051
-0.3349193 -0.7388981 0.047642883
-0.32969695 -0.7388761 0.047622599
-0.32046863 -0.7388711 0.047628172
-0.3150174 -0.73889297 0.047650259
-0.29550862 -0.73887724 0.047633804
-0.38560045 -0.72686756 0.047413029
-0.38470593 -0.72608382 0.04791303
-0.38284472 -0.72603399 0.047829043
-0.3710916 -0.72687489 0.047449626
-0.37071529 -0.72688127 0.04743804
-0.35478744 -0.72608948 0.047908649
-0.34726554 -0.7260713 0.04789456
-0.33470908 -0.7260533 0.047882788
-0.33289865 -0.72689235 0.047454104
-0.33006346 -0.72682071 0.047405403
-0.32542279 -0.72643769 0.047659151
-0.31584218 -0.72607398 0.047913346
-0.31119448 -0.72685057 0.047416881
-0.30501553 -0.72687852 0.047429368
-0.3046777 -0.72689611 0.047444094
-0.30395555 -0.72610879 0.047922708
-0.37559536 -0.71574235 0.047186449
-0.37233832 -0.71570128 0.047128968
-0.36157632 -0.71567088 0.047113314
-0.33959886 -0.71570206 0.047141585
-0.33024231 -0.71566367 0.047107313
-0.31247574 -0.71568602 0.04713976
-0.29492381 -0.71566832 0.047108933
-0.32158682 -0.71496034 0.047687806
-0.31656253 -0.71493524 0.047656868
-0.31175157 -0.71489966 0.047629841
-0.30674016 -0.71488899 0.047634918
-0.30204022 -0.71496916 0.047724027
-0.3676641 -0.70460051 0.047250628
-0.36364338 -0.7046271 0.047278844
-0.35830703 -0.70463699 0.047296178
-0.35218334 -0.70464456 0.047298759
-0.35184783 -0.70460737 0.047278605
-0.344235 -0.70465088 0.047299564
-0.34351543 -0.70464373 0.047301639
-0.35752884 -0.70388156 0.047836404
-0.35106823 -0.70382118 0.047771577
-0.35064989 -0.70378864 0.047735602
-0.342197 -0.70387447 0.047805794
-0.34165815 -0.70387203 0.047803894
-0.33448976 -0.7038132 0.047768511
-0.37640721 -0.69440329 0.047328252
-0.37524077 -0.69433433 0.047245
-0.360181 -0.69432038 0.047197368
-0.3554827 -0.69434029 0.047253251
-0.34969562 -0.69433141 0.047216453
-0.3752909 -0.6935913 0.047789413
-0.36987773 -0.69354886 0.047728814
-0.34137726 -0.69362193 0.047805723
-0.3750017 -0.68424994 0.047668669
-0.36170021 -0.68494684 0.047057103
-0.36096075 -0.68417716 0.047581751
-0.3559396 -0.68417072 0.047596876
-0.3400932 -0.68415868 0.047568418
-0.37272778 -0.67564237 0.047265939
-0.35289204 -0.67560893 0.047192737
-0.34878385 -0.67556316 0.047131162
-0.34900105 -0.67478961 0.047669303
-0.36445051 -0.66705358 0.047063045
-0.3420082 -0.66700947 0.047000218
-0.35634175 -0.66628939 0.047577489
-0.35025021 -0.66625428 0.047566455
-0.34989944 -0.66623884 0.04753615
-0.33440843 -0.66623425 0.047534831
-0.36337435 -0.65857768 0.047238
-0.35411894 -0.65851355 0.047119897
-0.34945899 -0.65846121 0.047089025
-0.37434983 -0.65778524 0.047733478
-0.35415447 -0.65777111 0.047699623
-0.34264714 -0.65782344 0.047747329
-0.3379845 -0.65779763 0.047731593
-0.37215501 -0.6501357 0.047602169
-0.36607969 -0.65013939 0.047612902
-0.36572716 -0.65010816 0.047613457
-0.36104268 -0.6501351 0.047646012
-0.35524619 -0.65083373 0.047007501
-0.35487354 -0.65084302 0.047001306
-0.35387436 -0.65011203 0.047609683
-0.34122169 -0.65005678 0.047546573
-0.3318966 -0.6500839 0.047571275
-0.35430667 -0.64320791 0.047111806
-0.35385588 -0.6432367 0.04712433
-0.3455413 -0.64313811 0.047003116
-0.37767708 -0.64243138 0.047658071
-0.36521831 -0.64239776 0.047601633
-0.34490344 -0.64242798 0.047635119
-0.38042736 -0.63554955 0.047359806
-0.36802128 -0.63556093 0.047358189
-0.35795709 -0.6355983 0.047393288
-0.35669684 -0.63553965 0.047351234
-0.35524976 -0.63559657 0.047413532
-0.35451284 -0.63560909 0.047420524
-0.35346302 -0.63562274 0.04742641
-0.35291985 -0.63559407 0.047424708
-0.34482414 -0.63556767 0.047374956
-0.37438104 -0.63479722 0.047956884
-0.37090939 -0.63484979 0.047985885
-0.35582012 -0.63483202 0.047969997
-0.38186121 -0.62806094 0.04795621
-0.37857848 -0.62836599 0.047596522
-0.37785849 -0.62874794 0.047287684
-0.37249857 -0.62802106 0.047915574
-0.36527157 -0.62868857 0.047267586
-0.3612805 -0.62800604 0.047891129
-0.35752916 -0.62866682 0.047223449
-0.34548292 -0.62877411 0.047341201
-0.34444165 -0.62807965 0.047984608
-0.34193006 -0.62872833 0.047308125
-0.34083658 -0.62803912 0.047940165
-0.3372156 -0.6286962 0.047256216
-0.35662371 -0.62797904 0.047860321
-0.37267253 -0.62189841 0.047407314
-0.36329764 -0.62192553 0.047399733
-0.3601377 -0.62191308 0.047402363
-0.34822074 -0.62192667 0.047439169
-0.34782648 -0.62195194 0.047457661
-0.346558 -0.62197351 0.047474403
-0.34463474 -0.62192786 0.047445696
-0.38251096 -0.61586541 0.047103904
-0.37538764 -0.6158666 0.047121104
-0.37069792 -0.61520767 0.047768064
-0.36604556 -0.61517739 0.047758877
-0.36136568 -0.61517715 0.047755133
-0.35778034 -0.61515719 0.047750682
-0.35013947 -0.61581343 0.047039621
-0.34944209 -0.61549079 0.047385417
-0.34842432 -0.61518866 0.04777424
-0.33909771 -0.61591059 0.047156867
-0.33762997 -0.61525744 0.047825489
-0.33652717 -0.61590195 0.047142442
-0.38065311 -0.6092031 0.047652867
-0.37058622 -0.60987091 0.047007579
-0.35953864 -0.60913545 0.047628716
-0.34845009 -0.60920072 0.047659934
-0.34113801 -0.60917825 0.047666434
-0.3375546 -0.60917813 0.04767175
-0.37911847 -0.60317987 0.047694556
-0.37550777 -0.60386932 0.047038894
-0.36902446 -0.6038565 0.047027305
-0.36431715 -0.60388654 0.047019035
-0.36398634 -0.6038959 0.047021743
-0.35933298 -0.60385066 0.047013648
-0.35865545 -0.60320663 0.04770156
-0.35434741 -0.60317957 0.047693126
-0.35110101 -0.60317832 0.047693457
-0.3507435 -0.60321689 0.047725931
-0.34711254 -0.60318273 0.047687735
-0.346394 -0.60321659 0.047714412
-0.3423717 -0.60384125 0.047002785
-0.34059215 -0.60389531 0.047025584
-0.38370737 -0.59792554 0.047223542
-0.38044351 -0.59789526 0.047209602
-0.37765723 -0.59795266 0.04728194
-0.37401468 -0.59795058 0.047237553
-0.3736237 -0.59794104 0.047236882
-0.37224612 -0.59728914 0.047955923
-0.37079877 -0.59793556 0.047247317
-0.36939016 -0.59731388 0.047964368
-0.36631909 -0.59726274 0.047946323
-0.3632004 -0.59789652 0.047231324
-0.36251199 -0.59756923 0.047556721
-0.35816893 -0.59787738 0.047200412
-0.3571181 -0.59731215 0.047955476
-0.353569 -0.59788626 0.047228958
-0.35235918 -0.5972693 0.047934949
-0.3423107 -0.59796268 0.047262818
-0.33987319 -0.5972383 0.047893949
-0.33593321 -0.59791636 0.047241688
-0.37834013 -0.59208536 0.047683191
-0.36462992 -0.59205538 0.047660038
-0.35713235 -0.59207052 0.047651034
-0.34738356 -0.59202719 0.047626436
-0.3876875 -0.58687812 0.047531303
-0.38259101 -0.58681488 0.047483284
-0.38118622 -0.58684021 0.047490411
-0.38008875 -0.5868966 0.047545329
-0.37757394 -0.58683938 0.047489215
-0.36787164 -0.58687484 0.047505971
-0.36335388 -0.58687305 0.047530752
-0.35167083 -0.58683312 0.047483958
-0.34709087 -0.58682215 0.047499795
