# .PCD v0.7 - Point Cloud Data file format
VERSION 0.7
FIELDS x y z
SIZE 4 4 4
TYPE F F F
COUNT 1 1 1
WIDTH 248
HEIGHT 1
VIEWPOINT 0 0 0 1 0 0 0
POINTS 248
DATA ascii
0.2002975 0.02343916 -0.038971428
0.14155783 0.024194589 -0.039117564
0.12015525 0.024305051 -0.039238133
0.1039817 0.024494968 -0.039335161
0.26137 0.022398319 -0.037936322
0.18374455 0.022926018 -0.038406696
0.1811209 0.022937289 -0.0384751
0.16260256 0.022532223 -0.037812099
0.10123987 0.023643984 -0.037584465
0.01343336 0.024488194 -0.03798537
0.010383718 0.024474476 -0.038008135
0.22887483 0.022037672 -0.036181737
0.13269222 0.022620624 -0.03563872
0.13035704 0.035763711 -0.039479893
0.36154911 0.032031879 -0.035996988
0.28445667 0.032802701 -0.036330063
0.36770558 0.031649735 -0.035047203
0.35176775 0.031405374 -0.034196086
0.33809569 0.031409666 -0.034356132
0.32149947 0.03173843 -0.034332979
0.29994035 0.031831287 -0.03447523
0.35977837 0.030810963 -0.033292297
0.19612762 0.032431204 -0.033971414
0.0066855699 0.034181841 -0.034852736
0.2809549 0.031119399 -0.032770019
0.24135315 0.031514317 -0.032939754
0.21206294 0.031790543 -0.033036929
0.14830415 0.032554898 -0.033259358
0.11579705 0.032914888 -0.033226114
0.097139142 0.03300444 -0.033490214
0.030532412 0.033575051 -0.03381978
0.14546153 0.032157257 -0.032376561
0.27814239 0.030314583 -0.030929996
0.25696743 0.030618399 -0.030964699
0.23849726 0.030727036 -0.031136477
0.22463852 0.03093493 -0.031168938
0.17711979 0.031050863 -0.031635135
0.027497165 0.032677397 -0.032123629
0.34884313 0.029156841 -0.029903721
0.34714371 0.029113954 -0.02991391
0.022312067 0.032323446 -0.031212537
0.36580366 0.028592769 -0.028827284
0.018323891 0.028598649 -0.023082297
0.36731353 0.035689294 -0.020000573
0.36622971 0.035682421 -0.020025553
0.34356189 0.036243118 -0.02110794
0.34182602 0.036254536 -0.021062193
0.36146629 0.035724074 -0.020026412
0.22778362 0.036736194 -0.019655624
0.1347326 0.037198834 -0.019068938
0.35208595 0.03440202 -0.017485827
0.21461262 0.035646264 -0.018119875
0.32373038 0.034260571 -0.016679492
0.30236396 0.034468319 -0.016821105
0.033011377 0.037232917 -0.01782486
0.14787482 0.035564691 -0.016521052
0.17930436 0.034572832 -0.015660495
0.27974302 0.043219663 -0.011574791
0.15709071 0.043576326 -0.011586869
0.34718347 0.04221388 -0.010348957
0.3169114 0.042547449 -0.01048822
0.12744704 0.044470035 -0.011205663
0.095748991 0.04467757 -0.011345646
0.04724142 0.045108899 -0.011689371
0.17535627 0.043113239 -0.010462584
0.36677244 0.040634472 -0.0076591377
0.0045138672 0.044140562 -0.009128497
0.25239888 0.041300621 -0.0071791341
0.32835099 0.040031057 -0.0060209492
0.23077507 0.041011259 -0.0064849495
0.21767151 0.041089632 -0.0065332302
0.20442225 0.0412651 -0.0065083802
0.15380532 0.040919133 -0.0062731062
0.36123484 0.039216634 -0.0050735171
0.14320752 0.041470695 -0.0059239864
0.27319995 0.039629433 -0.0045020115
0.27045423 0.03960041 -0.004657879
0.091933861 0.041467924 -0.0052725724
0.36530721 0.038341396 -0.0032624947
0.089131944 0.041030664 -0.0044018272
0.06529741 0.041231114 -0.0045277867
0.13746914 0.040169802 -0.0032560739
0.10529572 0.04057863 -0.0032069492
0.062565297 0.040852241 -0.0036522574
0.056348898 0.039548691 -0.0010410238
0.28825766 0.048761532 -0.00091605785
0.18410063 0.049719237 -0.0013903388
0.26680946 0.047939226 0.00075476186
0.22677031 0.048528571 0.00076719734
0.20024 0.048720427 0.00059667963
0.16267744 0.048151538 0.0008419496
0.34971863 0.046627324 0.0019000657
0.33740336 0.046802789 0.0019416227
0.24274173 0.047964454 0.0016849588
0.21325636 0.048016608 0.0014082354
0.18135616 0.047766075 0.0021164049
0.079723418 0.04886245 0.0016796552
0.23963183 0.047429938 0.0024903682
0.13333166 0.048578825 0.002199783
0.053093888 0.049249656 0.0017120375
0.36722696 0.045502305 0.0037267637
0.32394934 0.046068273 0.003602172
0.32214555 0.046509821 0.002746297
0.31970012 0.046070505 0.0036290253
0.26105303 0.047095638 0.0025532038
0.19702943 0.047769766 0.0022994431
0.11712944 0.048165314 0.0029635727
0.034006186 0.048894979 0.0024326635
0.028982259 0.049040932 0.0024850625
0.010224268 0.049157206 0.0023537972
0.0078488737 0.04923895 0.0024187639
0.30086032 0.045836195 0.0045056082
0.21032919 0.046545669 0.0039470191
0.14678058 0.047212299 0.003654497
0.13031381 0.04764786 0.0038897465
0.10074393 0.047917638 0.003813151
0.026309133 0.048560385 0.0033430755
0.2980859 0.04533352 0.0052315379
0.20737377 0.04613512 0.0048691989
0.25778413 0.045770861 0.0051286677
0.23650488 0.046147466 0.005114127
0.22311746 0.046273142 0.005064412
0.19392723 0.046364438 0.0048499638
0.12738207 0.046711046 0.0056260489
0.095267661 0.046994839 0.0054720761
0.071550086 0.047113556 0.0052311439
0.050181828 0.047863036 0.0043068496
0.044285499 0.047400277 0.0050714384
0.0051155686 0.048286546 0.0041399961
0.14358197 0.046396114 0.0055146329
0.36593941 0.043685362 0.0072460361
0.11360125 0.044957153 0.0090881903
0.17465653 0.043964751 0.0089777242
0.097046442 0.04462631 0.0098862937
0.17724881 0.043059088 0.010761634
0.35433999 0.054887988 0.0075913048
0.36322507 0.053877387 0.0093154432
0.35892886 0.053419318 0.010173293
0.35264391 0.0533804 0.010114487
0.32947153 0.053608838 0.0099681169
0.29376701 0.054095447 0.0098561216
0.27558032 0.054149214 0.0097853476
0.21947882 0.054862771 0.0096367477
0.13979448 0.055107072 0.010137167
0.25144887 0.053434376 0.011405904
0.15279496 0.053994376 0.010615776
0.12315618 0.054875694 0.011004006
0.15014762 0.053587314 0.0115104
0.31237733 0.051981382 0.013449264
0.31029484 0.051929004 0.013492966
0.27210805 0.052218065 0.0132202
0.18715492 0.053100977 0.012917398
0.067372128 0.054244678 0.012378047
0.064164817 0.054269757 0.01235547
0.00019509345 0.041190874 0.017207675
0.22979207 0.052185655 0.013929646
0.21592586 0.052393623 0.013898319
0.10414906 0.053118858 0.014519839
0.29034203 0.050126158 0.016764501
0.36599642 0.048315886 0.018759541
0.2688264 0.049337417 0.018460315
0.20235693 0.049476087 0.019003781
0.17009395 0.049600035 0.018643714
0.090247154 0.050210007 0.019509282
0.28711179 0.047760136 0.021124311
0.21267684 0.048421659 0.020782474
0.18263128 0.047745831 0.022328459
0.180187 0.047723815 0.022276886
0.020344406 0.049315192 0.021681314
0.35598588 0.045543604 0.023953388
0.3229886 0.045898136 0.023889162
0.30641136 0.046497501 0.02294218
0.2470277 0.047196273 0.022745455
0.24404486 0.046778068 0.023582941
0.19917984 0.047619604 0.022536105
0.18866816 0.047721177 0.022520361
0.16705829 0.047163859 0.02293399
0.11912439 0.048019592 0.02315519
0.086947694 0.048737995 0.022010924
0.084271789 0.048757821 0.022001404
0.060314968 0.048471581 0.022739364
0.033872791 0.0487018 0.022610066
0.015069686 0.048806656 0.022472953
0.16439658 0.047146648 0.022892881
0.16145121 0.046634194 0.023717174
0.36447996 0.044835508 0.024754616
0.13512257 0.047333434 0.023953885
0.13247904 0.047373746 0.023993343
-0.0064071119 0.048573617 0.023280185
0.10524191 0.047171172 0.02487243
0.26497704 0.044924453 0.026082506
0.22504328 0.045416377 0.026016401
0.01202105 0.047389299 0.025056716
0.24112579 0.044843603 0.027027067
0.057219498 0.046597674 0.026192511
0.054607891 0.046163261 0.027091336
0.051259473 0.046177201 0.027026605
0.11536086 0.044570647 0.029176986
0.28327304 0.05557717 0.026508966
0.029495917 0.044382863 0.030381847
0.3658168 0.053797401 0.028625255
0.35217071 0.053437363 0.029462475
0.33415455 0.053518973 0.029270327
0.33243039 0.053528067 0.029317345
0.31922045 0.053738981 0.029232234
0.30161306 0.053915601 0.029242661
0.29625532 0.053976234 0.029264279
0.27997097 0.054126643 0.029111421
0.26171038 0.054193769 0.029002523
0.25887069 0.054247204 0.028964406
0.21863969 0.054882832 0.028951315
0.19514142 0.054970909 0.028845217
0.1444117 0.055250257 0.028256344
0.34461629 0.052852452 0.030130262
0.15486382 0.054315232 0.028937938
0.29898322 0.053443093 0.030252606
0.20815939 0.05424067 0.029639794
0.19205908 0.054463368 0.029658936
0.11216207 0.054824132 0.030306628
0.0081467554 0.056244083 0.02885481
0.00040146708 0.055894341 0.029737428
-0.010202065 0.056401666 0.028751507
-0.013332352 0.056458358 0.028769957
0.17626327 0.053961243 0.030330457
0.36134002 0.051737241 0.031952787
0.35766509 0.051891766 0.03206028
0.35316575 0.051856983 0.032036189
0.31693259 0.05220075 0.031816799
0.22131275 0.053266745 0.031584609
0.20536739 0.053183213 0.03127126
0.17328098 0.053474601 0.031104321
0.09877535 0.054547869 0.031216731
0.079911157 0.054563019 0.0308512
0.074516132 0.054554518 0.030750239
0.026492588 0.055159044 0.030708129
0.36474001 0.051274668 0.032909326
0.25572348 0.052281942 0.032480434
0.077337265 0.054052416 0.031685691
0.0050162673 0.054815188 0.031407837
0.12799154 0.053755872 0.03212706
0.095667861 0.054040395 0.0319978
0.27672824 0.051583584 0.033307239
0.14155832 0.052840434 0.032687619
0.23704448 0.05166804 0.034197297
-0.016275935 0.053432357 0.033910312
0.15673536 0.050868452 0.0350646
-0.021089699 0.05791064 0.044475123
-0.023559716 0.057906277 0.044471219
