# .PCD v0.7 - Point Cloud Data file format
VERSION 0.7
FIELDS x y z
SIZE 4 4 4
TYPE F F F
COUNT 1 1 1
WIDTH 1330
HEIGHT 1
VIEWPOINT 0 0 0 1 0 0 0
POINTS 1330
DATA ascii
0.0010879338 0.15537089 0.027179129
-0.0035369396 0.14283389 0.025047086
-0.0032083467 0.14192772 0.025442563
-0.00046838075 0.10778689 0.02037017
0.00075214356 0.096425772 0.019464716
0.0014457479 0.077198505 0.016819045
0.0017826371 0.076323211 0.017287567
-0.00094341859 0.059967041 0.014228672
0.0030037649 0.058794916 0.014992215
0.0020424537 0.058900058 0.014927484
0.00061545148 0.059013903 0.014809199
0.035363276 0.032729685 0.013307206
0.035222214 0.032001793 0.013879515
0.0037373193 0.035126209 0.011925377
-0.0011232197 0.035592437 0.011623815
0.00068730116 0.029117763 0.010046951
0.11276351 0.011027336 0.016124777
0.11241898 0.011035502 0.016074374
0.10070845 0.012222528 0.015372939
0.090188444 0.013285398 0.014778815
0.088436708 0.013436019 0.014638424
0.0010803826 0.02207607 0.0092380792
0.11312043 0.010264337 0.016774319
0.10103909 0.011417985 0.01596719
0.099906556 0.011555374 0.015922718
0.091870457 0.01230973 0.015379764
0.090317741 0.012496829 0.015347637
0.089425966 0.012616396 0.01533033
0.059889901 0.0092346072 0.012190424
0.059123527 0.0093221068 0.012151234
0.048494849 0.010387599 0.011516944
0.047783859 0.010434449 0.011450015
0.047439549 0.010468543 0.011424147
0.0052646659 0.0076188445 0.0083359405
0.004247278 0.0084555149 0.0076286793
0.0035322793 0.0084900856 0.007534869
-0.0023596361 0.14103633 0.02593983
-0.0030637681 0.14107871 0.025838889
-0.0014349967 0.14013588 0.026429564
0.022213146 0.11436999 0.024443544
-0.0017712563 0.11672068 0.022933319
-0.0035016388 0.11689693 0.022850342
0.028853387 0.11284828 0.02522736
-0.0010209978 0.10619497 0.02121599
-0.001452934 0.084570885 0.019181296
0.027479365 0.046916306 0.016273022
0.0028373227 0.049312353 0.01472155
0.0017392859 0.049429178 0.014644258
-0.0011729337 0.034800708 0.012168691
-0.00052291155 0.034711778 0.012159787
0.101666 0.010619879 0.016595535
0.10136915 0.010617316 0.016550481
0.093854666 0.011419535 0.016175888
0.093186304 0.011500299 0.016142763
0.091822803 0.011553407 0.015977204
0.049513303 0.0094789863 0.012119442
0.048957735 0.0095739365 0.012117177
0.047771845 0.0096895695 0.012053646
0.035758995 0.010846734 0.011280887
0.035131164 0.010935485 0.011284158
0.05749305 0.0079891086 0.013277151
0.050486431 0.0086395741 0.012759991
0.050164983 0.008649528 0.012721248
0.03655754 0.01000303 0.011897802
0.035820376 0.010107517 0.011892118
0.028681029 0.010821104 0.01147493
0.028079603 0.010903597 0.011451669
-0.0031021014 0.15243101 0.028452665
-0.0032714531 0.15159416 0.028790601
-0.0023214221 0.13938338 0.026754551
0.00086894631 0.13820481 0.027305439
-0.0020403191 0.13849759 0.027163319
-0.0031513423 0.13859499 0.027080163
0.031568609 0.1239087 0.027188554
0.031208999 0.12394977 0.027153157
0.03034278 0.12319475 0.027506433
0.031969629 0.11258382 0.025459588
0.031379633 0.11262035 0.025440335
-0.0018852875 0.11590791 0.023354433
-0.0036165267 0.11606556 0.023249939
0.031241626 0.11179101 0.025828891
0.029096715 0.11199874 0.025651515
0.028355993 0.11207098 0.025614843
-0.00094298273 0.11497265 0.023852102
-0.001610063 0.1045953 0.02204933
0.00011016428 0.094024718 0.020790331
-0.0016183592 0.083764017 0.019610241
0.0050763898 0.074424326 0.018524319
0.0036324449 0.07455492 0.018390678
0.0010449737 0.073979557 0.018698409
0.00072294101 0.07401216 0.018679909
0.029273484 0.045890272 0.016851209
0.026709009 0.046217203 0.016781189
0.0034277327 0.048495352 0.015297636
0.048201643 0.029184401 0.015821658
0.0031861141 0.03285706 0.013567954
0.0036762916 0.026547909 0.012002371
0.10160242 0.0098603368 0.017194889
0.093871512 0.010635674 0.016735345
0.074396893 0.012536883 0.015490606
0.064493239 0.013473749 0.014826223
0.073261976 0.011884451 0.016015388
0.0040652454 0.018666029 0.011675298
0.056502927 0.0073447824 0.013810776
0.050807867 0.0078678727 0.013409674
0.036865782 0.009203434 0.012509182
0.028785791 0.01006937 0.012069955
0.020532746 0.010820687 0.011508875
0.0014153682 0.012762368 0.010344848
-0.0030425638 0.15072405 0.029175989
-0.003365159 0.15075308 0.029157147
-0.0031453967 0.14987528 0.029558145
-0.0014015213 0.13757598 0.027571879
-0.002146259 0.13765424 0.027544029
0.00045039505 0.13655323 0.028049752
-0.0022141933 0.13680512 0.027907409
0.0014627203 0.12435681 0.026495382
-0.0010704994 0.11414909 0.024260953
-0.0025273934 0.11431181 0.024170734
-0.0011894517 0.09251684 0.021621779
0.0030490607 0.073005736 0.019339688
0.0013123378 0.073144794 0.019203648
0.0011732206 0.072360277 0.019672804
0.12472791 0.013133168 0.020739295
0.071945138 0.011271119 0.01652135
0.071233384 0.011330068 0.016479559
0.070355162 0.011434376 0.016437992
0.028904688 0.0093049407 0.012674309
0.020788416 0.010088682 0.012168817
0.014424153 0.010710776 0.011765376
0.02923765 0.00849545 0.013276815
0.02892061 0.0085321665 0.013265714
0.021403484 0.0092825294 0.012806281
0.021034908 0.0093335509 0.012809016
0.01436916 0.0099696517 0.012366429
0.0072934702 0.010660589 0.011928596
0.0067797415 0.010718763 0.011889681
0.0055633001 0.010778844 0.011735067
-0.0020170435 0.14805734 0.03033375
0.0016464069 0.13474077 0.028936818
0.00032567978 0.13572145 0.028452188
-0.0020836741 0.13596684 0.028309442
0.0005268231 0.10027349 0.024421573
-0.00012656301 0.10034281 0.0243949
0.00051476434 0.081185043 0.02129519
0.0014549531 0.080285192 0.02181381
0.00072855502 0.080362618 0.021782428
0.017987072 0.060364604 0.020402834
-0.0017202608 0.054483354 0.017779246
0.085294299 0.030256927 0.021039039
0.12482123 0.012365341 0.021315932
0.11516187 0.013239145 0.02062019
0.13628322 0.010403335 0.022521012
0.12602559 0.011484146 0.021967381
0.12512198 0.011575878 0.021897405
0.11544493 0.012466013 0.021224886
0.0031128116 0.023545325 0.014264494
0.070327051 0.010673225 0.017038882
0.0039111935 0.017181039 0.012833379
0.068834707 0.010036349 0.017485797
0.067945249 0.010118306 0.017414317
0.060414176 0.010900319 0.017033659
0.050432213 0.011893332 0.016378924
0.021411084 0.0085292459 0.013412558
0.014522597 0.00920403 0.012980685
0.0078167357 0.0098544359 0.01254236
-0.0023616329 0.14640427 0.031058669
-0.0032522827 0.13356 0.029415645
-0.00011341274 0.098671019 0.025227405
0.00061504915 0.070796072 0.020608187
0.00078503042 0.053431869 0.018467382
-1.758337e-05 0.052719474 0.018925689
0.026684999 0.042228281 0.01936654
0.031595927 0.034747958 0.018259265
0.0023055337 0.037568867 0.016338684
0.031569544 0.033966124 0.018805012
0.0025979206 0.036749184 0.016886979
0.0022234656 0.029837728 0.015726529
0.13371658 0.0099415779 0.022980712
0.12964278 0.010363519 0.022762194
0.12914616 0.01040864 0.022743814
0.12668042 0.01063627 0.022579007
0.11530577 0.01171428 0.02176328
0.0030431524 0.022786796 0.014826193
0.066845179 0.0094855428 0.017947227
0.058363359 0.010336459 0.017428458
0.051657591 0.010936141 0.016986795
0.003450457 0.015728772 0.014005944
0.029820871 0.006893158 0.014445186
0.014556658 0.008479178 0.01359731
0.0083387084 0.0090485811 0.013162576
0.0079236068 0.0090961456 0.013148196
0.014514178 0.0077155232 0.014193609
0.0082442723 0.0083194375 0.013754062
-0.0036622211 0.14483458 0.031736515
-0.0052460954 0.14582998 0.031287231
-0.001740776 0.1317035 0.030292228
-0.0029922873 0.13267529 0.029802352
-0.0033145025 0.13269937 0.029773384
-0.00073190033 0.09875232 0.025237545
0.00014662743 0.078781009 0.022670515
0.0015453361 0.069113255 0.02169662
0.022487078 0.049737215 0.020859204
0.00025054812 0.051902652 0.019445941
0.044332892 0.031949878 0.020144649
0.0017342307 0.028308094 0.016772792
0.13222232 0.0092577934 0.023408443
0.1318734 0.009308815 0.023391679
0.13048965 0.0094927549 0.023383625
0.12837338 0.0097052455 0.023246549
0.12730861 0.0098177195 0.02319999
0.12697184 0.0098443627 0.023168907
0.11705008 0.01075393 0.02242405
0.11584461 0.010862291 0.022344843
0.11526169 0.010935545 0.022339582
0.10396053 0.012036204 0.021624327
0.096228942 0.012820601 0.02116783
0.11765514 0.0099186897 0.023035049
0.11661927 0.010024607 0.022976384
0.11591485 0.010098636 0.022919826
0.10394509 0.011261761 0.022183493
0.096132934 0.012059808 0.021715499
0.0025488771 0.021301627 0.015943229
0.065947294 0.0088130832 0.018500328
0.057460867 0.0096197128 0.017920271
0.056738563 0.0096699595 0.017857447
0.055672094 0.0098198652 0.017848007
0.054610234 0.0099693537 0.017836109
0.053212028 0.010086358 0.017735235
0.052469261 0.010140419 0.017663799
0.053301107 0.0093438625 0.018349916
0.038987678 0.010684669 0.017369047
0.0088533536 0.0074987411 0.014382631
-0.001680471 0.13084871 0.030682646
-0.0015768185 0.12998229 0.031062298
0.00069022179 0.10647416 0.028152607
0.014810793 0.048903942 0.021394275
0.087108538 0.026892602 0.02327399
0.050328188 0.030561149 0.02104234
0.044639315 0.031123877 0.020699054
0.043387529 0.031252563 0.020641007
0.026403446 0.032905579 0.019525647
0.036527202 0.031158447 0.02076856
0.030577559 0.031725287 0.020376146
0.0016216375 0.034525871 0.01848761
0.0009609051 0.034559071 0.018422604
0.0016796589 0.027539611 0.017318815
0.11768943 0.0091522336 0.023621775
0.11689949 0.0091995001 0.023533918
0.10523675 0.010400772 0.022846624
0.10453348 0.010455847 0.022797979
0.10384977 0.010526419 0.022760019
0.096633881 0.011202812 0.022272833
0.096017338 0.011309803 0.022269607
0.0024809614 0.020529389 0.016482532
0.064028688 0.0075153112 0.019582808
0.038889062 0.0099537969 0.017962895
0.031537794 0.010674655 0.017521337
0.0029480867 0.013528109 0.015764311
0.011279114 0.12788099 0.032238208
-0.0014879704 0.1291604 0.031474061
-0.0016065687 0.12833124 0.031857185
0.00063880533 0.11687714 0.030119553
0.00025539845 0.11692601 0.030084252
8.5785985e-05 0.10486257 0.02896028
-0.0020755306 0.094720602 0.027286313
0.00056155398 0.08490783 0.025740653
-0.0009659417 0.074810207 0.024938688
-0.0014167167 0.074852645 0.024929479
-0.00077754259 0.049625337 0.020920843
0.086953297 0.032371461 0.025776051
0.00048685819 0.040889025 0.020417958
0.0011326559 0.033025861 0.019573264
0.13717298 0.012711406 0.02695363
0.001196906 0.026020169 0.018385902
0.11902621 0.0082894564 0.024328582
0.1090332 0.0092716813 0.023669764
0.10853142 0.0093015432 0.023636788
0.10766004 0.0093486309 0.023544528
0.10554469 0.0096053481 0.0234579
0.096698314 0.010432601 0.022849858
0.10615177 0.0087419748 0.023993112
0.10585033 0.0087692142 0.024004489
0.096621908 0.0096663833 0.023412153
0.0019837096 0.0190593 0.017600007
0.039421719 0.009173274 0.018629067
0.038836583 0.0092006922 0.018557146
0.031432215 0.0099292397 0.01809328
0.040937174 0.0082512498 0.019298591
0.040048081 0.0083492994 0.019243538
0.039555881 0.0083929896 0.019228764
0.031461377 0.0091364384 0.018660918
0.023957647 0.0099334121 0.018251479
0.023306489 0.0099998116 0.018206641
0.0024513826 0.012056649 0.016904183
-0.0097675845 0.00094133615 0.014138669
-0.0021775439 0.12667722 0.032573424
0.00076588243 0.11517137 0.03089153
-0.00049832463 0.10326236 0.029763468
-0.0026802048 0.093115985 0.028092012
0.015870161 0.081787288 0.027677558
0.00041739643 0.064911783 0.024180599
-0.0011689104 0.065350235 0.023965515
0.088945322 0.031387091 0.026424654
0.087581351 0.031518281 0.026351139
0.031796679 0.036988139 0.022870913
0.026874777 0.037503898 0.022589795
-0.0011039041 0.040293515 0.020854026
0.024312347 0.036924064 0.022873513
0.041645762 0.029109836 0.022182226
0.030361604 0.03019315 0.021462001
0.070303932 0.025479376 0.024503686
0.060344007 0.02645272 0.023858801
0.047706448 0.027695835 0.023089804
0.043749858 0.028053999 0.022790261
0.040596347 0.028407156 0.022651017
0.03617901 0.028830588 0.022350334
0.001018282 0.032290697 0.020137325
0.13924706 0.011663616 0.027559053
0.13846172 0.011748195 0.027500495
0.13815767 0.011778533 0.027517032
0.13672625 0.01199764 0.027496412
0.1356751 0.012089014 0.027433243
0.0973 0.008859098 0.024073817
0.096616805 0.0089141726 0.024017639
0.031900145 0.0083338022 0.019251227
0.024294805 0.0091098547 0.018817089
0.023212541 0.0092555881 0.018798098
0.010881845 0.010448217 0.017987579
0.010554984 0.010495245 0.017977647
0.0023698695 0.011311412 0.017493702
0.0024158284 0.1383121 0.034757592
-0.0023297369 0.12584198 0.032935701
0.025251687 0.099066854 0.032206804
-0.00096531957 0.10164678 0.030576371
0.00071816146 0.091994107 0.028807923
0.015310932 0.080172956 0.028525613
-0.0009903349 0.081782639 0.027457945
-0.0013386607 0.073215663 0.025850907
0.019103691 0.061676681 0.026102297
-8.3617866e-05 0.062780857 0.025431916
0.019999906 0.052144945 0.025525436
0.018027559 0.052386999 0.025465131
0.030743599 0.04413569 0.024453133
0.00028509647 0.046311677 0.023031458
0.085357815 0.030959666 0.02675271
0.036315605 0.035793424 0.023714676
0.035546709 0.035891175 0.023690157
0.031239238 0.035479188 0.023902625
0.029590871 0.03644532 0.023278378
0.02321443 0.037056923 0.022870451
0.022153255 0.036770105 0.023070425
-0.00010860339 0.038989007 0.021707058
-0.0008154735 0.039448142 0.021387845
0.09599711 0.022168338 0.026628412
0.036513694 0.027228832 0.0234368
0.15257163 0.0096190572 0.028991766
0.15156235 0.0096968412 0.028936602
0.15064998 0.009814322 0.028884493
0.14922637 0.0099546313 0.028805621
0.14848785 0.010035217 0.028764755
0.14727561 0.010102689 0.028624907
0.14655884 0.010190904 0.028625283
0.14520018 0.010352671 0.028559491
0.14353788 0.01050806 0.028443754
0.14054343 0.010825455 0.028291285
0.13950348 0.010912776 0.028197467
0.13837862 0.010990381 0.028063878
0.13702062 0.011167824 0.028072566
0.13458151 0.011384964 0.027894281
0.13333669 0.011542261 0.027848631
0.13279672 0.011609554 0.027857386
0.13192011 0.011719346 0.027816571
0.12978172 0.011896014 0.027658474
0.12552491 0.012340367 0.027408347
0.070927113 0.017669022 0.023928374
0.0010268129 0.024472892 0.019486137
0.1464522 0.0094266534 0.029174455
0.1456386 0.0095321536 0.029152062
0.1423825 0.0098346472 0.028905556
0.14135489 0.0099734068 0.028897628
0.14077853 0.01003176 0.028852865
0.12458635 0.011649966 0.027908109
0.049298529 0.019002318 0.023114204
0.021749698 0.021694005 0.021393761
0.00096109509 0.023713052 0.020039819
0.089162186 0.0089178085 0.024150975
0.087004133 0.0091418624 0.024040021
0.085916273 0.0091719031 0.023887254
0.085196555 0.0092518926 0.023840718
0.084347978 0.0093554258 0.023824073
0.083672985 0.0094740987 0.023840845
0.067466334 0.011066258 0.022808477
0.061213788 0.011679113 0.022442639
0.086262822 0.0084231496 0.024543211
0.082325689 0.0088441968 0.024328217
0.081247449 0.0089329481 0.024229877
0.080226414 0.0089783669 0.024109848
0.079463065 0.0090717077 0.024079248
0.078419775 0.0092125535 0.024049431
0.077746809 0.0092642307 0.024003617
0.074107245 0.0096111894 0.023753211
0.041617058 0.012806296 0.021740198
0.00140002 0.01678282 0.019244812
0.032746363 0.0075673461 0.019989997
0.026380319 0.0081652403 0.019560985
0.025097597 0.0082495213 0.01941485
0.024592113 0.0082762837 0.019383468
0.016961936 0.0091142058 0.019003697
0.016460977 0.0091627836 0.018973187
0.014352772 0.0093538761 0.018818676
0.0076272935 0.010014713 0.018407576
0.025525682 0.0074810386 0.020072438
0.018344037 0.0081612468 0.019601569
0.011225276 0.0088914633 0.019170821
0.0043810643 0.0095499754 0.018754773
0.0058872849 0.12336552 0.034290619
-0.0015305057 0.12406272 0.033739701
-0.0025978461 0.12417382 0.033675775
0.0046164542 0.12266594 0.034604453
-0.0023728982 0.12330604 0.034069709
0.0049029142 0.1114071 0.032785982
-0.0008148551 0.11197472 0.032414794
9.2111528e-05 0.10073537 0.031094059
0.0025702678 0.089283109 0.030171357
0.015193939 0.079373658 0.028968319
0.014154986 0.079488158 0.028933011
0.0010831654 0.080815852 0.028184898
0.015074637 0.078558505 0.029414706
-0.00144035 0.080187976 0.028352946
0.010052901 0.06098789 0.026551932
0.008650545 0.061124027 0.026462436
0.021517579 0.052049577 0.025715791
0.018126074 0.051565111 0.025958672
0.010974888 0.04370898 0.024749219
0.084813751 0.029425263 0.027764313
0.074317522 0.030490935 0.027167186
0.047116734 0.033145845 0.02543547
0.036888279 0.034115851 0.024740085
0.00019700825 0.037762821 0.022525527
-0.00023694709 0.037817597 0.022498079
0.083714627 0.028761804 0.028260998
0.08332862 0.028805852 0.028220013
0.032805305 0.033807278 0.025109589
0.02858191 0.034179747 0.024781391
0.023311395 0.034665644 0.024411939
0.010203302 0.035979033 0.023639992
0.0098778568 0.035992563 0.023586795
9.5903873e-05 0.036984384 0.023031257
0.094810888 0.020696282 0.02761814
0.084462643 0.021702945 0.026938695
0.072416812 0.022857547 0.026135281
0.069993861 0.023155987 0.026080824
0.048759185 0.025181293 0.024694376
0.03363217 0.026743531 0.023834959
0.00076479092 0.029969573 0.021762043
0.12322933 0.010966718 0.02831661
0.12107287 0.011179388 0.028197333
0.12048897 0.011259556 0.028165806
0.1200121 0.011291564 0.028125092
0.10489233 0.012746155 0.027129188
0.050310124 0.018126786 0.02371902
0.0033841729 0.022781432 0.020873263
0.0019168034 0.022913873 0.02076292
0.0015169941 0.022937 0.020726077
0.079417117 0.0082893968 0.024639323
0.076953128 0.0085882545 0.024534754
0.076167062 0.0086669326 0.02448047
0.074797265 0.0087426305 0.024352126
0.066303939 0.0096449852 0.02388794
0.065610752 0.0097121596 0.023838751
0.040837392 0.012115896 0.02225177
0.026080538 0.013598144 0.021375321
0.0015008934 0.016005218 0.019834965
0.017820392 0.0082376003 0.019608267
0.017280031 0.0083092451 0.01959043
0.010760613 0.008936584 0.019162357
0.0019200444 0.0098417401 0.018648572
0.011920251 0.0080429912 0.019805238
0.011371188 0.008105576 0.019760489
0.003288921 0.0089040995 0.019266039
0.0021971129 0.0090382099 0.019233666
0.00037337095 0.14801204 0.038011804
0.0013731942 0.14703619 0.03842622
0.0005434677 0.14714652 0.038387969
0.0038058907 0.1219005 0.034937367
0.0031407252 0.12195474 0.034881622
0.0025341064 0.12199247 0.034839965
0.0013985485 0.12212783 0.034795821
0.00045401603 0.12223315 0.0347239
-0.0014583394 0.12241495 0.034611374
0.0016854852 0.12124169 0.035187118
0.0012748763 0.12128675 0.035163209
-0.00088947266 0.12152153 0.035038024
-0.0019340962 0.12161279 0.034968369
-0.0025725588 0.12163788 0.034874573
0.0030948892 0.10990846 0.033479311
0.0083329529 0.10855287 0.034183048
-0.0014339238 0.10949826 0.033593029
-0.0018014088 0.10953319 0.03355027
-0.0010956973 0.099585831 0.031630784
-0.0014270917 0.10003245 0.031403996
0.0090532862 0.087872803 0.031092942
0.0016864948 0.088548243 0.030559286
-0.0001623556 0.088771224 0.030500621
-0.00077529252 0.088814318 0.030474298
0.014900796 0.077767789 0.02985952
-0.00062328205 0.079326451 0.028948069
0.01476204 0.07697612 0.030336604
0.0091929771 0.060260415 0.026963219
0.0088482387 0.060299158 0.026943155
0.0077996552 0.060405076 0.026893221
0.0064968653 0.060508847 0.026833601
-0.00028983131 0.061191499 0.026390679
0.0056818277 0.059784949 0.027261317
0.019816805 0.049789131 0.027061313
0.017778803 0.049979389 0.026906803
0.082516834 0.02808553 0.028692711
0.033456042 0.032936275 0.025678426
0.029214017 0.033314943 0.025354922
0.01051604 0.035194159 0.024245381
0.00046506524 0.036176503 0.023597442
0.095038004 0.019932806 0.028206371
0.00065096468 0.029201746 0.02228602
0.13032751 0.01571548 0.031028636
0.092984617 0.019268334 0.028528534
0.092124075 0.01935339 0.028472781
0.09145125 0.019456089 0.028496176
0.089670092 0.01966083 0.028397378
0.0893199 0.019696474 0.028373089
0.087910086 0.019773304 0.02821634
0.083926022 0.020207822 0.028003573
0.071188599 0.022205055 0.026636839
0.059928186 0.022544742 0.026505429
0.058500983 0.022742748 0.026478305
0.057617981 0.022807002 0.026398249
0.047636408 0.024545133 0.025189176
0.046837002 0.023863733 0.025718398
0.010653537 0.027392685 0.023435071
0.12217556 0.010297477 0.028806612
0.12146629 0.010359585 0.02875869
0.047583204 0.017625034 0.024139903
0.040220276 0.018366635 0.02370619
0.11307481 0.010359049 0.028697092
0.11233618 0.010446727 0.028679624
0.11128267 0.010571599 0.028640714
0.10949872 0.010740519 0.028524261
0.10863036 0.010801852 0.028429125
0.10247399 0.011424363 0.028071582
0.096487693 0.012042999 0.027747437
0.071345508 0.014495075 0.026139289
0.07099475 0.014542937 0.026121192
0.046623826 0.016954958 0.024630584
0.04624908 0.016991973 0.024622187
0.03246668 0.01830107 0.023689136
0.019763183 0.019569159 0.022935368
0.012007874 0.020328999 0.022456616
0.06477426 0.0090609193 0.024401866
0.064139992 0.0090763569 0.02431196
0.063044295 0.0091311336 0.024159744
0.051056717 0.010360777 0.023494102
0.050310366 0.010456741 0.023454323
0.049465079 0.010526836 0.023409747
0.032224882 0.012225926 0.022330262
0.024733536 0.012971222 0.021880932
0.01924701 0.013510823 0.021543607
0.013649948 0.014038861 0.021141753
0.0027051046 0.015075207 0.020431325
0.048333012 0.0098714232 0.023909472
0.047128983 0.0099593997 0.023795091
0.046236694 0.010044813 0.023736365
0.045006376 0.010184169 0.023659073
0.044615932 0.010221064 0.023648188
0.042537685 0.010431707 0.023537897
0.031243391 0.011565983 0.022844948
0.012903508 0.013360262 0.021677569
0.0020507649 0.14529854 0.039232612
0.001384601 0.14617902 0.038776167
0.0012921467 0.14492869 0.039329074
0.013228193 0.13126975 0.038025081
0.0068284869 0.10703683 0.034941666
0.0015582219 0.10837734 0.034197018
0.00065000355 0.10820574 0.034274802
-0.00043535233 0.10775298 0.034465253
-0.001291506 0.10832697 0.034171499
0.003667742 0.097861886 0.03255374
0.023267388 0.09510088 0.034208111
0.0027958974 0.09710753 0.032912731
0.0080311 0.087145984 0.03147012
0.00085740909 0.08780998 0.030947484
-0.00095030293 0.088011146 0.030884802
0.0071091503 0.086406231 0.031869836
-0.00016454235 0.087112546 0.031356975
0.01467596 0.076186776 0.030796073
0.011496253 0.075639725 0.031040072
0.01108126 0.075679302 0.031002998
0.0030153841 0.059266686 0.027577572
0.0023034438 0.05929774 0.027491137
0.00029907748 0.059497833 0.027396843
-0.00028488412 0.059555411 0.027358636
-0.0032518171 0.059858978 0.027181797
0.0040464029 0.058335066 0.028114013
0.0036627203 0.058371246 0.028106056
0.0021768287 0.0585168 0.02799876
0.0013795719 0.058568895 0.027915657
0.00032181665 0.058690429 0.027877755
0.017700136 0.04916507 0.027382262
0.0084750652 0.049307168 0.027391464
0.0076929964 0.049396396 0.027340248
0.0067958012 0.04947722 0.027273044
0.0013548732 0.050823689 0.026424475
0.0010518059 0.050843656 0.026404507
0.019304704 0.041283309 0.026298337
0.0092292912 0.042281091 0.02567175
0.0012094192 0.042271256 0.025679238
0.081599936 0.027356982 0.029127546
0.081070796 0.027405918 0.029087987
0.080010444 0.027540803 0.029041685
0.07224977 0.028337419 0.028623614
0.052809916 0.030186236 0.027338147
0.041479934 0.031300664 0.026609361
0.035156168 0.031924367 0.026236109
0.034460288 0.032016098 0.02623187
0.028220773 0.032629788 0.025812708
0.0081563741 0.034569144 0.024521187
0.074328095 0.02729851 0.029236998
0.067203164 0.028058767 0.028861318
0.066119507 0.028114498 0.028722458
0.038588252 0.030851543 0.027043514
0.0072191469 0.033877313 0.024994664
0.12913349 0.015039623 0.031464852
0.10261612 0.017545342 0.029672071
0.089943603 0.018868864 0.028985862
0.088133678 0.019003212 0.028800424
0.086901486 0.019098878 0.028709542
0.086022034 0.019231081 0.028700866
0.084982902 0.019327998 0.028626692
0.084009364 0.019438148 0.028577149
0.072229899 0.020582795 0.027843751
0.056316823 0.022146642 0.026852377
0.055296261 0.02222538 0.026757859
0.054537237 0.022303522 0.026715826
0.053125724 0.02245295 0.026634298
0.044658061 0.023334384 0.026156411
0.041463327 0.023591042 0.025900051
0.009698201 0.026730359 0.023939975
0.10130425 0.010778546 0.028568774
0.09920527 0.010985255 0.028449163
0.095112815 0.011429846 0.028241474
0.094436228 0.011513352 0.028211486
0.093232676 0.011552572 0.028053969
0.059603073 0.01490438 0.026007615
0.058546893 0.015032649 0.025979042
0.045519073 0.016283929 0.025142685
0.038447395 0.016930878 0.024625011
0.038101006 0.016958773 0.024583943
0.019727651 0.018780708 0.023489542
0.010581169 0.019694269 0.02293466
0.01015183 0.019756377 0.022908174
0.10017761 0.010114729 0.029064406
0.099487908 0.010191023 0.029038198
0.09208636 0.010874331 0.028531455
0.091588303 0.010960996 0.02852907
0.072400972 0.012862027 0.027349696
0.071558185 0.012909234 0.027256142
0.06166666 0.013910055 0.026650481
0.060782582 0.013941944 0.026550222
0.059747037 0.014074028 0.026530966
0.037327897 0.016266108 0.025099784
0.024259578 0.017599285 0.024362452
0.0079877451 0.01921618 0.02334892
0.003429234 0.019659698 0.023064591
0.047046661 0.0092246532 0.024381392
0.045091495 0.0094111562 0.024241805
0.043856401 0.0095276833 0.024179131
0.043134622 0.0096109509 0.024141893
0.037843861 0.010108411 0.023781799
0.036811128 0.010216057 0.02374313
0.036141235 0.010315001 0.02373451
0.035409972 0.01039654 0.023693159
0.030306667 0.010890245 0.023369379
0.023244765 0.011577964 0.022930235
0.017452318 0.012138188 0.022559769
0.011826709 0.012681901 0.022178359
0.0025677755 0.14443183 0.03965573
0.0026550218 0.14356142 0.040025823
0.0017291531 0.14363486 0.039948776
0.0013820082 0.14366686 0.039928213
0.0029360056 0.14265776 0.040381268
0.0015019104 0.095561266 0.033669397
0.0062767267 0.085666955 0.032243833
-0.0011740029 0.086387753 0.031747676
0.0098861381 0.0749982 0.031397164
0.015177835 0.065005779 0.030571796
0.017031681 0.05618763 0.029321536
0.016234145 0.055451334 0.029764213
0.0054545552 0.048812747 0.027682386
0.0042554773 0.048893988 0.027588747
0.029409494 0.038689852 0.027951844
0.028894171 0.038738847 0.027920365
0.027614307 0.03887701 0.027854137
0.026940249 0.038921118 0.027764454
0.024791252 0.039127886 0.027643025
0.015226092 0.040121853 0.027113155
0.007495001 0.040857315 0.026580766
0.007176958 0.040853202 0.02653297
0.084029466 0.032499492 0.031833626
0.033535395 0.037478745 0.028717782
0.029381935 0.037888527 0.028451726
0.0063565597 0.040123165 0.026966244
0.0060359649 0.040129066 0.026914887
0.07033363 0.026879191 0.029466715
0.038482547 0.030065119 0.02755842
0.032836344 0.030620575 0.027209789
0.0064109378 0.033186316 0.025491498
0.12835422 0.014342546 0.031973001
0.12797949 0.014378309 0.031925507
0.15448399 0.011678874 0.033478461
0.15206698 0.011923492 0.033353981
0.15164906 0.011970997 0.033325125
0.14947352 0.011804223 0.033441819
0.14701614 0.011661172 0.033596236
0.14616194 0.011759222 0.033551473
0.14558604 0.011823893 0.033551477
0.14378595 0.011964917 0.033398628
0.11895806 0.0151999 0.031284139
0.11805893 0.014512658 0.03179251
0.10874772 0.016192913 0.030637439
0.10781674 0.015485466 0.031113721
0.10140933 0.016107321 0.030688282
0.1009259 0.016151488 0.030657087
0.072783768 0.018979132 0.028982311
0.072431833 0.019828141 0.028450951
0.058714803 0.02112776 0.027542416
0.058132831 0.021209657 0.027516484
0.055888191 0.021419644 0.027372655
0.054886773 0.021469653 0.027264062
0.05377249 0.021603882 0.027211621
0.053404771 0.021654367 0.027184881
0.047762357 0.022170365 0.02681176
0.044877805 0.021693766 0.027216367
0.043907851 0.022613764 0.026651077
0.0085661523 0.026064217 0.024414591
0.0075527988 0.02618444 0.024370439
0.0062490106 0.025540829 0.024861112
0.0046126917 0.025692225 0.024752654
0.0025842935 0.02661407 0.023970999
0.08946082 0.011218429 0.028456829
0.058502421 0.014262736 0.026523374
0.057777103 0.01434058 0.026499275
0.093476534 0.010799706 0.028692536
0.090109393 0.010345221 0.029039003
0.089581244 0.010424614 0.029028099
0.08782053 0.010543406 0.028848913
0.082449272 0.011076748 0.028502896
0.081038162 0.011235952 0.028455354
0.075390443 0.011771917 0.028069254
0.074288674 0.011899292 0.028013609
0.073226191 0.011992037 0.027944155
0.072547644 0.012072802 0.027935758
0.063204259 0.013001978 0.027364761
0.062380463 0.013482273 0.027046688
0.061248165 0.013171613 0.027182616
0.05885949 0.014205277 0.026532568
0.05725731 0.014365137 0.026436381
0.056097243 0.013679445 0.026886605
0.055377979 0.013730884 0.02679792
0.04474334 0.015586197 0.02565005
0.043920808 0.014909744 0.026149362
0.036349613 0.015601516 0.025633212
0.029826418 0.016252518 0.025232494
0.023669947 0.017672122 0.024342366
0.022727907 0.016992807 0.024850979
0.017931312 0.017431974 0.024485268
0.009394601 0.01906991 0.023444593
0.0090403073 0.019119024 0.023437284
0.0083188415 0.019189119 0.023378387
0.0068685673 0.018546999 0.023823358
0.034130309 0.0097231865 0.024160676
0.028963573 0.010267794 0.023874328
0.016626649 0.011455476 0.023076512
0.010991957 0.012004256 0.022709757
0.01029934 0.012068093 0.022667043
0.027121667 0.0096080303 0.024237476
0.021702286 0.010161579 0.023933761
0.02102872 0.010214806 0.023860574
0.015306864 0.010812461 0.023552105
0.0087993369 0.011455774 0.023160592
0.0080826543 0.011511624 0.023070425
0.0072422586 0.011552274 0.022974305
0.0085358024 0.14124191 0.041047536
0.0076336265 0.14050287 0.041381158
0.0063303262 0.14060038 0.041301467
0.0058706328 0.14066511 0.04127527
0.0036204904 0.14117622 0.041002244
0.0028723553 0.14139229 0.04090786
0.005203329 0.10553819 0.035699025
0.00018437952 0.094019353 0.034422055
0.0049472526 0.084141314 0.033037782
0.0041340366 0.083401263 0.033438779
0.003842555 0.083416343 0.033432163
0.01352369 0.073000431 0.032526404
0.0084122419 0.073495507 0.032205373
0.0073563755 0.073610246 0.03214255
0.0038480461 0.073928356 0.031893484
0.002822604 0.0740183 0.031834327
0.0016110241 0.07414645 0.031772606
0.017185256 0.064018369 0.031193547
0.013274971 0.064389646 0.03092593
0.016440567 0.054652452 0.030284625
0.013644811 0.046424866 0.029203493
0.004308369 0.048093557 0.028107405
0.0030636825 0.048221111 0.028012082
0.0025409944 0.048269153 0.027973443
0.0011500455 0.047626138 0.028401591
0.00057658926 0.048218906 0.028030843
0.039166156 0.036104441 0.029546984
0.0052506104 0.039404631 0.027387813
0.0044951253 0.039508343 0.027367711
0.039508037 0.029096842 0.028069295
0.038980626 0.029180706 0.028064109
0.005601421 0.032476425 0.025978364
0.0050547719 0.032556295 0.025979005
0.0024117082 0.032830656 0.025840394
0.0040597841 0.031883717 0.026461571
0.12569362 0.013011515 0.032860924
0.099876702 0.0155195 0.031170513
0.072678894 0.01820755 0.029514842
0.05148882 0.020267129 0.028168708
0.051120572 0.020323753 0.028157994
0.05039781 0.020386696 0.028115984
0.015565738 0.023749471 0.025868841
0.0048628971 0.024899304 0.02531559
0.0045169219 0.024921298 0.025280699
0.0030747615 0.025024056 0.025134824
0.0027489513 0.025037825 0.025081962
0.10569528 0.014139891 0.032045979
0.077217095 0.010807037 0.028724052
0.076161779 0.010922909 0.028683662
0.064389803 0.012068033 0.027933303
0.063531741 0.012189746 0.027923547
0.054279264 0.013039529 0.027294487
0.042433888 0.014225066 0.026556436
0.035396375 0.014933228 0.026148833
0.016836237 0.016771913 0.024988316
0.0055490509 0.017853796 0.02424854
0.053309042 0.012388587 0.027813882
0.052213464 0.012551427 0.027795598
0.041472409 0.013535142 0.027054481
0.034657124 0.014247537 0.026673704
0.027235202 0.014992237 0.026234977
0.01589654 0.016094506 0.025481377
0.0042202026 0.017205954 0.02474989
0.0036817305 0.017289221 0.024733923
0.014342822 0.010116756 0.024047535
0.0059074387 0.010945439 0.02350951
0.0048773922 0.011047363 0.023463942
0.0041170903 0.011155188 0.023442261
0.0064913407 0.13974673 0.041674584
0.0050545633 0.13989002 0.041586876
0.0039124265 0.14001673 0.041490771
0.0062719807 0.13892961 0.042015117
0.0056987777 0.13895422 0.041963585
0.004185617 0.13912994 0.0418786
0.0031159222 0.13924366 0.041809879
0.0093173385 0.12574643 0.040432524
0.0083158612 0.11468786 0.038319595
0.0082854182 0.11386019 0.038703009
0.003262803 0.10407782 0.036384828
0.0063305497 0.092145741 0.035396505
-0.00084076077 0.093284786 0.034785621
-0.0013682544 0.093329847 0.034738891
0.0025786608 0.082707286 0.033764854
0.013446331 0.072176039 0.032992151
0.0088736676 0.072614312 0.032699309
0.0074198022 0.072764218 0.032596059
0.0063379742 0.072898984 0.032545343
0.0055713952 0.072959602 0.032515794
0.0046288371 0.073053837 0.032438993
0.0039444305 0.073098719 0.032343596
0.0028874613 0.073190272 0.032292686
0.0018429756 0.073292732 0.032224499
0.00074155256 0.07342118 0.032186694
-6.4484775e-06 0.073531151 0.032179669
0.013362851 0.071364462 0.033424519
0.0056127794 0.07212162 0.032947037
0.0015339032 0.073310912 0.032199569
-7.5474381e-05 0.072692513 0.03261314
0.01341309 0.062746704 0.031867601
0.013024382 0.062782168 0.031839237
0.012234416 0.062042415 0.032254808
0.010416165 0.062247097 0.032152005
0.0076878704 0.062502623 0.032005429
0.016361494 0.053865016 0.030793816
0.013826504 0.053714216 0.030888692
0.012456249 0.037973881 0.028456707
0.0033789799 0.038848996 0.027866527
0.0023000203 0.038980365 0.027817838
0.013103448 0.037134171 0.029023141
0.012766846 0.037165821 0.029011402
0.095481269 0.021264017 0.033185381
0.074237585 0.024117351 0.031277701
0.073137112 0.023441195 0.031739719
0.071804978 0.023615956 0.031734921
0.067846902 0.023945212 0.031394452
0.013121877 0.029350579 0.028028652
0.003055688 0.031197071 0.026924811
0.0018436164 0.031306863 0.026851442
0.116497 0.013086498 0.03276398
0.11533727 0.012381911 0.03318423
0.098368108 0.014100492 0.032180123
0.072576329 0.01703006 0.030305915
0.041109838 0.019720554 0.028608672
0.013934948 0.022381842 0.02689416
0.013224814 0.022459447 0.026853204
0.040504042 0.012867332 0.027552791
0.014456801 0.015470505 0.025958765
0.0018275082 0.15135872 0.044238232
0.008131817 0.12502217 0.040770978
0.0079824999 0.12418246 0.041106075
0.0059586391 0.11238891 0.039351743
0.0051424205 0.091002703 0.035951454
0.0043686256 0.090252638 0.03635582
0.0009092465 0.081193209 0.034463663
0.00058903545 0.081201732 0.034426603
0.013274308 0.070545018 0.033880748
0.013334595 0.069711924 0.034346245
0.014216572 0.061069489 0.032880925
0.013371725 0.061109364 0.032810777
0.0089317933 0.061571896 0.032540243
0.0084367469 0.06162262 0.032514367
0.016109865 0.052311599 0.031796694
0.015767232 0.052340448 0.031753227
0.012604553 0.052650511 0.031567473
0.011449847 0.051953912 0.031983104
0.016965602 0.0436818 0.03093512
0.011631079 0.044202089 0.030564018
0.010587506 0.036512613 0.02927307
0.13277599 0.016882479 0.03616409
0.13136956 0.017027676 0.036067687
0.092565551 0.020797253 0.033574425
0.090017259 0.021039665 0.033389214
0.070996366 0.022922099 0.032225545
0.070269525 0.022991896 0.032210018
0.066744611 0.023290157 0.031897746
0.065656766 0.023447216 0.031902261
0.049004097 0.025040209 0.030796707
0.044124704 0.025508881 0.030468687
0.013040639 0.028566182 0.028541666
0.073120564 0.015780032 0.031109441
0.027265973 0.020272553 0.028252561
0.062192459 0.016030729 0.030942909
0.039169263 0.012263 0.028074317
0.0063970685 0.1235075 0.041432437
0.0028768703 0.1238724 0.041199923
0.0014604628 0.12401229 0.041101851
0.011053704 0.11102414 0.040011395
0.0052725598 0.06112802 0.032793097
0.013988853 0.059449971 0.03380207
0.0051527284 0.060319662 0.033245523
0.0027323253 0.06051445 0.033066738
0.015893195 0.050711989 0.032740612
0.0099201463 0.051293015 0.032374952
0.010166179 0.043542862 0.030995157
0.067974225 0.022028983 0.032795019
0.066668838 0.022482157 0.032396827
0.064422488 0.02201277 0.032895915
0.063777462 0.022853076 0.03232307
0.063083634 0.022896051 0.032255266
0.061336163 0.023016632 0.032113425
0.051908623 0.02360791 0.031824961
0.051059511 0.023690701 0.031783339
0.045082387 0.024291515 0.031421185
0.043354325 0.024793446 0.030976363
0.061724611 0.022213876 0.032637984
0.049700364 0.023410082 0.031916544
0.043942124 0.02394861 0.031527817
0.037223965 0.024606705 0.03109666
0.0027706698 0.14869964 0.045330502
0.0021074787 0.1487636 0.045292754
0.00097606331 0.14888215 0.045218013
0.0078535303 0.12162554 0.042213164
0.01835224 0.086426377 0.038553011
0.014525089 0.057767808 0.034789875
0.014271032 0.058612704 0.034295689
0.015755579 0.049919903 0.03320381
0.0087495707 0.050602496 0.032776717
0.0072776973 0.050769627 0.03269117
0.066438675 0.020930469 0.033445224
0.079457834 0.1009478 0.045913078
0.07498274 0.1013875 0.045589391
0.075018384 0.10053974 0.04599759
0.0089048594 0.085714757 0.038848121
0.015513524 0.07563585 0.037594508
0.014836445 0.056909442 0.035261676
0.01550699 0.048337996 0.034168217
0.060332794 0.020745099 0.033595197
0.083709762 0.098838985 0.046934761
0.078784049 0.099338591 0.046657503
0.084234275 0.097984016 0.047412775
0.083774991 0.098011136 0.047367223
0.07875298 0.098522902 0.047061265
0.089267552 0.087225139 0.045819525
0.088941395 0.087255597 0.045803379
0.089103781 0.086415231 0.046216629
0.013575189 0.055401206 0.036137827
0.020979308 0.038441479 0.034123141
0.030776411 0.036680341 0.03523235
0.030438095 0.036711156 0.035216808
0.02090507 0.037676871 0.034640148
0.058274161 0.026278794 0.035897326
0.047005404 0.027393162 0.035208814
0.0836301 0.096342087 0.04812872
0.016353272 0.082439601 0.040546082
0.017800458 0.053377569 0.03733243
0.017279424 0.044865608 0.036151297
0.058252361 0.02546978 0.036396138
0.054674167 0.025853157 0.036213443
0.049034629 0.02639538 0.03585171
0.034907363 0.02779305 0.034971073
0.034622207 0.027789176 0.034930028
0.040494446 0.026452839 0.035841819
0.036599465 0.026849687 0.035607468
0.029383458 0.027552485 0.035166215
0.083556883 0.095502198 0.048519913
0.087649323 0.094268799 0.049189843
0.083402701 0.094676912 0.048888698
0.015737612 0.080830753 0.041333683
0.01475998 0.069902062 0.040609591
0.016465344 0.060388386 0.039535254
0.017927844 0.051740408 0.038274951
0.041468009 0.026404321 0.035950758
0.034414463 0.026262701 0.035999544
0.055187952 0.024204075 0.037260368
0.087865636 0.092849493 0.049846359
0.087466605 0.093453407 0.049568363
0.083232887 0.093855977 0.049281221
0.092928827 0.080970824 0.048864529
0.015196934 0.079219282 0.042156372
0.015043091 0.078404009 0.042565208
0.01742997 0.068799555 0.041198585
0.015235096 0.06904304 0.041072026
0.014761422 0.069082856 0.041043188
0.015156433 0.068217397 0.041505761
0.01791795 0.050098836 0.039206699
0.054640349 0.022666812 0.03824763
0.069795087 0.10542458 0.050637953
0.069898672 0.10367638 0.051341414
0.069167547 0.10377532 0.051333472
0.087947547 0.091705501 0.05035023
0.027408857 0.032206535 0.038033869
0.043653112 0.022908688 0.038016193
0.061463244 0.10454684 0.050888367
0.077126943 0.10212857 0.052150913
0.076945812 0.10129952 0.05251332
0.070654593 0.10273552 0.05174689
0.070104584 0.10280567 0.051721774
0.087326795 0.090078175 0.051094092
0.014171328 0.075146973 0.044172261
0.014065463 0.065845013 0.042739343
0.016715016 0.057081759 0.041361604
0.051864147 0.028167486 0.040534258
0.039877519 0.02937144 0.039814457
0.039162669 0.029452622 0.039796684
0.033156835 0.03004694 0.039432034
0.032246817 0.030143321 0.039377764
0.030004088 0.030326784 0.039197981
0.028157219 0.030511141 0.039057426
0.053697765 0.020372927 0.039717287
0.051875886 0.020561218 0.039639279
0.045627154 0.02117449 0.039255619
0.038184155 0.021926582 0.038820691
0.081121296 0.10006285 0.053218417
0.076851264 0.10044938 0.052877657
0.071265452 0.10100091 0.052532062
0.080959387 0.099232256 0.053585626
0.076716579 0.09961307 0.053256828
0.07127893 0.1001761 0.052959427
0.09135966 0.087982833 0.05215203
0.086779192 0.088421464 0.051831737
0.091208518 0.087146521 0.052506499
0.086906992 0.087555885 0.052210674
0.086602084 0.087596476 0.052204136
0.013343111 0.074385166 0.044547193
0.014094058 0.065014482 0.04317579
0.038062353 0.028750598 0.040226925
0.052154187 0.019746125 0.040167511
0.050418168 0.019913375 0.040053211
0.047200747 0.020168126 0.03980235
0.045301627 0.01961875 0.040250823
0.054769102 0.018658161 0.040812481
0.053497653 0.018795371 0.040740266
0.080803946 0.098404229 0.053946916
0.077131003 0.098723412 0.053672351
0.076621138 0.098752856 0.053624816
0.080671683 0.09755522 0.054300368
0.091140784 0.086310863 0.052876439
0.091543704 0.085417807 0.053262815
0.091172919 0.085475504 0.053277332
0.01538479 0.053896606 0.043064646
0.050857175 0.025842726 0.04195486
0.031803392 0.027769208 0.040847629
0.026755664 0.027426124 0.040962093
0.08059185 0.096705317 0.054658186
0.080438487 0.095858455 0.055012614
0.094846204 0.083420217 0.054290667
0.090912595 0.083778441 0.053990468
0.013522711 0.061735511 0.044886254
0.014480978 0.060808003 0.045401521
0.01376649 0.060888648 0.045348048
0.014939856 0.052281797 0.043912556
0.01542192 0.05138284 0.044359848
0.014865085 0.05145067 0.044335406
0.085225299 0.094559789 0.055683266
0.08484415 0.09460026 0.055681057
0.080674529 0.094957411 0.055351667
0.085297689 0.09365797 0.056024857
0.090775274 0.082927525 0.054364763
0.094518438 0.081772089 0.055053607
0.01616079 0.078454673 0.048943244
0.011835471 0.060272455 0.045683205
0.015447009 0.050586283 0.044842213
0.032086764 0.032120764 0.043917075
0.03102541 0.032193959 0.043825008
0.028266892 0.032495618 0.043664135
0.050899066 0.023446262 0.043467909
0.050244488 0.023490906 0.043419629
0.063750267 0.10601425 0.057128988
0.062779874 0.10612392 0.057065047
0.08525601 0.09237045 0.056554221
0.094434492 0.080373704 0.055686779
0.016897853 0.077531099 0.049369067
0.012590434 0.057681262 0.047026742
0.030605193 0.03140986 0.044277992
0.027150866 0.031778991 0.044075791
0.026278429 0.031063318 0.044517741
0.057452958 0.021202743 0.044895291
0.035893872 0.023343861 0.043579094
0.047444731 0.02139771 0.044786893
0.036202952 0.022477806 0.044054907
0.073307477 0.10414767 0.0579537
0.063786447 0.10514277 0.057460435
0.063615009 0.10433012 0.057814896
0.055094749 0.1051538 0.057259843
0.085176878 0.091129899 0.05712419
0.085399754 0.090293407 0.05756776
0.094877422 0.07919848 0.05621089
0.094487056 0.079235613 0.056201756
0.094895214 0.078356266 0.056608714
0.014924027 0.047405124 0.046693821
0.048784725 0.020425141 0.045318909
0.073525451 0.10162681 0.059148096
0.072309174 0.10254294 0.058593675
0.064821541 0.10333318 0.058221772
0.064299285 0.10338503 0.058194533
0.063630514 0.1034534 0.058149174
0.055220619 0.10401326 0.057741731
0.065429606 0.10237759 0.058565356
0.064666264 0.10248178 0.058552474
0.088452406 0.088287711 0.058495179
0.09490037 0.077063859 0.057189751
0.014959108 0.073554099 0.051315874
0.01484514 0.046588957 0.047142345
0.073421821 0.10077518 0.059479479
0.078877188 0.09940207 0.060179833
0.074406587 0.099817216 0.059884645
0.073818259 0.09988308 0.059862096
0.073280424 0.09994638 0.059830889
0.087908387 0.086613715 0.05919113
0.094898492 0.075800896 0.057776056
0.094889179 0.074975967 0.05818601
0.017909132 0.062321365 0.050783884
0.023661584 0.035656631 0.04753197
0.07422848 0.098993719 0.06022767
0.078322068 0.097169042 0.06111113
0.074318647 0.097703397 0.060762707
0.074075885 0.098161578 0.060582921
0.087923624 0.085764885 0.059534773
0.088291593 0.084912717 0.06000118
0.087954059 0.084914386 0.059928246
0.094755396 0.074169695 0.058589492
0.094789118 0.073320508 0.058991242
0.01709 0.061577559 0.051159777
0.016529266 0.0430879 0.048982874
0.030649547 0.034153879 0.048419755
0.021464456 0.035076857 0.047881089
0.021705359 0.03424722 0.048386339
0.082658798 0.095567405 0.061799373
0.078349568 0.096038759 0.0616013
0.082641311 0.094730794 0.062185016
0.092383325 0.083639622 0.060594678
0.08821661 0.084086955 0.060406685
0.092390217 0.082802474 0.060971275
0.016594082 0.050676167 0.05077618
0.016784079 0.049869776 0.051276267
0.016440969 0.049898863 0.051232874
0.040280819 0.031603992 0.050026853
0.052399404 0.022830188 0.049553752
0.048192702 0.023243487 0.049285464
0.046761196 0.023407578 0.049219828
0.038613979 0.024117768 0.048609897
0.052785095 0.021988392 0.050048172
0.041355204 0.023120046 0.049362
0.040910717 0.023194611 0.04935392
0.040292099 0.023231387 0.049306106
0.041156489 0.016381323 0.047876649
0.082671128 0.093908668 0.062593281
0.082796216 0.093068957 0.062980078
0.082498834 0.093087375 0.062947735
0.092116334 0.081159055 0.061741889
0.09439227 0.070841789 0.060153402
0.055350818 0.020913959 0.050658409
0.057259023 0.10569292 0.063849181
0.082587287 0.091366172 0.063661441
0.092221037 0.080298543 0.062148929
0.092084758 0.079460382 0.062516868
0.016380362 0.047430038 0.052543074
0.025006376 0.037371755 0.052325234
0.057544023 0.10477614 0.064191386
0.066966183 0.10294843 0.065070122
0.066216454 0.10302889 0.0650585
0.086822309 0.090114236 0.064307608
0.086788572 0.089286745 0.064674392
0.091586076 0.077823341 0.063220322
0.014953792 0.064348519 0.055773634
0.015778799 0.045839489 0.053391036
0.025301374 0.036487341 0.052769404
0.033273492 0.027395666 0.052391917
0.026617438 0.028024018 0.051926151
0.069438227 0.10103744 0.065967627
0.068563037 0.10143507 0.065836027
0.067706637 0.10179627 0.065641016
0.066968903 0.1021176 0.065432735
0.058022171 0.1029712 0.064843446
0.057088882 0.10309923 0.064836904
0.058550462 0.10206199 0.065215282
0.057837419 0.10213858 0.06517227
0.057142653 0.10222298 0.065152027
0.08674027 0.088405788 0.065008797
0.09130349 0.075307608 0.064329542
0.013399389 0.053609908 0.055159114
0.015626069 0.045034289 0.053822294
0.025667433 0.035633683 0.053235359
0.025157787 0.035687208 0.05319811
0.044478852 0.024638236 0.054003805
0.036285911 0.025464237 0.053517029
0.026547663 0.026397407 0.052860457
0.050600912 0.017338514 0.052816451
0.045503676 0.017034888 0.052982472
0.042781632 0.017304182 0.052832663
0.036762398 0.018691301 0.051929794
0.069367059 0.10016489 0.066304609
0.068600327 0.10027707 0.066288918
0.057698756 0.10127622 0.065504357
0.041380107 0.10294902 0.064544305
0.041053958 0.10297745 0.064537935
0.069190703 0.099333525 0.066618808
0.058720343 0.10039318 0.066020399
0.047746815 0.10144156 0.065322265
0.086090013 0.086775005 0.065676287
0.085946463 0.085930228 0.066017926
0.095979616 0.073155701 0.065379843
0.014707174 0.05264914 0.055674702
0.014927946 0.051793694 0.056103099
0.029177688 0.033664167 0.054381985
0.037241492 0.024548531 0.054026458
0.050721835 0.015705585 0.05377515
0.043299139 0.01647985 0.053359754
0.076206766 0.097800732 0.067394398
0.075745672 0.097840428 0.067387402
0.048563711 0.10053211 0.065713488
0.04626786 0.1007539 0.065568164
0.045551173 0.10081655 0.065515846
0.079771005 0.096632719 0.068030745
0.077012531 0.09683007 0.067792803
0.076437026 0.096909583 0.067752048
0.089864157 0.084418595 0.066764332
0.090234056 0.083358586 0.067193888
0.085734025 0.084219754 0.066712752
0.014264423 0.059363663 0.058173135
0.014349677 0.050162613 0.056902714
0.013578299 0.050270855 0.056875903
0.036447342 0.023808599 0.054456752
0.072041169 0.019477487 0.057122782
0.079831086 0.095752418 0.068375282
0.079856031 0.094894826 0.068721347
0.039549477 0.09884274 0.066139616
0.084301338 0.093594432 0.069322817
0.080463633 0.093959391 0.069072276
0.079691432 0.094059229 0.069049917
0.038701318 0.098075628 0.066431761
0.090078391 0.082092524 0.067692362
0.090100773 0.08124882 0.068060547
0.095709279 0.070657611 0.066485569
0.095800504 0.069774806 0.066855088
0.014437377 0.048449934 0.05767699
0.013717104 0.048545361 0.057670869
0.024698056 0.030015469 0.05637908
0.071208104 0.01875931 0.057551913
0.070013776 0.018061101 0.057962794
0.067506447 0.018237352 0.057707604
0.036982562 0.021264672 0.055836994
0.035110909 0.022311807 0.055306334
0.079549938 0.09320271 0.069370687
0.084047541 0.091904998 0.0699846
0.089974977 0.080388427 0.068374708
0.095664233 0.068911672 0.067193888
0.095721297 0.068027496 0.067548476
0.01308994 0.046933472 0.058464397
0.030947652 0.0285514 0.057208851
0.024928197 0.029156148 0.056859061
0.043081317 0.019838393 0.056682315
0.037393644 0.020397186 0.056301065
0.06557405 0.016818225 0.058545463
0.046461862 0.01872164 0.057398528
0.042180933 0.019141555 0.057115011
0.034790624 0.019900978 0.056698702
0.084197097 0.091031551 0.070341289
0.083863951 0.091071665 0.070327751
0.084453188 0.090116322 0.070653498
0.093257494 0.078373671 0.069336757
0.089675456 0.07867682 0.069050543
0.093097843 0.077535987 0.069685727
0.095397674 0.06639564 0.068271145
0.012081798 0.054536283 0.06047805
0.010980513 0.054656148 0.060406372
0.028634638 0.027961075 0.057493124
0.023438372 0.028468132 0.05716667
0.022432532 0.028518081 0.057067543
0.035510346 0.026431739 0.058355466
