# .PCD v0.7 - Point Cloud Data file format
VERSION 0.7
FIELDS x y z
SIZE 4 4 4
TYPE F F F
COUNT 1 1 1
WIDTH 1351
HEIGHT 1
VIEWPOINT 0 0 0 1 0 0 0
POINTS 1351
DATA ascii
-0.69763774 -1.0774326 0.022272898
-0.69622022 -1.0781264 0.022322886
-0.73809481 -1.0568519 0.020959366
-0.73160845 -1.0493393 0.019828476
-0.69859314 -1.0663288 0.020826511
-0.69910824 -1.0563364 0.019335538
-0.69751191 -1.057114 0.019403309
-0.69815475 -1.0470942 0.018050089
-0.69847202 -1.0460591 0.018530235
-0.69653308 -1.0470095 0.018625865
-0.70019102 -1.0362843 0.016761767
-0.69922775 -1.0367689 0.016837155
-0.69819617 -1.0372884 0.016897701
-0.80233914 -0.97805464 0.011324267
-0.69898605 -1.0281403 0.015675651
-0.69802189 -1.0286111 0.015726624
-0.85278755 -0.95273405 0.0097523518
-0.6993587 -1.0270978 0.016190244
-0.83676195 -0.95259118 0.0088854181
-0.83459127 -0.95361638 0.0089634638
-0.81986153 -0.95291364 0.0083249044
-0.70068836 -1.0107242 0.013396734
-0.82050276 -0.95175672 0.008852331
-0.81831324 -0.95283175 0.0089503238
-0.69801617 -1.0111583 0.014064806
-0.6976251 -1.0113472 0.014074784
-0.8055793 -0.95198494 0.0078776069
-0.80458671 -0.9524653 0.0079124728
-0.69722277 -1.0045527 0.012486264
-0.80302727 -0.95241278 0.008570442
-0.78852463 -0.95246899 0.0078342743
-0.78562874 -0.95297164 0.0084220786
-0.7381143 -0.97603393 0.010472422
-0.69795543 -0.99555588 0.012232283
-0.77399796 -0.9516874 0.0077656768
-0.69864786 -0.98820758 0.0109403
-0.76170254 -0.95070189 0.0072718072
-0.75821227 -0.95237958 0.0074098865
-0.75725168 -0.95284969 0.0074629635
-0.70325214 -0.97904038 0.009752173
-0.74636614 -0.95122916 0.0071467925
-0.74376762 -0.95249075 0.0072392495
-0.70338792 -0.97208303 0.0089595011
-0.70022535 -0.97361934 0.0090997927
-0.73497868 -0.9506405 0.0063316389
-0.733733 -0.95124692 0.0063978089
-0.73058879 -0.95198655 0.0071660774
-0.72950327 -0.95252776 0.007229737
-0.70266658 -0.96549392 0.0083173765
-0.70064569 -0.96725088 0.0077374997
-0.70258105 -0.95949697 0.0072364653
-0.70822275 -0.95070142 0.0060900608
-0.7059654 -0.95178246 0.0061790552
-0.70377415 -0.95281017 0.0062337159
-0.70275837 -0.95328867 0.0062380675
-0.69825077 -1.0868957 0.024392903
-0.69864488 -1.0857847 0.024806272
-0.69808471 -1.0754194 0.023169151
-0.7393176 -1.0553595 0.02135893
-0.72981387 -1.0599637 0.021734523
-0.69987231 -1.0639148 0.021708703
-0.69859564 -1.064548 0.02177345
-0.81604791 -0.99696898 0.015751794
-0.72543842 -1.0408525 0.019510826
-0.69660527 -1.0549124 0.020919546
-0.69973618 -1.0445697 0.018968787
-0.80062842 -0.98596483 0.013726608
-0.85096836 -0.95278215 0.010382237
-0.84963512 -0.95343071 0.010435274
-0.84830445 -0.95403004 0.010429757
-0.83239031 -0.95305037 0.010200984
-0.78859812 -0.97424638 0.012019143
-0.69830769 -1.0180404 0.015843334
-0.81680328 -0.9527148 0.0095916381
-0.81584609 -0.95318013 0.0096236104
-0.70116878 -1.0009799 0.013470546
-0.69924623 -1.0018997 0.01353817
-0.70213723 -0.99268377 0.01260893
-0.77247488 -0.9516021 0.0084197652
-0.77149391 -0.95205021 0.0084387464
-0.76964104 -0.95301825 0.0086072143
-0.75862914 -0.95138597 0.0080172662
-0.7558254 -0.95273697 0.0081406552
-0.70054328 -0.97874659 0.011111595
-0.72761559 -0.95267189 0.0079664532
-0.71666998 -0.95185864 0.0072780862
-0.71578354 -0.95230287 0.0073539549
-0.70115137 -0.95939803 0.0079466766
-0.7039988 -0.95119083 0.0075739967
-0.70075303 -0.95277011 0.0076980963
-0.74368501 -1.0620505 0.023700044
-0.69902015 -1.0740845 0.023600854
-0.70040321 -1.0627596 0.022153331
-0.69700867 -1.0644318 0.022316605
-0.69971555 -1.0525213 0.021221161
-0.69882458 -1.0529449 0.02125176
-0.69781727 -1.0534447 0.021327514
-0.69690061 -1.0538739 0.021377428
-0.80607915 -0.98240751 0.013940771
-0.80197299 -0.98439628 0.014118111
-0.69765604 -1.0349294 0.018447354
-0.80953884 -0.97989386 0.014362624
-0.80699587 -0.98111665 0.014427228
-0.80027384 -0.98439318 0.014777139
-0.69909197 -1.0255163 0.017270336
-0.84743345 -0.95275289 0.011574822
-0.84617645 -0.9533143 0.011549223
-0.84492004 -0.95395207 0.011633438
-0.84268808 -0.95507157 0.011758389
-0.7951197 -0.97809792 0.013732282
-0.69937295 -1.0245287 0.017784473
-0.83053118 -0.95308721 0.010816254
-0.78712153 -0.97411048 0.012629379
-0.70024377 -1.0162381 0.016286079
-0.698708 -1.0169923 0.016372385
-0.81368285 -0.95254993 0.010824095
-0.8126837 -0.95301545 0.010861911
-0.81177181 -0.95345372 0.0108942
-0.70066464 -1.007378 0.015649248
-0.69968748 -1.0078562 0.015698358
-0.69872558 -1.0083096 0.015724339
-0.79973155 -0.95231533 0.0098337159
-0.69909137 -1.001147 0.014116081
-0.70096034 -0.99941361 0.01464753
-0.7870999 -0.95070451 0.0096618496
-0.78577328 -0.95130199 0.0096554663
-0.69935572 -0.99323052 0.013337388
-0.78302228 -0.95176721 0.010294546
-0.78177184 -0.95241767 0.01039256
-0.76999408 -0.95200038 0.0091535058
-0.76507807 -0.95356792 0.0099556465
-0.70199049 -0.98499858 0.012036107
-0.6989255 -0.985645 0.012747994
-0.75594753 -0.95106465 0.0093502421
-0.70346868 -0.97656536 0.011635216
-0.70086074 -0.9777931 0.011713523
-0.74425757 -0.95066833 0.0084731532
-0.74303102 -0.95127064 0.0085330708
-0.70067835 -0.97181278 0.010338495
-0.7035017 -0.9635632 0.0095952591
-0.71804959 -0.95042992 0.0078921542
-0.71706855 -0.9509064 0.0079256874
-0.71423984 -0.95229614 0.0080734231
-0.71278214 -0.95223385 0.0087961024
-0.70326298 -0.95684546 0.0092098461
-0.737252 -1.0643103 0.024451485
-0.69856906 -1.0831398 0.026168544
-0.69760305 -1.0836014 0.026198018
-0.7454989 -1.0594116 0.024571218
-0.73794675 -1.0630419 0.024840578
-0.73768514 -1.0534551 0.022798587
-0.73203087 -1.0561377 0.022935621
-0.6974079 -1.0721825 0.025052683
-0.6982159 -1.062052 0.023200942
-0.72642553 -1.0474232 0.022434518
-0.80626005 -0.99027234 0.015935751
-0.69915199 -1.0422243 0.020491505
-0.69720745 -1.0431724 0.020589545
-0.81104231 -0.98705 0.016184213
-0.80946344 -0.98779619 0.01623291
-0.80856907 -0.9882282 0.01628821
-0.69752187 -1.0421503 0.021077
-0.80986178 -0.97795302 0.015306271
-0.69989967 -1.0312576 0.019939721
-0.69924521 -1.0324171 0.019395713
-0.69773197 -1.0322753 0.019968944
-0.84815323 -0.95157975 0.012109447
-0.84402835 -0.95266378 0.012718843
-0.84335959 -0.95389837 0.012274422
-0.79608989 -0.97678941 0.01424258
-0.79361367 -0.97797143 0.014346777
-0.69974935 -1.0226334 0.018839477
-0.69840324 -1.0154407 0.01746583
-0.81025743 -0.95335644 0.011541248
-0.69711304 -1.0082461 0.016349245
-0.78046709 -0.95307356 0.010501801
-0.73766685 -0.97380221 0.012284702
-0.70034409 -0.99191749 0.013868442
-0.72789949 -0.97772688 0.013285443
-0.70188498 -0.98342532 0.013251531
-0.75449753 -0.9509697 0.010045214
-0.75221962 -0.9521246 0.010214167
-0.7013129 -0.9767794 0.012304148
-0.73939764 -0.95139813 0.0098864716
-0.72559112 -0.95206028 0.0093229841
-0.72634566 -0.95094901 0.0099613182
-0.72413301 -0.95197541 0.009987928
-0.69989479 -0.96369439 0.0109843
-0.70174325 -0.95682174 0.0099238139
-0.69782305 -1.0941494 0.028165121
-0.73146498 -1.0653899 0.02570907
-0.74257195 -1.0599235 0.025135618
-0.73974502 -1.0603408 0.025604108
-0.73878729 -1.0607946 0.025635134
-0.73378175 -1.0642329 0.025572725
-0.69798237 -1.0710115 0.025478937
-0.69893652 -1.0696359 0.025885411
-0.69763702 -1.0702773 0.025947168
-0.6963985 -1.0708877 0.026018068
-0.6991356 -1.0598171 0.024147041
-0.72420537 -1.0467236 0.023477446
-0.69752991 -1.0597088 0.024656098
-0.69748753 -1.0500754 0.023272213
-0.6965645 -1.0505213 0.023308009
-0.80687231 -0.98821616 0.01691078
-0.81043792 -0.98560643 0.017246142
-0.80882317 -0.98636776 0.01727863
-0.80405188 -0.98873031 0.017538546
-0.8073709 -0.97923714 0.015500041
-0.70086956 -1.0308233 0.019952029
-0.8026197 -0.98063791 0.01617066
-0.80105275 -0.98137999 0.016224308
-0.79713428 -0.97541773 0.014740676
-0.79193807 -0.97796315 0.014996585
-0.79102516 -0.97841835 0.015061948
-0.70006585 -1.021632 0.019370619
-0.82652116 -0.95248324 0.012615664
-0.70039672 -1.013638 0.017954964
-0.82718843 -0.95130759 0.013133896
-0.81126893 -0.95120919 0.012619821
-0.80981517 -0.95188701 0.01267625
-0.79828447 -0.95054024 0.011633087
-0.79575026 -0.95174539 0.011737105
-0.79450083 -0.95239145 0.011836573
-0.79265594 -0.95247096 0.012509044
-0.73100835 -0.98235184 0.015090656
-0.77963579 -0.9518252 0.011697482
-0.76769024 -0.95070297 0.011095408
-0.76676428 -0.95117265 0.011141793
-0.76580101 -0.9516232 0.011148911
-0.70228356 -0.98241973 0.013845676
-0.69917488 -0.98310548 0.014571462
-0.75288874 -0.95097846 0.010773003
-0.75142664 -0.95089674 0.011479278
-0.75069702 -0.95205975 0.010872714
-0.69824308 -0.97746974 0.013088731
-0.73500872 -0.95277447 0.010778083
-0.7248559 -0.950845 0.010633321
-0.7226665 -0.95189643 0.010681468
-0.70032132 -0.96274167 0.011667172
-0.70033926 -0.9567197 0.010623269
-0.70156467 -0.95007539 0.009675459
-0.75331664 -1.065371 0.026650209
-0.75241137 -1.0658089 0.026687715
-0.69809479 -1.0921957 0.029018154
-0.69681674 -1.092822 0.029069796
-0.7536177 -1.0643109 0.027056761
-0.75046831 -1.0658001 0.027140254
-0.69910818 -1.0801718 0.027473912
-0.69812167 -1.0806589 0.027517913
-0.69751245 -1.0809574 0.027550647
-0.74092615 -1.0589104 0.026076425
-0.7333563 -1.0626091 0.026429836
-0.73143321 -1.0635934 0.026586825
-0.73375756 -1.0517941 0.024816927
-0.73092425 -1.0522306 0.025339134
-0.69590819 -1.0596163 0.025193509
-0.69785172 -1.0490175 0.023750689
-0.81138265 -0.98427552 0.017700117
-0.69979453 -1.0383521 0.022374343
-0.69794965 -1.0392934 0.022534162
-0.6969316 -1.0398098 0.022603041
-0.80706131 -0.97675186 0.017031496
-0.80454755 -0.977997 0.017144512
-0.80360806 -0.97928673 0.016643181
-0.79946589 -0.98128539 0.016809085
-0.7985127 -0.98175406 0.016857095
-0.7974391 -0.9823209 0.016983235
-0.84055156 -0.95267892 0.013992975
-0.83899021 -0.95257914 0.014565377
-0.83836389 -0.95367956 0.014006246
-0.79491198 -0.97480011 0.015920522
-0.79329729 -0.97556078 0.015954096
-0.69985414 -1.0200325 0.02046947
-0.69784772 -1.0218431 0.019988202
-0.82433081 -0.95181578 0.013776646
-0.69729602 -1.0134242 0.019149046
-0.80785739 -0.95201302 0.01332958
-0.70142305 -1.0036365 0.017845673
-0.79365659 -0.95113224 0.013020119
-0.72655535 -0.98363125 0.015787244
-0.70148599 -0.99584258 0.016942298
-0.70222914 -0.98852193 0.015539971
-0.7772063 -0.95136511 0.012998981
-0.69906074 -0.98923272 0.016273377
-0.76219499 -0.95171964 0.012503784
-0.70212805 -0.98087305 0.015072899
-0.69953376 -0.98212498 0.015159153
-0.74870169 -0.95140123 0.012177158
-0.70067674 -0.97469783 0.014208276
-0.69805038 -0.97594899 0.014302181
-0.73554939 -0.95092201 0.012012324
-0.70302498 -0.96665788 0.013324868
-0.70150697 -0.96741647 0.013417441
-0.6999315 -0.96820956 0.013525639
-0.70176631 -0.9612745 0.012244998
-0.71349216 -0.94955128 0.010723343
-0.71249044 -0.95005322 0.010783969
-0.70937043 -0.95157582 0.010925111
-0.70782602 -0.95155388 0.011647098
-0.70243692 -0.9541418 0.011842489
-0.74784487 -1.0652362 0.028059211
-0.69639546 -1.0902914 0.030370602
-0.74155307 -1.0577247 0.026523173
-0.73939019 -1.0587173 0.026532087
-0.73808396 -1.0593466 0.026562806
-0.73716569 -1.0597765 0.026594767
-0.73624015 -1.0602406 0.02665207
-0.73494804 -1.0608932 0.026743235
-0.70061123 -1.0776461 0.028320381
-0.73522055 -1.0598385 0.027152304
-0.69891834 -1.0678661 0.026806865
-0.69663328 -1.0689723 0.026904851
-0.69849879 -1.0574783 0.025645394
-0.69746846 -1.0579729 0.025654385
-0.72609353 -1.0431371 0.024807945
-0.69815475 -1.0479953 0.02422389
-0.81582892 -0.98035491 0.018495897
-0.80597812 -0.98513019 0.018925659
-0.6982255 -1.038258 0.022980805
-0.85377955 -0.95328683 0.015627921
-0.80553532 -0.9766556 0.017657673
-0.80144763 -0.97860104 0.017787809
-0.79974306 -0.9794361 0.017841499
-0.83620447 -0.9530077 0.015181576
-0.78916281 -0.97588766 0.017276084
-0.82282364 -0.95170045 0.014398064
-0.82149184 -0.95236599 0.014445172
-0.69796056 -1.0122626 0.019680375
-0.81997472 -0.95224994 0.015076299
-0.80412865 -0.953013 0.014096403
-0.69704974 -1.0049322 0.018614946
-0.80567312 -0.95139623 0.014552863
-0.69927984 -1.0029944 0.019061873
-0.69836354 -1.0034494 0.01911046
-0.7917583 -0.95124936 0.013699375
-0.72445834 -0.98385286 0.016510902
-0.69838011 -0.99651444 0.01764198
-0.78993326 -0.95131177 0.014363786
-0.74363333 -0.97374582 0.016294841
-0.73978633 -0.97556913 0.016413614
-0.73850107 -0.97619045 0.01646197
-0.72287714 -0.98380435 0.017171387
-0.7203182 -0.98505151 0.017294312
-0.69870567 -0.99552488 0.018208232
-0.77575094 -0.95124078 0.013614656
-0.72685099 -0.97496724 0.015690207
-0.762559 -0.9507308 0.013077993
-0.75937712 -0.95146322 0.013814954
-0.69995421 -0.9811148 0.015754256
-0.74382061 -0.95214361 0.013596945
-0.73626691 -0.94977373 0.012590658
-0.7337603 -0.95100194 0.012722179
-0.73215067 -0.95178062 0.012775916
-0.70217967 -0.96029806 0.012882199
-0.72233909 -0.9497239 0.012656271
-0.70958298 -0.9499374 0.01223186
-0.70097816 -0.95408922 0.01258515
-0.70005196 -0.95455509 0.012640236
-0.74941593 -1.0636234 0.028527774
-0.69698125 -1.0891043 0.030786173
-0.74434996 -1.0651135 0.029065613
-0.69947368 -1.0869997 0.031111406
-0.69856393 -1.0874318 0.031154048
-0.69760543 -1.087888 0.031173987
-0.70090771 -1.0756868 0.029190311
-0.69584113 -1.0781556 0.029393246
-0.69705874 -1.0766647 0.029788479
-0.69886804 -1.0660998 0.027722452
-0.73309642 -1.0485231 0.026662812
-0.69723165 -1.0659996 0.028253974
-0.69596934 -1.0665976 0.028303029
-0.69718403 -1.0467063 0.025245089
-0.69621205 -1.0471728 0.025283981
-0.69939691 -1.0447413 0.02562358
-0.69843185 -1.0452222 0.025678724
-0.69748777 -1.0456829 0.025719987
-0.81110096 -0.98180288 0.019243676
-0.80626392 -0.983257 0.019910282
-0.7005381 -1.0344365 0.024282571
-0.69859433 -1.0354192 0.024415731
-0.85439289 -0.95206547 0.016050758
-0.80392575 -0.97657281 0.018223453
-0.80234474 -0.97730964 0.018254258
-0.8528505 -0.95199692 0.016701385
-0.69745916 -1.0272893 0.023210999
-0.83902395 -0.95084524 0.015635096
-0.83688849 -0.95183194 0.015696429
-0.83400232 -0.95242232 0.016405547
-0.69960064 -1.0184461 0.021549467
-0.69802248 -1.0191953 0.021597007
-0.82062227 -0.95108771 0.015585181
-0.81845987 -0.95214093 0.015703296
-0.81751961 -0.95257878 0.015728842
-0.69768959 -1.0107079 0.020816727
-0.80413955 -0.9513256 0.015194975
-0.80067068 -0.9529618 0.015297531
-0.78673095 -0.95194954 0.014958503
-0.70070022 -0.99373168 0.018691236
-0.77766609 -0.94949299 0.014134739
-0.77421367 -0.95114893 0.014261492
-0.77318454 -0.95162642 0.014280155
-0.70239282 -0.98598218 0.017311623
-0.77170789 -0.95152342 0.014936846
-0.73746371 -0.96817583 0.016440632
-0.69835925 -0.98709267 0.018057439
-0.75983441 -0.95043266 0.014407077
-0.69981021 -0.97955191 0.016968831
-0.74740458 -0.9496243 0.014085446
-0.74607188 -0.95027316 0.014138801
-0.70307094 -0.97114205 0.015978545
-0.70152259 -0.97188866 0.016050894
-0.69993746 -0.97265863 0.016106192
-0.73426241 -0.94918013 0.013965724
-0.73073131 -0.95169705 0.013486605
-0.70137262 -0.96587348 0.014655042
-0.74832714 -1.0614253 0.029858543
-0.69908822 -1.0853596 0.031975027
-0.73985529 -1.0549363 0.028363226
-0.70004559 -1.063743 0.028598396
-0.69786769 -1.0647954 0.028686238
-0.7266919 -1.0497893 0.027775617
-0.69774169 -1.0551956 0.02713358
-0.72504193 -1.040992 0.026267586
-0.69906163 -1.0536599 0.027536783
-0.80969781 -0.99035209 0.021416783
-0.69925678 -1.0341995 0.024856323
-0.69871694 -1.0258108 0.023670061
-0.84771794 -0.95266247 0.017830014
-0.83218217 -0.95244825 0.017014185
-0.70028073 -1.0163919 0.02256589
-0.69931048 -1.0168642 0.022615565
-0.81904954 -0.9510085 0.016206514
-0.81531662 -0.95197082 0.016930984
-0.69830686 -1.0087101 0.021898508
-0.70166647 -0.99933231 0.020666348
-0.69971395 -1.0002723 0.020723501
-0.78746784 -0.95081359 0.015592122
-0.72719574 -0.98003381 0.018140923
-0.69850701 -0.99396276 0.019370919
-0.78467858 -0.95127904 0.016200421
-0.73115283 -0.94988948 0.014729127
-0.72995448 -0.95048296 0.014778837
-0.72867846 -0.95110458 0.014834427
-0.70389795 -0.96310586 0.015875755
-0.71842247 -0.95004857 0.014104443
-0.70190918 -0.95807236 0.014807094
-0.70762241 -0.94933152 0.013630776
-0.70537955 -0.95039403 0.01369743
-0.70311153 -0.95148528 0.013772393
-0.69913405 -1.0623862 0.029555384
-0.69785589 -1.0630075 0.029608518
-0.72324359 -1.0496566 0.028822407
-0.69870317 -1.0520575 0.028480696
-0.69747138 -1.0439245 0.026698804
-0.69778615 -1.0428774 0.027152328
-0.70141888 -1.0322773 0.025271401
-0.70047539 -1.0327317 0.025296889
-0.69955361 -1.0331665 0.025329996
-0.69767803 -1.0341135 0.025462467
-0.85032952 -0.95148128 0.017840918
-0.8483839 -0.95153999 0.018423125
-0.69846427 -1.0241989 0.024708718
-0.83403659 -0.95063698 0.017407626
-0.83189929 -0.95172608 0.017571263
-0.7852301 -0.97352237 0.020113854
-0.83252984 -0.95055521 0.018061031
-0.82997143 -0.95179415 0.018169532
-0.82865906 -0.95244867 0.018208336
-0.6964668 -1.0165393 0.023813164
-0.69976586 -1.0071654 0.022391498
-0.69872487 -1.0076654 0.022423206
-0.79921722 -0.95113719 0.017034488
-0.79800808 -0.95172906 0.017108709
-0.70002729 -0.9992823 0.021284092
-0.69820422 -1.000158 0.021357108
-0.69719636 -1.0006479 0.021400034
-0.78536636 -0.95012629 0.01677718
-0.78288031 -0.95134354 0.016880821
-0.73082215 -0.97662365 0.019116905
-0.72502708 -0.979375 0.019322237
-0.70051634 -0.99132591 0.020409729
-0.77031529 -0.94972754 0.016762709
-0.76846355 -0.9506883 0.016920505
-0.76651967 -0.95160669 0.016957903
-0.69948709 -0.98409092 0.019786123
-0.757146 -0.95009637 0.015718933
-0.75466681 -0.95049328 0.01643266
-0.75241739 -0.95162171 0.016578311
-0.70157683 -0.97624427 0.018689286
-0.69904339 -0.97749591 0.018834708
-0.74245274 -0.95042002 0.015532294
-0.74111682 -0.95103604 0.015520312
-0.74217552 -0.94976765 0.01617774
-0.70083737 -0.96980888 0.017923947
-0.69925123 -0.97058356 0.017990259
-0.71886742 -0.94905388 0.014718885
-0.71690589 -0.94999099 0.014794836
-0.71353298 -0.95088464 0.01563083
-0.70562297 -0.94876844 0.01504107
-0.70336562 -0.94981748 0.015080521
-0.70109522 -0.9509176 0.015151312
-0.70014811 -0.95139289 0.015215492
-0.69869429 -1.0943322 0.034999404
-0.69807583 -1.0831082 0.033289671
-0.69621062 -1.0849437 0.032967567
-0.73918211 -1.0525434 0.029716618
-0.69737089 -1.0719944 0.032005176
-0.70094347 -1.0605886 0.029937688
-0.72336978 -1.0382524 0.028240023
-0.69904959 -1.0413866 0.027584774
-0.69811308 -1.0418415 0.027628716
-0.84559125 -0.95198125 0.018983215
-0.84430945 -0.95265108 0.019099895
-0.69877243 -1.0231855 0.025218558
-0.70068902 -1.0213953 0.025655577
-0.81541699 -0.95021999 0.018025178
-0.70104569 -1.0057098 0.022890324
-0.81387097 -0.95012254 0.018632639
-0.7999053 -0.95001894 0.017635064
-0.72782445 -0.98494726 0.02066379
-0.79585642 -0.95111418 0.018353596
-0.72432542 -0.98583072 0.021404225
-0.78381675 -0.95003223 0.017378064
-0.78260022 -0.95064324 0.017456701
-0.73979336 -0.97144663 0.019339209
-0.73461229 -0.97392464 0.019487871
-0.73337531 -0.9745369 0.019575361
-0.69933784 -0.99106765 0.021046046
-0.77949083 -0.9513486 0.018233225
-0.73054838 -0.97510648 0.02029923
-0.7669369 -0.95059419 0.017557241
-0.69988066 -0.98309577 0.020384993
-0.75303465 -0.95051551 0.017182447
-0.70288414 -0.96799856 0.018434029
-0.70125598 -0.96879917 0.018509893
-0.72667015 -0.95048243 0.016190663
-0.69888538 -1.0924077 0.035811983
-0.69834334 -1.0820905 0.03371805
-0.73609018 -1.0628153 0.032502625
-0.69780308 -1.0700024 0.032896198
-0.69905746 -1.0396141 0.028552338
-0.84464437 -0.95071161 0.020053688
-0.843413 -0.95133418 0.020168051
-0.69847858 -1.0216019 0.026265593
-0.69883502 -1.0136532 0.024748912
-0.82713723 -0.95061421 0.01988076
-0.82589078 -0.9511869 0.019928528
-0.81115705 -0.9505623 0.019265238
-0.81040764 -0.95092988 0.019305663
-0.80944026 -0.95141757 0.019376796
-0.79392362 -0.95124614 0.019018704
-0.73115939 -0.98167092 0.021689057
-0.69865918 -0.99743021 0.023028754
-0.74492341 -0.96727318 0.020230914
-0.74334848 -0.96802795 0.020288596
-0.73760283 -0.97085088 0.020584308
-0.73479813 -0.97217333 0.02065737
-0.69973284 -0.98919189 0.022158662
-0.70025879 -0.98209941 0.020957017
-0.76326746 -0.95070469 0.018861745
-0.70138681 -0.97472101 0.019912258
-0.74727547 -0.95165682 0.018573569
-0.73857564 -0.94986349 0.017505381
-0.72336102 -0.95047098 0.017535016
-0.71473855 -0.94870853 0.016840305
-0.7137605 -0.94919741 0.016902028
-0.70106685 -0.95535755 0.017422978
-0.70010263 -0.9558199 0.017456597
-0.70140481 -0.94922847 0.01647602
-0.69734055 -1.0798562 0.035059694
-0.69669729 -1.0581805 0.032397989
-0.69616127 -1.0593469 0.03197214
-0.69642401 -1.049606 0.03045693
-0.69770151 -1.0481052 0.030880798
-0.6967442 -1.0485696 0.030923292
-0.70062768 -1.0370215 0.029353244
-0.69969422 -1.0374821 0.029413633
-0.69875509 -1.0379699 0.029496614
-0.6958679 -1.0394077 0.029678572
-0.70141 -1.0279751 0.027888032
-0.69800586 -1.0286998 0.028454533
-0.83992475 -0.95132118 0.021357961
-0.69884759 -1.0205561 0.026767906
-0.82433993 -0.95108336 0.020507578
-0.78977686 -0.96786356 0.021998338
-0.70106798 -1.0108669 0.025761442
-0.69795918 -1.012362 0.025846753
-0.69891661 -1.011055 0.026362762
-0.81099176 -0.94980073 0.019831426
-0.77491391 -0.9673357 0.021400448
-0.8072142 -0.95081806 0.020560805
-0.8051073 -0.95183766 0.020666845
-0.69708562 -1.0042284 0.025246732
-0.79496241 -0.94986641 0.019497842
-0.74671906 -0.97329187 0.021571804
-0.7205978 -0.98596418 0.022685273
-0.79151505 -0.95075989 0.02028322
-0.6993705 -0.99540949 0.024154024
-0.69841862 -0.99586755 0.024180681
-0.7799294 -0.94946831 0.019330235
-0.77861553 -0.9501242 0.019422449
-0.77734751 -0.95073664 0.01944913
-0.72976255 -0.97382534 0.021501144
-0.70010442 -0.98816735 0.022711437
-0.77705133 -0.95004833 0.02004239
-0.77582085 -0.9506228 0.020063851
-0.77486765 -0.95106804 0.020106386
-0.74130267 -0.96736914 0.021566562
-0.73134857 -0.9721964 0.021956049
-0.72101671 -0.97717893 0.02236492
-0.70211405 -0.98637617 0.023204369
-0.7011373 -0.9868331 0.023239959
-0.69793439 -0.98841554 0.02339734
-0.76419175 -0.9502722 0.018836644
-0.76101977 -0.95097846 0.019540248
-0.75918376 -0.95185739 0.019618459
-0.69757271 -0.9817363 0.022235682
-0.70120883 -0.97320622 0.021147791
-0.73548818 -0.95058572 0.018312842
-0.73650682 -0.94928879 0.018873721
-0.69955248 -0.96120131 0.019161677
-0.7225917 -0.9492504 0.018815024
-0.71228993 -0.94914079 0.017612584
-0.71081668 -0.94908047 0.018335164
-0.69813561 -0.95520657 0.018837359
-0.71252656 -1.0954667 0.038085867
-0.70451075 -1.0984472 0.038827658
-0.6984241 -1.089877 0.037062868
-0.69649392 -1.0899029 0.037568584
-0.69755012 -1.0788555 0.035481706
-0.69503331 -1.080049 0.03556316
-0.69848216 -1.0774835 0.035867613
-0.69826651 -1.0565277 0.032854192
-0.72681463 -1.0417235 0.031982981
-0.7217465 -1.0346047 0.030691046
-0.71683884 -1.0283065 0.029197687
-0.69621098 -1.0383537 0.030141171
-0.69825232 -1.0277395 0.029000465
-0.84055161 -0.95017034 0.021853128
-0.83838987 -0.95115602 0.021908768
-0.80883074 -0.96548474 0.023152273
-0.69601572 -1.0201969 0.027929312
-0.82214308 -0.95043504 0.021680076
-0.81996644 -0.95150506 0.021787051
-0.79198611 -0.96508443 0.0229987
-0.80587506 -0.95060652 0.021161973
-0.69837052 -1.0027577 0.025739176
-0.69746494 -1.0031974 0.025781069
-0.78961754 -0.95082068 0.02090331
-0.72293198 -0.98314261 0.023698885
-0.70133305 -0.99362189 0.0246417
-0.7777639 -0.94887882 0.020617299
-0.74417138 -0.9651469 0.02199259
-0.7425198 -0.96595228 0.022061858
-0.76147687 -0.94994658 0.020142753
-0.6994862 -0.98001361 0.022767188
-0.74645764 -0.95042455 0.019809473
-0.70153713 -0.96542031 0.020922568
-0.69838023 -0.96699572 0.021122606
-0.72236377 -0.94858932 0.019476021
-0.72110546 -0.94920164 0.019530058
-0.72011709 -0.9496786 0.019571746
-0.70284885 -0.95886129 0.019690707
-0.70138854 -0.9587763 0.0203935
-0.70039904 -0.95926201 0.020440869
-0.70002604 -0.96022522 0.019831672
-0.70933664 -0.9490115 0.019037204
-0.70710933 -0.9500674 0.019107871
-0.69883817 -0.94814634 0.018534709
-0.69832605 -1.0880979 0.037896551
-0.69838864 -1.0757247 0.036741961
-0.69746757 -1.0761573 0.036768444
-0.69719392 -1.0772038 0.036349554
-0.69676977 -1.0668763 0.034688476
-0.69544047 -1.0675416 0.03476195
-0.69734395 -1.0656965 0.035104919
-0.70048207 -1.0545704 0.033271715
-0.69791758 -1.0549185 0.033823203
-0.69666296 -1.0563962 0.033340391
-0.7204935 -1.0343136 0.031209024
-0.71592796 -1.0260991 0.030701509
-0.71393216 -1.0270855 0.030805169
-0.85277653 -0.95112836 0.023559853
-0.85303688 -0.95188439 0.023058726
-0.85109162 -0.95194471 0.023632292
-0.83614898 -0.95047909 0.023002595
-0.69986957 -1.0166222 0.028833603
-0.69730484 -1.017841 0.028910395
-0.82184535 -0.94972605 0.022229122
-0.82000321 -0.9497686 0.022848722
-0.80481243 -0.95715356 0.0235263
-0.77999282 -0.96920663 0.024589732
-0.69797546 -1.0089458 0.028031366
-0.80418158 -0.95058757 0.021792438
-0.7200582 -0.991391 0.02537518
-0.71367705 -0.99446231 0.025601672
-0.71173155 -0.99539131 0.025689093
-0.69872606 -1.0017295 0.026260462
-0.80268097 -0.95048088 0.022431076
-0.80136871 -0.95107651 0.02241262
-0.71594411 -0.99252701 0.026074687
-0.6974569 -1.0015049 0.026872074
-0.7907269 -0.94944608 0.021439936
-0.78943837 -0.950068 0.021494057
-0.69909656 -0.99386275 0.025288336
-0.78749406 -0.95011556 0.022043064
-0.75294816 -0.96693033 0.023587827
-0.73734564 -0.974433 0.024153808
-0.7300722 -0.97799605 0.024512783
-0.77498752 -0.94937509 0.02127387
-0.77174908 -0.95095807 0.021444891
-0.69936347 -0.98602909 0.024466559
-0.74234045 -0.96437418 0.023231767
-0.75793368 -0.94999737 0.021443075
-0.74098557 -0.95825726 0.022208687
-0.70029706 -0.9779771 0.023912722
-0.69988459 -0.9790045 0.0233483
-0.74753386 -0.94909972 0.020404698
-0.74437547 -0.94982147 0.021125467
-0.74277806 -0.9505626 0.021141229
-0.70207918 -0.97034204 0.022933297
-0.70051599 -0.97110814 0.023001816
-0.69854677 -0.9728393 0.022441303
-0.73271406 -0.94912076 0.020578809
-0.73160934 -0.95006794 0.020313859
-0.72985375 -0.95012879 0.021019775
-0.71934646 -0.95522094 0.021461731
-0.71864998 -0.94959128 0.020260435
-0.70689034 -0.94940341 0.019777436
-0.7055968 -0.95000565 0.019803142
-0.70216179 -0.95089757 0.020580236
-0.69605815 -1.0873659 0.038819894
-0.71788889 -1.0539305 0.035161
-0.69856191 -1.0633124 0.035946406
-0.69777548 -1.0641434 0.035759222
-0.69597638 -1.0540575 0.034797903
-0.69825935 -1.0442917 0.03275077
-0.69733799 -1.0447314 0.032792997
-0.69637954 -1.0451999 0.032836303
-0.72081447 -1.0324028 0.032177061
-0.69775528 -1.0340044 0.031914111
-0.69683862 -1.0344615 0.031974994
-0.8508144 -0.95120966 0.024143904
-0.84918934 -0.95191884 0.024104357
-0.84163737 -0.95563042 0.024496108
-0.6976577 -1.0254285 0.030566294
-0.84885621 -0.95124108 0.024669128
-0.8479479 -0.95164853 0.024669753
-0.69894147 -1.0239216 0.031005356
-0.69798672 -1.024393 0.031050241
-0.83335346 -0.95103514 0.023711417
-0.83238751 -0.95151174 0.023754828
-0.69765055 -1.0168303 0.029442526
-0.83175611 -0.95094812 0.024302442
-0.82384574 -0.95476896 0.024628056
-0.82289863 -0.95523053 0.024662349
-0.81844223 -0.95739055 0.024851661
-0.81561756 -0.95878744 0.025011245
-0.78573442 -0.97328109 0.026274117
-0.69962251 -1.0150018 0.029864375
-0.8152597 -0.95122492 0.023598813
-0.80735421 -0.95502853 0.023882244
-0.80110651 -0.95035964 0.022989824
-0.79980445 -0.95098215 0.023037974
-0.77368224 -0.96370578 0.024236878
-0.77063841 -0.96515882 0.024316471
-0.71724385 -0.99105883 0.026575597
-0.78487843 -0.95051962 0.022681883
-0.78411597 -0.95091546 0.022748411
-0.77550143 -0.95514017 0.023166705
-0.76981211 -0.95785022 0.023352467
-0.76693851 -0.95928973 0.023559593
-0.75548851 -0.9648242 0.024004389
-0.74029112 -0.97219986 0.024654854
-0.73455536 -0.9749667 0.024887469
-0.73425061 -0.9751237 0.024906781
-0.72977716 -0.97730362 0.025093731
-0.72363949 -0.98024809 0.025308101
-0.69888055 -0.99229395 0.026424803
-0.77152252 -0.95022011 0.022007195
-0.77089876 -0.9505434 0.022065032
-0.7471776 -0.9620586 0.023066184
-0.77003002 -0.95014608 0.022689458
-0.76904291 -0.95062369 0.022709046
-0.76455736 -0.95276809 0.022854446
-0.70796138 -0.98021728 0.025272872
-0.70236135 -0.98293841 0.025514513
-0.75631398 -0.94996399 0.022112263
-0.73912048 -0.95831203 0.022865541
-0.73375416 -0.96091127 0.023069613
-0.70126557 -0.97667319 0.024467738
-0.74259412 -0.94984102 0.021758372
-0.72668481 -0.95758957 0.022483014
-0.72572577 -0.95806354 0.022527404
-0.72194016 -0.95987844 0.02267071
-0.69929087 -0.97088987 0.023656152
-0.72829545 -0.95008492 0.021714672
-0.72702193 -0.95066822 0.021725375
-0.72671324 -0.950822 0.021737296
-0.7257787 -0.95125556 0.021756824
-0.72227937 -0.95296419 0.021920439
-0.71366405 -0.95713121 0.02227189
-0.70764256 -0.96007603 0.022537556
-0.70086038 -0.96332443 0.022791779
-0.70027125 -0.96361297 0.022819506
-0.70062196 -0.95756578 0.021684529
-0.71603853 -0.94928443 0.021669244
-0.71013713 -0.95292628 0.021265069
-0.70484918 -0.95471966 0.022145793
-0.70140547 -0.95638025 0.022262225
-0.70487875 -0.94879192 0.021122931
-0.70364368 -0.94937897 0.02116574
-0.69943839 -1.0848244 0.039088994
-0.70042723 -1.0843314 0.03903459
-0.69722694 -1.084976 0.039598122
-0.69674838 -1.0856596 0.039406594
-0.79160804 -1.0268185 0.034431703
-0.69796246 -1.0731977 0.038046241
-0.69672275 -1.0737991 0.03809727
-0.69919741 -1.0620944 0.036360003
-0.73182374 -1.0452993 0.035357237
-0.69911438 -1.0612411 0.036812775
-0.69755197 -1.0619969 0.036879424
-0.69751048 -1.0515332 0.035693366
-0.70396882 -1.0396627 0.0333324
-0.69730318 -1.0429758 0.033740647
-0.71660727 -1.0326473 0.033266984
-0.70560908 -1.0379461 0.033690818
-0.697429 -1.033275 0.032408547
-0.71522897 -1.0237921 0.032181196
-0.84318268 -0.95315051 0.025418889
-0.8368172 -0.95623732 0.025698623
-0.8359549 -0.95663047 0.025734285
-0.71106285 -1.0171973 0.031035541
-0.70431757 -1.0204781 0.031309951
-0.70020968 -1.0138527 0.03035032
-0.69831365 -1.0147792 0.03044856
-0.69732088 -1.0152718 0.030505681
-0.81594872 -0.95001918 0.02409162
-0.81496632 -0.95049649 0.024117468
-0.77815962 -0.96838075 0.025725141
-0.69960946 -1.006456 0.029039482
-0.81329668 -0.95128161 0.024174811
-0.81244588 -0.95083857 0.024746887
-0.80486465 -0.95451665 0.025068371
-0.80257791 -0.95568812 0.0252352
-0.6993978 -1.0056946 0.029577076
-0.69806373 -1.0063367 0.029632766
-0.79601598 -0.95203108 0.023822274
-0.76904297 -0.96508259 0.024919936
-0.7054863 -0.99591768 0.027653636
-0.69879383 -0.99914515 0.027893566
-0.69820005 -0.99942946 0.027919192
-0.7986176 -0.94985533 0.024191082
-0.79766655 -0.95032179 0.024236891
-0.79417074 -0.9520849 0.024459258
-0.79192519 -0.95309877 0.024467375
-0.78464526 -0.95664883 0.024782725
-0.7836647 -0.95709682 0.024801556
-0.77864802 -0.95956129 0.025046075
-0.76718152 -0.96514052 0.025557954
-0.72393286 -0.98612744 0.027405504
-0.70739526 -0.99413425 0.028082317
-0.70108634 -0.99719691 0.028363816
-0.6992687 -0.99807471 0.028419219
-0.78319627 -0.9505384 0.023356609
-0.76318949 -0.96025825 0.024241373
-0.75967002 -0.96192819 0.024336651
-0.75621474 -0.9636302 0.02454148
-0.75281847 -0.96529102 0.024695937
-0.74987364 -0.96670258 0.024787767
-0.7444613 -0.96933395 0.025032744
-0.73429072 -0.97425658 0.025448108
-0.72496504 -0.97874516 0.025795538
-0.70377463 -0.98902893 0.026718628
-0.69990486 -0.99095631 0.026936958
-0.69930744 -0.99124455 0.026970427
-0.77943605 -0.9515329 0.02409265
-0.77586615 -0.95326871 0.024279604
-0.76133788 -0.9603067 0.024869267
-0.7578494 -0.96197522 0.024989948
-0.75331283 -0.96420002 0.025219934
-0.75086445 -0.96541321 0.025354978
-0.7407487 -0.97029877 0.025769075
-0.7359038 -0.97260123 0.025886618
-0.72976774 -0.9756133 0.026195671
-0.72727811 -0.97683364 0.02631587
-0.6999442 -0.99009299 0.027482992
-0.7675525 -0.95049626 0.02332389
-0.76628494 -0.95109618 0.023366414
-0.76011968 -0.95412433 0.023703415
-0.75834888 -0.95496893 0.023736292
-0.73993266 -0.96387058 0.024472188
-0.70938379 -0.97870678 0.025791543
-0.70650339 -0.9800939 0.025924522
-0.70556843 -0.98056394 0.025983594
-0.69950205 -0.98348629 0.026189718
-0.75342619 -0.95058924 0.022877788
-0.75093365 -0.95177972 0.022955384
-0.74294448 -0.95564973 0.023304725
-0.73125952 -0.96132869 0.023791848
-0.70671427 -0.97323018 0.024844067
-0.70003146 -0.97646785 0.025137087
-0.75321627 -0.9498679 0.023491481
-0.75134671 -0.95075309 0.023531448
-0.75069654 -0.95106852 0.023556702
-0.74910158 -0.951837 0.023610668
-0.74464273 -0.95400316 0.023817871
-0.74338728 -0.95460832 0.023870237
-0.74107563 -0.95573139 0.023960846
-0.73894101 -0.95680004 0.024089988
-0.7376169 -0.95822501 0.023501979
-0.73418385 -0.95905906 0.024231695
-0.72974533 -0.96124744 0.024462651
-0.71117443 -0.97101653 0.02458347
-0.71025288 -0.97149009 0.024665587
-0.70100307 -0.97515672 0.025646843
-0.74075466 -0.94991809 0.022446506
-0.73764247 -0.95064402 0.023228819
-0.7271632 -0.95570713 0.02362887
-0.72425085 -0.95797473 0.023200857
-0.72332531 -0.95840871 0.023240918
-0.71782804 -0.96104348 0.023402225
-0.70929861 -0.96439719 0.024415039
-0.70810872 -0.96496594 0.024484143
-0.70345896 -0.96805102 0.024074268
-0.70262951 -0.96763718 0.024717636
-0.70124435 -0.9691242 0.024172435
-0.69977486 -0.96902752 0.024850069
-0.72427452 -0.95119554 0.022441171
-0.72176504 -0.95159638 0.023157608
-0.71791077 -0.95431018 0.02275897
-0.71411783 -0.95610285 0.022870991
-0.71223557 -0.95620126 0.023532296
-0.7105816 -0.95783901 0.023039415
-0.70078182 -0.96215773 0.023717977
-0.71353137 -0.94972694 0.02240707
-0.71134275 -0.95079315 0.022513703
-0.70876408 -0.95200276 0.022578228
-0.70783663 -0.95245576 0.022615008
-0.70300812 -0.95483655 0.022855558
-0.70177925 -0.95542699 0.022885222
-0.70210063 -0.94933212 0.021837173
-0.70503992 -1.0907948 0.041953128
-0.70374346 -1.091428 0.042022083
-0.70055294 -1.0929769 0.042141579
-0.69749963 -1.083935 0.04000473
-0.69758087 -1.0724738 0.038492557
-0.69744492 -1.0716262 0.038924776
-0.69879699 -1.0595717 0.037702013
-0.69752002 -1.0602046 0.037766658
-0.69656599 -1.0519961 0.035736859
-0.72382444 -1.0378085 0.034861218
-0.69786114 -1.0409191 0.034644969
-0.69695663 -1.0413594 0.034693323
-0.70526558 -1.0363157 0.03461916
-0.69850236 -1.0397179 0.035087295
-0.85282201 -0.95528805 0.027316857
-0.84871769 -0.95728576 0.02751578
-0.71575528 -1.0226617 0.032646328
-0.71433008 -1.0224617 0.033192459
-0.70311719 -1.027899 0.033688802
-0.70284951 -1.0289087 0.033210117
-0.70000911 -1.0302228 0.03322161
-0.69844657 -1.030532 0.033527091
-0.69814742 -1.0311292 0.033305798
-0.84543419 -0.9511494 0.025816165
-0.82576531 -0.96068633 0.026671138
-0.71332932 -1.015237 0.031450082
-0.70180225 -1.0207975 0.03189142
-0.69865412 -1.0223242 0.032027394
-0.69804239 -1.0226119 0.032051519
-0.84385484 -0.95108807 0.026428215
-0.842574 -0.95170003 0.026471805
-0.83788335 -0.95396578 0.02668919
-0.83239639 -0.95660436 0.026880402
-0.83147526 -0.95706117 0.026930427
-0.70017242 -1.0207176 0.03246348
-0.69836664 -1.0215846 0.032543514
-0.82925582 -0.9504289 0.025431927
-0.82801938 -0.95101273 0.025482757
-0.81309664 -0.95824057 0.026095061
-0.82638812 -0.95092386 0.026044641
-0.81892753 -0.95453364 0.026357085
-0.81023943 -0.95875049 0.026739994
-0.80543834 -0.96111625 0.026988158
-0.71141267 -1.0067098 0.030945575
-0.710172 -1.0073017 0.030995606
-0.70919961 -1.0077817 0.031044424
-0.70367318 -1.0104525 0.031285089
-0.69864184 -1.0128902 0.03146071
-0.81091142 -0.95073378 0.02536615
-0.81028253 -0.95105076 0.025392083
-0.80927914 -0.95154119 0.025440305
-0.80833572 -0.95202434 0.02549495
-0.8051843 -0.95349658 0.025572263
-0.80082643 -0.95567858 0.025866564
-0.78990006 -0.96091288 0.026218962
-0.71621573 -0.99665534 0.0293584
-0.712731 -0.99838144 0.029538518
-0.71117878 -0.99913746 0.029634302
-0.70196849 -1.0035943 0.029998235
-0.69974953 -1.0046796 0.030110501
-0.7958163 -0.95041025 0.024909953
-0.79541177 -0.95062804 0.024940198
-0.79455268 -0.9510383 0.024981257
-0.79226649 -0.95212823 0.025058378
-0.78914088 -0.95360583 0.025119159
-0.78689587 -0.95473593 0.025282342
-0.77960896 -0.95827574 0.025574692
-0.77390492 -0.96100396 0.025786541
-0.77295399 -0.96147013 0.025834214
-0.71792853 -0.98816991 0.028206963
-0.7093851 -0.99228907 0.02852222
-0.70234358 -0.99574083 0.028876901
-0.70016342 -0.99680078 0.028948231
-0.78945744 -0.95258707 0.025639074
-0.78722447 -0.95372313 0.025793694
-0.78152341 -0.95647275 0.026036203
-0.71823579 -0.9871648 0.028709596
-0.71766508 -0.98744529 0.028750975
-0.71259052 -0.98990768 0.028956003
-0.71169394 -0.99032444 0.028976617
-0.70971107 -0.99129158 0.02905662
-0.70527637 -0.99347389 0.029283021
-0.77973038 -0.95055866 0.024679076
-0.77684885 -0.95191121 0.024731163
-0.7702719 -0.95513678 0.025062468
-0.75249016 -0.96377009 0.025822612
-0.74108177 -0.96931452 0.026316818
-0.73821068 -0.97067839 0.026414333
-0.73431915 -0.97256088 0.026551269
-0.73401856 -0.97271079 0.026570734
-0.73058534 -0.97438908 0.026730793
-0.72480392 -0.97714913 0.026955564
-0.72283906 -0.9781003 0.027015414
-0.71110702 -0.98383904 0.027598772
-0.70828134 -0.98520362 0.027687047
-0.70543247 -0.9865548 0.027778335
-0.70158523 -0.98842627 0.027953556
-0.70058787 -0.98893064 0.028007297
-0.76726687 -0.94981712 0.02392219
-0.76478046 -0.95099449 0.024021216
-0.76308274 -0.95182014 0.024076357
-0.76156104 -0.95254767 0.024134934
-0.76061136 -0.95301247 0.024182389
-0.75865406 -0.95400542 0.024321258
-0.75423861 -0.95612538 0.024479568
-0.74853861 -0.95888776 0.024730368
-0.74634916 -0.95996153 0.024825783
-0.70084763 -0.9820081 0.026730454
-0.76571918 -0.94971472 0.024543919
-0.76484358 -0.95013136 0.024585906
-0.75591421 -0.95447999 0.024986522
-0.75243711 -0.95613557 0.025084736
-0.75015444 -0.95727211 0.02522311
-0.74355996 -0.96047491 0.02553116
-0.70591319 -0.97871441 0.02708604
-0.75140005 -0.94991368 0.024123443
-0.74943733 -0.95085984 0.024191216
-0.7472738 -0.95190716 0.02429574
-0.74504322 -0.95296043 0.024345968
-0.74150193 -0.95470142 0.024535127
-0.73522186 -0.95772803 0.024756419
-0.73262686 -0.95898181 0.024868743
-0.72500956 -0.96268189 0.025211386
-0.71156913 -0.96917617 0.025740283
-0.7080735 -0.97092998 0.025958356
-0.70717412 -0.97135997 0.025991678
-0.70275092 -0.9735052 0.026177242
-0.70174032 -0.97397935 0.026196521
-0.73738849 -0.9499588 0.023845147
-0.73643726 -0.95042032 0.023888055
-0.73482871 -0.95119852 0.023941932
-0.73297054 -0.95211697 0.02403871
-0.73203868 -0.95255738 0.024086926
-0.72817898 -0.95441061 0.024197778
-0.72571707 -0.95560849 0.024332415
-0.71996021 -0.95839351 0.024563644
-0.71897966 -0.9588604 0.024588294
-0.7154696 -0.96057665 0.0247456
-0.71199465 -0.96228456 0.024895666
-0.71076071 -0.96286684 0.024950409
-0.70846075 -0.96399415 0.025067341
-0.70458877 -0.96582419 0.02516683
-0.70364588 -0.966304 0.025237488
-0.7017566 -0.96725076 0.025357282
-0.72275281 -0.95112795 0.023134321
-0.71643132 -0.95422506 0.023439981
-0.70172191 -0.96130866 0.024014382
-0.72282046 -0.95029831 0.023749672
-0.71270221 -0.95518506 0.024169095
-0.71113086 -0.95010084 0.023152167
-0.71010339 -0.95060033 0.023194883
-0.70471472 -0.95318878 0.023390269
-0.7040776 -0.95349902 0.023434719
-0.70218527 -0.95443171 0.023509385
-0.70027804 -0.94946897 0.022600362
-0.70179737 -1.0914452 0.042489391
-0.69899493 -1.0804647 0.041174877
-0.69720411 -1.0817783 0.041029274
-0.69835341 -1.0702884 0.039324086
-0.70103687 -1.0680658 0.039624404
-0.69967204 -1.0582324 0.038110692
-0.69716829 -1.0499121 0.036611553
-0.6978116 -1.0486972 0.037005167
-0.7185455 -1.0290687 0.034646727
-0.70896286 -1.0336783 0.035018802
-0.69885695 -1.0386494 0.035534404
-0.70712274 -1.0336431 0.035503376
-0.70489794 -1.0347022 0.035565402
-0.70029926 -1.0283456 0.034243781
-0.84005946 -0.95198637 0.027012674
-0.83813691 -0.95297289 0.027173921
-0.83368564 -0.95510417 0.027339032
-0.8280133 -0.95786417 0.027585395
-0.82703 -0.95834285 0.027611325
-0.81881148 -0.96145886 0.028466588
-0.7140103 -1.0131695 0.032437686
-0.71303332 -1.0136472 0.032486692
-0.71073699 -1.014744 0.032567412
-0.70601976 -1.0170096 0.032718845
-0.70249689 -1.0178672 0.033408098
-0.69924694 -1.0202903 0.033003837
-0.8403694 -0.95099479 0.027558163
-0.8384912 -0.95186812 0.027599938
-0.82540095 -0.95824009 0.028179541
-0.70342755 -1.0174071 0.033354867
-0.70052344 -1.0188081 0.03346736
-0.69959754 -1.0192486 0.033495847
-0.82384169 -0.95131314 0.026671369
-0.8229239 -0.95175421 0.026728837
-0.82200933 -0.95220202 0.026782203
-0.81755871 -0.95433557 0.026942965
-0.81659096 -0.95482349 0.027014222
-0.71271634 -1.0052233 0.031423513
-0.7112214 -1.0059415 0.031467795
-0.70732099 -1.0078365 0.031656764
-0.69899201 -1.0118408 0.031953979
-0.80935979 -0.95064473 0.025971435
-0.80678058 -0.95105988 0.026622361
-0.80592424 -0.95148134 0.026690459
-0.80493706 -0.95193589 0.026679844
-0.80239487 -0.95401788 0.0262761
-0.80044192 -0.9541434 0.026913529
-0.79921371 -0.95476353 0.027003722
-0.79696447 -0.95578074 0.026999732
-0.79478228 -0.95681334 0.02706125
-0.79445803 -0.95787036 0.026578765
-0.78777403 -0.96023256 0.027380494
-0.78528231 -0.961483 0.027543722
-0.78275681 -0.96267974 0.027617913
-0.77543813 -0.9671036 0.027424941
-0.77451938 -0.96669209 0.028011547
-0.71772623 -0.99464786 0.030105902
-0.71341801 -0.99630362 0.030560264
-0.70876378 -0.99902368 0.030534297
-0.70768005 -0.99997431 0.03031411
-0.70227647 -1.0025774 0.030508801
-0.70011675 -1.0036404 0.030620998
-0.79206747 -0.95055842 0.026196865
-0.78974956 -0.95160139 0.026173091
-0.78348196 -0.95466864 0.026469046
-0.78001279 -0.95638818 0.026690628
-0.77744222 -0.95760638 0.026741998
-0.77592367 -0.95833564 0.026820546
-0.7742244 -0.95916408 0.026875228
-0.76863939 -0.96188486 0.027143536
-0.76634347 -0.96299028 0.027217902
-0.76565582 -0.96419799 0.026740372
-0.76416028 -0.96402693 0.027281605
-0.71291912 -0.98891366 0.029492646
-0.71006358 -0.99028051 0.029590067
-0.70718545 -0.99166334 0.029717691
-0.70623273 -0.99213934 0.029766329
-0.70371753 -0.99338233 0.029906183
-0.70051515 -0.9957757 0.029496508
-0.77696013 -0.95103478 0.025309684
-0.77535212 -0.95179975 0.025360826
-0.77286059 -0.95305055 0.025522914
-0.76710719 -0.95581228 0.025738452
-0.76329857 -0.95770276 0.025942955
-0.76240396 -0.95811296 0.025964793
-0.75537431 -0.96153069 0.026271885
-0.74903584 -0.96458387 0.026528964
-0.74778551 -0.96518898 0.026548212
-0.70964259 -0.98370337 0.028190779
-0.70866024 -0.98418516 0.028240971
-0.70164508 -0.98754853 0.028510872
-0.70065105 -0.9880529 0.028564453
-0.77128303 -0.95296448 0.026125498
-0.76974231 -0.95369667 0.026185358
-0.76563925 -0.9556818 0.026362592
-0.76456332 -0.95623702 0.026472274
-0.76368076 -0.95667732 0.026513208
-0.76047236 -0.95821452 0.026597682
-0.75697267 -0.95987958 0.026689511
-0.74812543 -0.96419281 0.027138883
-0.74278253 -0.96677363 0.027338073
-0.7380051 -0.96912509 0.02758462
-0.73514962 -0.97045875 0.02764577
-0.72391355 -0.9759239 0.028148202
-0.70300096 -0.98606473 0.029010065
-0.70198375 -0.98654658 0.029045701
-0.76261437 -0.95038617 0.025249204
-0.75720161 -0.95304143 0.0255301
-0.7563349 -0.95344567 0.025547219
-0.75404054 -0.95454872 0.025621466
-0.74833077 -0.95732558 0.025889378
-0.74075127 -0.96097368 0.026166238
-0.71363944 -0.97415453 0.02736179
-0.71269786 -0.97461885 0.027401926
-0.70921785 -0.97631341 0.02755845
-0.70636117 -0.97766441 0.02764076
-0.70442551 -0.97861296 0.027756622
-0.70355254 -0.97904879 0.027792342
-0.70258814 -0.97951436 0.02782106
-0.70163 -0.97997952 0.027854934
-0.74856234 -0.95045757 0.024815958
-0.74764061 -0.95091671 0.024865713
-0.74536723 -0.95197982 0.024898486
-0.74317932 -0.95307696 0.025066815
-0.73884934 -0.9551807 0.025253586
-0.73651981 -0.9562937 0.025346613
-0.70467472 -0.97175878 0.026711283
-0.70186526 -0.97310591 0.026793357
-0.74136519 -0.95312738 0.025741486
-0.74003601 -0.95377302 0.025790513
-0.73913366 -0.9542188 0.025819732
-0.73691797 -0.95530796 0.025938809
-0.73309088 -0.95712948 0.026050113
-0.73060489 -0.9583317 0.026162123
-0.7258299 -0.96068043 0.026406847
-0.71248853 -0.96713889 0.026971593
-0.71201533 -0.96814609 0.026339903
-0.71005332 -0.96909332 0.02639967
-0.70851237 -0.96903563 0.027068926
-0.70766282 -0.96946836 0.027144825
-0.70318818 -0.97165614 0.027354969
-0.73365128 -0.95014489 0.025203081
-0.73338687 -0.95110565 0.024626534
-0.72613096 -0.95377314 0.025487863
-0.72412866 -0.955585 0.025001498
-0.7231878 -0.95604312 0.025045138
-0.72132647 -0.95694721 0.025136128
-0.72029835 -0.95744789 0.025178866
-0.7152496 -0.95905781 0.025948577
-0.71310902 -0.96011275 0.026086766
-0.71182001 -0.96073884 0.026121752
-0.7088908 -0.9629674 0.025647407
-0.70506889 -0.96395898 0.026353791
-0.704045 -0.9644646 0.026400823
-0.70225823 -0.96535915 0.026522964
-0.70213759 -0.96624702 0.025945302
-0.72129166 -0.95023894 0.024424072
-0.71978331 -0.95096684 0.024504138
-0.7187795 -0.95147043 0.024565257
-0.71782064 -0.95194411 0.024609366
-0.71597874 -0.95283163 0.024695065
-0.71501064 -0.95331311 0.024747252
-0.71080929 -0.95529872 0.024843743
-0.70251334 -0.95935863 0.025241071
-0.7016685 -0.95977259 0.025311321
-0.70640004 -0.95156473 0.023936225
-0.70386714 -0.95280802 0.024062641
-0.70261884 -0.95343542 0.024148878
-0.70686442 -0.95054114 0.024548048
-0.7039336 -1.0885757 0.043211527
-0.79476255 -1.0216789 0.036054943
-0.69875449 -1.0682818 0.040161699
-0.70385408 -1.0648915 0.040366419
-0.69864905 -1.0578302 0.038588721
-0.72284782 -1.0355929 0.036278583
-0.69804746 -1.0476956 0.037461318
-0.70727277 -1.0422841 0.037445273
-0.7050159 -1.0434145 0.03759912
-0.69837672 -1.0466379 0.037903871
-0.7004267 -1.0369517 0.035871036
-0.71655899 -1.0282569 0.035675891
-0.70959944 -1.0316037 0.0359465
-0.70864195 -1.032071 0.035993628
-0.70203424 -1.0352437 0.036214944
-0.69941759 -1.0365694 0.036400434
-0.6985184 -1.0370244 0.036486167
-0.85473663 -0.95266414 0.028318491
-0.85276997 -0.95270497 0.028859245
-0.85243434 -0.95369792 0.028287612
-0.84926826 -0.95529783 0.028486222
-0.84362537 -0.95714575 0.029232539
-0.7149511 -1.0204179 0.034179814
-0.71139014 -1.0212617 0.03479974
-0.70856005 -1.0235126 0.034447078
-0.70665979 -1.0244153 0.034498692
-0.70503366 -1.0243251 0.03505829
-0.70394468 -1.0252881 0.034861479
-0.70281363 -1.0262808 0.034673072
-0.69999266 -1.026768 0.035288848
-0.69937575 -1.0279045 0.034758657
-0.69838589 -1.0283705 0.03476207
-0.71104425 -1.0137339 0.033065014
-0.83756781 -0.95145404 0.028168043
-0.83656716 -0.95200193 0.028258067
-0.83336687 -0.95354635 0.028359681
-0.82833374 -0.95596945 0.028580973
-0.70090222 -1.0177624 0.033977989
-0.8219822 -0.95135546 0.027291393
-0.82044989 -0.95207506 0.027353076
-0.8194468 -0.95258254 0.027408041
-0.81847996 -0.95305383 0.027435878
-0.81494564 -0.95477492 0.027596429
-0.81405908 -0.95519453 0.02763465
-0.813115 -0.95565754 0.027680222
-0.812213 -0.95610923 0.027746305
-0.80995023 -0.95715654 0.02778529
-0.80648637 -0.9588961 0.028002433
-0.71491504 -1.0032957 0.031870127
-0.71396738 -1.003746 0.031906705
-0.71304882 -1.0041908 0.031943899
-0.70765829 -1.0068003 0.032149065
-0.70449638 -1.0083332 0.032295126
-0.70129335 -1.0098706 0.032415792
-0.70032489 -1.0103477 0.032447148
-0.69922024 -1.0108737 0.032463908
-0.82044369 -0.95122564 0.02789028
-0.80804914 -0.95723343 0.028397366
-0.80458254 -0.95896572 0.028616499
-0.71527684 -1.0022521 0.032379422
-0.71275121 -1.0034745 0.03247809
-0.70106792 -1.0091156 0.032950941
-0.80214518 -0.95240444 0.027325256
-0.7972976 -0.95481628 0.027595069
-0.79193157 -0.95740438 0.027808053
-0.78368586 -0.96138859 0.028117895
-0.71246356 -0.99592364 0.031143447
-0.70416188 -0.99995899 0.0315006
-0.70075482 -1.0016086 0.031647351
-0.79447401 -0.95525032 0.028132558
-0.79014105 -0.95060056 0.026763584
-0.78885716 -0.95118123 0.026759654
-0.78382814 -0.95367551 0.02702917
-0.78192723 -0.95455754 0.027085554
-0.78095382 -0.95502383 0.027109968
-0.77077365 -0.96000558 0.027612139
-0.76890427 -0.96092564 0.027700644
-0.76227915 -0.96408921 0.027916767
-0.7612763 -0.96460766 0.027994899
-0.71333253 -0.9878633 0.03002594
-0.70467454 -0.99206781 0.030394791
-0.70216203 -0.99328709 0.030533887
-0.70118231 -0.99376363 0.030569974
