# .PCD v0.7 - Point Cloud Data file format
VERSION 0.7
FIELDS x y z
SIZE 4 4 4
TYPE F F F
COUNT 1 1 1
WIDTH 1270
HEIGHT 1
VIEWPOINT 0 0 0 1 0 0 0
POINTS 1270
DATA ascii
0.20478857 0.0024742177 -0.050156891
0.20838293 0.0018654661 -0.049417675
0.23131895 0.002775236 -0.047581434
0.22903433 0.0028019147 -0.04856658
0.23912746 0.0021271873 -0.045053899
0.23354137 0.0021607531 -0.047421098
0.25412816 0.0027042497 -0.046426535
0.25318864 0.0026916452 -0.046818852
0.25179359 0.0020667138 -0.048172653
0.24727643 0.0027462142 -0.04933387
0.25934216 0.0020936802 -0.045015335
0.25508994 0.0020912979 -0.046789706
0.24989974 0.0020849425 -0.048987627
0.27676037 0.0024455506 -0.045338988
0.27275237 0.0024208883 -0.047000885
0.26856652 0.0024726233 -0.048811257
0.29279715 0.0025866302 -0.046204031
0.0064997971 0.00071495771 -0.047908127
0.0054731965 0.00022195932 -0.049179018
0.0039682686 0.00047050323 -0.049392521
0.0012641251 0.00068946183 -0.050094903
-0.00034356117 0.00026089139 -0.05166769
0.037999302 0.00078352913 -0.04776746
0.036602378 0.00078058429 -0.048349798
0.033663273 0.00033841468 -0.050473809
0.066230208 0.00095673837 -0.048072219
0.064345896 0.0009629475 -0.048889041
0.065618902 0.00044971332 -0.049187303
0.096054703 0.00080981571 -0.047693193
0.092734277 0.00080638286 -0.049095809
0.091194004 0.0013094861 -0.048897326
0.090574533 0.0013208063 -0.049172342
0.12061778 0.001262201 -0.047728598
0.11864918 0.0013106428 -0.048592448
0.11764824 0.0013260236 -0.049030125
0.11638761 0.0013435427 -0.049583972
0.11985114 0.00072778482 -0.048877001
0.11700019 0.00079180487 -0.050140738
0.14618701 0.0014371146 -0.047324598
0.14164451 0.0012031626 -0.049682617
0.17083254 0.0013343273 -0.047255039
0.16527662 0.0013263682 -0.049579859
0.17148903 0.00076440815 -0.047786951
0.19558382 0.0014455263 -0.046220839
0.19326505 0.0014465721 -0.047194958
0.19096071 0.0014612088 -0.048184574
0.19394404 0.00085763913 -0.047705591
0.19163018 0.00086914748 -0.04869169
0.21556473 0.0013349634 -0.047228575
0.22118747 0.00084013585 -0.045736909
0.22055593 0.00084364228 -0.046009779
0.21929073 0.0014158208 -0.045739412
0.21688554 0.00076938793 -0.047490776
0.21622771 0.00075765885 -0.047759891
0.24198082 0.00087984558 -0.045381606
0.23418283 0.00093946233 -0.048709691
0.25832552 0.0014681807 -0.046219051
0.25282478 0.0014335811 -0.048507392
0.27930099 0.0018233545 -0.045039475
0.27341247 0.0017727464 -0.047474682
0.27829888 0.0011779992 -0.046221077
0.27767164 0.0011868449 -0.046487987
0.27398005 0.0011210265 -0.04798156
0.2960797 0.0018974403 -0.04552865
0.29345864 0.0019002827 -0.04664731
0.28918958 0.0019649882 -0.048475206
0.29765028 0.0012384197 -0.045606971
0.29512012 0.0012399768 -0.046692133
0.29403585 0.0012465669 -0.047140896
0.29055709 0.0013052085 -0.048662603
0.30503327 0.0017862292 -0.049294949
0.35812688 0.0021520024 -0.066307545
0.009663254 -0.00026931707 -0.048258722
0.0086975992 -0.00027404353 -0.048670173
0.0076646209 -0.00028687809 -0.049115241
0.0028010011 -0.00027445331 -0.051160216
0.013128549 -0.00080274791 -0.047635913
0.011556029 -0.00073301978 -0.048348308
0.010591894 -0.00075437035 -0.048738062
0.00671193 -0.00074494909 -0.050373733
0.043727219 -0.00023466256 -0.04701674
0.044387639 -0.00073147938 -0.047597766
0.04298979 -0.00074483827 -0.048170745
0.042314798 -0.00074513908 -0.048452377
0.041695058 -0.00075353216 -0.048715234
0.040794581 -0.00070330966 -0.049126148
0.040169388 -0.00068112835 -0.049396634
0.073429823 -0.00055699144 -0.047572494
0.072446287 -8.3891675e-05 -0.047122777
0.069750309 -8.7284483e-05 -0.048257649
0.069058448 -0.00060635339 -0.049386024
0.063239485 -6.2177889e-05 -0.051019609
0.097010523 0.00028271507 -0.048120201
0.095388561 0.00029110722 -0.048828542
0.092023045 0.0002243733 -0.050183177
0.096280545 -0.00024757255 -0.049254715
0.093690753 -0.00023478549 -0.0503667
0.12478629 0.00019315071 -0.047616661
0.12378442 0.00018237997 -0.048037052
0.12275651 0.0001591919 -0.048463225
0.1254108 -0.00032394938 -0.048201799
0.12214139 -0.00039693899 -0.049553633
0.12147474 -0.00039130915 -0.049835861
0.15170807 0.00034811534 -0.046629071
0.14871246 0.00034838822 -0.04789722
0.14281386 0.00032846816 -0.050372183
0.17735606 0.00017974433 -0.046105862
0.17502975 0.00016729347 -0.047075093
0.17437503 0.00017491262 -0.047356486
0.17208207 0.00018437859 -0.04833436
0.19909081 0.00023622438 -0.046352863
0.19615829 0.0002715271 -0.047573924
0.19222015 0.00027202349 -0.049228787
0.19681448 -0.00030703191 -0.048106909
0.21257269 0.00067163445 -0.049226522
0.22280106 0.00019011833 -0.045815945
0.21891502 0.00020563975 -0.047462165
0.21822852 0.00018863566 -0.047730982
0.21750706 0.00018034317 -0.048023582
0.21380207 8.6176209e-05 -0.049505532
0.24270132 0.00025631674 -0.045853198
0.24031085 0.00027234666 -0.046871245
0.23674852 0.00032491796 -0.04839468
0.26352805 0.00081477221 -0.044754803
0.26193336 0.00082176179 -0.045445979
0.26097253 0.0008404348 -0.04586941
0.25894248 0.00084102806 -0.046718478
0.25803 0.00083773024 -0.047114074
0.25704634 0.00084451213 -0.04752624
0.2560024 0.0008577453 -0.047951102
0.25997254 0.00021083467 -0.04705137
0.27994519 0.00050812587 -0.046271861
0.2753382 0.00049248617 -0.048181713
0.29663724 0.00057442579 -0.046780348
0.31296664 0.0012721522 -0.080174387
0.012500256 -0.0012573106 -0.048764467
0.016797811 -0.0016888147 -0.047844231
0.014727145 -0.0017515244 -0.048686862
0.046645641 -0.0011999914 -0.047504544
0.045674205 -0.0012007272 -0.047936499
0.045032114 -0.0011997074 -0.048191309
0.039420992 -0.0011731666 -0.050566733
0.050440103 -0.0017268835 -0.046730936
0.049797356 -0.0017349469 -0.046987414
0.048178822 -0.0017554713 -0.047661781
0.038764179 -0.0017108452 -0.051671982
0.074027032 -0.0010761246 -0.048150241
0.071667552 -0.0011273362 -0.049130201
0.070707113 -0.0011011614 -0.049535394
0.067098349 -0.0010698335 -0.051083803
0.077879697 -0.0016423399 -0.047345698
0.072594464 -0.0016226368 -0.049574018
0.10668418 -0.0013657371 -0.04651314
0.10402459 -0.001338331 -0.047625124
0.10306373 -0.0011189226 -0.047590613
0.10048401 -0.00082162302 -0.048286378
0.097855151 -0.00078029186 -0.049417198
0.12798214 -0.00089823175 -0.047928929
0.1270262 -0.00090108067 -0.048340499
0.13189444 -0.0014886158 -0.04706651
0.1263155 -0.0014418457 -0.049458385
0.15777683 -0.001363189 -0.046491802
0.15481919 -0.0013342341 -0.047759593
0.15319929 -0.0013268208 -0.048434913
0.15216759 -0.0013316693 -0.048867941
0.14995933 -0.00076770131 -0.048996747
0.14928797 -0.00077282172 -0.049277723
0.1727334 -0.00039296411 -0.048861563
0.16717523 -0.00039025117 -0.05118686
0.17563948 -0.00097627286 -0.04842478
0.17335626 -0.00096176099 -0.049410045
0.19972762 -0.00038705673 -0.046859145
0.20172065 -0.0010348372 -0.046791732
0.20068067 -0.0010076668 -0.04723841
0.19735098 -0.00089643989 -0.048677325
0.19449374 -0.00090520922 -0.049862444
0.22337875 -0.00043022633 -0.046350837
0.22176084 -0.0009773029 -0.047846615
0.21947491 -0.00098475069 -0.04880929
0.24424812 -0.00037104823 -0.045959771
0.24158052 -0.00096793007 -0.047877312
0.24095923 -0.00097034592 -0.048139334
0.23734555 -0.0009153029 -0.049692333
0.23604354 -0.00028686877 -0.049473405
0.26740614 -0.00047553889 -0.044648349
0.26513734 -0.0004584752 -0.045602322
0.26247793 -0.00044401363 -0.046734989
0.26999521 -0.0010748748 -0.044328749
0.26584357 -0.0010874979 -0.046077847
0.26412615 -0.001080757 -0.046793461
0.26158932 -0.0010601217 -0.047903836
0.28057519 -0.00016789231 -0.046735525
0.28505951 -0.00077632442 -0.045592487
0.27890426 -0.00074340589 -0.048233688
0.27726036 -0.00073936954 -0.048925459
0.29926267 -5.6153163e-05 -0.046441197
0.29176909 -2.0694919e-05 -0.049634695
0.30286416 -0.00069830101 -0.045687139
0.30186847 -0.00070325006 -0.046089292
0.3103314 0.00053895172 -0.081963897
0.31359547 -0.00018727873 -0.08126986
0.31192961 -0.00017132331 -0.081984818
0.30935675 -0.00013331324 -0.083106101
0.021188349 -0.0022237198 -0.046819091
0.020566463 -0.0022421544 -0.047065258
0.01890415 -0.0022734478 -0.047740996
0.015358329 -0.0022216151 -0.049283147
0.014003187 -0.0022475403 -0.049827993
0.017276525 -0.0026657693 -0.049327552
0.015987843 -0.0026877662 -0.049885154
0.011667818 -0.0026821503 -0.051702082
0.053030103 -0.0027345517 -0.047332764
0.047142446 -0.0027080514 -0.049818158
0.086288601 -0.0026802076 -0.045459628
0.080422312 -0.0026221233 -0.047969401
0.077199876 -0.0021567745 -0.048458874
0.07546103 -0.0021484839 -0.049202025
0.074900389 -0.0021392349 -0.04944545
0.10855246 -0.0019017365 -0.046536446
0.10722074 -0.0018929848 -0.047106564
0.10196644 -0.0019152109 -0.049295247
0.10790175 -0.0024257395 -0.047642946
0.099688441 -0.002415264 -0.051105201
0.13113925 -0.0020184694 -0.048214793
0.15408027 -0.0018802518 -0.048882127
0.1840719 -0.0015892386 -0.045646966
0.17918906 -0.0015562307 -0.047727227
0.17853662 -0.0015485929 -0.04800874
0.20370254 -0.0016125841 -0.046749711
0.19802687 -0.0020832135 -0.049987853
0.22751316 -0.0016790694 -0.046132326
0.22458234 -0.0016937247 -0.047358692
0.22234881 -0.002198108 -0.049157739
0.24643654 -0.0015848428 -0.046607554
0.24477312 -0.0015937658 -0.047288418
0.2432048 -0.0015963595 -0.047956765
0.23927227 -0.0015682373 -0.049647152
0.26053783 -0.0016792752 -0.049106836
0.28865254 -0.001450114 -0.044827521
0.28343761 -0.0014249338 -0.047040701
0.28114948 -0.0014659148 -0.047992706
0.30657756 -0.00088787638 -0.051589668
0.35783631 -0.00055576116 -0.096307814
0.019410044 -0.0032612225 -0.049223185
0.013259321 -0.0032267501 -0.05184114
0.023695052 -0.0037295371 -0.048291862
0.023074269 -0.0036994615 -0.048569739
0.055204421 -0.0033014892 -0.047213912
0.083645761 -0.0031584436 -0.047439575
0.081403971 -0.0031202603 -0.048399091
0.079414278 -0.0031411839 -0.049226403
0.078728586 -0.0031746402 -0.049492538
0.078036934 -0.0031861761 -0.049793661
0.084271967 -0.0037114955 -0.047986567
0.11558783 -0.0035214503 -0.046032548
0.11205328 -0.0035258783 -0.047529101
0.13043362 -0.0025625364 -0.049331605
0.12980309 -0.0025545093 -0.049603701
0.14054626 -0.0031182603 -0.04588753
0.13823882 -0.0031116419 -0.046868563
0.13398552 -0.0031391433 -0.048625469
0.16557547 -0.0030710259 -0.045619607
0.1629079 -0.0030539739 -0.046751499
0.16158769 -0.0030493359 -0.047311127
0.15863472 -0.003059925 -0.048549354
0.15703681 -0.0024715466 -0.048437417
0.15114868 -0.0024433429 -0.050937116
0.18039456 -0.0027116584 -0.048813045
0.17978239 -0.002714579 -0.049072862
0.17749935 -0.0026895283 -0.050064743
0.18660676 -0.0033203643 -0.046993434
0.18587366 -0.003320226 -0.047296345
0.2068938 -0.0027583148 -0.046994567
0.20619944 -0.0027553593 -0.047287285
0.19865692 -0.0026892223 -0.050516963
0.23270023 -0.0023167953 -0.044693112
0.22819135 -0.0022787242 -0.046632707
0.2252045 -0.0022836449 -0.04788667
0.23326918 -0.0029130005 -0.045238197
0.23109546 -0.002886124 -0.04618758
0.22874722 -0.0028838022 -0.047176659
0.22581899 -0.002883404 -0.048416913
0.25160438 -0.002243421 -0.045179069
0.24965337 -0.0022108043 -0.046005547
0.24866059 -0.0028220806 -0.047209799
0.24705464 -0.002817173 -0.047895133
0.24384716 -0.0022113291 -0.048456848
0.27058142 -0.0023389985 -0.045611918
0.26475972 -0.0023443 -0.048059046
0.27547139 -0.0030257981 -0.044278562
0.27121517 -0.0029935255 -0.046086848
0.26634231 -0.0029975548 -0.048153102
0.26209721 -0.0029631648 -0.049964666
0.2905764 -0.0020470573 -0.044804275
0.28923666 -0.0020732554 -0.045340538
0.28800583 -0.00210822 -0.045854986
0.28736225 -0.0021216217 -0.04611218
0.2860418 -0.002066562 -0.046693802
0.28417155 -0.0020589307 -0.047501326
0.281775 -0.0020827125 -0.048486769
0.30084008 -0.0020250888 -0.048015952
0.29724145 -0.0020380868 -0.049511254
0.30745301 -0.0022050585 -0.052713513
0.30911911 -0.001725948 -0.072110415
0.31095731 -0.0016543041 -0.083746016
0.02628243 -0.0041800486 -0.048056901
0.024317235 -0.004215911 -0.048882961
0.029117554 -0.0046825605 -0.047705472
0.025544703 -0.0046597207 -0.049222827
0.024880737 -0.0046877842 -0.049500465
0.01994729 -0.0046925046 -0.051573396
0.054412484 -0.0043000202 -0.049242437
0.05673632 -0.0047221133 -0.049140573
0.053792506 -0.0047505265 -0.05036658
0.053130895 -0.0047419383 -0.050660372
0.051825464 -0.004718042 -0.051230609
0.084865034 -0.0037292526 -0.047715604
0.076384753 -0.0037020701 -0.051312566
0.085517079 -0.004252803 -0.048280835
0.08982262 -0.0046873251 -0.047374189
0.11295784 -0.0040541063 -0.047968447
0.1109955 -0.0040511144 -0.048799992
0.11000901 -0.0040377169 -0.049221337
0.10611826 -0.0040172823 -0.050896525
0.1048294 -0.0039912472 -0.051438332
0.14113364 -0.0042047938 -0.04728961
0.13885063 -0.0036600973 -0.047429025
0.13623679 -0.0039202147 -0.048953176
0.13522664 -0.003649123 -0.048951268
0.13454005 -0.0036794087 -0.049214363
0.13331226 -0.0036853389 -0.049725771
0.13260436 -0.0036867647 -0.050031424
0.1674194 -0.0036376533 -0.04563278
0.16683254 -0.0036305278 -0.045889378
0.16220644 -0.0036129835 -0.047860265
0.16092148 -0.0036087274 -0.048416913
0.16022709 -0.0036080307 -0.048710048
0.15628654 -0.0035927268 -0.050383151
0.16869882 -0.0041779983 -0.045925796
0.15956429 -0.0041695521 -0.049793839
0.18945768 -0.0039059962 -0.04657042
0.21400201 -0.0039181304 -0.04558742
0.21271804 -0.003340112 -0.045328319
0.20969394 -0.0039394698 -0.047386587
0.20748141 -0.0039349906 -0.048338234
0.20256031 -0.0039732009 -0.050412178
0.23166978 -0.0034989892 -0.046719968
0.23621505 -0.0040948796 -0.045581937
0.23553029 -0.0040999316 -0.045869291
0.22935107 -0.0040844553 -0.048490345
0.22646171 -0.0040780362 -0.049726546
0.25451082 -0.0034781438 -0.045496285
0.24759433 -0.0040438729 -0.049215794
0.27680296 -0.0036374223 -0.044503152
0.29191613 -0.0033559548 -0.045758784
0.3063907 -0.0034023598 -0.04711473
0.30532113 -0.0034191087 -0.047550082
0.30245918 -0.0033243345 -0.04883635
0.30999333 -0.0031049419 -0.085511386
-0.00026491284 -0.0059565608 -0.048696935
0.026800305 -0.0051521091 -0.049547315
0.032964796 -0.0056497934 -0.047782719
0.031329483 -0.0056748935 -0.048490167
0.021158993 -0.00562322 -0.052794993
0.06156379 -0.0052730744 -0.047922313
0.059937537 -0.0052746516 -0.04862988
0.058648467 -0.0052687032 -0.049172342
0.057287842 -0.0052446015 -0.04974395
0.05929485 -0.0057687708 -0.049749553
0.057985723 -0.0057606781 -0.050289094
0.087167114 -0.0046957298 -0.048460662
0.082503021 -0.0051925867 -0.051276743
0.12003407 -0.0051155472 -0.046635807
0.11647975 -0.0053344448 -0.048592269
0.11453563 -0.0051110275 -0.048958004
0.11384985 -0.0051051909 -0.049251676
0.1442908 -0.0047989944 -0.046728313
0.13942283 -0.0047538397 -0.048825681
0.13720796 -0.0047298279 -0.049794793
0.13197023 -0.0047722063 -0.051948726
0.14885983 -0.0053138137 -0.045649111
0.14691105 -0.0053438102 -0.046458662
0.14624643 -0.0053438302 -0.046732485
0.14487487 -0.0053381696 -0.047310233
0.16967818 -0.00472527 -0.04634583
0.19008222 -0.0044741468 -0.04711777
0.18713176 -0.0044758776 -0.048368394
0.18356183 -0.0044540167 -0.049878359
0.18781188 -0.0050573475 -0.048875749
0.18417442 -0.0050300751 -0.050429702
0.21033922 -0.0045259688 -0.047914326
0.21530941 -0.0050819661 -0.046641529
0.25214285 -0.0047063539 -0.048047423
0.24925432 -0.0046703937 -0.049283504
0.2731072 -0.004268338 -0.046820402
0.27214152 -0.0042744614 -0.047221661
0.26757446 -0.0042452519 -0.049183011
0.28025892 -0.004866899 -0.044600666
0.27740008 -0.0048822495 -0.045798659
0.27373409 -0.0049138446 -0.047309816
0.26891693 -0.0042212689 -0.048629999
0.26817709 -0.0048553059 -0.049695611
0.29899603 -0.0046977894 -0.044230223
0.2963357 -0.004689177 -0.045341194
0.29311699 -0.0046642115 -0.04674381
0.3043758 -0.0040446599 -0.048736632
0.30839163 -0.0042148549 -0.05452621
0.30869401 -0.0040875319 -0.080968738
0.0066202581 -0.0069254199 -0.047479808
0.0016389191 -0.0069489544 -0.049577951
0.0010899007 -0.0069247619 -0.049830973
0.00018194318 -0.0068877758 -0.05022347
-0.0011787713 -0.0069080079 -0.050783455
0.037752748 -0.0061681159 -0.046604514
0.035793453 -0.0066134394 -0.048313081
0.035140246 -0.0065934812 -0.048602819
0.033491969 -0.0066128196 -0.049275935
0.031932056 -0.0066290596 -0.049938262
0.029627234 -0.0066147889 -0.050898135
0.027351528 -0.0061247572 -0.051018238
0.055933416 -0.005776505 -0.051142633
0.068689495 -0.0062795561 -0.046608448
0.067403048 -0.0062765032 -0.047142863
0.065693378 -0.0062893583 -0.047885656
0.063438505 -0.006292324 -0.048817039
0.062422007 -0.0062722387 -0.049251497
0.06084305 -0.0062790271 -0.049914479
0.092269599 -0.005796155 -0.047937751
0.08870545 -0.0057488368 -0.049493611
0.095527619 -0.0062507261 -0.047471821
0.093837947 -0.0062678177 -0.048156977
0.091587663 -0.0062877461 -0.04909265
0.12168589 -0.0056752781 -0.046758413
0.11935863 -0.0056118108 -0.047773302
0.15140536 -0.0063977838 -0.046222329
0.1481587 -0.0058787661 -0.046746135
0.14750499 -0.0058903387 -0.047024786
0.14553908 -0.0058944495 -0.047846377
0.14322481 -0.0064161513 -0.049662471
0.14166662 -0.0063821459 -0.050353765
0.14001319 -0.0058473726 -0.05021584
0.1712296 -0.0058610681 -0.047307968
0.17055309 -0.005848303 -0.047593236
0.16436833 -0.0058645327 -0.050189674
0.16303447 -0.0058588246 -0.050753176
0.1936211 -0.0056304433 -0.047217607
0.19071949 -0.0056218565 -0.048461318
0.18840644 -0.0056320927 -0.049423933
0.19586566 -0.0062152697 -0.047070146
0.19130373 -0.0061979564 -0.049016356
0.21160334 -0.0056919549 -0.048983157
0.21096548 -0.0057008211 -0.049244642
0.20509282 -0.0056896568 -0.051733494
0.2165651 -0.0062053083 -0.047742784
0.21589163 -0.0056467555 -0.047208786
0.23384103 -0.005319057 -0.048141181
0.23942313 -0.0059585562 -0.046563089
0.25637421 -0.0052812723 -0.047053933
0.25536743 -0.0053100274 -0.047459245
0.25413316 -0.0053371591 -0.04798162
0.25308436 -0.0053208391 -0.048426688
0.26387483 -0.0059317201 -0.044653177
0.25835538 -0.0059087384 -0.047014236
0.25732213 -0.0059029437 -0.047441185
0.27466506 -0.005533468 -0.047681749
0.30053794 -0.0059529715 -0.045110106
0.29964107 -0.0059651472 -0.045485377
0.29541203 -0.005972608 -0.047263741
0.29404891 -0.0059713717 -0.047837913
0.35902053 -0.004474652 -0.10375547
0.0088426471 -0.0074344031 -0.047400117
0.0045452118 -0.0073848916 -0.049216807
0.0029174984 -0.0074167801 -0.049899101
0.0023226142 -0.0074103475 -0.05014503
0.011776567 -0.0078548538 -0.047050118
0.0078458488 -0.007878786 -0.048684061
0.0054742396 -0.0078616235 -0.049680591
0.03838852 -0.0071313363 -0.04804796
0.037006378 -0.0071502607 -0.048622072
0.036357254 -0.0071296887 -0.048904419
0.030210614 -0.007099146 -0.051509619
0.03898856 -0.0076164799 -0.048655808
0.06009388 -0.0067823064 -0.051084697
0.069192827 -0.0073081702 -0.048068821
0.061713696 -0.0072777122 -0.051235318
0.096444905 -0.0067743491 -0.047903955
0.087901145 -0.0067585562 -0.051504016
0.086238772 -0.0072821872 -0.053031862
0.12088904 -0.006718752 -0.048752308
0.11868826 -0.0066630403 -0.049729109
0.11736697 -0.0071797017 -0.051133573
0.1156522 -0.0072184401 -0.051819026
0.1659492 -0.0064308261 -0.050323606
0.17476645 -0.0069868434 -0.047435164
0.17245403 -0.0069812452 -0.048413873
0.17180046 -0.0069851517 -0.048688531
0.16689625 -0.0069895391 -0.050731301
0.1965127 -0.0067806887 -0.04761225
0.19419852 -0.0067832218 -0.048576891
0.19193155 -0.0067700772 -0.049547017
0.18897763 -0.0067748851 -0.050788641
0.21227545 -0.0062798355 -0.0494923
0.20865241 -0.0062876241 -0.051013947
0.21713582 -0.0067741573 -0.04830879
0.24059853 -0.0071661547 -0.047626138
0.23870972 -0.006546366 -0.047649562
0.26022756 -0.00652734 -0.04698807
0.25925323 -0.0065296702 -0.047402203
0.25501031 -0.0065401806 -0.049166203
0.27854192 -0.0067311171 -0.047634184
0.27562743 -0.0067952815 -0.048811138
0.29692569 -0.0066230902 -0.047355592
0.2894156 -0.0065654148 -0.050568402
0.30688119 -0.006025116 -0.049883664
0.30494523 -0.0060315691 -0.050709844
0.30892652 -0.0059583271 -0.06318593
0.31325865 -0.0055676559 -0.080379367
0.31227225 -0.0062807989 -0.081496179
0.30965647 -0.0062256088 -0.08263731
0.010692328 -0.0083460705 -0.048331439
0.0097189248 -0.008335623 -0.048748493
0.0080217719 -0.0088312048 -0.050331056
0.0067299604 -0.0087979641 -0.050881267
0.0057018399 -0.0088088019 -0.05130136
0.047094315 -0.0085817967 -0.046950161
0.034001201 -0.0080687143 -0.051629782
0.032422185 -0.008088422 -0.052276969
0.070742279 -0.0078074145 -0.048260927
0.066553235 -0.0077969548 -0.05003655
0.064965695 -0.0077906279 -0.050720811
0.075061083 -0.008281555 -0.047296166
0.071764559 -0.0083060581 -0.048679829
0.064285368 -0.0082905404 -0.051840842
0.099562526 -0.0078306794 -0.048233688
0.097959548 -0.007811544 -0.048924565
0.092954934 -0.007861523 -0.051009119
0.09081313 -0.0078151189 -0.051952779
0.10214713 -0.0083840713 -0.047959328
0.097269326 -0.008326971 -0.050050437
0.094671279 -0.0083092544 -0.051172495
0.12638038 -0.0077433176 -0.048122048
0.12374088 -0.0078002135 -0.049201846
0.11788908 -0.0077139754 -0.051730752
0.12996686 -0.0083187176 -0.04741174
0.1250203 -0.0083031375 -0.049495399
0.12273479 -0.0083410852 -0.050464809
0.15872893 -0.0080750827 -0.045567691
0.14375597 -0.0080600567 -0.051889539
0.17763871 -0.0075522568 -0.047029376
0.17691991 -0.007551048 -0.04732883
0.1753388 -0.0075568147 -0.04799217
0.18249488 -0.0081356959 -0.045770586
0.18184522 -0.0081367604 -0.046039224
0.17891499 -0.008116628 -0.047300518
0.17299843 -0.0081010005 -0.049804807
0.20405379 -0.0080472594 -0.046023369
0.19483063 -0.0079298262 -0.049922884
0.22373655 -0.0073481742 -0.046354473
0.22086009 -0.007291303 -0.047601461
0.21918973 -0.0079211397 -0.049066544
0.2178061 -0.0073555806 -0.048826754
0.24619597 -0.0071873241 -0.045247257
0.24292156 -0.0071818605 -0.046638191
0.24118423 -0.0077688158 -0.048160553
0.23766381 -0.0077197235 -0.049670279
0.26190922 -0.0077579133 -0.047840476
0.25692195 -0.0077474583 -0.049933791
0.28307706 -0.0074182507 -0.046440363
0.2808919 -0.0074190209 -0.047384262
0.28541911 -0.0080285538 -0.04623431
0.30412108 -0.0072502615 -0.045102358
0.30222133 -0.0072482312 -0.045907974
0.30111092 -0.0078892466 -0.04712218
0.29854861 -0.0079163769 -0.04819262
0.307863 -0.007319238 -0.050994098
0.3093324 -0.0075680856 -0.057807803
0.30942279 -0.0072540026 -0.071038008
0.31124234 -0.0070192274 -0.082605422
0.3604053 -0.0062855212 -0.084006548
0.018699586 -0.0097675398 -0.04753083
0.010844767 -0.0097646238 -0.050847828
0.049504846 -0.0091237305 -0.046731651
0.041728675 -0.0090862559 -0.050043106
0.041169316 -0.0090443892 -0.050294101
0.04467544 -0.0095868008 -0.049641848
0.04395619 -0.0095821852 -0.049937844
0.043275505 -0.0095958235 -0.050221205
0.042626947 -0.0096029621 -0.050492167
0.040384322 -0.009524378 -0.05148536
0.072726339 -0.0088162739 -0.049121261
0.068070263 -0.0087730177 -0.051105559
0.065861344 -0.0087971631 -0.052032948
0.082860649 -0.0092578446 -0.045714915
0.074387044 -0.0092710229 -0.049278498
0.069999039 -0.0093235085 -0.051099658
0.10632098 -0.0094110221 -0.047891974
0.10496038 -0.0093856566 -0.048463821
0.10438943 -0.0088909203 -0.047852516
0.10366684 -0.0094410758 -0.048976302
0.10159552 -0.00914953 -0.049459279
0.099781007 -0.0088681113 -0.049810529
0.098806888 -0.0093748625 -0.051071465
0.09559384 -0.0088254735 -0.05162853
0.12924287 -0.0088338824 -0.048559785
0.12765431 -0.0088355765 -0.049242973
0.12567523 -0.0088133439 -0.050066769
0.12433225 -0.0088406894 -0.050616086
0.12857756 -0.0093624275 -0.04967308
0.15254176 -0.0085874349 -0.049013138
0.14831895 -0.0085981423 -0.050791144
0.14700729 -0.0086181778 -0.051344693
0.15646088 -0.0091538569 -0.048192322
0.15381613 -0.009132565 -0.049292326
0.15312627 -0.0091342088 -0.049587488
0.15087214 -0.0091229668 -0.050546169
0.18316549 -0.0086969398 -0.046305537
0.17594108 -0.0086799134 -0.049357712
0.17367473 -0.008669273 -0.050331593
0.17946005 -0.0092392424 -0.048684239
0.20265749 -0.0086358441 -0.047404706
0.20125785 -0.0086095277 -0.047999024
0.19543207 -0.0085081495 -0.050471425
0.20493507 -0.0091826152 -0.047249556
0.20196947 -0.0092054671 -0.048496962
0.20065445 -0.0085857045 -0.04826802
0.20000646 -0.0085642533 -0.048548758
0.19828412 -0.0090760766 -0.050096154
0.19702581 -0.0085013434 -0.049807906
0.2278856 -0.0085774604 -0.046149909
0.22426483 -0.0085494183 -0.047702312
0.22135085 -0.0084589301 -0.048981369
0.21977845 -0.0084889038 -0.049628735
0.23074669 -0.0091689592 -0.04572475
0.2220265 -0.009059337 -0.049486578
0.25193179 -0.0084235203 -0.044379771
0.24354398 -0.0083917631 -0.047937453
0.24187803 -0.0083809104 -0.048647165
0.25099468 -0.0090050651 -0.045575559
0.24672002 -0.0089737596 -0.047400713
0.24511102 -0.0089995349 -0.048055232
0.26763165 -0.0084365588 -0.046149194
0.2643646 -0.0083990181 -0.047541857
0.25791535 -0.0083657391 -0.050302625
0.28764808 -0.0087139159 -0.04602313
0.28373209 -0.0086639328 -0.047705293
0.2814101 -0.0087006753 -0.048674226
0.30877995 -0.0086257383 -0.05210501
0.31390324 -0.0077319364 -0.08218509
0.31282228 -0.0077248495 -0.082631528
0.31190872 -0.0077180155 -0.083026111
0.3460539 -0.0070549878 -0.10128671
0.017999619 -0.010664715 -0.049568176
0.017078578 -0.010666405 -0.049974442
0.016364962 -0.010686931 -0.050262928
0.015322715 -0.010716521 -0.050681353
0.014405668 -0.010264999 -0.050187051
0.013098836 -0.010237842 -0.05075568
0.011814922 -0.010198335 -0.051335514
0.050050378 -0.010093479 -0.04820323
0.047596127 -0.010037733 -0.049275517
0.045298398 -0.010047209 -0.050247848
0.052064955 -0.010528926 -0.048250198
0.051386774 -0.010524867 -0.048532069
0.049054831 -0.010585251 -0.049481094
0.048460186 -0.010548628 -0.049745977
0.04588598 -0.010510709 -0.050872326
0.073584557 -0.0097854733 -0.050451517
0.071929336 -0.0098152971 -0.051143169
0.069268405 -0.0098183844 -0.052256465
0.075225562 -0.010308435 -0.050599158
0.11012632 -0.0099460166 -0.04709971
0.1075682 -0.0099251848 -0.048206449
0.10226682 -0.0099440711 -0.050409377
0.10943693 -0.010448909 -0.048235834
0.10814974 -0.010437535 -0.048782647
0.10293844 -0.010484123 -0.050956726
0.13179663 -0.0099340258 -0.049118102
0.12657264 -0.0098765483 -0.051356435
0.13302034 -0.010491913 -0.049411833
0.13074809 -0.010454548 -0.050393045
0.15964317 -0.0097252112 -0.04763478
0.15572578 -0.0096910018 -0.049320102
0.15437424 -0.009668245 -0.049886346
0.15892121 -0.010268001 -0.048762739
0.15801218 -0.01025282 -0.049158573
0.15501362 -0.010217959 -0.050439
0.18361107 -0.0098202387 -0.047727823
0.18070728 -0.0098168915 -0.048952222
0.17419371 -0.0097818486 -0.05174154
0.22847465 -0.0097504286 -0.04748559
0.22485492 -0.0097495932 -0.04901576
0.22262838 -0.0096592214 -0.050021172
0.24737918 -0.0095802778 -0.047900498
0.24575403 -0.0095930658 -0.048573792
0.27026179 -0.0096267154 -0.046624303
0.26605138 -0.0096380785 -0.048383772
0.29153064 -0.0092825061 -0.045203567
0.29085678 -0.0092728641 -0.045482576
0.2895534 -0.0093038874 -0.046012938
0.28830194 -0.0093411058 -0.046528161
0.28433365 -0.0092957467 -0.048212647
0.28892368 -0.0099458266 -0.047042549
0.28593257 -0.0099242451 -0.048303246
0.30276245 -0.0091774911 -0.047943532
0.29916593 -0.0091872541 -0.049463928
0.30666441 -0.0098876823 -0.047004879
0.3017287 -0.0098209698 -0.049136281
0.021499962 -0.011183046 -0.048933268
0.019169509 -0.011215765 -0.049889624
0.022770554 -0.011654003 -0.049258471
0.020387024 -0.011700225 -0.050233662
0.019753098 -0.011700339 -0.050493896
0.053368241 -0.011026612 -0.048551559
0.050679654 -0.011035015 -0.049664795
0.056168497 -0.011589412 -0.048168838
0.052278936 -0.011498922 -0.049868822
0.077408165 -0.010820179 -0.050509572
0.076433092 -0.010824242 -0.050918341
0.083952993 -0.01128967 -0.048623264
0.081026226 -0.011273236 -0.049858332
0.080383033 -0.01127114 -0.050129056
0.078994781 -0.011318352 -0.050689638
0.078123271 -0.010828403 -0.050213456
0.075779825 -0.010815024 -0.051206648
0.1116755 -0.011516892 -0.048940122
0.11104178 -0.011510187 -0.049212754
0.11033988 -0.011495702 -0.049516797
0.10882449 -0.010965159 -0.049333096
0.10645181 -0.011475231 -0.0511868
0.10584226 -0.01145975 -0.051442742
0.1385543 -0.010978818 -0.047946811
0.13491333 -0.011014849 -0.049434602
0.13362205 -0.011017232 -0.049977303
0.15725884 -0.010794437 -0.050301433
0.16446698 -0.01137132 -0.048050582
0.16317967 -0.011357872 -0.04860729
0.162478 -0.011355272 -0.048902333
0.16115206 -0.011345168 -0.04948318
0.16052708 -0.011348356 -0.049737453
0.15823913 -0.011344479 -0.050702214
0.18559721 -0.010401274 -0.047700882
0.18134496 -0.010375543 -0.049495697
0.18010375 -0.010367984 -0.050031841
0.17704606 -0.010347463 -0.051335633
0.18617132 -0.010957411 -0.048272789
0.18262583 -0.010934837 -0.049779713
0.20880413 -0.010314852 -0.047218382
0.20714891 -0.010888202 -0.048725665
0.20644623 -0.010884353 -0.049020112
0.23523566 -0.010357431 -0.045407653
0.2329649 -0.010371372 -0.046353281
0.22907737 -0.010337331 -0.048025072
0.23032102 -0.010929897 -0.048285067
0.24891326 -0.010188797 -0.048025131
0.24637368 -0.0101893 -0.049109936
0.25153074 -0.010825213 -0.047696233
0.25057119 -0.010809918 -0.048107505
0.24795949 -0.010781306 -0.049230516
0.2711308 -0.010565517 -0.047398448
0.26664141 -0.010263732 -0.048904836
0.26918179 -0.010866601 -0.048624337
0.2921738 -0.010553754 -0.046463013
0.28691143 -0.010567149 -0.04865104
0.3046225 -0.010493467 -0.04865545
0.30372432 -0.010447171 -0.04906559
0.028856635 -0.012138808 -0.047544658
0.025318295 -0.012159245 -0.049034059
0.024050355 -0.012136635 -0.049573243
0.023357987 -0.012121601 -0.049871325
0.027239203 -0.01261238 -0.049079895
0.026609182 -0.012595997 -0.049343646
0.02590093 -0.012613778 -0.049640477
0.024598479 -0.012637181 -0.050187171
0.054821491 -0.012044955 -0.049606085
0.05536446 -0.012570007 -0.050207675
0.054080635 -0.012510491 -0.05077523
0.082310051 -0.011760301 -0.050171494
0.081572115 -0.011766454 -0.050478697
0.086484164 -0.012350997 -0.049201787
0.085466117 -0.012352375 -0.049625158
0.084519982 -0.012314195 -0.050054133
0.11584619 -0.012024803 -0.048018336
0.11716339 -0.012500392 -0.048337758
0.11482608 -0.012541143 -0.049285531
0.11350048 -0.012544632 -0.049841166
0.11289605 -0.012549259 -0.050105333
0.11221519 -0.012547494 -0.050391972
0.13912418 -0.012045933 -0.049356282
0.13752958 -0.012030485 -0.050056875
0.13623384 -0.011510397 -0.049739659
0.13552162 -0.011531077 -0.05002141
0.16580313 -0.011922705 -0.048312068
0.16178203 -0.011899201 -0.050020635
0.15979701 -0.011899916 -0.050856829
0.19036725 -0.012093552 -0.048107684
0.18776447 -0.011808766 -0.048812926
0.18680009 -0.011520328 -0.048820913
0.18325475 -0.011496115 -0.050324321
0.21429116 -0.011446636 -0.046518981
0.21066591 -0.011469606 -0.048032165
0.2099998 -0.011465469 -0.048312783
0.21922547 -0.01191705 -0.045328379
0.21489727 -0.012019509 -0.047069252
0.21355566 -0.012030686 -0.04762423
0.21194583 -0.012033886 -0.048308194
0.21132064 -0.012038691 -0.048566699
0.23744071 -0.011829907 -0.046455741
0.23615333 -0.011524647 -0.04661268
0.2344799 -0.012132229 -0.048098087
0.23349866 -0.011553129 -0.047709227
0.23226538 -0.011533832 -0.048250973
0.23129377 -0.011523794 -0.048670232
0.25664711 -0.011404669 -0.046319723
0.2524071 -0.011431393 -0.048106492
0.24951485 -0.011392733 -0.049344599
0.25534594 -0.012030371 -0.04765135
0.25440729 -0.012042883 -0.048043668
0.25338069 -0.012040267 -0.048477411
0.27770957 -0.011516902 -0.045784056
0.27693596 -0.011514321 -0.046097875
0.27399507 -0.011526146 -0.047332466
0.27236372 -0.011523005 -0.048013747
0.29372007 -0.011201682 -0.046561301
0.29275751 -0.011191174 -0.046978414
0.30088276 -0.011843102 -0.044290245
0.29667962 -0.011856016 -0.046053112
0.30430099 -0.011123827 -0.049554288
0.30626291 -0.011819209 -0.049435318
0.31099543 -0.010906783 -0.080460608
0.00018143654 -0.013576387 -0.048277497
-0.0011115372 -0.013626564 -0.04878974
0.029456466 -0.013093684 -0.048993647
0.0323672 -0.013579395 -0.048638284
0.031654716 -0.013572476 -0.04893887
0.030755609 -0.013543774 -0.049306273
0.030052185 -0.013560317 -0.049596488
0.027789176 -0.013541803 -0.050563872
0.064536631 -0.013030881 -0.047203243
0.060026735 -0.013014528 -0.049131274
0.059022456 -0.013014476 -0.049547255
0.058350414 -0.0129994 -0.049832523
0.05766058 -0.012973441 -0.050130069
0.063142866 -0.013494244 -0.048648357
0.061894298 -0.013501182 -0.049174368
0.093219131 -0.013374273 -0.048031092
0.090732425 -0.013285759 -0.049165785
0.089401305 -0.012806748 -0.048860133
0.08808735 -0.012787527 -0.049403667
0.087437391 -0.013295177 -0.050519407
0.1203326 -0.013047908 -0.04780525
0.11777094 -0.01300423 -0.048933506
0.11414585 -0.013058777 -0.050410032
0.14132524 -0.012585505 -0.049249351
0.14040431 -0.0125865 -0.049636245
0.13974196 -0.01258533 -0.049919665
0.14517716 -0.013154467 -0.048416257
0.14358315 -0.013135025 -0.049113035
0.14298686 -0.013113054 -0.049390554
0.13869002 -0.013107255 -0.051196277
0.17214179 -0.013004386 -0.047288418
0.17029846 -0.012437571 -0.047262251
0.1692645 -0.012725677 -0.048084736
0.16822663 -0.012468208 -0.048093319
0.19327384 -0.012656501 -0.047685564
0.19103634 -0.012645508 -0.048648179
0.18933302 -0.012658877 -0.049350083
0.19845581 -0.013209392 -0.046334565
0.19390091 -0.013218779 -0.048231602
0.19160354 -0.013202839 -0.049224555
0.21681461 -0.013116133 -0.047904193
0.21588364 -0.012867899 -0.04787308
0.24034443 -0.01275251 -0.046410322
0.2393662 -0.012738567 -0.04682374
0.26055443 -0.012613636 -0.046260536
0.25956458 -0.012610082 -0.046686947
0.25726676 -0.012591468 -0.047641754
0.25630262 -0.012616056 -0.048035204
0.25300753 -0.012640469 -0.049418271
0.27989602 -0.012093768 -0.045662224
0.2746498 -0.012147456 -0.04782784
0.2818543 -0.012776169 -0.045578897
0.28120095 -0.012742471 -0.045880675
0.28050953 -0.012712392 -0.046179235
0.27857015 -0.01271203 -0.046996474
0.27521262 -0.012772069 -0.048356712
0.29820615 -0.012498666 -0.046157122
0.29728723 -0.012494141 -0.046549141
0.29562372 -0.012499435 -0.047255337
0.29178554 -0.012430774 -0.048927903
0.30831414 -0.011916034 -0.056016266
0.31419301 -0.01165602 -0.079773962
0.31058484 -0.012306911 -0.082046866
0.0057455003 -0.014057734 -0.046770215
0.0016281605 -0.014046248 -0.048526287
0.0043940842 -0.014534459 -0.048201025
0.00064861774 -0.014497147 -0.049809575
-0.00067192316 -0.014508492 -0.05035162
-0.0022781789 -0.014593468 -0.050963163
0.036225677 -0.014000302 -0.047883868
0.033918738 -0.014019805 -0.048834682
0.15346438 -0.01479684 0.00089222193
0.036790848 -0.01450488 -0.048478842
0.035519421 -0.014456917 -0.04904443
0.066073865 -0.014004691 -0.048274755
0.063770175 -0.014006148 -0.049230576
0.069620639 -0.014495926 -0.047608554
0.068360269 -0.014464503 -0.048158288
0.092549771 -0.013847935 -0.049185991
0.091929615 -0.013836646 -0.049461126
0.097406358 -0.014317846 -0.047998726
0.094781399 -0.014310949 -0.049116671
0.12195638 -0.013601021 -0.047935247
0.12092686 -0.013579652 -0.048380077
0.12256229 -0.014129801 -0.048522472
0.11964318 -0.014057279 -0.049790859
0.15233502 -0.014184697 -0.047084391
0.15068695 -0.014194461 -0.04777205
0.14972457 -0.013660741 -0.047349453
0.14837015 -0.013691353 -0.047898173
0.14679396 -0.013691768 -0.048566341
0.14580479 -0.013689774 -0.048979819
0.17279342 -0.013545582 -0.047839403
0.17152148 -0.013541149 -0.048375309
0.17084581 -0.013531228 -0.048666418
0.19680539 -0.013780586 -0.047819257
0.19448674 -0.013779474 -0.048793435
0.19218326 -0.013764914 -0.049782336
0.22115123 -0.013592502 -0.046967149
0.21812978 -0.013653653 -0.048186183
0.21747279 -0.013665384 -0.048455238
0.22176361 -0.014153332 -0.047523022
0.24322072 -0.013356667 -0.045971751
0.24157888 -0.013348686 -0.046673238
0.24097139 -0.013345709 -0.04693526
0.24481553 -0.013962784 -0.046075642
0.24224982 -0.013948191 -0.047175169
0.26577207 -0.013850475 -0.045599341
0.26473111 -0.013837872 -0.046042979
0.26413453 -0.013248633 -0.045508385
0.26313686 -0.013830896 -0.046733856
0.26217523 -0.013812337 -0.04715687
0.26154098 -0.013212034 -0.046626866
0.2592338 -0.013814928 -0.048401475
0.25400305 -0.013847942 -0.050572813
0.28338307 -0.013364776 -0.045700252
0.282785 -0.013393044 -0.045945346
0.28575912 -0.013970446 -0.045491457
0.27947414 -0.013946287 -0.048170328
0.30145365 -0.013739166 -0.046338797
0.29882801 -0.013755667 -0.047426045
0.29783547 -0.013763968 -0.047845006
0.30721599 -0.013101133 -0.050553739
0.30844259 -0.013723409 -0.050810695
0.0033008456 -0.015455438 -0.0503878
0.0023664832 -0.015219916 -0.0503546
-0.00029236078 -0.015412629 -0.051931441
0.010777146 -0.015888695 -0.048100471
0.0098401904 -0.015914192 -0.048499703
0.0078668296 -0.015880056 -0.049347281
0.040710777 -0.01495971 -0.047693491
0.039990783 -0.01545704 -0.048850358
0.03904289 -0.015227908 -0.048810959
0.037998974 -0.014999952 -0.048817515
0.037385613 -0.014992265 -0.04907608
0.071782023 -0.015463822 -0.048401117
0.067557126 -0.014981619 -0.04932642
0.10154033 -0.015359369 -0.047919691
0.099928379 -0.015328833 -0.048617065
0.098952383 -0.014817105 -0.048193574
0.098310381 -0.015315799 -0.049307764
0.09624964 -0.015050008 -0.049782097
0.094038546 -0.01482217 -0.050265551
0.12114111 -0.014621482 -0.049957037
0.11889771 -0.014568259 -0.050946951
0.12673411 -0.015099158 -0.048462152
0.12606993 -0.01512688 -0.048714936
0.12536573 -0.015128637 -0.049011469
0.12477145 -0.01514666 -0.049259245
0.15298027 -0.014724202 -0.047628701
0.17924526 -0.014648726 -0.046750307
0.17857605 -0.015191313 -0.047852635
0.17728457 -0.014652381 -0.047568142
0.17594215 -0.01492741 -0.048544347
0.16775259 -0.015195492 -0.052394271
0.19974256 -0.014350871 -0.047423124
0.19775289 -0.0143338 -0.048245668
0.19516069 -0.014340008 -0.049324095
0.200306 -0.0149328 -0.047990203
0.22624069 -0.014279297 -0.045547843
0.22685832 -0.014845773 -0.046093047
0.22431061 -0.014787721 -0.047218025
0.22235993 -0.014730425 -0.048068702
0.32735607 -0.014716454 -0.011972547
0.24547786 -0.014552165 -0.046591938
0.24390286 -0.014540232 -0.04727298
0.26636121 -0.014454753 -0.046135366
0.26920247 -0.015052568 -0.045737863
0.26792738 -0.015094293 -0.046250165
0.2636717 -0.015042053 -0.048065424
0.28627571 -0.014588876 -0.046032071
0.28405362 -0.014593946 -0.046977997
0.36027539 -0.014198197 -0.080062807
0.0051724017 -0.017066557 -0.0047314763
0.080681056 -0.016974527 -0.0053943992
0.077345192 -0.016981252 -0.0068031549
0.0068357289 -0.016342411 -0.050634325
0.0048313737 -0.016337391 -0.051479936
0.0042133629 -0.016353372 -0.051742792
0.0057286322 -0.016790405 -0.051977396
0.042829365 -0.015970115 -0.048481405
0.047435075 -0.016385585 -0.047450304
0.045063049 -0.01642454 -0.048398972
0.042176932 -0.016392646 -0.049643815
0.060977936 -0.015934778 -0.053824246
0.080615401 -0.016435476 -0.046373248
0.075383365 -0.016409002 -0.048599958
0.073714674 -0.016447578 -0.049284279
0.065223247 -0.016431408 -0.052884817
0.10506997 -0.015864164 -0.047266901
0.10801855 -0.016374353 -0.046889663
0.10599181 -0.016337626 -0.047742724
0.10075584 -0.016361343 -0.049936712
0.13511226 -0.016223684 -0.046541095
0.13320982 -0.016204817 -0.047364235
0.13056567 -0.016173989 -0.048496008
0.12930152 -0.015643915 -0.04820776
0.12399715 -0.015676184 -0.050417542
0.15745118 -0.015805092 -0.04741019
0.15342617 -0.016316725 -0.04992336
0.18276361 -0.015764629 -0.04687804
0.17982239 -0.015743515 -0.048138201
0.18463981 -0.016322803 -0.046899557
0.20917669 -0.016108304 -0.045829415
0.20855647 -0.016109284 -0.046099842
0.2049416 -0.016136913 -0.0476197
0.20329183 -0.01587157 -0.047909021
0.20226309 -0.015572783 -0.047940552
0.20124274 -0.015817491 -0.048790932
0.34430912 -0.015674012 0.0027916431
0.2303783 -0.015418639 -0.045406461
0.22817957 -0.015413614 -0.046347797
0.22749224 -0.015417727 -0.046634674
0.22520208 -0.015398863 -0.047611713
0.23395768 -0.016025685 -0.044671953
0.22944826 -0.015987685 -0.046610832
0.22873983 -0.015989795 -0.046908677
0.24925932 -0.01570821 -0.046589017
0.24765846 -0.015710426 -0.047279775
0.27412075 -0.015702648 -0.044408977
0.26856932 -0.015675262 -0.04677701
0.26531404 -0.015651394 -0.048145592
0.27118438 -0.015645605 -0.045679271
0.27053061 -0.015642731 -0.04596895
0.28859752 -0.015264699 -0.045808554
0.30405298 -0.014983668 -0.046795368
0.30303112 -0.015617758 -0.047974944
0.30040574 -0.015626255 -0.049080789
0.35616753 -0.015101055 -0.032166481
0.31059492 -0.014853476 -0.078420997
0.3288303 -0.014472638 -0.076440811
0.3131237 -0.014464132 -0.083049178
0.31152061 -0.014484051 -0.083711624
0.35892451 -0.014901363 -0.1067884
0.0097057521 -0.01792681 -0.0045560002
0.0021073818 -0.018395813 -0.0085968971
0.087792575 -0.017802022 -0.0041657686
0.085823148 -0.017813563 -0.0049885511
0.085153252 -0.017845962 -0.0052461028
0.069445878 -0.01783707 -0.011887968
0.10406539 -0.018292202 0.0018522739
0.10079145 -0.018278774 0.00045222044
0.10304794 -0.017869666 -0.012570679
0.014483005 -0.017305695 -0.049123228
0.013849348 -0.017729651 -0.050267696
0.010913581 -0.017712502 -0.05150789
0.010001987 -0.017262584 -0.051030338
0.0089161396 -0.017730026 -0.052364409
0.0080652237 -0.017248005 -0.051861227
0.05045405 -0.017395249 -0.047820747
0.048989117 -0.016873864 -0.047614992
0.045719147 -0.016891092 -0.048996389
0.044321418 -0.016904403 -0.049569488
0.042975843 -0.017383173 -0.05099529
0.04144758 -0.017310929 -0.051676631
0.052485377 -0.01779969 -0.047869325
0.047920108 -0.017799487 -0.049800992
0.04694885 -0.017800091 -0.050232828
0.19547728 -0.017712418 0.00054705143
0.172077 -0.017153285 -0.0085151196
0.16936943 -0.017637759 -0.010513723
0.16868788 -0.017633149 -0.010804057
0.07918328 -0.017430495 -0.048685431
0.077584386 -0.016941328 -0.04849565
0.076247871 -0.017411996 -0.049929798
0.070970029 -0.016936358 -0.051292002
0.070322484 -0.016939921 -0.051564693
0.066793829 -0.016914837 -0.053077459
0.10855034 -0.016871871 -0.047500551
0.094891757 -0.016804811 -0.053300738
0.11046371 -0.017385848 -0.047524095
0.099051982 -0.017320408 -0.052369118
0.13899958 -0.017211841 -0.046629786
0.13766655 -0.017216597 -0.047179282
0.12754127 -0.01718897 -0.051466942
0.15671596 -0.016867712 -0.049377859
0.25767416 -0.017674789 -0.00746876
0.1654993 -0.017437676 -0.04645288
0.14977401 -0.017375302 -0.053130627
0.14913294 -0.017372079 -0.053400755
0.27353099 -0.017063316 -0.010151684
0.18527827 -0.016873911 -0.047451973
0.20615822 -0.016662974 -0.047924817
0.20549682 -0.016681071 -0.048196852
0.20426017 -0.016695917 -0.048730671
0.21334848 -0.017218456 -0.045698166
0.20978045 -0.017230507 -0.047199726
0.20677519 -0.017223474 -0.048468351
0.34454823 -0.016819775 0.001281023
0.23162094 -0.016564777 -0.046488404
0.25278869 -0.016929118 -0.046680629
0.24592811 -0.016895045 -0.04957813
0.23785195 -0.016235355 -0.052237511
0.32597864 -0.016982827 -0.02407527
0.27667645 -0.016912688 -0.044896126
0.27176058 -0.016855054 -0.047005236
0.29537272 -0.016494168 -0.044507921
0.29314226 -0.016445076 -0.045497358
0.29142883 -0.016425429 -0.046204388
0.30595466 -0.016310012 -0.047481
0.30201864 -0.016257288 -0.049169123
0.31476796 -0.015892629 -0.083750188
0.0013956726 -0.019186899 -0.010691166
0.071374148 -0.019166349 0.0021019578
0.10493788 -0.018734228 0.0013520122
0.090591282 -0.018765088 -0.0046812296
0.0810574 -0.018738182 -0.0087233186
0.098057985 -0.019206844 -0.0024132729
0.086884171 -0.019126218 -0.0071626306
0.086295068 -0.019133572 -0.0074070096
0.1229727 -0.018357802 -0.0050323606
0.055301756 -0.018241439 -0.033631146
0.019628376 -0.018203024 -0.048685372
0.016751528 -0.018178158 -0.049929619
0.016071618 -0.01819328 -0.050206244
0.13949171 -0.018943984 0.0011678934
0.012748033 -0.018600386 -0.052502275
0.011784047 -0.018621761 -0.052892327
0.067788571 -0.018358901 -0.042243659
0.046255141 -0.018269356 -0.051368713
0.043492734 -0.018315123 -0.052494466
0.1089496 -0.018871773 -0.025705278
0.053691387 -0.018758859 -0.049081922
0.051659286 -0.018766189 -0.049924552
0.051016062 -0.018774353 -0.050181329
0.18728986 -0.018154927 -0.0037855506
0.073848993 -0.017896226 -0.051786721
0.20131028 -0.018691864 0.0013027787
0.19706157 -0.018675547 -0.00050872564
0.19474232 -0.018688232 -0.0014712214
0.1878956 -0.018638678 -0.0043902397
0.084352136 -0.018355686 -0.048228502
0.083673 -0.018342081 -0.048521638
0.078449041 -0.018400237 -0.050689042
0.07671079 -0.018391963 -0.051432073
0.074544638 -0.018347053 -0.052369714
0.1091792 -0.017875401 -0.04891938
0.10392436 -0.017904785 -0.051113605
0.10163498 -0.017862193 -0.052102983
0.20979992 -0.018739285 -0.0071447492
0.20026428 -0.018624326 -0.01119107
0.11628488 -0.018410619 -0.046736777
0.10974169 -0.018382218 -0.04952383
0.14285421 -0.017745886 -0.045825481
0.13394609 -0.017769825 -0.049546123
0.13165012 -0.018250838 -0.051377058
0.12816736 -0.017708618 -0.052042484
0.27847394 -0.018254742 0.00051313639
0.16611946 -0.017967854 -0.04702723
0.16477609 -0.017963573 -0.047589958
0.15595102 -0.01791021 -0.051354885
0.15462789 -0.017901545 -0.051904976
0.28687823 -0.017684206 -0.0053067207
0.18586937 -0.017426526 -0.048024416
0.17735714 -0.017373368 -0.051643193
0.17382884 -0.017369933 -0.053140581
0.27962452 -0.018201407 -0.0091831684
0.18946648 -0.017991737 -0.047310054
0.18647933 -0.017975423 -0.048582852
0.18292886 -0.017943336 -0.050095022
0.18031472 -0.017930783 -0.051207304
0.21394217 -0.017779363 -0.046256304
0.21953598 -0.018229501 -0.044796526
0.25181139 -0.017503738 -0.047892034
0.2508046 -0.017484371 -0.048314989
0.26192564 -0.018078696 -0.04443264
0.2608712 -0.018077493 -0.044875681
0.25897643 -0.018073738 -0.045683801
0.25238428 -0.018104751 -0.048433423
0.25147656 -0.018084666 -0.048831105
0.24849901 -0.018060913 -0.050097823
0.27727953 -0.017501116 -0.045437336
0.26751658 -0.017486062 -0.049569249
0.29702717 -0.01711439 -0.044585884
0.29591462 -0.017723434 -0.045821607
0.29005736 -0.01768795 -0.048312366
0.28915727 -0.017097719 -0.04791379
0.2871635 -0.017671686 -0.049539804
0.30559132 -0.016938986 -0.048403144
0.32311395 -0.016908551 -0.062306166
0.33862677 -0.017087003 -0.086292744
0.36122447 -0.017174356 -0.08232832
0.35922742 -0.016434999 -0.082493722
0.014679164 -0.019985113 -0.0068870783
0.0022311807 -0.020034822 -0.01208508
0.0015643537 -0.020015478 -0.012376308
0.00073444843 -0.019927226 -0.012799025
0.03058812 -0.020436559 -0.0010437965
0.025632471 -0.020440731 -0.0031118989
0.021438926 -0.020398181 -0.0049241185
0.020761281 -0.020396104 -0.0051994324
0.0055551231 -0.020328593 -0.011653185
0.067689389 -0.019572649 -0.00032889843
0.058574975 -0.019520143 -0.0042169094
0.0026584566 -0.019420659 -0.027850688
-0.0011634827 -0.019830063 -0.030352294
0.12116164 -0.019697363 0.0064977407
-0.0017360747 -0.019512922 -0.045428336
0.11846507 -0.020147149 0.0044823289
0.088126838 -0.020006318 -0.0083856583
0.043641508 -0.019923277 -0.027198076
0.020472914 -0.019884259 -0.036982179
0.01494059 -0.019891549 -0.039318979
0.012919694 -0.019907696 -0.040162146
0.011951417 -0.019889824 -0.04057008
0.00058960915 -0.01987176 -0.045384467
0.14276698 -0.019356567 0.0016508102
0.14077976 -0.01939474 0.00084745884
0.1365529 -0.019355591 -0.00096827745
0.12807468 -0.019371431 -0.0045518875
0.12447152 -0.01928813 -0.0061059594
0.12054971 -0.019325074 -0.0077300072
0.11663413 -0.019330386 -0.0093846321
0.11599779 -0.019323125 -0.0096570849
0.11529356 -0.019308383 -0.009960711
0.029638976 -0.01911319 -0.046206951
0.020191073 -0.019139232 -0.050165713
0.018610418 -0.019046357 -0.050878882
0.017677933 -0.019054329 -0.051288962
0.15314901 -0.019873742 0.0052011609
0.15114492 -0.019874115 0.0043692589
0.14795011 -0.019824121 0.0029696822
0.14627936 -0.019828869 0.0022717714
0.14200032 -0.019814141 0.00047153234
0.13484308 -0.019787272 -0.0025708079
0.12703615 -0.019807165 -0.0058454871
0.12215698 -0.019734606 -0.0079590678
0.053830504 -0.019586865 -0.036847532
0.057194173 -0.018827753 -0.047556102
0.049976975 -0.018801806 -0.050608039
0.049398422 -0.018794451 -0.050856113
0.15616733 -0.019937407 -0.0074335337
0.12445411 -0.019878093 -0.020835817
0.093503237 -0.019756492 -0.033990562
0.07118535 -0.019319631 -0.042500019
0.058731407 -0.019720569 -0.048648775
0.057841718 -0.019239541 -0.04817158
0.055764347 -0.019776739 -0.04987669
0.055240273 -0.019256935 -0.049255192
0.054291457 -0.019242834 -0.049679041
0.18650246 -0.019120313 -0.0058243275
