# .PCD v0.7 - Point Cloud Data file format
VERSION 0.7
FIELDS x y z
SIZE 4 4 4
TYPE F F F
COUNT 1 1 1
WIDTH 1320
HEIGHT 1
VIEWPOINT 0 0 0 1 0 0 0
POINTS 1320
DATA ascii
0.039164975 0.034503888 0.010472422
-0.0009939 0.054025728 0.012232283
0.075048611 0.010157257 0.0077656768
-0.00030149519 0.046677474 0.0109403
0.062753171 0.0091718212 0.0072718072
0.059262916 0.010849401 0.0074098865
0.058302313 0.011319533 0.0074629635
0.0043027401 0.037510298 0.009752173
0.047416821 0.0096990839 0.0071467925
0.044818267 0.010960605 0.0072392495
0.0044385493 0.030552905 0.0089595011
0.0012760386 0.032089245 0.0090997927
0.036029309 0.009110339 0.0063316389
0.034783706 0.009716738 0.0063978089
0.031639442 0.01045645 0.0071660774
0.03055393 0.010997623 0.007229737
0.0037172511 0.02396382 0.0083173765
0.0016963482 0.025720723 0.0077374997
0.0036316887 0.017966781 0.0072364653
0.0092734098 0.009171322 0.0060900608
0.0070160106 0.010252342 0.0061790552
0.0048247725 0.01128003 0.0062337159
0.0038090125 0.011758566 0.0062380675
-0.00069857016 0.14536566 0.024392903
-0.00030449405 0.14425464 0.024806272
-0.00086466596 0.13388938 0.023169151
0.040368252 0.11382939 0.02135893
0.030864477 0.11843356 0.021734523
0.00092298165 0.12238475 0.021708703
-0.00035369396 0.12301782 0.02177345
0.11709857 0.055438861 0.015751794
0.026489049 0.099322423 0.019510826
-0.0023440868 0.11338237 0.020919546
0.00078685209 0.10303968 0.018968787
0.1016791 0.044434682 0.013726608
0.15201904 0.011252068 0.010382237
0.15068574 0.011900656 0.010435274
0.14935511 0.012499899 0.010429757
0.13344093 0.011520267 0.010200984
0.089648798 0.032716244 0.012019143
-0.0006415993 0.07651028 0.015843334
0.11785392 0.01118473 0.0095916381
0.11689673 0.011650041 0.0096236104
0.0022194386 0.05944968 0.013470546
0.00029684603 0.060369667 0.01353817
0.0031879246 0.051153634 0.01260893
0.073525533 0.010071971 0.0084197652
0.07254459 0.01052013 0.0084387464
0.070691675 0.011488132 0.0086072143
0.059679836 0.0098557845 0.0080172662
0.056876004 0.011206791 0.0081406552
0.00159394 0.037216481 0.011111595
0.028666258 0.011141747 0.0079664532
0.017720647 0.010328546 0.0072780862
0.016834214 0.010772724 0.0073539549
0.0022020191 0.017867953 0.0079466766
0.0050494149 0.0096606612 0.0075739967
0.0018036887 0.011239976 0.0076980963
0.044735625 0.12052032 0.023700044
7.0758164e-05 0.1325544 0.023600854
0.001453869 0.12122954 0.022153331
-0.0019406565 0.12290166 0.022316605
0.00076620653 0.11099129 0.021221161
-0.00012475625 0.1114149 0.02125176
-0.0011320896 0.1119147 0.021327514
-0.0020487048 0.11234379 0.021377428
0.10712984 0.040877365 0.013940771
0.10302362 0.042866148 0.014118111
-0.001293309 0.093399256 0.018447354
0.11058952 0.038363785 0.014362624
0.10804649 0.039586589 0.014427228
0.10132451 0.042863049 0.014777139
0.00014266372 0.083986178 0.017270336
0.14848404 0.011222757 0.011574822
0.14722706 0.011784233 0.011549223
0.14597072 0.012421995 0.011633438
0.14373876 0.013541467 0.011758389
0.096170351 0.036567867 0.013732282
0.00042362884 0.082998641 0.017784473
0.13158184 0.01155711 0.010816254
0.088172168 0.032580405 0.012629379
0.0012944415 0.074707985 0.016286079
-0.00024133176 0.075462274 0.016372385
0.11473352 0.011019826 0.010824095
0.11373435 0.011485279 0.010861911
0.11282241 0.011923641 0.0108942
0.0017152727 0.065847859 0.015649248
0.00073811412 0.066326134 0.015698358
-0.00022374839 0.066779494 0.015724339
0.10078222 0.010785311 0.0098337159
0.00014205277 0.059616897 0.014116081
0.0020110384 0.057883456 0.01464753
0.088150561 0.0091744736 0.0096618496
0.086823925 0.0097718686 0.0096554663
0.00040636957 0.051700421 0.013337388
0.084072903 0.010237053 0.010294546
0.082822472 0.010887556 0.01039256
0.071044743 0.010470353 0.0091535058
0.066128761 0.012037873 0.0099556465
0.0030412078 0.043468468 0.012036107
-2.3782253e-05 0.044114888 0.012747994
0.056998223 0.0095344782 0.0093502421
0.0045193061 0.03503529 0.011635216
0.0019114017 0.036263 0.011713523
0.045308158 0.0091382526 0.0084731532
0.044081643 0.0097405836 0.0085330708
0.0017289966 0.030282628 0.010338495
0.0045523718 0.022033092 0.0095952591
0.019100226 0.0088998526 0.0078921542
0.018119231 0.0093762353 0.0079256874
0.015290469 0.010765996 0.0080734231
0.013832785 0.010703828 0.0087961024
0.0043136328 0.015315387 0.0092098461
0.03830266 0.12278023 0.024451485
-0.00038026646 0.14160961 0.026168544
-0.0013462715 0.14207128 0.026198018
0.046549566 0.1178815 0.024571218
0.038997442 0.12151177 0.024840578
0.038735814 0.11192499 0.022798587
0.033081532 0.11460761 0.022935621
-0.0015414581 0.13065243 0.025052683
-0.00073345006 0.12052187 0.023200942
0.027476214 0.10589314 0.022434518
0.10731073 0.048742197 0.015935751
0.00020266697 0.10069422 0.020491505
-0.0017418824 0.10164222 0.020589545
0.11209297 0.045519918 0.016184213
0.1105141 0.046266094 0.01623291
0.10961968 0.046698146 0.01628821
-0.0014274716 0.10062003 0.021077
0.11091249 0.036422886 0.015306271
0.00095034018 0.089727566 0.019939721
0.00029587001 0.090886891 0.019395713
-0.001217369 0.090745188 0.019968944
0.14920388 0.010049723 0.012109447
0.145079 0.011133723 0.012718843
0.14441022 0.01236821 0.012274422
0.097140566 0.035259247 0.01424258
0.09466438 0.036441281 0.014346777
0.00080003589 0.081103355 0.018839477
-0.00054611266 0.073910668 0.01746583
0.11130814 0.011826403 0.011541248
-0.0018362999 0.066715926 0.016349245
0.081517771 0.011543445 0.010501801
0.038717516 0.032272045 0.012284702
0.0013946816 0.050387368 0.013868442
0.028950162 0.036196813 0.013285443
0.0029357001 0.041895181 0.013251531
0.055548176 0.0094396099 0.010045214
0.05327028 0.010594465 0.010214167
0.0023635477 0.035249352 0.012304148
0.040448293 0.0098680221 0.0098864716
0.026641779 0.010530222 0.0093229841
0.027396344 0.0094189607 0.0099613182
0.025183663 0.010445349 0.009987928
0.00094542652 0.022164308 0.0109843
0.0027938709 0.015291654 0.0099238139
-0.0011263154 0.15261935 0.028165121
0.032515652 0.12385971 0.02570907
0.043622583 0.11839345 0.025135618
0.040795617 0.11881067 0.025604108
0.039837979 0.11926452 0.025635134
0.034832433 0.12270281 0.025572725
-0.00096701831 0.12948141 0.025478937
-1.2826174e-05 0.12810582 0.025885411
-0.0013123229 0.12874725 0.025947168
-0.0025508329 0.12935764 0.026018068
0.00018632039 0.11828692 0.024147041
0.025256038 0.10519358 0.023477446
-0.0014194399 0.11817877 0.024656098
-0.001461789 0.10854521 0.023272213
-0.0023848675 0.10899118 0.023308009
0.10792297 0.046686009 0.01691078
0.11148858 0.044076376 0.017246142
0.1098738 0.044837631 0.01727863
0.10510257 0.047200143 0.017538546
0.10842152 0.037706979 0.015500041
0.0019202791 0.089293242 0.019952029
0.10367033 0.039107777 0.01617066
0.1021034 0.039849818 0.016224308
0.098184869 0.033887573 0.014740676
0.092988715 0.036433078 0.014996585
0.09207578 0.036888249 0.015061948
0.0011165664 0.080101833 0.019370619
0.12757179 0.010953121 0.012615664
0.001447387 0.072107911 0.017954964
0.12823904 0.0097774416 0.013133896
0.1123196 0.0096790269 0.012619821
0.11086586 0.010356888 0.01267625
0.099335074 0.0090101138 0.011633087
0.096800953 0.010215268 0.011737105
0.095551461 0.010861345 0.011836573
0.093706578 0.010940842 0.012509044
0.032059021 0.040821776 0.015090656
0.080686435 0.010295115 0.011697482
0.068740875 0.0091727898 0.011095408
0.067814931 0.0096425489 0.011141793
0.066851661 0.0100931 0.011148911
0.003334187 0.040889703 0.013845676
0.00022554398 0.041575316 0.014571462
0.053939372 0.009448342 0.010773003
0.0524773 0.0093666986 0.011479278
0.05174765 0.010529593 0.010872714
-0.00070627034 0.03593966 0.013088731
0.036059342 0.011244442 0.010778083
0.02590657 0.0093149319 0.010633321
0.023717165 0.010366328 0.010681468
0.001371935 0.021211516 0.011667172
0.0013899058 0.015189581 0.010623269
0.0026152954 0.0085452646 0.009675459
0.054367349 0.12384096 0.026650209
0.053462058 0.12427876 0.026687715
-0.00085456297 0.15066567 0.029018154
-0.0021325722 0.15129179 0.029069796
0.054668337 0.12278087 0.027056761
0.051519021 0.12426989 0.027140254
0.00015886128 0.1386417 0.027473912
-0.0008276999 0.13912879 0.027517913
-0.0014369078 0.13942732 0.027550647
0.041976787 0.11738028 0.026076425
0.034406967 0.12107897 0.026429836
0.032483853 0.12206334 0.026586825
0.034808218 0.11026393 0.024816927
0.031974971 0.11070049 0.025339134
-0.0030411333 0.11808611 0.025193509
-0.0010976158 0.10748743 0.023750689
0.11243331 0.042745419 0.017700117
0.00084523484 0.096821904 0.022374343
-0.00099971518 0.09776324 0.022534162
-0.0020177253 0.098279759 0.022603041
0.10811195 0.035221837 0.017031496
0.10559818 0.036466852 0.017144512
0.10465868 0.037756667 0.016643181
0.10051654 0.039755292 0.016809085
0.099563316 0.040223956 0.016857095
0.098489717 0.040790752 0.016983235
0.14160223 0.01114881 0.013992975
0.14004089 0.01104901 0.014565377
0.13941456 0.01214949 0.014006246
0.095962644 0.033269987 0.015920522
0.094347954 0.034030683 0.015954096
0.00090477616 0.078502417 0.02046947
-0.0011016354 0.080313027 0.019988202
0.12538145 0.010285698 0.013776646
-0.0016532838 0.071894094 0.019149046
0.10890804 0.010482915 0.01332958
0.0024737194 0.062106412 0.017845673
0.09470728 0.0096021444 0.013020119
0.02760601 0.042101163 0.015787244
0.0025366619 0.05431249 0.016942298
0.0032797828 0.046991829 0.015539971
0.07825695 0.0098350197 0.012998981
0.00011141598 0.04770257 0.016273377
0.063245669 0.010189511 0.012503784
0.0031787455 0.039342895 0.015072899
0.00058443844 0.040594909 0.015159153
0.04975228 0.0098711178 0.012177158
0.0017274544 0.033167731 0.014208276
-0.0008989796 0.034418862 0.014302181
0.036600031 0.0093918853 0.012012324
0.0040756911 0.02512769 0.013324868
0.0025576204 0.025886413 0.013417441
0.00098214298 0.026679412 0.013525639
0.00281699 0.019744314 0.012244998
0.014542781 0.0080211684 0.010723343
0.01354114 0.0085231513 0.010783969
0.01042106 0.010045655 0.010925111
0.0088766888 0.010023791 0.011647098
0.0034875572 0.01261168 0.011842489
0.048895523 0.12370612 0.028059211
-0.0025538988 0.14876118 0.030370602
0.042603731 0.11619464 0.026523173
0.040440872 0.1171872 0.026532087
0.039134629 0.11781639 0.026562806
0.038216338 0.11824647 0.026594767
0.037290804 0.1187105 0.02665207
0.035998672 0.11936313 0.026743235
0.0016618371 0.13611607 0.028320381
0.036271237 0.1183084 0.027152304
-3.0998141e-05 0.12633592 0.026806865
-0.0023160353 0.12744218 0.026904851
-0.00045055524 0.11594814 0.025645394
-0.0014808998 0.1164427 0.025654385
0.027144186 0.10160699 0.024807945
-0.00079457462 0.10646524 0.02422389
0.11687957 0.038824797 0.018495897
0.10702872 0.043600082 0.018925659
-0.00072381273 0.09672793 0.022980805
0.1548302 0.011756733 0.015627921
0.10658593 0.035125472 0.017657673
0.10249823 0.037070937 0.017787809
0.10079372 0.037905969 0.017841499
0.13725512 0.011477672 0.015181576
0.090213463 0.034357525 0.017276084
0.12387428 0.010170303 0.014398064
0.12254249 0.010835886 0.014445172
-0.0009888038 0.070732415 0.019680375
0.12102535 0.010719784 0.015076299
0.10517929 0.011482827 0.014096403
-0.0018996 0.063402109 0.018614946
0.1067238 0.009866178 0.014552863
0.00033049285 0.061464354 0.019061873
-0.0005858317 0.061919305 0.01911046
0.092809007 0.0097193047 0.013699375
0.025509022 0.042322811 0.016510902
-0.00056920201 0.054984372 0.01764198
0.090983942 0.0097817034 0.014363786
0.044683993 0.032215677 0.016294841
0.04083696 0.034039035 0.016413614
0.03955175 0.034660295 0.01646197
0.02392786 0.042274281 0.017171387
0.021368831 0.043521419 0.017294312
-0.00024369359 0.053994764 0.018208232
0.076801568 0.0097106844 0.013614656
0.027901694 0.033437073 0.015690207
0.06360966 0.0092007071 0.013077993
0.060427785 0.0099330693 0.013814954
0.0010048822 0.039584678 0.015754256
0.044871256 0.01061352 0.013596945
0.037317544 0.0082436353 0.012590658
0.03481093 0.0094718635 0.012722179
0.033201352 0.010250423 0.012775916
0.003230311 0.018768001 0.012882199
0.023389734 0.008193858 0.012656271
0.010633595 0.0084072873 0.01223186
0.0020288229 0.012559123 0.01258515
0.0011025965 0.013024975 0.012640236
0.050466634 0.12209341 0.028527774
-0.0019680709 0.14757414 0.030786173
0.045400612 0.12358339 0.029065613
0.00052434951 0.14546964 0.031111406
-0.00038545951 0.14590162 0.031154048
-0.0013438873 0.14635792 0.031173987
0.0019583739 0.13415678 0.029190311
-0.0031082481 0.13662556 0.029393246
-0.0018906035 0.13513456 0.029788479
-8.1252307e-05 0.1245697 0.027722452
0.034147091 0.1069929 0.026662812
-0.001717668 0.12446959 0.028253974
-0.0029799975 0.1250675 0.028303029
-0.0017653145 0.10517617 0.025245089
-0.0027372949 0.10564267 0.025283981
0.00044757873 0.1032111 0.02562358
-0.00051746145 0.10369214 0.025678724
-0.0014616065 0.10415283 0.025719987
0.11215162 0.04027272 0.019243676
0.10731462 0.04172691 0.019910282
0.0015887544 0.092906371 0.024282571
-0.00035496801 0.093889073 0.024415731
0.15544353 0.010535359 0.016050758
0.1049764 0.035042681 0.018223453
0.10339537 0.03577958 0.018254258
0.15390116 0.010466807 0.016701385
-0.0014902018 0.085759096 0.023210999
0.14007458 0.0093151703 0.015635096
0.13793913 0.010301836 0.015696429
0.13505295 0.01089222 0.016405547
0.0006512478 0.076916069 0.021549467
-0.00092691183 0.077665165 0.021597007
0.12167293 0.0095575526 0.015585181
0.11951049 0.010610782 0.015703296
0.1185703 0.011048667 0.015728842
-0.0012597665 0.069177672 0.020816727
0.10519023 0.0097955391 0.015194975
0.1017213 0.011431716 0.015297531
0.087781593 0.010419451 0.014958503
0.0017509088 0.052201595 0.018691236
0.07871677 0.0079628453 0.014134739
0.075264335 0.0096188709 0.014261492
0.074235171 0.010096312 0.014280155
0.0034435019 0.044451982 0.017311623
0.072758526 0.0099933371 0.014936846
0.038514383 0.026645765 0.016440632
-0.00059011579 0.045562584 0.018057439
0.060885102 0.0089026019 0.014407077
0.00086087734 0.038021829 0.016968831
0.048455164 0.0080941096 0.014085446
0.047122523 0.0087430105 0.014138801
0.0041216165 0.029611945 0.015978545
0.0025732368 0.030358609 0.016050894
0.00098811835 0.031128474 0.016106192
0.03531304 0.007650055 0.013965724
0.031781942 0.010166928 0.013486605
0.0024232343 0.024343345 0.014655042
0.049377806 0.11989515 0.029858543
0.00013884529 0.14382945 0.031975027
0.040905945 0.11340614 0.028363226
0.0010962263 0.12221284 0.028598396
-0.0010816604 0.12326521 0.028686238
0.027742535 0.1082592 0.027775617
-0.0012077093 0.11366538 0.02713358
0.026092604 0.099461816 0.026267586
0.0001123026 0.11212975 0.027536783
0.11074847 0.048821978 0.021416783
0.00030745566 0.09266936 0.024856323
-0.00023242459 0.084280819 0.023670061
0.14876862 0.011132404 0.017830014
0.1332328 0.010918111 0.017014185
0.001331389 0.074861765 0.02256589
0.00036114454 0.075334027 0.022615565
0.12010023 0.0094783753 0.016206514
0.1163673 0.010440707 0.016930984
-0.00064246356 0.067179948 0.021898508
0.0027171522 0.057802271 0.020666348
0.00076458603 0.058742136 0.020723501
0.088518485 0.009283565 0.015592122
0.028246447 0.038503788 0.018140923
-0.00044231862 0.052432664 0.019370919
0.085729241 0.009748891 0.016200421
0.032203451 0.0083593093 0.014729127
0.031005181 0.0089528039 0.014778837
0.02972912 0.009574458 0.014834427
0.0049486533 0.0215757 0.015875755
0.019473165 0.0085184611 0.014104443
0.0029598102 0.016542185 0.014807094
0.0086730644 0.007801462 0.013630776
0.0064301491 0.0088638999 0.01369743
0.0041622147 0.0099551454 0.013772393
0.00018469244 0.12085608 0.029555384
-0.0010934435 0.12147728 0.029608518
0.024294272 0.10812643 0.028822407
-0.00024619699 0.11052734 0.028480696
-0.001477994 0.10239429 0.026698804
-0.0011632368 0.10134736 0.027152328
0.0024694763 0.090747245 0.025271401
0.0015260503 0.091201484 0.025296889
0.00060426816 0.091636367 0.025329996
-0.0012713373 0.092583448 0.025462467
0.15138015 0.0099511668 0.017840918
0.14943455 0.010009907 0.018423125
-0.00048505515 0.082668759 0.024708718
0.13508724 0.0091068372 0.017407626
0.13294993 0.010195926 0.017571263
0.086280704 0.031992212 0.020113854
0.13358051 0.0090250596 0.018061031
0.1310221 0.010264069 0.018169532
0.12970966 0.01091855 0.018208336
-0.0024825037 0.075009182 0.023813164
0.00081647187 0.065635264 0.022391498
-0.00022444874 0.066135213 0.022423206
0.10026786 0.009607099 0.017034488
0.099058732 0.010198869 0.017108709
0.00107795 0.057752196 0.021284092
-0.00074514747 0.058627762 0.021357108
-0.0017530024 0.05911772 0.021400034
0.086417034 0.0085961968 0.01677718
0.083930939 0.0098134354 0.016880821
0.031872772 0.035093587 0.019116905
0.026077777 0.03784493 0.019322237
0.0015669689 0.04979581 0.020409729
0.071365952 0.0081974864 0.016762709
0.06951423 0.0091581419 0.016920505
0.067570254 0.010076545 0.016957903
0.00053779781 0.042560756 0.019786123
0.058196694 0.0085662529 0.015718933
0.055717438 0.008963123 0.01643266
0.053468049 0.01009158 0.016578311
0.0026274696 0.034714155 0.018689286
9.4071031e-05 0.035965752 0.018834708
0.043503433 0.0088898949 0.015532294
0.042167455 0.0095058866 0.015520312
0.043226153 0.0082375333 0.01617774
0.0018880516 0.028278764 0.017923947
0.00030184537 0.02905339 0.017990259
0.019918054 0.0075238161 0.014718885
0.017956562 0.0084608868 0.014794836
0.014583692 0.0093546025 0.01563083
0.006673649 0.0072383024 0.01504107
0.0044163316 0.0082874261 0.015080521
0.0021458641 0.0093875192 0.015151312
0.001198791 0.0098627247 0.015215492
-0.0002550371 0.15280208 0.034999404
-0.00087351352 0.14157809 0.033289671
-0.0027387328 0.14341356 0.032967567
0.04023274 0.11101333 0.029716618
-0.00157848 0.13046427 0.032005176
0.0019940734 0.11905849 0.029937688
0.024420395 0.096722245 0.028240023
0.00010025874 0.099856518 0.027584774
-0.00083622336 0.10031134 0.027628716
0.14664188 0.010451101 0.018983215
0.14536013 0.011120908 0.019099895
-0.00017692149 0.081655324 0.025218558
0.0017396882 0.079865262 0.025655577
0.11646768 0.0086899102 0.018025178
0.0020963997 0.064179689 0.022890324
0.11492161 0.0085924342 0.018632639
0.10095592 0.0084887668 0.017635064
0.028875142 0.043417089 0.02066379
0.096907109 0.0095840767 0.018353596
0.025376074 0.044300593 0.021404225
0.084867388 0.0085021481 0.017378064
0.083650872 0.0091131553 0.017456701
0.040843986 0.029916584 0.019339209
0.035662957 0.032394543 0.019487871
0.034425929 0.033006791 0.019575361
0.00038848817 0.049537554 0.021046046
0.080541506 0.009818472 0.018233225
0.031599082 0.033576407 0.02029923
0.067987502 0.0090640113 0.017557241
0.00093134493 0.041565672 0.020384993
0.054085314 0.0089853853 0.017182447
0.0039348528 0.026468493 0.018434029
0.00230667 0.027269084 0.018509893
0.027720802 0.0089522526 0.016190663
-6.3940883e-05 0.15087765 0.035811983
-0.0006060116 0.14056036 0.03371805
0.037140884 0.12128513 0.032502625
-0.0011462905 0.12847231 0.032896198
0.000108134 0.09808401 0.028552338
0.14569502 0.0091814697 0.020053688
0.14446364 0.0098040998 0.020168051
-0.00047076121 0.080071777 0.026265593
-0.00011434406 0.072122984 0.024748912
0.12818792 0.0090840533 0.01988076
0.1269415 0.009656772 0.019928528
0.1122077 0.0090322271 0.019265238
0.11145829 0.0093997121 0.019305663
0.11049093 0.009887442 0.019376796
0.094974265 0.0097160712 0.019018704
0.032210015 0.040140834 0.021689057
-0.00029011071 0.055900127 0.023028754
0.045974083 0.025743078 0.020230914
0.044399105 0.026497822 0.020288596
0.038653471 0.029320758 0.020584308
0.035848737 0.030643247 0.02065737
0.00078352541 0.047661733 0.022158662
0.0013094321 0.040569328 0.020957017
0.064318076 0.0091746151 0.018861745
0.0024374798 0.033190902 0.019912258
0.048326179 0.010126762 0.018573569
0.0396263 0.0083333105 0.017505381
0.024411716 0.0089409016 0.017535016
0.015789151 0.0071784705 0.016840305
0.014811158 0.007667277 0.016902028
0.0021174997 0.013827473 0.017422978
0.0011532679 0.01428977 0.017456597
0.0024554878 0.0076983795 0.01647602
-0.001608815 0.13832602 0.035059694
-0.0022520572 0.11665034 0.032397989
-0.0027881153 0.11781675 0.03197214
-0.0025253445 0.1080759 0.03045693
-0.0012478046 0.10657507 0.030880798
-0.0022051409 0.10703947 0.030923292
0.0016783737 0.095491387 0.029353244
0.00074485317 0.095951989 0.029413633
-0.00019430369 0.096439868 0.029496614
-0.0030815043 0.097877666 0.029678572
0.0024606511 0.086444914 0.027888032
-0.00094346702 0.087169595 0.028454533
0.14097543 0.0097910613 0.021357961
-0.00010173768 0.079026006 0.026767906
0.12539057 0.0095532462 0.020507578
0.090827495 0.026333421 0.021998338
0.0021186471 0.06933672 0.025761442
-0.00099013746 0.07083188 0.025846753
-3.2685697e-05 0.069524877 0.026362762
0.11204244 0.0082707107 0.019831426
0.07596457 0.025805607 0.021400448
0.10826483 0.0092879608 0.020560805
0.10615796 0.01030758 0.020666845
-0.0018636882 0.0626982 0.025246732
0.096013099 0.0083363503 0.019497842
0.047769733 0.031761721 0.021571804
0.021648437 0.044434059 0.022685273
0.0925657 0.009229742 0.02028322
0.00042118132 0.05387938 0.024154024
-0.00053075701 0.054337408 0.024180681
0.080980033 0.0079381838 0.019330235
0.079666182 0.008594051 0.019422449
0.078398183 0.0092064589 0.01944913
0.030813195 0.03229522 0.021501144
0.0011550561 0.046637159 0.022711437
0.078102008 0.0085182488 0.02004239
0.076871499 0.009092778 0.020063851
0.075918347 0.0095379204 0.020106386
0.042353339 0.025839094 0.021566562
0.03239926 0.030666295 0.021956049
0.022067368 0.035648879 0.02236492
0.0031646714 0.044846024 0.023204369
0.0021879822 0.045303002 0.023239959
-0.0010149702 0.046885435 0.02339734
0.065242365 0.0087421089 0.018836644
0.062070414 0.0094482973 0.019540248
0.060234398 0.010327227 0.019618459
-0.0013765842 0.040206119 0.022235682
0.002259478 0.031676143 0.021147791
0.036538817 0.0090556405 0.018312842
0.037557453 0.0077586621 0.018873721
0.00060316175 0.019671209 0.019161677
0.023642354 0.0077203438 0.018815024
0.013340622 0.0076106824 0.017612584
0.011867359 0.0075503662 0.018335164
-0.00081374496 0.013676468 0.018837359
0.013577212 0.15393665 0.038085867
0.0055613704 0.15691715 0.038827658
-0.00052526593 0.14834681 0.037062868
-0.002455391 0.14837283 0.037568584
-0.0013992004 0.13732542 0.035481706
-0.0039160475 0.13851899 0.03556316
-0.00046715513 0.13595343 0.035867613
-0.00068280473 0.11499768 0.032854192
0.027865276 0.10019345 0.031982981
0.022797152 0.093074545 0.030691046
0.017889507 0.086776443 0.029197687
-0.0027384087 0.096823655 0.030141171
-0.00069708005 0.086209431 0.029000465
0.14160231 0.0086401999 0.021853128
0.13944049 0.009625949 0.021908768
0.10988136 0.023954585 0.023152273
-0.0029336065 0.078666843 0.027929312
0.12319374 0.0089049414 0.021680076
0.12101708 0.0099749267 0.021787051
0.093036741 0.023554295 0.0229987
0.10692573 0.0090763643 0.021161973
-0.00057882816 0.061227545 0.025739176
-0.0014844164 0.061667252 0.025781069
0.090668216 0.0092905313 0.02090331
0.023982599 0.041612547 0.023698885
0.0023836792 0.052091826 0.0246417
0.078814596 0.0073487163 0.020617299
0.045222051 0.023616772 0.02199259
0.043570429 0.024422199 0.022061858
0.062527537 0.008416459 0.020142753
0.00053685904 0.038483471 0.022767188
0.04750827 0.0088944659 0.019809473
0.0025877804 0.023890235 0.020922568
-0.00056913495 0.025465559 0.021122606
0.023414411 0.0070592277 0.019476021
0.022156082 0.0076715536 0.019530058
0.02116774 0.0081484877 0.019571746
0.0038994998 0.017331168 0.019690707
0.0024392381 0.017246217 0.0203935
0.0014497265 0.017731953 0.020440869
0.0010766685 0.018695109 0.019831672
0.010387294 0.0074814223 0.019037204
0.0081599876 0.0085373521 0.019107871
-0.00011117756 0.0066162124 0.018534709
-0.00062327459 0.14656782 0.037896551
-0.00056068972 0.13419461 0.036741961
-0.001481805 0.13462715 0.036768444
-0.0017554387 0.13567367 0.036349554
-0.0021795407 0.12534615 0.034688476
-0.0035088286 0.12601146 0.03476195
-0.0016053803 0.12416636 0.035104919
0.0015326999 0.11304025 0.033271715
-0.0010317788 0.11338839 0.033823203
-0.0022864118 0.11486613 0.033340391
0.021544144 0.092783466 0.031209024
0.016978577 0.084569 0.030701509
0.014982805 0.085555419 0.030805169
0.15382713 0.0095982775 0.023559853
0.15408753 0.010354251 0.023058726
0.1521423 0.010414571 0.023632292
0.13719966 0.0089490563 0.023002595
0.00092018396 0.0750921 0.028833603
-0.0016444921 0.076310888 0.028910395
0.12289605 0.008195959 0.022229122
0.12105386 0.0082384422 0.022848722
0.10586305 0.015623458 0.0235263
0.081043482 0.027676478 0.024589732
-0.00097387284 0.067415699 0.028031366
0.10523222 0.0090574473 0.021792438
0.021108836 0.049860843 0.02537518
0.014727704 0.052932203 0.025601672
0.012782194 0.053861249 0.025689093
-0.0002232641 0.060199354 0.026260462
0.10373163 0.0089507625 0.022431076
0.10241935 0.009546347 0.02241262
0.016994715 0.050996989 0.026074687
-0.0014924854 0.059974737 0.026872074
0.091777548 0.0079159066 0.021439936
0.090489045 0.0085378587 0.021494057
0.00014726818 0.052332614 0.025288336
0.088544741 0.008585453 0.022043064
0.053998843 0.025400266 0.023587827
0.038396314 0.032902874 0.024153808
0.031122878 0.036465991 0.024512783
0.076038197 0.0078449547 0.02127387
0.072799727 0.0094279498 0.021444891
0.00041408092 0.044498943 0.024466559
0.043391101 0.022844121 0.023231767
0.058984309 0.0084672719 0.021443075
0.042036228 0.016727183 0.022208687
0.0013477653 0.036447041 0.023912722
0.00093524158 0.037474453 0.0233483
0.048584536 0.007569626 0.020404698
0.04542616 0.0082913004 0.021125467
0.043828741 0.0090325065 0.021141229
0.0031298101 0.02881198 0.022933297
0.001566641 0.029578008 0.023001816
-0.00040255487 0.031309221 0.022441303
0.03376472 0.0075907223 0.020578809
0.032660045 0.0085378811 0.020313859
0.030904345 0.0085987151 0.021019775
0.020397142 0.013690822 0.021461731
0.019700631 0.0080611929 0.020260435
0.007940948 0.0078732781 0.019777436
0.0066474825 0.0084754899 0.019803142
0.0032124147 0.0093674585 0.020580236
-0.0028911904 0.14583579 0.038819894
0.01893954 0.11240035 0.035161
-0.00038744137 0.1217823 0.035946406
-0.0011738539 0.12261331 0.035759222
-0.0029729865 0.11252728 0.034797903
-0.00068997592 0.10276167 0.03275077
-0.0016113669 0.10320129 0.032792997
-0.0025697835 0.10366978 0.032836303
0.021865107 0.090872683 0.032177061
-0.0011940636 0.092474356 0.031914111
-0.0021106824 0.092931323 0.031974994
0.15186505 0.0096795261 0.024143904
0.15023996 0.010388739 0.024104357
0.14268805 0.014100365 0.024496108
-0.0012916252 0.08389844 0.030566294
0.14990687 0.0097109228 0.024669128
0.14899856 0.010118432 0.024669753
-7.905066e-06 0.082391471 0.031005356
-0.00096261129 0.082862839 0.031050241
0.13440409 0.0095050186 0.023711417
0.13343817 0.0099816993 0.023754828
-0.0012987629 0.075300306 0.029442526
0.13280675 0.0094180405 0.024302442
0.12489641 0.013238862 0.024628056
0.12394924 0.013700463 0.024662349
0.11949293 0.015860446 0.024851661
0.11666821 0.01725734 0.025011245
0.086785004 0.031750955 0.026274117
0.00067321211 0.073471665 0.029864375
0.11631034 0.0096947774 0.023598813
0.10840489 0.013498507 0.023882244
0.10215718 0.0088295117 0.022989824
0.10085505 0.0094520599 0.023037974
0.07473287 0.022175729 0.024236878
0.071689025 0.023628771 0.024316471
0.018294483 0.049528722 0.026575597
0.085929096 0.0089894831 0.022681883
0.085166603 0.009385258 0.022748411
0.076552048 0.013610095 0.023166705
0.070862815 0.016320147 0.023352467
0.067989156 0.017759643 0.023559593
0.056539163 0.023294032 0.024004389
0.041341752 0.030669741 0.024654854
0.035606019 0.033436622 0.024887469
0.035301305 0.03359358 0.024906781
0.030827768 0.035773527 0.025093731
0.024690129 0.038718075 0.025308101
-6.8843365e-05 0.050763797 0.026424803
0.072573185 0.0086899698 0.022007195
0.071949393 0.0090132505 0.022065032
0.048228234 0.020528521 0.023066184
0.07108064 0.0086160079 0.022689458
0.070093587 0.0090936646 0.022709046
0.065608039 0.011237919 0.022854446
0.0090120509 0.038687095 0.025272872
0.0034120306 0.04140839 0.025514513
0.057364628 0.0084338337 0.022112263
0.040171109 0.016781911 0.022865541
0.034804776 0.019381166 0.023069613
0.0023162514 0.035143055 0.024467738
0.043644801 0.0083109178 0.021758372
0.027735442 0.016059443 0.022483014
0.026776426 0.01653346 0.022527404
0.022990815 0.018348332 0.02267071
0.00034154207 0.029359788 0.023656152
0.029346101 0.0085548721 0.021714672
0.028072588 0.0091381259 0.021725375
0.027763844 0.0092919171 0.021737296
0.026829362 0.009725485 0.021756824
0.023330033 0.011434127 0.021920439
0.01471474 0.015601095 0.02227189
0.008693248 0.018545907 0.022537556
0.0019110441 0.02179439 0.022791779
0.001321882 0.022082891 0.022819506
0.0016725957 0.016035646 0.021684529
0.017089196 0.0077543631 0.021669244
0.011187769 0.011396244 0.021265069
0.0058998242 0.013189528 0.022145793
0.0024561435 0.014850184 0.022262225
0.0059294254 0.0072618015 0.021122931
0.0046943873 0.0078488849 0.02116574
0.00048903376 0.14329432 0.039088994
0.0014779381 0.14280125 0.03903459
-0.0017224252 0.14344577 0.039598122
-0.0022009388 0.14412953 0.039406594
0.092658699 0.085288383 0.034431703
-0.00098691136 0.1316676 0.038046241
-0.0022266507 0.13226897 0.03809727
0.00024809688 0.12056433 0.036360003
0.032874428 0.10376924 0.035357237
0.00016505271 0.11971101 0.036812775
-0.0013974085 0.12046681 0.036879424
-0.0014388449 0.11000317 0.035693366
0.0050194673 0.098132595 0.0333324
-0.0016461462 0.10144572 0.033740647
0.017657913 0.091117129 0.033266984
0.0066597946 0.096416041 0.033690818
-0.001520358 0.091744855 0.032408547
0.016279608 0.08226195 0.032181196
0.14423333 0.011620365 0.025418889
0.13786784 0.014707223 0.025698623
0.13700552 0.01510036 0.025734285
0.012113512 0.075667158 0.031035541
0.0053682253 0.078947991 0.031309951
0.0012603104 0.072322622 0.03035032
-0.00063567609 0.073249131 0.03044856
-0.0016284809 0.073741712 0.030505681
0.11699942 0.0084889978 0.02409162
0.11601695 0.0089663118 0.024117468
0.079210311 0.026850566 0.025725141
0.00066009909 0.064925924 0.029039482
0.11434734 0.0097515434 0.024174811
0.11349653 0.0093084574 0.024746887
0.10591526 0.012986518 0.025068371
0.10362858 0.014158078 0.0252352
0.00044851005 0.06416449 0.029577076
-0.00088564306 0.064806595 0.029632766
0.097066641 0.010500915 0.023822274
0.070093632 0.0235525 0.024919936
0.0065369979 0.054387648 0.027653636
-0.00015554577 0.057615094 0.027893566
-0.00074929744 0.057899378 0.027919192
0.099668264 0.008325249 0.024191082
0.098717198 0.0087917224 0.024236891
0.09522137 0.010554798 0.024459258
0.0929759 0.011568718 0.024467375
0.085695922 0.015118688 0.024782725
0.084715381 0.015566699 0.024801556
0.079698697 0.018031187 0.025046075
0.068232179 0.023610361 0.025557954
0.024983533 0.04459732 0.027405504
0.0084458739 0.052604146 0.028082317
0.0021370575 0.055666804 0.028363816
0.00031933933 0.056544643 0.028419219
0.084246919 0.0090082437 0.023356609
0.064240187 0.018728189 0.024241373
0.060720682 0.020398088 0.024336651
0.057265386 0.022100076 0.02454148
0.053869069 0.023760926 0.024695937
0.050924316 0.025172528 0.024787767
0.045511983 0.02780389 0.025032744
0.03534136 0.032726426 0.025448108
0.026015684 0.037215102 0.025795538
0.0048253015 0.047498833 0.026718628
0.00095553696 0.04942615 0.026936958
0.00035811961 0.049714476 0.026970427
0.08048667 0.01000274 0.02409265
0.076916769 0.011738554 0.024279604
0.06238851 0.018776633 0.024869267
0.058900073 0.02044519 0.024989948
0.054363489 0.022669926 0.025219934
0.051915124 0.023883175 0.025354978
0.041799374 0.028768696 0.025769075
0.036954433 0.031071089 0.025886618
0.030818373 0.034083188 0.026195671
0.028328754 0.035303522 0.02631587
0.00099489838 0.048562855 0.027482992
0.068603218 0.0089661703 0.02332389
0.067335606 0.0095660388 0.023366414
0.061170295 0.012594208 0.023703415
0.05939959 0.013438821 0.023736292
0.040983319 0.022340469 0.024472188
0.010434434 0.037176628 0.025791543
0.0075540468 0.038563713 0.025924522
0.0066190511 0.039033748 0.025983594
0.00055269152 0.041956201 0.026189718
0.054476857 0.0090591833 0.022877788
0.051984251 0.010249645 0.022955384
0.043995164 0.014119651 0.023304725
0.032310173 0.019798554 0.023791848
0.0077648833 0.031700086 0.024844067
0.0010821 0.034937736 0.025137087
0.054266885 0.0083378032 0.023491481
0.052397326 0.0092229322 0.023531448
0.051747158 0.0095383972 0.023556702
0.050152242 0.010306887 0.023610668
0.045693353 0.012473065 0.023817871
0.044437915 0.013078216 0.023870237
0.042126291 0.014201209 0.023960846
0.039991684 0.015269864 0.024089988
0.038667537 0.016694952 0.023501979
0.035234518 0.017529007 0.024231695
0.030795999 0.019717265 0.024462651
0.012225047 0.029486492 0.02458347
0.011303529 0.029959958 0.024665587
0.0020537525 0.033626623 0.025646843
0.041805349 0.0083880089 0.022446506
0.038693123 0.009113878 0.023228819
0.028213874 0.014177028 0.02362887
0.025301561 0.016444631 0.023200857
0.024375997 0.016878586 0.023240918
0.018878676 0.019513391 0.023402225
0.010349326 0.022867061 0.024415039
0.0091593936 0.023435853 0.024484143
0.004509598 0.026520833 0.024074268
0.0036801845 0.026107106 0.024717636
0.0022950694 0.027594034 0.024172435
0.00082554668 0.027497351 0.024850069
0.025325164 0.0096654519 0.022441171
0.02281566 0.010066308 0.023157608
0.018961407 0.012780126 0.02275897
0.015168466 0.014572766 0.022870991
0.013286166 0.014671154 0.023532296
0.011632279 0.016308878 0.023039415
0.0018324628 0.020627569 0.023717977
0.01458203 0.0081968531 0.02240707
0.012393422 0.0092630796 0.022513703
0.0098146796 0.010472715 0.022578228
0.008887291 0.010925677 0.022615008
0.0040587932 0.013306454 0.022855558
0.0028299019 0.013896916 0.022885222
0.0031513274 0.0078019872 0.021837173
0.0060906261 0.14926463 0.041953128
0.0047940798 0.14989787 0.042022083
0.0016036183 0.15144674 0.042141579
-0.0014496632 0.14240503 0.04000473
-0.0013684221 0.13094372 0.038492557
-0.0015044548 0.1300962 0.038924776
-0.0001523234 0.11804163 0.037702013
-0.0014293119 0.11867457 0.037766658
-0.0023833551 0.11046593 0.035736859
0.024875112 0.096278392 0.034861218
-0.0010881498 0.099388979 0.034644969
-0.001992736 0.099829353 0.034693323
0.0063162409 0.094785623 0.03461916
-0.00044701993 0.098187923 0.035087295
0.15387264 0.013757907 0.027316857
0.14976831 0.015755653 0.02751578
0.016805924 0.081131577 0.032646328
0.015380733 0.080931582 0.033192459
0.0041678175 0.086369015 0.033688802
0.0039001554 0.087378569 0.033210117
0.001059711 0.088692576 0.03322161
-0.00050278381 0.089001901 0.033527091
-0.00080189109 0.089599073 0.033305798
0.14648484 0.0096193627 0.025816165
0.12681597 0.019156247 0.026671138
0.014379948 0.073706791 0.031450082
0.0028529465 0.079267442 0.03189142
-0.00029528141 0.080794141 0.032027394
-0.0009068884 0.081081741 0.032051519
0.14490552 0.0095579624 0.026428215
0.14362468 0.010169961 0.026471805
0.13893402 0.012435697 0.02668919
0.13344705 0.015074305 0.026880402
0.13252588 0.015531078 0.026930427
0.0012230724 0.079187483 0.03246348
-0.00058271363 0.080054551 0.032543514
0.13030647 0.0088987425 0.025431927
0.12907009 0.009482637 0.025482757
0.11414731 0.016710468 0.026095061
0.12743875 0.009393774 0.026044641
0.11997814 0.013003446 0.026357085
0.11129011 0.01722046 0.026739994
0.10648899 0.019586094 0.026988158
0.012463301 0.065179661 0.030945575
0.011222646 0.065771595 0.030995606
0.010250285 0.066251725 0.031044424
0.0047238916 0.068922408 0.031285089
-0.00030748546 0.071360022 0.03146071
0.11196202 0.0092037246 0.02536615
0.11133316 0.009520635 0.025392083
0.11032982 0.010011017 0.025440305
0.10938638 0.010494232 0.02549495
0.10623497 0.011966452 0.025572263
0.10187709 0.014148496 0.025866564
0.090950713 0.019382812 0.026218962
0.01726637 0.055125251 0.0293584
0.013781622 0.056851316 0.029538518
0.012229457 0.057607356 0.029634302
0.003019169 0.062064227 0.029998235
0.00080020726 0.063149512 0.030110501
0.09686695 0.0088801682 0.024909953
0.096462399 0.0090979636 0.024940198
0.095603362 0.0095082 0.024981257
0.093317106 0.010598175 0.025058378
0.090191558 0.012075707 0.025119159
0.087946475 0.013205871 0.025282342
0.080659598 0.016745597 0.025574692
0.074955538 0.019473858 0.025786541
0.07400465 0.019939989 0.025834214
0.018979184 0.046639796 0.028206963
0.010435782 0.050758939 0.02852222
0.0033942312 0.054210681 0.028876901
0.001214087 0.055270657 0.028948231
0.090508118 0.011056967 0.025639074
0.088275135 0.012192979 0.025793694
0.082574084 0.014942609 0.026036203
0.019286416 0.045634739 0.028709596
0.018715724 0.045915172 0.028750975
0.013641164 0.048377648 0.028956003
0.01274462 0.048794311 0.028976617
0.010761775 0.049761452 0.02905662
0.0063270405 0.051943772 0.029283021
0.080781043 0.0090285167 0.024679076
0.077899486 0.010381095 0.024731163
0.071322575 0.013606653 0.025062468
0.053540811 0.022240017 0.025822612
0.042132407 0.027784381 0.026316818
0.039261334 0.029148318 0.026414333
0.035369821 0.031030774 0.026551269
0.03506925 0.031180672 0.026570734
0.031635992 0.032859001 0.026730793
0.02585458 0.03561902 0.026955564
0.023889706 0.036570244 0.027015414
0.012157694 0.042308848 0.027598772
0.0093319565 0.04367353 0.027687047
0.0064831749 0.045024663 0.027778335
0.0026359111 0.046896081 0.027953556
0.0016385168 0.047400586 0.028007297
0.068317547 0.0082870498 0.02392219
0.065831095 0.0094644055 0.024021216
0.064133406 0.010290101 0.024076357
0.062611714 0.011017546 0.024134934
0.061662018 0.011482358 0.024182389
0.059704721 0.012475319 0.024321258
0.055289268 0.014595322 0.024479568
0.049589247 0.017357655 0.024730368
0.047399804 0.018431414 0.024825783
0.0018983483 0.040477928 0.026730454
0.066769838 0.0081845969 0.024543919
0.065894231 0.0086012334 0.024585906
0.056964934 0.012949958 0.024986522
0.053487748 0.014605507 0.025084736
0.051205084 0.015741982 0.02522311
0.04461056 0.018944819 0.02553116
0.0069638416 0.037184283 0.02708604
0.052450702 0.0083835945 0.024123443
0.050487995 0.0093296915 0.024191216
0.048324436 0.010377057 0.02429574
0.046093881 0.011430319 0.024345968
0.042552628 0.013171315 0.024535127
0.036272503 0.016197924 0.024756419
0.033677496 0.017451659 0.024868743
0.026060231 0.021151759 0.025211386
0.012619808 0.027646098 0.025740283
0.0091241226 0.029399931 0.025958356
0.0082248077 0.02982989 0.025991678
0.0038015544 0.031975154 0.026177242
0.0027909279 0.032449208 0.026196521
0.038439147 0.0084286705 0.023845147
0.037487909 0.0088901445 0.023888055
0.035879366 0.0096683912 0.023941932
0.034021154 0.010586817 0.02403871
0.03308934 0.01102725 0.024086926
0.029229611 0.012880575 0.024197778
0.026767746 0.014078408 0.024332415
0.021010868 0.016863439 0.024563644
0.020030364 0.017330214 0.024588294
0.016520292 0.019046541 0.0247456
0.013045341 0.02075443 0.024895666
0.011811368 0.021336682 0.024950409
0.0095113739 0.022464078 0.025067341
0.0056394488 0.024294108 0.02516683
0.004696548 0.024773981 0.025237488
0.0028072745 0.025720667 0.025357282
0.023803495 0.0095978603 0.023134321
0.017482005 0.012694929 0.023439981
0.0027725473 0.019778557 0.024014382
0.023871131 0.0087682158 0.023749672
0.013752863 0.013654925 0.024169095
0.012181513 0.0085707195 0.023152167
0.011154108 0.0090702288 0.023194883
0.0057653636 0.011658654 0.023390269
0.0051282346 0.011968944 0.023434719
0.0032359138 0.012901578 0.023509385
0.0013287291 0.007938832 0.022600362
0.0028480552 0.1499151 0.042489391
4.5571476e-05 0.13893455 0.041174877
-0.0017452352 0.14024821 0.041029274
-0.00059593469 0.12875834 0.039324086
0.002087567 0.12653567 0.039624404
0.00072268024 0.11670232 0.038110692
-0.0017810427 0.10838193 0.036611553
-0.0011377893 0.10716712 0.037005167
0.019596145 0.087538637 0.034646727
0.010013521 0.092148215 0.035018802
-9.2361122e-05 0.097119369 0.035534404
0.0081734061 0.092113003 0.035503376
0.005948592 0.093172014 0.035565402
0.001349967 0.086815521 0.034243781
0.14111008 0.010456234 0.027012674
0.13918753 0.01144278 0.027173921
0.13473631 0.013574049 0.027339032
0.1290639 0.016334102 0.027585395
0.12808061 0.016812719 0.027611325
0.11986211 0.019928768 0.028466588
0.015060998 0.071639419 0.032437686
0.014084011 0.072117098 0.032486692
0.01178766 0.07321395 0.032567412
0.0070704147 0.07547953 0.032718845
0.0035475716 0.076337084 0.033408098
0.00029761344 0.078760229 0.033003837
0.1414201 0.0094647631 0.027558163
0.13954182 0.010338075 0.027599938
0.1264516 0.016709924 0.028179541
0.0044781566 0.075877041 0.033354867
0.0015740767 0.077278048 0.03346736
0.00064817071 0.077718511 0.033495847
0.12489234 0.0097830296 0.026671369
0.12397455 0.010224156 0.026728837
0.12306003 0.010671869 0.026782203
0.11860937 0.01280541 0.026942965
0.1176416 0.013293356 0.027014222
0.013766952 0.063693181 0.031423513
0.012272052 0.064411417 0.031467795
0.0083716139 0.066306353 0.031656764
4.2714179e-05 0.07031069 0.031953979
0.11041044 0.0091146231 0.025971435
0.10783119 0.0095297247 0.026622361
0.1069749 0.0099512562 0.026690459
0.10598773 0.010405742 0.026679844
0.10344557 0.012487851 0.0262761
0.10149258 0.012613267 0.026913529
0.10026434 0.013233446 0.027003722
0.098015159 0.014250644 0.026999732
0.095832989 0.015283294 0.02706125
0.09550871 0.016340196 0.026578765
0.08882466 0.018702433 0.027380494
0.086332977 0.019952878 0.027543722
0.083807424 0.021149613 0.027617913
0.076488808 0.025573425 0.027424941
0.075570077 0.025161982 0.028011547
0.018776879 0.053117763 0.030105902
0.014468692 0.054773457 0.030560264
0.0098144189 0.057493545 0.030534297
0.0087307021 0.05844418 0.03031411
0.0033271834 0.061047368 0.030508801
0.0011674091 0.062110361 0.030620998
0.093118116 0.0090283677 0.026196865
0.090800226 0.010071203 0.026173091
0.084532619 0.013138443 0.026469046
0.081063449 0.014858112 0.026690628
0.078492865 0.016076259 0.026741998
0.076974332 0.016805507 0.026820546
0.075275019 0.017633982 0.026875228
0.069690019 0.020354703 0.027143536
0.067394167 0.02146022 0.027217902
0.066706464 0.02266784 0.026740372
0.065210879 0.02249679 0.027281605
0.013969786 0.047383606 0.029492646
0.011114173 0.048750389 0.029590067
0.008236073 0.050133202 0.029717691
0.0072834268 0.050609209 0.029766329
0.0047682002 0.051852275 0.029906183
0.0015657917 0.054245595 0.029496508
0.078010768 0.0095047057 0.025309684
0.076402739 0.01026959 0.025360826
0.07391122 0.011520498 0.025522914
0.068157881 0.01428216 0.025738452
0.064349249 0.016172685 0.025942955
0.063454688 0.016582921 0.025964793
0.056424975 0.020000584 0.026271885
0.050086454 0.023053844 0.026528964
0.048836119 0.023658935 0.026548212
0.010693289 0.042173225 0.028190779
0.0097108856 0.042655054 0.028240971
0.0026957393 0.046018381 0.028510872
0.001701653 0.046522789 0.028564453
0.072333694 0.011434384 0.026125498
0.070792988 0.012166575 0.026185358
0.066689923 0.014151715 0.026362592
0.065613955 0.014706962 0.026472274
0.064731419 0.015147246 0.026513208
0.061523005 0.016684473 0.026597682
0.058023289 0.018349446 0.026689511
0.049176082 0.022662625 0.027138883
0.043833166 0.025243551 0.027338073
0.03905575 0.027594958 0.02758462
0.0362003 0.028928705 0.02764577
0.024964228 0.034393732 0.028148202
0.0040516481 0.04453462 0.029010065
0.0030343905 0.045016441 0.029045701
0.063665017 0.0088559985 0.025249204
0.05825229 0.011511311 0.0255301
0.057385549 0.011915542 0.025547219
0.055091232 0.013018519 0.025621466
0.049381435 0.015795421 0.025889378
0.041801907 0.019443586 0.026166238
0.014690079 0.032624479 0.02736179
0.013748527 0.033088781 0.027401926
0.010268547 0.034783319 0.02755845
0.007411845 0.03613425 0.02764076
0.005476214 0.037082933 0.027756622
0.004603222 0.037518673 0.027792342
0.0036387965 0.037984252 0.02782106
0.0026806295 0.038449433 0.027854934
0.049612954 0.0089275539 0.024815958
0.048691243 0.0093865916 0.024865713
0.046417877 0.010449719 0.024898486
0.044229969 0.011546858 0.025066815
0.03990002 0.013650648 0.025253586
0.037570484 0.014763661 0.025346613
0.0057253316 0.030228652 0.026711283
0.0029159039 0.031575829 0.026793357
0.042415872 0.011597294 0.025741486
0.041086674 0.012242854 0.025790513
0.040184319 0.012688655 0.025819732
0.037968613 0.013777819 0.025938809
0.034141563 0.015599325 0.026050113
0.031655535 0.016801629 0.026162123
0.02688057 0.019150279 0.026406847
0.013539173 0.025608722 0.026971593
0.013066038 0.026615966 0.026339903
0.011103995 0.027563136 0.02639967
0.0095630437 0.027505513 0.027068926
0.0087134913 0.027938291 0.027144825
0.0042388141 0.03012611 0.027354969
0.034701973 0.008614812 0.025203081
0.03443753 0.0095755234 0.024626534
0.02718164 0.012242954 0.025487863
0.025179327 0.014054883 0.025001498
0.02423846 0.014512975 0.025045138
0.022377126 0.015417106 0.025136128
0.021348983 0.01591773 0.025178866
0.016300261 0.017527621 0.025948577
0.014159702 0.018582612 0.026086766
0.012870625 0.019208692 0.026121752
0.0099414289 0.021437295 0.025647407
0.0061195791 0.0224289 0.026353791
0.005095616 0.022934459 0.026400823
0.0033089146 0.023829043 0.026522964
0.0031882972 0.024716891 0.025945302
0.022342317 0.0087088235 0.024424072
0.020833947 0.0094366558 0.024504138
0.01983019 0.0099403188 0.024565257
0.018871315 0.010414042 0.024609366
0.017029405 0.011301514 0.024695065
0.016061306 0.011782918 0.024747252
0.011859924 0.013768662 0.024843743
0.0035640076 0.01782852 0.025241071
0.0027191713 0.018242389 0.025311321
0.0074507073 0.01003461 0.023936225
0.0049177557 0.01127791 0.024062641
0.0036695078 0.011905331 0.024148878
0.0079150647 0.0090109967 0.024548048
0.0049843043 0.14704561 0.043211527
0.09581323 0.080148786 0.036054943
-0.00019485131 0.12675159 0.040161699
0.004904747 0.12336133 0.040366419
-0.0003002584 0.11630006 0.038588721
0.02389849 0.094062865 0.036278583
-0.00090184063 0.10616554 0.037461318
0.0083234273 0.10075407 0.037445273
0.0060666166 0.10188434 0.03759912
-0.00057260692 0.10510786 0.037903871
0.0014773943 0.095421568 0.035871036
0.017609648 0.086726815 0.035675891
0.010650069 0.090073675 0.0359465
0.0096926242 0.090540901 0.035993628
0.0030848384 0.093713671 0.036214944
0.00046827644 0.095039129 0.036400434
-0.00043092296 0.095494218 0.036486167
0.15578729 0.011134028 0.028318491
0.15382057 0.011174873 0.028859245
0.153485 0.012167864 0.028287612
0.15031894 0.013767786 0.028486222
0.14467597 0.015615575 0.029232539
0.016001768 0.078887731 0.034179814
0.012440808 0.079731666 0.03479974
0.0096106902 0.081982516 0.034447078
0.0077104717 0.082885042 0.034498692
0.0060843006 0.082795061 0.03505829
0.0049953312 0.083758064 0.034861479
0.0038642883 0.084750682 0.034673072
0.001043357 0.085237816 0.035288848
0.00042644143 0.08637438 0.034758657
-0.00056345761 0.086840399 0.03476207
0.0120949 0.072203711 0.033065014
0.13861845 0.0099239349 0.028168043
0.13761786 0.010471873 0.028258067
0.1344175 0.012016214 0.028359681
0.12938438 0.014439322 0.028580973
0.0019528866 0.07623221 0.033977989
0.12303284 0.0098253787 0.027291393
0.12150054 0.010544978 0.027353076
0.12049744 0.011052422 0.027408041
0.11953057 0.011523761 0.027435878
0.1159963 0.0132448 0.027596429
0.11510976 0.013664447 0.02763465
0.11416566 0.014127463 0.027680222
0.11326364 0.014579162 0.027746305
0.1110009 0.015626468 0.02778529
0.10753702 0.017365918 0.028002433
0.015965737 0.061765514 0.031870127
0.015018053 0.062215976 0.031906705
0.014099523 0.062660687 0.031943899
0.0087089464 0.065270185 0.032149065
0.0055470467 0.066803157 0.032295126
0.0023440048 0.068340458 0.032415792
0.0013754964 0.068817601 0.032447148
0.00027089566 0.069343537 0.032463908
0.12149431 0.0096955746 0.02789028
0.10909981 0.01570338 0.028397366
0.10563317 0.017435603 0.028616499
0.016327493 0.060721967 0.032379422
0.013801835 0.061944399 0.03247809
0.00211858 0.067585424 0.032950941
0.10319589 0.010874309 0.027325256
0.0983482 0.013286091 0.027595069
0.092982247 0.015874326 0.027808053
0.084736496 0.019858509 0.028117895
0.013514198 0.054393608 0.031143447
0.0052125379 0.05842891 0.0315006
0.0018054619 0.060078479 0.031647351
0.095524669 0.013720296 0.028132558
0.091191709 0.0090704411 0.026763584
0.089907795 0.0096511096 0.026759654
0.084878758 0.012145378 0.02702917
0.082977861 0.013027355 0.027085554
0.082004428 0.013493672 0.027109968
0.071824327 0.018475495 0.027612139
0.069954947 0.019395523 0.027700644
0.063329771 0.022559091 0.027916767
0.062327012 0.023077533 0.027994899
0.014383197 0.046333231 0.03002594
0.0057251751 0.050537717 0.030394791
0.0032126606 0.051756971 0.030533887
0.0022329241 0.05223354 0.030569974
0.0012839437 0.052685566 0.030607028
