# .PCD v0.7 - Point Cloud Data file format
VERSION 0.7
FIELDS x y z
SIZE 4 4 4
TYPE F F F
COUNT 1 1 1
WIDTH 1316
HEIGHT 1
VIEWPOINT 0 0 0 1 0 0 0
POINTS 1316
DATA ascii
0.13270244 0.013457678 -0.041874129
0.13168612 0.013795793 -0.041918535
0.13069475 0.014133535 -0.041959144
0.12877169 0.013952129 -0.041450828
0.12772557 0.014254391 -0.041505963
0.12669258 0.014597833 -0.04152758
0.1260367 0.014837431 -0.04156151
0.11261635 0.0145733 -0.041845616
0.11194308 0.014795683 -0.041854866
0.11093333 0.015126603 -0.041888829
0.10990226 0.015454412 -0.0419407
0.10793939 0.015334435 -0.041433502
0.10690958 0.015621785 -0.041485503
0.10627195 0.015802125 -0.041517913
0.10555895 0.016045842 -0.041548297
0.094255753 0.0151271 -0.041878778
0.093234435 0.015440987 -0.041925866
0.092244469 0.015783999 -0.041962028
0.091567278 0.016009718 -0.041987456
0.089938834 0.015731528 -0.041492861
0.089241505 0.015904749 -0.04153356
0.087560184 0.016458072 -0.04159629
0.087606214 0.01568789 -0.041003019
0.086294599 0.016134676 -0.04105683
0.085260712 0.016492352 -0.041088827
0.08425729 0.016781474 -0.041128177
0.083221957 0.01707468 -0.04117747
0.072442353 0.015909862 -0.041703787
0.071723208 0.016108625 -0.04174396
0.070720322 0.016436333 -0.041775696
0.069097117 0.016209461 -0.041259494
0.068377689 0.016471267 -0.041288305
0.067717552 0.016669746 -0.041309819
0.067028798 0.016868623 -0.041340563
0.065426677 0.016604319 -0.040836833
0.064389527 0.016915999 -0.040898796
0.063355342 0.017249294 -0.040939592
0.055616744 0.015135712 -0.041447144
0.052296761 0.015378143 -0.041028641
0.051586941 0.015575854 -0.041072045
0.050584603 0.015904764 -0.041121323
0.049609348 0.016212026 -0.041158132
0.048552036 0.016536882 -0.041204579
0.046575993 0.016406994 -0.040719829
0.04556676 0.016760061 -0.040755853
0.03312213 0.015267861 -0.041114554
0.032418352 0.015464404 -0.041134655
0.031427395 0.015727945 -0.041203115
0.029433712 0.015559183 -0.040763728
0.018653411 0.018208327 -0.040660698
0.017651984 0.018491544 -0.04073029
0.13713428 0.014306117 -0.040248279
0.13639462 0.014503658 -0.04028745
0.13507275 0.014890932 -0.040355176
0.13407445 0.015226711 -0.040384039
0.12439928 0.014602559 -0.041010559
0.12373917 0.014812738 -0.041036688
0.12264667 0.01513496 -0.041085511
0.12158749 0.015425988 -0.041149136
0.12095185 0.015640272 -0.041177463
0.11932 0.01545983 -0.040609702
0.11865743 0.015675863 -0.04063116
0.11798652 0.015881298 -0.040663052
0.10397786 0.015813695 -0.041012201
0.10294867 0.016161714 -0.041065194
0.10193111 0.016457438 -0.041110482
0.10127525 0.016649567 -0.041132871
0.099628419 0.016438346 -0.040597524
0.098972157 0.016614126 -0.040656075
0.097934671 0.016953491 -0.040691007
0.082258761 0.01661936 -0.040631138
0.081240609 0.0169136 -0.040714175
0.080210634 0.017259972 -0.040762495
0.078915201 0.0169164 -0.040219098
0.078217171 0.017130151 -0.04024902
0.077242263 0.017433196 -0.040278494
0.07620398 0.017785674 -0.040311787
0.061403584 0.017105538 -0.040439822
0.06040984 0.017409313 -0.040489286
0.059659693 0.017649237 -0.040518429
0.057990976 0.017444534 -0.040008742
0.05732384 0.017642254 -0.040039789
0.056639615 0.017833518 -0.040070295
0.044271812 0.016387194 -0.040254556
0.043240402 0.016665336 -0.04033168
0.04258237 0.016852284 -0.040372316
0.041860513 0.017073952 -0.040404223
0.040580202 0.016738145 -0.039885789
0.024097783 0.015715955 -0.039863121
0.024131889 0.014936804 -0.039323539
0.022779129 0.015369264 -0.039383907
0.022112189 0.015601687 -0.039424393
0.021103099 0.015885228 -0.039477907
0.020070963 0.016166918 -0.039536286
0.019419843 0.016362084 -0.039565783
0.13280044 0.014930397 -0.039809223
0.13178685 0.015276458 -0.039852183
0.13096279 0.015511174 -0.039894972
0.13010326 0.015723318 -0.039964844
0.12908898 0.016035117 -0.039997358
0.12747282 0.015865719 -0.039425507
0.12611562 0.016282033 -0.039481677
0.12506321 0.016617551 -0.039516151
0.11635081 0.015671946 -0.040118936
0.11533663 0.015973432 -0.040193323
0.11401636 0.016350038 -0.040236264
0.11327185 0.016613128 -0.040254973
0.1126641 0.016800931 -0.040272806
0.11195152 0.017032763 -0.04030937
0.11035367 0.016814079 -0.039769344
0.10964502 0.017035782 -0.039806783
0.092947029 0.017822169 -0.040275343
0.09597633 0.016828969 -0.040152773
0.095323518 0.017029727 -0.040188182
0.093669176 0.017214233 -0.039944131
0.091656171 0.01744712 -0.039749436
0.090651147 0.017713783 -0.039800495
0.089708291 0.017286373 -0.039234672
0.088680133 0.017626736 -0.03927695
0.087663494 0.017994907 -0.039311755
0.086686701 0.01829695 -0.0393469
0.085985877 0.018502058 -0.039370876
0.074158482 0.017646318 -0.03985101
0.073132806 0.017939532 -0.039899088
0.071839191 0.017612748 -0.039355945
0.07082282 0.017956451 -0.039391112
0.069790423 0.018310428 -0.039432026
0.069115162 0.018500995 -0.039455861
0.055009339 0.017587736 -0.039564937
0.053691022 0.017231815 -0.039052021
0.053032026 0.017423298 -0.03909228
0.052008763 0.017768819 -0.039133977
0.05099915 0.018076014 -0.039175529
0.050311245 0.018290507 -0.039205112
0.038896956 0.016511442 -0.039384004
0.038242534 0.016713455 -0.039399929
0.037214633 0.017039897 -0.039438155
0.035217028 0.016929206 -0.03896543
0.034202941 0.017227821 -0.039007869
0.03322152 0.017489657 -0.03907213
0.032511942 0.01768912 -0.039113145
0.030878078 0.017450299 -0.038637597
0.016489688 0.015001239 -0.038023684
0.12376101 0.016284786 -0.038950406
0.12304269 0.016485609 -0.038996216
0.12239621 0.016673742 -0.039028902
0.12104446 0.017142754 -0.039067313
0.12002832 0.017471036 -0.03910793
0.11844041 0.017257992 -0.038541373
0.11774048 0.017463436 -0.038587194
0.11709241 0.017664956 -0.038635276
0.11605237 0.017954698 -0.038677286
0.10839494 0.016675614 -0.039253403
0.10737681 0.016969705 -0.039299786
0.1061819 0.017360965 -0.039347574
0.10537302 0.017625405 -0.039392132
0.10465926 0.017873963 -0.0394274
0.10341579 0.017519681 -0.038865183
0.10272045 0.01771632 -0.038887694
0.1016935 0.018040255 -0.038929325
0.10036932 0.018424412 -0.039017998
0.10043588 0.017701192 -0.038376387
0.099062063 0.018126326 -0.038445421
0.098044723 0.018444484 -0.038470067
0.097393066 0.018646171 -0.038499039
0.086712986 0.017569207 -0.038748797
0.084717542 0.018151913 -0.038824905
0.083658822 0.018441442 -0.03888984
0.082980216 0.018634712 -0.038951185
0.081672102 0.018332785 -0.038403753
0.080684483 0.018642627 -0.038437601
0.079670787 0.018954998 -0.038476139
0.078662708 0.019270703 -0.038504936
0.067494042 0.018253064 -0.038936801
0.066810578 0.018453673 -0.038980804
0.066143401 0.018655518 -0.039012983
0.064856023 0.018318089 -0.038475055
0.063868389 0.018641222 -0.038513001
0.049008965 0.017945845 -0.03868793
0.048342548 0.018164881 -0.038706616
0.046063442 0.018150538 -0.038221035
0.045020264 0.018432014 -0.03830263
0.043975208 0.01873624 -0.038363822
0.043314699 0.018946674 -0.038386967
0.029574174 0.01713337 -0.038129393
0.028877757 0.017365897 -0.03814768
0.028224183 0.017551465 -0.038168792
0.026573602 0.017295064 -0.037666816
0.02557021 0.017610975 -0.037704285
0.024220005 0.018059686 -0.037787363
0.018103901 0.019924125 -0.038076408
0.13351184 0.016953096 -0.038393117
0.13618064 0.016050592 -0.03828888
0.13450369 0.0166151 -0.038352616
0.13123831 0.016887322 -0.037881803
0.13024156 0.017192643 -0.037918802
0.1295245 0.017432835 -0.037934054
0.11478519 0.01764847 -0.038079761
0.11377487 0.017979577 -0.038113534
0.11181198 0.01788648 -0.03757894
0.11079611 0.018201871 -0.037630111
0.1097661 0.018489746 -0.037682358
0.10912827 0.018670052 -0.037714824
0.095753297 0.018445324 -0.03794748
0.095106162 0.018666115 -0.037974935
0.094429605 0.01889143 -0.038000423
0.093416132 0.019164437 -0.038070239
0.09211757 0.018801672 -0.037518423
0.091097258 0.019135348 -0.037551776
0.090110742 0.019468214 -0.037593104
0.075979456 0.018672621 -0.037424799
0.075333118 0.018831469 -0.03747391
0.074290477 0.019133646 -0.037523929
0.073254071 0.019479087 -0.0375579
0.07260941 0.019688651 -0.037579123
0.071891129 0.01994944 -0.037608016
0.062531352 0.018309629 -0.03797628
0.06188149 0.018507101 -0.038009252
0.061174802 0.018725751 -0.038041152
0.060120836 0.019071862 -0.038088456
0.058780476 0.019120954 -0.037845675
0.057434749 0.019147223 -0.037610929
0.056797698 0.019344553 -0.037632514
0.055130083 0.01909598 -0.037131537
0.054484151 0.019303575 -0.037167199
0.053462137 0.019638553 -0.037205808
0.04069142 0.018289398 -0.037325997
0.039657086 0.018610639 -0.03735454
0.038661264 0.01892845 -0.037396491
0.037343938 0.018603642 -0.036880698
0.036690079 0.01882299 -0.036910288
0.035662211 0.019103747 -0.036954638
0.024234999 0.017287407 -0.037217278
0.022564212 0.017772159 -0.037306424
0.021536777 0.018062554 -0.037363674
0.019922877 0.01781469 -0.036849167
0.016200354 0.018993963 -0.03703595
0.015543219 0.019207792 -0.037063468
0.012433702 0.020152992 -0.037189338
0.12792546 0.017254038 -0.037366401
0.12724617 0.017452875 -0.037389386
0.12658602 0.017662918 -0.037415367
0.12549329 0.017985418 -0.037464142
0.1244343 0.018276572 -0.037528161
0.12284402 0.018098632 -0.036950693
0.12218168 0.018325171 -0.03696087
0.12151942 0.018541092 -0.036982153
0.12068424 0.018797971 -0.03702125
0.11981383 0.019073268 -0.03706231
0.10684846 0.018696897 -0.037181105
0.10581966 0.019044269 -0.037233926
0.10480177 0.019340327 -0.037279125
0.10321084 0.019113539 -0.036713056
0.10251287 0.01933633 -0.036737885
0.10185693 0.01951254 -0.036796801
0.10115296 0.019741351 -0.036826301
0.088150896 0.019402727 -0.037044629
0.087147094 0.019692542 -0.037084006
0.085162401 0.019545397 -0.036558758
0.084144518 0.019839793 -0.036642112
0.083114646 0.020185966 -0.036690485
0.082435176 0.020392643 -0.036711223
0.070622131 0.019605145 -0.037051056
0.069583714 0.019908078 -0.037097879
0.068344295 0.019554552 -0.036549248
0.067307472 0.019866023 -0.036611363
0.066273749 0.020199157 -0.036652256
0.051479608 0.01950659 -0.036699764
0.050454117 0.019831315 -0.036742195
0.048863206 0.019626245 -0.036209051
0.04817557 0.019842412 -0.036234654
0.04750739 0.020027138 -0.036276102
0.046809476 0.020213731 -0.036332749
0.034030225 0.018823026 -0.03647026
0.033360753 0.019017138 -0.036510538
0.032667786 0.019241419 -0.03655104
0.03104678 0.019056097 -0.036036212
0.030348824 0.019260131 -0.036058728
0.018268446 0.017625106 -0.03634268
0.017250994 0.017925549 -0.036407925
0.013565667 0.018328488 -0.036024563
0.010756341 0.019927582 -0.036714304
0.0073958328 0.020980202 -0.03682711
0.012207718 0.018705852 -0.03607988
0.13566454 0.017790284 -0.036313392
0.13465106 0.018136278 -0.036356073
0.13366652 0.018413227 -0.036409438
0.13296726 0.018583857 -0.036469124
0.13171476 0.018267646 -0.035863698
0.13103293 0.018498011 -0.035871945
0.13002536 0.018857572 -0.035917543
0.12899484 0.019157715 -0.035958689
0.11857121 0.01874494 -0.036493208
0.11720162 0.019143289 -0.036555622
0.11614843 0.019493707 -0.036578238
0.11390249 0.01949987 -0.036031105
0.11324478 0.0197096 -0.036064707
0.1125364 0.019931255 -0.036102269
0.099568374 0.019534042 -0.036236104
0.098549038 0.019842301 -0.036283039
0.097857319 0.020056965 -0.036312729
0.097194187 0.020294603 -0.036331583
0.095956966 0.019974001 -0.035753407
0.09457048 0.020374687 -0.035833985
0.093230471 0.020757291 -0.035897631
0.080817901 0.020168731 -0.036159556
0.077776894 0.020422881 -0.035670087
0.076748833 0.020685541 -0.035748877
0.076064348 0.020894986 -0.035769928
0.065012261 0.019863039 -0.036096565
0.063989058 0.020177387 -0.036140095
0.063341409 0.020374024 -0.036173247
0.062111598 0.020397786 -0.035921417
0.06093733 0.020421822 -0.03566359
0.060269482 0.02062015 -0.035694581
0.059585243 0.020811699 -0.035725173
0.04517521 0.019961119 -0.035825323
0.043196239 0.019871149 -0.035305258
0.042165857 0.020188123 -0.035334837
0.0411167 0.02051264 -0.035369415
0.029074878 0.018892102 -0.035529893
0.028373085 0.019105021 -0.035551466
0.027362447 0.01942491 -0.035591446
0.025731968 0.019211588 -0.035102874
0.025054075 0.019410068 -0.035139382
0.024040688 0.019679179 -0.035193868
0.1273635 0.018980183 -0.03535895
0.12665498 0.019176299 -0.03539978
0.1259373 0.01937715 -0.03544597
0.12496322 0.019683592 -0.035492521
0.12367031 0.01941585 -0.03487822
0.12269656 0.019737853 -0.034905713
0.12134954 0.020164808 -0.034963377
0.12064961 0.020370349 -0.035009217
0.11130108 0.019586727 -0.035521328
0.11028281 0.019880878 -0.035567787
0.10925862 0.020216852 -0.035609692
0.10827903 0.020536704 -0.035660304
0.10697883 0.020264162 -0.035074908
0.10633648 0.020446103 -0.035105277
0.10531912 0.020740571 -0.035139646
0.10461398 0.020966776 -0.035169378
0.091608107 0.020569216 -0.035333194
0.090250172 0.021053979 -0.035383239
0.089020781 0.020710453 -0.034796305
0.088319823 0.020915834 -0.034820389
0.087293833 0.021206366 -0.034872908
0.086601377 0.021399094 -0.034918044
0.074785039 0.020582547 -0.035198223
0.073768616 0.020926055 -0.035233356
0.072736815 0.021279601 -0.035274383
0.070787117 0.021136262 -0.034736052
0.069770359 0.021438196 -0.034794554
0.069103196 0.021639895 -0.03482702
0.058296971 0.020479973 -0.035176989
0.057272464 0.020782001 -0.035227988
0.056004714 0.020430196 -0.034689695
0.054981884 0.02077519 -0.034731291
0.053972255 0.021082567 -0.034772795
0.053283717 0.02129747 -0.034802433
0.039888866 0.020167943 -0.034828089
0.038826354 0.020518275 -0.034878641
0.037522979 0.020180285 -0.034341261
0.036871798 0.020352518 -0.034373116
0.035860829 0.020628843 -0.034442421
0.021456594 0.018967444 -0.034149561
0.020770088 0.019209316 -0.034163225
0.019758865 0.019560583 -0.034199037
0.017799437 0.01938674 -0.033741198
0.13618948 0.019224644 -0.034333441
0.13516055 0.019531168 -0.034380242
0.13414779 0.019787531 -0.034457117
0.13315096 0.020092648 -0.034494236
0.11903548 0.020171791 -0.03444878
0.11770996 0.020570582 -0.034474622
0.1167192 0.020890722 -0.034504645
0.11838294 0.020348731 -0.034465715
0.1030371 0.02073692 -0.034613404
0.10183345 0.021121942 -0.034660075
0.10006787 0.020966368 -0.034076672
0.098702967 0.021402244 -0.034132008
0.098056294 0.021622894 -0.034159541
0.085329145 0.021064039 -0.034373105
0.084318325 0.02140406 -0.034415014
0.083275899 0.021727048 -0.034450095
0.08101581 0.021716632 -0.033896577
0.080319077 0.021960963 -0.033922512
0.067830458 0.021316711 -0.034260664
0.066842392 0.021640081 -0.034298621
0.066120639 0.02185915 -0.034326062
0.064516157 0.021630248 -0.033782508
0.05199565 0.02096707 -0.034256678
0.051008824 0.021297241 -0.034282815
0.049714342 0.02099584 -0.033731904
0.048706889 0.021280922 -0.033789001
0.047689289 0.021559373 -0.033867072
0.046975307 0.021771953 -0.033903684
0.033210915 0.020750122 -0.033985224
0.031572029 0.020525329 -0.033449601
0.030581212 0.020819508 -0.033481989
0.016470533 0.019045569 -0.033230349
0.015483171 0.019367687 -0.03326926
0.013519648 0.019221237 -0.032772779
0.012785827 0.019427398 -0.032810062
0.0090628816 0.020585679 -0.032959089
0.13119313 0.02005979 -0.033897877
0.13017145 0.020368475 -0.033937789
0.12951127 0.020578444 -0.033963624
0.12818883 0.02029972 -0.033341568
0.12750565 0.020492902 -0.033388488
0.12613347 0.020905996 -0.033458248
0.1154282 0.020609457 -0.033907149
0.11475144 0.020824401 -0.033946186
0.11373623 0.021139296 -0.033997398
0.11212712 0.020914843 -0.033416018
0.11148906 0.021095125 -0.033448476
0.11043433 0.021450082 -0.033490833
0.10980316 0.021650726 -0.033521466
0.096621491 0.021381911 -0.0335715
0.09577997 0.021600828 -0.033634741
0.094922125 0.02182311 -0.033678964
0.093475692 0.021586837 -0.033088438
0.09281411 0.021806134 -0.033117317
0.091796257 0.022174809 -0.03315096
0.091131017 0.022389056 -0.033173546
0.078965917 0.021674266 -0.033368822
0.078318894 0.02183377 -0.033417888
0.077275887 0.022136051 -0.033468049
0.07564538 0.021953044 -0.032895233
0.075000554 0.022162596 -0.032916371
0.07428325 0.022422656 -0.032945357
0.073272392 0.022720819 -0.03298172
0.062507778 0.021548945 -0.03325288
0.061475199 0.021873161 -0.033291981
0.060436729 0.022175118 -0.033339422
0.058855869 0.021941219 -0.032788277
0.058146242 0.022138545 -0.032831773
0.057500426 0.022345938 -0.032867458
0.045375295 0.02156014 -0.033353392
0.044648372 0.021798972 -0.033378687
0.043398127 0.021450326 -0.032816205
0.042357069 0.021775384 -0.032849424
0.040384494 0.021681318 -0.03233362
0.039731301 0.021900162 -0.03236331
0.029248454 0.020483216 -0.032940138
0.028604146 0.02069178 -0.032966483
0.027576203 0.021036163 -0.03303213
0.025944812 0.020777997 -0.032521028
0.025277942 0.02095603 -0.032557875
0.023968427 0.02060698 -0.032032572
0.023316542 0.02081321 -0.032048728
0.022286013 0.021188395 -0.032069188
0.011510139 0.019067742 -0.032280918
0.010776307 0.019307319 -0.032315101
0.0091314614 0.019087093 -0.03182283
0.13770457 0.020341285 -0.032344352
0.13636126 0.02075126 -0.032403227
0.13534302 0.021009754 -0.032482669
0.12455143 0.020751687 -0.032835081
0.12388946 0.020967448 -0.032856096
0.12288991 0.021275789 -0.032902427
0.12218352 0.021499762 -0.032936148
0.12107849 0.021491976 -0.03267483
0.11989588 0.021498306 -0.032398887
0.11890584 0.021804582 -0.032416102
0.11822658 0.022034042 -0.032436211
0.10852809 0.021379201 -0.032924622
0.10786349 0.021590197 -0.032955732
0.1065114 0.021979302 -0.033010688
0.10490321 0.021792695 -0.032416582
0.10424764 0.021969417 -0.032475773
0.10354449 0.022197569 -0.032505445
0.10255343 0.02251856 -0.032521658
0.089883313 0.02205414 -0.03257845
0.089034006 0.02230954 -0.032614581
0.087821797 0.022640521 -0.032691222
0.086204588 0.0224317 -0.032145314
0.085522681 0.022667959 -0.032171927
0.084843814 0.022874467 -0.03219264
0.071989879 0.022396697 -0.032407153
0.070998088 0.022695884 -0.032463007
0.069412015 0.022462966 -0.031902753
0.068041481 0.022909831 -0.031956431
0.056186739 0.02205153 -0.032301687
0.055200055 0.022350051 -0.032340962
0.05418624 0.022665763 -0.032385841
0.052233614 0.022579312 -0.031841386
0.038094901 0.021638177 -0.031829391
0.037085362 0.021915458 -0.031895064
0.035125524 0.021793181 -0.031396836
0.034116033 0.022161936 -0.031432219
0.021014681 0.020855553 -0.031529363
0.020160463 0.021093681 -0.031593133
0.018676259 0.020803139 -0.031081811
0.018029558 0.021001771 -0.031111456
0.017372366 0.021215457 -0.03113886
0.0078462781 0.018724384 -0.031295624
0.13410583 0.02070988 -0.031850804
0.13307184 0.021060161 -0.031870309
0.13241726 0.02129896 -0.031904537
0.13138649 0.021599341 -0.031945694
0.12941658 0.021536082 -0.031339586
0.12800534 0.021928381 -0.031424671
0.12737119 0.022141259 -0.031453129
0.11701263 0.021731285 -0.031809743
0.11597402 0.022062838 -0.031867862
0.11493716 0.022389209 -0.031922337
0.11371738 0.022060908 -0.031314548
0.11301953 0.02225383 -0.031343576
0.11199867 0.022588143 -0.031390727
0.111351 0.022794081 -0.031415213
0.10128127 0.022213727 -0.031916916
0.10026321 0.02252881 -0.031964157
0.099599935 0.022766219 -0.031982973
0.098378025 0.022461189 -0.031377632
0.097332008 0.022786124 -0.031430032
0.096652336 0.022937778 -0.03148644
0.08325915 0.022661299 -0.031611916
0.082574904 0.022867177 -0.031632051
0.081927642 0.023086047 -0.03164871
0.080559403 0.022840451 -0.031071113
0.079528376 0.023113763 -0.031147657
0.066423766 0.022696305 -0.031393394
0.065776214 0.022893015 -0.031426564
0.064675227 0.023243781 -0.031472221
0.063387483 0.022954231 -0.030888531
0.062718965 0.023153033 -0.030919479
0.062034786 0.023344856 -0.030950116
0.050618559 0.022377569 -0.031285074
0.049949951 0.022563048 -0.031326465
0.048922814 0.02284361 -0.031403791
0.046950348 0.022728844 -0.030874781
0.046268776 0.022971582 -0.030891551
0.032808822 0.02182336 -0.030876055
0.03215668 0.022013154 -0.030896896
0.031455074 0.022226 -0.030918434
0.029836252 0.02200228 -0.030380018
0.028828109 0.022346292 -0.030441253
0.015719298 0.021001482 -0.030615382
0.015013668 0.021195965 -0.030647086
0.013729546 0.020837741 -0.030111408
0.013032865 0.021059517 -0.030136503
0.13925493 0.021464482 -0.030380651
0.13861702 0.021695558 -0.030406518
0.13792063 0.021905471 -0.030437056
0.12609392 0.021889672 -0.030812245
0.12547271 0.022100249 -0.030821785
0.1244422 0.022422111 -0.030869868
0.12377258 0.022638783 -0.030897051
0.12250951 0.022347739 -0.030282388
0.12114885 0.022750292 -0.030364567
0.10976744 0.022630146 -0.030823709
0.1085876 0.022987304 -0.030877501
0.10775022 0.023230795 -0.030905748
0.1064742 0.022952091 -0.030288227
0.10581749 0.023149606 -0.030327844
0.10515026 0.023337046 -0.030377656
0.1041164 0.023681978 -0.030401405
0.095072798 0.022731695 -0.030887904
0.094044179 0.023071989 -0.030929953
0.093396418 0.023296691 -0.03095552
0.09268678 0.023555975 -0.030979775
0.091121577 0.023331119 -0.030377509
0.089745343 0.023724766 -0.030442242
0.077914849 0.022887068 -0.030575419
0.077237129 0.023110207 -0.030596226
0.076558918 0.023339415 -0.030619349
0.075882345 0.023567647 -0.030643292
0.074863613 0.02389892 -0.030681219
0.073253766 0.02367915 -0.030106299
0.072237164 0.023981227 -0.030164737
0.060445689 0.023124766 -0.030382404
0.059736576 0.023330331 -0.030425008
0.059076861 0.023521841 -0.03046524
0.057460338 0.02333791 -0.029900163
0.056450777 0.023645494 -0.029941579
0.044636633 0.022753004 -0.030328564
0.043587241 0.023077691 -0.03036307
0.041654281 0.022982968 -0.029828912
0.040623881 0.023309443 -0.02987046
0.027541822 0.022001684 -0.029899215
0.026878174 0.022172958 -0.029932797
0.024579417 0.022131242 -0.029430382
0.023893451 0.022372274 -0.029443812
0.011368526 0.020848161 -0.029632317
0.010072904 0.020518117 -0.029099088
0.0094090104 0.020705076 -0.029119296
0.0050374102 0.022085827 -0.029297912
0.13638538 0.021671064 -0.029831998
0.13565487 0.02187103 -0.029881764
0.13465935 0.022195246 -0.029897705
0.13397861 0.02243783 -0.029928016
0.13329597 0.022656713 -0.029962007
0.11958628 0.022563767 -0.029721303
0.11823914 0.022999853 -0.029769395
0.1172062 0.023330668 -0.02982665
0.11651756 0.0235529 -0.029859537
0.10253048 0.023488292 -0.029789021
0.10187349 0.023688411 -0.02982378
0.10116497 0.023924034 -0.029844118
0.088135004 0.023501599 -0.029884512
0.087096795 0.023838766 -0.029946597
0.084813863 0.023855893 -0.02937503
0.083837926 0.024159174 -0.029404232
0.070983365 0.023662154 -0.029577084
0.069950774 0.023995234 -0.02962048
0.069324076 0.024198195 -0.029641364
0.068015829 0.023896629 -0.029048407
0.067365438 0.024094757 -0.029081557
0.066290103 0.024432693 -0.029128794
0.054145053 0.023655932 -0.02940757
0.05350139 0.023875345 -0.029423779
0.052816235 0.0241163 -0.029451199
0.051569991 0.023778141 -0.028872827
0.050526425 0.0240613 -0.028954962
0.039370786 0.022946287 -0.029309779
0.038714685 0.023123045 -0.029358789
0.037080031 0.022886144 -0.028827041
0.036387496 0.02311003 -0.028867444
0.03572442 0.023358442 -0.028893918
0.035028409 0.023590935 -0.028911773
0.022615418 0.022080729 -0.028879128
0.021932214 0.022279486 -0.028922796
0.020935504 0.022564815 -0.028992882
0.019301577 0.022336869 -0.028464742
0.0081283487 0.02036101 -0.028561881
0.0037403991 0.021736333 -0.028768232
0.0023690583 0.022174075 -0.028824637
0.13173023 0.022472832 -0.029324284
0.13064846 0.022804007 -0.029362183
0.12958834 0.02309899 -0.02943226
0.1283865 0.022798346 -0.028791716
0.1276916 0.023045309 -0.028820051
0.12702763 0.02327227 -0.02882991
0.1256918 0.023695905 -0.028883461
0.1153025 0.023240885 -0.029235769
0.11459817 0.02343744 -0.029270139
0.11362752 0.02372958 -0.029320994
0.11202639 0.023576481 -0.028699778
0.11101531 0.023917507 -0.028752208
0.099947654 0.023639793 -0.029224398
0.098592825 0.024056297 -0.029291797
0.096989989 0.023806866 -0.028713914
0.096668489 0.023905126 -0.028720342
0.09563829 0.024250025 -0.028761195
0.08184281 0.024118086 -0.028829744
0.080815613 0.024399051 -0.028905328
0.079516888 0.024085479 -0.028312083
0.078869775 0.024291934 -0.02833119
0.078156844 0.024533845 -0.028355252
0.076460347 0.025109939 -0.028418144
0.06501928 0.024137028 -0.028540071
0.064303234 0.02437548 -0.028562127
0.063083634 0.02402607 -0.027975509
0.062200125 0.024293346 -0.028012799
0.061027166 0.024643656 -0.028069498
0.048221692 0.024054527 -0.028429884
0.046254918 0.023975717 -0.027864736
0.045220271 0.024297141 -0.027893063
0.033439785 0.023342289 -0.02835108
0.031789184 0.023121066 -0.02779166
0.031145185 0.023329508 -0.027818022
0.030439451 0.023569731 -0.02786631
0.017500358 0.02219693 -0.027936749
0.016683282 0.02242749 -0.027966846
0.015014127 0.0221898 -0.027436176
0.14255509 0.022040814 -0.028390728
0.1418401 0.022288457 -0.028411031
0.14118861 0.02250167 -0.028431548
0.13963667 0.022377301 -0.027792197
0.13861227 0.022699993 -0.027831413
0.13797328 0.022875704 -0.027870519
0.13727507 0.023046557 -0.027930629
0.13628349 0.023353897 -0.027963916
0.12581107 0.022999536 -0.028177282
0.12410475 0.02353202 -0.028257176
0.12312219 0.023828588 -0.028330626
0.12152436 0.023634596 -0.027698154
0.12016352 0.024082825 -0.02773124
0.11952104 0.024284687 -0.027751947
0.10876539 0.023918042 -0.028162526
0.10810342 0.024125122 -0.028192597
0.107405 0.024347777 -0.028217278
0.10618671 0.024028404 -0.027616264
0.10482002 0.024471667 -0.027657717
0.093386315 0.024329793 -0.028173123
0.092392392 0.024623033 -0.028209524
0.091379628 0.024924934 -0.028253455
0.090094358 0.024612648 -0.027644252
0.089424647 0.024798103 -0.027706267
0.075205505 0.024788437 -0.027807806
0.074516922 0.024992853 -0.027839819
0.073306128 0.024670362 -0.027235694
0.072585568 0.024888447 -0.027287822
0.071598887 0.025193632 -0.02732205
0.058727745 0.024670061 -0.027533343
0.058108076 0.024856878 -0.027556431
0.059440061 0.024428815 -0.027506562
0.056623984 0.024611685 -0.026975591
0.055782091 0.02487631 -0.027015632
0.055114757 0.025095616 -0.027034454
0.043664627 0.024079992 -0.027323203
0.042934135 0.024318559 -0.027361697
0.04228159 0.02453701 -0.027391415
0.04098314 0.024206128 -0.026805164
0.040335912 0.024374826 -0.026853966
0.029194407 0.023241971 -0.027308578
0.028499784 0.023430483 -0.027344106
0.027472075 0.023710577 -0.027401965
0.027231678 0.023072714 -0.026788341
0.025885437 0.023480408 -0.026843484
0.013003575 0.022093745 -0.026921324
0.011991222 0.022418883 -0.02697056
0.010401255 0.022161728 -0.026417861
0.0039403867 0.024202626 -0.026697509
0.13502026 0.023113359 -0.02729243
0.13401195 0.023453753 -0.027341086
0.13246603 0.02326943 -0.026694238
0.13173625 0.023507521 -0.026715433
0.13068751 0.023803871 -0.026780065
0.12997048 0.0239987 -0.026821274
0.12933685 0.024211025 -0.026849767
0.11825599 0.024023352 -0.027119782
0.11759862 0.024232425 -0.027153399
0.1168908 0.024454199 -0.027191132
0.11523563 0.024914591 -0.027276497
0.11533826 0.024239212 -0.026571795
0.11396886 0.024669861 -0.026633564
0.11332063 0.024876038 -0.026658058
0.10323613 0.024288299 -0.027030805
0.10188646 0.024721904 -0.027087288
0.10055351 0.025170038 -0.027139604
0.099303409 0.024876529 -0.026517192
0.098623879 0.025028538 -0.026573848
0.097622685 0.025335114 -0.026609089
0.088158146 0.024512377 -0.027102632
0.087178975 0.024838192 -0.027138935
0.086123154 0.025162416 -0.027176306
0.084219716 0.025073061 -0.026570523
0.083115458 0.025457032 -0.026621567
0.070335217 0.024909411 -0.026717424
0.069674544 0.025108123 -0.026738565
0.068980783 0.025324024 -0.026771532
0.06737496 0.025127344 -0.02618476
0.066653758 0.025358297 -0.026216393
0.053877503 0.024810437 -0.026436159
0.052854516 0.025119431 -0.026481831
0.051234908 0.024879154 -0.025939154
0.050196607 0.025183568 -0.026000297
0.049534999 0.025393739 -0.026023356
0.038709521 0.024136124 -0.026309863
0.037704553 0.024460929 -0.026369331
0.035751935 0.024403185 -0.02580915
0.034749888 0.024695795 -0.025841106
0.023926117 0.023427375 -0.026283223
0.022579113 0.02382105 -0.026369777
0.021273196 0.023499472 -0.025819469
0.020626163 0.023698045 -0.025849128
0.019367529 0.023375651 -0.025283812
0.0087610101 0.021946263 -0.025862696
0.0074859718 0.021624142 -0.025319267
0.0068147331 0.021844605 -0.025353292
0.0055210609 0.021541296 -0.024814356
0.0048445836 0.021727357 -0.024843123
0.14585252 0.022772182 -0.026394168
0.14447275 0.023154899 -0.026468655
0.14292359 0.022989646 -0.025815096
0.14193767 0.02332079 -0.025844743
0.14124602 0.023553308 -0.025878029
0.14024471 0.023897182 -0.025918188
0.1277651 0.024081497 -0.026187751
0.12642364 0.024508763 -0.026240416
0.12485744 0.024348307 -0.025604209
0.12383104 0.024656385 -0.025677357
0.12176522 0.025296172 -0.025738893
0.11211029 0.024604714 -0.026023008
0.11123776 0.024898909 -0.026064105
0.11039307 0.025136776 -0.026100097
0.1097356 0.02532926 -0.026122155
0.096355632 0.025072264 -0.025976012
0.095383048 0.025403131 -0.026016088
0.081854567 0.025141483 -0.026023638
0.08117111 0.025310658 -0.026077945
0.080485307 0.025520327 -0.026098961
0.078811616 0.026072931 -0.026154025
0.079236746 0.025238378 -0.02547239
0.077524602 0.025827074 -0.025535803
0.076863393 0.026026728 -0.025557384
0.065381646 0.025083303 -0.025605243
0.064712487 0.025282599 -0.025636153
0.063032977 0.025783163 -0.025705734
0.061745573 0.025475875 -0.025114473
0.061085444 0.025667448 -0.02515471
0.048267435 0.025115317 -0.025419697
0.047563653 0.025331639 -0.025441559
0.033454522 0.024380067 -0.025256
0.032785039 0.024587732 -0.025275575
0.031509407 0.024282919 -0.024710139
0.030842233 0.024515009 -0.024750905
0.018330229 0.023711897 -0.025324456
0.017023599 0.023370825 -0.024763729
0.016354252 0.023563497 -0.024792373
0.015283982 0.023905827 -0.024837311
0.014007725 0.023587923 -0.024284635
0.0032391716 0.021473493 -0.024315786
0.0016214056 0.021252414 -0.023778347
0.13903974 0.023620702 -0.025251698
0.13839281 0.023777854 -0.025304001
0.13734767 0.02407239 -0.025361978
0.13666713 0.02430173 -0.025369905
0.13712427 0.02350679 -0.024655143
0.13510734 0.0241822 -0.024718294
0.13408503 0.024491407 -0.024758223
0.13232929 0.025021631 -0.024832321
0.12227383 0.024462743 -0.025031801
0.12060957 0.025004214 -0.025070265
0.11989806 0.025235625 -0.025106462
0.11922075 0.025450854 -0.025145542
0.10814755 0.02516588 -0.025498319
0.10678483 0.025577743 -0.025581038
0.10521959 0.025413446 -0.024928583
0.10389143 0.025820035 -0.024987942
0.094110556 0.025165349 -0.025379758
0.093474574 0.025350619 -0.025399227
0.092439465 0.02565822 -0.025440736
0.091748059 0.025847675 -0.025476191
0.092210278 0.025059789 -0.024762992
0.09049239 0.025544172 -0.024861008
0.089814842 0.02573779 -0.024923254
0.088789098 0.026087297 -0.024966279
0.075602487 0.025721826 -0.024940815
0.074934885 0.025924416 -0.024970207
0.07368122 0.025620466 -0.024366498
0.072856247 0.025868811 -0.024405688
0.071981736 0.026155084 -0.024442852
0.059808955 0.025395159 -0.024549866
0.05746457 0.026122749 -0.024647983
0.046322547 0.025013229 -0.024836969
0.045447089 0.025284771 -0.024869241
0.044612229 0.025563322 -0.024906898
0.043338824 0.025270993 -0.024316095
0.042652443 0.025482969 -0.024343057
0.029238276 0.024271198 -0.024197489
0.027872171 0.024652753 -0.024273762
0.026279176 0.024450267 -0.023690488
0.012726095 0.023272114 -0.023722852
0.012062105 0.023459494 -0.02374319
0.011028851 0.023781026 -0.023757743
0.0098031405 0.023448261 -0.023193359
0.0091084046 0.02367563 -0.023228426
-0.0030667167 0.021945551 -0.023394026
0.15086353 0.022908483 -0.024383027
0.14920256 0.02342147 -0.024446946
0.14818685 0.023746241 -0.024495674
0.14746739 0.023988351 -0.024526408
0.14645883 0.024284609 -0.024572205
0.14798099 0.023178119 -0.023768699
0.14630847 0.023719564 -0.023841681
0.14522606 0.024011321 -0.023908757
0.1435715 0.024538703 -0.023968115
0.13288668 0.024229728 -0.024085013
0.13213465 0.024456125 -0.024109904
0.13107541 0.024751395 -0.024180289
0.13042819 0.024938952 -0.024213366
0.11766001 0.025285188 -0.024510641
0.11608314 0.025094587 -0.023877218
0.11511247 0.025386687 -0.023928072
0.11438942 0.025630182 -0.023952061
0.10262775 0.025566842 -0.024334732
0.10166535 0.02589009 -0.024373742
0.10142705 0.025299044 -0.023688793
0.10007258 0.025715619 -0.023756323
0.098719224 0.026069334 -0.023832338
0.088552602 0.025481312 -0.024293782
0.087548003 0.025796885 -0.024326341
0.086530656 0.026109589 -0.024367144
0.084968194 0.02592477 -0.023731777
0.084272891 0.026168294 -0.02375761
0.083513878 0.026410138 -0.023810597
0.0707836 0.025853293 -0.023816422
0.070062026 0.026072443 -0.023843786
0.069085732 0.026369672 -0.023895148
0.068840392 0.025766047 -0.023229653
0.067765355 0.026103744 -0.02327688
0.067081146 0.026328199 -0.02330838
0.055862125 0.025942322 -0.024050562
0.053950187 0.025874749 -0.023465935
0.051916573 0.026441041 -0.023603933
0.04141362 0.025135538 -0.023754613
0.040059499 0.025514647 -0.023844697
0.038113877 0.02543913 -0.023298211
0.02467276 0.024293391 -0.023104213
0.023655392 0.024586951 -0.023174291
0.022991834 0.024778705 -0.023217993
0.021690875 0.024466962 -0.022650456
0.0078471089 0.023374345 -0.02267356
0.0071430868 0.023591986 -0.022710072
0.0058865715 0.023232428 -0.022143969
0.14138858 0.024643287 -0.023326058
0.14407519 0.023719802 -0.02322801
0.14237478 0.024284963 -0.023280755
0.14067806 0.024858814 -0.023354685
0.12886357 0.024827825 -0.023547702
0.12719506 0.025364963 -0.023605958
0.12562504 0.02521807 -0.022954226
0.12464265 0.025514718 -0.023027848
0.12390887 0.025721841 -0.023065075
0.12292946 0.026026448 -0.023078796
0.11321229 0.025351023 -0.023296533
0.11251699 0.025591237 -0.023333523
0.11152583 0.025891891 -0.023381861
0.1108291 0.026088895 -0.023404218
0.1092713 0.025927406 -0.022760341
0.10758048 0.026436038 -0.022859581
0.097464927 0.025816286 -0.0231851
0.096475594 0.026143407 -0.023227433
0.095786221 0.02640249 -0.02324732
0.094565436 0.026128417 -0.02259638
0.092891164 0.026617078 -0.022665491
0.082302421 0.026074294 -0.02319918
0.081582502 0.026273562 -0.023240019
0.079894833 0.026830835 -0.023292748
0.078656055 0.026561657 -0.022656173
0.077963375 0.026800597 -0.022685401
0.065794095 0.026061507 -0.022682982
0.06445621 0.026445169 -0.022745546
0.052331746 0.025649205 -0.022903355
0.051670291 0.025832914 -0.022953246
0.050615348 0.026149552 -0.023001878
0.049965389 0.026375357 -0.023018047
0.048660621 0.026101476 -0.022409476
0.036499951 0.025274932 -0.022708822
0.035843939 0.025461702 -0.022729823
0.034593318 0.025142416 -0.022131275
0.033876009 0.025356317 -0.022153476
0.033232313 0.025564741 -0.022179862
0.020459527 0.024136133 -0.02206667
0.019411188 0.02449679 -0.022112887
0.018768566 0.024671014 -0.022135774
0.017440572 0.024349896 -0.021566948
0.01642821 0.024665033 -0.021601468
0.0046039186 0.022897583 -0.021585852
0.0039201742 0.023111476 -0.021618072
0.0026314342 0.022799086 -0.02104963
0.15422818 0.023611441 -0.022469806
0.15287806 0.02403098 -0.022532474
0.15141961 0.024172969 -0.022217181
0.15036529 0.024185553 -0.021888357
0.14861688 0.024754632 -0.021963513
0.14117353 0.024073225 -0.022604417
0.13950959 0.024572279 -0.022682639
0.13881196 0.024743367 -0.022742914
0.13746184 0.025170036 -0.022783605
0.13592046 0.025065359 -0.022114178
0.13521221 0.025269207 -0.022142863
0.12170026 0.02578605 -0.022403087
0.12105817 0.025987605 -0.022423649
0.12275241 0.025425304 -0.02237406
0.11980966 0.025743585 -0.021766158
0.11915235 0.025952471 -0.021799769
0.10602696 0.026284413 -0.022192018
0.10501109 0.026594903 -0.022236094
0.0933493 0.025826462 -0.021948064
0.091622226 0.026321441 -0.022030186
0.09095256 0.026507502 -0.022092281
0.089278042 0.027052131 -0.022172479
0.076724246 0.026495434 -0.02204841
0.076035589 0.02669994 -0.022080472
0.07484024 0.026393905 -0.021449769
0.074119702 0.026611965 -0.021501902
0.073133692 0.026916936 -0.021536276
0.06288828 0.026247565 -0.02214176
0.062178575 0.026444899 -0.022185348
0.060961738 0.026147095 -0.021573696
0.060381964 0.026687734 -0.021929517
0.059829868 0.027191594 -0.022287605
0.058229685 0.027008995 -0.021686653
0.047438983 0.025783461 -0.02179148
0.046725675 0.026007334 -0.021811759
0.04576366 0.026318308 -0.021848299
0.044454016 0.026044026 -0.021252854
0.043801993 0.026262155 -0.021282587
0.031940348 0.025284162 -0.021607883
0.030362414 0.025066117 -0.021040142
0.028987492 0.025440527 -0.021115772
0.028335374 0.02563614 -0.021145625
0.015117851 0.02436699 -0.021034194
0.014437392 0.024594139 -0.021072049
0.0131798 0.024261246 -0.02048813
0.012181857 0.024560509 -0.020505914
0.011497958 0.024777481 -0.020525796
0.0013449453 0.022492157 -0.020482345
2.9262155e-06 0.022859938 -0.020578288
7.7338889e-05 0.02214317 -0.019941848
-0.0012732465 0.022528168 -0.020014785
0.14913243 0.023959145 -0.021191152
0.14743903 0.02451105 -0.021271465
0.14638214 0.02480796 -0.021323957
0.14470336 0.025319137 -0.021402333
0.1340372 0.02500052 -0.021456715
0.13277811 0.024775703 -0.020766584
0.13225874 0.025535133 -0.021542449
0.13154182 0.025730051 -0.021583838
0.13037929 0.025479488 -0.020901101
0.12966482 0.025724512 -0.020920748
0.12834874 0.026153831 -0.020961879
0.11758255 0.025791606 -0.021158613
0.11625167 0.026163761 -0.021224204
0.11554022 0.026407262 -0.021254871
0.10478653 0.026012784 -0.02153481
0.10376867 0.026327642 -0.021581864
0.10210469 0.026893936 -0.021643536
0.10255846 0.026084675 -0.020914303
0.10087103 0.026617402 -0.020995276
0.099846572 0.026862344 -0.021068849
0.098163284 0.02741465 -0.021130083
0.089702532 0.026238004 -0.02146263
0.087667018 0.026888117 -0.021536218
0.084676459 0.027198479 -0.02095514
0.08610341 0.026705839 -0.020895941
0.085456058 0.026924079 -0.020912331
0.071885511 0.026649036 -0.02090509
0.071225129 0.026847705 -0.020926163
0.056326732 0.026947465 -0.02108567
0.054741498 0.026775911 -0.020474143
0.042518631 0.02594698 -0.020669037
0.041194029 0.026306037 -0.020759946
0.039255328 0.026218373 -0.020206163
0.027081937 0.025335632 -0.020534009
0.025799297 0.025077669 -0.019929426
0.024786159 0.025395019 -0.019980142
0.02412346 0.025581418 -0.02002801
0.010237938 0.02447018 -0.019954359
0.0089726467 0.02416208 -0.01938184
0.0082880985 0.024401562 -0.019421335
0.16064605 0.023382574 -0.020452088
0.1589424 0.02391417 -0.020522198
0.15728618 0.024436157 -0.020589991
0.15778562 0.023683324 -0.01980491
0.15611979 0.02419566 -0.019888064
0.15439248 0.024737354 -0.019978305
0.14521515 0.02452714 -0.020644829
0.14354149 0.025077879 -0.020697622
0.14184843 0.025653914 -0.02077084
0.14232925 0.024856396 -0.020007459
0.14066027 0.025395539 -0.020079846
0.13896835 0.025847692 -0.020190492
0.12681299 0.026010904 -0.020293767
0.12579298 0.026313709 -0.020366319
0.11435342 0.026142359 -0.020580415
0.11369818 0.02635951 -0.020618943
0.11266639 0.0267004 -0.020666387
0.11198063 0.026891489 -0.020695888
0.11078463 0.026612774 -0.020019097
0.10909105 0.027122943 -0.020121591
0.099645145 0.026289962 -0.020365827
0.098643415 0.026596224 -0.020400999
0.096966572 0.027160626 -0.020468444
0.097392529 0.026350111 -0.019742128
0.095710866 0.026939269 -0.019806221
0.09403941 0.027432645 -0.019867191
0.083431125 0.026899785 -0.020331053
0.081389077 0.027501008 -0.020428427
0.082192846 0.026581112 -0.019711927
0.079832532 0.027343033 -0.019787963
0.079117492 0.027601397 -0.019817008
0.069967866 0.026567345 -0.020298649
0.068941511 0.026883304 -0.0203459
0.068220057 0.027114041 -0.020377439
0.066964194 0.026854388 -0.019739643
0.065613449 0.027248774 -0.019802909
0.053501062 0.026457783 -0.019868137
0.052802272 0.026645601 -0.019925306
0.051764548 0.026950002 -0.019986518
0.050531339 0.02665535 -0.019362237
0.049850922 0.026897009 -0.019378856
0.037667975 0.02607308 -0.019607529
0.036968082 0.026278412 -0.019629708
0.035736743 0.025955727 -0.019016521
0.035035618 0.026168197 -0.019037969
0.034365982 0.026375761 -0.019057583
0.022832541 0.02527524 -0.019450039
0.021158896 0.025821628 -0.019523492
0.02159849 0.02495306 -0.018859435
0.01990409 0.025502484 -0.018927265
0.0070167948 0.024060065 -0.01884366
0.0063782455 0.024243999 -0.018875109
0.0050664954 0.023927504 -0.018307986
-0.0037556235 0.021132495 -0.018261569
0.15487634 0.02398175 -0.019192737
0.15319648 0.024498407 -0.019271687
0.15152571 0.025006998 -0.019337419
0.13949302 0.025099497 -0.019408882
0.13742742 0.025743976 -0.019490018
0.12455175 0.026068041 -0.019702246
0.12284182 0.026599096 -0.019740198
0.12336738 0.025783541 -0.019008309
0.12170294 0.026324468 -0.019046649
0.1209917 0.026555819 -0.019082706
0.10954212 0.026367467 -0.019350152
0.10888505 0.02656565 -0.019389609
0.10751863 0.026987709 -0.019458206
0.10595899 0.026836004 -0.018784968
0.10497447 0.027137816 -0.01883417
0.094527908 0.02664482 -0.019139402
0.092801854 0.027142294 -0.019216448
0.090405867 0.02787903 -0.01936735
0.091562651 0.026855852 -0.018575516
0.0891819 0.02760518 -0.018701583
0.07790111 0.027312957 -0.019165168
0.076656222 0.027024662 -0.018522374
0.075988464 0.027227288 -0.018551769
0.07432355 0.027723482 -0.018640848
0.064051799 0.027058201 -0.019179655
0.063343778 0.027263889 -0.0192223
0.061022472 0.02799518 -0.019328373
0.062120151 0.026958939 -0.018602064
0.059724834 0.02772259 -0.018700272
0.048575748 0.026608735 -0.01875348
0.046892397 0.027130317 -0.01880713
0.047350317 0.026305988 -0.018121906
0.045640051 0.026855575 -0.018191589
0.033106059 0.026086399 -0.018464753
0.031859696 0.025805797 -0.017871669
0.030177824 0.026270697 -0.017962134
0.02948311 0.02647222 -0.018001096
0.018612755 0.025176933 -0.018338848
0.01748126 0.025161209 -0.01806296
0.016286617 0.025191069 -0.017792111
0.0038219849 0.023615042 -0.017722696
0.0030992227 0.0238485 -0.017749414
0.0015107207 0.023617232 -0.017205575
0.1650445 0.023827173 -0.018566541
0.16304797 0.024451274 -0.018634206
0.1613391 0.024955381 -0.018737664
0.16187881 0.024213057 -0.017929832
0.16016212 0.024735179 -0.018007914
0.15850142 0.025275081 -0.018068623
0.15200475 0.024262987 -0.018566797
0.15034336 0.024775971 -0.01863068
0.14932719 0.025100853 -0.018679425
0.14860815 0.025342643 -0.018710138
0.14760008 0.025639009 -0.018755931
0.14638479 0.025384091 -0.018068422
0.14590445 0.026128158 -0.018843718
0.14473006 0.025911227 -0.018127931
0.13588503 0.025630366 -0.018815789
0.13520327 0.025830161 -0.018838719
0.13344714 0.026360463 -0.018912757
0.1322116 0.026108008 -0.018236298
0.13156411 0.026295539 -0.01826949
0.12990093 0.026868604 -0.018312048
0.11978472 0.026308589 -0.018410636
0.11909728 0.02652988 -0.018443495
0.11741014 0.027002424 -0.018530775
0.11791521 0.026253169 -0.017769247
0.11624067 0.026741976 -0.017854655
0.11551726 0.026985595 -0.017878657
0.11384333 0.027544247 -0.017964391
0.10206259 0.027455229 -0.018222326
0.10372733 0.026901256 -0.018155541
0.10276539 0.027224451 -0.018194672
0.087617502 0.027438186 -0.018056039
0.074751243 0.026939929 -0.0179218
0.073052078 0.027474586 -0.017998289
0.058515087 0.027430385 -0.018068781
0.05781348 0.027653247 -0.018097337
0.056606852 0.027375661 -0.017452933
0.04438179 0.026578974 -0.017573874
0.043696187 0.026790857 -0.01760092
0.042367876 0.027149735 -0.017681912
0.040783077 0.026937373 -0.017096158
0.03060309 0.025491918 -0.017274121
0.02732688 0.025771895 -0.016756566
0.025988126 0.026243243 -0.016793624
0.015024799 0.024888478 -0.017211715
0.013363543 0.025390629 -0.017266158
0.013757705 0.024587648 -0.016622145
0.012061171 0.025096031 -0.016657071
0.011436462 0.025299428 -0.016685262
-8.386001e-05 0.023369655 -0.016660448
0.16065967 0.023992877 -0.017227126
0.15898937 0.02452486 -0.017280035
0.15732695 0.025040112 -0.017358311
0.15562807 0.02557148 -0.017449586
0.14525175 0.025110438 -0.017363697
0.14256451 0.026033644 -0.017461592
0.13035002 0.026088282 -0.017574407
0.12867439 0.026638256 -0.01762387
0.12697968 0.027159564 -0.017709399
0.12916408 0.025861466 -0.016860757
0.12750126 0.026385767 -0.016927572
0.12581347 0.026906315 -0.017034851
0.12410053 0.027417688 -0.017085792
0.11435756 0.026723918 -0.017198205
0.11267057 0.027264837 -0.017283397
0.10085516 0.027150281 -0.017580152
0.099836402 0.027420934 -0.017627992
0.098598912 0.027184928 -0.016955288
0.097609259 0.027511856 -0.016997552
0.086071178 0.027269797 -0.017394846
0.085376576 0.027512927 -0.017420616
0.084070683 0.027275382 -0.01678735
0.082916752 0.028220998 -0.017572613
0.081693083 0.027963527 -0.016906956
0.071869791 0.027189407 -0.017345743
0.070171997 0.027706025 -0.017424498
0.068867996 0.027456284 -0.016780015
0.067154124 0.028003853 -0.01684995
0.055359501 0.02711897 -0.016819613
0.052998271 0.027781647 -0.016971603
0.053785734 0.026909223 -0.016215589
0.051712662 0.027506266 -0.016342973
0.039188433 0.026779814 -0.016502356
0.025735643 0.025629865 -0.016142819
0.024717545 0.025924305 -0.01621283
0.02405376 0.026116438 -0.016256597
0.022767819 0.025820393 -0.015661705
0.021800943 0.026129855 -0.01569958
0.010155342 0.025006171 -0.016100058
0.0089088529 0.024719905 -0.015517427
-0.0026336834 0.022738002 -0.015490672
-0.0045788232 0.022665668 -0.014927721
0.17220066 0.023422938 -0.016600743
0.17105094 0.023235053 -0.015858186
0.16953175 0.024278928 -0.016697912
0.16800001 0.024139371 -0.016019735
0.16730937 0.024327956 -0.016050706
0.1649854 0.025122236 -0.016103648
0.15611765 0.024833087 -0.016646251
0.15441088 0.025359727 -0.016736232
0.15327364 0.025113098 -0.016012367
0.15223205 0.025433842 -0.016051296
0.15054873 0.025962066 -0.016126279
0.14887655 0.02650325 -0.016199395
0.14303958 0.025230851 -0.016681084
0.14134198 0.025804769 -0.016754955
0.14019135 0.025536481 -0.016058838
0.13964537 0.026255455 -0.01687553
0.13901377 0.026459415 -0.016887965
0.13778584 0.026253466 -0.016167223
0.13543478 0.02700372 -0.016268773
0.12627512 0.026155826 -0.016237717
0.12455909 0.026660185 -0.016348857
0.12288811 0.027195221 -0.016385546
0.111444 0.026999397 -0.016594591
0.11078236 0.027206412 -0.016624628
0.10909477 0.027708979 -0.016726438
0.10955395 0.026966423 -0.015938049
0.10786113 0.02748177 -0.016035115
0.10619037 0.028002487 -0.016087819
0.09604919 0.027406199 -0.016329871
0.094701648 0.027808283 -0.016377416
0.09350352 0.027531289 -0.015711404
0.091769107 0.028016355 -0.01583932
0.091070116 0.028256048 -0.01587039
0.082875177 0.026956903 -0.016150169
0.080467328 0.027713025 -0.016243782
0.079792216 0.027940024 -0.01626765
0.078215018 0.027794983 -0.015622413
0.067628741 0.027192015 -0.016137984
0.065574862 0.027813781 -0.016222447
0.064023398 0.027632765 -0.015592428
0.062299356 0.028165253 -0.015684655
0.0616492 0.028372388 -0.015709294
0.050499797 0.027234828 -0.015698647
0.037590165 0.026631139 -0.01588596
0.036933534 0.026818112 -0.015906952
0.035698283 0.026514649 -0.015281413
0.020503478 0.025865274 -0.015096816
0.0076181963 0.024417194 -0.014933663
0.0069627687 0.024593761 -0.014960159
0.0056952061 0.024274368 -0.014374354
-0.0074354932 0.022096137 -0.013782773
0.16614331 0.024140969 -0.015313978
0.16545796 0.024365943 -0.015326235
0.16379741 0.024903886 -0.015386014
0.15109619 0.025191505 -0.015333073
0.14934824 0.025760125 -0.015408183
0.13626683 0.026149102 -0.015480751
0.13417059 0.026785713 -0.015558146
0.13348839 0.0269797 -0.015605865
0.12172589 0.026942722 -0.015682656
0.12049452 0.026716573 -0.015000714
0.11983713 0.026925391 -0.015034344
0.11863444 0.027881593 -0.015848571
0.117475 0.027608402 -0.015157692
0.10667693 0.027229492 -0.01533258
0.10397553 0.028094519 -0.015444549
0.092251606 0.027252894 -0.015050768
0.08990746 0.027984258 -0.015193179
0.089176014 0.028207859 -0.015217113
0.076641753 0.027615443 -0.014979942
0.074972495 0.028117428 -0.015070011
0.072592199 0.028872522 -0.015161615
0.062758654 0.027341865 -0.014962544
0.060410034 0.028088238 -0.015064779
0.059719704 0.028304242 -0.015094697
0.058487087 0.02802895 -0.014454202
0.049211513 0.026977129 -0.015063471
0.04750561 0.027502157 -0.015113706
0.046892993 0.027706165 -0.015136071
0.048005413 0.026675217 -0.014418905
0.043929428 0.027945139 -0.014584866
0.033766642 0.026431901 -0.01468266
0.034410026 0.026223429 -0.014656324
0.032490317 0.026167274 -0.014083718
0.03139475 0.027153222 -0.014817626
0.030123807 0.02684457 -0.014211931
0.019281816 0.025526894 -0.014485787
0.017752623 0.02563544 -0.014223872
0.016240567 0.02576673 -0.01396345
0.0044246102 0.023967452 -0.013786267
0.0024659028 0.023898693 -0.01321541
0.00010201521 0.024575094 -0.013354108
0.17901894 0.023143936 -0.014674442
