# .PCD v0.7 - Point Cloud Data file format
VERSION 0.7
FIELDS x y z
SIZE 4 4 4
TYPE F F F
COUNT 1 1 1
WIDTH 1341
HEIGHT 1
VIEWPOINT 0 0 0 1 0 0 0
POINTS 1341
DATA ascii
0.016642511 0.13433552 0.019560464
0.016212344 0.13756059 0.01879146
0.015429854 0.1384695 0.018983901
0.015193999 0.1390854 0.018929817
0.060969532 0.0044050068 0.027152479
0.056176305 0.016636282 0.02625113
0.031960726 0.078466937 0.021742761
0.021227717 0.10588922 0.019754454
0.019171 0.11112218 0.019367397
0.016429305 0.11814734 0.018864602
0.015337825 0.1209099 0.018642426
0.062176168 -0.00090251863 0.028016254
0.060380459 0.0037975907 0.027723476
0.05881238 0.0077304393 0.027397089
0.030616283 0.079788566 0.022168741
0.022183776 0.10128321 0.020584747
0.01844269 0.11085467 0.019908726
0.017714083 0.11481917 0.019089028
0.015978098 0.11714667 0.019430913
0.015728772 0.11780491 0.019396871
0.014683306 0.12044318 0.019208997
0.055540621 -0.00061222911 0.026352167
0.05398196 0.0034570843 0.026093014
0.050998569 0.010978013 0.025496274
0.025902748 0.075158909 0.0208579
0.022529006 0.083749145 0.020233937
0.017491341 0.096569523 0.019259684
0.0171507 0.097432598 0.019195221
0.01468724 0.10373361 0.018735491
0.014378846 0.10456058 0.018707454
0.054159999 0.00075519085 0.026778325
0.053273618 0.0031236708 0.026637524
0.051852107 0.0067333877 0.026362017
0.050293446 0.010675728 0.026053615
0.025187194 0.07487452 0.021421999
0.021551609 0.084130719 0.020745873
0.021287918 0.084791839 0.02067247
0.020641565 0.086493418 0.020598769
0.017915368 0.093444988 0.020084113
0.017795444 0.093770728 0.020074569
0.017229438 0.095171124 0.019916728
0.01690352 0.095987394 0.01983963
0.016496181 0.096986875 0.019765459
0.047544956 0.0010509789 0.025317237
0.046908796 0.0026815534 0.025198191
0.031738102 0.04146263 0.022373825
0.031217694 0.042756781 0.022258051
0.029768705 0.04640305 0.021969885
0.028254986 0.050344408 0.021733493
0.027872622 0.051243916 0.021616355
0.026518047 0.054774359 0.021374024
0.026266038 0.055451572 0.021355823
0.023948669 0.061286137 0.020905755
0.021664321 0.067198887 0.020515814
0.021398425 0.067866161 0.020445146
0.039533019 0.0049863011 0.023805648
0.038111567 0.0085979551 0.023529954
0.03707999 0.011203378 0.023314483
0.023307681 0.046309501 0.020738512
0.020491719 0.053513631 0.020215459
0.018279195 0.059247315 0.019840777
0.018142521 0.059562951 0.019796453
0.015837252 0.065518305 0.019418634
0.040385783 0.00069090724 0.024668999
0.038829446 0.0046853423 0.02437102
0.037433922 0.0082842559 0.024125949
0.022617221 0.046024323 0.021324962
0.021213353 0.049696118 0.021121405
0.021086693 0.050051272 0.021104351
0.017670989 0.058759362 0.020458855
0.03441745 0.00041691959 0.023344345
0.033508539 0.0027274489 0.023170747
0.032399058 0.0045382977 0.023328908
0.031455696 0.0070520937 0.023189053
0.030476749 0.010841399 0.022492565
0.024723411 0.024104476 0.021875776
0.022558868 0.029737622 0.021527432
0.02100265 0.033670291 0.021217652
0.021686077 0.033969477 0.02061069
0.019818962 0.036673963 0.020995103
0.017180026 0.04442735 0.020112671
0.015089393 0.048693389 0.020068869
0.014560938 0.052164599 0.01928588
0.02757287 0.002427578 0.022040397
0.026781142 0.0043960512 0.021882497
0.026016533 0.006421119 0.021742322
0.02474463 0.0097211152 0.021533348
0.015655518 0.032910511 0.019836552
0.014751673 0.035178125 0.019652128
0.014332175 0.03621915 0.019567579
0.013287723 0.038908109 0.019369207
0.013184249 0.039194971 0.019350953
0.012751579 0.040345982 0.019314684
0.021985292 0.0022562146 0.020753033
0.021072567 0.0045706332 0.020578578
0.020436645 0.0062011033 0.020460375
0.01949352 0.0087156892 0.020319782
0.016134083 0.017187893 0.019629724
0.014359236 0.021806523 0.019364998
0.021313429 0.0019701272 0.021379776
0.020408332 0.0042770505 0.02120734
0.017298162 0.012243494 0.020639077
0.015484571 0.016851395 0.020269357
0.01368022 0.021530882 0.019996181
0.01601404 0.0011081696 0.02031114
0.014918923 0.0039276928 0.02012071
0.012271941 0.010759458 0.019656897
0.012162149 0.011046872 0.019635811
0.14253592 6.5654516e-05 0.041971572
0.14173263 -0.0001809895 0.042386591
0.13980782 0.0047919154 0.042081371
0.13018245 0.0036271811 0.039929301
0.10765427 0.061187923 0.035785779
0.12937671 0.00339818 0.04033602
0.12043893 0.002697289 0.038108163
0.11876416 0.0070169717 0.03785564
0.11800355 0.0067266077 0.038294569
0.11089998 0.0013724267 0.036659136
0.10893911 0.0064335465 0.0363089
0.11012214 0.0011290312 0.037124574
0.10213882 0.00035469234 0.035085179
0.10015696 0.0053723454 0.034699671
0.098482788 0.0096940696 0.034446537
0.062631726 0.10125567 0.027743965
0.061972082 0.10290688 0.027607001
0.099387527 0.0051005334 0.035166517
0.097736835 0.0093989372 0.034916662
0.06133914 0.10229039 0.028078832
0.092882872 -0.0004196763 0.034031108
0.091320455 0.0034974068 0.0337075
0.089729309 0.0086837709 0.033088066
0.080772638 0.010451213 0.031415984
0.084427774 -0.0010684282 0.032741167
0.083005965 0.0025369972 0.032466076
0.081158638 0.0072052181 0.03210707
0.046611011 0.095533744 0.025726616
0.075833261 0.0020234585 0.030742377
0.074394941 0.0056330264 0.030447736
0.074276388 0.0059249401 0.030421369
0.072453976 0.010593027 0.030065209
0.021730661 0.14019987 0.020703621
0.020107925 0.14433073 0.0203797
0.076251864 -0.0013183355 0.031435654
0.075092316 0.0017513335 0.031263344
0.071706533 0.010304362 0.030563846
0.02745223 0.12339698 0.022404484
0.024852037 0.12997033 0.021885023
0.02098161 0.1399444 0.021216497
0.064821661 0.0090229511 0.029133648
0.026300192 0.10741308 0.021967679
0.024581075 0.11189336 0.021669529
0.023406327 0.1148569 0.021448776
0.020809352 0.12146981 0.0209677
0.018406749 0.12759818 0.020534612
0.016678751 0.1320031 0.020195797
0.016435564 0.13268262 0.020180188
0.016173959 0.1333805 0.020129003
0.060686648 0.00077471137 0.028416134
0.05809927 0.0074157864 0.027942233
0.030785441 0.077207178 0.022885822
0.030575216 0.077746019 0.022852786
0.021783769 0.10024126 0.021240816
0.021537602 0.10083576 0.021176279
0.019914329 0.10496674 0.020854242
0.019764781 0.10535562 0.020830803
0.017765462 0.11044659 0.020450674
0.016216874 0.11441199 0.020168468
0.060600698 -0.0011319816 0.029079236
0.058889508 0.0033332407 0.028797261
0.057365656 0.0071552992 0.028484806
0.053469419 0.017148599 0.027777053
0.030069649 0.076917276 0.023441799
0.01919651 0.10467157 0.02139838
0.017123044 0.10996455 0.021011434
0.05115521 0.0064239353 0.026929013
0.04956609 0.010427907 0.026613638
0.028911054 0.063228101 0.02282887
0.024522185 0.07442826 0.021977648
0.020113111 0.085663483 0.021129332
0.019669831 0.086867332 0.021112233
0.019153416 0.088209048 0.02103442
0.018317699 0.090252265 0.020804323
0.018107891 0.09078303 0.020767622
0.017597854 0.092099816 0.020670153
0.017275572 0.092955634 0.020639837
0.016628325 0.094621718 0.020525001
0.044914305 0.0057922453 0.025572531
0.043730974 0.0087362677 0.025322422
0.028706014 0.047033072 0.022477821
0.024451196 0.058009356 0.021745853
0.023236156 0.061007768 0.021456502
0.021002233 0.066805482 0.021102153
0.015326142 0.081324041 0.020046063
0.014998198 0.082158849 0.019991495
0.046006024 0.00081059337 0.026438542
0.045349538 0.0024658144 0.026316427
0.04302007 0.0084610581 0.025890857
0.027457952 0.048155785 0.022975855
0.025033474 0.05438523 0.02250196
0.022815287 0.060010001 0.022083931
0.022689879 0.060327426 0.022062033
0.020438075 0.066188991 0.021717787
0.015591681 0.078538418 0.020811498
0.015185654 0.079581141 0.020739533
0.01493752 0.080218911 0.020691007
0.014658689 0.080923066 0.020626567
0.014040649 0.08252272 0.020523965
0.013910592 0.082842141 0.020500533
0.0381248 0.0044016838 0.024955288
0.036863625 0.007690385 0.024757527
0.03673166 0.0080211908 0.024725176
0.024931371 0.03814505 0.022523202
0.022070765 0.045378581 0.021942608
0.02049315 0.04942292 0.021690585
0.018963218 0.053250238 0.021343514
0.017304301 0.05764094 0.021125808
0.017100692 0.058174059 0.02108302
0.015083969 0.063242927 0.020674087
0.014960289 0.063584417 0.020670339
0.031693816 0.0042766035 0.02392704
0.030815899 0.006633386 0.023802064
0.029364586 0.010270268 0.023500457
0.024028957 0.023835912 0.022470936
0.022125185 0.028797328 0.022171751
0.020424902 0.033101931 0.021845907
0.016409159 0.043363929 0.021087617
0.014587879 0.047916681 0.020710789
-0.019552588 0.1352348 0.014422722
0.022412419 0.013572723 0.021803714
0.015489221 0.031307876 0.020550519
0.015250981 0.031931281 0.020506397
0.014988482 0.032602787 0.020454958
0.013678014 0.03587684 0.020188585
-0.022428691 0.12818754 0.013532773
0.025311708 0.0041184723 0.02309306
0.023265123 0.0094575137 0.022748373
0.02183038 0.013047472 0.022431448
0.01901865 0.0058057606 0.021704063
0.016791224 0.011554852 0.021292888
0.015618622 0.00018599629 0.021026708
0.015507519 0.00045637786 0.020997517
0.013423622 0.0057361275 0.020600043
-0.019146621 0.033918202 0.015020676
0.16327101 0.0009714365 0.047043614
0.15243876 0.00060880184 0.04450541
0.1400125 -0.00037583709 0.043170333
0.13906837 0.004381001 0.0425037
0.13031113 -0.0013029873 0.041071713
0.11085898 0.048349261 0.037422858
0.12769699 0.0031295419 0.041148126
0.1187458 0.0024935305 0.038955651
0.10428458 0.039497823 0.036302492
0.11796474 0.0022369921 0.039397694
0.10324758 0.039867401 0.036677234
0.10933918 0.00090020895 0.037579007
0.10739785 0.0058603287 0.037195273
0.1072455 0.0062606037 0.037175253
0.10857713 0.00060230494 0.038032614
0.10661978 0.0055815279 0.037632436
0.068570435 0.10279615 0.030601688
0.096960723 0.0091629177 0.035375588
0.10009456 2.4661422e-05 0.036237672
0.098170519 0.00451006 0.035960868
0.096179485 0.0089336038 0.035834372
0.059817731 0.10173392 0.029035196
0.060315609 0.10268614 0.028505959
0.08810854 0.0083966851 0.034025908
0.089302838 0.0031330884 0.034893639
0.08747822 0.0077688545 0.034516186
0.087345302 0.0081129372 0.03449408
0.080498397 0.0067045987 0.032619268
0.046770811 0.092843056 0.02634339
0.046269059 0.094190314 0.026284382
0.028254151 0.14021298 0.0229638
0.08139497 0.0022896528 0.03344737
0.078254759 0.010310903 0.032847948
0.046686471 0.090930313 0.02698382
0.027269125 0.14053087 0.023403488
0.074377239 0.0013983101 0.031776398
0.07241863 0.0052478611 0.03170865
0.070589125 0.0098922849 0.031330712
0.02424556 0.12939493 0.022445738
0.022050917 0.13500135 0.022032432
0.020251036 0.13962524 0.021726303
0.018619001 0.14377883 0.021392897
0.067103684 -0.001145184 0.030889869
0.066709459 0.0010304898 0.03049884
0.06543541 0.0043020248 0.030273415
0.064157367 0.0085797012 0.029674396
0.034735978 0.082685158 0.024553455
0.034817517 0.083524778 0.024210639
0.033585012 0.084593326 0.024711341
0.027704597 0.1016755 0.022878662
0.025039136 0.10633151 0.023068458
0.025633395 0.10695764 0.022494547
0.023038864 0.11149706 0.022738859
0.021788478 0.1146681 0.022486761
0.021261096 0.11821903 0.021762274
0.01969409 0.12106536 0.02175305
0.017309666 0.1266208 0.021459773
0.059090853 0.00056836009 0.029475793
0.056637228 0.0068821162 0.029031433
0.029454768 0.076321036 0.023997143
0.021242976 0.099474683 0.021806255
0.02112335 0.099785805 0.021782756
0.016385198 0.10970551 0.021551237
0.051707149 0.0028715432 0.027707942
0.048908532 0.0099882483 0.027178027
0.028257906 0.062790722 0.023395829
0.025558054 0.06968461 0.022877142
0.025432467 0.070019022 0.022857167
0.024511755 0.072368771 0.022690229
0.024117649 0.073361009 0.022609569
0.018580973 0.08756648 0.02162955
0.018187582 0.08853817 0.021528378
0.017734468 0.089642242 0.021392949
0.01688087 0.091801971 0.021221422
0.050983667 0.0025921166 0.028262801
0.042963088 0.02307713 0.02677054
0.028080285 0.061066985 0.024005912
0.026982307 0.063949481 0.023837492
0.025091946 0.068757325 0.023471221
0.024172723 0.071106672 0.023307398
0.023937881 0.071719795 0.023268856
0.042348564 0.0080975443 0.026467972
0.02443707 0.053775355 0.023106359
0.022111475 0.059733421 0.02266676
0.019807577 0.065711007 0.02230455
0.038856387 0.00045801699 0.025815487
0.024229705 0.037855536 0.023101278
0.016859353 0.056686699 0.021727443
0.036602318 0.0041271001 0.0261022
0.021447718 0.028476134 0.022773348
0.016117334 0.042070121 0.021773495
0.032770932 -0.00050804019 0.024851382
0.018447161 0.036072686 0.022201903
0.021265566 0.012481228 0.023085855
0.019989789 0.0013428926 0.022631578
0.014670968 0.014941901 0.021643639
0.014266074 0.015963137 0.021568358
0.014336884 -0.00046169758 0.022327408
-0.015905678 0.064414099 0.015983135
-0.016773999 0.038200572 0.016515769
0.13921773 -0.00062936544 0.043580495
0.1374383 0.0039876699 0.043302089
0.13844365 -0.00094181299 0.043987088
0.13663518 0.0037643313 0.043697715
0.12598944 0.0029217005 0.041949876
0.11643469 0.0016346276 0.040271305
0.10779577 0.00035747886 0.038483955
0.097238243 0.0039414018 0.036602676
0.095436931 0.008600682 0.036302939
0.096460521 0.0037093908 0.037069
0.088536382 0.002883032 0.035375983
0.086702168 0.0075335056 0.034996323
0.082034469 -0.0015724152 0.034185812
0.080771923 0.0017102212 0.033989593
0.08063978 0.0020386875 0.033957556
0.079044521 0.0060571134 0.0336283
0.026651263 0.1399335 0.023930438
0.023517966 0.12910663 0.022978067
0.019511998 0.13934675 0.022237234
0.069483459 0.0094581544 0.03211008
0.022892058 0.12854657 0.02352269
0.065598309 0.0006095618 0.031277001
0.064336181 0.0038944185 0.031080179
0.062749147 0.007861048 0.030734435
0.033222377 0.083306983 0.025247753
0.032925725 0.08407478 0.025198616
0.026133716 0.10139841 0.02392029
0.022350311 0.11107898 0.023279533
0.02106905 0.11434603 0.023015559
0.019646585 0.11799946 0.022780195
0.064864993 0.00030788779 0.031801865
0.033167422 0.081308216 0.025939606
0.032837331 0.082158893 0.025878116
0.025468886 0.10094988 0.024470024
0.023649275 0.10564306 0.024166778
0.017757952 0.12065293 0.023057669
0.028853059 0.075714543 0.02455993
0.026509762 0.081701681 0.024124973
0.020470619 0.097120285 0.022968121
0.020020306 0.098328084 0.022925019
0.017608821 0.10445847 0.02246879
0.057508767 0.00033889711 0.030539058
0.055217803 0.0062525421 0.03011822
0.025307 0.082654312 0.024581082
0.029454529 0.055533171 0.024987258
0.02917701 0.056259379 0.024941541
0.025881886 0.064657092 0.024318174
0.024002612 0.069451213 0.023971982
0.044475377 0.00053995848 0.027568363
0.042684913 0.0052073002 0.027265079
0.026701689 0.045865521 0.024223022
0.02531153 0.04955171 0.024026193
0.021437943 0.059391454 0.02324973
0.019104004 0.06542778 0.022875048
0.043773055 0.00024716556 0.028141148
0.02653712 0.0442601 0.024910599
0.038177073 0.00012592971 0.026410162
0.03545773 0.0071504265 0.025924683
0.023624301 0.037289143 0.023686595
0.034761846 0.0068666637 0.026519418
0.025944471 0.029352233 0.024874441
0.01706171 0.051933527 0.023169257
0.030991137 0.0020051003 0.025259726
0.029435694 0.0060303211 0.024986714
0.020876288 0.027889207 0.023390651
0.018922389 0.032858923 0.023024552
0.027346492 0.0093277544 0.025321051
0.020719647 0.01184468 0.023726031
0.015402317 0.025363803 0.022700757
-0.020558774 0.11731966 0.016071595
0.018294215 0.0036834031 0.023079515
-0.019187927 0.054728687 0.017258018
-0.018828392 0.041530281 0.016931161
0.16061497 0.0008367002 0.048114244
0.15979999 0.0006198287 0.048477497
0.1481815 -7.3045492e-05 0.046365108
0.13582647 0.0035480857 0.044093244
0.11485177 0.001186043 0.041144948
0.10701853 9.8198652e-05 0.038938858
0.104047 0.005420804 0.038937733
0.097293019 -0.00058108568 0.037873685
0.089349508 -0.0013407469 0.03618212
0.051406801 0.095569 0.029132985
0.050640047 0.095314026 0.029614918
0.050011754 0.096883401 0.029479884
0.078306377 0.0057335049 0.034117892
0.045434117 0.089792699 0.028075241
0.043771923 0.093964249 0.0277045
0.024054587 0.1444284 0.024124205
0.079125941 0.0015362203 0.034959145
0.043406248 0.092686936 0.028268337
0.069843233 0.0042310506 0.033508442
0.037868202 0.085936025 0.027582295
0.027896166 0.11141071 0.025714435
0.027474165 0.11463003 0.024988815
0.019074559 0.13393128 0.024117492
0.018015385 0.13882439 0.023253217
0.062857747 0.0033789575 0.032130271
0.03253001 0.080773085 0.026486292
0.023098767 0.10488676 0.0247408
0.020771265 0.11082391 0.024307743
0.028728783 0.055261284 0.02554144
0.028474152 0.055920258 0.025502399
0.028146803 0.056754142 0.025429755
0.031222939 0.046654299 0.026624717
0.017917156 0.064235732 0.024088822
0.025378704 0.028720498 0.025472336
-0.023475051 0.12069491 0.016993925
-0.026306808 0.12795694 0.016493991
0.14571714 0.0039662123 0.04651133
0.10978824 0.063190877 0.040901117
0.10952353 0.063856915 0.040853888
0.10898733 0.065185785 0.040755793
0.10874397 0.065830082 0.040709578
0.10848892 0.066490173 0.040658772
0.12222338 0.0069020689 0.042734638
0.095616102 -0.00074400008 0.038781598
0.094069839 0.0031338781 0.038443036
0.049383163 0.096329972 0.030019507
0.042907596 0.091817498 0.028822869
0.042526901 0.090622395 0.029430203
0.041911483 0.092160627 0.02925916
0.027506471 0.070654094 0.027031846
0.030237019 0.047084689 0.027143434
0.028702199 0.050966427 0.026838861
0.02604121 0.057849169 0.026388608
-0.023488045 0.13507584 0.017351858
-0.028815687 0.14667413 0.017107509
-0.020663261 0.11151278 0.018271998
-0.017369449 0.088814467 0.018730067
-0.022891045 0.072515801 0.018604293
-0.017634034 0.0085131973 0.019243099
0.14471024 -0.00042787194 0.047864374
0.10832977 0.06458357 0.041183926
0.10729343 0.067260265 0.040994979
0.10683429 0.068435609 0.040888421
0.10653365 0.069205537 0.040840082
0.049416363 0.094017327 0.030627146
0.047724247 0.096147209 0.030953743
0.040898204 0.092531249 0.029706024
0.031148016 0.042650655 0.028002717
0.030102491 0.0432062 0.028498076
0.026891828 0.051367775 0.027880646
0.026756048 0.051705182 0.027855851
0.024959862 0.058489963 0.026856542
0.022503436 0.02984865 0.027092077
-0.027576745 0.14138409 0.018002965
-0.025083899 0.090305924 0.018797629
-0.020441115 0.064282238 0.019810818
0.04722023 0.095207185 0.031475089
0.041295588 0.089391395 0.030469127
0.040026724 0.090438887 0.030883349
0.031051457 0.075954676 0.028869949
0.028205752 0.064618155 0.028512985
0.027994156 0.06512922 0.028455161
0.027376831 0.06668213 0.028311305
0.027099073 0.067378074 0.028260112
0.026726544 0.068387836 0.028241962
0.02919364 0.059845641 0.029317558
0.0270226 0.065469697 0.028956428
0.026777625 0.066087916 0.028891265
0.025988638 0.068126366 0.028768517
0.028953373 0.044038698 0.02897507
0.027389288 0.048078179 0.028733566
0.02720964 0.048589319 0.028713636
0.025789022 0.0520913 0.028387859
0.025645196 0.05248186 0.028374024
-0.019873679 0.08921054 0.020511687
0.09684968 0.031381845 0.041871954
0.096520483 0.032212183 0.041799925
0.053855181 0.096947595 0.033405513
0.039864004 0.088617921 0.0314437
0.039402843 0.089845851 0.03140419
0.037848115 0.093724221 0.031064473
0.037738919 0.09402214 0.031032674
0.039178729 0.088180184 0.031946801
0.038028955 0.091166973 0.03176827
0.028462827 0.059572995 0.029839009
0.027406514 0.044789851 0.029723205
0.025284111 0.049256012 0.029726908
-0.022351801 0.12398361 0.020478666
-0.027446449 0.13495225 0.020267151
-0.019549012 0.072206229 0.021346569
-0.020300329 0.058018729 0.022153005
-0.020703435 0.033080861 0.022184074
0.051670551 0.098078847 0.034226291
0.051422298 0.098739594 0.03420312
0.036898017 0.091830343 0.032169566
0.03500098 0.078050777 0.031603962
0.034476757 0.079378054 0.031515352
0.034338772 0.079722345 0.031504139
0.034354806 0.07751061 0.032130301
0.033736229 0.079109043 0.032027863
0.029859543 0.072508767 0.030621566
0.029381096 0.073793262 0.030548319
0.028709054 0.075462013 0.030433722
0.02718848 0.079389349 0.030137867
0.027036548 0.079764098 0.030111723
0.030312836 0.069257796 0.031388208
0.030166388 0.069614142 0.031366102
0.029397607 0.071583152 0.031230062
0.029014468 0.072538599 0.031141274
0.028704703 0.073358625 0.031089991
0.027301311 0.058307722 0.030990452
0.027107537 0.058784962 0.030945368
0.025946856 0.045329407 0.03048341
-0.024424195 0.11099078 0.021284029
-0.031018138 0.12782592 0.020055905
-0.027705729 0.11733325 0.021437652
-0.026530862 0.07206364 0.021812029
-0.023372412 0.049936146 0.022726581
-0.022164702 0.022895932 0.02253367
0.050146639 0.097517326 0.035147347
0.029776454 0.066267237 0.032580249
0.029719353 0.06861262 0.031950966
0.028999269 0.070461407 0.031824321
0.02880156 0.070962504 0.03178522
0.024829626 0.046077788 0.030959047
-0.029287279 0.091138273 0.02181977
-0.014093697 0.00043264031 0.024881184
0.1092909 0.067082167 0.046700895
0.099575996 0.038635001 0.045033921
0.033023238 0.076579198 0.033204935
0.033664763 0.074922383 0.033316102
0.033140361 0.076270744 0.033222087
0.029488027 0.067026362 0.032554474
0.029269516 0.065412477 0.033159498
0.028254032 0.06806016 0.033009641
0.028776228 0.048224002 0.033359367
0.027198315 0.052158937 0.033025265
-0.022424936 0.071663573 0.023892447
-0.024972796 0.064145714 0.023632132
-0.015816808 0.026846245 0.025732905
-0.019968569 0.037438065 0.024975508
-0.026205301 0.041379571 0.023548562
-0.020338595 0.00073839724 0.02532829
0.10517466 0.047452047 0.04660568
0.035727501 0.08392334 0.035213046
0.034822226 0.086181283 0.034980796
0.029246032 0.061200827 0.034531135
0.024038017 0.076669693 0.032894209
0.026213706 0.05253695 0.033507552
0.025984168 0.053161964 0.033460375
-0.027075887 0.027945414 0.024868503
0.10241729 0.075497508 0.047635134
0.10157913 0.07754153 0.0473965
0.098992646 0.030991003 0.047166858
0.098553717 0.032070056 0.04705181
0.034867108 0.081669241 0.036261033
0.034725904 0.084308118 0.035674356
0.034058571 0.085940719 0.035478678
0.031288743 0.073761865 0.035050951
0.03043735 0.07445927 0.035320133
0.03068006 0.076040849 0.034714509
0.030594707 0.055620104 0.03543302
0.030454874 0.055958942 0.035396732
0.028331876 0.044954747 0.034568843
0.026825547 0.048905745 0.034334857
0.02512157 0.053235143 0.03397106
0.024868846 0.053874105 0.033925135
0.027222931 0.045659065 0.03503298
0.025819361 0.049323633 0.034818888
0.025682211 0.049641162 0.034779046
-0.01886791 0.0050455183 0.027188819
-0.021819055 0.012696519 0.026679363
0.10294169 0.041692615 0.048963919
0.09693712 0.033919409 0.047316417
0.034250617 0.081066772 0.036806617
0.02760148 0.077382505 0.036097158
0.028545201 0.058609977 0.035652235
0.025195718 0.046597674 0.036024861
-0.02401948 0.016358256 0.027053028
0.10821074 0.053726837 0.050250918
0.10796624 0.054334641 0.050198194
0.10601681 0.059341222 0.049863879
0.10563606 0.060322583 0.049793262
0.10504061 0.061809599 0.049660482
0.10672587 0.055187806 0.05048047
0.10646474 0.055843562 0.050432529
0.10613334 0.05673562 0.050409846
0.10575217 0.057707652 0.050348029
0.10549843 0.058361322 0.050296433
0.10521084 0.059097469 0.050243367
0.10182279 0.042264506 0.049294986
0.032894552 0.06170322 0.037736807
-0.023158789 0.089506119 0.02815057
0.10168606 0.038129896 0.050426468
0.10144013 0.038714468 0.050363045
0.021278918 0.050184771 0.03733582
-0.020693243 0.053377867 0.029566951
-0.023007512 0.057240978 0.029837221
0.10655922 0.047515124 0.052298103
0.10590857 0.048035026 0.052451883
0.10545856 0.049187079 0.052401572
0.099443614 0.039226353 0.051087745
0.029989421 0.080999017 0.039199501
0.026262045 0.053739101 0.038582142
0.025941193 0.054594755 0.038565021
0.02867651 0.04532744 0.039659686
0.023402333 0.042661101 0.038408294
0.020317376 0.050504535 0.037817735
-0.032696545 0.054487854 0.028883375
0.10522026 0.075250506 0.052956641
0.10496366 0.075871259 0.052863535
0.10475427 0.04866612 0.052776136
0.10427427 0.049937427 0.052734863
0.10380638 0.051169574 0.05268484
0.10484636 0.071522623 0.053883176
0.10462624 0.072845519 0.053645011
0.10405481 0.073581874 0.053770814
0.10386682 0.074076235 0.053749181
0.10370731 0.076709911 0.053130195
0.10343575 0.07740733 0.053075388
0.098938763 0.033630341 0.052613601
0.097803056 0.034215406 0.052951459
0.097269833 0.035550028 0.052839696
0.028231621 0.042185679 0.040918756
0.025677443 0.046555877 0.041122653
0.022221088 0.05550769 0.040536202
-0.025379539 0.032049984 0.03184827
-0.028801084 0.027132705 0.031854719
-0.034120917 0.0058062673 0.031144127
0.10409611 0.071116909 0.05427587
0.10369438 0.072139233 0.054171547
0.10801494 0.058827043 0.055534035
0.10754967 0.060011029 0.055447958
0.10697645 0.061441347 0.055317011
0.10400575 0.069056779 0.054784197
0.10361022 0.070029572 0.054709215
0.10336614 0.070659891 0.054663658
0.10335362 0.043095887 0.054685846
0.10309547 0.043795913 0.054688297
0.10287005 0.042008489 0.05511269
0.10268253 0.04249303 0.055080693
0.096618712 0.034918547 0.053278979
0.089705169 0.025112286 0.052796334
0.089563727 0.025473446 0.052767079
0.033321083 0.079873025 0.043219
0.031120598 0.069381386 0.041979671
0.030466139 0.071018741 0.041838448
0.03032726 0.071341977 0.041793481
0.026234448 0.079638258 0.041707102
0.024691582 0.046955109 0.041632079
-0.040952563 0.12077844 0.030055452
0.10746115 0.057926327 0.055941544
0.10694027 0.059268028 0.055866208
0.10641313 0.06060271 0.055755522
0.10591102 0.06187135 0.055651169
0.10573226 0.062348753 0.05562181
0.10539573 0.063177854 0.055566549
0.1049968 0.064175293 0.055487767
0.1044969 0.065481573 0.055394117
0.10422915 0.066175461 0.055352919
0.10396653 0.066839367 0.055289432
0.10332316 0.068480432 0.055170406
0.10375839 0.065049738 0.055783618
0.1025393 0.068178862 0.055543885
0.10191166 0.04453142 0.05501353
0.10370344 0.037618041 0.055860929
0.088326991 0.026373982 0.053092282
0.088003278 0.02723068 0.053035442
0.037289262 0.088109776 0.044380963
0.036625028 0.089822039 0.044273958
0.03204459 0.08093299 0.043592401
0.031072557 0.065061897 0.043187171
0.02910471 0.070134714 0.04287187
0.027956307 0.070874691 0.043293245
0.022854209 0.067812756 0.041732386
0.025406599 0.04296042 0.042388383
0.023723185 0.047316894 0.042130329
0.022922635 0.048285261 0.042304795
0.021694064 0.050232917 0.042345271
0.021572173 0.050545931 0.042318955
0.035866559 0.089535981 0.044747986
0.036130071 0.086565062 0.045349944
0.035625815 0.087886572 0.045272838
0.03510654 0.089271218 0.0452279
0.032185972 0.078372315 0.04425557
0.031897604 0.07908006 0.04420004
0.021615744 0.066566199 0.042755723
0.02326858 0.044066161 0.04331908
-0.028146565 0.070368364 0.034055583
-0.036703646 0.092221275 0.032480031
-0.035948753 0.049341708 0.033783395
0.10609901 0.049820542 0.058308899
0.10050058 0.038831621 0.056840155
0.09938091 0.039342433 0.057144869
0.092504382 0.029507503 0.056425542
0.092251837 0.030162424 0.056372121
0.041404068 0.091407731 0.046959352
0.035914361 0.082764849 0.046614591
0.032467186 0.073205367 0.04555247
0.031629324 0.07537739 0.045403272
0.031161368 0.076566175 0.045298729
0.030542433 0.078164458 0.045196231
0.030017674 0.079470128 0.045099925
0.030550182 0.075917244 0.045828722
0.030106664 0.077064767 0.045725916
0.029778242 0.077897862 0.045671206
0.02901876 0.07981883 0.045530282
0.027128041 0.048150599 0.045100164
0.023234308 0.058049694 0.044331711
-0.046910882 0.12789147 0.031904742
-0.032260001 0.06321454 0.035066955
0.10480982 0.050782576 0.058609199
0.10457838 0.051392257 0.058549892
0.10339081 0.052133545 0.058841225
0.099256754 0.035056055 0.058181435
0.091632664 0.027967215 0.05721559
0.091449857 0.028796554 0.057067208
0.09080869 0.029271394 0.057211153
0.084203541 0.023267269 0.05573434
0.029534519 0.076305285 0.046249308
0.029043138 0.07758002 0.046156053
0.025384963 0.066480055 0.045990724
0.024880588 0.06777887 0.04590714
0.025490761 0.068419486 0.045374673
0.028715909 0.041907877 0.046023365
0.025667071 0.047577366 0.046151444
0.023836017 0.052212492 0.045750517
0.02202177 0.056842163 0.045433946
0.021749437 0.057516858 0.045366272
0.021370709 0.058476835 0.045293767
0.019696772 0.062853396 0.045059118
0.019444823 0.063490659 0.045003895
0.018646419 0.065474004 0.044818345
0.018534541 0.06576553 0.044788606
-0.036109388 0.10996543 0.035390072
-0.031850338 0.02159974 0.036837418
0.10587847 0.068596378 0.060501602
0.10561907 0.069237292 0.060434513
0.10450214 0.044646665 0.060090754
0.098144412 0.035612211 0.058517095
0.096939266 0.036422104 0.058849081
0.090858042 0.026890174 0.057778317
0.090658307 0.027407095 0.057762638
0.090635955 0.025108606 0.058266815
0.090220213 0.026191682 0.058186598
0.083420098 0.023002148 0.056160659
0.032839656 0.08394666 0.047870774
0.032455027 0.084878996 0.047742236
0.032198846 0.085495055 0.047677267
0.031791568 0.086533234 0.047603227
0.031279147 0.087849081 0.047499411
0.029178858 0.075008467 0.046812624
0.024511516 0.066519693 0.046468928
0.026711822 0.042661816 0.046943747
0.025033534 0.047050253 0.046695609
0.024379253 0.048623189 0.046528388
0.023736119 0.050212979 0.046372354
0.023474038 0.050917849 0.046351291
0.023204386 0.051612169 0.046295594
0.021400273 0.056283832 0.045994617
0.017925084 0.065156385 0.04535006
-0.045869589 0.094087765 0.034136191
0.10635281 0.065066233 0.061083827
0.10610169 0.065705776 0.061041404
0.10520667 0.06800583 0.060868308
0.10477406 0.066780522 0.061280936
0.10381597 0.044126809 0.060501017
0.10409266 0.04339838 0.060546838
0.10355979 0.044741184 0.060434669
0.10234642 0.045490742 0.060711328
0.031691551 0.082404315 0.04885539
0.029750466 0.087290227 0.048434444
0.021650195 0.069455981 0.04722235
0.025564492 0.043392166 0.047379058
0.025305688 0.044034287 0.047326963
0.022598505 0.050996333 0.046845544
0.019123673 0.059886962 0.046215478
0.024235308 0.044604674 0.047772512
-0.035259962 0.062993765 0.037578277
0.10127723 0.045884639 0.061015032
0.10022962 0.046250552 0.061335035
0.031059742 0.081739187 0.049288351
0.030669749 0.082793355 0.049278554
0.024475098 0.060042426 0.048380643
0.023192465 0.045106634 0.048232444
-0.047277629 0.14601137 0.035632435
-0.033591926 0.070263907 0.038310986
0.10113966 0.039213657 0.062517926
0.094020426 0.030130044 0.061560627
0.094051659 0.032291487 0.06098818
0.093907237 0.030406207 0.061521463
0.093649328 0.031043336 0.061463859
0.026676536 0.06814988 0.050091624
0.024146259 0.056465462 0.049534094
0.023440599 0.058206677 0.049387287
-0.049764514 0.1346209 0.036517534
-0.049693644 0.12082985 0.03658228
-0.039812088 0.070679173 0.038263794
0.10522616 0.051676065 0.064418837
0.10273904 0.058015615 0.063953929
0.099012613 0.040032879 0.063176259
0.098807275 0.040595919 0.063162029
0.086079717 0.023028165 0.060731772
0.085342109 0.023754373 0.060870551
0.084675968 0.024294183 0.061025884
0.076595187 0.020014152 0.060017798
0.034076095 0.085492 0.052151002
0.028485358 0.081622571 0.050632801
0.026416302 0.048403814 0.050588366
0.025074363 0.051904067 0.050342523
0.024099767 0.054466769 0.050229732
0.022332847 0.058871537 0.04985505
0.022084355 0.059533715 0.049820609
0.021193087 0.061860695 0.049684741
0.019768417 0.06546092 0.049371861
-0.037222862 0.048581988 0.039975472
0.10416055 0.052082121 0.064731434
0.10387349 0.05278337 0.064663336
0.10349995 0.053714246 0.064569458
0.10319149 0.054488048 0.06449981
0.10253197 0.055418611 0.064568669
0.10152966 0.056449771 0.064745784
0.087303042 0.092771962 0.062084284
0.03332144 0.085176706 0.052614156
0.033969641 0.081305653 0.053330317
0.03175503 0.086947545 0.052907355
0.02682519 0.081424519 0.051547609
0.023125112 0.052502275 0.051258009
0.022681594 0.053700298 0.051239859
0.022157013 0.05502902 0.051134542
-0.049099326 0.14030819 0.038882285
-0.04069531 0.053515539 0.040869754
0.097750068 0.03641431 0.064561695
0.096573591 0.037142947 0.064877644
0.037861526 0.089473769 0.054719079
0.03733927 0.090762407 0.054610938
0.025617301 0.062043637 0.052392561
0.022491455 0.070008039 0.051815968
0.02134645 0.072938979 0.051597789
0.024383843 0.044843525 0.052758474
0.020787776 0.054151505 0.052169114
-0.052924216 0.13446999 0.038835861
-0.042028964 0.093256861 0.041027077
0.10290855 0.045890927 0.066454306
0.10257417 0.046727717 0.066383474
0.10222441 0.047609225 0.066324316
0.10163349 0.046798795 0.066712931
0.10105908 0.048275337 0.066644996
0.031649411 0.082817778 0.054171018
0.031768084 0.080188721 0.054711323
0.024405599 0.060695097 0.053433523
0.019951344 0.072078079 0.052575674
0.019708276 0.072716624 0.052531004
0.025783062 0.054955006 0.05427026
0.023363292 0.045283169 0.053217221
0.023225486 0.045636714 0.053203244
0.020936131 0.051510245 0.05276167
0.019411385 0.053266615 0.053156588
0.10116947 0.075350076 0.066964418
0.1014502 0.072317421 0.067526057
0.10125113 0.072849587 0.067517549
0.10073441 0.074187979 0.067438394
0.10041755 0.074953839 0.06732519
0.099963963 0.076058835 0.067219362
0.099561095 0.077087164 0.067139715
0.099307895 0.077755392 0.067090638
0.082465053 0.093497694 0.063717313
0.095770836 0.032170475 0.066237487
0.095342398 0.030952647 0.066676222
0.095081627 0.031603664 0.066625446
0.094706237 0.032576665 0.066554666
0.0790084 0.020564094 0.064416535
0.078885019 0.020872548 0.064386979
0.031900048 0.077624574 0.055369411
0.031010211 0.079898015 0.055176627
0.030498087 0.078955323 0.055689737
0.023228765 0.059268564 0.054432977
0.022972226 0.059943184 0.054405056
0.022322178 0.061631456 0.054282874
-0.041708589 0.04835479 0.043806482
0.10128319 0.070382118 0.067981139
0.10108042 0.070894659 0.06792663
0.10069591 0.071874619 0.067841105
0.10018331 0.073251128 0.067828119
0.099989116 0.07376495 0.06780535
0.099667966 0.07455273 0.067712739
0.098169148 0.078327447 0.067377254
0.10085499 0.069120347 0.068395764
0.10059762 0.069785118 0.068349853
0.099923372 0.071503147 0.06818454
0.097034872 0.07891354 0.06768208
0.080435514 0.094035059 0.064357258
0.093638837 0.032975882 0.066875473
0.093360126 0.033644617 0.066820681
0.085612655 0.023924947 0.066431493
0.078341663 0.019959807 0.064839654
0.041036963 0.090304777 0.058456834
0.033553898 0.086916447 0.057408549
0.021936178 0.060384244 0.054843139
0.024052858 0.052783668 0.05584573
-0.048632383 0.12661079 0.043218859
0.10401094 0.056418374 0.0699706
0.10414457 0.05725342 0.069748461
0.10369503 0.058406755 0.069672838
0.1037727 0.059374422 0.069437519
0.10344923 0.060169518 0.06935697
0.10267091 0.061015278 0.069469236
0.10201228 0.061543241 0.069590181
0.1016044 0.062532812 0.069521949
0.10022199 0.068421751 0.068787083
0.095820427 0.079703063 0.067969218
0.095019639 0.080567196 0.06806317
0.094720542 0.081316054 0.067978218
0.094808519 0.082237989 0.067719132
0.094327629 0.083409801 0.067637295
0.093205273 0.083955973 0.067910984
0.099521101 0.040569693 0.068873331
0.098902941 0.042183354 0.068763182
0.098508835 0.043240383 0.068749398
0.098331749 0.041305095 0.06914489
0.098145843 0.041779056 0.069114089
0.077249885 0.095195711 0.065286621
0.084429801 0.024661317 0.066743404
0.040234506 0.087889761 0.059490651
0.038703024 0.09178257 0.059189871
0.032381177 0.087694451 0.05779893
0.032659888 0.0892445 0.057263345
0.0316208 0.089611813 0.057632543
0.027521253 0.07983686 0.056921225
0.026038051 0.065668464 0.056324963
0.018760681 0.06405361 0.05546096
0.018611729 0.064422429 0.055418693
0.025110185 0.045649812 0.057282627
0.023418128 0.049899861 0.056926209
0.02110076 0.055847645 0.056493171
-0.043907523 0.048131987 0.045740098
0.10351753 0.05534704 0.070373833
0.10325342 0.055999577 0.070320383
0.089372516 0.089090794 0.068193108
0.088091791 0.090012938 0.06843093
0.098280966 0.036815062 0.070207849
0.033418536 0.082818806 0.058612891
0.031992078 0.086386651 0.058266193
0.03174758 0.084740624 0.058812629
0.031464756 0.08545962 0.058757983
0.026338995 0.078355283 0.057891782
0.026751816 0.079560876 0.057371199
0.026064515 0.061171547 0.05754276
0.042630017 0.016586825 0.061199337
0.027213156 0.055902556 0.058292724
0.022315681 0.068500027 0.05745998
0.021917582 0.069515258 0.05738854
0.021146595 0.071476653 0.057229832
0.024213195 0.045726836 0.057735998
0.020609438 0.054936767 0.057060335
0.10270029 0.048020601 0.072151445
0.086957037 0.090577096 0.068727463
0.097065747 0.037555069 0.070465207
0.096262872 0.038370728 0.070533209
0.095597208 0.038894564 0.070651658
0.081201792 0.02142787 0.068840638
0.030374646 0.083772182 0.059735902
0.030102432 0.085547075 0.05936731
0.029519022 0.088230923 0.059021514
0.022263825 0.066405013 0.05805872
0.021945834 0.067219049 0.057995923
0.021534026 0.068261907 0.057926733
0.021281123 0.068928346 0.057887752
0.02234 0.063948587 0.058635704
0.021681666 0.065655053 0.05854927
0.0249542 0.041567847 0.058444824
0.023088932 0.046411544 0.058154047
0.022844374 0.047002256 0.058090933
0.021160901 0.04900077 0.058343384
0.10163045 0.048440382 0.072463259
0.10144132 0.048948586 0.072443172
0.10109723 0.049817592 0.072392002
0.10079288 0.050612152 0.072321557
0.084945261 0.091044724 0.069350332
0.095828354 0.033660159 0.071708754
0.094646692 0.034361392 0.071993053
0.087678015 0.027454391 0.070538089
0.087029457 0.029068887 0.070378222
0.080675185 0.020502716 0.069289297
0.080478787 0.020993635 0.06924516
0.080154181 0.021799251 0.069176055
0.078843415 0.02283287 0.069463946
0.042490363 0.093260124 0.062602609
0.035925388 0.087551147 0.061538246
0.026647568 0.070888355 0.059735969
0.024325848 0.076814443 0.059295654
0.024169981 0.074949428 0.059875786
0.023842335 0.075787306 0.059800163
0.022069037 0.062447131 0.059236541
0.021044612 0.065014511 0.05900383
0.022968173 0.042203337 0.059321359
0.022707701 0.042838052 0.059268668
0.021692395 0.04321976 0.059701748
0.019380689 0.049125999 0.059261981
0.018850744 0.050518334 0.059196346
-0.050424278 0.070088208 0.047015794
-0.048303604 0.053443298 0.047215231
0.092574358 0.035016179 0.072626501
0.087526321 0.025499478 0.070980802
0.087279022 0.02615343 0.070964783
0.086963236 0.026959985 0.070927821
0.086696267 0.025287375 0.071346119
0.041815221 0.092684492 0.063030675
0.034182489 0.089682385 0.061715208
0.033576071 0.091173351 0.061604951
0.034738898 0.085968614 0.062385693
0.033959091 0.088007212 0.062293887
0.023800075 0.073656812 0.060401812
0.02354461 0.074308723 0.060348824
0.034918249 0.025168523 0.062844172
0.027683377 0.045878887 0.060885243
0.023592174 0.055172831 0.060386408
0.021336913 0.062117413 0.059718341
0.020985365 0.062969625 0.059632558
0.020367742 0.064528301 0.059487626
0.020661652 0.043655828 0.060128063
0.017833471 0.050906092 0.059618495
-0.061625838 0.14539266 0.045832492
0.10445291 0.061360121 0.074904099
0.10411888 0.062189072 0.074835032
0.10369271 0.063318133 0.0747649
0.10225934 0.066987664 0.074489474
0.10198551 0.067662239 0.074438795
0.096958458 0.080506504 0.073481172
0.096568882 0.081482947 0.073391706
0.096313059 0.082101166 0.073343381
0.10363996 0.061108917 0.075224616
0.10291868 0.062923148 0.075085729
0.10260421 0.063743353 0.075027511
0.10239565 0.064282089 0.074994937
0.10194004 0.06544745 0.074892491
0.10157174 0.066389978 0.074828818
0.10044724 0.042148113 0.074212447
0.080236316 0.093752921 0.07046333
0.080119014 0.094058484 0.070434473
0.09910202 0.043278769 0.074471354
0.098846138 0.043893337 0.074405134
0.098567724 0.04456982 0.074334025
0.085980237 0.02478905 0.071733035
0.034083068 0.085358232 0.062830061
0.032157838 0.090276212 0.062461499
0.044231117 0.016923919 0.06533812
0.025605142 0.064549223 0.061910145
0.023921371 0.068866476 0.061619561
0.023656189 0.069548249 0.061567638
0.024187207 0.070402324 0.061048172
0.022911549 0.071462825 0.06141714
0.022940755 0.072113425 0.061234951
0.022755325 0.072932839 0.061097566
0.021346152 0.077694654 0.060536496
0.020765424 0.079146788 0.060426038
0.021977484 0.055936739 0.060986765
0.021721661 0.056572825 0.06093115
0.02131021 0.057612702 0.060872152
0.02663517 0.041772217 0.062466815
0.023050368 0.050998703 0.061798751
0.10125238 0.064846903 0.075259469
0.09382844 0.083784938 0.073852614
0.092621803 0.084550232 0.074130058
0.092350841 0.085256323 0.074080423
0.097907782 0.043949574 0.074723944
0.077959061 0.094900981 0.071006611
0.076884091 0.095275268 0.071285613
0.032058597 0.083729967 0.064165197
0.027954519 0.076403573 0.062776014
0.023730457 0.067117274 0.062169224
0.022627831 0.069915518 0.061962895
0.042710006 0.016350955 0.066257432
0.042570293 0.016684994 0.066222213
0.028882504 0.031639382 0.064130455
0.02144897 0.050631672 0.062717572
0.019303739 0.058320254 0.061743818
0.019042134 0.059025273 0.061716139
-0.059317291 0.13323395 0.048391584
0.091190636 0.085875347 0.074350148
0.075807273 0.095657289 0.071561381
0.096309662 0.038549185 0.076311938
0.095979095 0.039431155 0.076280236
0.089798152 0.030512244 0.074656561
0.089318097 0.029453024 0.075101107
0.089139223 0.029894516 0.075060137
0.027042031 0.074220657 0.063782074
0.026408434 0.075847164 0.0636492
0.025612891 0.075612351 0.064072102
0.025366008 0.056137607 0.06419687
0.022268713 0.066371575 0.063096911
0.020685673 0.070361212 0.062773697
0.018025875 0.059413761 0.062145822
0.030335546 0.025761619 0.065039746
0.021899939 0.047228351 0.063432917
0.017855227 0.057530522 0.062647939
0.017626166 0.058140442 0.06264133
-0.065166712 0.13295278 0.048165403
0.089101315 0.086521268 0.074910402
0.088848114 0.087174773 0.074876256
0.10131896 0.050605893 0.078118861
0.085606694 0.090697035 0.075191647
0.095229208 0.038969517 0.076603666
0.072817922 0.09625563 0.072456799
0.089234054 0.02734372 0.075608194
0.088965058 0.028010279 0.075552031
0.088651657 0.0288243 0.075487919
0.081611693 0.022058815 0.074056134
0.080940545 0.021465465 0.074463025
0.080410898 0.022804826 0.074356571
0.041901469 0.096508563 0.067447528
0.041624308 0.097212523 0.067397282
0.041369319 0.097867668 0.067341223
0.064099252 0.017458975 0.071566686
0.025747359 0.072994918 0.064695276
0.047607303 0.014923573 0.0693212
0.023156822 0.077365026 0.064796545
0.021480858 0.081635565 0.064456686
0.030996203 0.021847054 0.065770328
0.028268576 0.028767183 0.065240368
0.027870655 0.029767871 0.065164283
0.027218044 0.031434506 0.065047018
0.025367081 0.034002602 0.065337695
0.021536827 0.043674067 0.064555749
0.020892859 0.045416743 0.064503968
0.021142483 0.046969175 0.06391599
0.019339025 0.051567405 0.063542128
0.016482949 0.058861569 0.06305021
-0.060843945 0.13300484 0.049546078
-0.066939533 0.13340485 0.049308933
0.086760581 0.087781787 0.07543543
0.10077125 0.047223702 0.078936718
0.10063392 0.047585219 0.078913435
0.10017717 0.051180333 0.078387469
0.099830866 0.052028954 0.078305647
0.099449098 0.052983493 0.078206211
0.084507525 0.091156453 0.075457364
0.083428264 0.091563493 0.075738758
0.0947631 0.035613775 0.077572852
0.094117761 0.034852773 0.07789392
0.093807399 0.035710871 0.077882253
0.093568802 0.036335975 0.077843517
0.069865823 0.096796453 0.07338275
0.050576627 0.094368517 0.06983152
0.071435273 0.018790618 0.073476866
0.06197077 0.01716204 0.072542898
0.0541749 0.015813604 0.071077481
0.046819568 0.014664024 0.069758736
0.044374526 0.018625945 0.06987305
0.021349251 0.061985359 0.064704686
0.020609677 0.061658069 0.065170854
0.025177181 0.032204404 0.065879166
0.020229757 0.044813514 0.064949006
0.017293394 0.052389532 0.064427949
0.024144828 0.032619298 0.066290006
0.021163344 0.040202424 0.065719761
0.021027267 0.040550277 0.065692633
0.018186271 0.047773972 0.0651666
0.10639602 0.059937507 0.080640465
0.097698867 0.082051411 0.078991883
0.10010177 0.046567231 0.079252027
0.082073867 0.092690453 0.07595896
0.099375725 0.046088144 0.079589874
0.081407011 0.092034161 0.076304376
0.078777015 0.020088628 0.07564339
0.047443271 0.10005748 0.069777042
0.046637774 0.099794209 0.070141017
0.069898069 0.018111929 0.074263193
0.060758233 0.016813338 0.073135868
0.052464187 0.015644774 0.07188832
0.043590248 0.018336207 0.070286945
0.019832492 0.061392054 0.065617919
0.021621287 0.054513887 0.066503175
0.019321561 0.060439065 0.066118814
0.11047709 0.047133267 0.081877925
0.097156286 0.081108257 0.079339653
0.096876264 0.08179298 0.079294994
0.09232688 0.093414336 0.078433022
0.10032684 0.070675954 0.08040157
0.099183023 0.073634386 0.080219999
0.098908365 0.07429795 0.080150016
0.098659277 0.074908108 0.080098331
0.09774071 0.077284664 0.079931512
0.096334517 0.080874205 0.079648182
0.097556949 0.075368017 0.080345437
0.097293556 0.076037914 0.080295652
0.096975267 0.076870501 0.0802349
0.095637321 0.080301851 0.079995401
0.09907639 0.044523478 0.080026798
0.098738968 0.045362532 0.07994467
0.098549128 0.045841396 0.079906181
0.098125696 0.044602364 0.080328137
0.077043891 0.098460525 0.076449566
0.092457473 0.032067806 0.079047687
0.084868431 0.023323387 0.078071982
0.076770186 0.019437969 0.076580055
0.045567155 0.099077091 0.07075084
0.067902148 0.01745832 0.075227804
0.069020867 0.013363913 0.075651221
0.059993923 0.016462788 0.073534735
0.059196472 0.016176373 0.073916517
0.051687062 0.015370041 0.072321698
0.02557683 0.082180709 0.067570508
0.051053762 0.014740258 0.072781712
0.025753856 0.079382062 0.068098098
0.025033712 0.081262156 0.068003803
0.024268806 0.083218038 0.067864694
0.040802419 0.023266628 0.070402361
0.042390406 0.016871572 0.071216002
0.042794883 0.01809445 0.0707087
0.027209044 0.038005427 0.068131283
0.023067296 0.048533008 0.067350768
0.018280685 0.060876563 0.06652832
0.030967355 0.026207492 0.069464758
0.02800703 0.033785507 0.068935797
0.02009958 0.053962559 0.067439534
0.018028557 0.059249952 0.067078277
0.017810524 0.059803367 0.067048281
0.019635439 0.039672703 0.066657737
0.11361718 0.066011459 0.083430849
0.10371709 0.057333648 0.081994474
0.10331792 0.058351129 0.081916109
0.10299993 0.059124231 0.081832901
0.10281545 0.05962041 0.081811957
0.098860681 0.072125375 0.080666192
0.098469555 0.073126465 0.08059445
0.096589804 0.077895567 0.080200121
0.095847428 0.078630775 0.080314964
0.09553194 0.079422981 0.080240756
0.091300726 0.08898899 0.079645261
0.089033425 0.097147048 0.078793377
0.10288829 0.057098299 0.082308531
0.10256368 0.057914615 0.082238249
0.10223496 0.058740854 0.082165249
0.076203287 0.098257944 0.076761395
0.075188041 0.10089704 0.076568998
0.098157048 0.039813578 0.081272647
0.075387776 0.098013818 0.077078983
0.097221911 0.039860576 0.081575409
0.091277122 0.030421108 0.079814516
0.090956509 0.031238779 0.079756416
0.063347518 0.10181512 0.074676692
0.090734363 0.029490143 0.080214217
0.083647311 0.02293852 0.078606546
0.0532552 0.10062967 0.072965056
0.05311203 0.1009919 0.072933972
0.083867729 0.020093247 0.079163134
0.082819521 0.02272211 0.078954443
0.052431583 0.10039729 0.073317289
0.075548768 0.019065812 0.077133253
0.044433117 0.098549455 0.071343511
0.044220507 0.096765131 0.071818873
0.04381007 0.097816691 0.071761385
0.043692827 0.09812291 0.071732745
0.044316888 0.09416981 0.072329111
0.066703796 0.01707387 0.075809464
0.058387637 0.015938863 0.074306041
0.050262809 0.014512494 0.073207244
0.047939897 0.019337162 0.073083915
0.047276199 0.019888148 0.07323987
0.025028467 0.078965232 0.068546765
0.024554253 0.080155179 0.068418413
0.023465216 0.080671921 0.068785921
0.022952616 0.082047388 0.068771668
0.02268827 0.082745388 0.068738967
0.041360617 0.017236829 0.071609624
0.04124856 0.017520368 0.071583226
0.030326307 0.025618821 0.069949001
0.029030204 0.028867722 0.069670305
0.025248349 0.038510785 0.068950914
0.024496257 0.040437296 0.068806529
0.023573339 0.042739034 0.068618491
0.019522488 0.053230301 0.067946859
0.019337356 0.053684548 0.067903385
0.028261483 0.028594866 0.070134237
0.026691437 0.032626227 0.069838829
0.023724854 0.040169969 0.069265619
0.022017896 0.044541076 0.068982631
0.020743191 0.047723964 0.068686903
0.10265911 0.055304021 0.08271201
0.10218924 0.056510493 0.082626604
0.08938539 0.08915931 0.080206826
0.08769846 0.093458414 0.079892166
0.10487664 0.047278032 0.083583742
0.10189164 0.05488947 0.083028704
0.10149741 0.05592218 0.082947873
0.088829041 0.088225186 0.080556355
0.088697433 0.088563055 0.080525063
0.097455204 0.039237276 0.081635408
0.097684801 0.036338031 0.082169279
0.073687434 0.097657561 0.077717163
0.096884787 0.036043078 0.082503214
0.060807943 0.10125563 0.075690567
0.082662582 0.019701838 0.079700924
0.082008481 0.022477895 0.079305604
0.05077666 0.099928781 0.074006669
0.073944807 0.018539816 0.077885091
0.073807061 0.01888445 0.077851325
0.043001175 0.097571209 0.072119176
0.043514788 0.093912378 0.072704606
0.055891931 0.015442997 0.075496681
0.046812534 0.018790096 0.073720351
0.022158802 0.081790045 0.069171995
0.046067953 0.01840429 0.074139372
0.038275659 0.020702153 0.072244182
