# .PCD v0.7 - Point Cloud Data file format
VERSION 0.7
FIELDS x y z
SIZE 4 4 4
TYPE F F F
COUNT 1 1 1
WIDTH 1322
HEIGHT 1
VIEWPOINT 0 0 0 1 0 0 0
POINTS 1322
DATA ascii
0.15621293 -0.0035363846 -0.017480198
0.17353097 -0.0043971981 -0.012771854
0.18590286 -0.005042227 -0.0094424821
0.16300873 -0.0033932077 -0.016429726
0.18142913 -0.0043494008 -0.011446629
0.19262806 -0.0049675144 -0.0084579606
0.19769342 -0.0051950766 -0.0070959833
0.15227802 -0.0023970776 -0.020162016
0.15859434 -0.0027191364 -0.01843062
0.16969407 -0.0032979264 -0.015413709
0.17598128 -0.003607878 -0.013741003
0.20354283 -0.0050200913 -0.0063122772
0.22295572 -0.0052542277 -0.0088125011
0.22805539 -0.0055223173 -0.0074467044
0.23323415 -0.0057858508 -0.0060451282
0.18665501 -0.0029411193 -0.019416671
0.20408924 -0.0038366427 -0.014701514
0.20916325 -0.0040797722 -0.013322635
0.21838476 -0.0045762421 -0.01086993
0.22976798 -0.0051573538 -0.0077775521
0.19357374 -0.0028586034 -0.018371245
0.19971363 -0.0032086559 -0.016722629
0.22531404 -0.0044898889 -0.0097972555
0.121865 -0.0031797914 -0.013029717
0.10522616 -0.0018592533 -0.018314179
0.10918769 -0.002059306 -0.017276637
0.11327608 -0.0022615376 -0.016168654
0.12871161 -0.0030593737 -0.011964422
0.11666387 -0.0016118619 -0.022029985
0.12590216 -0.0021167728 -0.019575395
0.14844407 -0.0032280819 -0.013485003
0.15450332 -0.0035472666 -0.011857055
0.16583452 -0.0041426425 -0.0088150296
0.12240936 -0.0014280942 -0.021285798
0.13260883 -0.0019612741 -0.018544186
0.13770226 -0.0022360412 -0.017204851
0.14395711 -0.0025200304 -0.015498489
0.15070811 -0.0023903972 -0.014446689
0.15677872 -0.0026974194 -0.012828194
0.17419489 -0.0035949671 -0.0081674755
0.18039969 -0.0039263037 -0.0064817108
0.18549022 -0.0041752579 -0.0051098671
0.18370821 -0.0035531304 -0.012470065
0.19498062 -0.0041486276 -0.0094294064
0.1615237 -0.0014837943 -0.020049697
0.1659216 -0.0021648291 -0.018063348
0.17266509 -0.0020706849 -0.017043283
0.17830247 -0.0028074067 -0.014748272
0.19042805 -0.0034162127 -0.011473453
0.19730516 -0.0033190441 -0.010392632
0.20072974 -0.0039628223 -0.0087031983
0.20588717 -0.0042253309 -0.0073422259
0.21000212 -0.0044079274 -0.0061640022
0.21574977 -0.0042549279 -0.0054286551
0.22021344 -0.0049742763 -0.0034340406
0.21571337 -0.0035367699 -0.013200172
0.20767492 -0.002242554 -0.017012127
0.081987306 -0.0011942983 -0.018627316
0.078635767 -0.00051908661 -0.020325691
0.08671169 -0.00094168447 -0.018148333
0.094955266 -0.0013758838 -0.01591032
0.10727742 -0.001971975 -0.012555003
0.11139823 -0.0022001327 -0.011445582
0.11714736 -0.0020042714 -0.010712154
0.089436024 -0.00054538995 -0.023410659
0.094204187 -0.00030348636 -0.022872258
0.098227307 -0.00050115585 -0.021795593
0.10171615 -0.0011773114 -0.020067807
0.11964694 -0.0015987912 -0.016034424
0.12421912 -0.0023040865 -0.0139804
0.13450663 -0.002826455 -0.011182707
0.14056051 -0.0031442563 -0.0096040107
0.1474078 -0.0030219564 -0.0085398629
0.15188801 -0.0037163249 -0.0065210387
0.15862583 -0.0035940097 -0.0054940712
0.10813223 -0.00051600533 -0.019885801
0.11219496 -0.00071254931 -0.018792775
0.11631803 -0.00094358716 -0.017696153
0.12656294 -0.0014515524 -0.01493692
0.13168798 -0.0017500948 -0.013584681
0.1428169 -0.0022807056 -0.01057991
0.14913175 -0.0026032575 -0.0088498238
0.15419495 -0.0028466987 -0.0074770134
0.16536501 -0.0034206351 -0.0044480339
0.1715748 -0.003747955 -0.002775548
0.14623432 -0.001670816 -0.016465286
0.16365544 -0.0025981809 -0.011788925
0.17583063 -0.0031976728 -0.0084809698
0.19227576 -0.004033953 -0.0040206425
0.13549498 -0.00067874463 -0.02013249
0.14072551 -0.00093143247 -0.018733498
0.15296173 -0.0015519038 -0.015440857
0.17036825 -0.0024508233 -0.010762868
0.18273911 -0.0030839271 -0.0074243713
0.18787295 -0.0033552824 -0.0060544182
0.19805512 -0.0038540703 -0.0032693287
0.13106456 4.616566e-05 -0.022136964
0.15981142 -0.0014104582 -0.014394643
0.18952224 -0.0029889813 -0.0063984618
0.19455126 -0.0032016477 -0.0050110091
0.20375863 -0.003680303 -0.0025801146
0.20787553 -0.0038862149 -0.0014370177
0.21231841 -0.0036058915 -0.0071525937
0.21741125 -0.0038597325 -0.0057773534
0.22246404 -0.004166008 -0.0044511408
0.22757703 -0.0043963017 -0.003040269
0.18120858 -0.0015621651 -0.016393721
0.20883977 -0.0029882679 -0.0089580761
0.22475469 -0.0033502735 -0.0054236762
0.23000407 -0.0036020647 -0.0039808778
0.23509547 -0.0038396514 -0.002597874
0.032431066 0.0016264515 -0.027649045
0.036536679 0.0014132764 -0.02653075
0.040692955 0.0012236284 -0.025384877
0.058222041 0.0003000237 -0.020697799
0.080740288 -0.0008354513 -0.014629498
0.084868804 -0.001054408 -0.013475962
0.088891298 -0.0012505688 -0.01239923
0.093019083 -0.0014655031 -0.011287279
0.097166106 -0.0016869763 -0.010151621
0.054731891 0.0010270663 -0.022384103
0.063926473 0.00054302812 -0.019905947
0.056706592 0.0011068452 -0.027033649
0.070029438 0.00042745192 -0.023408841
0.075152531 0.00015869923 -0.022082631
0.091482937 -0.00067810528 -0.017658729
0.066564307 0.0010794858 -0.025144733
0.072377607 0.001316661 -0.02433027
0.081611857 0.00085577369 -0.021875922
0.085007668 0.00017081667 -0.020165659
0.089742824 0.00043381378 -0.019654825
0.093723387 0.00024335552 -0.018605638
0.097845048 1.2207776e-05 -0.017476451
0.10134594 -0.00067903288 -0.015758783
0.1054474 -0.00089247013 -0.014652923
0.11364406 -0.001281769 -0.012410279
0.12384389 -0.0018179477 -0.0096687563
0.12543261 -0.0013948889 -0.009999454
0.12893799 -0.0020944383 -0.0083285794
0.13415571 -0.0023502358 -0.0069195293
0.13582489 -0.0019016224 -0.00723329
0.14095485 -0.0021644514 -0.0058429185
0.1470139 -0.0024839486 -0.0042149238
0.15211099 -0.0027707196 -0.0028431993
0.10465264 0.0001478754 -0.021639295
0.12203428 -0.00074165454 -0.016964752
0.13838798 -0.0015729009 -0.012560273
0.15580142 -0.0024467134 -0.0078415517
0.16086939 -0.0027191937 -0.0064500179
0.10118629 0.00080610206 -0.023372814
0.16253357 -0.0023214649 -0.0068103299
0.16779402 -0.0025692387 -0.0053933188
0.17389029 -0.0028806506 -0.0037285294
0.17901246 -0.0031439138 -0.0023526438
0.18508947 -0.0034992518 -0.00073972531
0.1192672 0.00038862647 -0.019245703
0.15808132 -0.0016073692 -0.008811323
0.16945845 -0.002168119 -0.0057598408
0.17551193 -0.002483556 -0.0041103251
0.18063141 -0.0027322886 -0.0027242396
0.20026824 -0.0029995388 -0.0042554587
0.2061542 -0.0028395967 -0.003487736
0.21013208 -0.0030509981 -0.0024259118
0.21535504 -0.0033145919 -0.001002878
0.21189438 -0.0026762574 -0.002748304
0.0062559992 0.0031297272 -0.030376464
0.015501276 0.0026450586 -0.027853832
0.048684388 0.00095656049 -0.018928576
0.057907432 0.00045281835 -0.016430572
0.062006682 0.00027753878 -0.015303768
0.067130774 8.1285834e-06 -0.013976641
0.071246833 -0.00019323174 -0.012830064
0.0793221 -0.00061556883 -0.010654092
0.020480976 0.0029112957 -0.027301893
0.024584755 0.0027031889 -0.026177708
0.028668374 0.002529229 -0.025081854
0.03276208 0.0023140712 -0.023955259
0.036933631 0.0021085776 -0.022822134
0.041138545 0.0018951343 -0.021711312
0.072947502 0.00025936402 -0.0131457
0.084083363 -0.00032195449 -0.010150217
0.088187739 -0.00054205675 -0.0090131946
0.043602884 0.0026355991 -0.026935726
0.047142059 0.0019244188 -0.025210842
0.051240951 0.0017113006 -0.02413737
0.056963474 0.0019479971 -0.023338754
0.060449511 0.0012260387 -0.02163323
0.066130713 0.0014863517 -0.020852894
0.069627792 0.00078436173 -0.019125909
0.074751616 0.00051305909 -0.017747775
0.078851894 0.00031560846 -0.016647086
0.091818169 0.00014822837 -0.013938423
0.095296621 -0.0005402118 -0.012216579
0.099415079 -0.00074240984 -0.011079155
0.10347578 -0.00093676941 -0.0099874623
0.10822572 -0.00067656068 -0.0094950832
0.11156781 -0.0013636728 -0.0078445226
0.11740369 -0.0011175736 -0.007012058
0.12190686 -0.0019038101 -0.005008582
0.12769166 -0.0016409452 -0.0042143166
0.13374612 -0.0019590845 -0.0026350915
0.062666565 0.0021567103 -0.022575781
0.071870252 0.0017134426 -0.020117708
0.11393186 -0.00044581667 -0.0087501444
0.11910041 -0.00069600297 -0.0073377639
0.12422505 -0.00099504041 -0.0059856847
0.12931955 -0.0012160605 -0.0045764633
0.11590983 -0.00038474239 -0.013379823
0.1312952 -0.0011729607 -0.0092111565
0.13744897 -0.0014663995 -0.0075643174
0.14256513 -0.0017412789 -0.0061693452
0.1589766 -0.0026028492 -0.0017834827
0.14416686 -0.0013177395 -0.0065266062
0.14926898 -0.0015718802 -0.0051606614
0.15447772 -0.0018738275 -0.003773991
0.16571751 -0.0024232422 -0.00076993182
0.15613586 -0.0014405693 -0.0041087661
0.16126497 -0.0016976106 -0.0027320683
0.16731867 -0.0019931961 -0.0011098385
0.17105985 -0.0017513889 -0.0061344113
0.18222284 -0.0023152283 -0.0031010434
0.18742198 -0.0026173152 -0.0016865507
0.18908903 -0.0021857086 -0.00200928
0.17777444 -0.001616583 -0.0051015913
0.19316107 -0.0024012993 -0.00094800815
0.19895682 -0.0022031001 -0.00020368397
0.20307194 -0.0023845707 0.00097397994
0.21769434 -0.00248655 -0.0019651707
0.22280167 -0.0027402695 -0.00057925191
0.22788589 -0.00300989 0.00075882021
0.22440094 -0.002339765 -0.00095430482
0.23011783 -0.0021656447 -0.0002475325
0.23524137 -0.0023894156 0.0011822013
-0.019373849 0.0055488059 -0.034484386
-0.0081023127 0.0049829697 -0.031436898
-0.0010033101 0.0046303635 -0.02951929
0.016710654 0.0037218127 -0.024708133
0.028977573 0.0030839555 -0.021426197
0.045471057 0.00222906 -0.017031398
0.04958868 0.0020306073 -0.01587395
0.05466345 0.0017480003 -0.014508288
0.058756456 0.001569327 -0.013387755
0.068003878 0.0010871524 -0.010886904
0.072104037 0.00089007895 -0.0097867325
0.07620813 0.00067920797 -0.0087026693
0.07937564 0.00050329231 -0.007823281
0.083397672 0.00030811131 -0.0067467205
0.087526157 9.3249604e-05 -0.0056341439
0.064333096 0.0012271469 -0.016199246
0.0125826 0.0038801227 -0.030179814
0.04338637 0.0028470568 -0.022616811
0.047483549 0.0026446143 -0.021532454
0.051608205 0.002433558 -0.020415328
0.077595547 0.00055776443 -0.01264466
0.08169724 0.00034432299 -0.011524282
0.086301774 0.00066093635 -0.011070929
0.090423092 0.00043072738 -0.0099417828
0.093934119 -0.00029120035 -0.0082382299
0.098658592 3.0654483e-06 -0.0077284686
0.1027272 -0.00017820019 -0.0066258088
0.10685417 -0.00038479595 -0.0054870285
0.11099023 -0.00063319085 -0.0043992437
0.10024561 0.00047118496 -0.0080723166
0.11260934 -0.00016596867 -0.0047034323
0.11767593 -0.00041664159 -0.0033427477
0.054099336 0.0031305142 -0.025705013
0.12072743 -0.00027022231 -0.0076881237
0.12582159 -0.00055492297 -0.0063485876
0.13091463 -0.00078800274 -0.0049484745
0.13598113 -0.0010346407 -0.0035852771
0.14120851 -0.0013151807 -0.0021625254
0.13775721 -0.00060247257 -0.0038755387
0.14292213 -0.00086583802 -0.0024601463
0.14798614 -0.0011086487 -0.0010867752
0.15305507 -0.001394256 0.00027897768
0.16283865 -0.0012636245 -0.003070021
0.16894323 -0.0015646922 -0.0014117751
0.17415443 -0.0018480467 -3.5431236e-05
0.17924532 -0.0020969457 0.0013369825
0.17584091 -0.0014201589 -0.00034293719
0.18097571 -0.0016919721 0.0010283329
0.18261388 -0.0012946427 0.0006956812
0.18602166 -0.0019236251 0.0024386048
0.19553339 -0.0015278319 -0.0018610917
0.20473087 -0.0019811876 0.0006271759
0.20880893 -0.0022007832 0.0017206799
0.20124103 -0.0013335338 -0.0011674799
0.21109882 -0.0013128649 0.00076791923
0.21615282 -0.0016184859 0.002094741
0.22126579 -0.0018496891 0.0035061911
0.23240361 -0.0013125851 -0.0012049195
0.23766245 -0.001581038 0.00021198438
0.24099833 -0.0022219324 0.0019223546
0.01234591 0.0039514434 -0.025903344
0.0088285953 0.0046704086 -0.027612865
0.021459445 0.0040117661 -0.024185944
0.025548518 0.0038184775 -0.023123134
0.064484641 0.0018262994 -0.012638327
0.080974728 0.00097401906 -0.0081623867
0.085058689 0.0007533906 -0.0070645213
-0.0028690249 0.0058189416 -0.031522796
0.074339285 0.0018806607 -0.010702163
0.089781269 0.0010784511 -0.0065363757
0.093900278 0.00087677501 -0.0053987838
0.09795931 0.00068375655 -0.0043084845
0.10208157 0.00045255432 -0.0032119304
0.10605308 0.00025592558 -0.0021640398
0.10495515 0.00077694375 -0.0075626709
0.10909843 0.00057259528 -0.0064294972
0.11418194 0.0003166534 -0.0050398894
0.11925323 3.7133228e-05 -0.003660541
0.12339202 -0.0001875083 -0.0025991313
0.12964568 -0.00047091395 -0.00089392811
0.1251035 0.00028819125 -0.002859395
0.13125882 -4.8931688e-06 -0.0012114793
0.13539715 -0.00022717752 -0.00010096841
0.13637438 -0.00028038211 0.00018297136
0.14145605 -0.00054685585 0.0015271492
0.14453547 -0.00042819837 -0.0027965251
0.14958146 -0.00067799026 -0.0014388114
0.15464938 -0.0009498382 -4.7719106e-05
0.15978332 -0.0011908747 0.0013380907
0.15630195 -0.00052215531 -0.00039527006
0.1615622 -0.0007700501 0.001022378
0.16321719 -0.00033880631 0.00066864863
0.16828646 -0.00058960821 0.0020826161
0.18827623 -0.0010300167 0.0014731567
0.19242333 -0.0012373743 0.0025918633
0.19398284 -0.00079719024 0.0022407416
0.19811578 -0.0010331168 0.003292948
0.19051695 -0.00014096289 0.00048032776
0.21269949 -0.00090633309 0.00041567907
0.21778528 -0.0012011532 0.0017628279
0.22367103 -0.00099313399 0.0025884649
0.22876206 -0.0012304488 0.0039708545
0.21953912 -0.00078457675 0.0014636377
0.22535643 -0.00058881217 0.0022491468
0.23043925 -0.00081676594 0.0036576805
0.091379628 0.0015535643 -0.0068764426
0.095487595 0.0013329247 -0.0057573169
0.099614903 0.0011525634 -0.0046092421
0.11187595 0.00053132698 -0.001318533
0.10435115 0.0014450168 -0.0040910058
0.10839237 0.0012335498 -0.0030433573
0.11356245 0.0009825076 -0.0016297139
0.11868706 0.00068305433 -0.00027735531
0.1237816 0.00046189595 0.0011317469
0.11517727 0.0014380584 -0.0019673444
0.1202718 0.0011526262 -0.000627473
0.12536527 0.00091955578 0.00077323616
0.1304315 0.00067295041 0.0021361001
0.13796623 0.00017321948 -0.00015983731
0.1430676 -8.0659986e-05 0.0012053642
0.14889711 0.00012461329 0.0019944105
0.14541377 0.00088368775 0.00031360425
0.15054558 0.00058864942 0.0016733035
0.15567446 0.00033044722 0.0030501559
0.16989765 -0.00016216654 0.0017143711
0.1750173 -0.00041082222 0.0031003971
0.18011338 -0.00071687973 0.0044678356
0.17151186 0.0002740114 0.0013528634
0.17659864 3.6891317e-05 0.0027366951
0.18179677 -0.0002648877 0.0041507203
0.18580613 -0.0004528237 0.0052270349
0.18345371 0.00019778428 0.0038405061
0.18752488 -1.8952182e-05 0.0049022362
0.19163248 -0.00021586264 0.0060351919
0.19634929 8.0744969e-05 0.001282067
0.20048939 -0.00013009016 0.002409704
0.20446837 -0.00034161611 0.0034722118
0.20969059 -0.0006049443 0.0048951609
0.20621905 6.3933665e-05 0.0031617368
0.21137688 -0.00019086688 0.004567463
0.21299194 0.00022099889 0.0041970573
0.23616827 -0.00065380835 0.0043571568
0.23265937 6.2769395e-05 0.0026821336
0.2378016 -0.00022680906 0.0040208772
0.24251822 2.5053392e-05 0.0045477487
0.24766102 -0.00025182022 0.0059152059
0.090764925 0.0020900425 -0.0034447573
0.094730914 0.0018932228 -0.0024050958
0.097834021 0.0017514126 -0.0015561059
0.099428147 0.0022296458 -0.0018820129
0.10196024 0.0015443889 -0.0004179962
0.10357144 0.0020247656 -0.00074850768
0.10770331 0.0017912001 0.00037959591
0.11277035 0.0015406082 0.0017404929
0.12768807 0.0019034147 -0.00011425838
0.13280952 0.0016568392 0.0012677312
0.13797569 0.0013932148 0.002683498
0.13896218 0.001339281 0.0029513575
0.14304048 0.001150907 0.0040573254
0.15723735 0.0007949071 0.002725428
0.16234995 0.00054187514 0.0040751658
0.16396274 0.0010009003 0.0037857797
0.16917306 0.00071730791 0.0051620528
0.18924949 0.00042412197 0.004619129
0.19331041 0.00020960206 0.0056596249
0.19494535 0.00064862752 0.0053245407
0.19805291 0.00052066892 0.0062327394
0.20377865 0.00073479116 0.0069917813
0.21711752 3.1598611e-05 0.0053435154
0.21870717 0.00046266243 0.0049817078
0.22283466 0.00023757888 0.0060719084
0.22441377 0.00066717237 0.005701202
0.22953765 0.000444429 0.0071313642
0.10926472 0.0023038229 5.761534e-05
0.11433554 0.0020243796 0.0014365166
0.11847477 0.0017984784 0.0024987347
0.11608104 0.0024994491 0.001157552
0.12017266 0.0023041572 0.002251219
0.12533772 0.0020517115 0.0036201142
0.13046747 0.0017885962 0.0050101504
0.14462402 0.0016116798 0.0037186183
0.149692 0.0013403562 0.0051093679
0.14624393 0.0020504654 0.0033926181
0.15133214 0.0017975867 0.0047754273
0.15659212 0.0015495797 0.0061934944
0.16568851 0.0014505419 0.0034998618
0.17084897 0.0011756592 0.0048676468
0.17598432 0.00090355985 0.0062399358
0.1724737 0.0016388446 0.0045599341
0.17761111 0.0013313661 0.005919842
0.18165225 0.0011797878 0.0070523489
0.1832628 0.0016269824 0.0067107696
0.18741007 0.0014191503 0.0078293737
0.19970131 0.00095480727 0.0058993194
0.20129195 0.0013848525 0.0055533536
0.20542 0.0011926801 0.0066689327
0.2070109 0.0016298182 0.0063300356
0.21110253 0.0013792755 0.0073923972
0.22604635 0.0011057686 0.0053793201
0.23130414 0.00083768135 0.0067960639
0.23297729 0.0012442131 0.0064574745
0.23766349 0.0015387966 0.0069610211
0.10516123 0.0034886738 0.0017517433
0.10925819 0.0033085383 0.0028696805
0.11025678 0.0032421402 0.0031220131
0.11438297 0.0030088015 0.0042225681
0.12184905 0.0028064852 0.0019721873
0.12693907 0.0025479537 0.0033165887
0.12790418 0.0024881861 0.0035522468
0.13205419 0.0022720443 0.0047108009
0.133635 0.0027551791 0.0043828096
0.13532947 0.0032210783 0.0040656663
0.1387358 0.0025013876 0.0057473443
0.14044811 0.0029888037 0.0054669995
0.14394298 0.0022002016 0.0071334559
0.14558101 0.0026944331 0.0068267863
0.15309012 0.0022630943 0.0044712014
0.15823685 0.0020103599 0.0058533605
0.15981695 0.0024879156 0.0055064
0.16330568 0.0017601657 0.0072667189
0.16490564 0.0022173747 0.0069127195
0.16650864 0.0026832921 0.0065649152
0.17064111 0.0024905866 0.0077082254
0.17159583 0.0024465332 0.0079487599
0.18895829 0.0018899022 0.0074911881
0.19371229 0.0021602297 0.0079459064
0.19544084 0.0026174898 0.0076857256
0.1994209 0.0024058805 0.0087488834
0.21272393 0.001827393 0.0070730662
0.21446569 0.0022745803 0.0067860279
0.21859731 0.002065192 0.0079112044
0.22027263 0.0024999005 0.0075847423
0.22368804 0.0018281005 0.00929303
0.2253551 0.0022725759 0.0089923758
0.23931181 0.0019601723 0.0066367914
0.2434265 0.0016971081 0.00770105
0.24568431 0.0026049493 0.0067706406
0.24978063 0.0024479977 0.0079063084
0.12008081 0.0033386792 0.0050551146
0.11595516 0.0035072663 0.0038860105
0.12104891 0.0032741562 0.005287163
0.12274191 0.0037655612 0.0050033256
0.12671825 0.003578797 0.0060734563
0.12786278 0.0035190405 0.0063849948
0.1471608 0.0031880648 0.0065272488
0.15131938 0.0029717651 0.0076203421
0.15287063 0.0034660459 0.007309556
0.15387085 0.0034355442 0.0076071024
0.15798314 0.0032130321 0.0086593349
0.15897372 0.0031653997 0.0089665409
0.17330879 0.0029051234 0.0076523069
0.17740878 0.0026668294 0.0087719671
0.17905495 0.0031598127 0.008475082
0.18312506 0.0029422594 0.009537207
0.20115921 0.0028417129 0.0084511498
0.20526393 0.0026496639 0.0095744124
0.20693991 0.0030944478 0.009259495
0.2120481 0.0028403476 0.010646318
0.22692679 0.0027220098 0.0086465105
0.23107326 0.0024652393 0.0097050518
0.23269659 0.0029232195 0.0093823038
0.23430383 0.003372387 0.0090451855
0.23740226 0.0032064579 0.0099211773
0.13363366 0.003806375 0.0072249416
0.13869917 0.003564572 0.0085992422
0.13522404 0.0043038609 0.0069169793
0.13617624 0.0042575854 0.0071659181
0.14027026 0.004054795 0.0082745869
0.14187795 0.0045230095 0.0079630855
0.14594193 0.0043350132 0.009088913
0.14696535 0.0042700758 0.0093453564
0.16068642 0.0036450252 0.0086942036
0.16479293 0.0034181695 0.0097594541
0.16645753 0.0039063566 0.0094789173
0.16807084 0.004399294 0.0091854688
0.17320806 0.0040916484 0.010545427
0.17220294 0.0041706813 0.010268627
0.18483898 0.0034154097 0.0092678163
0.18889964 0.0032005818 0.010308476
0.19363087 0.0035423061 0.010894465
0.19052263 0.0036696291 0.0099862497
0.1952678 0.0040066242 0.010575037
0.19934461 0.0037861892 0.011666593
0.20854481 0.0035369226 0.0089032901
0.214249 0.0038082807 0.0097012315
0.2158564 0.004266968 0.0093616936
0.21994437 0.0040426776 0.010434094
0.22094432 0.0040049069 0.01072268
0.23903634 0.0036309934 0.0095697436
0.2407743 0.0040407581 0.0092174914
0.24475785 0.0038803192 0.010340275
0.25201324 0.003491861 0.012273963
0.11751287 0.0050233151 0.0064958185
0.12161118 0.0048047057 0.0075600222
0.12260284 0.0047648395 0.0078401081
0.12416558 0.0052705132 0.0075075887
0.12831473 0.0050541549 0.0086653009
0.12988359 0.005566211 0.0083527565
0.13096718 0.0054954123 0.0086187907
0.1349839 0.0053125331 0.0097167064
0.14871022 0.0047646211 0.0090551395
0.15282837 0.0045732833 0.010187566
0.15446216 0.0050629918 0.0098618995
0.15542684 0.0050187716 0.010105731
0.17475834 0.0045801355 0.010215482
0.17884827 0.0044175265 0.011350404
0.18043311 0.0048891213 0.01099553
0.18360546 0.0047458215 0.011885576
0.19684726 0.0044664545 0.010242535
0.20097452 0.0042745033 0.011357601
0.20255484 0.004741664 0.011032705
0.20664687 0.0044916114 0.012095235
0.22682266 0.0042440249 0.011542059
0.2284849 0.0046803607 0.011216177
0.24647097 0.0043283068 0.01002764
0.25572148 0.0038504989 0.012512577
0.25121245 0.0045904345 0.010468548
0.25288677 0.0050264248 0.010151895
0.13668308 0.0058291331 0.0094510298
0.14181729 0.0055352193 0.01081101
0.14338446 0.0060579232 0.010525931
0.1475427 0.0058408305 0.011619348
0.16111851 0.0052996855 0.010935588
0.16210598 0.0052435729 0.011178274
0.167797 0.0055582584 0.011985857
0.1851417 0.0052465037 0.011561016
0.18927352 0.005009504 0.012612825
0.18684974 0.0057077305 0.011240633
0.19098897 0.0054968367 0.012366062
0.20825645 0.0049698958 0.011789122
0.20936958 0.004925421 0.012105465
0.21411672 0.0052369842 0.012640558
0.21578124 0.0057015033 0.012327722
0.21982294 0.0055218246 0.013431388
0.23315941 0.0050057448 0.011732868
0.23417667 0.0049505569 0.012019515
0.23891349 0.0051949332 0.012486753
0.24052636 0.0056566419 0.01217904
0.24462281 0.0054994468 0.013315164
0.12470202 0.0067282249 0.0097792894
0.12575109 0.0066843755 0.010084093
0.12987053 0.0064640851 0.011195693
0.13144836 0.0069905473 0.010903036
0.14908154 0.0063642859 0.011323117
0.15008146 0.0063340296 0.011620477
0.15578109 0.0066294624 0.012410767
0.15688296 0.0065727471 0.01272152
0.16949624 0.0060462537 0.01170327
0.17359698 0.0058081723 0.012823155
0.17523161 0.006330831 0.012540249
0.1762467 0.0062958682 0.012839042
0.17930058 0.0061125327 0.013602773
0.18100302 0.0066151717 0.013347704
0.18506356 0.0064000497 0.014388671
0.19557992 0.0058217579 0.012846526
0.19669534 0.0057506603 0.013145586
0.20141019 0.0060955025 0.013685733
0.2024653 0.0060338266 0.01396776
0.20405924 0.0065062237 0.013626385
0.2081836 0.0063161328 0.014771564
0.21736263 0.0061687166 0.011977667
0.22147921 0.0059964964 0.013144107
0.22303979 0.0064761676 0.012811955
0.22404942 0.0064219106 0.013057538
0.24215284 0.0061398293 0.011885914
0.24623674 0.0059496546 0.012971651
0.24784407 0.0064001218 0.012620686
0.1329909 0.0075241197 0.01059046
0.13708523 0.0073216846 0.011699369
0.13808937 0.0072387047 0.011964267
0.13977815 0.0077629616 0.011691019
0.1437667 0.0075657219 0.012784969
0.1449071 0.0075086989 0.013070522
0.15852338 0.0070832437 0.012434555
0.1626423 0.0068628299 0.013521049
0.1642434 0.0073849107 0.01324258
0.1652247 0.0073355888 0.013488907
0.16837542 0.0071560456 0.0143262
0.18667385 0.0068985191 0.014080018
0.19140741 0.0072655976 0.014683479
0.20975164 0.0068067098 0.014438306
0.2113474 0.0072950954 0.01411319
0.21448772 0.0071173203 0.014945064
0.2154351 0.0070703877 0.015185331
0.22879814 0.0067066872 0.013562039
0.23039432 0.0071861437 0.013238685
0.23449977 0.0069538336 0.014367374
0.23622601 0.0073936372 0.01402903
0.25259885 0.0066888398 0.013177137
0.25429198 0.0071559236 0.012874591
0.25894195 0.0074464045 0.013350861
0.12776563 0.008623288 0.012050688
0.13178304 0.008440515 0.013148183
0.13288462 0.0083916113 0.013451366
0.14961606 0.0078976676 0.013642326
0.15064773 0.0078357216 0.013892986
0.15161264 0.0077915303 0.014137167
0.15317145 0.0083255526 0.013845075
0.15729088 0.0081014251 0.014981652
0.16997766 0.0076428009 0.014034044
0.17091864 0.0075946879 0.014287401
0.17560565 0.007998188 0.014853632
0.17658055 0.0079327887 0.015082384
0.19297506 0.0077546323 0.014365173
0.19710144 0.0075629079 0.015479718
0.19867039 0.008059429 0.01516958
0.21704468 0.0075693782 0.014890405
0.22177854 0.007922342 0.015448885
0.22291026 0.0078385659 0.015723674
0.22456093 0.0083041107 0.015411314
0.2408257 0.0077546267 0.014560739
0.24252607 0.0082325665 0.014261275
0.24664018 0.0080025299 0.015306612
0.13450383 0.0089331847 0.013176711
0.13860396 0.0086920653 0.014258046
0.14015779 0.0092431949 0.013988098
0.14112359 0.0091958176 0.014264848
0.158869 0.008624983 0.014663292
0.16055053 0.009154018 0.014405387
0.16454738 0.0089686727 0.015485715
0.16564175 0.0089054592 0.01577897
0.18127668 0.0083194412 0.015661923
0.18297072 0.008809654 0.015356457
0.1877068 0.0091643948 0.015912209
0.1887372 0.0091284141 0.016192643
0.19168906 0.008952667 0.016976636
0.20336649 0.0083608581 0.015656102
0.20435986 0.0083175693 0.015940094
0.20607542 0.0088241789 0.015679792
0.21080975 0.0091646444 0.016229406
0.21185926 0.0091071548 0.016507182
0.22613384 0.0087916423 0.015095152
0.22922285 0.0086596552 0.015941765
0.2302416 0.0086043719 0.016228788
0.23181878 0.0090870699 0.015935302
0.24830407 0.008468328 0.015003756
0.24992713 0.0089308256 0.014723158
0.25464538 0.0092618931 0.015246917
0.13384421 0.010367631 0.015166841
0.13484831 0.010284701 0.015432019
0.14584132 0.0095773386 0.014800876
0.14684089 0.0095472569 0.015098022
0.15252687 0.0098710135 0.015903234
0.15362771 0.0098144999 0.016213771
0.17136557 0.0092192218 0.016630815
0.17297103 0.0097642578 0.016368361
0.17602386 0.009580208 0.017132465
0.19340044 0.0094472179 0.016706616
0.19502889 0.0099814516 0.016417291
0.19915909 0.0097599383 0.017543275
0.21754481 0.0094320448 0.017336905
0.21909343 0.0099412929 0.017019169
0.23557703 0.0094154533 0.016126901
0.23656736 0.0093703987 0.016415715
0.23818181 0.0098832827 0.016136147
0.25627282 0.0097256163 0.014941246
0.26097926 0.010047533 0.015424266
0.26196232 0.010006589 0.015708584
0.13652265 0.010836964 0.01517394
0.1405113 0.010639712 0.016268009
0.14222771 0.011190346 0.016007815
0.14325842 0.011142423 0.016282963
0.15525585 0.010353298 0.015942419
0.15937452 0.010132741 0.017028878
0.16096261 0.010683225 0.016765924
0.161944 0.010633931 0.017012602
0.16668352 0.010969432 0.017572969
0.16762495 0.010921244 0.017826388
0.17771405 0.010111624 0.016892467
0.17869785 0.010075193 0.017182022
0.18236502 0.010476308 0.017372614
0.18337142 0.010423481 0.017639428
0.18493646 0.010961787 0.017369892
0.18809249 0.010819951 0.018258121
0.20074116 0.010261602 0.017217297
0.20546214 0.010636827 0.017793225
0.2064209 0.010590624 0.018043926
0.22544304 0.010751738 0.017208144
0.22642395 0.01070961 0.017475393
0.24287525 0.010229466 0.016638884
0.24447069 0.010709551 0.01630193
0.24921307 0.011027489 0.016872071
0.25028414 0.010988074 0.01716657
0.26366189 0.010475526 0.015430243
0.26763204 0.010220965 0.016497292
0.14795616 0.011545305 0.0168465
0.14892116 0.011501137 0.017090898
0.15046632 0.012063268 0.016814118
0.15557317 0.011782661 0.018193722
0.16926295 0.011476827 0.017559599
0.17229848 0.011353599 0.018407872
0.17385699 0.01188189 0.018083423
0.18964766 0.011337495 0.017954826
0.1943637 0.011725798 0.01850751
0.19533002 0.011671148 0.018773984
0.20800412 0.01110806 0.017733723
0.21268876 0.011448737 0.018237025
0.21368848 0.011411253 0.018525263
0.23113316 0.011029207 0.018028023
0.23284683 0.011498373 0.017704219
0.25191516 0.011474854 0.016839737
0.25553277 0.011844746 0.017073842
0.25659797 0.011788645 0.017343834
0.26881534 0.011144758 0.020624854
0.13590783 0.012249162 0.017206896
0.13687776 0.012206312 0.017490232
0.1384131 0.012780553 0.017229402
0.15723985 0.01233983 0.017950714
0.16181496 0.012762547 0.018486023
0.16290787 0.012699428 0.018778954
0.17854001 0.012297032 0.018677745
0.17963547 0.0122216 0.01894132
0.18435791 0.012604631 0.019511435
0.19701393 0.012178611 0.018509053
0.2015973 0.012538293 0.018998161
0.20270807 0.012493781 0.019313542
0.21541254 0.011936871 0.01828979
0.22013761 0.012275514 0.018804381
0.22117901 0.012204055 0.019075215
0.2227391 0.012720563 0.018773323
0.23743469 0.011888516 0.018249568
0.23912156 0.012395795 0.017964059
0.24017081 0.012338453 0.018245474
0.24488816 0.012660425 0.018721549
0.25825906 0.012273422 0.017029414
0.26433671 0.01193784 0.018705567
0.2629818 0.012612187 0.017584682
0.26906276 0.012267564 0.019192446
0.14311674 0.013189254 0.017781734
0.14411598 0.013159322 0.018078588
0.14526176 0.013088757 0.01836741
0.15088749 0.013454391 0.019209879
0.16458607 0.013234979 0.018537166
0.16861966 0.013041441 0.019646455
0.1702112 0.013614689 0.019399513
0.18597378 0.013162772 0.019239133
0.19062191 0.013509877 0.019768095
0.19165459 0.013478264 0.020047572
0.20742899 0.012862491 0.019878456
0.2090698 0.013384767 0.019595299
0.2100357 0.013329947 0.019835982
0.22744492 0.013099307 0.019338563
0.22900897 0.013611317 0.019059094
0.24649826 0.013152195 0.018454649
0.25120485 0.013512898 0.018993348
0.26458633 0.013070666 0.017269067
0.13377979 0.014323643 0.018164121
0.13833103 0.014761686 0.018729104
0.13946955 0.01470405 0.019014131
0.14050189 0.014656134 0.01928978
0.15250263 0.014020808 0.018954784
0.15348712 0.013955755 0.019193403
0.15662101 0.013800025 0.020041175
0.15819535 0.014378248 0.019794369
0.15917689 0.014328973 0.02004146
0.17494014 0.013989482 0.019939775
0.17592429 0.013953085 0.020229183
0.18058334 0.014329177 0.020702213
0.19636865 0.013851379 0.020619966
0.1979381 0.014381608 0.020309988
0.1988962 0.014329836 0.020551894
0.21474221 0.013738735 0.020439148
0.2162782 0.014276851 0.020136412
0.21728861 0.014222585 0.020384219
0.23374547 0.013923811 0.019554451
0.23474991 0.013900097 0.019857904
0.25281966 0.014005955 0.01870138
0.25751445 0.014357436 0.019198885
0.14518514 0.015086247 0.019869696
0.14615025 0.015042071 0.020114316
0.14768106 0.015631635 0.019853527
0.14866991 0.015584476 0.020158695
0.16390227 0.014692043 0.020617852
0.16541404 0.015265459 0.020333942
0.16646753 0.015227297 0.020620357
0.18213496 0.014895579 0.020448115
0.18586794 0.015362209 0.02079097
0.1868332 0.015299584 0.021049144
0.18779832 0.015243321 0.021303114
0.2036044 0.014738574 0.021152016
0.20517421 0.01528437 0.020857286
0.22201119 0.014564325 0.020917214
0.22358301 0.015102324 0.02062339
0.24002756 0.014840902 0.019806899
0.24101321 0.014784327 0.020053415
0.24269703 0.015290145 0.019749094
0.25910068 0.014867842 0.018906454
0.26078701 0.015366493 0.018641785
0.26536271 0.015663328 0.019133301
0.13466135 0.016243741 0.019983647
0.13562657 0.016196355 0.020260205
0.15335006 0.015986195 0.020704087
0.15443888 0.015935495 0.02100594
0.17104769 0.015659869 0.021160414
0.17213586 0.01560133 0.021438895
0.19153465 0.015716087 0.021616861
0.19250184 0.015661415 0.021883754
0.19417027 0.016196996 0.021633966
0.20984539 0.01565318 0.021375956
0.21084495 0.015615748 0.021663889
0.21255438 0.016169989 0.021442823
0.22528306 0.01562611 0.020359384
0.22827959 0.015451215 0.021191102
0.22997995 0.01594918 0.020882569
0.23101176 0.015889132 0.021151174
0.24741031 0.015657432 0.020363543
0.24903004 0.016173419 0.020052066
0.26708907 0.016165063 0.018856322
0.26875806 0.016660044 0.018546663
0.14186931 0.017250236 0.020605164
0.14301381 0.01717991 0.020894213
0.16065484 0.016957741 0.021321395
0.16175704 0.016885156 0.021625618
0.17738062 0.016649114 0.021496577
0.17843637 0.016580697 0.021727221
0.18208884 0.017059701 0.022081861
0.18312252 0.017023765 0.022363676
0.19931889 0.017192833 0.021593507
0.20042852 0.017148323 0.021908551
0.20149079 0.017097153 0.022212218
0.21726656 0.01653715 0.021973655
0.21830839 0.016465256 0.02224436
0.21985495 0.017010018 0.021957546
0.23622784 0.016903754 0.02117135
0.23727782 0.016846349 0.021453155
0.25369895 0.016516188 0.020570312
0.25534853 0.017029965 0.020271068
0.26005927 0.017398557 0.020840617
0.27506104 0.017514206 0.018747931
0.13151109 0.018302176 0.020705581
0.13254499 0.018261131 0.020983217
0.1486249 0.017572384 0.021752734
0.14967126 0.017517027 0.022035392
0.15121084 0.018100517 0.021753777
0.16635406 0.017327208 0.022205306
0.16793084 0.01792792 0.02197448
0.16891932 0.017867479 0.022231719
0.18832467 0.01802027 0.022370772
0.18935868 0.017988455 0.022650359
0.20618615 0.017486896 0.022767656
0.20772898 0.018040041 0.02246304
0.22454832 0.017417565 0.022538353
0.22609861 0.017958215 0.022273507
0.24257271 0.017776612 0.021383379
0.24357873 0.017717024 0.021692285
0.24515891 0.018253505 0.021422913
0.26165134 0.017886313 0.020539289
0.26262161 0.017826274 0.020808842
0.13718483 0.018708881 0.02157234
0.13821873 0.018660938 0.021848442
0.13916126 0.018618902 0.022120792
0.15590422 0.018549867 0.022370815
0.15688589 0.018500684 0.022618262
0.15839727 0.019105013 0.022338105
0.17362952 0.018293181 0.022820812
0.17455575 0.018257834 0.023078868
0.17264488 0.018329503 0.022531526
0.17827332 0.018696364 0.023310207
0.19405876 0.018389713 0.023238558
0.19561484 0.01894775 0.022945181
0.19657353 0.018895855 0.023187242
0.2124216 0.018477213 0.023080714
0.21394423 0.019043453 0.022793751
0.2149547 0.018989222 0.023042371
0.23082222 0.018299183 0.022784546
0.23241034 0.018869361 0.022534208
0.23336986 0.018836968 0.022795668
0.24886329 0.018686663 0.021685116
0.24987437 0.01862843 0.021968957
0.25144067 0.019157778 0.021669319
0.26793146 0.018750219 0.020742478
0.26950037 0.019266326 0.02043942
0.14439923 0.019735219 0.022177832
0.14536777 0.019689539 0.022445993
0.14635623 0.019642476 0.022750627
0.15102142 0.020070534 0.023313737
0.16309413 0.019490765 0.022944221
0.16414693 0.019452853 0.023230484
0.16871253 0.019912228 0.023787348
0.17981091 0.019290086 0.023072179
0.18449539 0.019721633 0.023689942
0.1854597 0.019665308 0.023943568
0.20126691 0.019331986 0.023803215
0.20282251 0.019905461 0.02352464
0.20394391 0.019839855 0.023836687
0.22024006 0.01996645 0.023045273
0.22122177 0.019924724 0.023312811
0.22232997 0.01986861 0.023609631
0.23864655 0.019810218 0.022760779
0.2397325 0.019750288 0.023025459
0.25612974 0.01954806 0.022203621
0.25780204 0.02007575 0.021953266
0.27118242 0.019783074 0.020170879
0.27286747 0.020289795 0.019876903
0.13288316 0.020837286 0.022068679
0.1338481 0.020789923 0.022345167
0.13486744 0.020724028 0.022602344
0.15265656 0.020681709 0.023102662
0.15371428 0.020633554 0.023405353
0.17035481 0.020502228 0.023544826
0.17607158 0.020886622 0.024387799
0.19071198 0.020746127 0.024011316
0.19180189 0.020673782 0.024306674
0.2090486 0.020886052 0.023809444
0.21017314 0.020846484 0.02414107
0.22759144 0.020828156 0.023603713
0.22862422 0.020767847 0.023872204
0.24501605 0.02073998 0.02310122
0.24603996 0.020690434 0.023359211
0.26407871 0.020931829 0.022198472
0.27834061 0.020924838 0.020303098
0.13951987 0.021221071 0.023228221
0.14066312 0.021150958 0.023517471
0.14169946 0.021087492 0.023768999
0.15829492 0.021095352 0.023964411
0.15939787 0.021022599 0.024269054
0.16095135 0.021605719 0.02403342
0.17501467 0.020955458 0.024156559
0.19803227 0.021679921 0.024613857
0.19909492 0.021628613 0.024917625
0.21648377 0.021790912 0.024422042
0.21744631 0.02174147 0.024688419
0.23381096 0.021838496 0.023922779
0.23486173 0.021781109 0.024204925
0.26573575 0.02145539 0.02190442
0.13017747 0.022118973 0.023618368
0.12967402 0.022847213 0.022845991
0.1478458 0.022188794 0.024172036
0.14883041 0.022123611 0.024411863
0.16554222 0.022118887 0.024651291
0.16653061 0.022058362 0.024908993
0.18129826 0.022005474 0.024519242
0.18231851 0.021948868 0.024791211
0.18591425 0.022407185 0.025080197
0.2043381 0.022680553 0.024960645
0.20530421 0.022625681 0.025201768
0.20625284 0.022578593 0.025442569
0.22269611 0.022798683 0.024747778
0.22366229 0.022745512 0.02503584
0.23643018 0.022332229 0.023912765
0.25186184 0.02224966 0.022785442
0.25291532 0.022197699 0.023055365
0.25391427 0.022156524 0.023327928
0.27103055 0.022409698 0.021867886
0.27201307 0.022366321 0.022136228
0.27356336 0.022901513 0.021857975
0.13533103 0.023279488 0.023730144
0.13636644 0.023231549 0.02400668
0.13730918 0.023189506 0.024278896
0.15404785 0.02327377 0.024541987
0.15502965 0.023224607 0.024789823
0.1559864 0.023180237 0.025030531
0.17078799 0.023208277 0.024713412
0.1717732 0.023171991 0.025002683
0.17269933 0.023136722 0.025260502
0.18750466 0.023023788 0.024839081
0.18851793 0.022991907 0.025120214
0.2114908 0.023684084 0.02556406
0.22524178 0.023301544 0.02475467
0.22994623 0.023711957 0.025328508
0.24171147 0.023315409 0.02393
0.24270104 0.023271808 0.024221567
0.25919229 0.023111682 0.023353633
0.26074663 0.023645429 0.023069611
0.26170456 0.023592001 0.023329772
0.27512395 0.023432422 0.021579225
0.28141212 0.023106528 0.023242377
0.12485448 0.024241172 0.023888465
0.12582177 0.024180552 0.024139993
0.12682569 0.024097778 0.024406008
0.14251533 0.024357205 0.024371389
0.143484 0.024311576 0.02463923
0.14447203 0.02426465 0.024943339
0.14556956 0.024208665 0.025253335
0.16120769 0.024266755 0.025150672
0.16225982 0.024229079 0.025436619
0.16329445 0.024201136 0.02572879
0.1769484 0.024263371 0.024996907
0.17792384 0.024221782 0.025287839
0.179024 0.024173761 0.025621824
0.18355748 0.024623726 0.026176212
0.19373211 0.024037499 0.025167622
0.19469135 0.023985449 0.025409803
0.19568336 0.023942448 0.025692431
0.21306375 0.024265179 0.025284106
0.21419214 0.024180947 0.02555901
0.23147587 0.024301359 0.025052898
0.24797994 0.024282968 0.024238024
0.24895573 0.024232307 0.024499444
0.26700044 0.024576029 0.023300055
0.26866803 0.025121192 0.023046337
0.2810204 0.024990484 0.021010607
0.28211409 0.024914082 0.021288147
0.13193883 0.025310826 0.024557928
0.13295725 0.025244799 0.024815308
0.15074003 0.025355197 0.025330648
0.15179846 0.025307076 0.025633331
0.16734961 0.025389228 0.025507508
0.16843608 0.025330519 0.025785565
0.18259391 0.024680115 0.025922889
0.20090982 0.025048707 0.025780393
0.20203 0.024983155 0.026091978
0.21930212 0.025254969 0.025587337
0.22040898 0.025198935 0.025883701
0.23672368 0.025329765 0.025050106
0.23780893 0.025269777 0.025314908
0.23886034 0.025213243 0.025603229
0.25478485 0.025866734 0.023957802
0.25586584 0.025814768 0.024268165
0.2569181 0.025752319 0.024540273
0.12256993 0.026143543 0.02498221
0.12099668 0.026943736 0.023927793
0.12198625 0.02690443 0.024202708
0.1381174 0.026466977 0.024973009
0.13925938 0.026397124 0.025262551
0.14029709 0.026333259 0.025514418
0.15689409 0.026482264 0.025715299
0.15799773 0.026409365 0.026020359
0.15900439 0.026330721 0.02629729
0.17361966 0.026484884 0.025910961
0.17467767 0.026415689 0.026142856
0.18932748 0.026419511 0.025765531
0.19041583 0.026347233 0.02606055
0.19147636 0.026286053 0.026342338
0.20710619 0.026082963 0.026098292
0.2082296 0.02604357 0.026429132
0.22564307 0.026213469 0.025911201
0.22667684 0.026152892 0.026179675
0.22766459 0.026107803 0.026466353
0.27555686 0.026654605 0.022802722
0.27661321 0.026607241 0.023077976
0.27757838 0.026575975 0.023340628
0.12770703 0.02731638 0.025113195
0.12874344 0.027275765 0.025390983
0.1297133 0.027232928 0.025673628
0.14641115 0.027485397 0.025952626
0.1473957 0.02742026 0.026193012
0.14838371 0.027362863 0.026436016
0.1641115 0.027557278 0.026437201
0.16509983 0.027496751 0.026695449
0.1798739 0.02758689 0.026307957
0.18035421 0.02685581 0.027083557
0.19661719 0.027406471 0.026401674
0.19768018 0.027355108 0.026705565
0.19864035 0.027308246 0.026958261
0.20982899 0.02664564 0.026211087
0.24465901 0.026886975 0.025143299
0.24567872 0.02682863 0.025414996
0.26269263 0.027334845 0.023999723
0.26376006 0.027278448 0.02426764
0.26472938 0.02723011 0.024512716
0.11777863 0.028872404 0.02481487
0.1187686 0.028820425 0.025085434
0.13489877 0.028437804 0.025815776
0.13584168 0.028395791 0.026087796
0.15451981 0.028527368 0.026847161
0.20289285 0.028459851 0.026783023
0.203859 0.028404912 0.027024299
0.20480795 0.028357754 0.027265146
0.21506664 0.027690258 0.026223555
0.21602908 0.027640758 0.026489705
0.21702683 0.027607692 0.026771642
0.23239517 0.027913325 0.025732484
0.23344675 0.027855981 0.026015095
0.23443824 0.027799096 0.026268527
0.24986784 0.027907461 0.025154555
0.25092226 0.027855456 0.02542495
0.25192133 0.027814269 0.025697142
0.27058667 0.028852919 0.023985643
0.27154619 0.02880827 0.024268249
0.27251571 0.028759208 0.024550149
0.28558639 0.029262654 0.021900484
0.28655869 0.029229261 0.022180798
0.14297116 0.029520759 0.026788121
0.14406785 0.029464943 0.027098015
0.15408625 0.029271819 0.026120791
0.17031091 0.028661512 0.026824238
0.17123704 0.028626366 0.027081862
0.18604915 0.028657252 0.026662245
0.18706208 0.028625708 0.026943084
0.22221597 0.028698953 0.02686983
0.22322629 0.028633595 0.027126778
0.24025273 0.02947182 0.025789509
0.24124232 0.029428111 0.026081014
0.24231176 0.029389586 0.02637458
0.10673423 0.030416604 0.024196599
0.11431159 0.03078329 0.02567308
0.11538796 0.030712765 0.025938831
0.12386192 0.030082047 0.02525609
0.12482928 0.030021468 0.0255078
0.12583315 0.02993878 0.025774155
0.13255925 0.030351538 0.026971588
0.14249864 0.03028002 0.026007909
0.16179642 0.02959892 0.027581109
0.16128445 0.030326832 0.026803557
0.17642957 0.029762609 0.027144514
0.1775285 0.029714834 0.027477881
0.19224665 0.029723804 0.027025692
0.1932064 0.029671637 0.027268022
0.19419801 0.029628653 0.027550217
0.21157333 0.03012432 0.027156988
0.21270092 0.030040074 0.027432108
0.22902586 0.030367639 0.026674837
0.22998594 0.030335557 0.026937077
0.24649262 0.030494036 0.026130103
0.24746846 0.030443409 0.026391538
0.25831172 0.030068651 0.024679456
0.25928256 0.03000832 0.024948914
0.26024041 0.02995497 0.025209121
0.27894822 0.031009795 0.023482533
0.28004059 0.030933484 0.023759903
0.28111121 0.030865556 0.024030907
0.11383508 0.031574316 0.024955232
0.13091362 0.031200662 0.025962576
0.13193102 0.031134672 0.026220288
0.1497207 0.031373445 0.026735405
0.15077984 0.031325296 0.027038092
0.151785 0.03128181 0.027328838
0.16800684 0.030730143 0.027994972
0.16742757 0.031478833 0.027188187
0.18161604 0.030934386 0.027302641
0.18257895 0.030878002 0.027555814
0.18368787 0.030807013 0.027853282
0.20051189 0.030721474 0.027984243
0.1999324 0.031461675 0.027169358
0.21991265 0.031055408 0.028078813
0.26607683 0.031615615 0.024674539
0.26715961 0.031566706 0.024973813
0.26824903 0.031507548 0.02525066
0.28267336 0.031423986 0.023738388
0.10232683 0.032321647 0.024819586
0.1032957 0.032254748 0.025052425
0.10437348 0.032194685 0.025339127
0.12040569 0.032002863 0.026118256
0.12150388 0.031954393 0.02642104
0.13819857 0.032335948 0.026704168
0.13923767 0.032271758 0.026956499
0.14020267 0.032227684 0.027201375
0.15694603 0.032477364 0.027461885
0.15795341 0.032398753 0.027739199
0.15889749 0.032349806 0.027992887
0.17411909 0.031861603 0.028331706
0.18885739 0.031991303 0.027987119
0.18991938 0.031930119 0.028268976
0.218329 0.031828761 0.026981946
0.21943453 0.031772774 0.027277909
0.23575847 0.032066315 0.026446899
0.23684287 0.032006279 0.026711799
0.2378951 0.031949654 0.027000269
0.25381687 0.032795124 0.025368867
0.25489712 0.03274329 0.025678674
0.25595087 0.032680903 0.025951467
0.11046952 0.033444479 0.02582274
0.11152796 0.033400338 0.026127577
0.12861529 0.033091906 0.027150301
0.14729063 0.033350244 0.02791501
0.17257859 0.032684088 0.027349355
0.17363773 0.032614511 0.027581938
0.20826539 0.03246237 0.028154613
0.20921203 0.032420754 0.028413296
0.20775962 0.033183526 0.027348161
0.22567497 0.032779783 0.027608598
0.22666207 0.032734711 0.027894894
0.2251875 0.033502303 0.026827784
0.27563313 0.033757467 0.024516145
0.27659854 0.033726186 0.0247784
0.29103976 0.033546895 0.023228256
0.28967333 0.034290109 0.022146896
0.093695894 0.034398992 0.024324555
0.099390298 0.034896493 0.025281042
0.10046536 0.034863967 0.025589973
0.10982722 0.034252781 0.025067337
0.11761397 0.034623116 0.026614998
0.11856528 0.034575649 0.026862085
0.12814376 0.033871051 0.026410203
0.13570639 0.034273032 0.027897451
0.145825 0.034197416 0.02696381
0.14680937 0.034132294 0.027204791
0.1635434 0.034387484 0.027437814
0.16453157 0.034327053 0.027696686
0.16498974 0.033547841 0.028403554
0.17880218 0.033836402 0.027781878
0.17982151 0.033780284 0.028053755
0.1966234 0.033738077 0.028172716
0.19758382 0.033691064 0.028425897
0.19609183 0.03447685 0.027373917
0.21597189 0.034151133 0.028246798
0.24364977 0.033704206 0.026590213
0.24466902 0.033645842 0.026861873
0.26168141 0.034345191 0.025459904
0.26274973 0.034288771 0.02572858
0.26371899 0.034240231 0.025973797
0.29119387 0.034837857 0.021848975
0.11711287 0.035422914 0.025895845
0.13426387 0.035081007 0.026872624
0.13520697 0.035038926 0.027144495
0.15390027 0.035288181 0.027895387
0.15498683 0.035225544 0.02818702
0.18595755 0.034925934 0.028452354
0.18692741 0.034871347 0.028720643
0.21551362 0.034858957 0.027461732
0.23294546 0.035224281 0.026981896
0.23338962 0.034505501 0.027747747
0.25043815 0.035375096 0.02638419
0.25143731 0.035333868 0.026656125
0.091381267 0.036131643 0.025522131
0.089883134 0.037013806 0.02456158
0.090881452 0.036945678 0.024814084
0.10699743 0.036884461 0.025618378
0.10748541 0.036064401 0.026297946
0.12464403 0.035788786 0.027341865
0.12573926 0.035732243 0.027627848
0.12412962 0.036619406 0.026627041
0.15344976 0.036057167 0.027187657
0.16970974 0.035541292 0.027861852
0.17063595 0.035506215 0.028119264
0.18546858 0.035657246 0.027686287
0.20330195 0.035526652 0.028032735
0.20425114 0.035479397 0.028273582
0.20524962 0.035442136 0.028559953
0.22268115 0.035904355 0.028133009
0.27105454 0.036535554 0.025249004
0.27202383 0.036486492 0.025530741
0.27315801 0.036434151 0.025837641
0.28453633 0.036551297 0.023418279
0.28550839 0.036517918 0.023698028
0.28663909 0.036471672 0.024016656
0.097418293 0.037390165 0.026013043
0.1146407 0.037241098 0.027100854
0.14280002 0.036948398 0.027423948
0.14389604 0.036892653 0.027733844
0.14231071 0.037731655 0.026662987
0.16165137 0.037133001 0.028199157
0.17689294 0.036644481 0.028551292
0.17631042 0.0374045 0.027742162
0.19311878 0.03742243 0.02784251
0.19358639 0.036679544 0.028609892
0.21313983 0.037166145 0.028764151
0.22220983 0.036644313 0.027371863
0.24069537 0.03687565 0.027099235
0.24176432 0.036837246 0.027392315
0.24025302 0.037581369 0.026295524
0.25969914 0.037582476 0.026234513
0.27065748 0.037215397 0.024437331
0.081265762 0.039052885 0.024107162
0.081761643 0.038211476 0.024768233
0.096922696 0.038197633 0.025301706
0.096427962 0.039024591 0.024637863
0.10461114 0.038648032 0.026856311
0.11379877 0.038478095 0.026047058
0.12176348 0.038476523 0.027901612
0.13119644 0.037779748 0.027377823
0.13233036 0.037720926 0.027661813
0.13066964 0.038593739 0.026671655
0.15106454 0.03804509 0.028478798
0.16112173 0.037885491 0.027440459
0.16782668 0.03831324 0.028650021
0.1830194 0.037786506 0.028963573
0.21150054 0.038010895 0.027722381
0.21262728 0.037926748 0.027997978
0.23047157 0.037640505 0.028283458
0.22897391 0.038391151 0.027228715
0.22993398 0.038359258 0.027491119
0.24743894 0.038605891 0.026931386
0.24850084 0.038550295 0.027200686
0.069176272 0.040377587 0.023286734
0.074278608 0.040147986 0.024650928
0.087876856 0.039525136 0.025364023
0.10403489 0.039446477 0.026132766
0.121202 0.039288361 0.027182411
0.15055755 0.038824938 0.027730446
0.14999576 0.039609488 0.026969971
0.16723016 0.039086379 0.02786197
0.1824269 0.038569815 0.028189726
0.20091283 0.039223127 0.028108321
0.20144351 0.038464576 0.028873648
0.21980862 0.038993292 0.028679693
0.24701031 0.039318454 0.026157675
0.26821649 0.039864253 0.025806239
0.28005269 0.039405506 0.02427572
0.28112406 0.039337397 0.024547022
0.28210962 0.039287832 0.024800124
0.29579443 0.040515788 0.021685824
0.086778536 0.041155145 0.023980297
0.0872733 0.040350996 0.024663661
0.10342993 0.040277239 0.025417957
0.11115457 0.040697329 0.026960205
0.12058508 0.040096235 0.026441451
0.13992277 0.039667781 0.02794892
