# .PCD v0.7 - Point Cloud Data file format
VERSION 0.7
FIELDS x y z
SIZE 4 4 4
TYPE F F F
COUNT 1 1 1
WIDTH 1328
HEIGHT 1
VIEWPOINT 0 0 0 1 0 0 0
POINTS 1328
DATA ascii
0.11996968 0.0084261633 0.042866759
0.12218906 0.0080662742 0.04295006
0.029152364 0.022304391 0.035591289
0.033731706 0.021518091 0.035735622
0.10148603 0.0085491464 0.037851002
0.10470012 0.0080240406 0.037947152
0.098419264 0.0095327385 0.036832936
0.083851054 0.0090796091 0.031868532
0.09009748 0.0079254285 0.032084122
0.097792104 0.0064589866 0.032313988
0.074818939 0.0078063272 0.027042143
0.075208008 0.0077347606 0.027055226
0.080592513 0.006712582 0.027228143
0.12896805 -0.0023790933 0.028742678
0.058229245 0.0081700142 0.021922745
0.12532035 -0.0045689419 0.02402121
0.055206418 0.0056521203 0.018090136
0.045735434 0.0078756493 0.016899217
0.050967656 0.0068753008 0.017064182
0.038479015 0.0063471161 0.012888489
0.040246367 0.0059406888 0.012939236
0.084678978 -0.0024407655 0.014323032
0.022535563 0.0065432079 0.0085521676
0.062770925 -0.0010884237 0.0098064831
0.0015398413 0.0079065058 0.0040268158
0.0043377727 0.0073208604 0.0041141761
0.0089565441 0.0068708137 0.0033669786
0.012793854 0.0061686225 0.0034916652
0.014183708 0.0059033129 0.00353921
0.0152824 0.0052584037 0.004450981
0.017722838 0.0047755651 0.0045251921
-0.0026444495 0.0065241717 -0.00090457941
0.004378669 0.0052464809 -0.00067816162
0.00551489 0.0045728572 0.00023609516
-0.0011143237 0.07057678 0.097479425
0.0021659061 0.060716826 0.084485076
0.005145818 0.056085434 0.076973893
0.0068897828 0.055630311 0.077952318
0.0078161582 0.051446445 0.071226314
0.0069242194 0.047736242 0.065291934
0.014480829 0.042541094 0.059541747
0.015012108 0.03878231 0.054439623
0.016761139 0.038625199 0.05356136
0.018805258 0.038208365 0.053627521
0.020594098 0.037922427 0.053674433
0.030406401 0.028934004 0.044472914
0.040316477 0.023885034 0.03946805
0.10624884 0.011569299 0.040594816
0.11046346 0.01081305 0.040735058
0.11743884 0.0091686323 0.041874196
0.11810814 0.0093234479 0.040974174
0.12058763 0.008623749 0.041963186
0.031591594 0.022493962 0.033825863
0.099135526 0.0097199194 0.035935514
0.10250747 0.0089770257 0.036045134
0.094292104 0.0074419267 0.031292632
0.070368022 0.0090311691 0.025992261
0.075880781 0.0079504587 0.026171723
0.051996142 0.0097293556 0.020823546
0.055054717 0.0091319103 0.020922773
0.064516343 0.0073070005 0.021215748
0.087630711 0.00024166703 0.017300908
0.027538843 0.0087174904 0.011633613
0.030091837 0.0083067715 0.011724813
0.03141962 0.0080145132 0.011762355
0.033090688 0.007644292 0.011812357
0.035301521 0.0072605722 0.011881428
0.0052331164 0.010581052 0.0062219612
0.025929675 0.0066561699 0.0068683745
0.026677042 0.0061092526 0.0077817072
0.027736053 0.0059210062 0.0078184521
0.067610107 -0.0016028173 0.0090675894
-0.0009418875 0.0091570988 0.0021784275
-0.00056802481 0.0065499712 -0.001724327
0.0020111352 0.065555431 0.089199558
0.09945862 0.026891116 0.060331114
0.024262525 0.033956826 0.04767435
0.025720209 0.033705313 0.04771395
0.034683943 0.025496973 0.037449658
0.11120629 0.010954879 0.039837614
0.11502515 0.010233182 0.039958995
0.09981773 0.0098975599 0.035042785
0.078247711 0.01113341 0.028954271
0.086965024 0.0094805248 0.029229118
0.091137826 0.0083687156 0.030281657
0.091880143 0.0085551962 0.029391104
0.071436375 0.0091913305 0.025114579
0.076746717 0.0081542581 0.025283683
0.12032892 -0.00011105463 0.026644006
0.066839643 0.010374185 0.024064288
0.072157249 0.0093936287 0.024229288
0.13170998 -0.0019178502 0.026081596
0.05963333 0.0087713134 0.019700512
0.0602635 0.0088240169 0.019272646
0.042142242 0.0092492122 0.014967211
0.046810016 0.0083973575 0.015122121
0.053788722 0.0070874542 0.015336501
0.022693209 0.010449104 0.0096921138
0.02716969 0.0095437244 0.0098199565
0.038026273 0.0075370967 0.010175096
0.079754174 -0.00074558705 0.012368564
0.089765839 -0.0027011931 0.012684599
0.0080965534 0.0078036301 0.0015521629
-0.011428781 0.0090720281 -0.0029530157
-0.0092419684 0.0086865872 -0.0028741262
0.02859053 0.0014620218 -0.0016993494
0.0094979182 0.055704795 0.075233616
0.098193139 0.023856401 0.053309068
0.027464427 0.033884056 0.04593597
0.032472916 0.029609893 0.040840786
0.03413479 0.029254617 0.040900238
0.11189978 0.011095844 0.038940366
0.088239893 0.012346197 0.033774745
0.092103854 0.011616703 0.033883713
0.10089757 0.010291409 0.03323821
0.10390225 0.0093408376 0.034253329
0.024261288 0.021654846 0.026358632
0.088668935 0.0094872266 0.028370187
0.067497745 0.010580946 0.023173861
0.067796037 0.010506846 0.023188259
0.13238774 -0.0017727502 0.025194172
0.051210731 0.010571705 0.018982196
0.047246262 0.011616737 0.017959893
0.035463125 0.010876574 0.013869973
0.04468134 0.0091742817 0.014137779
0.047491536 0.0086178724 0.014228771
0.020264111 0.011333244 0.0087081548
0.085620858 -0.0010987744 0.010756869
0.024150737 0.007833302 0.0050246688
-0.0069569871 0.011143738 0.00020113587
0.010229751 0.0078723133 0.00073569547
0.012350008 0.0074748639 0.00080260192
-0.0065329894 0.0086090937 -0.0036651185
-0.0027446002 0.0078333244 -0.0035620332
0.015423782 0.047140777 0.060896467
0.020589903 0.042582668 0.055077881
0.097705215 0.020776644 0.047188219
0.12153313 0.013002895 0.042705819
0.044137806 0.024242321 0.035904311
0.10422914 0.012872536 0.03777609
0.10805677 0.012120899 0.037905063
0.11259902 0.011264481 0.03804009
0.10873568 0.012273736 0.037009459
0.11328195 0.011421695 0.03714655
0.097312681 0.011205498 0.032208465
0.080312178 0.011339314 0.027189724
0.089339778 0.0096793883 0.027481718
0.062907919 0.011783771 0.022117488
0.073487736 0.0098016746 0.022445735
0.12810718 -0.00062806532 0.024149004
0.061660692 0.009270126 0.017497294
0.045320004 0.0094188135 0.013262095
0.050549731 0.0083707161 0.013429405
0.043521419 0.010091258 0.012300948
0.0051619709 0.011787862 0.0035244406
0.01014296 0.010899566 0.0036960114
0.00038556755 0.010148009 -0.00045477436
0.0079705194 0.0090658609 -0.0011265024
-0.010464422 0.0097468048 -0.004691015
-0.0083202422 0.0093748067 -0.0046108579
-0.0010548085 0.0079337358 -0.004397166
0.030342646 0.034085423 0.043239571
0.0952309 0.021708749 0.045274459
0.036691412 0.029371021 0.039129365
0.12006558 0.013552085 0.041722327
0.12205981 0.01316255 0.041789908
0.12252368 0.013015538 0.041803554
0.10204926 0.013803158 0.035866741
0.10528471 0.013248201 0.035968356
0.093793534 0.012191612 0.031187052
0.097999878 0.011389501 0.031311736
0.10224211 0.010618601 0.031447012
0.081644237 0.011752106 0.025409354
0.064520821 0.012125675 0.020343218
0.069193393 0.011070926 0.020947872
0.048332214 0.012107946 0.016174991
0.053973123 0.011089966 0.016349055
0.055313602 0.010802351 0.016394438
0.038638175 0.011422949 0.011259302
0.042057231 0.010681195 0.011358045
0.11835569 -0.0037406124 0.013732023
0.032050811 0.0098480005 0.0072891978
0.06219548 0.0013760682 0.0044234921
0.015676506 0.010627452 0.0020652213
0.020593934 0.0096595325 0.00222084
0.0023659393 0.010230066 -0.0012897514
-0.005706504 0.012143912 -0.0024255125
-0.00080487877 0.011163952 -0.0022733726
0.0045099035 0.010211896 -0.0021115432
-0.0032121465 0.0092195161 -0.006229178
0.099813052 0.031758204 0.060746867
0.10091157 0.027734667 0.055734418
0.10164291 0.027576875 0.055758819
0.020585969 0.043213807 0.05229627
0.098850802 0.028328367 0.054758564
0.02527348 0.0387429 0.04733292
0.029268324 0.034560461 0.042289712
0.11762458 0.014219575 0.040736627
0.11827464 0.014361136 0.03982975
0.12098318 0.013932675 0.039911613
0.12290262 0.013547596 0.039967045
0.1060293 0.01338768 0.035071906
0.11015372 0.012577076 0.03522123
0.028853774 0.024878234 0.028250538
0.052981734 0.02027463 0.028989917
0.091051258 0.013036314 0.030180216
0.094688147 0.012315903 0.030298837
0.098691516 0.011547379 0.030412665
0.10291372 0.010769799 0.030551733
0.08702673 0.014091883 0.029141372
0.082385063 0.011948932 0.024520189
0.055217795 0.014271447 0.019142725
0.059756093 0.013392633 0.019290708
0.065328121 0.012305552 0.019465484
0.051102892 0.01198316 0.0153588
0.058152117 0.010641312 0.015567963
0.039875463 0.014395813 0.014092961
0.028780222 0.013591502 0.010028969
0.033280514 0.012704939 0.010171976
0.019810274 0.012531461 0.0060005272
0.021561466 0.012225913 0.0060573393
0.014831111 0.013860701 0.0049447976
0.017315812 0.01338076 0.0050166822
0.024661258 0.011975156 0.0052536959
0.013196029 0.011540713 0.001105146
0.022635423 0.0097164866 0.001393093
0.020927832 0.043166243 0.052310813
0.098509967 0.028619383 0.053812616
0.099209346 0.028488815 0.053833839
0.086500242 0.023903716 0.043149263
0.11499542 0.015296094 0.038800057
0.11897624 0.014498103 0.038924385
0.12154093 0.014102556 0.039014626
0.10041353 0.015050486 0.033062883
0.10390685 0.014333434 0.033158496
0.10668848 0.013547603 0.034171995
0.1108601 0.012742843 0.034315787
0.07201311 0.014281556 0.023274129
0.077901036 0.013160504 0.02346229
0.05592569 0.014463071 0.018244635
0.031862155 0.013392488 0.0092291161
0.03571222 0.012636866 0.0093615018
0.034283355 0.013269654 0.0083967149
0.10567746 -0.00027074292 0.010629087
0.0053370446 0.013362549 -3.8978411e-05
0.0054782107 0.0108572 -0.0038600243
0.007876493 0.010340553 -0.0037934787
0.036975697 0.064773045 0.087485142
0.098217353 0.028908279 0.052868783
0.10326043 0.027952153 0.053025007
0.11095209 0.022942331 0.048151035
0.091735542 0.026857406 0.046629541
0.09477102 0.02617405 0.046724122
0.098006003 0.025635391 0.046820916
0.11445293 0.02248463 0.047332764
0.11687404 0.022113472 0.047425892
0.11839522 0.021780171 0.047450595
0.089676112 0.023585331 0.042320281
0.11293442 0.016234647 0.036894593
0.11569165 0.015440896 0.037901767
0.11639677 0.015579056 0.036994532
0.11962318 0.014644336 0.038017206
0.12210296 0.014282241 0.038111683
0.049065746 0.025069941 0.03053383
0.10568266 0.014321253 0.032301597
0.10769761 0.013902113 0.032364506
0.07983461 0.016023327 0.027075037
0.078940839 0.013598852 0.021662403
0.079664648 0.013469815 0.021687366
0.083787248 0.012338527 0.022729471
0.061165527 0.013813602 0.017508678
0.062903538 0.013814971 0.016641615
0.070908271 0.011912707 0.0178097
0.062919706 0.01381187 0.016635526
0.071600109 0.012128253 0.016917583
0.050417185 0.013151811 0.012603775
0.0511069 0.013048127 0.012630699
0.028646715 0.014695764 0.0073201088
0.036709249 0.013175754 0.0075862738
0.038728371 0.012874741 0.0076406095
0.026693135 0.012314923 0.0035106707
0.027720064 0.012130575 0.0035491744
0.028783351 0.0119329 0.0035806131
0.0084880218 0.013140634 -0.0008393391
0.017036438 0.011567501 -0.00057933154
0.017982148 0.011373296 -0.00054327166
-0.0064929798 0.013550876 -0.0051124711
0.0039435551 -0.00018664077 -0.022702608
0.10199536 0.032140903 0.057090811
0.098920956 0.028993096 0.051965117
0.098541051 0.029256269 0.051010162
0.091766208 0.027087271 0.045700148
0.032752961 0.034894072 0.038694784
0.091930717 0.020493373 0.035304908
0.10865805 0.017286997 0.035844978
0.11363002 0.016350515 0.035995495
0.04691793 0.025739081 0.029554958
0.052263424 0.024742868 0.029710267
0.057062715 0.023840558 0.029862646
0.061617509 0.022983324 0.030008912
0.10498001 0.014714256 0.031344071
0.10880253 0.013956774 0.031471256
0.047992766 0.02585556 0.028664207
0.062347397 0.023115955 0.029113909
0.094486214 0.017001849 0.030107554
0.098492026 0.016205758 0.030229012
0.10266205 0.015414827 0.030372467
0.10311246 0.015299119 0.030393105
0.04739581 0.022572087 0.025152076
0.071143284 0.018342506 0.024974266
0.075350039 0.017240066 0.026022941
0.084443584 0.015820328 0.025383111
0.09017545 0.01471474 0.025555158
0.058995515 0.017690387 0.020130321
0.063193753 0.01687552 0.020260114
0.067011483 0.016179714 0.020378599
0.074333042 0.014741991 0.020617852
0.074641988 0.014689367 0.020625945
0.034555852 0.019559206 0.014859546
0.037669681 0.018888993 0.014952377
0.051727906 0.016283946 0.015386378
0.055908047 0.01548785 0.015524707
0.058749214 0.014954576 0.015605549
0.034208462 0.016538253 0.011205036
0.035950564 0.016582726 0.010349034
0.039488032 0.015553828 0.011361816
0.042640731 0.015309488 0.010539738
0.043707289 0.015131263 0.010576146
0.044449016 0.014853107 0.011051833
0.045993939 0.014721585 0.010657936
0.048585117 0.014199352 0.010732517
0.051061034 0.013406111 0.011721808
0.053202063 0.012996843 0.011787377
0.024509579 0.015871629 0.0062890649
0.028643429 0.0150727 0.0064114318
0.032210283 0.01443786 0.006533036
0.035644069 0.013763167 0.0066358945
0.011653818 0.015637163 0.0021539088
0.013393387 0.015291413 0.0022075593
0.017241307 0.014538039 0.0023114991
0.018954605 0.014205642 0.0023729343
0.023223378 0.013430702 0.0025155952
0.026024796 0.01285675 0.002597057
0.00091978163 0.01506028 -0.001960461
0.010671742 0.013180207 -0.0016595512
0.011347286 0.013051875 -0.0016361023
0.012753092 0.012795866 -0.0015960666
0.014574423 0.012458064 -0.0015378278
-0.0045353994 0.016448619 -0.0030313097
0.0018059462 0.015292389 -0.0028341857
0.0046153143 0.014733333 -0.0027440686
0.0070369616 0.0142122 -0.0026763179
0.0095515922 0.013752896 -0.0025983413
-0.0071768463 0.014112875 -0.0060295295
-0.004777588 0.014026443 -0.0068535516
-0.0019943416 0.013060585 -0.0058790073
-0.00061441213 0.013008943 -0.0062836874
0.00079198927 0.012508705 -0.0057863118
0.0043018609 0.011922898 -0.005683912
0.10294607 0.036109526 0.061153781
0.019855931 0.048003312 0.053595942
0.10201333 0.032350197 0.056168787
0.10513537 0.031782407 0.056255881
0.10545057 0.031725399 0.056271374
0.1030717 0.032347925 0.055266406
0.10658632 0.031719491 0.055364121
0.089082718 0.027766921 0.044689611
0.028870188 0.039500188 0.041894503
0.087924674 0.028279498 0.043725442
0.11959869 0.022207957 0.044715051
0.033501402 0.03500038 0.037794851
0.086937889 0.02510852 0.038534671
0.090469301 0.024466366 0.038647018
0.11111851 0.02053497 0.039291538
0.11389312 0.020003941 0.039373621
0.1171682 0.019085735 0.040405296
0.12229934 0.018306348 0.039942689
0.054111615 0.024968531 0.027938005
0.070630759 0.021797985 0.02844823
0.090952836 0.017960068 0.02908
0.095880926 0.017053105 0.029239019
0.096232086 0.016992249 0.029244132
0.099337794 0.016351491 0.029338669
0.058577456 0.021037336 0.023648433
0.062406287 0.02028635 0.023785941
0.066906691 0.019408856 0.023922067
0.070876889 0.018716488 0.024042368
0.071187057 0.018650789 0.024055256
0.075291634 0.01783672 0.024185691
0.076401204 0.017657973 0.02422205
0.082635649 0.016458433 0.024414182
0.084277451 0.016150914 0.024458859
0.04430452 0.020783434 0.018756105
0.055159308 0.018741136 0.019091228
0.058614358 0.018072532 0.019207757
0.063121498 0.0172139 0.019343561
0.067061879 0.016513821 0.019460175
0.070510365 0.015776671 0.019572634
0.074160069 0.01512735 0.019691531
0.033108443 0.020081388 0.013909122
0.036283061 0.019547636 0.014006311
0.037660912 0.019239802 0.014043029
0.047768556 0.017312489 0.014360804
0.050283194 0.01689058 0.014440475
0.055884942 0.015819654 0.014607908
0.058168709 0.015387366 0.01467918
0.059019051 0.015239343 0.014700715
0.023035698 0.019355763 0.0090237204
0.027151868 0.018564031 0.0091562541
0.032370284 0.017564151 0.0093193986
0.03458114 0.017180644 0.009388769
0.039461911 0.016277796 0.0095439572
0.040886194 0.015971513 0.0095886551
0.042329788 0.015691265 0.009624118
0.042674869 0.015635911 0.009631223
0.044383854 0.015370416 0.0096938461
0.017897025 0.017497884 0.0051742941
0.023475759 0.016467981 0.0053551788
0.027599521 0.015646441 0.0054791919
0.028669998 0.01543051 0.005504359
0.03008464 0.015171763 0.0055507016
0.03103146 0.015020479 0.0055841627
0.033594608 0.014511783 0.005659882
0.0032116845 0.017605778 0.00098832091
0.0055742264 0.017092895 0.0010508774
0.0081434622 0.016659452 0.0011406974
0.010243215 0.016270306 0.0012100425
0.014450498 0.015465945 0.001334826
0.015830465 0.015197735 0.0013764221
0.016896665 0.014993757 0.0014081341
0.01894857 0.014601843 0.0014697029
0.020403847 0.0142907 0.0015177752
0.022090144 0.014033105 0.0015741531
0.002123408 0.018206919 5.6649093e-05
0.0055884048 0.017478755 0.00014941674
0.010182098 0.01667358 0.00030899327
0.013391778 0.016073443 0.00040892791
-0.0059469566 0.01713703 -0.0039638868
-0.0045730248 0.01685906 -0.003926503
-0.0031793192 0.016580462 -0.0038868804
0.0032099411 0.015430564 -0.0036905904
0.0060082525 0.014847374 -0.0035972965
-0.0074423328 0.01498799 -0.0078149661
-0.0069077611 0.014891634 -0.007796234
-0.0051877052 0.014530828 -0.0077491691
0.096549377 0.030137889 0.049096096
0.030338638 0.039437592 0.041001868
0.096928939 0.026742879 0.043083929
0.11236562 0.023866691 0.04356534
0.1197931 0.022440687 0.043793272
0.087615624 0.025220774 0.037636187
0.094289199 0.0239521 0.037833974
0.10722083 0.021500587 0.038259942
0.11072521 0.020849708 0.038351186
0.12274583 0.018602271 0.038717054
0.046850815 0.029604074 0.03206135
0.051058367 0.028787602 0.032200351
0.080402464 0.023194663 0.033105433
0.092315391 0.020946667 0.03347493
0.095741756 0.020267341 0.03358132
0.099301279 0.019656848 0.033702236
0.1045384 0.018642254 0.033861671
0.11083976 0.017445356 0.034054663
0.11185805 0.017265633 0.034086138
0.11469698 0.016684338 0.034175336
0.048638552 0.029540222 0.031198153
0.056338668 0.028048014 0.03143698
0.095416397 0.020603891 0.03265192
0.10168198 0.019371342 0.032854334
0.11120028 0.017650176 0.03313544
0.057032973 0.024698557 0.027101398
0.061491266 0.023900233 0.02724201
0.065976948 0.022961937 0.027386485
0.069996238 0.022207346 0.027519774
0.074598312 0.021387827 0.027652957
0.092858613 0.017878193 0.028223911
0.095690608 0.017376665 0.028302088
0.054020733 0.02251555 0.021688011
0.054693788 0.022398742 0.021701891
0.062356859 0.020580353 0.022870386
0.066234306 0.020175228 0.022069275
0.066531628 0.019947283 0.022539914
0.070504606 0.019089498 0.023115467
0.074575081 0.01854571 0.022323785
0.075288795 0.018119287 0.02327181
0.078635886 0.017751522 0.02275655
0.079364985 0.017376535 0.023390185
0.082292736 0.01681399 0.023488116
0.044260845 0.021117857 0.017838731
0.046763659 0.020644814 0.017915744
0.05864615 0.018387482 0.018294433
0.062821239 0.017598476 0.018409124
0.06544552 0.017100645 0.018503681
0.066321716 0.016979791 0.018525358
0.067045838 0.016845688 0.018551614
0.040067554 0.022255821 0.016793093
0.042207867 0.021857753 0.016868152
0.044287041 0.02144024 0.016924035
0.046725579 0.020945931 0.01700425
0.048799738 0.020590868 0.01707454
0.050624982 0.02026945 0.017123705
0.052005552 0.019984834 0.017167978
0.053035975 0.019744907 0.017197479
0.060877278 0.018302817 0.017442321
0.062403962 0.017995546 0.017488638
0.02435334 0.02207369 0.012702197
0.025419585 0.021872588 0.012737503
0.027904093 0.021471992 0.012834313
0.029279672 0.021155586 0.012858097
0.043344036 0.018549701 0.013294105
0.05136928 0.017007075 0.01356089
0.053284824 0.016668288 0.013616148
0.054483004 0.016390249 0.013648283
0.026871517 0.021956699 0.01187721
0.038032696 0.019833541 0.01223122
0.03973572 0.019484479 0.012281762
0.048134588 0.017914316 0.012547403
0.028614566 0.018657846 0.0082878768
0.032393277 0.01791542 0.0084069166
0.03458377 0.017529186 0.008474675
0.039471358 0.016638396 0.0086369803
0.040843457 0.016335055 0.0086788693
0.010507457 0.019346252 0.0040490152
0.016797297 0.018103696 0.0042335414
0.021051109 0.017335523 0.0043667946
0.022419393 0.017038058 0.004415038
0.025919192 0.016329292 0.0045204638
0.026891664 0.016141355 0.0045531448
0.0090953633 0.019953862 0.0030996422
0.012227692 0.019358253 0.0031994637
0.014643766 0.018887093 0.0032681627
0.019482464 0.017942263 0.0034263248
0.02101323 0.017715856 0.003468723
0.022375315 0.017424678 0.0035149548
0.02346693 0.01721021 0.0035474901
-0.0028646961 0.019478817 -0.00099436776
-0.0010377318 0.019167153 -0.000936914
0.00062144548 0.018896941 -0.00089249527
0.0020237714 0.018623881 -0.00084438222
0.0034732148 0.018319113 -0.00080457586
0.0069508925 0.017600346 -0.00069808774
0.011906266 0.016724873 -0.00053839781
0.014766254 0.016169988 -0.00044800644
0.079068258 0.003914319 0.0015535685
-0.0076819658 0.01789649 -0.0049057547
-0.0059258789 0.017529637 -0.0048645828
-0.0014182031 0.01663794 -0.0047335252
0.050407529 0.072361901 0.096878484
0.091046557 0.031650808 0.047068749
0.095217764 0.030807532 0.047184855
0.097677268 0.030363034 0.047275051
0.098287836 0.030215859 0.047295701
0.11599795 0.023362435 0.042744964
0.11827378 0.023025233 0.042830281
0.030509718 0.039901771 0.039163888
0.090024635 0.028548546 0.041014761
0.11001064 0.024757627 0.041634701
0.11277989 0.024263375 0.041718528
0.12068956 0.022718746 0.041968998
0.12158391 0.019121084 0.037778419
0.1217602 0.019084755 0.037784372
0.084852807 0.026005011 0.036630899
0.087345392 0.025532465 0.036692508
0.090816893 0.024922442 0.03679831
0.094685942 0.024367098 0.03599187
0.098160103 0.023739379 0.036111332
0.098175123 0.023454782 0.037038479
0.10062976 0.023002718 0.037102379
0.10721909 0.021884713 0.036864385
0.11073977 0.021088466 0.037428383
0.11388947 0.020507488 0.03752951
0.1191643 0.019494079 0.037685506
0.12318707 0.018731106 0.037813727
0.047934182 0.029932892 0.030241564
0.05145894 0.02925607 0.030367423
0.054246858 0.028740615 0.030433409
0.057055831 0.02816814 0.030533673
0.061851978 0.027259376 0.030688023
0.064679183 0.026720947 0.030773874
0.065827675 0.026555682 0.030808136
0.070961863 0.0255403 0.030970898
0.073989794 0.025014661 0.031063393
0.074526101 0.024889916 0.031079983
0.092071101 0.021520503 0.031633265
0.095426217 0.020883031 0.031732742
0.098622873 0.020321175 0.031830844
0.10731174 0.018629141 0.032094918
0.089587033 0.018793564 0.027209746
0.092001908 0.018328283 0.027268441
0.092426702 0.018236864 0.027279433
0.057419658 0.025212411 0.025268896
0.061493203 0.024454912 0.025401801
0.065797262 0.02358691 0.025534481
0.074586406 0.021948218 0.025813403
0.088525981 0.01928037 0.026245153
0.089580439 0.019094381 0.026270978
0.047400296 0.024079256 0.020563368
0.058383077 0.02199042 0.020905228
0.062430046 0.021176398 0.021027517
0.06626533 0.020476446 0.021152459
0.069872081 0.019762214 0.021263067
0.070473343 0.019674711 0.021279128
0.074017957 0.018969335 0.021396052
0.02776216 0.024833916 0.01549183
0.038359359 0.022830721 0.015820453
0.040070847 0.022557758 0.015874572
0.042161725 0.022183929 0.015947619
0.046709731 0.02125713 0.016090352
0.057925209 0.019183679 0.016438402
0.058263138 0.019115021 0.01644513
0.029552557 0.021791613 0.011052171
0.036606774 0.020510349 0.011279216
0.04556869 0.01862826 0.012012264
0.04678496 0.01820777 0.012498997
0.047491103 0.018059032 0.012523303
0.024730995 0.022682054 0.01088693
0.031301118 0.021407828 0.011101536
0.039747804 0.019812783 0.01137308
0.022327192 0.020230081 0.0071931491
0.025482759 0.019611852 0.0072892639
0.034153305 0.01795879 0.0075576645
0.11253493 0.0031382851 0.010009523
0.0073057711 0.020654486 0.0021394377
0.012209266 0.01974209 0.0022999879
0.017130613 0.018771179 0.0024335776
0.0048205405 0.018421562 -0.0016608981
0.0069454461 0.017982911 -0.0016011042
0.010162972 0.017425831 -0.0014943189
-0.0097569451 0.018678736 -0.0058749118
-0.0063651502 0.018017551 -0.0057656653
-0.0031715482 0.017377557 -0.0056779776
0.00025865436 0.016702799 -0.0055594156
0.0063762292 0.0060660839 -0.019921869
0.05155322 0.072329402 0.095047779
0.10512794 0.036439449 0.057490617
0.095216915 0.031020254 0.046262842
0.096961036 0.030722834 0.046326764
0.026750371 0.044296846 0.043215312
0.094784811 0.031304464 0.045325555
0.1202269 0.02286572 0.041955031
0.090016291 0.028802339 0.040083699
0.11002178 0.02500103 0.040715799
0.11279609 0.02449869 0.040798184
0.097835764 0.023825433 0.036099426
0.10381885 0.022685066 0.036283605
0.11075947 0.021354619 0.036502387
0.11618272 0.020345639 0.0366701
0.11977548 0.019633066 0.036783319
0.12006743 0.0195808 0.036792777
0.12229586 0.019233506 0.036877654
0.09471155 0.024620861 0.035069823
0.095704466 0.024469331 0.035107683
0.10090321 0.023446359 0.035271503
0.10361317 0.022985492 0.035351448
0.10672417 0.022355933 0.035449658
0.10726589 0.022266667 0.035475157
0.11073069 0.021620233 0.035576876
0.11427519 0.020941235 0.035696808
0.11726627 0.020389091 0.035768602
0.057725452 0.028310498 0.029635312
0.06021551 0.027917953 0.029712496
0.060575888 0.027840093 0.029717594
0.064672202 0.026990138 0.029852044
0.070245847 0.025915347 0.030021816
0.08081989 0.02396483 0.030350365
0.095410094 0.021170706 0.030805519
0.098425955 0.0206156 0.030899968
0.099346831 0.020474683 0.030928355
0.10458528 0.019437671 0.031076981
0.1049096 0.019380104 0.031097615
0.053548411 0.029420739 0.028583011
0.066145688 0.027025886 0.028973196
0.069177359 0.026399586 0.029077655
0.070095018 0.026213098 0.029093796
0.073501915 0.025636882 0.029200623
0.091974974 0.022100594 0.029778659
0.095434889 0.02145857 0.029887337
0.082281783 0.020765677 0.025128445
0.045607373 0.024725614 0.019590545
0.049150169 0.024066966 0.019697573
0.05051741 0.023753287 0.019737199
0.057830781 0.022379292 0.019975454
0.03158851 0.024437847 0.01471431
0.042181894 0.022501493 0.015028384
0.044336066 0.022087272 0.015101863
0.044686735 0.022004671 0.015102493
0.052394614 0.020567762 0.015348637
0.053359166 0.020325821 0.01537399
0.022924162 0.023365524 0.0099353744
0.023986325 0.023167817 0.0099663921
0.028561175 0.022362916 0.01011687
0.036623776 0.020858511 0.010363767
0.012166336 0.022875814 0.0050530657
0.014262438 0.022120252 0.0060218386
0.018134907 0.021721426 0.0052455701
0.019889086 0.02108789 0.0062096957
0.021266989 0.020802397 0.0062530893
0.023705587 0.020656666 0.0054179998
0.024759755 0.020087421 0.0063557136
0.027216643 0.019620186 0.0064217979
0.028920546 0.019639114 0.0055737444
0.031404682 0.01923782 0.0056706076
0.032741793 0.018556055 0.0066051465
0.017069951 0.019146435 0.0015294214
-0.0011710897 0.019942176 -0.0027377934
0.00062967092 0.019644391 -0.0026902752
-0.010533281 0.019389126 -0.0072470787
0.046791375 0.073302239 0.093955517
0.047501713 0.073262759 0.09304817
0.047983378 0.073194884 0.093071058
0.0325289 0.066789478 0.078950398
0.10615413 0.036598917 0.055664979
0.026728265 0.044521958 0.042281523
0.11831683 0.02713652 0.045128867
0.099557221 0.027239595 0.039440319
0.10227545 0.026701115 0.039541572
0.10631795 0.025955979 0.039674219
0.1161636 0.024058435 0.039982729
0.085601114 0.026638638 0.033879638
0.10091318 0.023694683 0.034341495
0.11046876 0.021941733 0.034635331
0.11394708 0.021243166 0.034750853
0.11431172 0.021179643 0.034768734
0.054581046 0.029494938 0.027687505
0.066169187 0.027277587 0.02805008
0.069213405 0.02667699 0.028155845
0.088802576 0.022960883 0.028768238
0.057486251 0.025776464 0.023428876
0.065826252 0.02414624 0.023697982
0.069781519 0.02345854 0.023822848
0.073851883 0.022611462 0.023946805
0.082611442 0.020989425 0.024225786
0.047751665 0.024607539 0.018742669
0.051886842 0.023795042 0.018871
0.054007724 0.023416251 0.018922992
0.057231173 0.02279862 0.019025737
0.061337672 0.022019463 0.019160176
0.06203194 0.021896491 0.019178817
0.069358669 0.020450976 0.019409083
0.070034765 0.020330258 0.019438202
0.041455716 0.02612091 0.017626453
0.053988144 0.023732455 0.018013429
0.065231539 0.021621343 0.018359428
0.065943807 0.021494528 0.018385971
0.030199021 0.025032103 0.013739829
0.033791281 0.024416853 0.013857698
0.049158409 0.02150101 0.014336505
0.050921418 0.021145927 0.014394284
0.054714948 0.020409662 0.014514301
0.030181065 0.025343044 0.012823333
0.035528287 0.024406839 0.013004929
0.040357083 0.023447234 0.0131397
0.04427655 0.02274652 0.013274305
0.046698049 0.022227313 0.013345142
0.02990143 0.02239937 0.0092420988
0.035145849 0.021374933 0.0094165467
0.012153439 0.02323602 0.0041494761
0.014592834 0.022753134 0.0042237453
0.022677317 0.021232864 0.0044806078
-0.0058088899 0.023856089 -7.9632737e-05
0.007286638 0.021366427 0.00032233587
-0.0092204809 0.021925231 -0.0038845039
0.00076738 0.02000344 -0.0035810396
-0.011489771 0.022705054 -0.0048661074
-0.0055623055 0.021547822 -0.0046833223
0.091550693 0.00059431046 -0.0054066246
0.033482932 0.040001087 0.036473971
0.087274149 0.029787581 0.038151115
0.10233578 0.026957255 0.038614675
0.099934459 0.027632598 0.037599545
0.11035331 0.025663111 0.037945643
0.12214811 0.023390487 0.038305111
0.060069144 0.031732537 0.032154687
0.069875702 0.029899586 0.032454316
0.079347864 0.028091997 0.032748908
0.091231219 0.025804862 0.033120129
0.094676599 0.025157027 0.033223271
0.09827061 0.024533439 0.033336051
0.10092712 0.023931127 0.033422776
0.10690042 0.022802681 0.033598483
0.048590243 0.034217753 0.030860059
0.065134019 0.031077191 0.031382784
0.085996658 0.027073856 0.032040961
0.10695578 0.023051295 0.032672852
0.06471397 0.02778274 0.027081562
0.068898275 0.0270309 0.027220778
0.057436861 0.026075406 0.022512995
0.06129501 0.025298407 0.022637393
0.06935817 0.0238101 0.022886839
0.073816329 0.022903424 0.023024311
0.05292248 0.027217885 0.021452075
0.073495559 0.023249079 0.022093628
0.054001242 0.024034264 0.017098872
0.023946881 0.023834532 0.008142137
0.025337823 0.023559261 0.0081782574
0.12147644 0.0053369664 0.011195024
0.01701311 0.025538156 0.0070162574
0.0018539056 0.025512613 0.0029250043
-0.010325015 0.025130289 -0.0011063989
-0.0040537491 0.023880918 -0.00092659798
-0.0022384599 0.023554713 -0.00085938908
-0.012411781 0.025904732 -0.0020798324
0.0012049451 0.023311609 -0.0016673687
0.075810403 0.0064441077 -0.0030477643
0.066619158 0.074935012 0.097984098
0.097317234 0.03532524 0.046716254
0.11502384 0.028361689 0.042245928
0.098610386 0.024987683 0.031499498
0.073452592 0.026719291 0.025511542
0.077647723 0.025590695 0.026568579
0.050782599 0.027895086 0.020474231
0.0046869069 0.025298547 0.0020987862
0.0096853599 0.024425708 0.0022650955
0.043474011 0.07449355 0.088269845
0.092101589 0.036478966 0.04563044
0.088412344 0.03054801 0.034475666
0.048289083 0.034768969 0.029002469
0.070257157 0.030548856 0.029695548
0.074496552 0.02975931 0.029817335
0.053188682 0.03410117 0.028233245
0.070285484 0.030790541 0.028765
0.12423676 0.0084803179 0.013022285
0.015949547 0.026379995 0.0051598419
0.13354343 0.0040386245 0.0088321939
0.083528668 0.0083897598 -0.00091376947
0.055582948 0.077234216 0.09484309
0.07224524 0.0086837038 -0.0067563653
0.01228258 0.0062450264 -0.029750507
0.05669982 0.077185154 0.093011282
0.10502993 0.038152061 0.049126845
0.060822293 0.036477104 0.030834716
0.054642096 0.03432934 0.026419785
0.049392007 0.078624353 0.091859214
0.0532424 0.077894665 0.091981769
0.040598974 0.075448193 0.084457755
0.071399488 0.034764111 0.03023616
0.050546706 0.078560166 0.090029858
0.051305637 0.078492157 0.089119874
0.06302014 0.03348881 0.023918077
0.068670377 0.032439049 0.024090575
0.13763736 0.0078832507 0.0079468675
0.042936936 0.080148429 0.087941632
0.037603423 0.076415852 0.079718366
0.08910504 0.035298746 0.033091702
0.090223894 0.035122454 0.033108491
0.090561479 0.03508085 0.033120692
0.094728932 0.034254439 0.03325789
0.070375405 0.080040589 0.095828451
0.043864183 0.08005935 0.087038614
0.044822946 0.079947665 0.086143598
0.038468145 0.076341808 0.078812696
0.038984321 0.076240659 0.078817211
0.095074058 0.037799448 0.037352759
0.090264082 0.035321347 0.032185286
0.075330786 0.031944204 0.021524362
0.071836591 0.079867527 0.094022863
0.059460342 0.082203612 0.093622953
0.063148618 0.081498399 0.093748905
0.066720575 0.080914229 0.092909627
0.045564502 0.079883918 0.085239746
0.046648145 0.079688504 0.085266948
0.047829092 0.079416566 0.08530286
0.048331685 0.079298086 0.085318632
0.040128723 0.081016496 0.084133804
0.14156984 0.0055334903 0.00087680435
0.060752869 0.082101412 0.091809347
0.064244762 0.081394985 0.091926098
0.077019207 0.079010502 0.09231922
0.053203791 0.083569989 0.090641148
0.057157844 0.08286529 0.090760976
0.061564595 0.082025953 0.090901561
0.067842804 0.080818832 0.091095433
0.078005821 0.078894913 0.091421179
0.041229047 0.080963351 0.082310654
0.041543417 0.080908507 0.082320623
0.035557792 0.077248827 0.074993074
0.053914569 0.083501637 0.089735925
0.054785788 0.083394483 0.088840455
0.058446094 0.082699522 0.08940962
0.062312238 0.081945851 0.089999862
0.042271122 0.080844328 0.081410751
0.04295855 0.080666661 0.081432097
0.036822081 0.077113017 0.074099496
0.092713028 0.039256878 0.032622918
0.075718179 0.03610963 0.022032136
0.051539019 0.084074706 0.087809227
0.091046505 0.039841402 0.031642467
0.045111336 0.085479356 0.084815741
0.046465427 0.085216552 0.084863544
0.038509712 0.081691518 0.078497529
0.03941229 0.081596434 0.077596247
0.039971188 0.081493661 0.077616379
0.048206404 0.084879741 0.083991162
0.048800565 0.084783956 0.084002197
0.049650222 0.08465293 0.084032327
0.050367504 0.08452113 0.084060237
0.040700376 0.081437737 0.076714464
0.041452006 0.081392363 0.075804964
0.033800676 0.078216337 0.069346741
0.0314603 0.074283749 0.062021606
0.091800228 0.043681283 0.033808246
0.1046795 0.041259166 0.034226626
0.13318038 0.0069020391 -0.009319514
0.06938576 0.086071223 0.091567665
0.069772854 0.085973158 0.091580003
0.073626757 0.085328616 0.090774901
0.035206668 0.082636029 0.07468275
0.032416627 0.074204803 0.061111707
0.032744862 0.074139185 0.061114486
0.074076831 0.040878806 0.021470938
0.064523615 0.087020688 0.089575887
0.067800812 0.086485744 0.089667127
0.070905268 0.08583349 0.089756913
0.074424073 0.085223176 0.089862406
0.077934325 0.084537394 0.089990988
0.062265828 0.087607279 0.088567212
0.065302782 0.086909227 0.088665083
0.068524927 0.086385123 0.088763736
0.071610317 0.085735478 0.088852525
0.075367965 0.085088179 0.088966355
0.075835735 0.085006632 0.088984936
0.07869146 0.084428653 0.089081146
0.081102505 0.083998069 0.089154981
0.043547869 0.08600843 0.080131851
0.036785342 0.08251442 0.072869651
0.037319139 0.082434744 0.072886921
0.088295996 0.044930369 0.030921897
0.06300246 0.08751037 0.087665312
0.051806405 0.089612201 0.086398467
0.052164055 0.089547969 0.08640562
0.054930568 0.088990562 0.087411299
0.055654973 0.088875338 0.086510479
0.05872488 0.088264838 0.087526202
0.05967623 0.088108912 0.08663208
0.063380301 0.087430067 0.087674558
0.066200942 0.086801544 0.087758735
0.067132995 0.086679302 0.086862914
0.06927117 0.086289093 0.087856509
0.072351836 0.085647941 0.087948181
0.076960713 0.084853321 0.087169603
0.079426512 0.084327973 0.088178359
0.081854895 0.083897755 0.088247016
0.043547541 0.08608146 0.079200305
0.044312112 0.085913084 0.079219647
0.045338586 0.085796401 0.078321174
0.045727395 0.085738041 0.07833349
0.056382999 0.088783771 0.085606769
0.06059213 0.087981693 0.085731864
0.064490944 0.08729101 0.08585836
0.080589101 0.084192872 0.086364053
0.080911592 0.084140718 0.086376816
0.08318121 0.083731502 0.086436197
0.053361051 0.089409664 0.084587529
0.057120517 0.088675484 0.084706545
0.057549 0.088594362 0.084713735
0.034167506 0.083311871 0.069071047
0.03251937 0.079132929 0.061852664
0.032890983 0.079064935 0.061858103
0.098562106 0.046918884 0.034227148
0.098939046 0.046856903 0.034244347
0.10517386 0.045665991 0.034440827
0.10556416 0.045595713 0.034440607
0.098237231 0.046976604 0.034206796
0.10132234 0.046371106 0.034313038
0.050278708 0.090072818 0.08263395
0.050758719 0.089981258 0.08264228
0.054097101 0.089319594 0.083676718
0.054829694 0.089212008 0.082770817
0.041377559 0.086768977 0.075414598
0.034038186 0.083437316 0.068130642
0.034875758 0.083245084 0.068161413
0.035738416 0.083132617 0.067256764
0.032357626 0.079258136 0.060912028
0.09439303 0.044714879 0.026443776
0.085270837 0.042972386 0.022167999
0.051730216 0.089832291 0.081741437
0.052492648 0.089735009 0.080832772
0.095515415 0.044684198 0.025544377
0.08878725 0.033715937 0.0062134531
0.043841958 0.09141589 0.07871829
0.05359526 0.089574397 0.079942085
0.037429385 0.087708846 0.072502747
0.037487581 0.087756798 0.07158035
0.038286425 0.087588288 0.071602933
0.10081951 0.050933935 0.034428339
0.10179423 0.050752178 0.03445828
0.10505465 0.050184939 0.03455776
0.10553285 0.050102703 0.034575313
0.087875649 0.046560153 0.02345283
0.08928597 0.046273917 0.023492608
0.090967149 0.045952883 0.023553461
0.091909572 0.04577494 0.023577128
0.094835863 0.04520458 0.023668347
0.09659078 0.044880427 0.023720395
0.069257706 0.091879018 0.08633735
0.072563842 0.091227591 0.086448207
0.073057979 0.091125622 0.086468734
0.039323553 0.087416887 0.070711948
0.040213659 0.087297037 0.069811389
0.032166846 0.084206641 0.062489495
0.032748602 0.084084079 0.062512152
0.030070767 0.080253527 0.055264264
0.031185128 0.080025852 0.055294365
0.09909521 0.051477533 0.033446029
0.08858078 0.04660726 0.022542208
0.066524342 0.04754363 0.016937824
0.06058608 0.093510017 0.084677942
0.064435124 0.09281601 0.084803566
0.067624345 0.092196532 0.084427647
0.070405573 0.091688842 0.084985465
0.073798075 0.091004014 0.085565053
0.074568488 0.090880677 0.084667511
0.077360198 0.0903484 0.085203625
0.082974024 0.089301921 0.08583013
0.046050593 0.091124445 0.076930434
0.047363535 0.09091796 0.076050267
0.048092008 0.090790167 0.076066621
0.033508673 0.084000617 0.061604943
0.033818774 0.083939083 0.061617237
0.030479744 0.08026953 0.054342717
0.031521991 0.080054253 0.054379888
0.099134378 0.05162276 0.032518595
0.10191408 0.051035076 0.032595128
0.10330562 0.050810579 0.032655377
0.086883709 0.047118515 0.021571103
0.06901025 0.05068244 0.020072347
0.072168112 0.046865582 0.015249279
0.091547288 0.031415612 -0.001606286
0.14289357 0.016592383 -0.0085702762
0.057547122 0.094150484 0.083192013
0.065582797 0.092597649 0.083455622
0.068403006 0.092085108 0.083522052
0.078821018 0.090115063 0.083866045
0.084104627 0.089117244 0.084013954
0.05442182 0.094761759 0.082171515
0.058273733 0.094051071 0.082282402
0.062137991 0.093270853 0.082410164
0.062625617 0.093206882 0.082429297
0.063203752 0.09312772 0.082444318
0.08495599 0.088946864 0.083121173
0.087213762 0.088534445 0.083195366
0.041740105 0.092096865 0.074018873
0.035679318 0.088318452 0.066872068
0.036777534 0.088168114 0.065977372
0.087331839 0.050586153 0.025492467
0.092137977 0.049708363 0.025648911
0.092472315 0.049624495 0.025656363
0.093531638 0.049412075 0.025689945
0.08470384 0.036043365 0.00054137269
0.090233058 0.0349616 0.00071936566
0.14401951 0.016607836 -0.0094582271
0.055963188 0.094516322 0.080369376
0.059013367 0.093954504 0.081379846
0.059388831 0.093873523 0.081401289
0.082821265 0.089413382 0.082131386
0.085850798 0.088790812 0.082227409
0.088237733 0.088378377 0.081840284
0.088836655 0.088287368 0.081391238
0.09055233 0.088038154 0.081459999
0.052100822 0.095257618 0.080236644
0.055651724 0.094566166 0.080358088
0.042499304 0.091991141 0.073113233
0.043061197 0.09188807 0.073130347
0.044275358 0.091698751 0.072241321
0.1055344 0.054583915 0.034635331
0.10021676 0.048437018 0.024043011
0.088045657 0.05098179 0.022721365
0.09079574 0.05044771 0.0228214
0.092080742 0.050250467 0.02284354
0.09279941 0.050116964 0.022873562
0.096418783 0.049403418 0.022987202
0.097879544 0.049173791 0.023033362
0.075139679 0.050155181 0.01747217
0.0792889 0.049332332 0.017598566
0.087687045 0.047731347 0.017848969
0.064587459 0.0487689 0.013159024
0.077050164 0.046425715 0.013541229
0.082002603 0.045461904 0.013699367
0.088609658 0.038412791 0.0038886988
0.14578898 0.014343422 -0.014652837
0.053203478 0.095067888 0.079368137
0.053935759 0.09495309 0.078467011
0.091535717 0.087892324 0.07963682
0.031000979 0.08501792 0.055021744
0.10239421 0.055309653 0.033616323
0.061809883 0.049679592 0.011211963
0.069121413 0.048294064 0.011438863
0.078593522 0.046555385 0.011730377
0.090585135 0.035665613 -0.0020479951
0.054677375 0.094827689 0.077565275
0.092123359 0.087802447 0.078728944
0.093422934 0.087469265 0.077831142
0.039772838 0.092610411 0.069326967
0.040724047 0.092463702 0.068416022
0.041251749 0.092355676 0.068431005
0.033353791 0.089111991 0.061236881
0.031734452 0.084954642 0.0541141
0.032459743 0.084829725 0.054129627
0.082199961 0.049360011 0.014894007
0.082903326 0.049227446 0.014917749
0.090615585 0.035913631 -0.0029747267
0.077360138 0.095883906 0.084061131
0.080165192 0.095355585 0.084152967
0.048217133 0.096126154 0.075502157
0.049226537 0.095883451 0.075531907
0.050284341 0.0956885 0.074646033
0.050878093 0.095592692 0.074656904
0.052051567 0.095405236 0.074703082
0.042384878 0.092185631 0.067542359
0.034329347 0.089016609 0.060332876
0.035041533 0.088921182 0.060347423
0.035758629 0.088790536 0.060372937
0.033530556 0.084702335 0.053228844
0.088582635 0.055027027 0.023800826
0.093435325 0.054088436 0.02394956
0.045909271 0.056469217 0.012836618
0.07128264 0.051577687 0.013638036
0.090977013 0.036344871 -0.004808052
0.068034366 0.097667389 0.082831658
0.070753008 0.097128704 0.08293134
0.074602962 0.096407741 0.083056338
0.078520492 0.095684834 0.083175972
0.065566882 0.098096654 0.081854425
0.068764836 0.09753897 0.08193963
0.071721017 0.09694168 0.082032464
0.075365901 0.096283875 0.082148135
0.081306487 0.09515278 0.082337633
0.036985785 0.093338236 0.064596467
0.037458226 0.093255118 0.064613886
0.10717817 0.058773886 0.034663904
0.1009029 0.056467447 0.027962241
0.088243619 0.055245716 0.022858687
0.088562615 0.055171534 0.022874005
0.087161586 0.052035775 0.018033527
0.088536754 0.051757008 0.018090222
0.054340616 0.058457181 0.016083971
0.053580508 0.055179678 0.012143254
0.057812914 0.05456353 0.011331316
0.073288023 0.051566191 0.011826631
0.07401295 0.051436316 0.011854167
0.08370629 0.049638413 0.012149445
0.059022933 0.099413499 0.08071056
0.06324105 0.09861441 0.080849446
0.066457421 0.097904064 0.080955997
0.069705509 0.097374246 0.081050307
0.072649509 0.096754558 0.081134729
0.076167367 0.096143961 0.081239626
0.079678059 0.095458172 0.081368312
0.082443655 0.094954565 0.081446894
0.055563331 0.10004878 0.079689391
0.064013422 0.09849374 0.079948373
0.083200201 0.094819956 0.080543034
0.044224501 0.096956596 0.071672402
0.045088232 0.096804999 0.070777953
0.038613707 0.093097188 0.06371922
0.039558411 0.092985593 0.062820703
0.040335178 0.092855327 0.062847532
0.032099105 0.069666952 0.024888314
0.044633888 0.060496606 0.014851672
0.062759429 0.054009553 0.0096410979
0.065300465 0.053308856 0.010654488
0.066173218 0.053319998 0.0097485129
0.069208801 0.052584663 0.010770338
0.071176447 0.052414849 0.0099006221
0.056287892 0.099904165 0.078792028
0.060138151 0.099200279 0.078902021
0.060478091 0.099116966 0.078911811
0.064754896 0.098362319 0.079050481
0.067781284 0.097678848 0.07914187
0.081179306 0.095180109 0.079563804
0.086397871 0.094170801 0.079726204
0.088797808 0.093779169 0.079790473
0.061258398 0.098963574 0.078016773
0.087297551 0.09400332 0.078825638
0.046231627 0.096587814 0.069889173
0.047135696 0.096441023 0.068986893
0.031695336 0.089928761 0.053744573
0.031833142 0.081322864 0.040419772
0.092187807 0.058354076 0.025824837
0.033577651 0.069652714 0.023073325
0.046060443 0.060375951 0.013967149
0.047092333 0.060137577 0.013997907
0.083713554 0.05315005 0.015142777
0.046761811 0.060386933 0.01305346
0.051703855 0.059492014 0.013207193
0.053126097 0.059195243 0.013248642
0.074038848 0.055240534 0.013909418
0.077434704 0.054542877 0.014015982
0.08308354 0.053481188 0.014185403
0.085856646 0.052966524 0.014280322
0.086250767 0.05288979 0.01429135
0.063128233 0.053961858 0.0096447561
0.07086651 0.052480735 0.0098880101
0.062377527 0.054226808 0.008704599
0.067448661 0.053264339 0.0088531114
0.098843008 0.038614091 -0.0041398611
0.14835612 0.016409736 -0.021889335
0.089878783 0.09360683 0.077978164
0.057657734 0.099662796 0.076982051
0.058551684 0.09949711 0.076089479
0.062354468 0.09876512 0.077125505
0.088404164 0.093807839 0.077009879
0.090488508 0.093510091 0.077078268
0.092705995 0.093010537 0.077146977
0.041637301 0.097542264 0.066965431
0.042526662 0.097413048 0.066993371
0.033500597 0.089636713 0.052853737
0.033572763 0.089683801 0.051934477
0.034525603 0.089486495 0.05196698
0.035290718 0.089345418 0.051986661
0.030353419 0.085819066 0.04661601
0.03357631 0.069800578 0.022138873
0.093704909 0.058339845 0.024004146
0.096512258 0.057877708 0.024103016
0.097178936 0.057710644 0.02412275
0.097236902 0.057864141 0.023189809
0.038037896 0.065542251 0.016640715
0.088097602 0.056059971 0.018199647
0.048160702 0.060293511 0.012173617
0.049406022 0.060091611 0.012208551
0.050279081 0.059913576 0.01222405
0.053092718 0.059382528 0.012318311
0.073307648 0.055521589 0.012953586
0.050288126 0.060093772 0.011300344
0.057987764 0.058618464 0.011540612
0.092035487 0.037397746 -0.0094010029
0.055141419 0.10015539 0.075062387
0.055534147 0.10008875 0.075074092
0.059722498 0.09927351 0.075200483
0.091096863 0.093407571 0.07618051
0.092371881 0.093162447 0.07622046
0.050865188 0.10097036 0.073997162
0.05174458 0.10081041 0.074033089
0.056274414 0.099964097 0.074167177
0.091709279 0.093313292 0.075276859
0.093326539 0.092922226 0.075321488
0.043515384 0.097260833 0.066100404
0.044997878 0.097018659 0.065218732
0.035949141 0.093860678 0.058992255
0.036625609 0.093693808 0.059022546
0.036650673 0.093744285 0.058092486
0.03763134 0.093517259 0.058126353
0.031520538 0.085738495 0.044785902
0.032595031 0.085548133 0.044830788
0.1021996 0.057063278 0.022410834
0.04240533 0.065082103 0.014907562
0.089524388 0.056103002 0.0163715
0.057973333 0.058793567 0.010606685
0.06912075 0.056705914 0.010958646
0.081077531 0.054406781 0.011328322
0.090464376 0.040673848 -0.0062367632
0.05246073 0.1006832 0.073128693
0.052940853 0.10059149 0.073136963
0.054277055 0.10034661 0.072246253
0.057361811 0.099748291 0.073273726
0.093613386 0.092911661 0.074399106
0.10577543 0.063904747 0.031723864
0.036876664 0.069702312 0.018517282
0.061561309 0.058276769 0.0097952783
0.070644692 0.056569483 0.010076364
0.080035433 0.054725926 0.010364721
0.066113338 0.057563115 0.0090017943
0.06817802 0.057174809 0.0090682013
0.071332715 0.056603044 0.0091708554
0.08110258 0.054726973 0.0094703119
0.07227803 0.10228668 0.080358446
0.073026553 0.10214762 0.079460457
0.076279998 0.10157923 0.079557471
0.079766661 0.10089218 0.079677917
0.067456812 0.10318874 0.078364916
0.054323375 0.10033798 0.071329109
0.039246559 0.098185569 0.062264562
0.039967038 0.098051138 0.062284771
0.040273428 0.097984642 0.062295791
0.040980816 0.097860731 0.061394449
0.041286379 0.097790807 0.061406355
0.031389423 0.086112738 0.040147785
0.033260837 0.081747912 0.033944901
0.099870697 0.061425321 0.025107227
0.033497617 0.074125826 0.022118498
0.1040427 0.060699534 0.024304185
0.10479319 0.060604632 0.024339091
0.038009666 0.069780454 0.016687147
0.043502904 0.065179646 0.013080725
0.047297388 0.064443432 0.01320074
0.051193669 0.063724741 0.013316316
0.074343547 0.059330881 0.014031311
0.086394891 0.057012886 0.014415391
0.090634927 0.05619891 0.014538499
0.094501004 0.055488821 0.014654669
0.04983975 0.064128518 0.012336478
0.073245652 0.059683561 0.013072225
0.087719731 0.056920372 0.013510229
0.068056032 0.057363532 0.0081344247
0.075552128 0.055985842 0.0083645582
0.081502333 0.054830495 0.0085523408
0.10377997 0.038860299 -0.0086134495
0.10575067 0.035837434 -0.012679041
0.06446109 0.10384189 0.078277491
0.070352793 0.10270097 0.078459494
0.073842727 0.10201682 0.078574538
0.074179761 0.10194919 0.078588806
0.077011988 0.10143647 0.078659065
0.077479109 0.10134158 0.078679964
0.080867089 0.10067652 0.078797199
0.081189498 0.10062423 0.078809753
0.083458677 0.10021476 0.078868642
0.061349839 0.10434546 0.076338574
0.065927044 0.10351913 0.076482564
0.068222985 0.10303976 0.077472702
0.069080412 0.1028834 0.076570213
0.071113423 0.10254696 0.077562071
0.072215721 0.10231781 0.076676004
0.074914053 0.10179383 0.077693827
0.075658664 0.10163783 0.076794684
0.078844458 0.10104705 0.076882392
0.082342565 0.10038961 0.076998241
0.046351731 0.10184611 0.069238342
0.047502801 0.1016582 0.068349205
0.035605289 0.09414313 0.052494865
0.035915479 0.094081566 0.052507162
0.1001465 0.061610259 0.023241837
0.10551704 0.060586825 0.023432506
0.039397433 0.069570914 0.016725987
0.092503786 0.059484545 0.01837234
0.096340835 0.058702793 0.018496342
0.07643529 0.059238944 0.012236983
0.094937935 0.05570405 0.012808442
