# .PCD v0.7 - Point Cloud Data file format
VERSION 0.7
FIELDS x y z
SIZE 4 4 4
TYPE F F F
COUNT 1 1 1
WIDTH 1310
HEIGHT 1
VIEWPOINT 0 0 0 1 0 0 0
POINTS 1310
DATA ascii
0.0038058609 0.10113618 0.024125624
-0.00076346844 0.10319544 0.024639234
-0.0014161542 0.1036096 0.024642026
0.10159823 0.02567789 0.02545861
0.099195197 0.027237047 0.025428958
0.10206857 0.024500009 0.026022388
0.12243774 0.0007629972 0.025674438
0.1218254 0.0011560749 0.025661498
0.0021819845 0.07827387 0.024362842
0.00079425424 0.07830324 0.02495062
0.00025204569 0.078652352 0.024924193
0.0006037429 0.067955114 0.02473506
-0.00060822815 0.06871178 0.024714625
0.090449773 -0.00039478578 0.025736591
-0.00022289157 0.058070537 0.024788385
-0.00078594685 0.058425851 0.024773009
0.089123741 -0.00038686604 0.026343198
0.07411924 -0.00025893957 0.025869993
0.071989208 0.001117134 0.025823969
0.03455358 0.025271051 0.025453879
0.033365916 0.026041811 0.025447166
0.037492692 0.022499718 0.026071928
0.026967607 0.029298931 0.025979109
0.00083240122 0.046144042 0.025703475
-1.3969839e-05 0.04671102 0.025719991
0.058546081 -0.00047993474 0.026306046
0.045566566 -0.00063204952 0.025774268
0.044297457 -0.00064832158 0.026400864
0.0038497373 0.026244737 0.025300244
0.01822542 -0.00073081255 0.025961686
0.0066846311 -0.0016687736 0.026037797
0.0015541837 0.0016779974 0.02603744
0.00096730143 0.0020510666 0.026019216
0.053030133 0.10900654 0.025027972
0.0028123185 0.14143473 0.024543839
0.0018105805 0.14203218 0.024502639
0.048818581 0.11119944 0.025172843
0.046596274 0.11222948 0.025461625
0.0015503913 0.14215964 0.024439499
0.00088038296 0.14169538 0.024997104
0.0028738081 0.12592457 0.025199993
0.0014079288 0.12686107 0.02517993
0.00059577823 0.12830241 0.024663227
-0.0010971203 0.11501591 0.025277641
0.0012093335 0.10101839 0.025219109
0.15403846 0.0016486906 0.027431522
0.15312769 0.0022209212 0.027416503
0.0019664988 0.099643916 0.025775619
0.13791072 0.00051366724 0.026988527
-0.0010795966 0.078650862 0.025515229
0.11874676 0.00054057129 0.027386215
0.11823194 0.00087674893 0.027389869
-0.0001892671 0.066745415 0.025918465
-0.0013934821 0.067516826 0.025918769
0.085973203 -7.2907773e-05 0.027517315
0.085341565 0.00032926176 0.027511597
0.00055702031 0.055845451 0.026003076
-0.00066082925 0.047145765 0.025737386
0.0031448528 0.025061443 0.026598744
0.030172259 -0.00083030015 0.026715413
-0.0010618418 0.019322731 0.026398018
-0.0019991696 0.019933026 0.026406111
0.028890472 -0.00080330484 0.027367081
0.026811395 0.00057835504 0.027386196
-0.00020518154 0.017923921 0.027022682
0.00051975995 0.0099082775 0.026472876
0.014904 -0.00019244663 0.027270576
0.0030512996 -7.3950738e-05 0.026749132
0.0021959022 0.00048692152 0.026743324
0.0015315264 0.00091448054 0.026735751
0.0018391162 0.14020991 0.025548434
4.8667192e-05 0.14128599 0.025440194
-3.6336482e-05 0.14049947 0.026036518
-0.00069944561 0.14084883 0.025942082
0.040200986 0.10094295 0.0261195
6.8470836e-06 0.12685281 0.025707148
0.0007956475 0.12544924 0.026223458
0.029948823 0.094060645 0.026098134
0.00085965544 0.11282865 0.025813637
-0.00043711066 0.11278278 0.026357643
0.10479637 0.032436274 0.027422953
0.13815263 -0.00053293258 0.027561937
0.13630207 0.00067098439 0.027543122
0.13572088 0.0010443237 0.02753034
-0.00072861463 0.089001887 0.026064537
0.13437775 0.0010342672 0.028082913
0.13382246 0.0013862308 0.028072407
-0.00030213594 0.08786083 0.026657091
-0.00087691844 0.088234663 0.026657328
0.088762626 0.019020706 0.027686851
0.10262487 -0.00042604376 0.027590357
0.10129896 -0.00042920094 0.028176127
0.10070325 -1.813937e-05 0.028190168
0.0018165186 0.06459257 0.026557034
0.0012406185 0.064961024 0.026541404
-0.00011178106 0.06496831 0.027128093
-0.00071363151 0.055821829 0.026597263
0.025252312 0.038192987 0.027447704
0.024686467 0.038551636 0.027435068
0.070911109 -0.0007086345 0.027709747
0.037292607 0.020990936 0.027364662
0.030733898 0.025220361 0.027298784
0.069623008 -0.000716154 0.028313389
0.026739929 0.026938334 0.027870627
0.056638855 -0.00090573542 0.027563317
0.053940371 0.00086683035 0.027572872
-0.0015418455 0.036578435 0.026906805
0.05537913 -0.00090306904 0.028210843
0.042460453 -0.001121616 0.027668955
-0.001378648 0.027125619 0.027173039
0.041153245 -0.0010971036 0.028304206
0.015790328 -0.0015476029 0.027965732
-0.00014165044 0.0087358579 0.027808581
-0.015658952 -0.0045271292 0.027655385
0.062718242 0.11361861 0.027309775
0.060715385 0.11487721 0.027248926
0.0013179332 0.13772008 0.027003909
0.0013712421 0.13861328 0.026493249
-1.1511147e-05 0.13958435 0.026561033
0.032620005 0.1031111 0.027637549
0.00081960112 0.12357288 0.027258713
2.4586916e-05 0.11157089 0.026898032
-0.0018114522 0.11279967 0.026923815
0.0014354289 0.10978865 0.027486404
0.0010947436 0.098401308 0.026856659
-0.0015518889 0.10012522 0.026873583
0.002387993 0.085186027 0.02720017
0.001022242 0.085181057 0.027746454
0.086798228 0.019424623 0.028254701
0.00011477619 0.075292751 0.027314769
0.099423505 -4.3001026e-05 0.028780835
0.098125339 -6.1499421e-05 0.029372018
0.097567558 0.00029344531 0.029365005
0.0006383732 0.062747121 0.028328147
0.083437927 -0.00015436829 0.028712802
0.00065034628 0.053210672 0.02780493
2.0258129e-05 0.053622387 0.02780867
0.082153216 -0.00016180407 0.029318893
0.0013960376 0.051895183 0.028451037
0.00061242282 0.042928256 0.02819223
-0.0016387701 0.034971893 0.028194895
0.0018381029 0.031916395 0.028884707
0.00069069117 0.032700181 0.028906535
-0.00051794946 0.033424601 0.028856169
0.03989597 -0.0011028834 0.02894339
-0.00032027066 0.024815265 0.02849301
-0.0015111417 0.025577486 0.028472574
0.027009103 -0.0011751801 0.028708959
-0.00089004636 0.016759183 0.028369604
0.025795542 -0.0011924691 0.02937175
0.003275305 0.01331139 0.029119855
-0.00033605099 0.015590157 0.029050475
0.014242031 -0.0013552234 0.028616857
0.00047020242 0.0075404011 0.028483484
-0.00015250966 0.0079480931 0.028489135
0.0010132156 0.0063834265 0.029160999
0.00040573627 0.0067881681 0.029169336
0.0024506636 -0.0020345263 0.028796325
0.0024291202 0.13608469 0.027538471
-0.00056234002 0.1380533 0.027538147
0.00082204491 0.12180758 0.028368391
0.027691528 0.091919556 0.028251415
0.0014888421 0.10793919 0.0285271
-0.0006332323 0.10930212 0.02852338
-0.0012451112 0.10969071 0.028491851
0.14844638 0.0016836654 0.029595522
0.0017784089 0.096219242 0.028021807
0.0011654496 0.096581571 0.02797321
-0.00013688952 0.096518546 0.028508369
0.0029431805 0.083118826 0.028398683
-0.00027947128 0.085171871 0.028336771
-0.00119818 0.085791253 0.028353784
0.13068482 -0.00012405962 0.030320747
0.12886612 0.001066396 0.030303562
0.12823348 0.0014733858 0.030293457
0.0017357767 0.082998469 0.028923718
0.11268485 0.00095229503 0.029665526
0.11210265 0.0013350006 0.029663177
0.082486525 0.020406742 0.029338302
0.0035668686 0.071302295 0.028514462
0.00082115829 0.073074937 0.028459812
-0.0018585995 0.074807063 0.028445497
0.11384116 -0.00064063352 0.03027923
0.11262731 0.00011511613 0.030252298
-0.00047007948 0.073067576 0.029085852
0.096249066 0.00027880305 0.029952373
0.080886602 -0.00018688809 0.029925603
0.06709291 -0.00075186649 0.029543465
0.06649664 -0.0003714622 0.029538244
0.00050726533 0.042155229 0.028823651
0.065228567 -0.00039564166 0.030152196
0.00056360662 0.03195126 0.029548122
-0.00056418031 0.032649163 0.029506549
-0.0017456189 0.033362519 0.029461073
0.038660713 -0.0011171103 0.029590016
-0.001536116 0.024783473 0.029131807
0.037111696 -0.00093103386 0.030237043
-0.00037116557 0.014812198 0.029713012
0.012125134 -0.0015817024 0.029958783
0.00097175315 0.0055903792 0.029817427
-4.3004751e-05 -0.0019933395 0.030176308
0.0024094284 0.13428399 0.028576424
0.0011091009 0.13421515 0.029078232
0.00039178133 0.13555539 0.028514216
-0.0013930127 0.13672554 0.028514804
-0.00089243054 0.13546848 0.029012712
0.020353571 0.10734414 0.029565062
-0.0011990815 0.12126987 0.029360278
-0.00063415617 0.1075076 0.029618707
0.14763853 0.00041760132 0.030698121
0.14537771 0.0010097623 0.031251013
0.024352193 0.079883933 0.029367816
-0.0022016987 0.096074946 0.029595047
0.12876704 0.00024772622 0.030875163
0.00039369613 0.082970425 0.0294649
0.00085257739 0.070448384 0.030248642
0.094992042 0.00022698287 0.0305408
0.094375521 0.00061941147 0.030534208
0.0016544089 0.060369026 0.029510377
-0.0020382553 0.061904013 0.03010208
0.044233844 0.022592504 0.030149231
0.078882456 -0.00059153757 0.031133531
0.076233789 0.001082727 0.031090297
0.041703075 0.023367036 0.030714668
0.063977771 -0.00043760519 0.030760555
0.0018017441 0.038797379 0.030696223
0.0012454391 0.039596267 0.03041116
3.5695732e-05 0.03999259 0.030757841
0.0020463392 0.030101575 0.030147875
0.00075557083 0.030120257 0.030786505
0.00043801218 0.021903213 0.030499214
-0.00045545399 0.022476032 0.030480906
-0.0010964945 0.022888489 0.030474855
0.034911212 -0.0011454485 0.03152458
0.002452299 0.019762624 0.031141641
0.022456154 -0.00066571869 0.030655421
0.0026002638 0.012137521 0.030455627
0.00074720383 0.013303351 0.030411128
0.022678852 -0.0016013663 0.031340633
0.0025517941 0.011356667 0.031119779
0.0007577166 0.012494512 0.031076308
0.0081499331 -0.00059530511 0.031266991
0.0032184646 0.13101354 0.03010828
0.0017239004 0.13197321 0.030073173
-0.0010286346 0.13374355 0.030072564
0.0016732216 0.11848325 0.029916923
8.7365508e-05 0.11954664 0.029931115
0.00069058686 0.10530594 0.030429706
0.14412487 0.00091769174 0.031794436
0.14345022 0.0013476443 0.031782404
0.091189198 0.00095052808 0.03169049
0.090539657 0.0013634313 0.031675737
-0.00061140209 0.060131945 0.030701617
0.07757967 -0.00061469059 0.031724676
0.0011044443 0.048690733 0.030923426
0.00023953617 0.049256295 0.030904084
-0.0024871677 0.050977796 0.030830033
0.076347925 -0.00067947386 0.032319173
0.046644367 0.018449379 0.031968381
0.039164141 0.023257423 0.031873215
0.037655383 0.024220975 0.031858217
0.036735713 0.024842018 0.031870797
0.035245478 0.025828825 0.031881046
0.034358416 0.02640401 0.031878401
0.022947006 0.033742089 0.031738099
0.016897023 0.037588675 0.031628624
0.048368119 -0.0013414286 0.031997927
0.047818936 -0.00098787434 0.031989377
0.001325056 0.028904516 0.031428184
0.02057147 -0.0010764543 0.031955719
0.0068688504 -0.00056099147 0.031939115
0.00029170513 0.0036276765 0.031837326
0.00036084652 0.13194107 0.030602399
0.0010370314 0.13057864 0.031106932
-0.00095962733 0.13187174 0.03109918
-0.0019250363 0.11904082 0.030977262
0.00092227757 0.11626294 0.031473793
-0.0012000278 0.11762784 0.031485029
0.15795726 0.0026126765 0.032950483
0.025391482 0.088060275 0.031545337
0.024788558 0.088426322 0.03149249
0.0020188242 0.090700507 0.0313312
0.0013607219 0.09111312 0.031299528
0.00013960153 0.091463342 0.031595092
-0.00038363785 0.09225814 0.031326335
-0.0013298318 0.092881761 0.031326286
-0.0022832975 0.082040139 0.031145308
0.12263419 0.00064314157 0.033072706
-0.00039636344 0.080007747 0.031812795
0.10765853 -0.00015520025 0.032542545
0.10680319 0.00040034484 0.03253001
-0.0018958971 0.069603726 0.031956039
0.090691283 -0.00043701939 0.032894988
0.025632098 0.041426908 0.032135051
0.089415699 -0.00047937525 0.033480708
0.088785581 -8.2983868e-05 0.03346144
0.0005697459 0.056789808 0.032531399
-0.00031096488 0.05737111 0.032540143
-0.0012140125 0.057937454 0.032513402
0.052259408 0.014037305 0.032706376
0.047775362 0.016880302 0.032612629
0.045378271 0.018413002 0.032552078
0.043246042 0.019825853 0.032578286
0.024314471 0.03202014 0.032367755
0.017415367 0.036437284 0.032265499
-0.0017697513 0.048864301 0.032115981
0.074329287 -0.001083012 0.033522416
0.048592366 0.015515506 0.033244636
0.044114262 0.018402966 0.033178464
0.038417514 0.022060834 0.033113129
0.034740407 0.024444969 0.033094388
0.020969409 0.033317298 0.032941524
0.060748205 -0.00086608529 0.032614436
0.057355631 0.00050815847 0.033239435
0.000953421 0.036819533 0.032589026
-0.0019307658 0.039571937 0.03197518
0.0022181943 0.035973586 0.032570742
0.045292251 -0.0010360088 0.033231422
0.044715744 -0.00069087185 0.033206329
0.022529665 0.013614131 0.032949399
0.0018708929 0.027745798 0.032063968
-0.0011619404 0.029702853 0.032046534
0.032398369 -0.0011815168 0.032797337
0.0030224621 0.017763369 0.032481566
0.031153474 -0.0011781994 0.033441156
0.019280002 -0.0010571089 0.032606762
0.018074919 -0.0010872968 0.033260867
0.0077588372 -0.0019530468 0.032602515
0.0071838573 -0.001574602 0.032604437
0.00023642555 0.002872549 0.032516178
0.0002390258 0.0020920038 0.033206269
0.017910898 0.13227056 0.032262534
0.016415268 0.13327831 0.032266978
0.0011624098 0.12865341 0.032118503
-0.0003438741 0.11614481 0.031968124
0.001862891 0.10229407 0.031795405
0.0013270006 0.10265296 0.031785652
0.13910276 0.00058018789 0.033954527
0.13789994 0.0013570376 0.033940695
0.137732 0.00057844631 0.034495071
0.017567419 0.078008905 0.033190578
-0.00043775141 0.08961039 0.032964271
0.12132037 0.00061892346 0.033630766
0.12029976 0.00039918907 0.034194306
0.1191283 0.0011706352 0.03419897
0.00030844659 0.077730685 0.032888662
-0.00024478137 0.078096054 0.032885022
-0.0004613176 0.079147272 0.03235364
-0.0017016307 0.07995747 0.032358844
0.076931633 0.017897069 0.033374023
0.1032323 8.516293e-05 0.034244962
0.017747745 0.055189006 0.033336375
-0.0017217621 0.067746162 0.0331381
0.086892597 0.00027090008 0.0340355
0.072463162 -0.00073518464 0.034113351
0.071871005 -0.00035515148 0.03409167
0.070975617 0.0002306099 0.034078266
0.044915386 0.017020004 0.033805154
0.041106589 0.020354278 0.033185877
0.039183162 0.020748122 0.033770744
0.032360855 0.025997592 0.033088591
0.030950479 0.026479248 0.033389088
0.030253965 0.027358778 0.0330703
0.0020063818 0.044662233 0.033304624
-0.0010436624 0.046677724 0.033369519
0.057630785 -0.000530174 0.033839002
0.056110602 0.00046281423 0.033851735
0.025133409 0.011128264 0.033652827
0.042810403 -0.0011253785 0.03445971
0.04215841 -0.0007048212 0.034449395
0.0022646412 0.02502441 0.034013793
0.02990739 -0.0011859983 0.034077674
-0.0010220483 0.018767051 0.033764001
0.016833588 -0.0010996927 0.033904064
0.0042213574 0.0061855614 0.034397501
0.0038021915 -0.00095597655 0.033968814
0.0011601821 0.14124748 0.033100687
0.00056378543 0.12721395 0.033173751
-0.00096608698 0.12820351 0.033135451
0.00093937665 0.11448278 0.032610189
0.16161938 0.0099861771 0.034843396
0.0010553226 0.11348868 0.033118527
0.0015325919 0.11222884 0.033606455
-0.00077299774 0.10221085 0.032853793
0.018086359 0.077683166 0.033209577
0.13583735 0.00090951845 0.035025757
0.13527296 0.0012740158 0.035015624
0.12687495 0.0066650081 0.034909014
0.018022627 0.076847672 0.033759497
0.0062378123 0.084450513 0.03364332
0.0021191612 0.087104291 0.033596829
-0.00059732795 0.088830739 0.033541929
0.11897185 0.00038204715 0.034756891
0.11539211 0.002679945 0.034716874
0.11648689 0.0011011511 0.035301555
0.0010035113 0.075551838 0.03406344
-0.00016085058 0.076277837 0.034038354
0.10061701 6.1914325e-05 0.035408873
0.099735036 0.0006379718 0.035401527
0.080800906 0.012831411 0.035208844
0.00028021634 0.065165207 0.034043804
-0.0010792986 0.065606996 0.034313217
0.08532615 0.0004088959 0.034619898
0.003430672 0.053206969 0.03373035
0.0013249815 0.05458273 0.033743192
0.00077115744 0.054931521 0.03373016
0.083741888 0.0005848076 0.035209801
0.082496248 0.0013885065 0.035194326
0.015336953 0.044644754 0.034429844
-0.00057025254 0.054937001 0.034309633
0.029498219 0.026148237 0.034298725
0.0019225255 0.043869767 0.0339224
0.00068230182 0.044677868 0.033926915
9.2990696e-05 0.045066159 0.033943575
-0.00047781318 0.045436446 0.033943098
0.047414444 0.013728274 0.035076957
0.027287457 0.026699305 0.034861941
0.026407089 0.027251955 0.034836773
0.024602018 0.028401062 0.034817152
0.023406446 0.029178631 0.034796037
0.0081568435 0.038972117 0.03459711
0.055681199 -0.0009316029 0.035093226
0.05507135 -0.00054252893 0.035097677
0.054194875 3.1336211e-05 0.035090446
0.041875944 0.0079898704 0.034966789
0.04091901 -0.00072965212 0.035081223
0.040303685 -0.00033191778 0.035074975
0.033707287 0.0039719213 0.035046849
0.025592435 0.0091716852 0.034913059
0.025065724 0.0095177032 0.034910411
0.0024849102 0.024060678 0.034671519
4.6767294e-05 0.025602177 0.034613725
0.027019802 -0.00010338426 0.034734145
0.0034336559 0.015049644 0.034441337
0.002847068 0.015428528 0.03443677
-0.00080075115 0.017769899 0.034372676
0.027424075 -0.0011820607 0.035388719
0.017530512 0.0051687453 0.035247009
0.014101118 -0.00015766919 0.034534059
0.013185691 0.00042538717 0.034508981
-0.00030916184 0.0091681853 0.034420244
0.014959846 -0.001515476 0.035208266
0.011376653 0.00080972537 0.035166685
0.010724939 0.0012332946 0.035166059
0.00082819164 0.0076165125 0.035078268
0.00025970489 0.007986445 0.035077818
0.0028965063 -0.0011700504 0.034638125
0.0013805218 -0.00018155947 0.034629658
-0.00015240908 0.00078427047 0.034590609
0.0013621561 -0.00097196177 0.035310235
0.00014198571 -0.00017950311 0.035294715
0.0032721534 0.13993509 0.033188377
0.0019674897 0.14035428 0.033451155
0.00077588856 0.14061978 0.033662081
0.00039634109 0.14081547 0.033590779
0.007109426 0.13558093 0.034188211
0.0055589825 0.13658588 0.034180034
0.002913326 0.13826987 0.034121614
-0.00027503818 0.14033498 0.034108326
0.0077918321 0.1206714 0.034197927
0.0024024695 0.12416046 0.034168988
0.0016219839 0.12560713 0.033656023
0.0013434812 0.12578639 0.033656761
0.15414757 0.012964392 0.03578414
0.0023723021 0.11079771 0.034165457
0.0012195855 0.099123709 0.033952881
-9.7081065e-05 0.099957995 0.033952836
0.1515134 0.0013412125 0.036123868
-0.00020334125 0.099132106 0.034490325
0.13337032 0.0015961565 0.035543595
0.018456928 0.075673714 0.034306176
0.012479514 0.079544909 0.034282807
0.00044783205 0.087305747 0.034150574
-0.0001507923 0.087693527 0.034137975
0.12960459 0.0031262711 0.03604833
0.12064482 0.0088753207 0.035937279
0.013835959 0.077750735 0.034812234
0.0081253648 0.081417821 0.034741987
0.0034024119 0.084465802 0.034681026
0.1149162 0.0012170346 0.035853669
0.11355557 0.0012220107 0.036413468
0.11264613 0.0018076207 0.036400374
0.10996932 0.0035279151 0.036359739
0.012201585 0.066581585 0.035333488
0.012338169 0.067368634 0.034773804
0.0058947727 0.070642948 0.035286903
0.0038712397 0.072815999 0.034664217
0.00083305687 0.074367635 0.034971386
0.09844999 0.00058652461 0.035972212
0.094490327 0.0031260811 0.035920009
0.081341363 0.011590445 0.035766128
0.015040152 0.054355189 0.035105187
0.014401108 0.054760363 0.035102669
0.012312375 0.056125481 0.03506149
0.0072405487 0.05938061 0.034996241
0.0030452088 0.062081315 0.034947746
0.00065533072 0.063621454 0.034931861
1.7143786e-05 0.064035892 0.03493185
0.081240319 0.0013289595 0.035777591
0.061441999 0.014060435 0.035553265
0.015888989 0.043402251 0.035021756
0.011357673 0.046400003 0.035043228
0.0017734766 0.052543171 0.03489643
0.00020754337 0.053574473 0.034913864
0.079978749 0.0012778655 0.0363602
0.079067394 0.0018504489 0.036345743
0.07752382 0.0028484932 0.036310203
0.076335952 0.0036260709 0.036301173
0.07213109 0.0063301213 0.036256861
0.071570233 0.0066978335 0.03625891
0.070962161 0.0071109198 0.036273733
0.017577276 0.041506179 0.03568501
0.016977005 0.041873127 0.035665542
0.00018423796 0.052705429 0.035476483
0.068055347 -0.00043181237 0.035895307
0.067444354 -4.1549094e-05 0.035885945
0.066864967 0.00032232516 0.035873916
0.065911449 0.00093945209 0.035865452
0.060850844 0.0042415671 0.035859264
0.050051574 0.011208631 0.035745714
0.023364823 0.028355941 0.035422634
0.011341453 0.036102153 0.035267711
0.064385943 0.0010774434 0.036473919
0.063760161 0.001479717 0.03646636
0.062575929 0.0022648107 0.036471438
0.054203719 0.007639803 0.036372468
0.052671142 0.0086199827 0.036358055
0.051740535 0.0092196502 0.036347982
0.050544046 0.010008093 0.036326379
0.0086147562 0.03702537 0.035867691
0.0080574676 0.03777374 0.035533138
0.0068994388 0.038954008 0.035216559
0.00048624724 0.042253982 0.035766017
0.052909676 2.4923123e-05 0.035705809
0.0093520805 0.028072286 0.03520292
0.051912382 -0.000167666 0.036327522
0.051322736 0.00020472705 0.036311869
0.036691483 0.0096040182 0.036116209
0.036017045 0.010029936 0.036103424
0.0063148588 0.029159281 0.035760313
0.0030256957 0.031287063 0.035738293
0.00035365671 0.033016585 0.035724122
0.038435597 4.8141927e-05 0.035701767
0.034243226 0.0027967058 0.035690192
0.027682412 0.0069711059 0.03557805
0.036753971 0.00029518828 0.036325585
0.035675514 0.00099880993 0.036313258
0.034756768 0.0016028322 0.036298193
0.034155328 0.0020186696 0.036320508
0.029099714 0.0052446593 0.036237575
0.017949942 0.012393896 0.036084294
0.017423216 0.012730502 0.036077678
0.0089648031 0.018213335 0.036018714
0.0062567666 0.019952126 0.035980675
0.0056608468 0.020330429 0.035953376
0.0017763078 0.022858433 0.035944026
0.024722718 -0.00026262552 0.036019024
0.022000462 0.001456799 0.035948627
0.017448787 0.0044014119 0.03589939
0.0076005422 0.010749295 0.035801195
0.0063594915 0.011555448 0.035799153
0.0018477812 0.01444187 0.03573234
0.00060476363 0.015231304 0.035720393
0.012218185 -0.00055529177 0.035847265
0.00082384422 0.0068136491 0.035743661
0.0043995529 0.0036807433 0.036422569
0.0034535602 0.0042657144 0.03639324
0.0013564602 0.0056374483 0.036391776
0.011231668 0.14646362 0.035028413
0.00044182688 0.1399363 0.034167454
0.0034365728 0.13699397 0.034596242
0.0014793575 0.13828829 0.034626883
0.00067327917 0.13885966 0.034676217
0.0070315972 0.13376474 0.035152595
0.0084942654 0.11935695 0.034787506
0.0045965686 0.12187424 0.034751166
0.0010261759 0.12416268 0.034695551
-0.0008091107 0.1253418 0.034681868
0.0014320612 0.12294547 0.035183437
0.0073378906 0.10669563 0.034739964
0.0052394047 0.10803965 0.034706242
0.00073800236 0.11093742 0.034661729
0.14566337 0.0042253342 0.036611263
0.14375681 0.0045510791 0.037127033
0.022397645 0.083655745 0.035238069
0.021083243 0.083633445 0.035817243
0.020155326 0.084248677 0.035841562
0.018688574 0.085158259 0.035768744
0.0085957572 0.092593879 0.03515638
0.0033828244 0.095036283 0.035615042
0.0012680367 0.096355282 0.03554881
0.13103285 0.0013310593 0.036630943
0.12835076 0.0030315313 0.036592741
0.12675932 0.0040687025 0.036570691
0.12414163 0.0057370346 0.036546625
0.00087652355 0.085210487 0.035228174
0.12971386 0.0012991354 0.037179504
0.0088088512 0.079231575 0.035892963
0.11228109 0.0011625132 0.0369706
0.11136595 0.0017537624 0.036959488
0.10866314 0.0035164654 0.036937959
0.0078480914 0.068502814 0.035875872
0.0058018342 0.069826752 0.035850953
0.002159588 0.072145052 0.035770059
0.00098793209 0.072933674 0.035802256
0.097116403 0.00057999603 0.036550451
0.096571602 0.00092048105 0.03654423
0.093227044 0.0030682599 0.036494017
0.088124156 0.0063370168 0.036433887
0.084841996 0.0084663182 0.036387984
0.081852682 0.010388249 0.036360826
0.08004307 0.011575356 0.036358524
0.072851554 0.016180478 0.036262743
0.010134146 0.056626879 0.035592385
0.0086356923 0.057585835 0.035573762
0.0044259429 0.060331102 0.035567794
0.00084481388 0.062617183 0.035524465
0.0952501 0.00090527395 0.037116483
0.091896206 0.0030499883 0.037066214
0.09016341 0.0041798772 0.037056837
0.089520678 0.0045986203 0.037052885
0.088624649 0.0051586898 0.037031706
0.083530299 0.0084386179 0.036956545
0.082659297 0.0089889932 0.036941405
0.081715018 0.0096046105 0.036935549
0.080526918 0.010371189 0.036931202
0.018180817 0.050569702 0.036272459
0.014817193 0.052723575 0.036226701
0.011560291 0.05485535 0.036217075
0.00073283911 0.061819885 0.036105342
0.072655044 0.0051329043 0.036865696
0.072036847 0.0055309576 0.036862131
0.067844197 0.0082749212 0.03686069
0.066689231 0.0090083769 0.036835942
0.062486373 0.011685053 0.036770299
0.060978636 0.012655144 0.036754262
0.052294083 0.01825037 0.036643431
0.050496545 0.019406013 0.03662939
0.02767678 0.034154192 0.036424328
0.019603774 0.03929748 0.036267769
0.018958598 0.039727889 0.036270618
0.017454296 0.040747602 0.036304552
0.0024843737 0.050397869 0.036149614
0.00096274912 0.051361863 0.036110487
0.059529927 0.0042433981 0.036458958
0.064917833 -0.00012260862 0.037079893
0.064267181 0.00030184723 0.037076801
0.058299635 0.0041858787 0.037056409
0.057693802 0.0045684865 0.03704593
0.055282731 0.0060796728 0.036983099
0.050505422 0.0091747958 0.036939874
0.0085274652 0.036262736 0.036506906
0.0021940544 0.040350664 0.03645809
0.00073177367 0.041269898 0.036413036
0.049772114 0.00036102906 0.036919996
0.048850819 0.00093126483 0.036894996
0.047986701 0.0014661271 0.036864039
0.044667736 0.0036228523 0.036845766
0.0434568 0.0043823104 0.036824804
0.042862393 0.0047842488 0.036822058
0.042265851 0.0051761549 0.036812175
0.041366361 0.0057859644 0.036826968
0.037148815 0.008478988 0.036765847
0.036601096 0.0088300854 0.036751602
0.0092380121 0.026462667 0.036458723
0.0086514428 0.026844762 0.036448449
0.0014036149 0.031516392 0.036378261
0.00085087121 0.03189835 0.036390547
0.029040053 0.0044604875 0.036887459
0.0017316714 0.022057403 0.036585912
0.022820655 -0.00028160028 0.036958314
0.011063021 0.006870497 0.037133828
0.010157876 0.007423874 0.037098736
0.0087015294 0.0083550811 0.037077252
0.0081224218 0.0095833205 0.036452416
0.0023461692 0.012506768 0.037062589
0.0023869239 0.013281289 0.036398474
0.0091081224 -0.00014084578 0.03715175
0.0055049323 0.0021932721 0.037138294
0.0049090162 0.0025728531 0.037125353
0.0043225251 0.0029458702 0.037107024
0.0019557588 0.0044197887 0.037044533
0.0087398961 0.13174839 0.035694499
0.0078179091 0.1323404 0.035669792
0.0025013611 0.13574451 0.035601307
0.0011164173 0.1366393 0.035582174
0.0075999424 0.118123 0.035833959
0.0046588033 0.11995874 0.035737626
0.0085581541 0.10407626 0.035810117
0.0022545829 0.10814751 0.03574264
0.0013688132 0.10873429 0.035762142
0.00073669106 0.10913279 0.035744332
0.15385222 0.0095315445 0.037910718
0.15322614 0.0099383667 0.037897319
0.02764032 0.090847753 0.036506157
0.0092971921 0.10269681 0.036337003
0.0056933016 0.10502569 0.036289886
0.0035625547 0.10639615 0.036281671
0.0027324855 0.10692641 0.036267359
0.0021253005 0.10732821 0.03626667
0.14633232 0.0020096954 0.037718244
0.1436111 0.0037468486 0.037674487
0.14239579 0.004534008 0.037650641
0.14033198 0.0058624092 0.03762472
0.021527149 0.082415491 0.036319237
0.0092733875 0.090341613 0.036227934
0.0077155754 0.091359988 0.036225211
0.003300488 0.094183899 0.036156945
0.0011509582 0.095565595 0.036127433
-0.00097043812 0.096908115 0.036084879
0.14499152 0.0019584969 0.038235832
0.14111318 0.0044549648 0.03817483
0.014512643 0.086044922 0.036797371
0.0091398507 0.089508876 0.036748573
0.0031491444 0.093372568 0.036695614
0.00099245459 0.094778568 0.036682133
0.12839589 0.0012470726 0.037716623
0.12630127 0.0025717765 0.037678424
0.12053526 0.0062925387 0.037623581
0.017093897 0.072999313 0.036546003
0.0066574067 0.079688758 0.036380071
0.0038581491 0.081539571 0.036404449
0.00032470375 0.083759099 0.036311172
0.12704906 0.0012146384 0.038251057
0.12646757 0.0015810523 0.038241189
0.12408884 0.0031242948 0.038222387
0.12134284 0.0048762541 0.038185813
0.0011338294 0.082377777 0.03689342
0.10675666 0.0038811509 0.037499532
0.10557137 0.0046358434 0.037487786
0.012851119 0.064414293 0.036517601
0.0024028197 0.071125053 0.036383316
0.00086567551 0.072102524 0.036321688
0.10934936 0.0012968695 0.038081333
0.10548948 0.0038128989 0.038056131
0.016393833 0.06120865 0.037062783
0.012749597 0.063603744 0.037092116
0.0085617453 0.066264376 0.037019044
0.0049707368 0.068602324 0.036977667
0.090654179 0.0029691658 0.037633356
0.070836186 0.015739795 0.037412599
0.016827017 0.050549343 0.036821209
0.0057308003 0.057734065 0.036741793
0.0035889 0.05913683 0.036739171
0.0015142485 0.060445134 0.036677126
0.0006660074 0.061000533 0.03668398
0.027855385 0.042537905 0.037508566
0.015580125 0.050481096 0.037374754
0.001405783 0.059626587 0.037246179
0.073761635 0.0035582054 0.03747426
0.073182091 0.0039229668 0.037462842
0.072541252 0.0043418687 0.037456729
0.065382838 0.0089813117 0.037420407
0.064764574 0.009362964 0.037400596
0.064230129 0.0096837515 0.037374727
0.054948755 0.015721329 0.037320606
0.053728864 0.016489938 0.037285574
0.04684158 0.020930644 0.037190836
0.026325438 0.034162898 0.037010949
0.01766631 0.039705232 0.036863871
0.0099092051 0.044761591 0.036841471
0.00085014105 0.050576836 0.036718771
0.077007718 0.00059362384 0.038119718
0.062881127 0.0096944887 0.037955604
0.06227307 0.010089981 0.037948504
0.053621143 0.015703021 0.037886873
0.030139267 0.030802757 0.03761138
0.02837136 0.031940222 0.037572071
0.024461709 0.034478139 0.03755556
0.023103949 0.035359874 0.037538622
0.016625591 0.039535075 0.037475724
0.0097654313 0.043972053 0.037416808
0.0071125031 0.045652781 0.037346065
0.0043595508 0.047431417 0.037341602
0.0022929311 0.048791356 0.037358064
0.0016958416 0.049179915 0.037334338
0.06267406 0.00047896989 0.037680797
0.062077932 0.0008622678 0.037667587
0.056126289 0.0047029983 0.03762532
0.055254415 0.0052463599 0.03759934
0.044663239 0.01125537 0.038115516
0.0098445043 0.033646125 0.03769305
0.0098950863 0.034479391 0.037092421
0.0021529794 0.03950423 0.03704036
0.0091816634 0.025672935 0.037094388
0.036474176 0.0072429329 0.03801867
0.0016575903 0.029636528 0.037594583
0.028943978 0.0036943145 0.037526514
0.019052688 0.010081742 0.037426196
0.018466573 0.010454182 0.037407521
0.0084916651 0.016873058 0.037309665
0.0016240105 0.021317225 0.03724673
0.029540084 0.0024993233 0.03818766
0.028935246 0.0028772019 0.038168494
0.019653469 0.0088687912 0.038080256
0.018988349 0.0092985593 0.038072787
0.0090791918 0.015689339 0.037971385
0.0084815174 0.016054634 0.0379484
0.0016099885 0.020503148 0.037902933
0.012223244 0.005333636 0.037832774
0.0023103431 0.01172433 0.037732385
0.0060598589 0.0010163635 0.037809554
0.0055292659 0.0013715327 0.037805624
0.0072594099 -0.00055993348 0.038465485
0.0066281892 -0.00014994666 0.038470697
0.010375246 0.14430916 0.036564767
0.0087824017 0.12986067 0.036671065
0.0054363385 0.13202959 0.036632497
0.003901422 0.13302529 0.036639661
0.0024346933 0.13397588 0.036636252
0.0070664436 0.13003615 0.037170429
0.035810053 0.098078951 0.037122108
0.0046673864 0.11811975 0.036729448
0.0021996424 0.11974113 0.036783062
0.00068312883 0.12073107 0.036762793
0.013759822 0.11135785 0.037384346
0.011722393 0.11267719 0.037354037
0.0074566379 0.11541524 0.037313443
0.0030225664 0.11824428 0.03723608
0.02746135 0.090066597 0.037053674
0.0026864782 0.10513948 0.037331957
0.14294997 0.0014675204 0.039289527
0.13826652 0.0053983498 0.038686164
0.020878345 0.080147147 0.03797945
0.019638531 0.080947906 0.037944485
0.0082773268 0.088234946 0.037790991
0.00613451 0.089683697 0.037840057
0.0029409453 0.092141427 0.037478048
0.12277529 0.0030849837 0.038771648
0.11855398 0.0057929801 0.038715139
0.010892518 0.075202018 0.037584826
0.0087600127 0.076572537 0.037530083
0.0072727725 0.077575281 0.037587281
0.0030639023 0.080251418 0.03748842
0.00096680224 0.081612572 0.037474137
0.11721256 0.0057706013 0.03925341
0.017056182 0.070338301 0.038210928
0.015577331 0.071303502 0.038193647
0.013986528 0.072324023 0.038163025
0.010787912 0.074371204 0.038133673
0.0050589889 0.078060716 0.038055375
0.1080499 0.0012479033 0.038627237
0.10327837 0.0043486077 0.038608164
0.01501704 0.06123982 0.037656032
0.013549365 0.062185511 0.037643667
0.0063818619 0.066810116 0.037572257
0.0015623495 0.069902733 0.037517473
0.015548646 0.059988718 0.038192924
0.013491131 0.061340258 0.038219843
0.0092666224 0.064044416 0.038136672
0.007750757 0.065032773 0.038151916
0.0041219145 0.067381904 0.038102858
0.0020136386 0.068731546 0.038096644
0.090709455 0.0012103263 0.038810275
0.013305739 0.0510782 0.037943918
0.010019571 0.053230654 0.037956476
0.0078922734 0.054592006 0.037922032
0.0064661726 0.055495672 0.037881635
0.0049748123 0.056483541 0.037909124
0.0027919784 0.057898864 0.037893396
0.018067449 0.047142293 0.038569283
0.017481074 0.047540661 0.038606144
0.0099306703 0.052412879 0.038561959
0.0026745945 0.05710011 0.038461115
0.073753886 0.00097617228 0.039260559
0.056797042 0.012779475 0.038501523
0.054341387 0.01353942 0.039111145
0.054036714 0.013730323 0.039101139
0.031877864 0.028841272 0.038236327
0.029080927 0.029766649 0.038793832
0.026740711 0.032134559 0.03815138
0.0099178106 0.042116784 0.038559191
0.009730354 0.043105997 0.037968513
0.0069875568 0.044871453 0.037949968
0.0042360201 0.046208743 0.038212616
0.0021117553 0.047193132 0.038557518
0.044587769 0.010464843 0.038740672
0.002262488 0.037704717 0.038225308
0.0013771877 0.038283288 0.038215574
0.030333914 0.018741064 0.039141506
0.0090828761 0.032431845 0.038918607
0.0028034598 0.03649085 0.038848739
0.036703199 0.006267814 0.03866059
0.0083997622 0.024508014 0.038364321
0.0027152449 0.02812821 0.038241096
0.0021796077 0.028453484 0.038226485
0.0015147775 0.028870672 0.038210612
0.037511714 0.0049151592 0.039298084
0.027593654 0.011294367 0.039178703
0.0086661652 0.023490801 0.038976017
0.0044340715 0.02618679 0.038891196
0.0027013868 0.02729664 0.038860131
0.031160187 -0.00020501018 0.039481547
0.03067052 0.00095811114 0.038854241
0.029461991 0.001734646 0.038845919
0.024596363 0.0039921813 0.039382614
0.023703899 0.0045646485 0.0393738
0.023099978 0.0049563572 0.039367404
0.021911081 0.0057269223 0.039338607
0.019511841 0.0072974116 0.039354403
0.01952349 0.0081108566 0.038717356
0.013473153 0.011135772 0.039235871
0.0089889392 0.01450472 0.038939718
0.0032425076 0.01775733 0.039167378
0.0033203736 0.018526208 0.038500722
0.01756591 0.00062262267 0.038840845
0.016979121 0.001410054 0.038507726
0.015127432 0.0017776899 0.039106701
0.013365649 0.0033608451 0.038807321
0.01276169 0.0041540302 0.038485657
0.01218453 0.004532937 0.038487148
0.0027920939 0.0097708404 0.039035868
0.0022094212 0.010962859 0.038382046
0.014253989 0.1398703 0.037508219
0.00921648 0.14317358 0.037510343
0.00753171 0.14375272 0.037683655
0.009477742 0.1420082 0.037919194
0.0069401935 0.14367765 0.037947968
0.0094355643 0.12664135 0.038161051
0.0087429732 0.12804459 0.037670717
0.0030153841 0.13173661 0.037604149
0.0073314011 0.11458119 0.037833419
0.0052087307 0.116 0.037866667
0.0087261349 0.11279038 0.038392041
0.0029677004 0.11648411 0.038284115
0.15145895 0.0074453112 0.039995324
0.0018740296 0.10385662 0.038378522
0.13832875 0.0035379715 0.03976354
0.13617939 0.0049448814 0.039745152
0.1335234 0.0066276677 0.039699592
0.019571431 0.080094762 0.038507231
0.0096823424 0.086467966 0.038375475
0.13491821 0.0048461724 0.040272716
0.13072437 0.0075482354 0.040232189
0.0074785575 0.08695589 0.038877584
0.0032249689 0.089765899 0.03890603
0.12073254 0.0026233215 0.039867256
0.0079389438 0.075310156 0.038623407
0.0064061284 0.076348305 0.038686026
0.0099225864 0.07314688 0.039239589
0.10096642 0.0040800157 0.039723288
0.10032159 0.0044994052 0.039723888
0.015734546 0.059011508 0.038795963
0.011197999 0.061947282 0.03876907
0.0091025084 0.06327749 0.038715921
0.0019591823 0.067899421 0.038660794
0.015602477 0.058219977 0.039376054
0.014454305 0.058939595 0.039329492
0.0048302561 0.065171465 0.039278761
0.066827863 0.014846603 0.039718125
0.065668449 0.015576932 0.039704598
0.025154956 0.041672558 0.039229278
0.019176558 0.045544695 0.039180763
0.01797457 0.046324976 0.039145842
0.01184912 0.04939289 0.039661475
0.02599556 0.030888684 0.039334215
0.018794499 0.035524234 0.039253395
0.010077618 0.041149292 0.039181381
0.0062377155 0.043667551 0.039180934
0.07182759 0.00051218038 0.040452223
0.065216891 0.0047814669 0.040415939
0.064649597 0.0051609548 0.040414937
0.046983063 0.016500609 0.040188458
0.028317697 0.028542612 0.039989598
0.0034359619 0.044567544 0.039688189
0.044489928 0.0096916854 0.039371628
0.0063379854 0.034271572 0.038939081
0.039343391 0.012110129 0.039881676
0.0089931712 0.031653728 0.039529361
0.0062708929 0.033423137 0.039514728
0.0033257306 0.03528614 0.039454069
0.042246673 0.00098479353 0.039951168
0.032335822 0.007366376 0.039828695
0.029921442 0.0089145321 0.039789088
0.029335603 0.0092906859 0.039766889
0.028752621 0.0096917562 0.039787143
0.0088546798 0.022495382 0.039561186
0.0043979883 0.025390822 0.039539475
0.0031974092 0.026138097 0.039498314
0.021825392 0.0049452242 0.039969731
0.019408766 0.0065350998 0.03998531
0.010138538 0.012510631 0.039893165
0.0089234225 0.01330233 0.039895117
0.0044114366 0.016175665 0.039806534
0.0032211021 0.016936738 0.039804589
0.005098097 0.0065906681 0.040309876
0.0059202313 0.14336187 0.038359199
0.0091714934 0.14032002 0.038865995
0.0051440075 0.14291637 0.038819987
0.011681512 0.12428187 0.038705047
0.010212749 0.12526013 0.03871813
0.0039530024 0.12927532 0.038614012
0.0064578056 0.11331126 0.038840096
0.0028368309 0.11568125 0.038843416
0.032678746 0.095490232 0.039624341
0.014117487 0.10745253 0.039458178
0.0093059763 0.11056525 0.039388433
0.02584558 0.086615048 0.039734751
0.012195289 0.096266299 0.038968179
0.011633307 0.096625358 0.038973216
0.0097167119 0.096974775 0.039514672
0.13630158 0.0030574314 0.040831439
0.011507362 0.083475821 0.039457332
0.11869073 0.0021399129 0.040947933
0.11450863 0.0048301788 0.040887538
0.0141505 0.069544204 0.039851896
0.098326415 0.0040163738 0.040831637
0.0119166 0.059723105 0.039923973
0.090385437 0.0082279779 0.041306004
0.017181128 0.055450838 0.040562328
0.01631885 0.056000412 0.040549904
0.08561372 0.0018935945 0.040523972
0.082016334 0.0041787829 0.040457681
0.073654138 0.0096015017 0.040405426
0.015441239 0.047137365 0.039785888
0.014815763 0.047547013 0.039785314
0.0091025308 0.051216964 0.03972549
0.0064033717 0.052959822 0.039678186
0.080118619 0.0045416947 0.041012712
0.073529236 0.008807376 0.040987287
0.071120322 0.01037359 0.040962547
0.065721445 0.013818677 0.040876471
0.063331716 0.015358913 0.040852133
0.019020043 0.043873347 0.040321585
0.066341579 0.0031815106 0.040995024
0.065099888 0.0040049534 0.041015565
0.056728706 0.0093727307 0.040901091
0.053109229 0.011746654 0.040886827
0.018603865 0.033931594 0.040457908
0.016859617 0.035056252 0.040429309
0.005416289 0.04249312 0.040389717
0.053922184 0.0018995991 0.04068438
0.044335887 0.0080935974 0.040591281
0.011303425 0.029341556 0.040183309
0.010387868 0.029913817 0.040158253
0.052624829 0.0018777475 0.041282769
0.050206192 0.0034006527 0.041218895
0.049621433 0.0037842952 0.041218847
0.048723087 0.0043687206 0.041219212
0.037349731 0.011690695 0.041083459
0.0034376085 0.033572216 0.040731087
0.04031343 0.0013930518 0.04056428
0.031061493 0.0073510669 0.040446889
0.010333337 0.020701014 0.040227834
0.010543562 0.019729115 0.040850841
0.025338046 0.0018729642 0.04069005
0.014757521 0.0078740902 0.041218784
0.013069708 0.0097321421 0.040509932
0.011200152 0.010126129 0.041141931
0.010665584 0.011337172 0.040533658
0.0049126074 0.015028562 0.040461935
0.0097435191 0.13902298 0.039377864
0.0049068779 0.14220324 0.039381534
0.0044279918 0.14247382 0.039340902
0.0070826933 0.12448591 0.040144898
0.03256578 0.094635621 0.040116049
0.010633901 0.108795 0.039928719
0.0070532933 0.1111026 0.039908774
0.0034787804 0.11340043 0.039835639
0.026641831 0.085144296 0.040191621
0.011382401 0.094984785 0.040039409
0.023803458 0.086120546 0.040774021
0.0231838 0.086497262 0.040727168
0.019352004 0.076651894 0.040677026
0.0078892633 0.084062181 0.040577479
0.01685638 0.066921204 0.040439513
0.015598886 0.067266069 0.040671859
0.015012309 0.055966254 0.041090041
0.014418855 0.056354579 0.041089576
0.013772137 0.056771226 0.041078907
0.078214101 0.0048991535 0.041583307
0.071643189 0.0091670193 0.04155561
0.06623476 0.012611431 0.041459702
0.020208076 0.041446202 0.041576426
0.019673899 0.0417918 0.041568149
0.018136375 0.042704228 0.0414926
0.011046015 0.048172832 0.040829159
0.0083488896 0.04994449 0.040864207
0.057861 0.0077759251 0.04150572
0.057245828 0.0081737973 0.041499592
0.046556592 0.0049089678 0.041810181
0.020427816 0.012503352 0.041554201
0.030875802 0.092973717 0.041656572
0.010493368 0.093765095 0.041114807
0.019641817 0.074663512 0.041766528
0.11053102 0.0047657751 0.042542771
0.016300194 0.065516621 0.041562505
0.093208857 0.0046653319 0.042487763
0.018094994 0.05217107 0.042202786
0.059451222 0.015295158 0.042595454
0.058231503 0.01608514 0.042591259
0.025835473 0.036918767 0.042185634
0.022845268 0.038818374 0.042137608
0.059316713 0.014494673 0.043166328
0.016552836 0.075754851 0.042280518
0.017029703 0.074553639 0.04281494
0.015398361 0.063861296 0.042928793
0.015126601 0.052336436 0.043346751
0.019026503 0.039551016 0.043274079
0.018169574 0.029943362 0.0434926
0.02050256 0.071397483 0.04339622
0.01614479 0.073319249 0.043881871
0.015495136 0.061565682 0.04432245
0.014850356 0.061978545 0.044311032
0.070591852 0.015710883 0.044524167
0.068621129 0.016102649 0.045081243
0.016737394 0.049535777 0.044495918
0.015373662 0.051288627 0.043892339
0.013571255 0.05247853 0.043927245
0.019408301 0.027382314 0.044654671
0.013974547 0.011643004 0.045269761
0.022722065 0.079501197 0.044936903
0.020380422 0.06877704 0.045000136
0.019223176 0.069541842 0.045000203
0.016818151 0.071092635 0.044999618
0.01624091 0.07146278 0.044984277
0.015548527 0.059726138 0.045393411
0.016659833 0.048738468 0.045106634
0.014849298 0.049861304 0.04501947
0.014752991 0.049055956 0.045611262
0.030429523 0.029598758 0.045168802
0.021136239 0.03557856 0.045046639
0.027901329 0.030355662 0.045740511
0.020678133 0.079004571 0.045969188
0.020564601 0.067790039 0.045591392
0.018201865 0.069298953 0.045536503
0.014198408 0.059713501 0.045946851
0.096850991 0.069819331 0.047061436
0.018100739 0.066676855 0.047182143
0.014818758 0.057543002 0.047081824
0.017833821 0.045301884 0.046771474
0.01720576 0.045709971 0.046764493
0.019566961 0.043268889 0.047355838
0.01835002 0.04407575 0.047356863
0.017660759 0.0445306 0.047361787
0.015932269 0.045656487 0.047333296
0.01527679 0.046106763 0.047373567
0.097224392 0.068601146 0.047484435
0.095531985 0.069738239 0.047549069
0.098915786 0.066578172 0.048020747
0.097438455 0.067534268 0.047997899
0.019802481 0.075954892 0.048070338
0.016121253 0.054928105 0.048241965
0.019421011 0.042509615 0.047948077
0.018217467 0.043259133 0.047906924
0.020019326 0.031968657 0.047992457
0.025040988 0.027840301 0.048634466
0.097614676 0.066479586 0.04849346
0.019637495 0.075152487 0.04858559
0.019460402 0.074356675 0.049117584
0.014511473 0.055083711 0.048760977
0.021261171 0.039565206 0.049105003
0.032162338 0.022410911 0.04930583
0.021910191 0.02900096 0.049168076
0.019571371 0.061192136 0.049852747
0.016578272 0.063155301 0.049861722
0.018042348 0.050101757 0.050432164
0.017283134 0.051469162 0.049833473
0.016639329 0.051896486 0.049849797
0.02186336 0.036538973 0.050816555
0.096452318 0.078741372 0.050202567
0.095818333 0.079169378 0.050208677
0.093764298 0.0805481 0.050235964
0.093174629 0.080892377 0.050201997
0.092278406 0.081433691 0.05016835
0.093682006 0.078673638 0.051119886
0.090590492 0.081565887 0.050600775
0.090010449 0.081965148 0.050615728
0.089317188 0.082428202 0.050621197
0.088013403 0.082328498 0.051052939
0.09812104 0.060592934 0.051434275
0.017990023 0.059530877 0.051483758
0.016104124 0.061205003 0.051216066
0.014475532 0.062712453 0.050934404
0.016776554 0.050026681 0.050956972
0.017258085 0.048849251 0.051559679
0.094288193 0.076368377 0.05205119
0.097986802 0.059754163 0.051912565
0.024011515 0.043606039 0.052185573
0.023410901 0.0439738 0.052166127
0.017724037 0.04769171 0.052158248
0.017101541 0.048083071 0.052135967
0.013177104 0.050575983 0.052063338
0.10049193 0.070535086 0.053072099
0.098133318 0.072051555 0.053064037
0.09566889 0.073632494 0.053015839
0.094781496 0.074197449 0.0529976
0.02370365 0.078372955 0.052375961
0.021359652 0.043478154 0.053226173
0.017202832 0.046217892 0.053229511
0.018233836 0.044635329 0.053762272
0.017677672 0.044996075 0.053740576
0.017070554 0.045393676 0.053741936
0.030083943 0.027731061 0.053219467
0.028789252 0.027684115 0.053778179
0.017834418 0.035593852 0.053057376
0.016460314 0.035589136 0.053605203
0.014490753 0.037820023 0.053081803
0.097913295 0.071278967 0.053555004
0.096750937 0.072001427 0.053514622
0.096130252 0.072411016 0.05350934
0.019821212 0.079030991 0.053362414
0.020297371 0.07779558 0.053870767
0.019894175 0.054694299 0.053678196
0.015375085 0.057625405 0.053634305
0.015831418 0.05645746 0.054203935
0.015220143 0.046634503 0.053801786
0.018161155 0.043788724 0.054324687
0.033211265 0.023979763 0.054418366
0.029393632 0.026427057 0.054367043
0.035184976 0.0217859 0.054964606
0.031866293 0.023972582 0.054980379
0.091569766 0.087813996 0.055024799
0.088856183 0.089533277 0.054934997
0.088187121 0.089972824 0.054948241
0.098154828 0.067319028 0.0553873
0.097551458 0.067707852 0.055359583
0.018167965 0.077341929 0.05488405
0.017109014 0.065888971 0.054915078
0.016466871 0.054230493 0.055314157
0.01590617 0.054591883 0.055300925
0.013770334 0.055965737 0.055254519
0.01803948 0.04295465 0.054860771
0.02506249 0.037556313 0.055496752
0.017967798 0.04210303 0.055408075
0.029926013 0.024339085 0.055536725
0.089383751 0.087295361 0.055863272
0.086840026 0.089892782 0.055402137
0.085506633 0.089818582 0.055858497
0.084860772 0.090250261 0.055875476
0.084478699 0.091437891 0.055406321
0.083582819 0.092026845 0.055395216
0.080711067 0.092899792 0.055769898
0.079148151 0.09392821 0.05578801
0.077030137 0.095300615 0.055767395
0.098028079 0.066455208 0.055867676
0.099325374 0.064690277 0.056345191
0.098411962 0.065275773 0.056331169
0.097818524 0.065642036 0.056326926
0.01785659 0.064505845 0.055458117
0.017094493 0.051994473 0.056343634
0.091017902 0.085316658 0.05634971
0.090141505 0.085915349 0.056387436
0.087734312 0.087407976 0.056279622
0.091134705 0.084272265 0.056766063
0.088748232 0.085850224 0.056807738
0.10065328 0.062927574 0.056862071
0.09972696 0.063508227 0.056833886
0.10049386 0.062088512 0.057338398
0.016967267 0.063258976 0.05648746
0.01703421 0.051130373 0.056865431
0.014923006 0.052535318 0.056920603
0.013126992 0.053690448 0.056881379
0.023530945 0.035880722 0.057156935
0.028487418 0.031811271 0.057781775
0.017683469 0.038805138 0.057703767
0.029963247 0.021671791 0.057238616
0.095998779 0.080210514 0.05731117
0.087411933 0.085736483 0.057221577
0.092727534 0.080400541 0.058166441
0.097773455 0.077143401 0.058199324
0.096580856 0.077872708 0.058166843
0.092116259 0.080754235 0.058127016
0.089148536 0.082703799 0.058093503
0.018741392 0.04738288 0.058581948
0.016172938 0.049882933 0.057936132
0.014335364 0.051083166 0.057957958
0.020915359 0.035785917 0.058234926
0.032756757 0.02729021 0.058969226
0.023759868 0.03308586 0.058860596
0.02194215 0.034233809 0.058812656
0.018993024 0.036110289 0.058780622
0.01686056 0.037515942 0.058771357
0.093612492 0.079861164 0.058200501
0.097656086 0.076266371 0.058642019
0.095273018 0.077784948 0.058615517
0.093850866 0.077771053 0.059061386
0.088799514 0.081023723 0.059015732
0.016197987 0.048079032 0.059043802
0.037757341 0.02315912 0.059554696
0.032636214 0.026496736 0.05954193
0.018147539 0.034890391 0.059884191
0.098473549 0.073867664 0.059588891
0.093833625 0.07585147 0.059958532
0.098300561 0.057847913 0.060095944
0.097583547 0.059248924 0.059639346
0.098454155 0.056805562 0.060559202
0.01767955 0.05735502 0.059667759
0.016757242 0.045025181 0.060666915
0.095433496 0.073905915 0.060428329
0.098224305 0.056005824 0.061016802
0.098090358 0.055133458 0.061462987
0.023707643 0.07490547 0.061240133
0.018391557 0.067103766 0.060493525
0.016741648 0.067274436 0.061015386
0.016118765 0.055637009 0.061237849
0.016907908 0.044021647 0.061199695
0.017031163 0.04303864 0.061764337
0.036652792 0.020286297 0.061749998
0.09896607 0.069767155 0.061424229
0.098027959 0.070378087 0.061432716
0.097167194 0.0709102 0.061389882
0.096270174 0.071488693 0.061371956
0.095082246 0.072249748 0.061344553
0.099047758 0.068737857 0.061828624
0.09792234 0.054269932 0.061903555
0.097803794 0.053397577 0.06237046
0.020655766 0.050857451 0.062289827
0.017346352 0.053009458 0.062297046
0.016700231 0.053441975 0.062313985
