# .PCD v0.7 - Point Cloud Data file format
VERSION 0.7
FIELDS x y z
SIZE 4 4 4
TYPE F F F
COUNT 1 1 1
WIDTH 1327
HEIGHT 1
VIEWPOINT 0 0 0 1 0 0 0
POINTS 1327
DATA ascii
0.054152139 0.029012561 -0.044889629
0.051743299 0.028696537 -0.044889152
0.050767779 0.029236011 -0.043846846
0.066437155 0.02766053 -0.049287215
0.060315512 0.028108105 -0.047471404
0.055264823 0.027969502 -0.046727851
0.13385504 0.02877897 -0.042755872
0.12808457 0.02918667 -0.041040748
0.15053898 0.026511081 -0.049142838
0.14408773 0.026979208 -0.047297508
0.13901106 0.027324375 -0.045783907
0.13792446 0.027951032 -0.044698656
0.13629562 0.027520441 -0.044942379
0.13221924 0.028357331 -0.042995989
0.13120103 0.028420046 -0.04269892
0.1295239 0.028003648 -0.042963445
0.1258003 0.028264627 -0.041885585
0.12479002 0.028864678 -0.040826648
0.11797279 0.02883292 -0.039602846
0.11692861 0.029434454 -0.03853479
0.11531182 0.029010393 -0.038821787
0.11152396 0.029282615 -0.037709922
0.12534498 0.027276859 -0.048612118
0.12161609 0.027553 -0.047563881
0.11893848 0.027715951 -0.046741247
0.10736699 0.028539315 -0.043333381
0.098560408 0.029164467 -0.040790856
0.094050482 0.029490024 -0.039491534
0.089388721 0.0298132 -0.038080513
0.11216348 0.027690571 -0.045547396
0.10945183 0.027880084 -0.044751048
0.10567652 0.028140888 -0.043619603
0.10294424 0.028332576 -0.042849869
0.10125711 0.028458152 -0.042288721
0.09959311 0.028592732 -0.04188326
0.095185809 0.028870001 -0.040534019
0.092429496 0.029088639 -0.039773583
0.08129973 0.029868886 -0.036514789
0.077899545 0.030125394 -0.035470486
0.11927401 0.026665367 -0.048409253
0.11485018 0.026979156 -0.04712531
0.1131792 0.027090609 -0.046616048
0.1104375 0.027300373 -0.045800805
0.087030955 0.028968357 -0.038941056
0.076233372 0.02972284 -0.035779953
0.074499726 0.029860497 -0.03529951
0.072816089 0.029955007 -0.034777045
0.071098983 0.030067086 -0.034260243
0.067728296 0.030326165 -0.033321232
0.065239489 0.030487344 -0.032509476
0.08965411 0.027485207 -0.047413304
0.082156308 0.028020687 -0.045248717
0.070329517 0.028877072 -0.041788712
0.068646938 0.028997526 -0.041309044
0.064221151 0.029287543 -0.03996028
0.062542222 0.029432476 -0.039482996
0.054270487 0.030026656 -0.037086159
0.047874071 0.030482896 -0.035244107
0.045460068 0.03063371 -0.034460098
0.090661563 0.026932031 -0.048568815
0.08521004 0.027320478 -0.046980873
0.071336091 0.02830933 -0.042840362
0.065225214 0.02872007 -0.041084081
0.060120273 0.029090941 -0.039614066
0.057701148 0.029254235 -0.038802594
0.056029696 0.029355127 -0.038355917
0.051951215 0.029664692 -0.037164003
0.049530324 0.029828548 -0.036447749
0.079796471 0.027209856 -0.046123713
0.075086787 0.027520511 -0.044719294
0.072357625 0.027724639 -0.043979168
0.066230297 0.028177664 -0.042166054
0.053599525 0.029070657 -0.038491502
0.049596854 0.029320538 -0.037263647
0.047186811 0.029535398 -0.036600828
0.04480492 0.029687464 -0.035878286
0.056267086 0.027402457 -0.047846839
0.057285398 0.026846386 -0.04896529
0.052874848 0.027176935 -0.047698647
0.17638132 0.026902407 -0.043977916
0.16959247 0.026438534 -0.047954142
0.16008095 0.027118951 -0.045153528
0.15734078 0.027308669 -0.044334799
0.15363133 0.02758453 -0.043318421
0.14754185 0.028003179 -0.041469783
0.14586711 0.028115116 -0.040999293
0.17570242 0.02546142 -0.050505191
0.1739997 0.025586981 -0.050021619
0.1642209 0.02626498 -0.047110349
0.16179463 0.026460964 -0.046403617
0.15192387 0.027143713 -0.043508291
0.14244661 0.027838141 -0.040787727
0.13871789 0.02807007 -0.039652079
0.13296491 0.028509617 -0.037996799
0.13195074 0.028585948 -0.037697017
0.12754229 0.028888717 -0.036408126
0.14681345 0.026248649 -0.048842549
0.14413616 0.026439127 -0.048044264
0.14004652 0.026727661 -0.046845555
0.13458857 0.027105521 -0.045227468
0.12784885 0.027609035 -0.04326722
0.12410788 0.027859934 -0.042145699
0.12239429 0.027990725 -0.04169023
0.12071991 0.028095849 -0.041179746
0.11903859 0.028211273 -0.04068315
0.11630046 0.028422363 -0.039880097
0.1135988 0.02859674 -0.039085031
0.10985733 0.028875191 -0.038030326
0.10645969 0.029114209 -0.036942244
0.10477677 0.029257566 -0.036538929
0.097634092 0.029739253 -0.034411669
0.1471685 0.02571018 -0.049752712
0.13292006 0.02668966 -0.045503855
0.13190264 0.026788291 -0.0452694
0.12614188 0.027211852 -0.043578774
0.11189374 0.028196748 -0.039348662
0.1014007 0.028927438 -0.036231518
0.095916688 0.029312491 -0.034650803
0.092223749 0.029602401 -0.033591568
0.13632423 0.025941759 -0.047324121
0.1302231 0.026388146 -0.045517892
0.12445273 0.026791565 -0.043824315
0.12004225 0.027090333 -0.042540014
0.11835742 0.027200617 -0.042014629
0.1166826 0.027327873 -0.041527063
0.11396333 0.027527388 -0.040738881
0.11022486 0.027783696 -0.039608985
0.10753136 0.0279742 -0.038862228
0.10581757 0.028095532 -0.03829214
0.10412966 0.028224103 -0.037852138
0.10241579 0.028344132 -0.037371367
0.097932272 0.028660372 -0.036058038
0.094302282 0.028906584 -0.03495276
0.090564653 0.029162221 -0.033868015
0.086851433 0.029433139 -0.032762945
0.09551964 0.027823884 -0.042162359
0.077232055 0.029148765 -0.036811322
0.069435984 0.029672474 -0.034525245
0.11589074 0.026395086 -0.048205346
0.10810155 0.026434813 -0.046697438
0.10708178 0.02700543 -0.045615733
0.10539886 0.026623122 -0.045891702
0.10336806 0.027283713 -0.044548482
0.09829957 0.027124003 -0.043786079
0.096573688 0.027260218 -0.043343425
0.092809111 0.028028317 -0.041437566
0.09013357 0.028202202 -0.040623069
0.089100331 0.028279249 -0.040312797
0.087380283 0.027885471 -0.040586144
0.085368745 0.028549287 -0.039251804
0.083722085 0.028140087 -0.039523482
0.082680061 0.02821162 -0.039209694
0.080597878 0.028891362 -0.037856132
0.078928925 0.029010639 -0.03736797
0.072146133 0.028990839 -0.036138654
0.070476852 0.029084008 -0.035649151
0.067074984 0.029348731 -0.034661859
0.06529361 0.029977486 -0.033343792
0.062951818 0.029621385 -0.03338021
0.06290935 0.030128449 -0.032614917
0.061224286 0.029725812 -0.03292492
0.058854915 0.02993951 -0.032237053
0.056456707 0.030081645 -0.031509042
0.10373389 0.026222181 -0.046153814
0.10101305 0.026418243 -0.045413882
0.099337131 0.026530743 -0.044858009
0.093230918 0.026951909 -0.043075472
0.090455472 0.027176145 -0.042337418
0.078277163 0.028025433 -0.038737327
0.07657025 0.028153326 -0.0382016
0.074893862 0.028280549 -0.03771317
0.068777353 0.028689019 -0.03590098
0.064642437 0.028989751 -0.034733653
0.058827262 0.029426523 -0.033034921
0.056516845 0.029560007 -0.032302886
0.054095369 0.029738087 -0.03158173
0.051733673 0.029930398 -0.030961841
0.049332518 0.030083105 -0.030186266
0.078157626 0.026820332 -0.046464741
0.067296848 0.027578179 -0.043252558
0.051262777 0.028725464 -0.03854838
0.048886947 0.028380461 -0.038620502
0.21369979 0.023717053 -0.055725932
0.19236392 0.025223393 -0.049427181
0.19065933 0.025346346 -0.048948467
0.1818286 0.025976747 -0.046357989
0.17912352 0.026157167 -0.045561492
0.17743348 0.026292101 -0.045045376
0.17406869 0.026504032 -0.044067264
0.19986814 0.024134874 -0.052409947
0.19611895 0.024387248 -0.051273167
0.19344124 0.024593055 -0.050506055
0.18832058 0.024949763 -0.049011618
0.18389665 0.025257312 -0.047704756
0.18022025 0.025510386 -0.046612054
0.17100158 0.026183493 -0.043916076
0.16867504 0.026319332 -0.043195009
0.16625586 0.02652204 -0.042513192
0.15744975 0.027141541 -0.03998515
0.15305075 0.027444609 -0.038682997
0.15134971 0.027565077 -0.038148791
0.14966847 0.027676053 -0.03765434
0.14797416 0.027789637 -0.037169486
0.14525947 0.027985536 -0.036328882
0.18494162 0.024645064 -0.048801988
0.17063728 0.025274526 -0.049781322
0.16895117 0.025388811 -0.049289376
0.16586167 0.025627229 -0.048367113
0.15948148 0.026066978 -0.046477526
0.15778241 0.026207179 -0.046068817
0.15506569 0.02637301 -0.045184284
0.15032199 0.026722707 -0.043806821
0.14859793 0.026839714 -0.043336242
0.1468693 0.026964296 -0.042817384
0.14518598 0.027083039 -0.042304695
0.14350793 0.02719117 -0.041828394
0.14076474 0.027394604 -0.04098922
0.13502449 0.027810514 -0.039313287
0.13028176 0.028134637 -0.037943929
0.12861739 0.028249692 -0.03744182
0.12518503 0.028489914 -0.036438584
0.12350422 0.028606519 -0.035952866
0.12076741 0.028821982 -0.035159618
0.11810251 0.028994702 -0.034365624
0.16592106 0.02508498 -0.049171835
0.16353813 0.025222778 -0.048429668
0.16115616 0.02542631 -0.047785819
0.15335166 0.025959089 -0.045467585
0.15235014 0.026039064 -0.045217901
0.13911429 0.026961148 -0.041272581
0.1333735 0.027369279 -0.039588183
0.13233751 0.027450163 -0.039287746
0.12690854 0.027834494 -0.037725836
0.12520486 0.027951006 -0.037230372
0.12353247 0.028061993 -0.03671971
0.12185289 0.028194077 -0.036234528
0.11914121 0.02838419 -0.035438269
0.11639348 0.028575048 -0.034605205
0.11536679 0.028643951 -0.03430748
0.11368863 0.028770458 -0.033877075
0.11200291 0.028879642 -0.033334851
0.11032281 0.029005744 -0.032809258
0.10861994 0.029151406 -0.032393932
0.15541998 0.025281686 -0.046887338
0.15069702 0.025608651 -0.04549107
0.14798041 0.025790047 -0.044657886
0.14454451 0.026040923 -0.043636709
0.14115256 0.02628614 -0.042684525
0.13744324 0.026523978 -0.04153946
0.13641751 0.026609693 -0.041289657
0.13065669 0.027047135 -0.039621621
0.12013905 0.027773555 -0.036476076
0.11744502 0.027946148 -0.035705268
0.11197985 0.028338835 -0.034106314
0.11029428 0.02846311 -0.033547044
0.10862911 0.02859845 -0.033140391
0.10693183 0.02870262 -0.03263104
0.10524969 0.028810751 -0.032088041
0.10242212 0.029029187 -0.031331748
0.099771552 0.02919453 -0.030494481
0.098742224 0.029271144 -0.030193508
0.13704485 0.025351994 -0.048285246
0.13427389 0.025558539 -0.047448874
0.12856221 0.025966618 -0.045765221
0.12758544 0.02602322 -0.045483142
0.12112062 0.026479341 -0.043607026
0.10856257 0.027376108 -0.03993997
0.10072484 0.027920015 -0.037576526
0.096307077 0.028250765 -0.036361873
0.092583746 0.028496955 -0.035218865
0.088893145 0.028747067 -0.034139812
0.087874889 0.028827347 -0.03383252
0.085156545 0.029029123 -0.033080071
0.083471715 0.029149577 -0.032573551
0.081792422 0.029286906 -0.032034576
0.080076694 0.029392343 -0.031558603
0.078338698 0.029536895 -0.031073302
0.13266563 0.025133058 -0.047731787
0.13095951 0.024708252 -0.048009843
0.12586887 0.025615111 -0.045744896
0.12214615 0.025872521 -0.044650882
0.11876821 0.02560427 -0.044485241
0.11431806 0.026442189 -0.042364299
0.10998166 0.026209492 -0.041872919
0.1045355 0.026592247 -0.040271938
0.1028551 0.026718944 -0.039746314
0.10181172 0.027346432 -0.038754553
0.092958093 0.027405251 -0.036862016
0.090904474 0.028108288 -0.03549251
0.089273997 0.027688533 -0.035818636
0.086194657 0.028417923 -0.034087867
0.084484883 0.028016917 -0.034395218
0.083462678 0.0286237 -0.033344924
0.081774868 0.028755337 -0.032798916
0.080097973 0.028870724 -0.032335699
0.078414664 0.028991606 -0.031855226
0.076711938 0.029106263 -0.031344801
0.074993022 0.029209916 -0.030836433
0.073317103 0.029065326 -0.030692726
0.070938177 0.028987911 -0.030448258
0.069169506 0.029104635 -0.029912412
0.066808321 0.029260203 -0.029167354
0.065082222 0.029373147 -0.028710544
0.06644018 0.028352153 -0.035964549
0.06474179 0.028479006 -0.035559297
0.06224541 0.028641749 -0.034722745
0.060594719 0.028745223 -0.034275085
0.056509666 0.029055037 -0.033091098
0.051763434 0.02942292 -0.031750381
0.049368434 0.029568352 -0.030995995
0.044943653 0.029878266 -0.029710352
0.058192462 0.028426304 -0.034410179
0.05346141 0.028741922 -0.032972455
0.049407005 0.029059775 -0.031809211
0.044993054 0.02936269 -0.030505538
0.053489722 0.028228741 -0.033756047
0.051101368 0.028430067 -0.033083111
0.045690048 0.028793991 -0.031483173
0.044982906 0.028847445 -0.031270206
0.041278955 0.029097676 -0.030195981
0.040581413 0.02915388 -0.02998659
0.24141462 0.022445142 -0.05429256
0.23798758 0.022693112 -0.053323627
0.23188257 0.023125608 -0.05151847
0.21960658 0.023984015 -0.047902495
0.2107881 0.02461246 -0.045309156
0.20704696 0.024875112 -0.044216335
0.19653088 0.025628608 -0.041152179
0.19210702 0.025936522 -0.039845496
0.21408021 0.024267938 -0.050674558
0.21243012 0.024352629 -0.050172687
0.20598301 0.024821222 -0.048284829
0.20222449 0.025089014 -0.047148913
0.19954532 0.025280129 -0.046416074
0.21924357 0.023305822 -0.052881122
0.21749303 0.023431353 -0.052428812
0.20905206 0.024039261 -0.049963564
0.2080451 0.024096996 -0.049609542
0.20430684 0.024368681 -0.048561424
0.20060882 0.024618864 -0.047429711
0.19789553 0.024819538 -0.046660841
0.19620883 0.024938699 -0.04611659
0.19448641 0.025068421 -0.045671821
0.19278204 0.025182575 -0.045162529
0.18835458 0.025490902 -0.043859333
0.17955214 0.026104778 -0.04126057
0.17786518 0.02621872 -0.040767998
0.17477629 0.026457716 -0.039846569
0.17248116 0.026596725 -0.039158612
0.17005676 0.026792683 -0.038453937
0.16018492 0.027475577 -0.035557508
0.22031385 0.022653021 -0.053994685
0.21015051 0.023376048 -0.050978988
0.20636415 0.023641478 -0.049856961
0.20269386 0.023903616 -0.048797578
0.1894311 0.02486467 -0.044949025
0.18402405 0.025214344 -0.043310583
0.17484766 0.025885843 -0.040637761
0.17246303 0.026022688 -0.039893657
0.17008215 0.026226975 -0.039250851
0.16775268 0.026368387 -0.038511306
0.1660542 0.026509825 -0.038103044
0.16333723 0.026674718 -0.037218392
0.16227689 0.026759021 -0.036931753
0.20192921 0.023422845 -0.053731143
0.16395026 0.026102807 -0.042571068
0.15952456 0.026417285 -0.041260511
0.14356235 0.027540408 -0.036598891
0.14255321 0.027607135 -0.036298931
0.13783853 0.027954787 -0.034911484
0.19818698 0.02368648 -0.052637696
0.19110887 0.023635074 -0.051286161
0.18773559 0.023880731 -0.050347507
0.18599373 0.023989026 -0.049793899
0.18224105 0.02480153 -0.047985017
0.17786902 0.024568599 -0.047457784
0.17617832 0.024691425 -0.046960324
0.17515185 0.025319718 -0.045890361
0.17343929 0.025428627 -0.045386136
0.17103805 0.025627058 -0.044708222
0.16801327 0.025250856 -0.044519097
0.16567767 0.025449324 -0.043902606
0.16225979 0.026245985 -0.042140841
0.15784942 0.025980614 -0.041551799
0.15578729 0.026683584 -0.040214032
0.15310904 0.026873991 -0.039414853
0.14734687 0.02672334 -0.038489133
0.14626768 0.02737553 -0.037449241
0.14088655 0.027194172 -0.03662625
0.13986751 0.027276427 -0.036299944
0.13885663 0.027888592 -0.035223663
0.13617378 0.027531061 -0.035200685
0.13512698 0.02761751 -0.034936905
0.1341151 0.028216317 -0.033833891
0.13243297 0.027781408 -0.034079343
0.13071951 0.027913369 -0.033624053
0.12904584 0.028018143 -0.033114523
0.12736395 0.02813321 -0.032617092
0.12564024 0.028271824 -0.032114387
0.12297817 0.028449617 -0.031332433
0.18265751 0.023671363 -0.049610406
0.17991075 0.023873031 -0.048805237
0.17281751 0.024358355 -0.046704262
0.17044634 0.024535682 -0.046032846
0.16808715 0.024696063 -0.045309335
0.16332093 0.025037646 -0.043893456
0.15989511 0.025297634 -0.0429793
0.15621454 0.025547374 -0.041856378
0.14392906 0.026416738 -0.038216799
0.14297923 0.026473716 -0.037922263
0.13821739 0.026823744 -0.036532819
0.13723931 0.026879717 -0.036249518
0.1334486 0.027166754 -0.035168529
0.12903848 0.027465552 -0.033884645
0.12397858 0.027831454 -0.032377869
0.12127573 0.028005444 -0.03158161
0.11854233 0.028208438 -0.030783415
0.16053635 0.024381459 -0.049145818
0.15816936 0.024521999 -0.048387259
0.1564799 0.024657045 -0.047928393
0.15373316 0.02484078 -0.04706949
0.14562601 0.025420971 -0.044752121
0.14222606 0.025657386 -0.04374522
0.12456945 0.026918251 -0.038581669
0.12288732 0.027013864 -0.038045019
0.11577306 0.027533386 -0.035967857
0.11307757 0.02772706 -0.035207689
0.10356768 0.028377 -0.032360613
0.10081278 0.028597087 -0.031601757
0.097107075 0.028853141 -0.030491054
0.094417647 0.029028356 -0.029694498
0.14833637 0.024678409 -0.046256214
0.11411969 0.027101725 -0.036217988
0.11139743 0.027298737 -0.035476655
0.10972309 0.027410287 -0.034922451
0.10801987 0.027535737 -0.034431905
0.10629374 0.027673177 -0.033989042
0.10457724 0.027768537 -0.033393264
0.10186571 0.027973507 -0.032666981
0.099189721 0.028147325 -0.031852484
0.095425047 0.028445963 -0.030755758
0.092734173 0.028600398 -0.029957324
0.091699228 0.028685346 -0.029647857
0.089028552 0.028878838 -0.028911799
0.087297514 0.029004306 -0.028384149
0.083917573 0.029238243 -0.027376473
0.10463889 0.027231146 -0.034220636
0.10296184 0.027333707 -0.033708155
0.10018569 0.027559701 -0.032969683
0.097502671 0.027725957 -0.032111853
0.096446373 0.027799536 -0.031801611
0.093772016 0.027996406 -0.031051606
0.090047598 0.028252613 -0.029911846
0.084974915 0.028636795 -0.028437316
0.081132561 0.027727637 -0.034188986
0.077752821 0.027962297 -0.033181578
0.076019734 0.028111193 -0.032687604
0.074344382 0.028200615 -0.032194078
0.070993409 0.028460681 -0.03118372
0.062722139 0.029055532 -0.028787762
0.06035617 0.029192217 -0.028056026
0.07099013 0.02791192 -0.031918913
0.068580277 0.028088361 -0.031300396
0.066163033 0.028250407 -0.030491352
0.064489543 0.02835213 -0.03004238
0.060411882 0.028661992 -0.0288513
0.057340469 0.028889235 -0.027938217
0.055665135 0.029028326 -0.027520686
0.062070038 0.028038327 -0.030165046
0.060402546 0.028144844 -0.029632449
0.05733186 0.028343353 -0.028711557
0.055656999 0.028502412 -0.028274268
0.052594002 0.028695673 -0.027315319
0.045662589 0.028280117 -0.032248288
0.040621202 0.028113876 -0.031553477
0.040617667 0.027600646 -0.032326296
0.25194517 0.021112844 -0.058152646
0.24418408 0.02107976 -0.056598693
0.24244441 0.021792226 -0.055388302
0.23903809 0.022034831 -0.054359227
0.23574018 0.021675102 -0.054101646
0.23461686 0.022343263 -0.053067058
0.23292619 0.022461168 -0.052547336
0.22853433 0.022778429 -0.051249087
0.22691309 0.022307087 -0.051533401
0.22570331 0.022991154 -0.050450593
0.2247248 0.02304586 -0.050182045
0.22306113 0.023163743 -0.049628437
0.22134477 0.022990182 -0.04952237
0.219017 0.022845589 -0.049204618
0.21731541 0.022961657 -0.04869622
0.21393922 0.023221623 -0.047714531
0.21018052 0.023483992 -0.04659307
0.19998068 0.024795629 -0.042851001
0.19486609 0.025150839 -0.041359037
0.19316386 0.025295276 -0.040928215
0.19046316 0.025450911 -0.040110826
0.18875487 0.025600757 -0.039609998
0.18779406 0.025646478 -0.03930071
0.18273795 0.025426712 -0.038565308
0.17793974 0.025777571 -0.037153661
0.17561148 0.025912769 -0.036431193
0.17319357 0.026115797 -0.035750836
0.2618188 0.019836728 -0.061798722
0.22958139 0.022122964 -0.05232963
0.21556133 0.023126401 -0.048226506
0.21117935 0.023421895 -0.046919048
0.19596922 0.024500642 -0.042458922
0.1915392 0.024804488 -0.041158974
0.18879357 0.025006793 -0.040355086
0.18610209 0.025188796 -0.039568663
0.18441205 0.025311604 -0.039071888
0.18102476 0.025535125 -0.038060158
0.17862414 0.025734492 -0.037383139
0.21456352 0.022476159 -0.05301553
0.21286175 0.02260701 -0.052511126
0.21116066 0.022743404 -0.052062005
0.20100127 0.023450878 -0.04901582
0.19826722 0.023643449 -0.048270315
0.19554593 0.023838989 -0.047410399
0.19385929 0.023971047 -0.046998292
0.19220012 0.024077751 -0.046476543
0.19050664 0.024182878 -0.045935929
0.18610099 0.02448412 -0.044680804
0.18231812 0.024770901 -0.043568552
0.18064687 0.024892539 -0.043092549
0.16776013 0.025789354 -0.039268017
0.16607052 0.025925167 -0.038809001
0.1643568 0.026052762 -0.038338006
0.16063289 0.026311819 -0.037237465
0.15795174 0.026497237 -0.03639704
0.15622693 0.026614144 -0.035925388
0.15449816 0.026739012 -0.035406858
0.15281525 0.026857767 -0.034894526
0.15113699 0.026965819 -0.034417927
0.14942205 0.027115446 -0.033947229
0.14839458 0.027169235 -0.033579826
0.14569342 0.027346399 -0.032811493
0.14469543 0.027450502 -0.032569796
0.20782331 0.02239015 -0.051785439
0.20407501 0.022660192 -0.050677329
0.20309158 0.022735894 -0.05042392
0.19930683 0.022998236 -0.049282104
0.19661433 0.023195419 -0.048521996
0.1871275 0.023855414 -0.045740277
0.18439117 0.024051428 -0.044939131
0.17253828 0.024890453 -0.041426301
0.16948384 0.025122702 -0.040581316
0.16268177 0.025581021 -0.038506329
0.1589902 0.025851727 -0.037496001
0.15627377 0.0260325 -0.036662847
0.15457363 0.026162099 -0.036187947
0.15284011 0.026283588 -0.035643578
0.14944643 0.026529461 -0.034689844
0.14675459 0.026705921 -0.033847719
0.1430421 0.026988421 -0.032781601
0.14201081 0.027056701 -0.032458186
0.13828434 0.027334969 -0.031412631
0.13726836 0.027381226 -0.031089246
0.13560329 0.027496044 -0.030586332
0.2163232 0.021218158 -0.054994285
0.2088694 0.021743685 -0.052839309
0.18816462 0.023223951 -0.046790421
0.16105032 0.025117159 -0.038796276
0.15729561 0.025389157 -0.037678182
0.15053153 0.025870718 -0.035736531
0.14777805 0.026075948 -0.034930229
0.14509419 0.026238535 -0.034099996
0.14406866 0.026324939 -0.033850253
0.14037102 0.026585191 -0.032718658
0.13933414 0.026666574 -0.032417506
0.13830775 0.026762627 -0.032182217
0.13560989 0.02691707 -0.031314552
0.13390617 0.027051527 -0.030856431
0.1322031 0.02716814 -0.030361712
0.12984797 0.027325109 -0.029653072
0.12711191 0.027541008 -0.02886039
0.18369402 0.023057818 -0.050686359
0.17826769 0.023424033 -0.049065292
0.17384642 0.023754194 -0.047756791
0.16504517 0.024364103 -0.045203745
0.15180938 0.025289524 -0.041292518
0.15012842 0.025419578 -0.040836692
0.14501931 0.025771961 -0.039322942
0.14128274 0.026018318 -0.038185239
0.13553369 0.026441604 -0.036497176
0.13181099 0.026699387 -0.035403311
0.13012683 0.026823893 -0.034936398
0.1267042 0.027062222 -0.033920407
0.12502906 0.027189359 -0.033432633
0.12231016 0.02738947 -0.032644898
0.11958157 0.027575232 -0.031831384
0.11688668 0.02777141 -0.031089932
0.11516153 0.027877707 -0.030553162
0.11348876 0.028009683 -0.030001998
0.11180555 0.028153919 -0.029598087
0.11011051 0.028246142 -0.029055148
0.12333585 0.026756488 -0.033680916
0.12065507 0.02693205 -0.032914847
0.11792468 0.027131926 -0.032078713
0.1152293 0.02732341 -0.031330228
0.11351797 0.027443577 -0.030762494
0.11182834 0.027572423 -0.030320674
0.11011375 0.027693089 -0.029839456
0.10844112 0.027793124 -0.029277772
0.10677081 0.02790828 -0.028812379
0.10401558 0.028122768 -0.028034627
0.11627154 0.026694927 -0.03239423
0.10677358 0.027347039 -0.029556483
0.10498281 0.027496729 -0.029089123
0.1023085 0.027665418 -0.02825886
0.1013521 0.0277423 -0.027983546
0.098615795 0.027955618 -0.027200103
0.094885938 0.02820202 -0.026069969
0.14263107 0.023999754 -0.046134293
0.10129444 0.026908666 -0.033985883
0.09479554 0.027388912 -0.032093436
0.092134543 0.027556606 -0.031308651
0.091092594 0.027627673 -0.030994952
0.088346832 0.027840603 -0.030225277
0.086677507 0.027960028 -0.029736638
0.084982142 0.028097559 -0.029181629
0.083318003 0.028203931 -0.028732359
0.081584662 0.028342523 -0.028251588
0.079901859 0.028436542 -0.027730197
0.089403339 0.027217235 -0.031249642
0.086700521 0.027411927 -0.030509114
0.084993549 0.027539771 -0.029973716
0.083317325 0.027666479 -0.029485226
0.081625462 0.027773201 -0.028992832
0.079906687 0.027909987 -0.028495401
0.078235693 0.028002672 -0.028004348
0.076531388 0.028123029 -0.027464271
0.072388567 0.028428152 -0.026282638
0.076545984 0.027576558 -0.028241932
0.074181199 0.027769286 -0.027587384
0.070058674 0.02804096 -0.026306927
0.062093992 0.027478527 -0.030929655
0.057407636 0.027804654 -0.029513419
0.052616328 0.028170958 -0.028128624
0.048541911 0.028454155 -0.026927948
0.055041291 0.027470045 -0.029589504
0.052648649 0.027643491 -0.028921187
0.050206982 0.027799457 -0.028173983
0.049246393 0.027868174 -0.027899832
0.045185369 0.027883362 -0.027096123
0.044494405 0.028202545 -0.02651599
0.041434031 0.027887758 -0.026352227
0.041074511 0.028449677 -0.025506973
0.039032158 0.028058704 -0.025690228
0.26869732 0.018999528 -0.060201764
0.26802915 0.019048445 -0.059977591
0.26115906 0.019553293 -0.058007061
0.25041986 0.020288475 -0.05480662
0.24797861 0.020468079 -0.054085642
0.23783091 0.02118054 -0.051116824
0.23612267 0.021309681 -0.050642461
0.23446085 0.021420591 -0.050129712
0.23173979 0.021624312 -0.049363345
0.22901607 0.021809731 -0.048529059
0.22452548 0.022122573 -0.04717347
0.22280066 0.022251301 -0.046734601
0.21065028 0.023111317 -0.043157369
0.20961745 0.023178738 -0.042856693
0.20586827 0.02343202 -0.041719198
0.20417334 0.023571633 -0.041255683
0.19911626 0.023927353 -0.039765596
0.19468617 0.024233267 -0.038473964
0.19301704 0.02433382 -0.037969708
0.19029766 0.024536155 -0.037155181
0.1892339 0.024620861 -0.036857009
0.18756349 0.024742454 -0.03638193
0.18586893 0.024868742 -0.035868466
0.18419501 0.024963323 -0.035376996
0.18177448 0.025160305 -0.034696519
0.181122 0.025208063 -0.034483194
0.17635615 0.025549017 -0.033095568
0.1740257 0.025689542 -0.032355309
0.23676458 0.021024931 -0.055193514
0.23067634 0.021451645 -0.053372264
0.22796369 0.021643303 -0.052586406
0.22523537 0.021840248 -0.051771253
0.22243364 0.022021074 -0.050940305
0.21225965 0.022743374 -0.04793933
0.20478596 0.023273304 -0.045742124
0.19258757 0.024161745 -0.042220652
0.18716128 0.024527758 -0.040599823
0.1827414 0.024858158 -0.039292574
0.18106243 0.024948634 -0.038800716
0.17869154 0.025126174 -0.03812927
0.17560956 0.025327809 -0.03717795
0.17327398 0.025527112 -0.036561579
0.1708985 0.025666162 -0.035792857
0.16920832 0.025810227 -0.035362691
0.16748872 0.02592393 -0.034829915
0.16647325 0.025981132 -0.034482807
0.16375002 0.026193105 -0.033769727
0.16273579 0.026247781 -0.033435911
0.16104409 0.026373513 -0.032923549
0.15596849 0.026727561 -0.031438738
0.23341337 0.020664606 -0.05490002
0.2184076 0.021728471 -0.050522953
0.2167438 0.02183532 -0.050004572
0.20792292 0.022465691 -0.04740423
0.18550776 0.024049275 -0.040839106
0.18380511 0.024175018 -0.040356159
0.17874406 0.024528097 -0.038858265
0.17569517 0.024743833 -0.037953705
0.17330165 0.024924919 -0.037285477
0.17093022 0.025084719 -0.036538869
0.16923267 0.025207926 -0.036057711
0.16750297 0.025346138 -0.03562355
0.16480893 0.025514912 -0.034758538
0.16110566 0.025780547 -0.033659041
0.15941991 0.02589567 -0.033183962
0.15767069 0.02602724 -0.03268671
0.15596531 0.026146118 -0.032161683
0.15257907 0.026397932 -0.031218588
0.14987388 0.02656211 -0.030368537
0.22837068 0.02044582 -0.054168195
0.22280866 0.020844348 -0.052559793
0.16585714 0.024855573 -0.035788506
0.16318548 0.025052771 -0.035048157
0.16214612 0.025132328 -0.03477028
0.15942872 0.025307588 -0.033921987
0.15774816 0.025438286 -0.033466488
0.1560581 0.025550433 -0.03292346
0.15366967 0.02571604 -0.032243937
0.15090126 0.025922403 -0.031410098
0.14822817 0.026086219 -0.030616641
0.14720921 0.026187111 -0.030380636
0.14351282 0.026433378 -0.029228896
0.14249623 0.026523326 -0.028954953
0.14240578 0.025893144 -0.034117967
0.14143002 0.025953125 -0.033783168
0.13663691 0.026300546 -0.032404542
0.12988696 0.026751041 -0.030405402
0.12820739 0.026882902 -0.029920071
0.12549573 0.027073406 -0.029123932
0.12274872 0.027263708 -0.028291643
0.12172186 0.027332485 -0.027993679
0.12004372 0.02745958 -0.027563155
0.1333565 0.025932822 -0.032167375
0.13158984 0.02607606 -0.031683952
0.12990636 0.026170943 -0.031146258
0.12821335 0.026298422 -0.030653268
0.1265059 0.026432611 -0.030148506
0.12381037 0.026605144 -0.029376268
0.12279268 0.026690379 -0.029069364
0.11834558 0.026998401 -0.027777195
0.11435205 0.026729796 -0.027366817
0.10814504 0.027161252 -0.025557965
0.10778697 0.026725486 -0.030594915
0.10239305 0.027109738 -0.029049605
0.099644706 0.027302258 -0.028235972
0.095953934 0.027552612 -0.027156621
0.093253784 0.027755853 -0.026357204
0.10513718 0.026919272 -0.029859632
0.10336881 0.027057294 -0.029379606
0.09797734 0.026883915 -0.028496891
0.09698569 0.0272162 -0.027853668
0.094287038 0.027119722 -0.027411878
0.093267389 0.027192913 -0.027092248
0.091569372 0.027322076 -0.026660055
0.089884065 0.027442615 -0.026153028
0.088205464 0.027579442 -0.025614887
0.086489141 0.027684741 -0.02513808
0.08475107 0.027830504 -0.02465263
0.09156771 0.026762448 -0.027384311
0.089885511 0.026886761 -0.026910096
0.088199094 0.027017839 -0.026365638
0.086521141 0.027133182 -0.025901318
0.084837347 0.027254358 -0.025420189
0.077585205 0.026961282 -0.029334605
0.074220747 0.027209442 -0.028293371
0.072521299 0.02733697 -0.027886987
0.071757622 0.027379617 -0.027644485
0.070026159 0.027498454 -0.027051896
0.067676067 0.027648032 -0.02641955
0.065307759 0.027862445 -0.025733024
0.067720413 0.027104378 -0.027172565
0.065289848 0.02731929 -0.026516557
0.06330733 0.027433395 -0.025886565
0.060558289 0.027630273 -0.025063753
0.069415972 0.026457727 -0.028441161
0.065328173 0.026756186 -0.027293473
0.063668922 0.026886232 -0.02677235
0.061289228 0.027026117 -0.026055694
0.060597863 0.027071424 -0.025856197
0.058235541 0.027284987 -0.025217444
0.055841252 0.027429644 -0.024464279
0.045228176 0.027091384 -0.02825284
0.041442636 0.027352404 -0.027112037
0.039087411 0.027520049 -0.026461959
0.041518889 0.026819866 -0.027937472
0.036692724 0.027180284 -0.026546001
0.17873612 0.025344197 -0.033737719
0.27012888 0.018277131 -0.061308265
0.26875889 0.018400684 -0.060952127
0.26499361 0.018667243 -0.059834659
0.25755677 0.019181091 -0.057631105
0.25519538 0.019353662 -0.056941181
0.25281772 0.019519463 -0.056264937
0.25041145 0.019702621 -0.055534691
0.24806106 0.019866057 -0.054860324
0.24570242 0.020012945 -0.054138869
0.20255995 0.023081638 -0.041492879
0.20083526 0.023199297 -0.040976882
0.19912972 0.023323312 -0.040497571
0.19573617 0.023572676 -0.039509922
0.19132003 0.023872528 -0.038213879
0.18420306 0.024366643 -0.03608948
0.18187286 0.024535101 -0.035421073
0.17878926 0.024745569 -0.03450197
0.17641187 0.024943545 -0.033855051
0.17404568 0.025081277 -0.033097595
0.17169687 0.02527497 -0.032487482
0.17064238 0.02534581 -0.032167614
0.16897972 0.025439188 -0.031602859
0.1679194 0.025523618 -0.031316072
0.26063919 0.018376 -0.059287816
0.18696365 0.023577515 -0.037651062
0.18527463 0.023712792 -0.037136048
0.18190798 0.02392403 -0.036156446
0.17883554 0.024154149 -0.035240501
0.17649022 0.024308208 -0.034567893
0.17411543 0.024490356 -0.033840984
0.17172512 0.024660587 -0.033178478
0.16897973 0.024844132 -0.032321364
0.16628748 0.025047712 -0.031606674
0.1652869 0.025115594 -0.031309783
0.16360681 0.025232986 -0.030766994
0.16188145 0.025349859 -0.030294389
0.16015252 0.025474884 -0.029776186
0.15846995 0.025593605 -0.029264122
0.15679155 0.025701679 -0.028787315
0.15374507 0.025120024 -0.032999098
0.15200239 0.025247969 -0.032500535
0.14931414 0.02543655 -0.031662673
0.1482652 0.025493812 -0.031362534
0.14555413 0.02572649 -0.030603319
0.1445525 0.025786165 -0.030273497
0.14357337 0.025841735 -0.029989541
0.14081347 0.026067793 -0.029239953
0.13978353 0.02612989 -0.028909117
0.13811868 0.026230834 -0.028381735
0.13640553 0.026363611 -0.027926445
0.13473225 0.026468121 -0.027417749
0.13304995 0.026582986 -0.026919723
0.131327 0.026721451 -0.026417613
0.14187951 0.025374182 -0.030222327
0.14085954 0.025470305 -0.029973865
0.13815692 0.025632199 -0.0291287
0.13647306 0.0257571 -0.028661847
0.13473687 0.02588613 -0.028173357
0.13305007 0.025995396 -0.027645618
0.12967677 0.026251819 -0.026666403
0.12697302 0.026425555 -0.025869459
0.11601804 0.026593987 -0.027774483
0.12485293 0.025975324 -0.03043136
0.12115114 0.026228726 -0.029306203
0.11945401 0.026356742 -0.028864145
0.11842803 0.026426394 -0.028563887
0.11611181 0.026009481 -0.028566062
0.11440755 0.026134815 -0.028074116
0.11268137 0.026273087 -0.027631104
0.11265444 0.026834033 -0.026857316
0.11096966 0.026654985 -0.026675969
0.10994413 0.027005889 -0.026017278
0.10825383 0.026573326 -0.026309252
0.10654768 0.026699185 -0.025814682
0.10284118 0.026954621 -0.024703354
0.10936087 0.025903277 -0.027336389
0.10658425 0.026130453 -0.02659741
0.10493479 0.026219256 -0.026050091
0.10390125 0.026295621 -0.02573961
0.1011713 0.026517931 -0.024954498
0.098479092 0.026672032 -0.024154931
0.097444519 0.026756838 -0.023845702
0.082487412 0.026856247 -0.025473624
0.080767736 0.026959293 -0.024964422
0.079079062 0.027081855 -0.024430484
0.077372119 0.027220447 -0.02399984
0.074919879 0.027382601 -0.023232371
0.082465194 0.026314296 -0.026225835
0.080788821 0.026403137 -0.025731325
0.079115145 0.026517324 -0.025197387
0.077438466 0.026663084 -0.024721444
0.074954793 0.026823912 -0.024026364
0.072594538 0.02697904 -0.0232822
0.079121165 0.025957011 -0.025977224
0.077445753 0.026083849 -0.025442898
0.075035289 0.026260633 -0.024823368
0.072619304 0.026421759 -0.024016231
0.070219107 0.026579577 -0.023386836
0.068519153 0.026745424 -0.022888541
0.058248378 0.026728913 -0.025953472
0.055889096 0.02689093 -0.025262505
0.052128617 0.027146097 -0.024139762
0.051475633 0.027193934 -0.023959219
0.050762497 0.027242217 -0.023747832
0.055888154 0.026351333 -0.02604261
0.053137783 0.026526205 -0.025191009
0.052182615 0.026594952 -0.024922699
0.047771014 0.026899327 -0.02363494
0.048118997 0.026329644 -0.024491191
0.044691093 0.026571091 -0.023447663
0.042299036 0.026739758 -0.022788763
0.17177837 0.024043515 -0.033877581
0.17004734 0.024193697 -0.033462256
0.16735947 0.024350934 -0.032595187
0.16633663 0.024431929 -0.032309264
0.16360503 0.024623357 -0.031477779
0.16193977 0.024738826 -0.031016886
0.1602401 0.024868924 -0.030542374
0.15857625 0.024384469 -0.030756474
0.15850781 0.024990089 -0.029998928
0.15684113 0.025105361 -0.02953577
0.1551128 0.025236402 -0.029044092
0.15341873 0.025348116 -0.028490096
0.15242112 0.025412515 -0.028202087
0.15077215 0.024915699 -0.028439105
0.14870936 0.02569484 -0.027137011
0.147677 0.025762897 -0.026812494
0.14604917 0.025261819 -0.027057856
0.14501154 0.025343578 -0.026756108
0.1423039 0.025530793 -0.025984108
0.16027668 0.024264038 -0.031289935
0.15520015 0.02460897 -0.029776514
0.15345702 0.024753831 -0.029270142
0.14974691 0.025002576 -0.028189212
0.14872667 0.02509889 -0.027901769
0.14712079 0.024601083 -0.028108239
0.14335495 0.024883457 -0.027061313
0.14232805 0.024949059 -0.026729584
0.13895366 0.025172055 -0.025735855
0.13725102 0.025288753 -0.025241703
0.13479984 0.025307339 -0.028933108
0.13309702 0.025405735 -0.028394729
0.13073774 0.02558 -0.02770552
0.12969409 0.025660135 -0.027392536
0.12801921 0.02578048 -0.026918024
0.12701246 0.025835797 -0.026625156
0.12529045 0.025965799 -0.026104569
0.12428311 0.026035257 -0.025790215
0.12259603 0.026162449 -0.025363177
0.1208699 0.026268769 -0.024825841
0.11919777 0.026400097 -0.024275362
0.12264009 0.025569387 -0.026089787
0.12094932 0.025685094 -0.025588155
0.1192398 0.025804356 -0.025022238
0.11687747 0.026002549 -0.024418652
0.12473985 0.024825305 -0.027417004
0.1192944 0.025208496 -0.025816947
0.11761402 0.025334064 -0.025291085
0.11691188 0.025390998 -0.025126606
0.11519684 0.025512114 -0.024645239
0.11352524 0.025611833 -0.024084657
0.11071499 0.025828999 -0.023332655
0.10804085 0.025997274 -0.022502601
0.10220207 0.025841199 -0.025984645
0.10120635 0.025928814 -0.025707781
0.099528708 0.026038591 -0.025235265
0.098544076 0.026096664 -0.024921864
0.095804609 0.026294354 -0.024095863
0.094131276 0.026422992 -0.0236651
0.096859559 0.025639594 -0.025163621
0.094114035 0.025853097 -0.024394095
0.092444465 0.025972623 -0.023905158
0.090750188 0.026109673 -0.023351341
0.089084856 0.026216 -0.022900909
0.087351881 0.0263553 -0.0224199
0.09247908 0.025394592 -0.024663508
0.090771914 0.025522385 -0.024128288
0.089095697 0.025648784 -0.023639679
0.087403283 0.025755331 -0.023146838
0.085685968 0.025892936 -0.022650689
0.085027017 0.025921118 -0.022454768
0.083306707 0.026032019 -0.021935672
0.072614938 0.025864024 -0.024790764
0.070948429 0.025972713 -0.024312198
0.070296079 0.026011169 -0.024128109
0.066218928 0.026321229 -0.022937536
0.065504208 0.026368789 -0.02271843
0.075103506 0.025703706 -0.025601685
0.068570092 0.025590792 -0.024424195
0.068536162 0.026181195 -0.02367425
0.066220619 0.025774334 -0.023704678
0.063883707 0.025916986 -0.023008138
0.063149527 0.02597278 -0.022783548
0.061148778 0.026153333 -0.022257358
0.058412563 0.026324578 -0.021388382
0.058444556 0.025769822 -0.022186428
0.048476867 0.025769066 -0.025351614
0.045447618 0.025978006 -0.024468839
0.044724829 0.026022054 -0.02423501
0.042349301 0.026197683 -0.023562402
0.039934374 0.026380077 -0.022852957
0.042352516 0.025656655 -0.024324715
0.039988726 0.025831465 -0.023661256
0.037605047 0.025996167 -0.022937149
0.037636012 0.025446031 -0.023703635
0.034575041 0.025651917 -0.022766799
0.17661928 0.02343782 -0.031683356
0.1715121 0.023787528 -0.030184507
0.16883911 0.023984972 -0.029442638
0.16780007 0.024064869 -0.029165119
0.16612318 0.024170164 -0.028602302
0.16443643 0.024285287 -0.02812621
0.16268799 0.024417099 -0.027629435
0.16098285 0.024535902 -0.027104974
0.15759602 0.024788134 -0.026160955
0.16612241 0.023549434 -0.029318839
0.16445778 0.023668315 -0.028849185
0.16277754 0.023799393 -0.028393835
0.16108829 0.023911331 -0.02785176
0.15941127 0.024023511 -0.027378649
0.1586988 0.024077281 -0.027171075
0.15766892 0.024151534 -0.026879996
0.15593122 0.024283506 -0.026338041
0.15325767 0.02444689 -0.025544077
0.15223828 0.024548512 -0.025307417
0.15185514 0.024247725 -0.029476881
0.14609942 0.02466324 -0.02780804
0.14065669 0.025036976 -0.026193738
0.13557664 0.02539923 -0.024729401
0.14072749 0.024434179 -0.026958883
0.13905805 0.024551667 -0.026476115
0.13729241 0.024695586 -0.025993407
0.13560775 0.024789874 -0.025454938
0.13326621 0.024973996 -0.024784178
0.13220865 0.02505153 -0.024458379
0.13055462 0.025164869 -0.023988038
0.12951177 0.025224037 -0.023685008
0.13328397 0.024360269 -0.025502294
0.13056664 0.02456541 -0.024725378
0.12786373 0.024752263 -0.02391845
0.12615028 0.024866402 -0.023398489
0.12516728 0.024946846 -0.023157597
0.12341659 0.025060765 -0.022626042
0.11527402 0.024938364 -0.025422812
0.11353131 0.025027752 -0.024824828
0.11186857 0.025136065 -0.024347901
0.11088026 0.025221422 -0.024088055
0.10911286 0.025360368 -0.023608893
0.10644672 0.025531638 -0.022774607
0.10538804 0.025604315 -0.022464752
0.10749965 0.024869964 -0.02382645
0.10644256 0.024936382 -0.023502201
0.10373314 0.025156897 -0.022711962
0.10207285 0.025244802 -0.022238761
0.10106038 0.025312472 -0.021933138
0.082000844 0.025553048 -0.022277683
0.084028073 0.025412127 -0.022904485
0.083370954 0.025457367 -0.02271387
0.079996429 0.025427006 -0.022073567
0.077939525 0.025281172 -0.021890938
0.07752391 0.025882613 -0.020992368
0.075206213 0.025465082 -0.021003306
0.073476449 0.025570635 -0.020544797
0.070466235 0.025257841 -0.020414591
0.063862935 0.025368843 -0.023747116
0.061529092 0.025551885 -0.023071229
0.058821339 0.025192074 -0.023071826
0.056045812 0.025368281 -0.02221781
0.055084761 0.025437184 -0.021943122
0.054070916 0.025515057 -0.021642536
0.053372722 0.025565401 -0.021454036
0.050332867 0.025772069 -0.020558953
0.056107782 0.024811208 -0.022967875
0.051038686 0.025159139 -0.021511108
0.050372008 0.025203433 -0.021316558
0.047284432 0.025426243 -0.020382822
0.037642986 0.024907373 -0.024458528
0.034606196 0.025112562 -0.023573726
0.034641672 0.024570089 -0.024355441
0.15601993 0.023674663 -0.027129471
0.154356 0.023768611 -0.02657479
0.15330645 0.023825675 -0.026274264
0.15229134 0.023904663 -0.025993973
0.15059599 0.024058774 -0.025515646
0.1495945 0.024117913 -0.025185794
0.14861444 0.024173182 -0.024901241
0.14585528 0.024400279 -0.024151981
0.14482541 0.02446219 -0.023821294
0.14315979 0.024562515 -0.023293197
0.15066785 0.023438379 -0.026283562
0.14693311 0.023676809 -0.02511856
0.14591318 0.023773797 -0.02486968
0.14321068 0.02393505 -0.024025172
0.14152715 0.024060272 -0.023558319
0.13979125 0.024189632 -0.023070455
0.12897724 0.024067026 -0.024974972
0.12623446 0.024261322 -0.024141014
0.12518987 0.024338461 -0.023863375
0.12351084 0.024459485 -0.023398012
0.12146968 0.024598163 -0.022727489
0.11943462 0.024762683 -0.022200555
0.11773671 0.024866953 -0.021690965
0.11950191 0.024138175 -0.022892773
0.11777579 0.024277136 -0.022449583
0.11606108 0.024371546 -0.021856308
0.11439566 0.024481483 -0.021391362
0.11169033 0.024105821 -0.021400869
0.10477715 0.024470434 -0.023749083
0.10212297 0.024678212 -0.023007363
0.1011058 0.024725825 -0.022680074
0.099404506 0.024849862 -0.022173405
0.098386064 0.024922952 -0.021855205
0.096692547 0.024758074 -0.021776795
0.09500812 0.024880689 -0.021285683
0.09332636 0.02501424 -0.020745337
0.091650285 0.024834037 -0.020648301
0.09096992 0.024872527 -0.020447582
0.093366243 0.02411522 -0.021895766
0.091697425 0.024245132 -0.021379501
0.089657098 0.024380729 -0.020801008
0.087628603 0.024528105 -0.020206302
0.085908279 0.024630584 -0.019696444
0.084219746 0.024753112 -0.019162863
0.075184435 0.024892755 -0.021733731
0.073531531 0.024996981 -0.021283567
0.068065584 0.025399927 -0.019683897
0.070804596 0.024652481 -0.021286339
0.068804905 0.0247798 -0.02065593
0.068147242 0.024817396 -0.020450056
0.065727726 0.024995536 -0.019730806
0.068849295 0.024222106 -0.021424681
0.066468537 0.024361864 -0.02070713
0.065777935 0.024407048 -0.020508081
0.063415095 0.024620708 -0.019869
0.051088747 0.024600584 -0.022268713
0.048044067 0.02453563 -0.021758676
0.047303945 0.024860773 -0.021128923
0.045622438 0.024430808 -0.021419168
0.044957623 0.024754286 -0.020857602
0.042564236 0.02465912 -0.020548016
0.040211409 0.024814311 -0.019845933
0.042613231 0.024085395 -0.021322876
0.040580537 0.024232257 -0.020703614
0.037872098 0.024412878 -0.019891888
0.15689985 0.022761412 -0.024409324
0.15551792 0.022850674 -0.0240134
0.1514594 0.023162447 -0.022824705
0.15046263 0.023217969 -0.022530049
0.1494244 0.023300026 -0.022227734
0.15961361 0.022565782 -0.025248587
0.15787128 0.02271096 -0.024742872
0.15416053 0.022959486 -0.023661166
0.15314034 0.023056075 -0.023373723
0.1442762 0.023279049 -0.025105238
0.14159365 0.023439441 -0.024277806
0.13986546 0.023582239 -0.023813546
0.13816321 0.023680136 -0.023275733
0.13747919 0.023727171 -0.023074299
0.13583025 0.023539618 -0.022954106
0.13412115 0.023673419 -0.022451043
0.13310355 0.023748226 -0.022164375
0.1314539 0.023538839 -0.02203837
0.12973154 0.02366871 -0.021517903
0.12872517 0.023737993 -0.021204233
0.1270376 0.023865681 -0.02077648
0.12982985 0.02304187 -0.022266746
0.12877615 0.023120061 -0.021938413
0.1270934 0.02324377 -0.021487415
0.12607113 0.023316387 -0.021209568
0.1254025 0.023359619 -0.020985693
0.12369432 0.023478203 -0.020421118
0.12200218 0.023607466 -0.019976377
0.11614504 0.023775358 -0.02265358
0.11446736 0.023877747 -0.022140384
0.11345248 0.023949977 -0.021847278
0.11271784 0.02402024 -0.021668166
0.11101201 0.024146397 -0.021174312
0.1100411 0.024194021 -0.020853788
0.10730481 0.024401322 -0.020062417
0.11006806 0.023608647 -0.021610677
0.10837654 0.023713127 -0.021083444
0.10731973 0.023786381 -0.020773083
0.10564767 0.023935784 -0.020299137
0.10464736 0.023984209 -0.02002424
0.10192017 0.024174228 -0.019189745
0.1056943 0.02331724 -0.021037161
0.10468557 0.023397397 -0.020753503
0.10303112 0.023485176 -0.020250529
0.10198932 0.023555625 -0.019936979
0.10029257 0.02368265 -0.019425333
0.099243991 0.023769625 -0.019167483
0.097574227 0.023889236 -0.018678337
0.08761809 0.023956858 -0.02094385
0.085940912 0.024045251 -0.020448595
0.084266886 0.024159119 -0.019914657
0.082591049 0.024305094 -0.019439071
0.081876025 0.024349481 -0.019279927
0.082609683 0.023696072 -0.020146132
0.080557093 0.023851257 -0.01963374
0.079469852 0.023923308 -0.01929152
0.077783681 0.024033532 -0.01872015
0.077110328 0.024078067 -0.018548071
0.0753823 0.02419208 -0.018089086
0.077790074 0.02344653 -0.019479126
0.07547079 0.02359397 -0.018815845
0.073046476 0.023815915 -0.018139541
0.070679307 0.023952059 -0.017406106
0.063783132 0.024002213 -0.020672172
0.061732274 0.024155032 -0.020110041
0.060729016 0.024216715 -0.019785881
0.058658905 0.023779612 -0.019900769
0.05770269 0.023847554 -0.019636631
0.057318725 0.024451561 -0.018776804
0.052972298 0.024175767 -0.018257111
0.054344017 0.023513466 -0.019390911
0.05366338 0.023553066 -0.019195199
0.053001385 0.023599107 -0.019004673
0.049905278 0.023816653 -0.018057674
0.037889041 0.023858782 -0.020671278
0.037949651 0.023298621 -0.021442235
0.034192406 0.023578182 -0.020330817
0.033504508 0.023633868 -0.020151168
0.032503963 0.023699641 -0.019854367
0.03490857 0.022943597 -0.021246463
0.034218874 0.022993144 -0.021060914
0.15154743 0.022529148 -0.023565233
0.15052506 0.022591159 -0.02326414
0.14950705 0.022656877 -0.022952408
0.14778098 0.022812121 -0.022517353
0.14675516 0.022877637 -0.022186667
0.14508238 0.022964817 -0.021649927
0.14337996 0.023100421 -0.021192253
0.14167771 0.023217201 -0.020698607
0.14787218 0.022162072 -0.023202002
0.14516601 0.022333711 -0.022399545
0.14349653 0.022451285 -0.021916568
0.14241907 0.022545308 -0.021626145
0.1417318 0.022595774 -0.021434337
0.13971519 0.0227158 -0.020802706
0.13770467 0.022873633 -0.020224571
0.13664809 0.022951201 -0.019899607
0.12375996 0.022853937 -0.021199524
0.12207941 0.022979163 -0.020673424
0.12037615 0.023126662 -0.020256907
0.11966202 0.023157708 -0.02002722
0.11831307 0.023236364 -0.019563973
0.1169711 0.023323685 -0.019182414
0.11518098 0.023474794 -0.018714875
0.11703728 0.022711623 -0.019915938
0.11535792 0.022837833 -0.019454628
0.11359145 0.022977594 -0.018976152
0.1118824 0.02307146 -0.018417507
0.11092425 0.023148276 -0.01814118
0.10032433 0.023086064 -0.020163894
0.099340595 0.023153186 -0.019888103
0.097621217 0.023281984 -0.019421846
0.095581859 0.023439378 -0.018776268
0.093583561 0.023575235 -0.018214375
0.093606636 0.022978887 -0.018938214
0.091567002 0.023121659 -0.018359065
0.090197697 0.023223571 -0.017949849
0.088524275 0.023315504 -0.017456979
0.075486436 0.023012817 -0.019548118
0.073415458 0.023183394 -0.019003242
0.071407586 0.023328226 -0.018378109
0.070757166 0.023361772 -0.018173456
0.068336129 0.023526538 -0.01745677
0.067687169 0.023589049 -0.017261595
0.068433017 0.02292826 -0.018228799
0.065697998 0.023164615 -0.0174779
0.062962919 0.023335472 -0.016610265
0.050671544 0.023194473 -0.019062966
0.049949571 0.023238197 -0.018829852
0.047573186 0.023413874 -0.018156588
0.046869151 0.023458123 -0.017952263
0.045159034 0.023596387 -0.017447919
0.047587298 0.022843014 -0.018904328
0.04522384 0.023018114 -0.018240899
0.042839944 0.023182653 -0.017516792
0.045239259 0.022432104 -0.01897341
0.043213107 0.022582248 -0.018362164
0.040505439 0.022767946 -0.017568469
0.039822016 0.02280888 -0.017332852
0.027130105 0.022941291 -0.019727439
0.025823992 0.022470526 -0.020086408
0.14012788 0.022064142 -0.021642774
0.1384452 0.022178702 -0.021144181
0.13773504 0.022231326 -0.020926952
0.13672301 0.022317085 -0.020642668
0.13501802 0.022436921 -0.020150214
0.13333191 0.022538237 -0.019649774
0.13231516 0.022623409 -0.019343168
0.13060176 0.022737395 -0.018823534
0.13344097 0.021909904 -0.020383865
0.1323866 0.02197811 -0.020070523
0.13069881 0.022103909 -0.019550681
0.12965377 0.022181071 -0.019272298
0.1290001 0.022232857 -0.019106448
0.12797478 0.022302464 -0.018807113
0.12724984 0.022346821 -0.018575013
0.12562487 0.022147983 -0.018399388
0.12462993 0.021909513 -0.018453151
0.12397815 0.021952111 -0.018285811
0.12053806 0.022185739 -0.01725018
0.12630175 0.021778803 -0.019003093
0.12327998 0.022020016 -0.01813364
0.12225211 0.022091698 -0.017842442
0.11358345 0.022360366 -0.019689828
0.1119899 0.022458076 -0.019178092
0.11093226 0.022524148 -0.018853605
0.1099042 0.022600576 -0.018552601
0.10924121 0.022649489 -0.018364102
0.10822405 0.022744734 -0.018064231
0.10662544 0.022237558 -0.018343419
0.10608536 0.022558689 -0.017803133
0.10492586 0.02232895 -0.017816931
0.10390643 0.02240862 -0.017509162
0.10288903 0.022481635 -0.017192185
0.10395335 0.021783307 -0.018241644
0.10120133 0.022302769 -0.017105162
0.09952876 0.02211858 -0.016976863
0.097844265 0.022248875 -0.016434819
0.090223968 0.022627782 -0.018700153
0.088550754 0.022713382 -0.018187732
0.086523347 0.022853803 -0.017561078
0.084494427 0.02302314 -0.017011136
0.084556758 0.02240365 -0.017688394
0.082856074 0.022532105 -0.0172804
0.082091808 0.022574041 -0.01703766
0.081415594 0.022626564 -0.01681602
