# .PCD v0.7 - Point Cloud Data file format
VERSION 0.7
FIELDS x y z
SIZE 4 4 4
TYPE F F F
COUNT 1 1 1
WIDTH 1360
HEIGHT 1
VIEWPOINT 0 0 0 1 0 0 0
POINTS 1360
DATA ascii
0.34693813 0.014057003 0.023277311
0.34286898 0.011684582 0.023225181
0.3419219 0.011116736 0.02318993
0.34138942 0.010753214 0.023147801
0.33899218 0.0094478205 0.02319009
0.33340794 0.0063066781 0.023195129
0.3313815 0.005117096 0.023149541
0.33077136 0.004788965 0.023156861
0.32847029 0.0035708845 0.02320171
0.32430977 0.0012216419 0.023230895
0.32339564 0.00067411363 0.023198269
0.32111132 -0.00064212829 0.023183241
0.35877931 0.020532392 0.023149781
0.35636014 0.01924409 0.023185685
0.35255834 0.017111123 0.023185389
0.35105401 0.016311035 0.023243763
0.33655846 0.0032379329 0.022916645
0.3338266 0.0016981438 0.022915628
0.33142069 0.00035806 0.022915255
0.32947826 -0.00068219006 0.022951573
0.35752213 0.015047453 0.022933036
0.35682228 0.014061272 0.023781832
0.35515517 0.013667628 0.022907196
0.35426599 0.013226941 0.022928981
0.35299152 0.011956967 0.023819793
0.35112298 0.01114656 0.023343258
0.3500832 0.010882594 0.02293228
0.34860694 0.010139935 0.023008799
0.34716117 0.0092261881 0.022927623
0.34709284 0.0085760877 0.023762446
0.34540415 0.0082928687 0.022957472
0.34451613 0.0078132674 0.022990949
0.34382755 0.0067601204 0.023785084
0.34092778 0.0051322132 0.023804691
0.33379188 0.0010717586 0.023769094
0.35920542 0.015354313 0.023760166
0.35264206 0.0069030374 0.02361737
0.35111916 0.0061392263 0.023684923
0.3504774 0.0058208779 0.023714431
0.3473047 0.0039451942 0.023635957
0.34489956 0.0025708526 0.023627546
0.33722508 -0.0017376095 0.023627207
0.33213049 -0.0046013296 0.023618728
0.35797593 0.009904258 0.023632523
0.35708103 0.0093609244 0.023609357
0.35560995 0.0085911751 0.023623355
0.35218582 0.0019869581 0.023628443
0.35664651 0.004420802 0.023580395
0.35579127 0.0039634705 0.023591911
0.35430452 0.0030821562 0.023546873
0.35375011 0.0027562827 0.023541547
0.35688609 -0.00014724582 0.023633096
0.027838953 0.082180187 0.019050283
0.011490807 0.069604039 0.019565484
0.039911471 0.075050831 0.019190842
0.031369306 0.068109371 0.019665087
0.028253272 0.065955564 0.019678935
0.011208788 0.054952942 0.01925154
0.0047703609 0.050444402 0.019304477
0.0010346249 0.04779502 0.019299973
0.047372255 0.064608648 0.019790279
0.052798498 0.067341581 0.020253349
0.052071493 0.066847093 0.020273728
0.044791993 0.062818334 0.019801594
0.034582697 0.054881677 0.020310786
0.033145577 0.053867713 0.020302841
0.031203955 0.052587174 0.020343201
0.025145009 0.048434954 0.020372592
0.02231627 0.046448305 0.020349532
0.02025535 0.045026161 0.0203849
0.018966585 0.04415407 0.020393757
0.01769536 0.044188067 0.019847903
0.014292568 0.041855808 0.019909583
0.01181215 0.039163284 0.020362893
0.0055523664 0.034848806 0.02043107
0.0017558038 0.032191902 0.020428371
0.045192115 0.048598163 0.02035626
0.02982413 0.039075702 0.019834211
0.014877588 0.027984556 0.020454369
0.013081178 0.02764143 0.01991047
0.005153589 0.021273497 0.020445559
0.00062093884 0.01812353 0.020449001
0.081748351 0.060306527 0.020131398
0.080309018 0.059365019 0.020140626
0.078785785 0.05836425 0.020147525
0.075319499 0.05612348 0.02021323
0.073901609 0.055156574 0.020190313
0.069825798 0.052483864 0.020210002
0.078208379 0.057075098 0.020712344
0.077972338 0.0569221 0.020717816
0.072808981 0.053489856 0.020689201
0.063922748 0.048530571 0.020194355
0.063275874 0.047152713 0.020715307
0.063048951 0.047011457 0.020724677
0.054697841 0.042419899 0.020242395
0.051216684 0.040112425 0.020279476
0.039698511 0.032381125 0.020263173
0.037938595 0.031230986 0.020314856
0.038838021 0.030897327 0.020834401
0.031147718 0.026619501 0.020257343
0.020766914 0.019652247 0.020352684
0.02218397 0.019685302 0.020875931
0.018456593 0.017142341 0.020861071
0.012694158 0.014143027 0.0203191
0.011800505 0.012660399 0.020893209
0.0081221908 0.010140732 0.020904679
0.00046429038 0.0058072656 0.020350648
0.0032101125 0.0068194419 0.02091659
0.063431799 0.035689734 0.020493228
0.064863697 0.035674918 0.020991839
0.06226692 0.034021091 0.021048529
0.057855684 0.031081729 0.021021046
0.05235257 0.027470689 0.021078037
0.016491607 0.004516717 0.020619718
0.025768965 0.0097931959 0.021107115
0.019855693 0.0058346279 0.021126201
0.017557144 0.0043203644 0.021156022
0.013074473 0.0012999699 0.021156872
0.0018958896 -0.005365178 0.020612229
0.0072713718 -0.0025688484 0.021187862
-0.0016616061 -0.0077208057 0.020666689
0.061133511 0.022705 0.020572811
0.071862459 0.0287928 0.021117359
0.051585212 0.016426094 0.020567978
0.050130047 0.015448846 0.020571774
0.048345149 0.014290113 0.02057785
0.046502113 0.0131106 0.02060378
0.052968428 0.016430739 0.021136183
0.050736278 0.014952943 0.021129986
0.035730459 0.0060074441 0.020616498
0.028919682 0.0015196726 0.020643285
0.019975267 -0.0044567697 0.020635983
0.018799484 -0.0061141476 0.021196194
0.011526555 -0.010979109 0.021185545
0.010555893 -0.011627153 0.021181667
0.0051937327 -0.015162349 0.021248946
0.10382147 0.038689069 0.020820517
0.10582229 0.039069682 0.021394596
0.10145064 0.036301348 0.021435738
0.10015927 0.035474688 0.021439847
0.095838889 0.032683618 0.021397602
0.093762361 0.031386811 0.021434342
0.089777686 0.028819175 0.02143939
0.087730356 0.027493941 0.021430327
0.073471211 0.018374093 0.021493077
0.063099079 0.012565717 0.020932624
0.069382668 0.015693814 0.021467602
0.06783691 0.014673017 0.021453194
0.067151338 0.01421788 0.021444872
0.06605348 0.013550438 0.021487126
0.064485922 0.012543075 0.021489702
0.027877316 -0.01045331 0.020969888
0.028510906 -0.010906655 0.021560624
0.027460799 -0.011596728 0.021549411
0.01780165 -0.017920904 0.02160552
0.014399372 -0.019297212 0.021021619
0.013341472 -0.019970022 0.021042377
0.1379689 0.048652135 0.021451224
0.1356425 0.04723762 0.021503657
0.13507764 0.046900831 0.021520937
0.13182813 0.045769095 0.020945106
0.13124615 0.044507943 0.021546302
0.11736359 0.036650803 0.020896493
0.11323248 0.033145979 0.021493085
0.11192891 0.032334879 0.021494353
0.11067349 0.031535298 0.02149469
0.10879566 0.030333579 0.021486558
0.10387538 0.027239693 0.021530244
0.099686146 0.025471538 0.02092859
0.099045247 0.024180619 0.021526732
0.096069299 0.023161702 0.020923296
0.093732864 0.021742636 0.021005347
0.091694765 0.020426232 0.020984367
0.080115855 0.013014693 0.020986632
0.098222837 0.023639122 0.021507988
0.097531602 0.023190696 0.021500209
0.088555291 0.017476985 0.02152849
0.084626064 0.014971808 0.021520182
0.083861724 0.014511473 0.021552335
0.08309266 0.01404766 0.021588527
0.081542604 0.013059564 0.021589072
0.079798229 0.011913516 0.021567415
0.078356132 0.011864081 0.020941766
0.042306855 -0.012173444 0.021665784
0.039777257 -0.013861202 0.021611378
0.038466372 -0.014684096 0.021638792
0.036410496 -0.015995707 0.021665975
0.033861771 -0.01769517 0.021634916
0.030358568 -0.019037973 0.021093642
0.023979865 -0.023204312 0.021108517
0.02515097 -0.023311436 0.021688927
0.1575149 0.051039208 0.021226099
0.14816946 0.045224089 0.021213295
0.13113245 0.033819221 0.021946682
0.12229539 0.028277136 0.021866623
0.11941054 0.026482433 0.021884797
0.10722435 0.018823516 0.021897856
0.095631704 0.01246292 0.021367865
0.095013827 0.011205493 0.021990895
0.043096088 -0.021030489 0.021449221
0.040775359 -0.022565667 0.021398671
0.044216231 -0.021182738 0.022038193
0.041677825 -0.022835057 0.022018082
0.040425062 -0.023667343 0.021991545
0.039633237 -0.024160594 0.02201095
0.17481947 0.05191591 0.021230469
0.1645783 0.045656882 0.021254277
0.16272005 0.044508494 0.021251034
0.15900189 0.04223837 0.021272654
0.17102781 0.048726574 0.021862663
0.15664513 0.040777229 0.021253025
0.14701784 0.034761354 0.021181902
0.12652436 0.022199105 0.021328462
0.12482851 0.021116089 0.021287341
0.1191356 0.017615097 0.021340279
0.14465828 0.03239499 0.02177171
0.13841246 0.02870607 0.021967722
0.13135317 0.024356019 0.022047749
0.11848493 0.016336823 0.021964721
0.1166572 0.015189026 0.021949841
0.1135782 0.013266876 0.021938749
0.11223878 0.012416001 0.021929016
0.11094858 0.011605946 0.02193233
0.110227 0.01160356 0.021636395
0.10890581 0.011212585 0.021332171
0.10812093 0.010712845 0.021333456
0.1076282 0.010398284 0.021329369
0.10644254 0.0088193193 0.02197928
0.10501806 0.0088089556 0.021379691
0.18885775 0.050790615 0.021528648
0.18462902 0.047296658 0.022099202
0.18139207 0.045353699 0.022131994
0.17844316 0.043559931 0.022138188
0.17604454 0.04209011 0.022141585
0.16069224 0.0327732 0.022205248
0.14445034 0.023604531 0.021499917
0.13794522 0.019732751 0.021650832
0.12342053 0.010746504 0.021601457
0.12267788 0.010289992 0.021609269
0.12183559 0.0097596813 0.021603614
0.12130494 0.0094339363 0.021610005
0.12994726 0.013937225 0.022309124
0.12676205 0.011923891 0.022212351
0.12412862 0.01032091 0.022231035
0.12005443 0.0086833211 0.021639174
0.11865493 0.0078101791 0.021636816
0.18821494 0.041667659 0.021451356
0.14178701 0.013444468 0.021514345
0.19321571 0.043797493 0.022062756
0.19213867 0.043145731 0.022065336
0.19135338 0.042677835 0.022074666
0.18973847 0.041726589 0.022089899
0.18896633 0.041267958 0.022100139
0.18820287 0.040773593 0.022080103
0.18684813 0.039903663 0.022004623
0.17111324 0.030424368 0.022074044
0.16866416 0.028948128 0.022089619
0.16627616 0.027477346 0.02207852
0.15182692 0.01865083 0.022055808
0.15007758 0.017515728 0.021993602
0.14772803 0.016068161 0.021980796
0.14635102 0.015259327 0.022020983
0.14248788 0.01300865 0.02214803
0.13852657 0.011464734 0.021542756
0.13760991 0.01048607 0.021875871
0.13614661 0.010009484 0.021556051
0.13505691 0.0089111971 0.021896476
0.21465522 0.047939207 0.022142228
0.20472296 0.04200995 0.022141539
0.2033391 0.041198649 0.022158694
0.20255966 0.040733099 0.022171941
0.19122797 0.033961155 0.022217605
0.18806237 0.031979568 0.022129735
0.18666486 0.031111268 0.02211936
0.17936066 0.026747165 0.022171242
0.16431622 0.017692706 0.022214934
0.15955706 0.014762886 0.022166705
0.15361497 0.011177424 0.022190338
0.15178618 0.010003412 0.022131549
0.15124032 0.0096335383 0.022094594
0.15049314 0.0091665853 0.022077197
0.14859128 0.0080475658 0.022120178
0.2217793 0.044381447 0.021809321
0.21381122 0.039671063 0.021844527
0.21325347 0.038505089 0.022525718
0.20468765 0.033390157 0.022507049
0.20087463 0.031884275 0.021792872
0.19871637 0.030612992 0.021802325
0.19811046 0.029417008 0.022486238
0.19725597 0.028940277 0.022511587
0.19626352 0.029197238 0.0218543
0.19544286 0.028702717 0.021855174
0.19244108 0.02610465 0.022558127
0.19079129 0.025038935 0.022470992
0.19003412 0.024572715 0.022454701
0.18634731 0.022813126 0.022169024
0.18433426 0.021185104 0.022507846
0.1810973 0.020078007 0.021844067
0.17602898 0.017049488 0.021839948
0.16353248 0.0095267007 0.021872757
0.16191088 0.0085381083 0.021856247
0.1818928 0.019729512 0.022518968
0.17805134 0.017435309 0.022539215
0.17678872 0.01667591 0.022519711
0.17289045 0.014340132 0.022542289
0.16480151 0.00947419 0.022565939
0.16430327 0.009171647 0.022562716
0.16283368 0.0082678823 0.022536285
0.23163086 0.041614525 0.022318186
0.2288852 0.039976683 0.022329597
0.22503972 0.037747245 0.022371652
0.210071 0.028844271 0.02235939
0.20895404 0.02820269 0.022340462
0.20512965 0.02594932 0.0223966
0.20296146 0.024602657 0.022329101
0.20076002 0.023306785 0.022344057
0.19128619 0.017661426 0.022332149
0.19045183 0.017143982 0.02232681
0.18987566 0.016790226 0.022322409
0.18796736 0.015700422 0.022364229
0.18549916 0.014226759 0.02237699
0.18359528 0.013097689 0.022385968
0.17843188 0.010014042 0.022377368
0.1764885 0.008847286 0.022384429
0.17381054 0.0072665652 0.022412151
0.25207043 0.045106448 0.023061767
0.25026941 0.044056389 0.023057206
0.24820384 0.043720629 0.022421228
0.24687195 0.042935669 0.022397997
0.24462783 0.040689256 0.023002498
0.24130529 0.038812708 0.023070011
0.24046679 0.039138678 0.022381883
0.23739742 0.036520239 0.02309031
0.23612176 0.036633629 0.022421926
0.22921328 0.031700756 0.023095058
0.22427903 0.029640231 0.02242071
0.22097394 0.02686229 0.023100074
0.21886498 0.026418392 0.022392549
0.21581009 0.024658786 0.022435537
0.21355689 0.022456219 0.023094142
0.21191545 0.021479385 0.023104355
0.21107292 0.020994412 0.023081718
0.21025774 0.020521691 0.023079382
0.20921621 0.020732032 0.022406083
0.20564252 0.0186224 0.022422655
0.19957945 0.015028857 0.022438521
0.19945493 0.01414394 0.023136545
0.19730632 0.012867995 0.023139561
0.1954878 0.012633737 0.022469819
0.1940321 0.010877587 0.023080574
0.1905354 0.0095977839 0.022383703
0.18717913 0.0068225674 0.023121206
0.18624802 0.0066709667 0.022768844
0.18453974 0.0060660029 0.022436682
0.26474857 0.045690328 0.022578137
0.26334608 0.044887614 0.022594159
0.262018 0.044114184 0.022597538
0.26002654 0.042940073 0.022593269
0.25585663 0.040522102 0.022597015
0.25390786 0.039389804 0.022623163
0.25256503 0.038555264 0.022566199
0.25033355 0.037330855 0.022637127
0.24893767 0.036519129 0.02263823
0.24452347 0.033882834 0.022599598
0.24253976 0.032737032 0.022613453
0.24118194 0.03193602 0.022619441
0.23568332 0.028708585 0.022595473
0.23372717 0.027552851 0.022609385
0.23235127 0.02673398 0.022611359
0.21299902 0.015357168 0.022627486
0.21054658 0.01395647 0.022645365
0.2014004 0.0085552689 0.022667425
0.19975168 0.0075819511 0.022679713
0.19893385 0.0071007777 0.022671049
0.19808277 0.0066108443 0.022681005
0.27578124 0.044563428 0.023032393
0.27469313 0.043927059 0.023036245
0.27309388 0.042913195 0.022972144
0.26890081 0.040537875 0.023013519
0.26639852 0.03907311 0.022989988
0.2627224 0.036954466 0.023019914
0.25802371 0.034203015 0.022998862
0.24965987 0.029327832 0.023001384
0.24800548 0.028299451 0.022951035
0.24326468 0.025613517 0.023049239
0.2413283 0.024423938 0.022984305
0.23829752 0.02270633 0.023035146
0.23575094 0.021211267 0.023030486
0.22465023 0.014716856 0.023029249
0.22408895 0.014404066 0.023044946
0.22268711 0.0135666 0.023033585
0.21822694 0.010946745 0.023046009
0.21461631 0.0088086538 0.023037344
0.20990443 0.0060810912 0.023084156
0.25290594 0.024572842 0.022917032
0.23953079 0.016739972 0.022884911
0.2375288 0.015568644 0.022893004
0.22414824 0.0077629481 0.022893015
0.22304969 0.0071179029 0.022899201
0.22209115 0.0065874327 0.022925269
0.2205133 0.0056805108 0.02293033
0.28546488 0.043336183 0.022829639
0.2809329 0.040810555 0.02290744
0.27723616 0.038676437 0.022895712
0.27639973 0.038183853 0.022885449
0.27444094 0.03696841 0.022818051
0.26556414 0.031877786 0.022864811
0.26127052 0.029365871 0.022863723
0.25989375 0.02857808 0.022850849
0.25515908 0.025822815 0.022868523
0.25150311 0.023719929 0.022870503
0.24313627 0.018772736 0.022819359
0.27163616 0.02869764 0.022852989
0.26884413 0.027107891 0.022871392
0.26290905 0.023665302 0.022889201
0.25924513 0.021588158 0.022919066
0.25787491 0.020711757 0.022832261
0.25563368 0.019487068 0.022889201
0.25418115 0.018662397 0.02292026
0.24970099 0.015996911 0.022858346
0.2477487 0.014883708 0.022878999
0.24159732 0.011321835 0.02289932
0.2339063 0.0068494715 0.022915
0.23202749 0.0057538599 0.02289496
0.23143706 0.005404111 0.022891486
0.23057446 0.0049169548 0.022909898
0.29638395 0.04257378 0.023195174
0.29564095 0.041797154 0.023591395
0.294846 0.041360766 0.023627784
0.29421592 0.040983744 0.023629904
0.29201761 0.040432885 0.022835266
0.29083747 0.039760314 0.022857409
0.28965887 0.038364738 0.023612132
0.28850138 0.038484491 0.022883384
0.2862981 0.036391743 0.023582697
0.284078 0.035189256 0.023642048
0.28006029 0.032834969 0.023612697
0.27919835 0.033123247 0.02289526
0.27859235 0.032014392 0.023648653
0.27561504 0.031000368 0.022848723
0.27412325 0.029421952 0.023652701
0.27301714 0.028780345 0.023641415
0.26970363 0.026835863 0.023600237
0.26625007 0.024853103 0.023626367
0.2600624 0.021307748 0.023658585
0.25727507 0.019618746 0.023604326
0.25501305 0.018383522 0.023672458
0.25361377 0.017547708 0.023625243
0.24856445 0.014605094 0.023616428
0.2395286 0.0093365163 0.023620406
0.23591596 0.0072362348 0.023635576
0.23334213 0.0057679713 0.023666736
0.29347855 0.034638613 0.022995438
0.28895149 0.032025382 0.02299431
0.28437674 0.029486965 0.02307019
0.27979648 0.026845794 0.023049098
0.27843046 0.025976222 0.022990247
0.27468866 0.023897823 0.023046566
0.27416581 0.023585524 0.023034427
0.26733673 0.019622173 0.023026193
0.26544201 0.018475071 0.022998711
0.24961598 0.0093907043 0.023033781
0.24108672 0.0044329315 0.023032032
0.30423668 0.040044658 0.023738787
0.30168504 0.039395213 0.023032013
0.29999825 0.038423054 0.023016814
0.2982648 0.036647402 0.023736732
0.29689869 0.035910986 0.02377777
0.29631865 0.035575628 0.023786737
0.29483217 0.034718484 0.023764296
0.29165995 0.032900006 0.02378469
0.28832003 0.030929543 0.023746127
0.27300677 0.02211773 0.023777021
0.25999132 0.014590759 0.023748601
0.25773767 0.0133669 0.023803601
0.25174275 0.0098504759 0.023776565
0.31034052 0.037678383 0.023267088
0.30661738 0.03564918 0.023341149
0.30210581 0.03305427 0.023324676
0.29750368 0.030423559 0.023346467
0.28861257 0.025308833 0.023321711
0.28321838 0.022235274 0.02332877
0.28173614 0.021410484 0.023364665
0.27722734 0.018806431 0.023368062
0.27610853 0.018161185 0.023357151
0.26303524 0.010654826 0.023373611
0.26217154 0.010124162 0.023356177
0.26160741 0.0097473301 0.023302492
0.2602213 0.0089583136 0.023320021
0.253995 0.005329065 0.023278119
0.25255072 0.0045512021 0.023332389
0.25196031 0.0042261928 0.023339324
0.31360447 0.033864632 0.023043748
0.27972487 0.013759829 0.02380969
0.27860254 0.013118628 0.023812765
0.27637538 0.011771936 0.023769874
0.27033228 0.0083405562 0.023787981
0.2660889 0.00589028 0.023770548
0.26353198 0.0044094585 0.023780923
0.25955957 0.0028991252 0.023050833
0.32990426 0.042360231 0.023741929
0.3278763 0.04121168 0.023760797
0.3249827 0.039556034 0.023753699
0.32238016 0.038108356 0.023772754
0.3184413 0.035888709 0.023779981
0.31643468 0.03465157 0.023712877
0.30668545 0.029136457 0.023767803
0.30414993 0.027699724 0.023771139
0.29870841 0.0246078 0.023794452
0.29549882 0.022769235 0.023794297
0.29059979 0.019947194 0.023760194
0.28664279 0.017633688 0.023728725
0.28520334 0.01686747 0.02377075
0.2854791 0.011349574 0.023615628
0.28144395 0.0090369582 0.023614544
0.28088433 0.0087157972 0.023619331
0.27977964 0.0080815777 0.023612062
0.27716869 0.0065154172 0.023571543
0.27634791 0.006070476 0.023565818
0.27436283 0.0049529411 0.023593016
0.27198753 0.0035755113 0.023582507
0.33611351 0.040152147 0.023560673
0.33439958 0.039290719 0.023641769
0.33264047 0.038199633 0.023583116
0.32779145 0.035403967 0.023549912
0.32579142 0.034279674 0.023556812
0.32174611 0.031958997 0.023547251
0.32025245 0.031157345 0.023574216
0.29671565 0.017747827 0.023603534
0.29467738 0.016589627 0.023595333
0.28519538 0.0054644383 0.023500046
0.28231117 0.0038615502 0.02354357
0.28147298 0.0033769235 0.023540506
0.28033912 0.0027133487 0.023524333
0.33113289 0.031589523 0.023491517
0.32821575 0.029925756 0.02348436
0.32108682 0.025954366 0.02352044
0.31294155 0.021329269 0.023544556
0.31181985 0.020661086 0.023515066
0.30976611 0.019456394 0.023497479
0.30775428 0.018321157 0.02350313
0.30603743 0.016660884 0.024285626
0.29788119 0.012723058 0.023512164
0.29584995 0.011544824 0.023495313
0.28464144 0.0044126622 0.024274191
0.35422903 0.043980889 0.024267919
0.35139436 0.042374134 0.024264703
0.34960976 0.042053699 0.02347891
0.34381598 0.03886383 0.023548128
0.33343181 0.032198779 0.02427155
0.33051592 0.030554056 0.024264757
0.32453662 0.027115531 0.02426542
0.31061634 0.019207321 0.024258183
0.29218271 0.0038660094 0.023593396
0.34640059 0.034611411 0.023546807
0.34286493 0.032618068 0.023556547
0.34137446 0.031878375 0.023644751
0.33685327 0.029233776 0.023588547
0.33360824 0.027384996 0.023571482
0.32811981 0.024255455 0.023543639
0.32208568 0.020831414 0.023548501
0.31880212 0.019009911 0.023586217
0.31819844 0.0179682 0.024385724
0.31273443 0.01481171 0.024344591
0.3116141 0.014828838 0.023530878
0.30959785 0.013725534 0.023552433
0.30900949 0.013384297 0.023551155
0.30663958 0.011358656 0.024321949
0.30393928 0.010192148 0.023969337
0.30286089 0.009921059 0.023546081
0.30131155 0.0086442307 0.023926057
0.29525056 0.0048890226 0.024342624
0.29385 0.0041524842 0.024377132
0.29297394 0.0036677346 0.024407264
0.35975671 0.042069048 0.023481483
0.35637689 0.04014492 0.023483528
0.35336941 0.037846044 0.024336712
0.35247052 0.037304133 0.024320962
0.35164499 0.037516624 0.023523329
0.35099101 0.037189297 0.023550767
0.34952796 0.035692625 0.024358768
0.34721738 0.034385726 0.024348155
0.33533686 0.027611271 0.024320979
0.32429773 0.021399453 0.024346966
0.30269134 0.0041643083 0.023676779
0.29994249 0.002688881 0.023728043
0.35064802 0.031372428 0.023707248
0.34135801 0.0261259 0.023712542
0.33643073 0.023296192 0.023678403
0.33349377 0.021644585 0.023672124
0.3314324 0.020466074 0.023690334
0.32538605 0.017064527 0.023690619
0.32130784 0.014777981 0.023716813
0.31922922 0.013605639 0.023739858
0.31765315 0.012321308 0.024074258
0.31283301 0.0099470764 0.023702504
0.31080562 0.008806929 0.023707952
0.30965984 0.0075009316 0.024503704
0.30735821 0.0068262517 0.023670278
0.3040677 0.0043433383 0.024516402
0.29793149 0.00080636889 0.024492662
0.35967994 0.036487766 0.023723429
0.33726966 0.023093104 0.02448971
0.33231163 0.02030234 0.024494713
0.33085686 0.019502997 0.024507908
0.31528309 0.0057474747 0.023950795
0.31411412 0.0051361173 0.023994414
0.3097043 0.0026392117 0.023954296
0.30771595 0.0015403852 0.023987271
0.35351253 0.027413987 0.023985287
0.35118374 0.026051186 0.023970831
0.34973562 0.025289588 0.023985539
0.34824157 0.024493039 0.024045043
0.34681046 0.023616366 0.023980241
0.34530246 0.022857755 0.024050871
0.3446714 0.022542924 0.024081016
0.34331137 0.021687262 0.024007
0.34154487 0.020683698 0.024000287
0.33833131 0.01878874 0.023950638
0.33684298 0.018027931 0.024010016
0.33338213 0.015989311 0.023947794
0.33131033 0.014883414 0.023982804
0.33071494 0.014528677 0.023995338
0.328704 0.013344154 0.023948941
0.32619646 0.012005962 0.023991991
0.32522649 0.011442646 0.023987126
0.3231262 0.010236204 0.023980638
0.3185029 0.0076072365 0.023984062
0.32898676 0.0080476254 0.024366921
0.32705903 0.0070115775 0.024403598
0.32500261 0.0057860017 0.024371475
0.32294089 0.004677318 0.024422307
0.32148719 0.0037335977 0.024324205
0.35603836 0.023299992 0.024381528
0.35313347 0.021632373 0.024374232
0.35219961 0.021121547 0.024355182
0.35047406 0.020214066 0.024414739
0.34872246 0.019186921 0.024369251
0.3469252 0.018246934 0.02443468
0.34108326 0.014884442 0.024380226
0.33872145 0.013580382 0.024398038
0.3352626 0.011551887 0.024344862
0.33172941 0.0095890462 0.024378898
0.33111557 0.0092187151 0.024363479
0.35571295 0.018263578 0.02403661
0.35501349 0.017866127 0.024044752
0.35425937 0.01740472 0.024018934
0.35336572 0.01694347 0.02402585
0.35187837 0.01615712 0.024076609
0.34833634 0.014196455 0.024096658
0.34543717 0.012461714 0.024015684
0.34362552 0.011555403 0.0240917
0.34280318 0.011020407 0.024056567
0.341313 0.010109425 0.023998592
0.33981359 0.0093448982 0.024057558
0.33835173 0.0084497556 0.023992933
0.33632845 0.0072980523 0.023996169
0.33423996 0.006186597 0.02403095
0.33218688 0.0049690679 0.02401376
0.35769933 0.013965771 0.024646284
0.35380951 0.01180803 0.024675636
0.3432267 0.0057681277 0.024601817
0.35641199 0.0084534362 0.024481826
0.3549166 0.0076641515 0.024531566
0.35432678 0.0073432997 0.024546111
0.35753864 0.0043496042 0.024433061
0.0085430294 0.082007408 0.020259779
0.018112831 0.073379844 0.020033974
0.015715882 0.071687311 0.019998612
0.016953409 0.071633697 0.020514879
0.014672242 0.069974482 0.020489683
0.0099998862 0.066656873 0.02048433
0.029128648 0.065629251 0.020196369
0.026166983 0.062618308 0.020678889
0.023822017 0.060073372 0.021183986
0.0218748 0.059613217 0.020671349
0.020923331 0.058974873 0.020692548
0.018813826 0.05750728 0.020722557
0.015263751 0.05499848 0.020712528
0.013059296 0.054406926 0.020250591
0.01228632 0.051959716 0.021195862
0.008241564 0.049122576 0.021194974
0.0064492598 0.047821436 0.021180816
0.044287715 0.060603153 0.020806951
0.047025982 0.061534766 0.02129193
0.029902533 0.050742012 0.020838451
0.029206663 0.050243597 0.020794848
0.026124626 0.047215093 0.021344494
0.016716279 0.041630462 0.020871239
0.015594326 0.039939702 0.021373618
0.010226481 0.037159681 0.020903597
0.0085578933 0.035956699 0.020861605
0.012739599 0.037953109 0.021379294
0.006728515 0.033785287 0.021417232
0.003765583 0.032150064 0.021118989
0.047264587 0.049056217 0.020863738
0.044636339 0.047292158 0.020875173
0.025831714 0.034557872 0.020934273
0.029120803 0.035818506 0.021400774
0.028679304 0.035541493 0.021422992
0.024043106 0.032376666 0.021425433
0.015915483 0.027767673 0.020961409
0.013986625 0.026421875 0.020943092
0.011633925 0.023903709 0.021478279
0.0090110078 0.02207651 0.021444378
-0.00035558641 0.016558483 0.020970521
0.0080812871 0.021422159 0.02144471
0.0059546605 0.020042181 0.021510696
0.084781013 0.060462192 0.021232946
0.075217403 0.053717673 0.021540616
0.073666528 0.053132921 0.021235434
0.07166633 0.051773652 0.021207388
0.069259226 0.050269052 0.021304119
0.068141393 0.048593655 0.021830553
0.061461773 0.044158407 0.021840371
0.046844147 0.035336059 0.021333886
0.046225578 0.03399346 0.021861207
0.042440414 0.032374244 0.021317428
0.036595725 0.027530529 0.02186209
0.032713331 0.024954151 0.021908293
0.025461376 0.020952437 0.021358574
0.023356006 0.018659234 0.021921573
0.022108942 0.017821282 0.021936743
0.0039873049 0.0064371899 0.021447273
0.010280281 0.0097707435 0.021913206
0.0062849298 0.0070864186 0.021953562
0.0026238859 0.004621312 0.021984076
0.096889883 0.055713911 0.021533936
0.086680844 0.04906543 0.021532319
0.074109495 0.039912518 0.022060018
0.069799244 0.037153818 0.022147963
0.062928393 0.033539444 0.021597857
0.060411848 0.031907134 0.021611037
0.057237715 0.029771399 0.021575252
0.061877124 0.03192465 0.022127425
0.05661317 0.028454833 0.022137329
0.053835995 0.02665123 0.022171153
0.047780246 0.023534376 0.021619439
0.039803356 0.018253818 0.021651508
0.0390184 0.017755128 0.021672005
0.043689497 0.019904085 0.022154069
0.036984175 0.015428673 0.022149254
0.031073466 0.012413319 0.021628501
0.030229434 0.010975093 0.022199398
0.028692417 0.0099756345 0.022219028
0.024719648 0.0073158816 0.022218639
0.022508666 0.0058501065 0.022244807
0.021147475 0.0058319457 0.021680545
0.013969503 0.00098318607 0.021662422
0.010487586 -0.0013631359 0.02166849
0.018768445 0.0033252276 0.022231648
0.016509905 0.0018202737 0.022257812
0.012223206 -0.0010369569 0.022269437
0.00098618865 -0.0077464432 0.021708149
0.00023040175 -0.0082383901 0.021725466
0.10095258 0.046651863 0.021596134
0.096214488 0.043606188 0.021593442
0.095404156 0.043066759 0.021573951
0.092629358 0.041298918 0.021606307
0.10649981 0.049273975 0.022110118
0.10290153 0.046964385 0.022130469
0.099138424 0.04458059 0.022183651
0.08055833 0.033514224 0.02165748
0.078658506 0.031367749 0.022213262
0.070052326 0.025779556 0.022222906
0.068758801 0.025837388 0.021664556
0.068017259 0.025338266 0.021637872
0.063902527 0.022682428 0.021682583
0.052825563 0.015437108 0.021692883
0.052328669 0.015129238 0.021696018
0.063322693 0.021388181 0.022220865
0.057258025 0.017421719 0.022233801
0.054968499 0.015955903 0.022265382
0.05448088 0.015635345 0.022268962
0.053726897 0.01511807 0.022264749
0.051620632 0.014642131 0.0216901
0.049599536 0.013314955 0.021705395
0.0453007 0.010503232 0.021704648
0.043859214 0.00952629 0.021684535
0.043730371 0.0085494928 0.022248227
0.042153098 0.0075217076 0.022256086
0.037637062 0.0045231879 0.022260223
0.024975561 -0.0028943159 0.021755302
0.027339943 -0.0022593401 0.022286123
0.0075427666 -0.014491387 0.021784978
0.0011428595 -0.019646272 0.022361828
-0.00069653988 -0.019956604 0.021827443
0.11639191 0.044883613 0.021957079
0.12018494 0.046350863 0.022499701
0.11940743 0.045872137 0.022513421
0.11531293 0.043288339 0.022538694
0.11225243 0.041345078 0.022536766
0.11097474 0.04054296 0.0225362
0.10287753 0.03628584 0.021987444
0.099532232 0.034167536 0.022006679
0.1079326 0.038587168 0.022523416
0.098263092 0.032440737 0.022562262
0.095446229 0.03062336 0.022553109
0.089130506 0.027503526 0.022015372
0.087297127 0.02539718 0.022564117
0.084860295 0.024733933 0.021979418
0.076665111 0.019471094 0.021994418
0.074886411 0.018343605 0.022013035
0.068787724 0.014409665 0.022034349
0.082350299 0.022265803 0.022615548
0.075577319 0.017871916 0.022574697
0.072986826 0.016264759 0.02265493
0.068477377 0.014204029 0.022033224
0.041785844 -0.003091678 0.022125332
0.040731989 -0.0037690997 0.022132084
0.029014334 -0.011441015 0.02214333
0.038906559 -0.0059024319 0.02265086
0.03812708 -0.0063944198 0.022670483
0.015409872 -0.020405605 0.022130089
0.018949486 -0.018910177 0.0227654
0.016976945 -0.020247214 0.022725826
0.14798483 0.053963568 0.021992274
0.13196307 0.044056799 0.022134921
0.11905409 0.035918657 0.022072364
0.11844674 0.034639772 0.022669878
0.11514244 0.033474971 0.022113133
0.10201904 0.025182603 0.022145789
0.096141294 0.021422848 0.022105942
0.11403996 0.031869739 0.022683037
0.10842229 0.028300513 0.02266638
0.10657355 0.027142288 0.022683388
0.09571372 0.020279542 0.022716956
0.093673691 0.019033944 0.022778817
0.086361974 0.015187336 0.022103833
0.085664287 0.014734512 0.022098266
0.087297425 0.01488623 0.022681566
0.083914906 0.012769414 0.022735877
0.083151624 0.012308478 0.022769181
0.044833258 -0.012316898 0.022799112
0.043815643 -0.012966506 0.022812014
0.043045208 -0.013455067 0.022838922
0.032972284 -0.019110348 0.022249909
0.029593855 -0.021306615 0.02226649
0.02764307 -0.023448452 0.022839926
0.12801886 0.031006023 0.022588717
0.12326577 0.027980819 0.022456707
0.12169903 0.027027208 0.022480266
0.12087952 0.026512457 0.022479368
0.11830778 0.02490405 0.022494284
0.11188939 0.020883445 0.022491703
0.10582279 0.017066944 0.022516275
0.10010429 0.013472497 0.02251314
0.099351667 0.012977121 0.022494659
0.098590985 0.012500914 0.022502927
0.097257212 0.011675363 0.022518769
0.04751122 -0.019957803 0.022599492
0.14844924 0.033927206 0.022458112
0.14349172 0.030826779 0.022429094
0.13469486 0.025535509 0.022609551
0.17315242 0.04824362 0.023096221
0.17171519 0.047370747 0.023105249
0.16995005 0.046282373 0.023075407
0.16145554 0.04106804 0.02309344
0.16093105 0.040738881 0.023089742
0.12130579 0.017202528 0.022554282
0.11425781 0.012819355 0.022557827
0.11161122 0.011148537 0.02254843
0.12357124 0.017729882 0.023161316
0.1227628 0.017235588 0.023168709
0.12200686 0.016756836 0.023163719
0.11940754 0.015161929 0.023196263
0.11748983 0.01396219 0.023194736
0.1149134 0.012356063 0.023173753
0.19327706 0.051664561 0.022747139
0.18027027 0.043804824 0.022791518
0.1723264 0.038977295 0.02277828
0.16465729 0.034300134 0.022801435
0.16327241 0.033449285 0.022800144
0.16141419 0.03233055 0.022819327
0.15903492 0.030869018 0.022807103
0.15035155 0.025523717 0.022783574
0.13231915 0.015426293 0.022373693
0.14836006 0.023771053 0.023005744
0.14749326 0.022791309 0.023307556
0.14101774 0.019859029 0.02287773
0.14044079 0.019517085 0.022891616
0.13331038 0.015154809 0.022970095
0.12665802 0.010988851 0.022837788
0.12592624 0.010544728 0.022841441
0.12510946 0.010054907 0.022855731
0.12355115 0.0090967612 0.022862032
0.20127422 0.047783948 0.022690557
0.20038337 0.04724963 0.022714967
0.19644409 0.044819526 0.022648202
0.19453749 0.043685704 0.022670694
0.19317135 0.042905837 0.022708656
0.18357763 0.037083305 0.022678003
0.1985051 0.04520024 0.023296637
0.19715682 0.044375818 0.023288647
0.19415992 0.042624779 0.023338929
0.17950846 0.033766702 0.023343613
0.17710643 0.032316551 0.023347249
0.17498125 0.031906225 0.022725383
0.17374073 0.031151459 0.022705162
0.17202634 0.029248089 0.023354601
0.17009345 0.028088562 0.023372924
0.16745985 0.026473252 0.023374736
0.16400181 0.024369087 0.023362065
0.16123396 0.023131609 0.023062313
0.15898021 0.022167351 0.022708369
0.15791538 0.021496827 0.022696344
0.14971907 0.016410464 0.022610327
0.14572495 0.014055018 0.022702791
0.13945213 0.010326577 0.022833478
0.15868902 0.02111133 0.023333589
0.15704039 0.020102605 0.023345333
0.15652543 0.019796884 0.023349926
0.15382668 0.018162254 0.023368523
0.15305345 0.017693317 0.023366846
0.15096332 0.016368162 0.023307897
0.14342304 0.011857391 0.023421053
0.14149559 0.01071897 0.023466557
0.21991453 0.049373887 0.023457937
0.20845905 0.042509291 0.023455072
0.20061202 0.038695969 0.022824073
0.1855613 0.029634334 0.022808352
0.18312176 0.028176943 0.022829685
0.18042618 0.026558544 0.022843396
0.17829436 0.025280427 0.022845162
0.17690809 0.024453165 0.022858081
0.17126313 0.021054298 0.022867374
0.15811618 0.013050699 0.022845237
0.15566278 0.011565262 0.022853717
0.15486655 0.011089877 0.022860533
0.15431117 0.010750896 0.022853384
0.15246536 0.0095916661 0.022803908
0.15019709 0.0081382766 0.022730796
0.20002937 0.037445787 0.023440504
0.19705334 0.035678208 0.02346229
0.19381405 0.033779658 0.023514213
0.18976794 0.031314962 0.023463106
0.18766615 0.030019727 0.023439087
0.18385078 0.027773535 0.023505064
0.18140772 0.026296858 0.023493819
0.17578711 0.022919413 0.023491209
0.1720321 0.02066783 0.023521895
0.16906531 0.018858999 0.023524849
0.16715713 0.01770268 0.023513103
0.1653256 0.016601644 0.02352041
0.1569563 0.011501199 0.023500733
0.1536878 0.0095194876 0.023491869
0.2243153 0.044206653 0.023167804
0.21189363 0.036811747 0.023161013
0.20703909 0.033928089 0.023139162
0.20051232 0.029991863 0.023132117
0.19507775 0.026812553 0.023205388
0.19424282 0.026310645 0.02320078
0.19344135 0.025856178 0.023218475
0.1918809 0.024897672 0.023209261
0.18746985 0.022212151 0.023150844
0.18502276 0.020763349 0.02318131
0.18263128 0.019330587 0.023184875
0.18019617 0.017873269 0.023187404
0.17504917 0.014790708 0.023195073
0.16820569 0.010664947 0.023204353
0.16554104 0.0090853125 0.023235768
0.16363941 0.0079217553 0.023209071
0.21599934 0.038412396 0.023818094
0.20966455 0.03463177 0.023827061
0.20807047 0.033691682 0.023811363
0.2064524 0.032750003 0.023832893
0.19997931 0.028850071 0.023819411
0.18336496 0.018930078 0.023851853
0.18095405 0.017482707 0.023858273
0.17771637 0.015553933 0.023856759
0.16899548 0.010305146 0.023873912
0.16816971 0.009806362 0.023873722
0.16765854 0.0094874147 0.023862453
0.24059257 0.046080768 0.023007689
0.23943739 0.04457007 0.02369806
0.23863305 0.044090021 0.0237188
0.23322862 0.040904213 0.023705242
0.23071995 0.039410323 0.023694545
0.22992107 0.038935617 0.023698721
0.2277765 0.038505223 0.023022536
0.22634599 0.037679274 0.023040414
0.2260325 0.03666373 0.023726223
0.22251901 0.035437964 0.023052325
0.21770401 0.032561697 0.023028646
0.21628793 0.031737305 0.023053648
0.21542038 0.031241629 0.023075568
0.21486267 0.0300886 0.023751371
0.21170923 0.028992958 0.02302691
0.21079122 0.028449316 0.023041897
0.20756008 0.026568322 0.023049783
0.20696944 0.02539048 0.02372192
0.20476155 0.024088673 0.023756908
0.20261541 0.022738988 0.023695268
0.20016921 0.022130357 0.023033522
0.19937263 0.021670364 0.023052204
0.19873333 0.020493696 0.023754962
0.19790012 0.019993262 0.023757407
0.19688699 0.020221984 0.023084471
0.19544892 0.018556476 0.023770159
0.1887449 0.015331313 0.023036677
0.17941719 0.0097871916 0.023079481
0.17726861 0.0084836623 0.023057172
0.17537244 0.0073699467 0.023083463
0.24338132 0.046796124 0.02361178
0.1922254 0.016567182 0.023697082
0.18756488 0.013813341 0.023755178
0.18701023 0.013489163 0.023758098
0.18137109 0.010129355 0.023759963
0.17989644 0.0092483563 0.023769513
0.17862131 0.0084862774 0.023750419
0.22699249 0.030419026 0.02312452
0.20719677 0.018731795 0.0231403
0.19814986 0.013371786 0.023144513
0.25693899 0.047123153 0.023745641
0.25281173 0.044777531 0.02380657
0.24927069 0.042696279 0.02377766
0.24784836 0.041879758 0.023809237
0.24345711 0.039238621 0.023744376
0.2401773 0.037339799 0.023798706
0.2313455 0.03211654 0.023765463
0.23000199 0.031329505 0.023775093
0.21845111 0.024555452 0.023809029
0.21755666 0.024045326 0.023820374
0.21539722 0.022737784 0.023797164
0.21459596 0.022247523 0.023785172
0.21290967 0.021256475 0.023792654
0.20880613 0.018872773 0.023801645
0.20525464 0.01671564 0.02377628
0.204414 0.016197883 0.023766872
0.20310386 0.015446208 0.023784662
0.2022284 0.014926974 0.02379027
0.19889081 0.01299319 0.023831788
0.19722357 0.01202194 0.02384332
0.19644755 0.011575935 0.023856804
0.19564553 0.011105133 0.023867181
0.19179606 0.0087060835 0.023763055
0.18987283 0.0076127155 0.023804333
0.26747364 0.046500526 0.023311859
0.2641803 0.044565424 0.023296243
0.26077497 0.042575207 0.023304528
0.25801408 0.040953409 0.023304844
0.25720459 0.040500734 0.023305297
0.25471291 0.039083879 0.0233417
0.2400651 0.030410744 0.023260532
0.23649694 0.028387446 0.023327846
0.23173253 0.025564417 0.02331732
0.22949955 0.02428963 0.023347316
0.22294423 0.020437479 0.023328666
0.21872157 0.017981905 0.023380047
0.21238197 0.013421731 0.02403963
0.21149218 0.012901917 0.024047282
0.209941 0.012800023 0.023342811
0.20907363 0.012281887 0.023367332
0.20770945 0.0114928 0.023377223
0.20050694 0.0072235521 0.023377443
0.25359267 0.037536275 0.023978796
0.24918142 0.035045635 0.024046168
0.24781033 0.034143195 0.023963561
0.24550593 0.032840464 0.024007736
0.24365123 0.031778183 0.024020964
0.24220103 0.030924741 0.024050297
0.23835586 0.028721754 0.024068996
0.23780492 0.028375495 0.024050513
0.22540715 0.0210655 0.024018146
0.22173944 0.018923491 0.024048399
0.22041078 0.018139087 0.024050934
0.21400341 0.01435083 0.024051465
0.20405644 0.0084757041 0.024034286
0.24681696 0.026869707 0.023716219
0.24488384 0.025761358 0.023737274
0.24213344 0.024102774 0.023700129
0.24017042 0.023061194 0.023781873
0.23710537 0.021211024 0.023731019
0.23375762 0.019239776 0.02374984
0.23181021 0.018132851 0.023765942
0.22550076 0.014399961 0.023734918
0.22063097 0.011602506 0.023789562
0.2156561 0.0086408667 0.023768336
0.21264321 0.0069006812 0.023765866
0.21153556 0.0062587894 0.023764407
0.27892366 0.045509949 0.023696559
0.27755892 0.044721976 0.023684893
0.27664354 0.044248655 0.023725964
0.27024257 0.040556315 0.023757691
0.26105574 0.035136137 0.023709301
0.2604478 0.034795713 0.023717944
0.25935984 0.034188479 0.023731209
0.25882992 0.033891831 0.023723066
0.25491351 0.031563688 0.023689605
0.25408655 0.031098239 0.023718009
0.24884535 0.02798143 0.023658454
0.2262378 0.014035549 0.02443341
0.27529439 0.036684126 0.023558542
0.27107206 0.034305628 0.02360337
0.27048087 0.033937138 0.023589248
0.25817442 0.026849493 0.023632076
0.25679559 0.025960088 0.023562051
0.24862722 0.021242063 0.023590501
0.24675073 0.020174038 0.023603447
0.23637891 0.014111042 0.02361214
0.23296849 0.01214508 0.023635238
0.22384354 0.0068093985 0.023620246
0.29155332 0.045356296 0.024308747
0.28899938 0.043879166 0.024341701
0.28763223 0.04388275 0.02359766
0.27955663 0.0391322 0.023529552
0.2699284 0.032815199 0.024322642
0.26714504 0.031239167 0.024331737
0.26513469 0.030071359 0.024331393
0.25170994 0.022267055 0.024321683
0.2474685 0.019821621 0.024335802
0.24606214 0.018991154 0.024344362
0.24420133 0.01785513 0.024294579
0.24216092 0.016752746 0.024368742
0.2254229 0.0069597699 0.024353884
0.28318024 0.034676723 0.023660298
0.23892263 0.0082226507 0.024369255
0.30156016 0.044425175 0.02436085
0.29955736 0.043270193 0.024355717
0.28261328 0.033483721 0.024327867
0.28090748 0.032515101 0.024328316
0.27749735 0.030552678 0.024335233
0.27547553 0.029449493 0.024389897
0.27188492 0.027304474 0.02434852
0.26702791 0.024539616 0.024367375
0.26567262 0.023737028 0.024355872
0.26078081 0.020950865 0.024390679
0.25670004 0.018569775 0.02437526
0.25581631 0.018080167 0.024396194
0.25439286 0.017260514 0.024398157
0.25221348 0.015861172 0.02428972
0.25134051 0.015379433 0.024305606
0.24932174 0.014280509 0.024368051
0.24650761 0.012641571 0.024380166
0.30536279 0.040763848 0.02378653
0.30283076 0.039318033 0.023808092
0.28603172 0.029699013 0.023799004
0.27662134 0.024267048 0.023812609
0.26647237 0.017587718 0.02451268
0.26191679 0.01578784 0.023814248
0.25630325 0.012555201 0.023833666
0.25548527 0.012074184 0.023813741
0.2477828 0.006802313 0.024525516
0.30931744 0.042221427 0.024508996
0.29310215 0.032928877 0.024525154
0.28542334 0.028613582 0.024586163
0.28082949 0.025960557 0.024575524
0.26868936 0.013123985 0.024094606
0.31517929 0.039737262 0.024045262
0.31457409 0.039382704 0.024030317
0.3074218 0.035377465 0.024103053
0.30092084 0.031623274 0.024064807
0.29573619 0.027892694 0.024833445
0.29247651 0.026095644 0.024870107
0.29032269 0.025515817 0.024055168
0.28964701 0.024436824 0.024851907
0.28800458 0.024279118 0.024116676
0.2840637 0.021942358 0.024067666
0.28342482 0.020902865 0.02488547
0.28062376 0.019971382 0.024074577
0.2785829 0.018862478 0.024128294
0.26753467 0.011676136 0.024836052
0.26520398 0.010388445 0.024851462
0.25728381 0.0058690459 0.024894826
0.32248741 0.043235533 0.024855442
0.31395769 0.038352199 0.024851751
0.31194299 0.037234135 0.024886925
0.30229393 0.031689852 0.024854442
0.29971349 0.030206084 0.024837082
0.2899977 0.01892104 0.024574613
0.28453329 0.015800525 0.024581861
0.28115204 0.013784628 0.024517469
0.2685591 0.0065641925 0.024547301
0.26799753 0.0062687546 0.0245752
0.32586721 0.0393347 0.024515871
0.32070816 0.036382839 0.02450585
0.31732213 0.034466468 0.024525594
0.31467986 0.033048011 0.024596509
0.30358654 0.02665507 0.024527358
0.30485237 0.021659739 0.024346393
0.28285179 0.0090531409 0.024329085
0.27400509 0.0040404089 0.024367107
0.33610713 0.039437063 0.024350923
0.33553782 0.039129011 0.024363708
0.33383319 0.038205102 0.024408696
0.32570755 0.033550128 0.024365876
0.3234154 0.031487964 0.025133301
0.32198244 0.030698068 0.025137732
0.31852263 0.028683431 0.025095304
0.31449598 0.027152114 0.024363725
0.31334722 0.025744438 0.025099767
0.31017768 0.024000622 0.025166564
0.30703068 0.022200316 0.025160706
0.30617476 0.021709554 0.025152555
0.29601404 0.01594682 0.025166402
0.29348543 0.014441326 0.025126591
0.29158598 0.013418056 0.025166534
0.28621578 0.010357741 0.025185112
0.28508919 0.0097134598 0.025183359
0.27423179 0.0034755096 0.025163202
0.27052394 0.0012791641 0.025133109
0.2698918 0.00094787031 0.025155211
0.28603497 0.0052871481 0.024331365
0.34577847 0.039214052 0.024279034
0.3437939 0.038162939 0.024341768
0.34322983 0.037858523 0.024363093
0.33832145 0.035015345 0.024307104
0.33250502 0.031743981 0.024323149
0.32935154 0.029187791 0.025067188
0.32706466 0.02862975 0.024304213
0.32526678 0.026875421 0.025086455
0.32246816 0.025993824 0.024284216
0.31379002 0.02109573 0.024330424
0.31228629 0.019550964 0.025116242
0.3074345 0.016775824 0.025101403
0.30276749 0.01412385 0.025122875
0.29809958 0.011469826 0.025106244
0.29745594 0.011126772 0.025121352
0.29608768 0.010275789 0.025076309
0.29466286 0.0094734803 0.025077118
0.29375291 0.0089698061 0.025098534
0.29238614 0.0082532875 0.025133133
0.28739175 0.0053925514 0.025137894
0.35075292 0.041311823 0.02507082
0.34923136 0.040509924 0.025108201
0.34113505 0.035969771 0.025141817
0.34054863 0.03567908 0.02518237
0.33913773 0.034877539 0.02516545
0.33828282 0.034283884 0.025083376
0.33744115 0.033815727 0.025097899
0.33135149 0.030325964 0.025072336
0.34225518 0.031661958 0.024423407
0.33878106 0.028968483 0.02518121
0.33705831 0.027983986 0.025190046
0.33468425 0.026635572 0.025164282
0.3251524 0.021191046 0.025148917
0.31962436 0.018127739 0.025210125
0.31469327 0.015316591 0.025199713
0.30921543 0.012160234 0.025162499
0.30518973 0.0099005401 0.025167869
0.35934278 0.040590346 0.025199812
0.35794681 0.03976924 0.025158813
0.34458452 0.032249719 0.025189145
0.34053504 0.029967353 0.025188148
0.33965427 0.029412672 0.025149407
0.32608241 0.01681377 0.024517491
0.3241716 0.015783027 0.024554586
0.31022847 0.0078368858 0.024527293
0.30496147 0.0048546344 0.024547562
0.35913318 0.035483129 0.02451165
0.35617009 0.033837438 0.024532797
0.35263789 0.031836577 0.024533592
0.35005209 0.030337766 0.02452451
0.34712529 0.028773092 0.024566691
0.34653759 0.027770206 0.025387384
0.34502605 0.026898399 0.025356082
0.3440145 0.026710518 0.024996666
0.34156001 0.024904996 0.025328597
0.3407107 0.024434052 0.025342986
0.33984897 0.024360336 0.024985407
0.33899337 0.023856536 0.024991756
0.33025974 0.019192763 0.024530496
0.32819551 0.017979488 0.024513653
0.32498664 0.015580028 0.025357792
0.31887877 0.011997476 0.025293469
0.30640388 0.0050322041 0.025366116
0.35860109 0.03444995 0.025284434
0.35179034 0.030704543 0.025353115
0.33766288 0.017838001 0.02481363
0.33622724 0.016978711 0.024804179
0.33210212 0.014682911 0.024815327
0.32951295 0.013166375 0.024794621
0.32806242 0.01237075 0.02479839
0.32659185 0.01158718 0.024821147
0.3222037 0.0091253445 0.024859726
0.32048225 0.0080654994 0.024795955
0.31992665 0.0077157691 0.024765901
0.36053142 0.03068503 0.024790242
0.35584372 0.028026633 0.024780331
0.35527468 0.027711153 0.024791889
0.3520484 0.025930792 0.02482843
0.35115835 0.025393173 0.024795745
0.34906864 0.024308838 0.024858702
0.34763777 0.023478054 0.024837648
0.34087497 0.019727208 0.024874333
0.34005582 0.019193105 0.024838591
0.34958217 0.019082621 0.025255129
0.34281659 0.015330046 0.025276011
0.33607182 0.011396162 0.025189906
0.33403414 0.010258645 0.025196614
0.32787305 0.0068385899 0.025226099
0.35869217 0.02416008 0.025199868
0.33918408 0.0083219856 0.024871146
0.35267699 0.015977882 0.024906993
0.35067707 0.01485002 0.024903426
0.3253943 -0.0047896728 0.025526639
0.012603037 0.067608073 0.021002548
0.022351354 0.072598502 0.021889959
0.019427232 0.070526466 0.021899482
0.013680577 0.067392334 0.021433335
0.010906771 0.065411292 0.021439545
0.008559458 0.063762322 0.02146435
0.012603849 0.065716587 0.021946141
0.0061277077 0.061041225 0.02189013
0.003864862 0.060435958 0.021489309
0.031252041 0.064286381 0.021651212
0.033298485 0.064725652 0.022094734
0.027030043 0.061310031 0.021619333
0.023079768 0.05856489 0.021655833
0.019965768 0.056407072 0.021681288
0.018884957 0.054743137 0.022184014
0.01758007 0.054765124 0.021679033
0.016461588 0.053940967 0.021668755
0.014260776 0.052433509 0.02170028
0.0099968389 0.049428202 0.021700446
0.013181821 0.050734177 0.02219617
0.010848843 0.049071986 0.02214757
0.0090878755 0.047889557 0.022208156
0.054574441 0.06474328 0.022253476
0.051171102 0.062467121 0.022288054
0.050361488 0.061930928 0.022302948
0.049058143 0.061981875 0.021815859
0.046475869 0.060203798 0.021793881
0.043936405 0.057532102 0.022307573
0.041743882 0.05606702 0.022320289
0.030837901 0.049526833 0.021852937
0.027024828 0.046898074 0.021851111
0.024516419 0.045181558 0.021863647
0.034309924 0.050937403 0.022301076
0.032093376 0.049465124 0.022348979
0.023660563 0.044551309 0.021837395
0.021501347 0.043102585 0.021871533
0.0078183264 0.033590965 0.021860685
0.004929252 0.030697051 0.022407496
0.00046420097 0.027571552 0.022412289
-0.00058483332 0.027756959 0.021897865
0.046804406 0.046879116 0.021907026
0.054207351 0.050938837 0.022391425
0.048823223 0.047341954 0.022415059
0.046165079 0.045529451 0.022419633
0.025165126 0.03221485 0.021953443
0.020756975 0.029252373 0.021991435
0.019524135 0.028404385 0.021972833
0.026902989 0.032516774 0.022479156
0.018466882 0.026727114 0.022479886
0.017101064 0.026733227 0.021977881
0.014996938 0.024381783 0.022520378
0.0046484545 0.017231718 0.022484856
0.07792446 0.054115146 0.022343656
0.07254529 0.050507922 0.02227574
0.06040594 0.042527292 0.022366082
0.057379413 0.039557315 0.02287475
0.052603789 0.036432046 0.022930028
0.045638323 0.032689013 0.022393409
0.0447907 0.032148495 0.022417033
0.044104271 0.031685442 0.022406142
0.043372206 0.031181768 0.022397505
0.041015536 0.02867246 0.022920879
0.029124133 0.021625075 0.022434907
0.028317034 0.021082405 0.022429351
