# .PCD v0.7 - Point Cloud Data file format
VERSION 0.7
FIELDS x y z
SIZE 4 4 4
TYPE F F F
COUNT 1 1 1
WIDTH 1336
HEIGHT 1
VIEWPOINT 0 0 0 1 0 0 0
POINTS 1336
DATA ascii
0.095306844 0.0096321926 0.024553927
0.090967551 0.011693336 0.024642194
0.088425279 0.01298435 0.024814043
0.08545965 0.014414757 0.024930157
0.082423359 0.015931703 0.025120514
0.07987304 0.017162599 0.02518104
0.077373013 0.018379495 0.025301024
0.075064152 0.019519754 0.025403829
0.070381954 0.021818019 0.025634788
0.019504286 0.04672933 0.027890822
0.017353617 0.047792822 0.027985265
0.0026851892 0.054988403 0.02867415
0.0014469475 0.055586293 0.028704092
0.00045049191 0.056069337 0.028732428
-0.0011283159 0.056837454 0.028800739
0.082102165 0.01523196 0.025667774
0.077128962 0.017646141 0.025861733
0.06653066 0.022871591 0.026370237
0.0091052577 0.050965857 0.028898763
0.080693126 0.0090949237 0.024375644
0.077801853 0.010479301 0.024435831
0.074995056 0.011916526 0.024649177
0.072172344 0.013242535 0.024706129
0.062839046 0.017843224 0.025157675
0.061286047 0.01860223 0.025228478
0.037182048 0.030359834 0.026251931
0.034889549 0.031518187 0.026373493
0.027310677 0.035233375 0.026734803
0.02283904 0.037399106 0.026885331
0.015192151 0.041163299 0.027246334
0.0003253296 0.048462894 0.027932692
0.068172857 0.0083960071 0.023708295
0.065341979 0.0097611099 0.023826331
0.05763106 0.01355949 0.024195068
0.01030615 0.036754157 0.026306607
0.055766314 0.01366736 0.024869725
0.052567914 0.015178554 0.024951119
0.010012269 0.036082432 0.026915764
0.0043916479 0.038819704 0.027146863
0.0027802438 0.039606012 0.027218167
0.0024155527 0.039792351 0.027237
0.052492917 0.0084704161 0.024036868
0.050585583 0.0094092786 0.024126289
0.043304086 0.012968939 0.024462413
0.040211163 0.014505945 0.024612658
0.035063066 0.016988426 0.024792196
0.027444661 0.020747881 0.025163807
0.0093501806 0.029601451 0.025955237
0.038525276 0.0085377507 0.023863003
0.037211224 0.0091894455 0.023932451
0.032462947 0.011511527 0.024151675
0.028672308 0.013350509 0.024269601
0.026137933 0.01460911 0.024413427
0.019724578 0.017722178 0.024670064
0.016281754 0.019433364 0.024853406
0.012772411 0.021154143 0.024981659
0.011514381 0.021778893 0.025061637
0.010218211 0.022415522 0.025126114
0.0057554767 0.024549995 0.025266934
0.026672155 0.0084002651 0.023150243
0.018705674 0.012328859 0.023522165
0.0028998777 0.020040177 0.024233216
0.024901383 0.0084459633 0.023821421
0.021068856 0.010352325 0.024032844
0.019747891 0.011021651 0.024108479
0.01851438 0.011627201 0.024170155
0.017266952 0.012226168 0.024219509
0.014691472 0.013458665 0.024298657
0.01118996 0.015190508 0.024460305
0.0026469827 0.019379534 0.024880907
0.012794822 0.0085068233 0.023360901
0.011499539 0.0091456473 0.02342071
0.010213032 0.0097464882 0.023454558
0.0067137629 0.011454333 0.023576012
0.008130908 0.14813487 0.040879387
0.0037220344 0.15028401 0.041073181
0.0090653636 0.14674899 0.041241322
-0.0010549016 0.14022508 0.039985389
-0.0014170371 0.14040768 0.040005624
0.095854864 0.081299342 0.03432668
0.0053995401 0.12565541 0.038401194
-0.0016272962 0.12906903 0.038696159
0.00080493093 0.11734637 0.037137758
-0.00044541433 0.11797439 0.037196442
-0.00015819818 0.10823627 0.035658356
-0.00043451041 0.10836902 0.035672072
0.01735086 0.09864983 0.035174858
0.00047069788 0.10704499 0.036108121
0.018408582 0.088631019 0.033930175
0.004105784 0.095592551 0.03449798
-0.0010010935 0.098184437 0.034864038
0.01424206 0.089761101 0.034569316
0.0072502792 0.093129672 0.034789316
0.0057111457 0.093878992 0.034855112
0.14921314 0.015013523 0.027108066
0.14729401 0.015902705 0.0271389
0.00093563646 0.087574027 0.033627376
-0.00078406557 0.088396251 0.03366046
0.14152496 0.010128513 0.026210839
0.13798766 0.011021912 0.026910152
0.13608538 0.011947833 0.027003614
0.12941577 0.016069971 0.02676872
0.0089739487 0.075069755 0.032132529
0.0060504377 0.07650058 0.032251496
0.00053482503 0.079185873 0.032492008
0.1405337 0.0097175613 0.026743587
0.13833977 0.010830365 0.026892465
0.13289656 0.013487577 0.027104162
0.0099324808 0.073731095 0.032622695
0.0026035309 0.077330679 0.032943916
0.10326768 0.019381195 0.027448941
0.0089335218 0.066503465 0.031206567
0.007695213 0.067115739 0.031275127
0.0051613972 0.068343684 0.03137283
0.0038582981 0.068977058 0.031433202
0.0010136291 0.070355624 0.031508982
0.11033288 0.0090860948 0.025411718
0.10747933 0.0096584707 0.026103489
0.10464244 0.010999165 0.026178109
0.10175909 0.012461506 0.026371842
0.099904016 0.013396278 0.026481032
0.10015088 0.014122434 0.0259257
0.098186731 0.015031785 0.025928624
0.09560585 0.015862979 0.026310122
0.093037382 0.017159142 0.026499253
0.090286925 0.018901594 0.026281286
0.087480813 0.020337306 0.026495406
0.075024515 0.02557075 0.027568504
0.016130246 0.054381851 0.030149542
0.014281504 0.055572189 0.03005919
0.013461202 0.055697005 0.030269159
0.012203507 0.056332164 0.030350043
0.010663129 0.057086859 0.030445626
0.0089678615 0.057917424 0.030516218
0.0054412559 0.060488015 0.030102795
0.0042467266 0.061060641 0.030150272
0.0029572248 0.061705168 0.030217731
0.0015423968 0.061980184 0.030559946
0.00043220073 0.06294971 0.030340357
0.093581676 0.009641327 0.025192259
0.092563331 0.0095720291 0.025603812
0.09008956 0.01043079 0.025791021
0.08761014 0.011690602 0.025958471
0.084774286 0.013079375 0.026088674
0.081835002 0.014522016 0.026224382
0.07905367 0.015885115 0.026348302
0.074222922 0.018235095 0.026550176
0.072286457 0.019203462 0.026665155
0.064033151 0.02320569 0.026972994
0.022077464 0.043815527 0.028909801
0.014180645 0.047671512 0.029245794
0.010988839 0.04922083 0.029373314
0.008775115 0.050289247 0.029467227
0.0052661076 0.052888542 0.029112939
0.0030809194 0.05311178 0.029768689
0.0011471137 0.054896019 0.029287098
0.080430254 0.0083886907 0.024958618
0.072023749 0.012488261 0.025279246
0.067042977 0.014918596 0.025505828
0.063847333 0.016516678 0.02567823
0.057837009 0.019410439 0.025890445
0.05497025 0.020858184 0.026092419
0.050191849 0.023201801 0.026306147
0.048939869 0.023787733 0.026300449
0.045433521 0.025500234 0.026456272
0.039110892 0.028636746 0.026793905
0.035911448 0.030152604 0.02687221
0.034593232 0.030824903 0.026944514
0.01146286 0.042176928 0.028040282
0.0063791275 0.044642154 0.028219497
0.0038549006 0.045875467 0.028324774
0.002226606 0.046667699 0.028399693
0.0016170368 0.046973068 0.028437836
0.074301258 0.01058241 0.025823511
0.06899263 0.013147786 0.025996324
0.064833194 0.015203074 0.026241492
0.058864102 0.018096223 0.026455451
0.055953696 0.019543283 0.02660506
0.053106382 0.020933703 0.026728349
0.050270244 0.022358131 0.026887894
0.048650272 0.023113731 0.026914045
0.047263518 0.023764916 0.026938379
0.046141744 0.024333239 0.027021149
0.043596163 0.025587715 0.027142905
0.038824707 0.027946584 0.027380884
0.036297143 0.029139005 0.027451109
0.01116696 0.041482534 0.028613422
0.0086674541 0.042708501 0.028705914
0.0063054785 0.043851681 0.028803706
0.0035632178 0.045189284 0.028908035
0.061879307 0.0098173693 0.025154706
0.059943169 0.010785148 0.025268823
0.058355004 0.011576816 0.025353367
0.053589389 0.013905704 0.025559505
0.052334666 0.014486969 0.025553159
0.050716415 0.015288144 0.02566627
0.049155325 0.016064689 0.025754208
0.04630632 0.017494626 0.025904251
0.043444537 0.018866524 0.026019663
0.040887497 0.020098235 0.026078319
0.011991657 0.034286812 0.027421441
0.0041055158 0.038141824 0.02775681
0.050325975 0.0087316856 0.024745513
0.049075335 0.0093313381 0.024793573
0.048744097 0.0094973743 0.024802743
0.047216907 0.010217816 0.024853263
0.037004635 0.015232965 0.025311163
0.031948783 0.017709255 0.025540989
0.028146468 0.01958321 0.025728509
0.0246507 0.021259297 0.025848264
0.016358115 0.025371537 0.02624806
0.0071816072 0.029864989 0.026670029
0.0049612001 0.030946713 0.026770575
0.0033548176 0.031731293 0.026823737
0.0027140826 0.032028388 0.026832134
0.045464709 0.010647558 0.025191752
0.043741524 0.011126164 0.025627334
0.042479262 0.011741389 0.025685864
0.040893286 0.012517665 0.025751032
0.039390214 0.013282835 0.02585341
0.035781004 0.015803173 0.025329717
0.030386686 0.017672557 0.026219243
0.028825693 0.01845023 0.026305307
0.012958445 0.026202485 0.027016489
0.011883862 0.027499922 0.026373968
0.010328472 0.028266165 0.026454184
0.0046611354 0.030287959 0.027385637
0.036303438 0.0088180117 0.024578817
0.03476803 0.0096086897 0.024674824
0.033517241 0.010219917 0.024728384
0.030643634 0.011561338 0.024778353
0.029348947 0.012212437 0.024849925
0.026589684 0.012758039 0.025595356
0.025350466 0.013381753 0.025680406
0.024302185 0.014720209 0.025123298
0.021732636 0.015981846 0.025239997
0.020445935 0.016583048 0.025273692
0.017680757 0.017107371 0.025970116
0.016945705 0.018292416 0.025394648
0.013493061 0.019993335 0.025572009
0.0084125474 0.022491354 0.025841281
0.0049444139 0.023336712 0.026530657
0.0037209913 0.023954116 0.026598863
0.0039632246 0.024652932 0.026001997
0.0026672781 0.025318783 0.026091788
0.023369275 0.0084225424 0.024530724
0.02204942 0.0090690218 0.024593262
0.011925012 0.014003605 0.025014479
0.0036676526 0.01809058 0.025434155
0.0027251318 0.012635324 0.024417413
0.00947918 0.0085506402 0.024791865
0.0059891641 0.0102267 0.024875876
0.0047306642 0.010867894 0.024972271
0.0035045594 0.011467308 0.025044158
0.0062418506 0.14814582 0.041386433
0.00176863 0.15032598 0.041574512
-0.00050850213 0.13906313 0.040394712
0.00072436035 0.13756645 0.040777564
0.0021784827 0.12630434 0.038962793
-0.0003988333 0.12758678 0.039097577
-0.0006977655 0.12772676 0.039105929
0.0002005212 0.1263745 0.039489299
0.0014343299 0.11525635 0.038089257
-2.5078654e-05 0.11595458 0.038090628
0.0017988421 0.10550065 0.036513273
0.023673512 0.093824461 0.035886616
0.01288376 0.099947572 0.035827026
-0.00013488159 0.10555597 0.037071649
-0.00044994801 0.10571146 0.037086554
0.019619174 0.087156557 0.034355372
0.0015181676 0.096022859 0.035164718
0.018656194 0.086747035 0.034880087
0.0094604269 0.091229171 0.03528665
0.0081782192 0.09181571 0.035290029
0.0031610467 0.094284564 0.035508405
-0.00035922229 0.096091196 0.035787139
-0.0006833896 0.096253619 0.035803974
0.15686481 0.010440119 0.027336063
0.15554224 0.011091344 0.027395179
0.15423325 0.011685312 0.027402468
0.1503855 0.013609558 0.027574927
0.14821969 0.013779826 0.028171344
0.14445706 0.016463868 0.027816184
0.01603467 0.078499421 0.034053929
0.010569133 0.082055949 0.033782821
0.0036437213 0.084538646 0.034564301
0.0023372695 0.085192539 0.034637388
0.13387863 0.012172088 0.027622597
0.13095707 0.01359082 0.027716968
0.12679139 0.015639767 0.027931992
0.014689542 0.070560537 0.032940228
0.01282607 0.071466237 0.033022936
0.0035416111 0.076003157 0.033410735
0.00087603182 0.077288538 0.033515863
0.12370265 0.0094007403 0.026578613
0.12242356 0.01004494 0.026650935
0.12082292 0.010823034 0.026727127
0.11916921 0.011633798 0.026798122
0.11727209 0.012548767 0.026887283
0.11534715 0.013502084 0.026967283
0.11285445 0.014761254 0.02714017
0.11252432 0.014906675 0.027110685
0.10969229 0.016247481 0.027210895
0.10553271 0.018338129 0.027449455
0.083573326 0.029092476 0.028418405
0.016558297 0.061915807 0.031413071
0.014815725 0.062768236 0.031493399
0.013430968 0.063438371 0.031533342
0.0058067441 0.067171589 0.03188077
0.10938811 0.015531652 0.027743945
0.10681684 0.01685486 0.027936134
0.10048643 0.019923083 0.028150424
0.013111867 0.062740356 0.032088567
0.011816941 0.06336683 0.032118592
0.0092617795 0.06461595 0.032237507
0.0013802424 0.068466276 0.032589637
7.5437129e-05 0.069100037 0.032610152
0.10465142 0.010159291 0.026733307
0.10146628 0.011750907 0.02692363
0.09515962 0.014784046 0.027118981
0.092566252 0.016121089 0.027327806
0.089412197 0.017632723 0.02741335
0.08660166 0.019058526 0.027620489
0.079553768 0.022455007 0.027854942
0.019493535 0.051901668 0.030559648
0.0071541071 0.057951823 0.031144816
0.0058667585 0.058582779 0.031174092
0.004573822 0.059209637 0.031220997
0.0033235699 0.059819248 0.03127747
0.002072528 0.060427938 0.031337947
0.094811216 0.014108807 0.02767079
0.089129955 0.016924672 0.027979963
0.090121955 0.0095830336 0.026355624
0.084466428 0.012399308 0.026657872
0.08156772 0.013785392 0.026758105
0.078764111 0.015185721 0.026914179
0.076247945 0.016401917 0.027025364
0.070100844 0.019446746 0.027334187
0.063736856 0.022507913 0.027543632
0.029114716 0.039466944 0.02908222
0.02373711 0.04215721 0.02940242
0.010772534 0.048474289 0.029933508
0.0059283003 0.050866302 0.030156873
0.0043654665 0.051647089 0.030263059
0.0014827028 0.053057678 0.030402511
0.0011879504 0.053195264 0.030408831
0.084155992 0.011710629 0.027243594
0.081288397 0.013071179 0.027323049
0.078488529 0.014492527 0.027509954
0.071397692 0.017954804 0.02780924
0.066664517 0.020289272 0.028044462
0.062223941 0.022418655 0.02818938
0.061864704 0.022609763 0.028232308
0.05934006 0.023867272 0.028365716
0.057454646 0.024816059 0.028471146
0.030945346 0.037772976 0.029647229
0.02988521 0.038261823 0.029651744
0.027884863 0.039227892 0.02969799
0.024756655 0.040813763 0.029913621
0.015563808 0.045305032 0.030306581
0.0078939348 0.049038768 0.030627085
0.0057076737 0.050122187 0.030720551
0.0021855757 0.051868461 0.030923694
0.071327329 0.011162564 0.026459906
0.068711191 0.012451783 0.02658172
0.066518903 0.013506725 0.0266637
0.064603567 0.014484957 0.026824716
0.062984288 0.015270852 0.026864298
0.061383963 0.016068295 0.026947603
0.054105103 0.019612633 0.027261725
0.049344257 0.021982431 0.027507488
0.045219608 0.023951709 0.027623506
0.013769656 0.039362881 0.02903403
0.010886453 0.040782183 0.029196225
0.0084337741 0.041990828 0.029281974
0.061964169 0.0089521483 0.025734298
0.05336155 0.013199627 0.026158698
0.047264248 0.016164381 0.026419574
0.044478938 0.017564628 0.026569894
0.018453881 0.030272193 0.027713956
0.0091577321 0.034855999 0.028125767
0.0038370192 0.037445266 0.028352451
0.059451595 0.0093565732 0.026433947
0.056009397 0.011061423 0.026617337
0.054362059 0.011886895 0.026702909
0.045460701 0.016248628 0.027104942
0.042600997 0.017638769 0.027233522
0.038803846 0.019477215 0.027353896
0.014660984 0.031291604 0.028412621
0.013051212 0.032124054 0.028545208
0.0089265555 0.0341447 0.028733792
0.0060887262 0.035497855 0.02882131
0.045059562 0.0096249767 0.026108028
0.037490733 0.013406064 0.026535193
0.032339282 0.015883718 0.026701679
0.026045039 0.018994562 0.027028995
0.0094612092 0.027067624 0.027690675
0.027307428 0.011608664 0.026178574
0.019669101 0.01536759 0.026559671
0.014921345 0.017684359 0.02673929
0.020293951 0.009135671 0.025314277
0.015209019 0.011654086 0.025571842
0.013919748 0.012255467 0.025598744
0.0091062486 0.014616389 0.025807029
0.0057036877 0.016294751 0.025958078
0.0043876395 0.016960237 0.026042564
0.011161067 0.012791507 0.026315961
0.0098442584 0.013461407 0.026388522
0.0067795515 0.0090504661 0.025502216
0.0057696179 0.0095447712 0.025526151
0.0092938878 0.14482397 0.042062107
0.086416751 0.093723439 0.037797228
0.00069616735 0.13574113 0.041622534
0.096432641 0.078296445 0.035606712
0.09511666 0.078962155 0.035690151
0.0046629198 0.1232969 0.039744888
0.097029671 0.077093177 0.036005076
0.0025910325 0.11290794 0.03899936
0.00058063865 0.11388578 0.039051261
0.0096301362 0.099803567 0.036954019
0.0077978633 0.1007474 0.037119258
0.0010749549 0.10408522 0.037490278
0.00078812242 0.10422154 0.037500095
0.022017099 0.092851877 0.036891047
0.011275552 0.09806326 0.037301872
0.003941834 0.10177536 0.037804507
0.0020046569 0.10273552 0.037912101
0.018942438 0.08483617 0.035822686
0.0097277164 0.08932671 0.036225043
0.0084925741 0.08994621 0.036300879
0.0040783994 0.092027463 0.036374748
0.0012189485 0.094372787 0.036104154
0.00040657446 0.09434554 0.036407597
0.15202172 0.010966033 0.028427031
0.15073904 0.011627324 0.028518248
0.14568073 0.014075153 0.028718296
0.14348556 0.015197523 0.028865162
0.016927488 0.077201739 0.034525793
0.015380658 0.077948228 0.03458399
0.0080897734 0.081520155 0.03489577
0.0043011755 0.083346389 0.035036467
0.00043643266 0.085245699 0.035220955
0.14091685 0.015601456 0.02950152
0.13933074 0.016346946 0.029542074
0.010621943 0.07939814 0.035271093
0.0061810762 0.081562161 0.035458282
0.137389 0.0095491186 0.027950395
0.1227015 0.016760483 0.028616596
0.013748564 0.070161879 0.033501346
0.010224663 0.07187105 0.033650003
0.0074038282 0.073243156 0.033753645
0.004489392 0.074660629 0.03386097
0.11976932 0.017369047 0.029277086
0.015972607 0.068188496 0.033894226
0.014722206 0.068796024 0.03395465
0.012191541 0.070054203 0.034094036
0.0083433837 0.071916185 0.034248695
0.1162128 0.010919809 0.02825151
0.11192633 0.013493538 0.028236546
0.097295567 0.020645395 0.028846178
0.016906641 0.060034577 0.032452136
0.015024945 0.060950294 0.032542355
0.0092796609 0.062896088 0.033291873
0.0074181482 0.064667657 0.032865703
0.0049170032 0.065891147 0.032973848
0.0029785708 0.065983832 0.033585217
0.0022933781 0.067172758 0.033089675
0.0010846704 0.067757048 0.033143159
0.10116932 0.011034183 0.027466688
0.099031657 0.012111865 0.027606631
0.096452117 0.012512855 0.028231723
0.076723576 0.0221809 0.029133577
0.07289575 0.02405563 0.029288463
0.071952105 0.024513446 0.029330142
0.019589312 0.050158404 0.031644989
0.018144555 0.051704474 0.031165488
0.016042702 0.052737225 0.031251706
0.010661617 0.054537963 0.032044761
0.0091193169 0.055302802 0.032149572
0.0074857622 0.056097127 0.032215554
0.0036888272 0.057945434 0.032353528
0.083863795 0.011000492 0.027822278
0.081006557 0.01236634 0.027893655
0.078155041 0.013835952 0.028103197
0.073092431 0.016265541 0.028272672
0.069198102 0.018212833 0.028499102
0.067717254 0.018911496 0.028543074
0.059707433 0.022836156 0.028904922
0.058392286 0.023478106 0.028958209
0.0514386 0.026871212 0.029229354
0.047999293 0.028567702 0.029419355
0.022844434 0.040908862 0.03055303
0.019702241 0.042447232 0.030682597
0.005426012 0.049417268 0.031300038
0.0035072342 0.050381362 0.031414561
0.064317256 0.013790831 0.02739751
0.013530284 0.038655978 0.029622357
0.010640405 0.040063553 0.029758725
0.0057293922 0.042476632 0.029975889
0.003029041 0.043795116 0.030087059
0.070796698 0.0097723976 0.027644394
0.065612406 0.012309931 0.027870324
0.062139347 0.014028199 0.028055623
0.058958292 0.015579239 0.02819333
0.056363568 0.017637253 0.027670955
0.051630944 0.01916191 0.028516181
0.0075517669 0.040761594 0.030465819
0.039517991 0.018289786 0.027886912
0.0087072998 0.033429038 0.029329667
0.042903081 0.0099049099 0.026858998
0.035645105 0.013454899 0.027181908
0.012144282 0.024978347 0.028258352
0.007699497 0.027144503 0.028415773
0.020380534 0.014229115 0.02714191
0.027084932 0.010916036 0.026813582
0.0084053203 0.013381273 0.027111974
0.0016666502 0.12206418 0.041201063
0.0086291358 0.098511308 0.037937507
0.010378189 0.088126183 0.036683355
0.0015575625 0.092417389 0.037027173
0.13745141 0.016380161 0.030113567
0.015371509 0.076210812 0.035597157
0.011542559 0.078065574 0.035709132
0.0020372868 0.082704976 0.03613735
0.11667414 0.017968714 0.029893175
0.013765246 0.068410218 0.034520343
0.0047887117 0.072787449 0.034873251
0.0035582557 0.07337901 0.034922887
0.0019773915 0.074165344 0.035016231
0.11135624 0.012039661 0.029288823
0.079922795 0.019745409 0.029486939
0.071014225 0.024127051 0.029910231
0.022737347 0.047757477 0.032051053
0.016142264 0.050968572 0.032322921
0.012264758 0.052870564 0.032501809
0.069153592 0.024186 0.030550133
0.019039206 0.048729878 0.032758866
0.009760268 0.053270426 0.033158451
0.060353994 0.021679804 0.029425791
0.043542556 0.029932085 0.030189946
0.030841015 0.036144234 0.030735403
0.028986141 0.03703491 0.030837579
0.012156293 0.045290332 0.031567041
0.0096214414 0.046507865 0.031659905
0.072178364 0.015043162 0.029431958
0.01879067 0.041219082 0.031849757
0.011864662 0.044595707 0.032137316
0.048240766 0.020023763 0.029266831
0.038333818 0.024865393 0.029681772
0.0097633377 0.038830757 0.030942822
0.0049896464 0.041178219 0.031156082
0.047497943 0.013593458 0.028181557
0.044669591 0.014979031 0.028312415
0.036687814 0.01885768 0.028609704
0.034112871 0.020163853 0.02877474
0.0055645034 0.034114003 0.030008502
0.039479971 0.010770861 0.02761972
0.029749155 0.014707331 0.02861743
0.026203215 0.016483169 0.028812027
0.0097246319 0.024495751 0.029497938
0.01891011 0.014144335 0.02782408
0.0080967098 0.019442376 0.028298482
0.0067845881 0.02007826 0.028343251
0.0959526 0.074921414 0.037411757
0.0035763755 0.12020406 0.04153914
0.026513956 0.097522289 0.039569009
0.0061158426 0.098896086 0.038586564
0.0010043681 0.10144611 0.038898278
0.021679536 0.090373978 0.038348973
0.017326295 0.082976781 0.037345063
0.0081781372 0.087439813 0.037755497
0.0024518892 0.0901784 0.037893679
0.13421451 0.017115548 0.030748736
0.13127466 0.018566556 0.030907419
0.016323932 0.074878544 0.036049627
0.0026919097 0.081511505 0.036606763
0.0074077696 0.078359403 0.036922339
0.0058089718 0.07142356 0.035373166
0.11069031 0.019224904 0.031266265
0.10497311 0.01432956 0.030138411
0.078988537 0.026167989 0.031789079
0.014145374 0.057954367 0.034700416
0.013859332 0.058095504 0.034718864
0.010941438 0.060375825 0.034312699
0.025798082 0.03688255 0.032024324
0.0094847605 0.038133871 0.031521484
0.018958345 0.019185618 0.029695872
0.0098248571 0.011065692 0.028254908
0.094727099 0.085073449 0.039477266
0.089040995 0.087910153 0.039818421
0.0017072819 0.13069679 0.04370318
0.0972469 0.082962744 0.039880507
0.095603883 0.083730392 0.039847832
0.097094387 0.072545797 0.038192391
0.095811576 0.073174015 0.038264237
0.01052805 0.094865292 0.03919572
0.0049695596 0.088124655 0.038377672
0.017452866 0.081154771 0.03830751
0.0093089715 0.075668752 0.037818119
0.014716856 0.065341637 0.036009494
0.078047976 0.025777809 0.03236356
0.015385665 0.056473531 0.035130415
0.068913981 0.022604898 0.031643845
0.067354083 0.023326151 0.031659048
0.064756215 0.024635375 0.031823017
0.019677699 0.046724301 0.033857331
0.017470479 0.047799267 0.033924069
0.067060992 0.022633955 0.032243572
0.065445304 0.023405701 0.032277785
0.022900879 0.044283889 0.034213226
0.026519813 0.035693374 0.032566115
0.043404244 0.026637301 0.032428514
0.032882415 0.0317716 0.032875191
0.016265206 0.019697413 0.030452067
0.014757819 0.063594356 0.037048083
0.075773761 0.026050091 0.032994527
0.017332181 0.054637861 0.035572391
0.01448074 0.05605628 0.035699282
0.024385557 0.050346788 0.035809916
0.019913971 0.052522279 0.035990976
0.025122553 0.042362232 0.034690183
0.015639663 0.04699111 0.035086639
0.046618976 0.024189796 0.032798413
0.035448752 0.02966423 0.033283856
0.08532498 0.09836714 0.042718995
0.082728803 0.099639691 0.042835675
0.084252864 0.09799318 0.043187298
0.079502888 0.1003252 0.043392554
0.019801483 0.0868489 0.040779658
0.015740603 0.070797071 0.038586635
0.014759675 0.07040821 0.039138556
0.016338453 0.061094824 0.038033318
0.015419103 0.062403545 0.037562028
0.01309979 0.062675133 0.038144223
0.075830713 0.024285547 0.034045458
0.0748685 0.02477663 0.034104656
0.015517831 0.053807128 0.036713615
0.018096253 0.051686253 0.037122387
0.014528029 0.05343562 0.037284989
0.061674416 0.0235909 0.033593882
0.030511126 0.038816426 0.034905907
0.018301487 0.044839278 0.035536785
0.04855261 0.022379916 0.033252314
0.040936388 0.026161641 0.03365539
0.033632375 0.029721949 0.033966683
0.029840097 0.031582139 0.034118138
0.048914388 0.021389812 0.033844031
0.037457459 0.026996281 0.034343369
0.035548918 0.0279084 0.034390375
0.02697181 0.032155667 0.034825385
0.082588717 0.096977174 0.044081196
0.081090063 0.098602593 0.043729033
0.0778156 0.099330284 0.044300981
0.076965429 0.10066594 0.043969434
0.076002426 0.10020889 0.044416152
0.080033369 0.098204553 0.044180825
0.02347476 0.093192868 0.042664565
0.016374536 0.078160219 0.040321521
0.016670093 0.067702755 0.040023357
0.083030611 0.027553596 0.035558581
0.017145768 0.051300637 0.037692692
0.043859474 0.023012269 0.034600619
0.042294353 0.023800548 0.034696992
0.084746324 0.095009096 0.044398118
0.079027824 0.09778662 0.044632986
0.097025067 0.077603571 0.04239
0.097220063 0.066186562 0.041319709
0.018968463 0.083690442 0.042687155
0.016651191 0.076260664 0.04130131
0.014427312 0.06793882 0.040642545
0.081467927 0.026589774 0.036655586
0.01255928 0.0603448 0.039746813
0.016147375 0.050943259 0.038275082
0.028433047 0.036438245 0.037195373
0.033454344 0.026410967 0.036162622
0.088437721 0.091364548 0.045048475
0.085647091 0.092736855 0.045176417
0.02291324 0.090333387 0.04429394
0.018019505 0.083267614 0.043202747
0.019209251 0.073266685 0.042175032
0.016984448 0.074345119 0.042259209
0.017604299 0.073159695 0.042723723
0.015971996 0.07395798 0.04278725
0.014427848 0.074698478 0.042845365
0.01595746 0.065442488 0.041561496
0.015019633 0.066767998 0.041099232
0.01518967 0.058187671 0.040148143
0.016383514 0.056737453 0.040576644
0.020973384 0.046886504 0.039160825
0.02008345 0.047305785 0.039171185
0.017786257 0.048433952 0.039273266
0.055235416 0.022520937 0.036629204
0.049479172 0.024454199 0.037379377
0.038940407 0.030443579 0.037260022
0.031048097 0.03351105 0.038225178
0.025437519 0.036646347 0.038155705
0.091797888 0.086991817 0.046151299
0.089546338 0.088098831 0.046248026
0.089264676 0.088228062 0.046248831
0.098326847 0.072423168 0.044442527
0.096455351 0.074252404 0.044116922
0.026942603 0.096939445 0.046139795
0.022529148 0.088749215 0.045238048
0.021270335 0.089339897 0.045268971
0.014999568 0.065035261 0.042096518
0.018608883 0.054749973 0.040974133
0.015477158 0.056315057 0.041138321
0.016525425 0.047333613 0.040391151
0.054942116 0.021816231 0.037189905
0.022164151 0.037866883 0.038631815
0.049169287 0.023758043 0.037921134
0.046961561 0.024834521 0.038019873
0.045329697 0.025658045 0.038126014
0.034255013 0.031076375 0.038624506
0.030118994 0.033115108 0.038803533
0.093038484 0.085460924 0.046504136
0.090791151 0.086564407 0.046611212
0.093946815 0.084076151 0.046835013
0.087599233 0.087196209 0.047120113
0.098926693 0.071188897 0.04479789
0.099553719 0.069974259 0.045233078
0.096678853 0.071406543 0.045363974
0.025923669 0.09654247 0.046626549
0.022190616 0.088016003 0.045709196
0.018890828 0.079286203 0.045045499
0.017257251 0.080076069 0.045092449
0.016015954 0.072171308 0.043761365
0.015674539 0.072341904 0.043774623
0.0170248 0.054661538 0.041560717
0.077046007 0.024434082 0.039442226
0.076738939 0.024576068 0.039448809
0.054950923 0.020092987 0.038259387
0.052054048 0.021542676 0.038409349
0.034723707 0.02998472 0.039128352
0.030144185 0.031821955 0.039609086
0.027294606 0.033633843 0.039495036
0.037813514 0.027602736 0.039522741
0.03371498 0.029628839 0.039728999
0.030535728 0.031190559 0.039855894
0.095735833 0.081335507 0.047537144
0.094102696 0.082144283 0.047595844
0.10010645 0.068814673 0.045644499
0.097249493 0.070200749 0.045720451
0.015673615 0.079071634 0.046106834
0.018221572 0.060843579 0.043489318
0.015394025 0.062219445 0.043594401
0.019804172 0.059195604 0.043908924
0.016914062 0.060608722 0.044046037
0.01658503 0.060775813 0.044066425
0.018025547 0.051586766 0.043069012
0.014547102 0.053284381 0.043222826
0.084442712 0.097323164 0.050139613
0.076446518 0.10126546 0.05053531
0.095637873 0.079596587 0.048444435
0.097228467 0.068371467 0.046591118
0.097747162 0.067237847 0.047010086
0.096169323 0.067985706 0.047049589
0.096282795 0.058480181 0.045275159
0.024142094 0.092902102 0.048899658
0.016576938 0.077748947 0.046539977
0.01696042 0.058839232 0.045054566
0.073916137 0.023355111 0.041118924
0.023150921 0.048220426 0.043375127
0.017105825 0.051161896 0.043622803
0.030984104 0.035944793 0.042412121
0.028076917 0.037345961 0.042471394
0.088867456 0.094243854 0.050346546
0.086603299 0.095352434 0.050449543
0.083401345 0.096914187 0.050568089
0.080876485 0.098141328 0.050692383
0.078989223 0.09909533 0.050792463
0.085452504 0.094987378 0.050887134
0.082409129 0.096474051 0.051005553
0.077950045 0.09868443 0.05124582
0.076380707 0.099448889 0.051333647
0.074728109 0.10026968 0.051401757
0.073500372 0.1008615 0.051453244
0.072160445 0.10151798 0.051475078
0.09582299 0.077681743 0.049219601
0.093343109 0.079764515 0.048862975
0.10056008 0.064073995 0.047768082
0.097704709 0.06546583 0.047900282
0.025689937 0.090358123 0.049744114
0.019774415 0.083817884 0.048527572
0.015601061 0.067974664 0.046203248
0.018560134 0.048725035 0.044600077
0.014831334 0.050539885 0.044744436
0.031882301 0.034670241 0.042884864
0.05383797 0.023885198 0.0418716
0.087122515 0.093257248 0.051217228
0.084250517 0.094645306 0.051321365
0.083981432 0.094760284 0.051320039
0.081337266 0.096076608 0.051440842
0.07917846 0.097136125 0.051546719
0.070230424 0.10153688 0.051960431
0.089229554 0.091302983 0.051528841
0.088921905 0.091459967 0.05154711
0.086115807 0.092829071 0.051645074
0.078164123 0.096714988 0.051976059
0.096440941 0.076453097 0.049590841
0.094820127 0.077256233 0.049663857
0.097003326 0.07526315 0.049953029
0.098301768 0.064250238 0.048291177
0.096670359 0.065051891 0.048368331
0.024696387 0.089940421 0.050222687
0.02275344 0.089970388 0.050725084
0.017296247 0.074299887 0.048204046
0.015589803 0.074682549 0.048513018
0.016925603 0.057112969 0.046041176
0.014708839 0.057318598 0.046644527
0.013749309 0.05866044 0.046186227
0.016830653 0.04783738 0.045702964
0.057332769 0.02135127 0.042305954
0.054471955 0.022742517 0.042434834
0.03603553 0.031764824 0.043223988
0.034773089 0.032381855 0.043257717
0.030667722 0.034399182 0.043497138
0.034500204 0.031666439 0.043814167
0.08793442 0.091027722 0.051998138
0.09823443 0.072807953 0.05073994
0.097591937 0.07405588 0.050342966
0.096615702 0.073611662 0.050782003
0.095348611 0.074239239 0.050852552
0.098861516 0.063085884 0.048698861
0.096583784 0.063287824 0.049218692
0.021733679 0.089561671 0.051200632
0.019369066 0.081316769 0.049886342
0.012720637 0.065859303 0.048271999
0.080204636 0.024344116 0.044206459
0.017218463 0.055206735 0.046990853
0.0099489614 0.058763623 0.047321677
0.079245001 0.02394715 0.044752233
0.017583296 0.054134849 0.047483604
0.016294725 0.054782603 0.047531135
0.019379422 0.045737609 0.046105653
0.038313486 0.028906908 0.04413145
0.092554331 0.08692456 0.052561659
0.090033978 0.088131912 0.052630611
0.086225018 0.090027064 0.052849445
0.094120964 0.085239217 0.052887686
0.088996783 0.08772362 0.053062353
0.097226158 0.072393321 0.051197935
0.099064454 0.06115745 0.049519535
0.096470818 0.061533757 0.050063774
0.026999086 0.096408635 0.052682988
0.015831344 0.081273049 0.050982848
0.017061889 0.079762585 0.051363036
0.017147079 0.061925098 0.049053498
0.015547559 0.062705413 0.049102005
0.014273629 0.063321136 0.049151815
0.077280164 0.024051681 0.045350652
0.019478798 0.052335892 0.047884569
0.022830412 0.042300798 0.046965204
0.019979268 0.04370755 0.047135353
0.095827386 0.082514532 0.053502597
0.095041066 0.083831325 0.053198829
0.093107954 0.08481317 0.053321894
0.090388745 0.085674196 0.053639751
0.08752124 0.087051287 0.053711731
0.086694211 0.086983882 0.053952489
0.097605526 0.069467075 0.052353509
0.097078532 0.070641495 0.052013166
0.097375795 0.060180023 0.050452083
0.025346741 0.095393486 0.053600289
0.020394243 0.087508895 0.052586935
0.017691962 0.077662654 0.052242257
0.014573142 0.062299542 0.049625933
0.013324551 0.062907599 0.049682014
0.018546693 0.051914893 0.048428245
0.017240226 0.051674981 0.04898937
0.063841954 0.021357752 0.045692235
0.062880263 0.021821104 0.045726996
0.027328618 0.039257355 0.04732684
0.020001881 0.042818397 0.047625322
0.017206721 0.044199705 0.047747925
0.038150162 0.033060282 0.047304247
0.028608106 0.037736546 0.047747873
0.021283947 0.041319218 0.048060704
0.019674093 0.042114615 0.048154227
0.09333013 0.082838088 0.054074522
0.094176069 0.081469715 0.054365486
0.098782077 0.067042343 0.053136803
0.095914856 0.068458728 0.053255267
0.098190889 0.0570198 0.051643416
0.097357169 0.058334164 0.051276401
0.025139838 0.092779934 0.054877676
0.011939242 0.070250228 0.051967721
0.016153887 0.059771847 0.050567124
0.07504572 0.02252394 0.046939954
0.014417805 0.052195907 0.049611434
0.019167766 0.048989113 0.04990764
0.057993948 0.022947282 0.046741676
0.079652332 0.098995887 0.0572985
0.078073829 0.09976095 0.057370879
0.075249672 0.10113305 0.057488292
0.073950358 0.10176836 0.057516277
0.095984787 0.078770034 0.055160366
0.094343245 0.079540111 0.055128578
0.09247537 0.080470882 0.055241711
0.097774655 0.066616863 0.053587668
0.025494002 0.091693565 0.055295095
0.023534156 0.091738515 0.055802416
0.017308198 0.07516472 0.053661622
0.018844083 0.065100022 0.052589472
0.01804141 0.057089001 0.05144944
0.018257424 0.048549607 0.050437119
0.033356585 0.033694707 0.048582036
0.034028523 0.032495547 0.049059816
0.085703813 0.095051527 0.05735489
0.083080046 0.096349359 0.057476692
0.075775981 0.099957347 0.057847895
0.071941808 0.10183002 0.057984162
0.070696756 0.10242836 0.058041602
0.087833166 0.093111858 0.057661377
0.08466053 0.094646901 0.057778567
0.082066312 0.095918417 0.057895102
0.079812974 0.097047962 0.058001183
0.077956207 0.097968861 0.058134217
0.07636869 0.098740727 0.058201242
0.073547184 0.10010833 0.058304247
0.068763979 0.10245338 0.058526341
0.095007911 0.07830894 0.055580955
0.093334764 0.079114035 0.055575103
0.097430378 0.076239407 0.055859789
0.095817462 0.077025495 0.055922411
0.097679287 0.064847209 0.054429758
0.095886707 0.055401355 0.053006075
0.01889056 0.082849786 0.055310041
0.017860875 0.082451761 0.055796552
0.013931416 0.058208145 0.052118778
0.02582556 0.043111138 0.051109876
0.022020616 0.045000281 0.051320117
0.021731175 0.045124955 0.051311735
0.023880981 0.036613476 0.050052151
0.083572969 0.094268516 0.058215763
0.07882411 0.09660013 0.058421046
0.076973088 0.097519115 0.058558851
0.070265636 0.10078449 0.058806803
0.069001548 0.10139944 0.058866587
0.067725033 0.10204057 0.058946442
0.066485107 0.10265234 0.059018876
0.065223202 0.10325199 0.059062976
0.088648155 0.090853073 0.058386676
0.085887164 0.092219323 0.058503628
0.08542496 0.092439048 0.058518153
0.074629702 0.097740807 0.059030645
0.095745891 0.075215869 0.05672203
0.094167978 0.075972475 0.05679201
0.029098585 0.097485028 0.057852212
0.09759438 0.063083507 0.055274401
0.095821068 0.05362533 0.053884394
0.096435636 0.052390121 0.054244399
0.094807029 0.053214327 0.054341
0.018480554 0.080332354 0.05663735
0.015036993 0.063394219 0.054632995
0.017364427 0.054767948 0.052904323
0.015822411 0.055530485 0.053008977
0.069016039 0.021068037 0.049651306
0.067756027 0.021677971 0.049723044
0.066785797 0.022184491 0.049809109
0.064580306 0.022390306 0.050422892
0.023635603 0.042425692 0.05219828
0.02107092 0.043709993 0.052371617
0.027068824 0.025861677 0.049959943
0.087635621 0.090428054 0.058811769
0.089723751 0.08845938 0.059063308
0.086642459 0.089980379 0.059219927
0.083737411 0.091405436 0.059351496
0.088696271 0.088045672 0.05949213
0.096361428 0.073967442 0.057062414
0.096888393 0.072807573 0.05743086
0.09751907 0.061281428 0.056091279
0.014260553 0.071281731 0.056534491
0.07861656 0.023010552 0.051168941
0.012560107 0.055357188 0.054116741
0.018283412 0.051641371 0.05430048
0.022656925 0.042028368 0.05275083
0.027111955 0.024120059 0.05102526
0.094019026 0.084541559 0.059677962
0.091497704 0.085768916 0.059786238
0.087682694 0.087618075 0.059921596
0.087383956 0.087761469 0.059936732
0.09301126 0.084095992 0.060082186
0.090446368 0.085363686 0.06019792
0.097474039 0.071589574 0.057820786
0.097982466 0.07040932 0.058158219
0.095160827 0.071797416 0.058275726
0.098365158 0.059959374 0.05645043
0.097416043 0.059504606 0.056912187
0.095859692 0.060253464 0.056977887
0.01932814 0.067917638 0.056770541
0.014852434 0.070105821 0.056963291
0.013421081 0.054053631 0.054571021
0.020565771 0.049637869 0.054682463
0.017370544 0.051202878 0.054830771
0.014505848 0.052640308 0.054978497
0.062331378 0.020872444 0.052012317
0.021671601 0.041642401 0.053295564
0.016610458 0.044144269 0.053534687
0.094221875 0.082577579 0.060410369
0.092004642 0.083666548 0.060510084
0.089445919 0.084923401 0.060620293
0.093198866 0.082155824 0.060831703
0.090996265 0.083232097 0.060931161
0.088462353 0.084468976 0.061028678
0.099890232 0.068521924 0.058437824
0.096353516 0.069353208 0.059032738
0.098345116 0.058103666 0.057262693
0.09732455 0.057698764 0.057714727
0.025881223 0.092653133 0.060851894
0.016190194 0.059291683 0.05649545
0.014599517 0.060059734 0.056529749
0.017437749 0.057793703 0.056909394
0.014604039 0.059174873 0.057009928
0.011391521 0.060738754 0.057147518
0.019586384 0.049243063 0.055209793
0.018560082 0.048875585 0.055749059
0.01635389 0.05082082 0.055358775
0.030919313 0.027087852 0.053305723
0.035003558 0.025071293 0.053096481
0.094116822 0.080742814 0.061131265
0.094949156 0.079383329 0.061422162
0.091201901 0.081277929 0.061680455
0.096891791 0.068181574 0.059384257
0.097475275 0.066943705 0.059709083
0.097517043 0.055753015 0.058494382
0.01862327 0.084140137 0.060690105
0.016042277 0.065947235 0.058733005
0.0151048 0.06640961 0.058788396
0.013546787 0.05880532 0.057519544
0.017625362 0.048452131 0.056279369
0.022092573 0.04539362 0.05657284
0.016687214 0.048020843 0.056804087
0.037550636 0.030379847 0.054596994
0.036600858 0.023407195 0.053554341
0.033426866 0.024112072 0.054207671
0.027423419 0.027082063 0.054515056
0.085208736 0.094477311 0.064231932
0.08373455 0.096107751 0.063926049
0.082655884 0.095703304 0.064330988
0.080436885 0.096829638 0.064451531
0.076216102 0.099358618 0.064492516
0.074428692 0.099764585 0.064719848
0.073652938 0.10061109 0.064566821
0.09595409 0.077964447 0.061798397
0.093239397 0.078370027 0.062252048
0.092411727 0.079725608 0.061960742
0.098622993 0.064559594 0.060493797
0.098086074 0.06572374 0.060113158
0.018263422 0.083411872 0.061137378
0.018847898 0.082232878 0.061553728
0.014662772 0.056484263 0.058444336
0.02208779 0.044512406 0.057070039
0.036327586 0.021820199 0.054613873
0.033952713 0.022961825 0.054679163
0.0319051 0.023997284 0.054822117
0.030316085 0.024779703 0.054901768
0.028111532 0.025858745 0.054974083
0.025058508 0.027357731 0.055129103
0.084205076 0.094026312 0.064633466
0.081627846 0.095279366 0.064736582
0.079446621 0.096379817 0.064863145
0.077913485 0.097121105 0.064958371
0.076210074 0.097967252 0.065028988
0.071179502 0.10041577 0.065214463
0.069931425 0.10101852 0.065274715
0.068637654 0.10167214 0.065352499
0.067392565 0.10228187 0.065422609
0.083149642 0.093613416 0.065030739
0.072604187 0.098798372 0.065514348
0.070178129 0.09996409 0.065621756
0.065430179 0.10229089 0.065856107
0.097340479 0.075481944 0.062513776
0.095753878 0.076244071 0.062612601
0.094170541 0.076976769 0.062600866
0.098526448 0.062789835 0.061314963
0.096910551 0.063551307 0.061343964
0.096417904 0.053551987 0.059766438
0.019689158 0.06983462 0.061459225
0.016550042 0.072246611 0.06113949
0.013054512 0.073951125 0.061255317
0.012661718 0.07324183 0.061708476
0.014969066 0.062873945 0.060582615
0.010888234 0.064874962 0.06078301
0.037559092 0.026876967 0.056587014
0.030891351 0.023620732 0.055364132
0.030046359 0.024038207 0.055424649
0.03383752 0.021291304 0.055743434
0.089642495 0.088575356 0.065505452
0.088198975 0.090217873 0.065186761
0.087904945 0.09035705 0.065200977
0.085352212 0.091599524 0.065312564
0.085019022 0.091764674 0.065324008
0.081056304 0.092768013 0.065840907
0.068177395 0.10002549 0.066084616
0.06690383 0.10066208 0.066155411
0.063665688 0.10129629 0.066653378
0.062671594 0.1017851 0.066694036
0.06142097 0.10238481 0.066747159
0.08370012 0.091451444 0.065720029
0.097200245 0.073671855 0.063246734
0.095090151 0.074258544 0.063550256
0.094040006 0.075227886 0.063445412
0.028627038 0.096052051 0.064760655
0.096836358 0.0617695 0.062172487
0.096648619 0.051587284 0.060554411
0.095597416 0.051199146 0.061024245
0.013270564 0.072047696 0.062127709
0.015850581 0.061554093 0.06099686
0.013035059 0.062936522 0.061140105
0.078928053 0.022336587 0.056976993
0.017935731 0.051293086 0.060130775
0.07059066 0.018114075 0.056364425
0.088625252 0.088146627 0.065915704
0.086130098 0.089362606 0.066008925
0.060421534 0.10193557 0.06714198
0.087622151 0.087710425 0.066335268
0.058125339 0.10213063 0.067585386
0.09831205 0.071278833 0.063964695
0.096748233 0.07204745 0.064015321
0.09549959 0.072656922 0.064091593
0.097321376 0.070835873 0.064374059
0.09741731 0.060549878 0.062532656
0.098302722 0.059214182 0.06288676
0.02094692 0.086836666 0.06474942
0.095840871 0.049245611 0.061824914
0.021231435 0.085781276 0.065147288
0.014609389 0.061260991 0.061506432
0.023969695 0.046581354 0.060825318
0.022428446 0.048212677 0.060416944
0.018569559 0.049207911 0.061042152
0.01650963 0.050663173 0.060908709
0.068049043 0.017591119 0.057460018
0.027453266 0.030068424 0.058069196
0.039149463 0.02346028 0.058012351
0.029646203 0.028148614 0.058468118
0.094790295 0.082331926 0.066719279
0.092543736 0.083434425 0.066826008
0.090037957 0.084647879 0.06689661
0.089692369 0.084808141 0.066905424
0.055379637 0.10160826 0.068410262
0.098467648 0.068412207 0.065072529
0.097246885 0.068999112 0.065147519
0.09813273 0.057443932 0.063668892
0.096572131 0.058217041 0.063755788
0.094837859 0.048802957 0.062264509
0.022991411 0.083108127 0.065904036
0.091252729 0.040408053 0.061308429
0.090292692 0.039972991 0.061794147
0.014201686 0.058776159 0.062892839
0.050902888 0.01685258 0.058034617
0.031204082 0.026493777 0.058858205
0.029944971 0.027109001 0.058924742
0.024520151 0.029733535 0.059127711
0.039188355 0.021723863 0.059050582
0.036671475 0.022904973 0.059107661
0.035344265 0.023567323 0.059146345
0.034997456 0.023754161 0.059176438
0.033142753 0.024660476 0.059299611
0.029682972 0.026360467 0.059442393
0.028052986 0.027179308 0.05953227
0.02771394 0.027340572 0.059547186
0.091504142 0.083013348 0.067228071
0.08864072 0.084396034 0.067305952
0.053713277 0.10148537 0.068834618
0.053391308 0.10164806 0.068859048
0.050577603 0.10303125 0.069017924
0.092735961 0.081480913 0.067534044
0.090528041 0.082547285 0.067631707
0.052366279 0.10122126 0.069270432
0.099013969 0.067201734 0.06538289
0.099074513 0.056034699 0.063981734
0.095029429 0.046920225 0.063152045
0.016830295 0.074117146 0.065848179
0.016428895 0.074319199 0.06586428
0.016079888 0.056968179 0.063300468
0.014840923 0.05756611 0.063330337
0.014476739 0.056851219 0.063812509
0.075033173 0.019803755 0.059495166
0.020136409 0.046668984 0.061926641
0.017559908 0.047927126 0.06202513
0.021699741 0.04502422 0.062328119
0.016085923 0.047753096 0.062562592
0.037862957 0.021477282 0.059584226
0.033454329 0.023639113 0.059771191
0.093960211 0.079914078 0.067803092
0.086646751 0.083489873 0.068110272
0.096378192 0.07777261 0.068013549
0.094732821 0.078594036 0.068075791
0.050005294 0.10051025 0.070105717
0.049688786 0.10067068 0.070129663
0.093760088 0.078127556 0.068484165
0.09894526 0.065358147 0.066160448
0.096045151 0.066819742 0.066327415
0.097863436 0.064965993 0.0665728
0.097373903 0.055020332 0.064856872
0.09571816 0.05587507 0.064962849
0.012939431 0.075116679 0.066461094
0.016433008 0.072497621 0.066738494
0.015583053 0.064623117 0.065154865
0.013980284 0.064499989 0.065673701
0.018561743 0.053961061 0.064084873
0.016495012 0.054971796 0.064185962
0.01601243 0.05521011 0.064207606
0.014466219 0.055959139 0.064279094
0.013178378 0.056591924 0.064308256
0.07280162 0.019109957 0.060541116
0.021710098 0.044130802 0.062798783
0.018484503 0.04569323 0.062932521
0.071823716 0.018705897 0.061056137
0.071190491 0.018995464 0.061068565
0.022886127 0.034430075 0.062385559
0.03905309 0.026487231 0.061612226
0.039810486 0.019671913 0.060019106
0.037562676 0.020759434 0.060120616
0.084672235 0.09375073 0.071023718
0.082447037 0.094834298 0.071133405
0.080212943 0.095959745 0.071263969
0.079360932 0.097310439 0.070975348
0.076992616 0.097544163 0.071419567
0.076480716 0.098723412 0.071095102
0.075472489 0.098269343 0.071473002
0.073905393 0.099981904 0.071179152
0.092218652 0.078913122 0.068616159
0.098404348 0.063792504 0.066950575
0.095855534 0.065057904 0.067044839
0.094836235 0.064624861 0.067476809
0.096486643 0.05270119 0.066061959
0.095668718 0.054020181 0.065725878
0.093973204 0.043783583 0.064842314
0.092900187 0.04340221 0.065292969
0.012692422 0.064218059 0.066157416
0.018177763 0.052345555 0.064976901
0.0080622807 0.057291824 0.065440595
0.016592726 0.044831779 0.063948184
0.039812453 0.017925013 0.061019227
0.086493105 0.091914788 0.071292102
0.081421249 0.094406024 0.071517453
0.079158291 0.095544994 0.071659423
0.07758043 0.096309766 0.071731709
0.073457099 0.098317966 0.071877338
0.072150595 0.098963492 0.071937501
0.069673486 0.10017057 0.072072066
0.068440698 0.10078038 0.07213299
0.067460753 0.10126644 0.07217636
0.088334173 0.090093747 0.071569078
0.085195392 0.091598123 0.071684413
0.082572363 0.092895649 0.071806155
0.080383874 0.093980417 0.071899936
0.080007151 0.094178244 0.071923055
0.070189215 0.098974191 0.072370984
0.065133303 0.10145926 0.072610766
0.095538139 0.075417809 0.069215775
0.095341325 0.073666424 0.069915578
0.097591281 0.061427452 0.068159625
0.096416697 0.050888374 0.066850625
0.094829202 0.0516515 0.066909313
0.023374021 0.086642668 0.070083715
0.018262707 0.069792271 0.067528807
0.015964016 0.069997132 0.068052195
0.016333021 0.059727363 0.067294635
0.016239718 0.05241365 0.065556094
0.015945517 0.052557312 0.065576106
0.017518617 0.050866704 0.06591174
0.017142557 0.051062178 0.065933317
0.034633793 0.026893765 0.062793121
0.032102399 0.028142363 0.062920719
0.029244564 0.029537052 0.063081816
0.028341398 0.029951952 0.063077338
0.023212187 0.032503452 0.063339546
0.022897825 0.032664709 0.063358642
0.015571967 0.036226094 0.063657723
0.042548776 0.02215264 0.062959552
0.039988294 0.023369987 0.063031614
0.032712646 0.02695702 0.06335596
0.025354169 0.030531783 0.063651614
0.084136724 0.091190457 0.072076716
0.081277467 0.092583522 0.072208919
0.075845957 0.095282659 0.072498977
0.066662714 0.099778786 0.072909161
0.065739498 0.10021684 0.072933555
0.063455492 0.10133819 0.073035523
0.086407349 0.089164972 0.072345391
0.083034605 0.090808377 0.072482288
0.062395737 0.10092233 0.073423341
0.06119103 0.1014982 0.073476151
0.096244544 0.072294526 0.070244782
0.095239401 0.071849145 0.070652463
0.093660638 0.072605975 0.070722617
0.098160118 0.060234539 0.068509936
0.096553549 0.061000362 0.068557948
0.095646054 0.048466466 0.068032764
0.091713145 0.040307991 0.066969581
0.014587149 0.07806161 0.070368096
0.08605361 0.033855662 0.065781802
0.012831785 0.060541116 0.067902967
0.077812195 0.020460419 0.063720241
0.026348524 0.029155504 0.064103924
0.040942483 0.021179765 0.064002179
0.038378075 0.02239158 0.064071253
0.037449084 0.022836592 0.064092346
0.034020692 0.024539579 0.064295232
0.088236079 0.087331615 0.072626643
0.060154192 0.10106184 0.073854402
0.090836361 0.085102879 0.072806388
0.087068036 0.086960144 0.073014937
0.086060017 0.086509466 0.073391713
0.057413958 0.10053108 0.074625462
0.056135468 0.10115005 0.07467448
0.055857897 0.10128267 0.074689724
0.097405955 0.069833621 0.070875473
0.096139491 0.070459843 0.070945688
0.097994268 0.068607338 0.071244158
0.095129386 0.070012264 0.071353637
0.098000854 0.058467627 0.069262415
0.096437663 0.059228092 0.069340475
0.096331567 0.05741775 0.070095234
0.094635487 0.048045188 0.068478502
0.015146226 0.076871805 0.070743054
0.090027481 0.039317891 0.067872047
0.016328394 0.075373158 0.071083263
0.015156373 0.066768669 0.069782615
0.013451256 0.059322029 0.068304129
0.011842258 0.060120571 0.068394534
0.020082645 0.055195242 0.068488203
0.015211403 0.057573538 0.068665132
0.013975039 0.058175337 0.068725973
0.017407931 0.048219007 0.067281276
0.019981995 0.046056736 0.067617342
0.063119769 0.016734153 0.064735197
0.036782593 0.029630225 0.065875225
0.028211281 0.033822384 0.066265002
0.043776549 0.018898729 0.064348653
0.092680693 0.083286718 0.073124796
0.094125688 0.081649914 0.073410295
0.056397438 0.10008954 0.075014651
