# .PCD v0.7 - Point Cloud Data file format
VERSION 0.7
FIELDS x y z
SIZE 4 4 4
TYPE F F F
COUNT 1 1 1
WIDTH 1324
HEIGHT 1
VIEWPOINT 0 0 0 1 0 0 0
POINTS 1324
DATA ascii
-0.00085967779 0.095827602 0.024624582
0.0019482672 0.093443103 0.025161702
0.093628809 0.036453061 0.021322157
0.0019428879 0.087289289 0.02412699
0.00048021972 0.081166081 0.02396596
-0.0019938648 0.076447323 0.023371853
0.017125949 0.054446563 0.021155205
-2.6613474e-05 0.063944511 0.021693606
0.071161114 0.023718785 0.020175388
5.7861209e-05 0.063170351 0.022404445
0.055989958 0.021543205 0.01881044
0.055629462 0.021736667 0.018809911
0.047848098 0.026042264 0.019060552
0.0469179 0.026556067 0.019083917
0.047055401 0.025757127 0.019809218
0.039788686 0.024600334 0.019402007
-0.0044766515 0.043914571 0.020186402
-0.00083586574 0.036700092 0.01962008
-0.0019991025 0.0086331293 0.017082464
-0.0017405525 -0.00027983636 0.016227327
-0.007306084 -0.005376704 0.015055242
-0.0030776858 -0.024425253 0.014143948
-0.0080224723 -0.021710917 0.014255497
-0.0084100962 -0.021037437 0.013367275
0.091146193 0.088084243 0.02743179
0.027756885 0.10026255 0.026639022
0.002607286 0.11419651 0.027397051
0.003326714 0.098888725 0.026335374
0.0005376935 0.10043962 0.026415303
0.0016854554 0.092808187 0.025833514
0.014141649 0.078972198 0.025129646
0.0034624487 0.06655857 0.023358544
0.070190571 0.023503382 0.0208997
0.06027063 0.022977449 0.020968456
0.032268658 0.033299785 0.021078732
-0.0028871298 0.052776605 0.022141401
0.045361802 0.025996968 0.020604411
-0.0017237514 0.046897382 0.021395884
-0.0036256611 0.047985151 0.021502785
-0.00066292286 0.035919286 0.020390408
-0.0048910826 0.005241327 0.017525785
-0.0069391653 -0.0061424151 0.015867107
-0.0050804541 -0.0077243298 0.016677182
-0.0041046217 -0.012019642 0.01573245
-0.0047019199 -0.011680774 0.015760224
0.0010254458 -0.019160852 0.015541406
-0.0014454126 -0.017806124 0.015595953
-0.0024174526 -0.017271649 0.015635561
-0.0044665635 -0.024141189 0.015085501
-0.0051883906 -0.023736428 0.015104445
0.073430151 0.10595012 0.02922456
0.09176144 0.086878344 0.02799898
0.091100246 0.08724428 0.028006565
0.092991047 0.08530964 0.028491322
0.09207321 0.085822627 0.028522093
0.091443136 0.086188227 0.028565222
0.090743311 0.086578444 0.028586131
0.0015255511 0.12898785 0.029879699
0.0021961033 0.11278521 0.02866425
0.0018912554 0.10589274 0.027747443
0.023373201 0.093939759 0.02701785
0.0016029477 0.10523508 0.028372917
0.0013191402 0.091813892 0.026819102
0.00087890029 0.085527778 0.026180405
0.010605574 0.073209822 0.025671797
0.081302121 0.02794373 0.02285062
0.014137134 0.06518954 0.024929918
0.012369931 0.066172689 0.024991486
0.00033077598 0.073592775 0.024633761
0.014543444 0.058915682 0.024411026
0.011742547 0.06047184 0.024505297
0.0015217066 0.066127844 0.024815451
0.016768143 0.05765903 0.024300044
0.0030138046 0.065295406 0.024778865
0.06839329 0.023740787 0.021654056
-0.00027754903 0.061861753 0.023811439
0.061473683 0.021566194 0.021637842
0.05822432 0.023383342 0.02173066
-6.8753958e-05 0.055753663 0.02359505
0.0035091937 0.04850211 0.022654144
-0.0018810928 0.046285309 0.022149008
0.0054551959 0.037048876 0.021426953
-0.0038989037 0.04223156 0.02171658
-0.0026788712 0.026070319 0.02072823
0.0065482259 0.016556613 0.019625537
0.0031014606 0.018470101 0.019735705
-0.003907308 0.017268389 0.019967074
-0.0047340095 0.018357031 0.01918363
0.0081637725 0.0061995089 0.018983223
0.0012934357 0.0099910498 0.019188331
0.00070483238 0.01031661 0.019208167
-0.00025692582 0.010843486 0.019214122
-0.00059649348 0.011023454 0.019224342
-0.0017996132 0.011732906 0.019303337
-0.0019974187 0.0074255541 0.01873341
-0.0019999072 0.0030864999 0.018302094
-0.0046445653 0.0045221597 0.018353006
0.0006801188 -0.0028122514 0.017793827
-0.0013556406 -0.0016424134 0.017904714
-0.0021472871 -0.0011985749 0.017932724
0.00094848126 -0.0029705465 0.017785095
-0.0042656064 -0.0043888837 0.01770914
-0.0020316914 -0.0099162012 0.017514938
-0.0012491047 -0.014158919 0.016456086
-0.0037386045 -0.012747161 0.016585853
-0.0031691194 -0.021122593 0.015749263
-0.0039734915 -0.020688441 0.015761944
-0.0047261119 -0.020258378 0.015780417
-0.0053251609 -0.019934438 0.015797511
0.049778417 0.11645294 0.031572059
0.094477288 0.083678484 0.029074101
0.093586408 0.084162585 0.029084504
0.092601433 0.084673539 0.029082235
0.092082031 0.084953189 0.029083742
0.018347979 0.11794147 0.030499622
0.0026563257 0.12665948 0.030994728
0.0018671453 0.12710613 0.031032892
0.00036007166 0.11996894 0.030340375
0.0020207316 0.11205226 0.02927611
0.0017590076 0.11136264 0.029883713
0.0085061342 0.10057621 0.028746566
0.0013330579 0.10455436 0.028972156
0.00087839365 0.090859056 0.027814344
0.016775072 0.075901069 0.026315298
0.013950169 0.077494644 0.026457477
0.012730658 0.078155585 0.026451292
0.0037632138 0.083114594 0.02669877
0.00059068203 0.08490479 0.02685402
0.0022490919 0.083189048 0.027445337
0.0015826374 0.083554484 0.027462415
0.00032715499 0.084263019 0.02752606
0.0026617348 0.077254154 0.026298029
0.0018385053 0.078098364 0.025978768
-0.0001719743 0.078410782 0.026658544
-0.0011547059 0.078942955 0.026691781
0.012354836 0.065412715 0.025671128
0.0014543682 0.071451724 0.025992827
0.011503339 0.059842773 0.025216091
0.0090565979 0.061204277 0.025278129
0.067446798 0.023518033 0.022384699
0.066463165 0.023325101 0.023118995
0.023262627 0.047305673 0.024490569
0.022924036 0.047507025 0.02451238
0.0074662119 0.056449264 0.024645261
0.002683267 0.058715776 0.025135105
0.0017711371 0.059234746 0.025165591
-0.00011336803 0.060263537 0.025203228
0.057273164 0.023190223 0.022498611
0.049166307 0.027651995 0.022720406
0.024322033 0.041468717 0.023532744
0.014634296 0.046814173 0.023786688
0.0012686402 0.054270215 0.024272595
-0.00028584898 0.055138275 0.024318209
0.043412082 0.025662057 0.022168856
0.042479664 0.026186015 0.022199638
0.0092022419 0.044603907 0.023187555
-0.0013872087 0.050523654 0.02358022
-0.0020737201 0.045670509 0.022889143
-0.0013535917 0.044574171 0.023641195
0.0021879077 0.038128629 0.022227557
0.0019185841 0.038270481 0.022218786
0.00046761334 0.038365982 0.023012348
-0.00044386089 0.039584011 0.022330573
-0.0017099679 0.039600737 0.023136757
-0.0015576631 0.040229648 0.022400528
-0.0026438236 0.04013864 0.023208817
0.0049638003 0.030717939 0.022483468
0.0045607686 0.030945644 0.022490431
0.002981171 0.031840071 0.022563754
0.0020356178 0.032362923 0.022571448
0.0041718185 0.026714705 0.021465149
-0.00059984624 0.029375248 0.021619905
0.0036194772 0.021931171 0.021316202
0.0031410903 0.022201777 0.021337479
-0.0024128407 0.025297321 0.021525126
0.0042267963 0.017199852 0.020504
-0.0027095526 0.021003835 0.020659896
-0.0034891069 0.021435544 0.020676311
-0.0050576627 0.022366509 0.020799717
-0.0012335777 0.015179649 0.020723462
-0.0027807206 0.016018458 0.020749776
-0.0033602268 0.016332239 0.020753523
0.0052978694 0.0071910769 0.0199026
0.0018655285 0.0090553835 0.019977853
0.0012070537 0.0094245225 0.020001136
-2.2552907e-05 0.010110468 0.020038679
-0.0015920401 0.0065973997 0.019544605
0.0012021586 0.00071421266 0.019027619
0.000282906 0.0012206882 0.019054618
-0.00034725666 0.0015695095 0.019079244
-0.0016072616 0.0022832155 0.01913764
0.0033954382 -0.0048555806 0.018605003
0.0030652434 -0.0046830922 0.018613491
-0.0017934516 -0.0063293055 0.01846941
-0.0026217401 -0.0058873817 0.01848622
-0.0032078549 -0.0055605546 0.018498832
0.0023173764 -0.012909397 0.018187288
0.0016930997 -0.01257534 0.018181285
0.0007821843 -0.012050707 0.018223276
-0.00017955154 -0.01150395 0.018278634
0.0046220198 -0.017905418 0.017200598
0.0035545453 -0.017332785 0.017215068
0.0027388781 -0.016893305 0.017230757
0.0019981414 -0.01647881 0.017248569
0.00014140457 -0.015448369 0.017306715
-0.00079383701 -0.022905506 0.016588153
-0.0019245744 -0.022290844 0.016621489
-0.0026956052 -0.021870829 0.01662524
-0.0031376332 -0.021635409 0.016632047
0.048632786 0.12511522 0.033015873
0.033695027 0.11653513 0.031523861
0.033223078 0.11679453 0.031544175
0.028903902 0.11919463 0.031658318
0.032265231 0.11646426 0.032139875
0.03163141 0.11682566 0.032154668
0.030887708 0.11724514 0.032159537
0.027338535 0.11920537 0.032275196
0.016092777 0.12543893 0.03264733
0.016747847 0.11797101 0.031120922
0.002625972 0.12583661 0.03160416
0.093561366 0.074514605 0.029312495
0.0029333532 0.1248211 0.032178886
0.002416864 0.1250961 0.032197196
0.0025477707 0.11710112 0.031495892
0.0039850026 0.1092547 0.030358221
0.0036873221 0.10943265 0.03037928
0.0029738545 0.10981461 0.030399889
0.0019184649 0.11042783 0.030461498
0.0019955337 0.10335692 0.029560037
0.0013971776 0.10369728 0.029578166
0.013021827 0.096426733 0.029850921
0.01257804 0.096670531 0.029854249
0.0061987489 0.10020489 0.030065762
0.0033239424 0.094800338 0.029437063
0.0027022064 0.095156685 0.029488746
0.0018495768 0.09592139 0.029307922
0.0033182055 0.088673845 0.0283169
0.00099103153 0.089998782 0.028441707
0.013710529 0.076839261 0.027114509
0.015357688 0.075112201 0.02767331
0.0081974715 0.079073228 0.02787791
0.0059649646 0.080333829 0.027981943
0.017567351 0.067797452 0.026824795
0.00019276142 0.077437609 0.027336173
-0.00011751056 0.077609591 0.02735161
0.079844184 0.027211219 0.024261713
0.079537898 0.027375028 0.024269488
0.010305464 0.065771505 0.026416229
0.0022775531 0.070250325 0.026708979
0.019410729 0.054705359 0.025660738
0.016913787 0.056065969 0.025705213
0.0029662102 0.06382408 0.026152117
0.02430208 0.045953065 0.025103586
0.0024643838 0.058095396 0.025851272
7.0676208e-05 0.059423365 0.025924129
-0.00092798471 0.059972622 0.025930459
0.05610691 0.023108173 0.023266396
0.020340934 0.042916551 0.024346698
0.019490987 0.043402255 0.024354573
0.0050873458 0.051408708 0.02486627
0.0045357496 0.051732048 0.02489567
0.0010798872 0.053649351 0.025002521
0.043191828 0.025056113 0.022904439
0.041397832 0.026066016 0.022959692
0.040733248 0.026431281 0.02298688
0.039980836 0.026854485 0.023021245
0.0055882782 0.045935564 0.024106437
0.00075364113 0.048598044 0.024222668
-0.00013236701 0.049113303 0.024275035
-0.001225844 0.04971315 0.024295131
0.040575847 0.02579147 0.023718413
0.037784301 0.027353443 0.023815408
0.034970775 0.028879575 0.023874113
0.011915393 0.036474496 0.023926504
-0.00026962161 0.043292083 0.024369303
-0.0015492588 0.043974563 0.024393547
0.0015324801 0.037094459 0.023752365
0.0062299818 0.02938731 0.023270568
0.0053300411 0.029864162 0.023264427
0.0021428764 0.031611748 0.02334806
-0.00031536818 0.033028431 0.023481257
-0.0012408048 0.033540726 0.023510791
-0.00073745847 0.028772093 0.022386732
-8.0347061e-05 0.027729943 0.023133934
-0.00051276386 0.027974613 0.023141704
0.011085451 0.017138459 0.021883119
0.010106295 0.017691918 0.021922141
0.0048539937 0.020593926 0.022079149
-0.0019426793 0.024400637 0.022330582
-0.00065106153 0.018573746 0.022194382
0.00041853637 0.013656765 0.021517761
-0.00067903101 0.014256805 0.021522896
-0.00097581744 0.014416888 0.021528438
-0.0028710216 0.015455402 0.021573212
6.6421926e-05 0.0050961003 0.020334646
-0.00075256824 0.0055306107 0.020351959
-0.0013067126 0.0058481172 0.02037253
0.0027102977 -0.00074609369 0.019782983
0.0017693043 -0.0001962781 0.01984467
0.0011741892 0.00013781339 0.019864775
0.0015781 -0.0087255575 0.019277081
0.00049437582 -0.0081215948 0.019304054
4.2445958e-05 -0.0078767687 0.019309916
-0.0010848865 -0.0072658136 0.019335994
-0.0016889647 -0.0069316551 0.019343011
0.0040352494 -0.0144132 0.018989529
0.0035441071 -0.014130548 0.019015331
0.0024852827 -0.013543684 0.019047422
0.077377081 0.099426284 0.031870324
0.026411101 0.11885816 0.032857727
0.016470462 0.12435836 0.033155236
0.0036491454 0.13150576 0.033613425
0.095424086 0.072640359 0.029856769
0.014598534 0.11747573 0.032360945
0.013951749 0.1178497 0.032403678
0.0032667816 0.12379083 0.032723032
0.0027963668 0.12405527 0.032737188
0.012540206 0.11072215 0.031747952
0.0098935515 0.10516796 0.030786438
0.0095773041 0.10533678 0.030806381
0.0017761439 0.10966489 0.031056553
0.0048026294 0.10016364 0.030730408
0.010963246 0.089790732 0.029891841
0.0016536415 0.094942369 0.030157719
0.017822176 0.079882853 0.028609391
0.0097766817 0.084302552 0.028761469
0.0087942034 0.084834263 0.028794536
0.0020030141 0.088630043 0.029035404
0.00072997808 0.089335561 0.029077917
0.012267575 0.08213798 0.029374268
0.0094780773 0.083672822 0.029424042
0.0079240948 0.084517844 0.029467486
0.0011243522 0.088319533 0.029717494
0.012936845 0.075680852 0.028439194
0.0026637614 0.081340633 0.028693967
0.004788667 0.073716134 0.0282025
0.0025009364 0.074583627 0.028587256
0.0012400746 0.075305842 0.028669588
0.078711011 0.027063303 0.024977043
0.018384397 0.060534619 0.026857872
0.014784753 0.062516145 0.026952997
0.011550948 0.064304121 0.027056344
0.0096938461 0.065343671 0.027114842
0.0027028471 0.069232129 0.027339926
0.0086569935 0.06514293 0.027816903
0.007593438 0.065744989 0.027856121
0.0070208907 0.066066697 0.027871817
0.0051243901 0.067109309 0.027936764
0.0041599423 0.067636639 0.027956214
0.0034010708 0.068053305 0.027964592
0.0086433291 0.059910081 0.026663247
0.0143307 0.055973776 0.027148642
0.060384244 0.025204509 0.024718149
0.01438275 0.050743572 0.026204322
0.0072720945 0.054689638 0.026402017
0.002323851 0.057434715 0.026558828
0.054669105 0.023176204 0.02404975
0.035694033 0.033687495 0.024605356
0.005891189 0.050217785 0.025520911
0.0048966408 0.050772205 0.025572374
0.047031589 0.026658755 0.024974538
0.02157297 0.040750228 0.025724325
0.019051872 0.04216861 0.025817959
0.011015147 0.046644829 0.026103588
0.0079879314 0.048351176 0.026221264
0.0072106868 0.048766643 0.026238378
0.0064407885 0.04918506 0.026247067
0.0025517195 0.051357344 0.026384538
0.0011586696 0.052136153 0.026443789
0.037896752 0.026572924 0.024557557
0.036663242 0.027243666 0.024573974
0.035976872 0.027605291 0.024583437
0.035142072 0.028072853 0.024609832
0.034177966 0.028597482 0.024627827
0.0012140572 0.046895228 0.025643744
0.012397036 0.03549353 0.024647053
0.012102924 0.035658404 0.024648974
0.010816187 0.036389269 0.024720728
0.0076767206 0.038177997 0.024874831
0.0061304569 0.039013661 0.024888724
0.0032934546 0.04055056 0.0249427
3.3438206e-05 0.042410731 0.025115991
-0.0010705888 0.043020763 0.025137935
0.0066269264 0.028436944 0.023981569
0.0008508563 0.026582323 0.02392941
0.00023949146 0.026902646 0.023932628
0.0081838667 0.018134907 0.022819372
0.0078718811 0.018302068 0.022836104
0.0053482875 0.019676849 0.022873139
-0.00020940602 0.022726081 0.022992592
-0.00084461272 0.023076147 0.023021795
0.0011149645 0.016984798 0.022979781
-9.560585e-05 0.017640956 0.022987494
-0.0007378608 0.01798927 0.022997206
0.0096560419 0.0078967586 0.022020917
0.0088553429 0.0083471909 0.022055
0.007776022 0.0089394227 0.022073865
0.0071743652 0.0092619061 0.022082232
0.0063570738 0.0096960515 0.022098983
0.0054635629 0.010194749 0.022122288
0.0045287833 0.010705955 0.022152996
0.0038790926 0.0023813546 0.021042308
0.0023279265 0.0032521859 0.021108149
0.0016917288 0.0036061928 0.021129839
0.00014692545 0.0044590309 0.02116625
0.0073293969 -0.0038583539 0.020521719
0.0057522207 -0.0030029491 0.020556431
0.0051432177 -0.0026729144 0.020555228
0.0041968897 -0.0021711364 0.020563077
-0.00073643774 -0.0037563145 0.020373713
-0.0010210574 -0.0035916343 0.020385511
0.0021816343 -0.0096242465 0.020093923
-0.00064908713 -0.00805749 0.020181235
-0.00095072389 -0.0078906268 0.020186929
0.0030562803 -0.010128628 0.020036833
0.015798941 0.13186708 0.034869082
0.015462652 0.13204652 0.034898199
0.041073754 0.1177853 0.034024119
0.035684288 0.12081264 0.0342272
0.035367996 0.12098211 0.034247104
0.024300367 0.11831128 0.034071364
0.023669645 0.1186635 0.034105584
0.0050380528 0.12900653 0.034669954
0.0043728799 0.12936953 0.0346919
0.0040932894 0.13038969 0.03412544
0.0017617196 0.13083069 0.034801342
0.095431104 0.071792826 0.030443927
0.095116153 0.071964771 0.03046019
0.012711495 0.11769611 0.03303156
0.0037104934 0.12266941 0.033264596
0.0032473803 0.12293831 0.033288036
0.096013829 0.070594981 0.030948451
0.095584705 0.07084468 0.030986913
0.011598259 0.11746329 0.033644259
0.0044753402 0.12136961 0.033800215
0.0034458637 0.12194373 0.033832774
0.011593103 0.11040372 0.032376129
0.010499805 0.11017317 0.033025406
0.01002121 0.11044466 0.033043794
0.025291398 0.094927274 0.031488217
0.0073934346 0.1048695 0.032080669
0.0037965328 0.099911489 0.031356487
0.0028464198 0.10043105 0.031385243
0.016366616 0.079082377 0.029937286
0.01544939 0.079566218 0.029906128
0.01201354 0.081475995 0.030022388
0.0092353821 0.083008446 0.030090462
0.0067412853 0.084391631 0.030166745
0.014886454 0.073789433 0.029012289
0.012828454 0.074932188 0.029056368
0.0078525394 0.077676646 0.029187985
0.0054827183 0.079028681 0.029336043
0.015815929 0.072479382 0.029650025
0.013363883 0.073838025 0.029691096
0.0028106421 0.07969062 0.030004855
0.0021879077 0.080016367 0.030019222
0.016211882 0.066213213 0.028877888
0.0048682094 0.07251931 0.029242475
0.0014706105 0.074382879 0.029301429
0.077354275 0.0262793 0.026378633
0.016386002 0.060099415 0.028267875
0.0060720146 0.065825716 0.028607428
0.0048652887 0.066474378 0.028620984
0.0042808205 0.06680689 0.028647218
0.06915044 0.02480913 0.026148479
0.016858816 0.053845398 0.027815824
0.016598314 0.054730967 0.027117185
0.015614331 0.054514579 0.027833872
0.014712334 0.055011265 0.027838822
0.01021488 0.058288902 0.027343191
0.0084131211 0.059278294 0.027374543
0.004736945 0.060568802 0.028198881
0.001955688 0.062107094 0.028266862
0.0070520341 0.054063074 0.027115855
0.024985395 0.04331971 0.027192149
0.022115387 0.044933073 0.027285069
0.053052858 0.022604495 0.025549076
0.04466746 0.027256433 0.025784921
0.011356845 0.045699783 0.026795601
0.010140568 0.04639674 0.026856899
0.0096718371 0.04667449 0.026900198
0.0088612586 0.047125295 0.026930392
0.0081396401 0.047532968 0.026940487
0.0070154816 0.048153356 0.026972739
0.003302604 0.050217941 0.027094586
0.0013844967 0.051271729 0.027147289
0.0053248852 0.038732722 0.025640594
0.0040976405 0.039394252 0.025647162
0.0016366094 0.040786296 0.025771687
-1.3262033e-05 0.041721024 0.025864037
0.007240966 0.032515354 0.025056992
0.0065677464 0.032892667 0.025092887
0.0052923262 0.033608049 0.025136475
0.0047219247 0.033935301 0.025142178
0.0012685806 0.035870314 0.025296791
0.0078035146 0.027089819 0.024682883
0.013391249 0.018923461 0.024292264
0.011872396 0.019815587 0.024396781
0.0081314072 0.021867245 0.024472004
0.007531032 0.022182532 0.024470039
0.0018728226 0.025311969 0.024652032
0.0006904304 0.026009887 0.024723623
0.0010180175 0.021068156 0.024147356
0.00043188035 0.021716684 0.023771117
0.0069599301 0.013089567 0.023588533
0.0050251707 0.014168434 0.023638099
0.0029100776 0.015360065 0.023743501
0.0016765594 0.016039886 0.023762062
0.00041787326 0.016733706 0.023798741
0.0097075179 0.0072297454 0.022816673
0.0062627941 0.00040841103 0.021746669
0.0056933314 0.00074446201 0.021772627
0.0050020963 0.0011453405 0.021833621
0.0044482499 0.0014649034 0.02184806
0.0064800605 -0.0039849579 0.021376207
0.052546948 0.11942528 0.035023384
0.051211119 0.11928636 0.035603672
0.050614864 0.11962555 0.035627715
0.049929142 0.12000669 0.035656787
0.085448369 0.092311598 0.033222102
0.084762625 0.092711702 0.03327401
0.083803475 0.093241811 0.033313923
0.08290787 0.093748987 0.033328485
0.081949048 0.09427534 0.033352971
0.081012949 0.09478125 0.033366594
0.039807647 0.11762872 0.034642488
0.034429446 0.12063215 0.034823179
0.025206387 0.12577367 0.035153434
0.024780005 0.12600833 0.035162941
0.085976884 0.091129966 0.033719916
0.083812431 0.092369661 0.033863146
0.082282685 0.093223125 0.03389214
0.038698494 0.1173895 0.035230543
0.038412899 0.11755306 0.035235159
0.033408418 0.1203151 0.035393547
0.033103049 0.1204858 0.035411157
0.0238287 0.12566163 0.035722721
0.022441655 0.11849059 0.034711596
0.0051951855 0.12805243 0.035216734
0.095959403 0.076796465 0.032902807
0.095611908 0.076987535 0.03291022
0.093640178 0.078078046 0.03297323
0.093144543 0.078341931 0.032985706
0.096326917 0.069551818 0.031500801
0.095824964 0.069837131 0.031521395
0.010393456 0.11727572 0.034245137
0.0046058148 0.12047162 0.034407243
0.0043412745 0.12060816 0.034394506
0.0031111538 0.12126975 0.034411497
0.096501842 0.068607457 0.032089975
0.0089773238 0.11718292 0.034808721
0.0074733943 0.11800368 0.034855522
0.0058653951 0.11891904 0.034945361
0.014404565 0.10716553 0.033460695
0.0091227889 0.11010412 0.03366394
0.0088284761 0.11026645 0.033677451
0.0050734133 0.11235608 0.033799488
0.011944816 0.10152485 0.032532394
0.0063682348 0.10461358 0.032704428
0.010562479 0.10145798 0.033186346
0.0052849054 0.10438643 0.033342376
0.013044387 0.086176477 0.031664416
0.005854249 0.090179309 0.031910982
0.003600046 0.09143395 0.032006748
0.020167366 0.076145172 0.03041427
0.01453279 0.079270296 0.03057448
0.013643086 0.079744525 0.030572657
0.0091215521 0.082275771 0.030739129
0.0045504868 0.084827065 0.030911222
0.0032114387 0.084758528 0.031598426
0.0074944049 0.07629627 0.030518368
0.0071697682 0.076472647 0.030531522
0.0048100352 0.071785711 0.029944448
0.017982453 0.058424935 0.02888036
0.011791721 0.061882265 0.02909505
0.068314947 0.024510406 0.026871383
0.019518331 0.051588371 0.028403226
0.018832877 0.051985927 0.02845398
0.016023144 0.053551264 0.028537979
0.010105088 0.056830809 0.028724272
0.0027941912 0.060878091 0.02893988
0.0017070621 0.061488546 0.028969301
0.058138087 0.024229661 0.026937898
0.02182667 0.045097947 0.027304448
0.014628798 0.049097553 0.027576663
0.0082387477 0.051888771 0.028447926
0.0077911764 0.052918218 0.027814277
0.0068547726 0.053433493 0.027831534
0.0038270652 0.054364592 0.028648281
0.0021719187 0.05527731 0.028673729
0.042908214 0.027500283 0.026565826
0.041951112 0.028040279 0.026611909
0.04071597 0.028723553 0.026639853
0.037325501 0.030568425 0.026718277
0.0017590523 0.045161612 0.027123667
0.01468382 0.037225023 0.027384199
0.012179978 0.033516094 0.026913656
0.012335911 0.034128442 0.026164958
0.0079836398 0.036549889 0.026274892
0.0087208152 0.031038076 0.025825908
0.0029853582 0.034225523 0.026013542
0.0023468882 0.034597293 0.026050493
0.0010906309 0.035282664 0.026068646
0.00928884 0.030015722 0.026567241
0.0082534626 0.02616325 0.025445553
0.0079448521 0.026330166 0.025449902
0.0020711273 0.029589757 0.025622347
0.0097329319 0.020322248 0.025213739
0.0090999752 0.020663857 0.025227562
0.0080187693 0.021262921 0.025261097
0.0011424869 0.025072254 0.025483744
0.0055867061 0.013202652 0.024408676
0.048965573 0.11966211 0.036228653
0.048402622 0.11996961 0.036223084
0.04204762 0.12350564 0.036408536
0.048034206 0.11929813 0.036779769
0.047397763 0.11964422 0.036783423
0.087529682 0.088555679 0.034795884
0.087027274 0.088818952 0.034789316
0.086599022 0.089702509 0.034373716
0.085962243 0.090266883 0.034249797
0.037462488 0.11720876 0.035811912
0.037178591 0.11736881 0.035825893
0.034615681 0.1179207 0.036470775
0.032172292 0.12013644 0.035978634
0.030915514 0.11997021 0.036562659
0.030617759 0.12013038 0.036571689
0.022829533 0.12532669 0.036270846
0.021621466 0.12511604 0.036817405
0.019544885 0.12627077 0.036929913
0.019433394 0.12721589 0.036398884
0.018337399 0.12783957 0.036457263
0.017369583 0.12793453 0.03674373
0.016310394 0.12805976 0.037010156
0.095916368 0.075971469 0.033481732
0.094400525 0.077664703 0.032955721
0.021045864 0.1183873 0.035280891
0.020121992 0.11889877 0.035305809
0.018770158 0.11877517 0.035907812
0.096637651 0.067675605 0.03266383
0.0076173097 0.11707339 0.035396568
0.0068479776 0.11749942 0.035439488
0.005996123 0.11798172 0.035504442
0.0048929751 0.11861532 0.035561785
0.0046028644 0.11942183 0.035149284
0.0079141706 0.10991899 0.034268327
0.0074326992 0.11017888 0.034264103
0.0056874603 0.11029314 0.034901217
0.0096662641 0.10112429 0.033824809
0.0068171024 0.095718086 0.033074301
0.0040018857 0.090404026 0.032622688
0.012119949 0.085861146 0.032321069
0.0087020546 0.080912687 0.032069176
0.010911331 0.079670399 0.031958655
0.014229149 0.071776159 0.030998159
0.007442385 0.075531714 0.031170009
0.017294422 0.064039111 0.030163219
0.015775457 0.064908773 0.030244093
0.0051650256 0.070804387 0.030591402
0.011164337 0.066670597 0.031017534
0.0068229437 0.069082677 0.031163029
0.0057157278 0.069684714 0.031166002
0.075920142 0.025528774 0.027775694
0.018435091 0.05739449 0.029521676
0.016578749 0.058458962 0.029636599
0.061527349 0.021581594 0.027517747
0.0098188072 0.050277606 0.029140037
0.0036064237 0.053744726 0.029365256
0.051737331 0.021864772 0.027028743
0.051411368 0.02205354 0.027047466
0.041154005 0.027751271 0.027356416
0.039314441 0.028753292 0.027384698
0.038644485 0.029108565 0.027401917
0.036475174 0.030309401 0.027460311
0.035245247 0.0309956 0.027497247
0.0093745291 0.040225945 0.027612969
0.005916819 0.042100735 0.027692527
0.0040785819 0.043161847 0.027808536
0.002549544 0.044015437 0.027838185
0.0079188496 0.040279888 0.028346928
0.0066833198 0.040952154 0.028367784
0.0060864091 0.041281365 0.028387377
0.0085117817 0.034821995 0.027754772
0.010120057 0.028820671 0.027228219
0.0084423795 0.02538199 0.026206532
0.0098199248 0.023931965 0.026924683
0.046431765 0.11928261 0.037325855
0.046153218 0.11943146 0.037321869
0.040262118 0.122736 0.037532393
0.018297702 0.12698755 0.036995567
0.087328143 0.08781153 0.035367105
0.020975888 0.1246103 0.037393201
0.020196408 0.12502418 0.037406232
0.019751757 0.12527519 0.037442632
0.0063272268 0.13275728 0.03790639
0.097921431 0.074017465 0.03401247
0.097336322 0.074334651 0.034022115
0.096512638 0.074790597 0.034046113
0.017513633 0.11863077 0.03652741
0.096314453 0.067006275 0.033243898
0.096340254 0.066143662 0.033817384
0.01656276 0.10343033 0.035165142
0.011649355 0.10616049 0.035323516
0.0080473423 0.10118294 0.03449117
0.0037093461 0.089743696 0.033250988
0.017493278 0.081270881 0.03341759
0.0097154081 0.08558853 0.033668313
0.0090562105 0.085977629 0.033732273
0.016233414 0.075908914 0.03241891
0.0045156479 0.076386727 0.03195788
0.013303608 0.070708886 0.032338604
0.019627601 0.061203286 0.031443305
0.0081256181 0.067574427 0.031799302
0.02355808 0.053012855 0.030747648
0.021043859 0.054441877 0.030874142
0.066592835 0.023953311 0.02832075
0.018749282 0.050491489 0.029811801
0.0050446987 0.058129422 0.030280147
0.019441597 0.049334645 0.030442702
0.018780321 0.049704902 0.030493721
0.016786575 0.050851293 0.030618187
0.015067413 0.051815704 0.030648073
0.010092393 0.054573365 0.030814249
0.048553787 0.028055791 0.02864073
0.013736561 0.047345862 0.029712953
0.012146354 0.048256353 0.029816713
0.049645856 0.022290748 0.027791003
0.048222616 0.022340491 0.028548747
0.032945678 0.030806851 0.029000467
0.032383181 0.031129073 0.029036699
0.017503925 0.03935831 0.029468201
0.027685918 0.028620493 0.028512288
0.015877761 0.035159193 0.028859679
0.0068308562 0.035057254 0.028526906
0.0062500536 0.035392299 0.028572045
0.045210883 0.11907064 0.037869789
0.078700721 0.099659011 0.037437558
0.028400108 0.11962998 0.037733987
0.098060504 0.072229117 0.035155661
0.096952848 0.064954937 0.034383778
0.010658249 0.10585368 0.035935294
0.0056496859 0.10086513 0.035742573
0.017199323 0.080626957 0.034070473
0.015911564 0.081332557 0.034104615
0.023622863 0.052196532 0.03140074
0.01054965 0.059471443 0.031846315
0.020195998 0.048170343 0.031115664
0.019212857 0.048703879 0.031141359
0.037706345 0.033289913 0.02965503
0.059302047 0.020576049 0.029707352
0.053873934 0.023615967 0.029909747
0.040971585 0.030747168 0.030277587
0.039086848 0.031787761 0.030340677
0.038651086 0.032030325 0.030353786
0.037531383 0.032646604 0.030366983
0.046818942 0.022363804 0.029274285
0.056077197 0.1201174 0.039527338
0.088978752 0.093039855 0.037600957
0.08869604 0.093199633 0.037613273
0.086468562 0.094462976 0.037726481
0.084909812 0.095335051 0.037762683
0.084255897 0.095680669 0.037766356
0.083687313 0.095993951 0.037774295
0.075945765 0.10029937 0.038021225
0.087380141 0.093063712 0.038199924
0.086449988 0.093593076 0.03826943
0.082737707 0.095633976 0.038321882
0.082269318 0.095890924 0.038326234
0.077094659 0.098790713 0.03854847
0.074936576 0.099988736 0.03859948
0.098961905 0.069971345 0.036188208
0.097076654 0.064046517 0.034961574
0.096601158 0.064301111 0.034973588
0.013985097 0.11015303 0.03753984
0.097102791 0.06319344 0.035549216
0.016423374 0.073410839 0.034394242
0.013741776 0.068898357 0.033643752
0.013245627 0.069176577 0.033664454
0.072636724 0.023498293 0.031279936
0.016897693 0.055176772 0.032312196
0.014970914 0.056260407 0.032403294
0.012781858 0.057484306 0.032480653
0.018982679 0.048076488 0.031844959
0.052901 0.023406811 0.030638253
0.047558606 0.02636015 0.030794157
0.037332922 0.032013595 0.031080127
0.081014335 0.095710225 0.038898051
0.079892978 0.09636113 0.038989324
0.079108916 0.0967912 0.039007634
0.07399264 0.099635907 0.039164856
0.097010389 0.078920528 0.037197992
0.095626354 0.079667702 0.037231132
0.095200479 0.079908043 0.037242193
0.097309306 0.077883109 0.037735451
0.094210997 0.079587042 0.037815832
0.093738921 0.07985156 0.037834048
0.099286936 0.068929665 0.036758706
0.09691827 0.062449802 0.036137417
0.011575043 0.088196412 0.036692396
0.063609533 0.022576246 0.031188322
0.059180215 0.025051247 0.031364121
0.025667317 0.043606512 0.032338809
0.018809304 0.04741326 0.032544743
0.051399805 0.023481671 0.031380884
0.050788283 0.023822468 0.031396568
0.044830389 0.021983426 0.030764963
0.017785683 0.036986589 0.031610221
0.010762811 0.03004995 0.031437315
0.090708978 0.088605061 0.039716847
0.077829733 0.09662085 0.039571412
0.099576645 0.067910001 0.037311021
0.096018255 0.06124714 0.037317179
0.076911628 0.025518235 0.032997567
0.071237005 0.022733305 0.032689989
0.061719544 0.022105414 0.032627914
0.049398325 0.023823161 0.032112457
0.014322527 0.032432124 0.03258248
0.090691268 0.087743476 0.040257458
0.090392269 0.087911524 0.040270559
0.090672702 0.086858094 0.040772546
0.099581771 0.066193908 0.038440514
0.099073932 0.066470288 0.038444716
0.095683143 0.060580395 0.037913766
0.017577335 0.057671189 0.035538547
0.067592174 0.023975566 0.033463411
0.069233291 0.022301953 0.034102965
0.060757309 0.02188075 0.033337176
0.047117241 0.023588061 0.033582471
0.090447195 0.08638972 0.041104928
0.095994249 0.059550159 0.038468339
0.09550751 0.059824999 0.038493115
0.095684931 0.058875468 0.039057083
0.06837602 0.022006284 0.03481051
0.054582655 0.024575092 0.034268029
0.017924719 0.04489316 0.035381962
0.058749683 0.021493714 0.034800854
0.045955397 0.023489088 0.034330104
0.045334175 0.023856334 0.034380406
0.079693027 0.099958226 0.042990692
0.083346426 0.097022653 0.04336625
0.082762435 0.097358212 0.043408196
0.078708641 0.099611223 0.043533627
0.089627579 0.084776424 0.042332608
0.095652431 0.058035415 0.039621197
0.073689707 0.024168301 0.035766117
0.058222145 0.021029484 0.035511713
0.052320361 0.024301488 0.035702556
0.049530916 0.025837407 0.035772391
0.0074046999 0.033346541 0.035654411
0.077687338 0.099279359 0.044073176
0.075895399 0.10028823 0.044154085
0.074941814 0.099919386 0.044683795
0.071767613 0.10168 0.044775829
0.071164198 0.10201551 0.044781521
0.09548489 0.080637038 0.042698644
0.091625735 0.081881732 0.043334175
0.090819761 0.082329638 0.043357328
0.090360552 0.083485313 0.042867295
0.09535943 0.057342261 0.040202051
0.025370128 0.049411252 0.038581051
0.062682778 0.022844199 0.036996227
0.02065108 0.046945296 0.037639551
0.056734815 0.02110992 0.036278248
0.050503187 0.024523024 0.036427788
0.079518102 0.097388461 0.044548422
0.076083161 0.098387703 0.045150634
0.073903158 0.099603489 0.045237463
0.072158776 0.10146679 0.044774324
0.071528509 0.10092857 0.045312885
0.094174787 0.080511011 0.043308012
0.093439475 0.080933399 0.043344788
0.092192583 0.081585079 0.043341354
0.09205272 0.080800235 0.043887753
0.070875645 0.023398641 0.037854731
0.054666534 0.02150188 0.037068199
0.047510304 0.02546956 0.037266761
0.046577543 0.025993418 0.037297633
0.046384305 0.025341023 0.037998725
0.026165128 0.036507539 0.038563043
0.0057817847 0.032807931 0.037159104
0.072646298 0.09940958 0.04579116
0.071835369 0.099875361 0.045823604
0.098800503 0.059763271 0.042974725
0.075663909 0.025032129 0.039576109
0.069876336 0.023166295 0.038550805
0.053832106 0.021205436 0.037789885
0.046171926 0.024702031 0.038693599
0.093075193 0.085401297 0.046647064
0.092787839 0.085563764 0.046652094
0.082804233 0.091132402 0.047032464
0.067955077 0.022671722 0.039957292
0.052354299 0.026254017 0.039366383
0.059244215 0.021698274 0.03986365
0.058394231 0.022185154 0.039924651
0.057722636 0.022550307 0.039952032
0.028824404 0.03853875 0.04078152
0.09382578 0.084084451 0.047150977
0.092693403 0.084723033 0.047185168
0.085506357 0.088704586 0.047425255
0.084659569 0.089191347 0.047468036
0.094493315 0.067299694 0.045523889
0.075512268 0.02354287 0.040900521
0.081355393 0.097972818 0.04953349
0.095125876 0.081617408 0.048177507
0.093984522 0.083095983 0.047640871
0.087018229 0.086103663 0.048412561
0.085498929 0.087820567 0.047913183
0.094868697 0.07307902 0.047512036
0.093932055 0.073592946 0.047533423
0.093362205 0.073909894 0.047547072
0.095058747 0.065228596 0.046584409
0.094424374 0.065574333 0.046590131
0.062530451 0.024142243 0.041482408
0.056961268 0.021441787 0.041335866
0.0479692 0.026429277 0.041601956
0.047179103 0.026866242 0.041629698
0.042818919 0.023536436 0.041577756
0.034388207 0.028180618 0.04180868
0.080387473 0.097616926 0.050069772
0.075719677 0.10018726 0.050203286
0.075148739 0.10051672 0.050224025
0.096726619 0.07118997 0.048020147
0.096059978 0.071554445 0.048035108
0.094998576 0.063518077 0.047682412
0.094878249 0.064017333 0.047416959
0.070996106 0.023650762 0.042985886
0.039775886 0.024474271 0.042394418
0.039488398 0.024633501 0.042391598
0.079415388 0.097261533 0.050607767
0.077263862 0.0984433 0.050651394
0.078388847 0.096936613 0.051145893
0.097616658 0.069836244 0.048561055
0.096501529 0.070442006 0.048566859
0.095760964 0.070844159 0.048580144
0.094777703 0.071389049 0.048610456
0.094495445 0.07155069 0.048619475
0.097425871 0.069059417 0.049087964
0.096487515 0.06957899 0.049125686
0.095306382 0.062480092 0.048219681
0.095004633 0.062648267 0.048228029
0.017312944 0.064321615 0.046701532
0.077915221 0.024858538 0.04405221
0.088573471 0.089451268 0.051759541
0.087974444 0.08979103 0.051804539
0.087030798 0.09032996 0.051850751
0.086584076 0.091038465 0.051645093
0.085662797 0.091553718 0.051668394
0.08466813 0.092260018 0.051605012
0.08409515 0.092862062 0.051444795
0.083498374 0.093187943 0.051452376
0.082228065 0.092989907 0.051974874
0.081137821 0.093595609 0.052009381
0.0774194 0.096577391 0.051675066
0.06246683 0.10399297 0.052674059
0.097515509 0.068114527 0.049576584
0.097297415 0.067346379 0.050107341
0.076953538 0.024581894 0.044715784
0.071138486 0.022003248 0.044307113
0.088682182 0.088495828 0.052244291
0.087018266 0.0894292 0.052340742
0.06130144 0.10373178 0.053181976
0.089119911 0.087368891 0.052747414
0.088509858 0.087695599 0.052753482
0.096070684 0.075748235 0.051215544
0.09468668 0.07649561 0.051248696
0.09759476 0.074022181 0.051694967
0.096617967 0.074551515 0.051713184
0.095737539 0.075050518 0.05175044
0.094977394 0.075463817 0.051768001
0.094482072 0.075727388 0.051780395
0.0932521 0.076408744 0.051804867
0.092611425 0.076769531 0.051835295
0.097464643 0.06636887 0.050629824
0.09486381 0.06012566 0.049887709
0.075543493 0.023765091 0.046048071
0.068151042 0.02207556 0.045706086
0.067870006 0.022233151 0.045723598
0.052870721 0.019869953 0.044887386
0.0069978312 0.024903722 0.044458233
0.089398921 0.086334288 0.053274766
0.059187599 0.10309994 0.054221027
0.097530462 0.073186576 0.052235551
0.097456574 0.065495044 0.051186126
0.098040901 0.064293057 0.051696006
0.094601899 0.059411705 0.050445817
0.074698187 0.023431614 0.046713062
0.03371679 0.024013091 0.046012267
0.08996775 0.085152626 0.05380556
0.089322895 0.085496999 0.05380344
0.089743391 0.084377334 0.054308463
0.097795978 0.072157264 0.052758306
0.094388023 0.057804357 0.051565174
0.054763198 0.021431483 0.047757853
0.053493351 0.02212714 0.047787111
0.027283624 0.037442952 0.047936697
0.078304321 0.098454602 0.056125857
0.084452547 0.094115123 0.056387059
0.090040587 0.083286166 0.054737948
0.089555942 0.083571836 0.054802686
0.089802034 0.08251556 0.055228546
0.09800712 0.062562913 0.05276889
0.097656608 0.062753059 0.052767165
0.09762422 0.061894301 0.053311888
0.094500504 0.055995945 0.052655607
0.010718971 0.062296435 0.051301692
0.07235267 0.022333097 0.048712905
0.040360764 0.022972621 0.048683278
0.083143912 0.094863981 0.056474965
0.079137735 0.097099386 0.056608915
0.077268444 0.0981341 0.056660317
0.082197934 0.094496407 0.057006363
0.078134947 0.096746564 0.057122637
0.076296747 0.097771972 0.057182223
0.070315391 0.10108767 0.057380982
0.089764319 0.081639901 0.05573909
0.05204834 0.10259838 0.056986835
0.096255921 0.077118345 0.056029655
0.095608734 0.077477939 0.056042582
0.09214735 0.079403698 0.056176119
0.091143012 0.079953253 0.056187756
0.089373551 0.080958366 0.056262631
0.097401246 0.060712367 0.054127678
0.093820952 0.054633942 0.053764962
0.077996276 0.023349371 0.050471831
0.071177214 0.022174362 0.04938966
0.081233889 0.094122872 0.057519622
0.080573276 0.09448871 0.057535805
0.075304136 0.097416766 0.057713676
0.071537085 0.099493608 0.057797275
0.070923582 0.099841252 0.057821684
0.070199765 0.10024525 0.057851925
0.069044754 0.10087363 0.057901286
0.068466395 0.10119064 0.057904094
0.066900529 0.10206725 0.057946682
0.079273187 0.094309151 0.058059413
0.071429834 0.098654121 0.058306053
0.067175403 0.10100752 0.058437839
0.066210233 0.10154134 0.058449283
0.065588363 0.10188191 0.058457684
0.061875112 0.10394912 0.058582064
0.090033486 0.080592409 0.056254983
0.093950108 0.077527881 0.056641933
0.092172287 0.078519911 0.056696825
0.097214989 0.059512563 0.05494301
0.062950872 0.019422714 0.050468013
0.0044188425 0.022006415 0.048915863
0.078226179 0.093986973 0.058588125
0.064278513 0.10171344 0.05898707
0.060595751 0.10374266 0.059087858
0.062817447 0.10164321 0.059579231
0.059413403 0.10349381 0.059613038
0.092691988 0.077366158 0.057221103
0.097430617 0.05763609 0.056015588
0.096985608 0.057885539 0.056030989
0.093771137 0.052050158 0.055401791
0.076506667 0.022547498 0.051780909
0.074663304 0.02356606 0.051815376
0.058230795 0.1032488 0.060145259
0.057252593 0.10288882 0.060655039
0.093997926 0.051044814 0.055936649
0.012018263 0.057531916 0.054431252
0.055696525 0.1037769 0.060747407
0.092085265 0.08265987 0.060036957
0.056277089 0.10252906 0.061173569
0.096121684 0.055728812 0.057648189
0.093707643 0.050326362 0.05647539
0.071332142 0.10186963 0.062325828
0.079005964 0.096707791 0.062554277
0.094158702 0.079982847 0.060793065
0.093105689 0.081174165 0.06050662
0.092252344 0.081654586 0.060539208
0.053679213 0.10309884 0.061805807
0.052689768 0.10274721 0.062334739
0.094220802 0.071102343 0.060127892
0.096059926 0.054878552 0.058170341
0.096659794 0.053668279 0.058681063
0.096056551 0.05400084 0.058697436
0.093044207 0.048930474 0.057555672
0.072662167 0.020614732 0.055038664
0.011696249 0.054463215 0.056968797
0.056103379 0.01928962 0.054009695
0.05456128 0.020147603 0.054042123
0.045849219 0.024983902 0.054318167
0.076924168 0.097865701 0.062626459
0.074056506 0.099460736 0.062716454
0.069464214 0.10199872 0.062858135
0.080523193 0.094967678 0.062997051
0.078039467 0.096325874 0.063049406
0.075859532 0.097540736 0.063135944
0.074810736 0.09813343 0.063172631
0.074274704 0.098431341 0.063186057
0.094665594 0.078540593 0.061477393
0.051695488 0.1023875 0.062832884
0.094284795 0.0693013 0.061167844
0.096655041 0.052790768 0.059207838
0.013820693 0.05897557 0.057586741
0.013148665 0.059338093 0.057608642
0.012578353 0.05966799 0.057629101
0.014035657 0.04668925 0.056997269
0.054672629 0.018499579 0.055368658
0.0502894 0.020889819 0.055432197
0.039312914 0.022213724 0.054938078
0.038366452 0.022726305 0.054957535
0.037395641 0.023244601 0.054975588
0.03270667 0.025851741 0.055105437
0.079537697 0.094605997 0.063503787
0.079238638 0.094772227 0.063517906
0.074722901 0.097257197 0.063641459
0.076396294 0.095426865 0.064055815
0.064204812 0.10221078 0.064484991
0.063930877 0.10237166 0.064501598
0.095352456 0.067814693 0.06164543
0.094531141 0.068268597 0.061668172
0.094058715 0.068529092 0.061682962
0.095628314 0.051599186 0.060307786
0.092351332 0.045843448 0.059775155
0.070868179 0.019990887 0.056351271
0.062653869 0.018081915 0.056736581
0.029045463 0.036739051 0.057805672
0.024109341 0.039459497 0.05791197
0.016363621 0.043762259 0.058183346
0.043223433 0.024074648 0.0563812
0.040602788 0.020708106 0.05556063
0.037512764 0.022415735 0.055645019
0.036294878 0.023081556 0.055679876
0.035331391 0.023607057 0.055698328
0.039095134 0.020772848 0.056293026
0.085171409 0.089660533 0.064264849
0.062928408 0.10201319 0.065001018
0.062580682 0.1022013 0.064997703
0.087171577 0.087613598 0.064652041
0.086492173 0.088002458 0.064699076
0.08554557 0.088532887 0.064745218
0.083984576 0.089408189 0.064776167
0.083040185 0.089917094 0.064792216
0.082145579 0.090406433 0.064798944
0.081232622 0.090903312 0.064809896
0.080233686 0.091477767 0.064886279
0.095845595 0.065765791 0.062667951
0.094916709 0.066276729 0.062688768
0.095282733 0.050007943 0.061339974
0.092163347 0.045088653 0.060335983
0.017226264 0.060314387 0.06015189
0.013701662 0.05007793 0.05939636
0.012815624 0.050592028 0.05945586
0.057986483 0.020698715 0.056936644
0.057387084 0.021033023 0.056936424
0.056151725 0.020909194 0.057607569
0.028758541 0.036073118 0.058424905
0.018291473 0.041888908 0.058727086
0.014929831 0.044584192 0.058278229
0.014133781 0.045029178 0.058297031
0.050766863 0.01828675 0.057432614
0.049842842 0.019567594 0.056767244
0.042402357 0.022948898 0.057718549
0.041173302 0.023624752 0.057740506
0.040178001 0.024152167 0.057755921
0.023386382 0.034279302 0.05763321
0.021294199 0.035395272 0.057630584
0.020627245 0.035768725 0.057665523
0.088434227 0.085985988 0.065036587
0.087817855 0.086327597 0.065064594
0.087327965 0.086599916 0.065103672
0.060287178 0.10163119 0.065965183
0.057811387 0.10299883 0.066026896
0.08824376 0.085180119 0.065516263
0.096085973 0.064720675 0.063115321
0.095656179 0.064969197 0.06315355
0.09584941 0.063946366 0.063617162
0.095382549 0.049055532 0.061854508
0.091935471 0.044361819 0.060917098
0.091756657 0.043591499 0.061474171
0.011663035 0.062564306 0.060910109
0.013782322 0.060555913 0.061451547
0.012935534 0.055341162 0.060690399
0.012657389 0.055489622 0.060691264
0.06851346 0.018851716 0.058312155
0.01606904 0.047968581 0.059978195
0.014087483 0.049041666 0.059989937
0.060560197 0.017631564 0.058054965
0.016435981 0.042105138 0.059426665
0.040896967 0.022989437 0.058410652
0.039054923 0.023981433 0.058444306
0.037162304 0.025029961 0.058496904
0.036568172 0.025357217 0.058520969
0.034961507 0.026240308 0.058549922
0.03031458 0.028838702 0.058719769
0.088613093 0.084076688 0.06600146
0.088024028 0.084403291 0.066006579
0.056118913 0.10211398 0.067029148
0.088424303 0.083285064 0.066502087
0.096414335 0.071217619 0.064789966
0.095604278 0.071662903 0.064813554
0.094862007 0.072077982 0.064834811
0.093952194 0.07257463 0.064863227
0.092991166 0.073093109 0.064881608
0.096173018 0.070455283 0.065295935
0.094173409 0.071560979 0.06535197
0.095638461 0.062271502 0.064638376
0.09532436 0.062441047 0.064634599
0.095177747 0.04828947 0.062393244
0.094967484 0.047534145 0.062939309
0.091243044 0.042141661 0.062590241
0.079383612 0.023305703 0.059988536
0.065435499 0.018932026 0.059676047
0.016592413 0.046877146 0.060598437
0.059120059 0.016838063 0.059397545
0.055958755 0.019416966 0.058916487
0.026757322 0.03562215 0.05981556
0.024957918 0.035786718 0.060479142
0.024611168 0.036360018 0.060143761
0.023966916 0.03711693 0.059831224
0.02263391 0.037072189 0.060542505
0.014355332 0.042480312 0.060181022
0.037868537 0.023850076 0.059128296
0.037250653 0.02418853 0.059151992
0.035369895 0.025237486 0.059207708
0.030731797 0.027823411 0.059365507
0.028244384 0.029175207 0.05940349
0.027297027 0.029701672 0.059435777
0.026682615 0.030047785 0.059457131
0.080699235 0.095209345 0.068438254
0.089107737 0.082623862 0.066672318
0.088717088 0.083132163 0.066506743
0.055120207 0.1017721 0.067557789
0.053198829 0.10284295 0.067625768
0.096861303 0.068281233 0.066277914
0.095601358 0.061390709 0.065150157
0.078514822 0.022959329 0.060619999
0.013987124 0.052303977 0.062516637
0.017282024 0.044858634 0.061839774
0.052777506 0.019568756 0.060279429
0.052349575 0.019798446 0.060271226
0.033054695 0.030510347 0.060889114
0.025908425 0.034492515 0.061130233
0.024856053 0.035055123 0.061134465
0.023764282 0.035623848 0.06112561
0.024652675 0.029582862 0.06082657
0.088144876 0.090158835 0.068654761
0.084645025 0.091158167 0.069176123
0.084441982 0.092189066 0.068716764
0.079703681 0.094841942 0.068922825
0.077897869 0.095837303 0.068948992
0.077544868 0.096040696 0.068974152
0.050879322 0.1013937 0.069097519
0.097876929 0.066833638 0.066775896
0.097260974 0.067616493 0.066519223
0.096018694 0.060267907 0.065635845
0.096115805 0.059321038 0.066132277
0.090135835 0.040585645 0.064000569
0.01782845 0.061456732 0.06402047
0.013834745 0.063690834 0.064137802
0.076713867 0.022291072 0.061876528
0.015748844 0.056132682 0.063802302
0.01170218 0.058381036 0.063936181
0.070017464 0.019541346 0.061967622
0.01905933 0.047851436 0.063597001
0.017884836 0.049304329 0.062997855
0.017153889 0.049705975 0.063003138
0.016255081 0.050206952 0.063021496
0.012762561 0.052162074 0.06317953
0.062788069 0.017961264 0.061621524
0.017953426 0.043646008 0.062411953
0.016428418 0.043692693 0.063105315
0.052981675 0.018659372 0.06092016
0.034339897 0.029001281 0.061500128
0.0332333 0.029609151 0.061527669
0.031551182 0.030522395 0.061548859
0.015696317 0.039327621 0.06204243
0.037336558 0.026511528 0.062017061
0.031420715 0.029802032 0.06221028
0.03016869 0.030475948 0.062224045
0.020375766 0.035914861 0.062539525
0.088974729 0.088774756 0.069085687
0.086163148 0.09034206 0.069169357
0.08303152 0.092060283 0.069239661
0.082000621 0.092645824 0.069302194
0.078714602 0.094476089 0.069402024
0.076555736 0.095673233 0.069466293
0.063946672 0.10265983 0.069847666
0.089532249 0.087518811 0.0694874
0.089249656 0.087678224 0.069499679
0.081757709 0.091867283 0.069769531
0.080820374 0.092381723 0.069786258
0.077694267 0.094118059 0.069885872
0.075546391 0.095311984 0.069967575
0.071477741 0.097560331 0.070057385
0.070584171 0.098061502 0.070100568
0.096065238 0.058455568 0.066647999
0.095792569 0.058609247 0.066657737
0.095981471 0.057615254 0.067158714
0.094036207 0.043698292 0.065680169
0.014244542 0.056130916 0.064444914
0.019338258 0.046867497 0.064221226
0.061254308 0.018013813 0.062311817
0.028889753 0.030391775 0.062907211
0.028217874 0.030759886 0.062929906
0.026057921 0.031948291 0.062983379
0.074556075 0.094932929 0.070438579
0.071079187 0.096859947 0.070530735
0.067400552 0.098897383 0.070660189
0.065972909 0.099686384 0.070679136
0.061793119 0.1020024 0.070807375
0.061502367 0.10215802 0.070802987
0.078797735 0.091670111 0.070763029
0.06047646 0.10180488 0.07128866
0.096700691 0.07320518 0.069046743
0.095907032 0.073629268 0.069064334
0.09484496 0.074219719 0.069086529
0.094039507 0.074676789 0.069128506
0.092537656 0.07462962 0.069698691
0.098134406 0.063946933 0.068163082
0.096559659 0.056420092 0.0676644
0.095962912 0.05674326 0.067673892
0.08863458 0.038371947 0.065983027
0.074295931 0.021138027 0.063753255
0.017988503 0.052401736 0.065552317
0.017051131 0.052917689 0.065569632
0.065130301 0.020634055 0.063364111
0.02192688 0.043747626 0.065285802
0.021103278 0.044616766 0.065026104
0.054462194 0.020954378 0.063146733
0.030426934 0.023241598 0.06329941
0.059429199 0.10147323 0.071787387
