# .PCD v0.7 - Point Cloud Data file format
VERSION 0.7
FIELDS x y z
SIZE 4 4 4
TYPE F F F
COUNT 1 1 1
WIDTH 1326
HEIGHT 1
VIEWPOINT 0 0 0 1 0 0 0
POINTS 1326
DATA ascii
0.0050915405 0.13122964 0.029120654
-5.8330595e-05 0.11878687 0.02916855
0.026778631 0.091257095 0.028936654
0.0005832985 0.094448864 0.029449426
0.0018943474 0.084612131 0.028638106
0.016150765 0.072387576 0.028352005
-0.00014205277 0.074371696 0.02861689
-0.00081574917 0.065694153 0.028029665
0.019319013 0.053628385 0.027700074
0.00018135458 0.055243552 0.028681427
0.019962326 0.044068336 0.028126452
0.017998502 0.044363022 0.028221289
0.03039021 0.035661578 0.026982047
-1.4841557e-05 0.038606286 0.028138284
0.08469633 0.021141171 0.025712505
0.035695925 0.027120888 0.026682593
0.034930386 0.027238905 0.026718186
0.030655138 0.026986301 0.027372308
0.028974853 0.027927697 0.026797343
0.022602312 0.028686881 0.026912604
0.02155935 0.028457046 0.027240783
-0.00068150461 0.031197608 0.027693871
-0.0014060438 0.031640053 0.027391277
0.095094621 0.012065887 0.025604133
0.035692528 0.018576145 0.027359601
0.15137054 -0.0018853545 0.024145873
0.15036237 -0.0017831326 0.024175577
0.14945179 -0.0016439557 0.024194859
0.14803027 -0.0014693141 0.024232246
0.147293 -0.0013709664 0.024250796
0.14607456 -0.0012820363 0.024216618
0.14536306 -0.0011722445 0.024273099
0.14400786 -0.00097686052 0.024314988
0.14234559 -0.0007840991 0.024336219
0.13935721 -0.00039315224 0.0244256
0.1383151 -0.00028473139 0.024418816
0.13718444 -0.00018763542 0.0243816
0.1358373 3.1530857e-05 0.024495339
0.13339722 0.0003027916 0.024519335
0.13215718 0.00049245358 0.024571154
0.13162199 0.00057691336 0.024621997
0.13074788 0.00070852041 0.024650037
0.1286082 0.00093245506 0.024670847
0.12435675 0.001477778 0.024765657
0.069795206 0.0080714226 0.025754893
-5.7861209e-05 0.016496658 0.027036391
0.14529356 -0.0018672347 0.024912789
0.14448388 -0.0017398 0.024953712
0.14122596 -0.0013660789 0.024975896
0.14020526 -0.0011973977 0.02504712
0.13962856 -0.0011265874 0.025049377
0.12345619 0.00087624788 0.025424831
0.048218787 0.0099737048 0.026793204
0.020691738 0.013307691 0.027327092
-8.6054206e-05 0.015805304 0.027676282
0.087787069 -0.0011600852 0.025284607
0.085633256 -0.00088316202 0.025348496
0.084536627 -0.00083673 0.025294306
0.083817519 -0.00074017048 0.025305577
0.08297351 -0.00061297417 0.025355656
0.082305722 -0.00047242641 0.025421053
0.066110075 0.0014953613 0.025714125
0.059864834 0.0022566319 0.025859455
0.084928684 -0.0015184283 0.025996078
0.080998346 -0.0010024309 0.026098814
0.079917677 -0.0008919239 0.026090927
0.078891002 -0.00082850456 0.026061196
0.07813023 -0.00071561337 0.026090765
0.07709191 -0.00054687262 0.026141534
0.076418839 -0.00047975779 0.026152417
0.07277976 -5.0485134e-05 0.026201062
0.040317155 0.0039038062 0.026844237
0.00013431162 0.0088193417 0.027634349
0.031215504 -0.0012204051 0.026524402
0.024851009 -0.0004774332 0.026619393
0.023562193 -0.00037032366 0.026583577
0.023056678 -0.00033158064 0.026596129
0.015443563 0.00069439411 0.026829226
0.014943093 0.00075471401 0.026839754
0.012834072 0.00099247694 0.026859693
0.0061148107 0.0018110871 0.026998416
0.024035171 -0.0010740161 0.02728169
0.016856588 -0.00022870302 0.02740117
0.0097454637 0.00066870451 0.027548879
0.0029075444 0.0014882088 0.027693933
0.0081982613 0.11622334 0.030031612
0.00077740103 0.11708391 0.030091761
-0.00028868765 0.11722022 0.030114368
0.0069490746 0.11560237 0.030538529
-4.5008957e-05 0.11639488 0.030581638
0.0068322942 0.10420793 0.029988512
0.0011178702 0.10490733 0.030084338
0.0016664192 0.093568146 0.029967286
0.0038122609 0.082013071 0.030123189
0.016060174 0.071646273 0.028891295
0.015025131 0.071788192 0.028939214
0.0019711033 0.073427856 0.02925433
0.015967324 0.070889711 0.029436236
-0.00053723156 0.072900712 0.029724443
0.010339871 0.053273559 0.029057648
0.0089384466 0.05344224 0.029083032
0.021488935 0.043947816 0.028185613
0.018126763 0.043598235 0.028793558
0.010734722 0.035881162 0.029146541
0.084219903 0.019746006 0.026937231
0.073738284 0.021062493 0.027193846
0.04655575 0.024347961 0.027688652
0.036329336 0.025550425 0.027834209
-0.00032444298 0.030060828 0.028614283
-0.00075781345 0.030125678 0.028620943
0.083159663 0.019175887 0.027605124
0.082772501 0.019227028 0.027595185
0.032294586 0.025410891 0.028611273
0.028067626 0.025874913 0.02863393
0.022796832 0.026479423 0.028699482
0.0097041577 0.028103352 0.028995996
0.0093754902 0.028120995 0.028971849
-0.00039277226 0.029346704 0.029212091
0.093978234 0.010749996 0.026859401
0.083634876 0.011994243 0.027027614
0.071593232 0.013424098 0.027213003
0.069182679 0.013789475 0.027348783
0.047957972 0.01630348 0.027706236
0.032852702 0.01822722 0.028074216
9.5963478e-06 0.022217274 0.028689401
0.12213058 0.00028473139 0.026031505
0.11997731 0.00054937601 0.026088309
0.11939479 0.00064355135 0.026101891
0.11891697 0.00068563223 0.026101962
0.10380374 0.002487123 0.026346458
0.049265392 0.0091397762 0.027397409
0.002385892 0.014897346 0.028382834
0.00091765821 0.015062034 0.028394004
0.00051670521 0.015093267 0.028391814
0.078121886 -0.0014292598 0.026737694
0.075665727 -0.0010678768 0.026827622
0.074879803 -0.0009714365 0.026837505
0.073505841 -0.00086814165 0.026828304
0.065026969 0.00023907423 0.027050208
0.064333774 0.00032168627 0.027057886
0.039575778 0.0032986999 0.027500451
0.024835691 0.0051297545 0.027826505
0.00027500093 0.0081092715 0.028296944
0.016337633 -0.00013589859 0.02744744
0.015799567 -5.0008297e-05 0.027471514
0.0092831254 0.00072699785 0.02757825
0.00045401603 0.0018422008 0.027782803
0.010480233 -0.00012511015 0.028208492
0.0099307671 -5.1081181e-05 0.02820779
0.0018560514 0.00093710423 0.028373595
0.00076909363 0.0011003613 0.028427089
0.0035655126 0.141289 0.031429544
0.004580155 0.14033467 0.031857856
0.0037529618 0.14046562 0.031884037
0.0061584488 0.11490405 0.031029336
0.0054922402 0.11497229 0.031029403
0.0048852861 0.11502385 0.03103986
0.0037536919 0.11518854 0.031085584
0.0028089136 0.11531442 0.031089609
0.00089862943 0.11554152 0.031134076
0.0040584579 0.11434275 0.031546608
0.003648445 0.11439753 0.031555716
0.0014871955 0.11468387 0.031604886
0.0004427731 0.11479902 0.031621985
-0.00020105392 0.11483324 0.031585246
0.005068332 0.10285199 0.031010915
0.010320947 0.10142159 0.031377561
0.00056345761 0.102597 0.031587563
0.00019437075 0.1026383 0.031575199
0.00051193684 0.092522502 0.030737998
0.00016961992 0.092951179 0.030493636
0.010323502 0.080514193 0.030596724
0.0029545948 0.081353545 0.030671708
0.0011135116 0.08162564 0.03075893
0.00050184131 0.08168447 0.030784538
0.015820526 0.070158899 0.029981881
0.0003150627 0.072085619 0.030335419
0.015711702 0.069429696 0.030556325
0.0095083788 0.052623153 0.029626232
0.0091641322 0.052669942 0.029633809
0.0081179366 0.052802086 0.029669117
0.0068177804 0.052938759 0.029718529
3.5002828e-05 0.053777456 0.02982896
0.0060325488 0.052292347 0.030298829
0.019878261 0.041904092 0.029929617
0.017839104 0.042138934 0.029943164
0.081994884 0.01858896 0.028219273
0.032978646 0.024588645 0.029212657
0.028733648 0.025059938 0.029240973
0.010057025 0.027381241 0.029654952
1.2055039e-05 0.028595626 0.029829666
0.094244704 0.01004976 0.027506851
-6.9446862e-05 0.021516085 0.029305238
0.12954956 0.0050833821 0.02752186
0.092218183 0.0094888806 0.028090209
0.091358148 0.0095937252 0.028104784
0.090692788 0.009719193 0.02817836
0.088914871 0.0099666119 0.028221697
0.088564768 0.010010123 0.028225921
0.087148286 0.010112643 0.028192179
0.083171688 0.01064378 0.028299918
0.07040529 0.012869537 0.027896371
0.05919265 0.013540268 0.028766416
0.057773665 0.013778031 0.028848778
0.056888565 0.013860226 0.028843742
0.04687465 0.015761077 0.028371338
0.046115495 0.015167534 0.029045798
0.00995823 0.019537508 0.029724367
0.12111481 -0.00029313564 0.026689244
0.1204056 -0.00021481514 0.026700221
0.046581194 0.008772254 0.028122108
0.039227039 0.0096882582 0.028288115
0.112048 3.695488e-05 0.02741329
0.11131302 0.00014489889 0.027454201
0.11026338 0.00029712915 0.027498722
0.10848022 0.00050717592 0.027528903
0.10760818 0.00058442354 0.027507925
0.10145964 0.0013532639 0.027651502
0.095483467 0.0021167397 0.027812872
0.070357382 0.0051507354 0.028263036
0.070007533 0.005207181 0.028272055
0.045659408 0.0081906319 0.028771922
0.045286372 0.0082380772 0.028793979
0.031507201 0.0098606944 0.028993772
0.01881808 0.011429131 0.02927608
0.011069447 0.012370467 0.029431645
0.063541561 -0.00023686886 0.027765865
0.062902071 -0.00021201372 0.027733676
0.0617982 -0.00014054775 0.027677933
0.049829111 0.0013774037 0.027985746
0.04908447 0.0014913678 0.028004358
0.048240378 0.0015821457 0.028030291
0.031013794 0.003682673 0.028359959
0.023530439 0.0046047568 0.028521923
0.018048793 0.0052726865 0.028633118
0.012450784 0.0059256554 0.028691957
0.0015113354 0.007214427 0.028881188
0.047147915 0.0010214448 0.028703295
0.045940518 0.0011333823 0.028691221
0.04504858 0.0012392402 0.02870575
0.043819569 0.0014072061 0.028726961
0.043430716 0.0014545918 0.028748032
0.041356094 0.0017157197 0.028806742
0.03007251 0.0031145811 0.029034398
0.011745036 0.0053340197 0.029367749
0.0052958801 0.138677 0.032789934
0.004607372 0.1395216 0.0323001
0.0045425147 0.13834381 0.032997224
0.016020246 0.12426221 0.032153625
0.0088649541 0.10004622 0.032438532
0.003576085 0.10145807 0.032036092
0.0026761368 0.10132432 0.032216243
0.0016047955 0.10092914 0.032556027
0.00073643774 0.10149318 0.03227938
0.0053055286 0.090765178 0.031407014
0.024913467 0.08760047 0.031548768
0.0044566169 0.090082526 0.031928021
0.0093272626 0.079865634 0.031146446
0.0021513775 0.080688715 0.031215839
0.00035036355 0.080937445 0.031297766
0.0084326789 0.079203486 0.031710714
0.0011590496 0.080072939 0.03179419
0.015653715 0.068699241 0.031108215
0.012501158 0.068281114 0.031704824
0.012085393 0.068329096 0.031701937
0.0033982694 0.051894903 0.030916322
0.002682142 0.051938117 0.030892964
0.00068236887 0.052188337 0.030961879
9.8742545e-05 0.052259326 0.030971413
-0.0028648078 0.052632987 0.03103571
0.0044564977 0.050997138 0.031457454
0.0040746182 0.051043987 0.031480879
0.0025885254 0.051222563 0.031495262
0.0017881915 0.051289737 0.031480692
0.00073432922 0.051438928 0.031526987
0.017789461 0.041385233 0.030513028
0.0086119249 0.041812181 0.031356856
0.0078304783 0.041919351 0.031368207
0.0069327727 0.042019963 0.031375319
0.0014643148 0.043431461 0.030885138
0.0011612251 0.043458462 0.030891068
0.019123092 0.033386052 0.030185554
0.0090561435 0.034618974 0.030381912
0.0010748282 0.03485769 0.031130092
0.081108898 0.017941833 0.028816547
0.080579482 0.018002391 0.028820664
0.079522513 0.018164039 0.028857369
0.071775086 0.019148648 0.02906931
0.052342743 0.021443188 0.029381102
0.04101979 0.022819281 0.029578853
0.034703165 0.02359283 0.029722195
0.034012087 0.023704886 0.029771773
0.027774736 0.024460793 0.029863056
0.0077220798 0.026863813 0.030216228
0.073880747 0.018120468 0.02960211
0.066769332 0.019054115 0.029801469
0.065678731 0.019127488 0.029757731
0.038173959 0.022510648 0.030325912
0.0068202838 0.026257992 0.03084942
0.12838897 0.0044972897 0.028140076
0.10187775 0.0076066256 0.028528351
0.089226976 0.0092366338 0.028868359
0.087410688 0.0094054341 0.028836617
0.08617764 0.0095285177 0.028849509
0.085304283 0.0096859932 0.028907055
0.084264956 0.0098060966 0.028918542
0.08329355 0.0099400878 0.028946843
0.07152351 0.011359692 0.029178057
0.055623353 0.013294756 0.029487813
0.054600224 0.013393998 0.029479519
0.053842381 0.013490438 0.029499084
0.05243288 0.013673425 0.029531676
0.043977812 0.014757633 0.029740039
0.040779017 0.015082777 0.02975199
0.0090419725 0.018965006 0.030386996
0.10032961 0.00080299377 0.028324399
0.098233372 0.0010598898 0.028376246
0.094149634 0.0016049147 0.028497856
0.093475074 0.0017054081 0.028521132
0.092263043 0.0017641783 0.028471861
0.058666416 0.0059054494 0.029169401
0.057615124 0.0060623884 0.029224012
0.044594988 0.0076149702 0.029456431
0.037520722 0.0084186196 0.029523239
0.037172675 0.0084525347 0.029511387
0.018819369 0.010708511 0.029916901
0.0096820593 0.011836946 0.030108061
0.0092534795 0.011909008 0.030114416
0.099241883 0.00023329258 0.028993824
0.098554552 0.00032746792 0.029022856
0.091153823 0.0011788011 0.029126782
0.090659671 0.0012798905 0.029160544
0.071489759 0.0036301613 0.029548097
0.07064306 0.0036928058 0.029527929
0.060761146 0.004925251 0.029727675
0.059872366 0.0049731731 0.029706419
0.058842592 0.0051342249 0.029767921
0.036438189 0.007845521 0.030171465
0.023388833 0.0094917417 0.030496301
0.0071306452 0.01148808 0.030811209
0.0025756955 0.012037873 0.030900128
0.045899384 0.00047105551 0.029362053
0.043944009 0.00070124865 0.029383166
0.042711169 0.00084811449 0.029421885
0.041990988 0.00094902515 0.029442169
0.03670118 0.0015667081 0.029517557
0.03567183 0.0017012954 0.029562356
0.035006315 0.001819253 0.029604405
0.034276247 0.0019182563 0.029621698
0.029176362 0.002530396 0.029716145
0.022120178 0.0033830404 0.029855106
0.01633136 0.0040773153 0.029959386
0.010707185 0.0047488809 0.030039316
0.0058330521 0.13784701 0.033259016
0.0059373751 0.13702071 0.033715688
0.0050100908 0.13711369 0.033716545
0.0046632811 0.13715392 0.033724591
0.0062325075 0.13615376 0.034143779
0.0032093227 0.088670373 0.032971065
0.0076247528 0.078536332 0.032241218
0.00017680973 0.079427361 0.032355905
0.010919593 0.067733109 0.03227926
0.015904553 0.057552159 0.032106597
0.017451398 0.04859668 0.031697661
0.016684771 0.047939003 0.032292556
0.0056233257 0.041446626 0.031979237
0.0044227019 0.041553974 0.031987987
0.02928447 0.030681074 0.031183157
0.028769635 0.030742109 0.031194001
0.027492374 0.030911565 0.031230871
0.026813857 0.030966282 0.031199314
0.02466771 0.031224549 0.031253967
0.015117705 0.03244853 0.031499363
0.007387571 0.033358932 0.031602398
0.0070664361 0.033359408 0.031584915
0.083888836 0.023275197 0.030686993
0.03343907 0.029435456 0.031697541
0.029288322 0.029941261 0.031770993
0.0062762797 0.032707572 0.032171909
0.0059524179 0.032717645 0.032150008
0.069918551 0.017852843 0.030245267
0.038101748 0.021789789 0.030934131
0.032460473 0.022477329 0.031047057
0.0060491115 0.025651634 0.031493746
0.12764758 0.0038852096 0.028793611
0.12727085 0.003927052 0.028777136
0.15374249 0.00059902668 0.028174751
0.15133004 0.00090289116 0.028246803
0.15091233 0.0009598732 0.028251421
0.14875484 0.00087434053 0.028586399
0.14632085 0.00082528591 0.028982006
0.14546847 0.00094407797 0.029005393
0.14489663 0.0010260344 0.029051194
0.14309338 0.0012047887 0.02905003
0.11824784 0.0049508214 0.028881611
0.11738737 0.004352212 0.029545309
0.10804461 0.0061808228 0.029071057
0.10714897 0.0055595636 0.029708236
0.10074414 0.0063281059 0.029807858
0.10026089 0.0063834786 0.029816579
0.072150372 0.0098758936 0.030434981
0.071766824 0.010671198 0.029845605
0.058054864 0.012285173 0.030064695
0.057474837 0.012381554 0.030083438
0.055231467 0.012643516 0.030124396
0.054225467 0.012712121 0.030103654
0.053114176 0.012874007 0.030139342
0.052746691 0.012932599 0.030141074
0.047106035 0.013577998 0.030233916
0.044263981 0.013238609 0.030954199
0.043263502 0.014119685 0.030380221
0.0079468638 0.018390834 0.031036388
0.0069365799 0.018536806 0.031072542
0.0056725293 0.017992139 0.031751119
0.0040367469 0.018181026 0.031777583
0.0019623712 0.019072652 0.03108697
0.088540599 0.0015933514 0.029256133
0.057606988 0.005359292 0.029853821
0.056884393 0.0054563284 0.029888067
0.092551202 0.0010794997 0.029166374
0.089223757 0.00077044964 0.029871162
0.088698648 0.00086438656 0.029900093
0.086931683 0.0010169148 0.029871767
0.081563808 0.0016743541 0.029964417
0.080158092 0.0018706918 0.030029505
0.074511364 0.0025347471 0.030107711
0.073412061 0.0026892424 0.030139849
0.072349928 0.0028064251 0.03015862
0.07167545 0.0029066801 0.030203748
0.062340945 0.004054904 0.030395353
0.061500534 0.0045222044 0.030102257
0.060380235 0.0042636395 0.030376349
0.057962082 0.0052921772 0.029836483
0.056361631 0.005489707 0.029871002
0.055235893 0.0048943162 0.030501068
0.054512672 0.0049578547 0.030473839
0.043856986 0.0070021152 0.030108925
0.043072119 0.0064108372 0.030755367
0.035501748 0.0072747469 0.030864678
0.028984651 0.0080784559 0.030996136
0.022801585 0.0095800757 0.030522551
0.021898568 0.008990705 0.031189546
0.017098852 0.009534657 0.031220391
0.0085369274 0.011309981 0.030792668
0.0081846192 0.01136893 0.030812554
0.0074624121 0.011454344 0.030812887
0.0060482696 0.010910571 0.031459581
0.033033453 0.0013407469 0.030278493
0.027875051 0.002009511 0.030410055
0.015544876 0.0034819841 0.030624058
0.0099131912 0.0041604042 0.030718766
0.009221077 0.0042405128 0.030733153
0.026062943 0.0014513135 0.031013919
0.020651683 0.0021349192 0.031150572
0.019975409 0.0022004843 0.03113427
0.014263518 0.0029366612 0.031289127
0.0077626556 0.0037332177 0.031429134
0.0070419461 0.0038009882 0.031399686
0.0061972216 0.0038566589 0.031377506
0.011840314 0.1346482 0.034446806
0.010959126 0.13397896 0.034943782
0.0096564218 0.13410723 0.034974094
0.0091977045 0.13418287 0.03498324
0.0069426745 0.1347298 0.034862783
0.0061934963 0.13495702 0.034813941
0.0072890595 0.098691702 0.033507392
0.0019382536 0.087262869 0.034011841
0.0063460618 0.077149928 0.033322085
0.0055597872 0.076484382 0.033877604
0.0052693635 0.076507628 0.033896238
0.014606692 0.065761447 0.033287194
0.0094990283 0.066375554 0.033384953
0.0084445179 0.066515088 0.033407182
0.0049355775 0.066911876 0.033448331
0.0039112046 0.067026436 0.033474188
0.0027020946 0.06718421 0.033510365
0.017941527 0.056578279 0.032648392
0.01403188 0.057038188 0.032702219
0.016923502 0.047196746 0.032878838
0.01387088 0.038990319 0.032999132
0.0045083836 0.040814757 0.032586884
0.003263101 0.040969431 0.032592919
0.0027402267 0.041028917 0.032597464
0.001383543 0.040480614 0.033222146
0.00078956783 0.041046083 0.032841109
0.039094083 0.027988315 0.03215421
0.0052010715 0.032074749 0.032772347
0.0044493526 0.032198846 0.032810383
0.039151326 0.020852804 0.031454641
0.038627572 0.020951867 0.03148865
0.0052752942 0.025025547 0.032130472
0.0047329366 0.025121808 0.032172456
0.0020947903 0.025460541 0.032248028
0.0037748739 0.024537861 0.032817807
0.12505695 0.0027436614 0.030068172
0.099252649 0.0058449507 0.030492861
0.072080962 0.0091717243 0.031058874
0.050905198 0.011722863 0.0314482
0.050538823 0.011789262 0.031465158
0.049816795 0.01186949 0.031483136
0.015004523 0.01603657 0.032091685
0.0043231845 0.017448008 0.032401219
0.0039759874 0.017476797 0.032396123
0.0025288612 0.017607152 0.032373179
0.0021998584 0.017624974 0.03234937
0.1050989 0.0043919086 0.030978555
0.076371983 0.0015924573 0.03069631
0.075320184 0.0017356873 0.030740563
0.063555978 0.0031535029 0.030954249
0.062703498 0.0032999516 0.031009946
0.053452335 0.0043601394 0.031144725
0.041617021 0.0058218241 0.031372774
0.034588523 0.0066974163 0.031538397
0.01604341 0.0089684725 0.03189382
0.0047613531 0.010309756 0.032080427
0.052522868 0.0038010478 0.031821761
0.051434092 0.0039946437 0.031886272
0.04069344 0.0052214265 0.032032296
0.033888765 0.0060973167 0.032203484
0.02647543 0.0070176721 0.032369614
0.015141286 0.0083792806 0.032544985
0.0034733266 0.0097628832 0.03277234
0.0029375702 0.0098605156 0.032796778
0.013337009 0.0023303032 0.031946957
0.0049073175 0.0033543706 0.032098822
0.0038798749 0.0034823418 0.0321372
0.0031233206 0.0036105514 0.032173656
0.0098348111 0.1332956 0.035425048
0.0083994269 0.13347262 0.035454582
0.007256113 0.13362312 0.035450488
0.0096322671 0.13252848 0.035874732
0.0090574026 0.13256502 0.035873823
0.0075468868 0.13277674 0.035909407
0.0064780191 0.1329152 0.035927191
0.012244627 0.11916345 0.035521582
0.010822095 0.10797507 0.03477636
0.010811448 0.10719633 0.035252221
0.0053932592 0.097377002 0.034530252
0.0081098974 0.085319877 0.034621216
0.00093764812 0.086605132 0.034549251
0.00040909648 0.086661041 0.034546569
0.0040286854 0.075879216 0.034422249
0.014557242 0.064996541 0.033848464
0.0099873319 0.065540612 0.033930857
0.0085335746 0.065723062 0.033945821
0.0074547827 0.065884769 0.03398015
0.0066902936 0.065965295 0.034014754
0.0057467967 0.066079497 0.034015037
0.0050574839 0.066134751 0.033978689
0.0040025339 0.066252589 0.034015451
0.0029585809 0.06637913 0.034032725
0.0018614084 0.066536546 0.034082361
0.001118511 0.066668153 0.034131937
0.014498785 0.064240813 0.034375828
0.006755434 0.065179467 0.034532469
0.0026489794 0.066403985 0.034034494
0.0010739788 0.065885186 0.034662116
0.014225468 0.05550617 0.033807166
0.013836652 0.055550337 0.03381094
0.01307492 0.054885983 0.034378693
0.011259668 0.055134058 0.034421518
0.0085355639 0.055455923 0.034499183
0.016877212 0.046473444 0.033479057
0.014360197 0.046412408 0.033823799
0.012445122 0.030549407 0.033327281
0.00337255 0.031633735 0.033481482
0.0022967383 0.031792045 0.033517949
0.013126068 0.029758036 0.033923067
0.012790576 0.029798567 0.033938922
0.095186517 0.011910439 0.032240778
0.073920116 0.015189469 0.031989619
0.072855033 0.014603019 0.032624777
0.071532294 0.014817297 0.032723088
0.067567348 0.015228748 0.032714017
0.012891568 0.021915436 0.03381924
0.0028056428 0.023938179 0.033446465
0.0015946031 0.024076521 0.033473231
0.11589624 0.0030913949 0.030811962
0.11476769 0.00247401 0.031414479
0.097818397 0.0045939684 0.031791508
0.072030194 0.0080928802 0.031984307
0.040606156 0.011549115 0.032902613
0.013451181 0.014842093 0.033411331
0.012742102 0.014936507 0.033427514
0.039763495 0.0046431422 0.032690223
0.013741083 0.0078568459 0.03322072
0.0056730062 0.14525872 0.037075989
0.01108221 0.11851811 0.036047786
0.010948375 0.11772567 0.036488198
0.0085274726 0.10587847 0.036275256
0.0069569275 0.084282696 0.035409268
0.0062100217 0.083606362 0.035965629
0.0024028867 0.074504256 0.035439037
0.002080828 0.074518383 0.035430953
0.014437407 0.063480198 0.034928158
0.014524728 0.062702417 0.035477467
0.015087448 0.0539276 0.034925506
0.014240734 0.053985596 0.03492951
0.009805508 0.054552257 0.035018973
0.0093114153 0.05461508 0.035033293
0.016690567 0.04504931 0.034670349
0.016346037 0.045083702 0.034655683
0.013186976 0.045468748 0.034728486
0.012063153 0.044858634 0.035325062
0.017284855 0.03635478 0.034716651
0.011950888 0.036995351 0.034782581
0.010633163 0.029246092 0.034472771
0.13249865 0.0067363381 0.032244224
0.1310927 0.0069133639 0.032262117
0.092312105 0.01157999 0.03294744
0.089763217 0.011878908 0.032971773
0.070760109 0.014207363 0.033361629
0.070036657 0.014297426 0.033405401
0.066504806 0.014667928 0.033387784
0.065425761 0.014858067 0.033474788
0.048779286 0.016832232 0.033736501
0.043901354 0.017412186 0.033808924
0.012843549 0.02119559 0.034423091
0.072622895 0.0069233775 0.032870613
0.026805341 0.012485623 0.033764586
0.061735839 0.007491529 0.033685345
0.038472369 0.0041418672 0.033397723
0.0093877763 0.11714041 0.037033729
0.0058695823 0.11758584 0.037087031
0.0044534206 0.11775774 0.037104789
0.013633385 0.1044386 0.036612518
0.0061786696 0.054252267 0.035656884
0.014915481 0.052428126 0.036041215
0.0060860291 0.053503215 0.036207076
0.0036640465 0.053751588 0.036231376
0.016532198 0.043571651 0.035805322
0.010564521 0.044292808 0.035928655
0.010520577 0.036433518 0.03541889
0.067788273 0.01347661 0.034304898
0.066460446 0.013922989 0.033980034
0.064262681 0.013581514 0.034734108
0.063583277 0.014372528 0.034131713
0.062887177 0.014429212 0.034123767
0.061136976 0.014587164 0.034130946
0.051738687 0.015433669 0.034648094
0.050891325 0.01553762 0.034675851
0.044920318 0.016278923 0.034800783
0.043168381 0.016781569 0.034463249
0.061557159 0.013835907 0.034704994
0.049545608 0.015315533 0.03496477
0.043788657 0.01598537 0.035050273
0.037074722 0.016798854 0.035168804
0.0066615194 0.14270931 0.038370762
0.0059991777 0.14278919 0.03838734
0.0048684478 0.14293355 0.038404327
0.010873325 0.11531252 0.037884936
0.020258516 0.079617143 0.037283
0.015508957 0.050850034 0.037159525
0.015226267 0.051642418 0.036598362
0.016423188 0.042840421 0.036365978
0.0094236583 0.043687522 0.036512293
0.0079540089 0.043889463 0.036544487
0.066299535 0.012504995 0.035214178
0.082069658 0.092970729 0.037283484
0.077593923 0.093509853 0.037326202
0.077650987 0.092711866 0.037822761
0.010869533 0.079234838 0.038526867
0.017122746 0.068879724 0.03781889
0.015846245 0.050040066 0.037694775
0.016235352 0.041383624 0.037522152
0.060233109 0.012526095 0.035946686
0.086355746 0.090857863 0.038140945
0.081437156 0.091475606 0.038264353
0.086905815 0.090045393 0.0386623
0.086444914 0.090081453 0.038656525
0.081428036 0.090710998 0.038759049
0.091544963 0.079025924 0.037840657
0.091219395 0.079064488 0.037851315
0.091403276 0.078270435 0.038340345
0.014643632 0.048677921 0.038848709
0.021476217 0.031378925 0.038093898
0.031296521 0.029449821 0.038487136
0.030959018 0.02948916 0.038499467
0.021435976 0.030678928 0.038698815
0.058515705 0.01834178 0.037787136
0.047257528 0.019720435 0.038019091
0.086339191 0.088512361 0.039612271
0.018377542 0.075939655 0.039890647
0.018921345 0.046669722 0.039870046
0.01811742 0.038099408 0.039713833
0.058524996 0.017594159 0.038374245
0.054954194 0.018065155 0.038480103
0.049317978 0.018737912 0.038580954
0.035202362 0.020465016 0.038854387
0.034914613 0.020465374 0.038840514
0.040818535 0.019057631 0.039352316
0.036927819 0.019546211 0.039434746
0.029718362 0.020418286 0.039584137
0.086286493 0.087723732 0.040101167
0.090398192 0.086446464 0.040526178
0.086151324 0.086949587 0.040573709
0.017807037 0.074447811 0.040908825
0.016542949 0.063541651 0.041520625
0.017944641 0.053919435 0.041378208
0.019104518 0.045143962 0.040976144
0.041796856 0.01899147 0.039375778
0.034778558 0.019074023 0.040090635
0.055531614 0.016527355 0.039655212
0.090647042 0.085102558 0.041316472
0.09023574 0.085684001 0.041009866
0.086002991 0.086182833 0.041070674
0.095351383 0.073037684 0.041223787
0.017314382 0.072954953 0.041955099
0.017183572 0.072195172 0.042466097
0.019233905 0.062429249 0.04198195
0.017042361 0.062724888 0.04203159
0.016569011 0.06277585 0.042042241
0.016988516 0.061955273 0.042561457
0.019149892 0.043616951 0.042084765
0.055049255 0.015126526 0.040856529
0.072993107 0.098240018 0.042341746
0.07312759 0.09657824 0.043226149
0.072401203 0.096698225 0.043274511
0.09075325 0.084019542 0.041936986
0.028120503 0.025420368 0.042075954
0.044096991 0.015680552 0.041613515
0.064706758 0.09765327 0.043457344
0.080367073 0.094907224 0.043535642
0.080204487 0.094129503 0.044004776
0.073899351 0.095665216 0.043664128
0.073350981 0.09574914 0.043682065
0.090173103 0.08250463 0.042914465
0.01640258 0.069164813 0.044505265
0.015971832 0.059769034 0.044151165
0.018299624 0.05082947 0.043536503
0.052615508 0.020929933 0.04275158
0.04064174 0.022416413 0.043008629
0.039930254 0.022517085 0.043047782
0.033930287 0.023252547 0.04317363
0.033021398 0.023370326 0.043192957
0.030775912 0.023601949 0.043201163
0.028928198 0.023826599 0.043211568
0.054204263 0.013040006 0.042657189
0.052387454 0.013274729 0.042726722
0.046144329 0.01403439 0.042854022
0.038710527 0.01496309 0.043025024
0.084402084 0.092850268 0.044457294
0.080127768 0.093328238 0.044470213
0.074546754 0.094010293 0.044581033
0.084258951 0.092070818 0.044929579
0.080012731 0.092543662 0.044952489
0.074584037 0.093237936 0.045095988
0.094244868 0.080416024 0.043826446
0.089664571 0.080957651 0.04388237
0.094111137 0.079629183 0.044285785
0.089810222 0.080136001 0.044343486
0.089506969 0.080184937 0.044360548
0.015598491 0.068475187 0.045038849
0.016024902 0.058991611 0.044674382
0.038861759 0.021901429 0.043654408
0.052698128 0.012514949 0.043315966
0.050962828 0.012721956 0.043344051
0.047741987 0.013046682 0.043363765
0.045883328 0.012609303 0.0440448
0.055339843 0.011424959 0.043836076
0.054070339 0.011592507 0.043866359
0.084121801 0.091293156 0.045395121
0.080446661 0.091693282 0.045426093
0.079935282 0.091732979 0.045422763
0.084006526 0.090493143 0.045853145
0.094061948 0.078842163 0.044752669
0.094481535 0.077985406 0.04519891
0.094115093 0.078055859 0.045240931
0.017072901 0.047895372 0.045704756
0.051701173 0.018809319 0.044513151
0.032671548 0.021188676 0.044956885
0.027651757 0.021016538 0.045574524
0.083943829 0.089690924 0.046310775
0.083807662 0.088893712 0.046771478
0.097825542 0.076013029 0.046137433
0.093889318 0.076457143 0.046162657
0.015552282 0.055941641 0.046790615
0.016536154 0.055047929 0.047317028
0.015821628 0.055144191 0.047320887
0.016677901 0.046398997 0.04676754
0.017181985 0.04554075 0.0472674
0.016626813 0.045622647 0.04728689
0.088609174 0.087530196 0.047140561
0.088230476 0.087581933 0.04716894
0.084056526 0.088029027 0.047187194
0.088695385 0.086669981 0.047573976
0.093770944 0.075657606 0.046642002
0.097538382 0.074470639 0.047109105
0.018903673 0.072917998 0.048666887
0.013919123 0.054628789 0.047900364
0.017236605 0.044802189 0.047832508
0.033334039 0.025842845 0.047474332
0.032270454 0.025938153 0.047472853
0.02951587 0.026305199 0.047533952
0.051838063 0.016595185 0.046277575
0.051182926 0.016654372 0.04628513
0.067606337 0.099732161 0.049253866
0.066636719 0.099863946 0.049267687
0.088678077 0.085450947 0.048247341
0.097486652 0.073154271 0.04790163
0.019658946 0.072025001 0.0491248
0.01474563 0.052180469 0.049453374
0.031879373 0.02522248 0.048048552
0.028429724 0.025673509 0.048125297
0.027588889 0.025038421 0.048724044
0.058451049 0.01432234 0.047339324
0.036912508 0.016969204 0.047783077
0.048483931 0.014813066 0.048133049
0.037247784 0.016152143 0.048323382
0.077158734 0.097674191 0.049399726
0.067656189 0.098902106 0.049677141
0.067502715 0.098139465 0.050135665
0.05898685 0.099159241 0.050279077
0.088628337 0.084284306 0.048959017
0.088875324 0.083495736 0.049472034
0.097953431 0.072031379 0.048512384
0.097564816 0.072079241 0.048535157
0.097991839 0.07123822 0.048999716
0.016827539 0.04186362 0.050072841
0.0498484 0.013864636 0.048645947
0.077438056 0.095295787 0.050846767
0.076193415 0.096181989 0.050306689
0.068721965 0.097156882 0.050539844
0.068200678 0.097221613 0.050555166
0.067532152 0.097305119 0.050564241
0.059134781 0.098075807 0.050873376
0.06934043 0.09622699 0.050931893
0.068581611 0.096352637 0.050977748
0.091960922 0.081511855 0.050335161
0.098025985 0.070018768 0.049720433
0.017833725 0.068350136 0.051680028
0.016775109 0.041105092 0.050616276
0.077349111 0.094489813 0.05128061
0.082817338 0.093034923 0.051625859
0.078348242 0.093552649 0.051699124
0.077761903 0.093633711 0.051723618
0.077224955 0.093709707 0.051735181
0.091451652 0.079942942 0.05126344
0.098054178 0.068829238 0.050443698
0.09806712 0.068055451 0.050943561
0.020490766 0.057042003 0.052154068
0.025364548 0.030016184 0.051426973
0.078186907 0.092778027 0.052148182
0.082308009 0.090937078 0.052851304
0.078301288 0.091552973 0.052815326
0.07805188 0.091995656 0.052607954
0.091482237 0.079137385 0.051698133
0.091875456 0.078331172 0.052222148
0.091532655 0.078335226 0.052180927
0.09795595 0.067303419 0.051446378
0.098010443 0.066503286 0.051936917
0.019696169 0.05637008 0.05268573
0.018555142 0.037779272 0.052678328
0.032373257 0.028406084 0.05183097
0.02319926 0.029546857 0.052040663
0.023470215 0.028771281 0.052612241
0.086657055 0.089288414 0.053313628
0.082359001 0.089867771 0.053461723
0.086659335 0.088500619 0.053791516
0.095978379 0.077006042 0.05257611
0.091822639 0.077558219 0.052723758
0.096004046 0.076215923 0.053042866
0.018944472 0.045513928 0.053586856
0.019164719 0.044762492 0.054155402
0.018819705 0.044797122 0.054140825
0.042059854 0.025753796 0.052821387
0.053897597 0.016611576 0.052229546
0.049693726 0.017122269 0.052305304
0.04826615 0.017322242 0.052353807
0.040113963 0.018211663 0.052421387
0.054311402 0.015818238 0.052778445
0.042893417 0.017219305 0.053025614
0.042451799 0.017306209 0.053050168
0.041832298 0.017356634 0.053055752
0.042417414 0.010366857 0.052337855
0.086711131 0.087728381 0.05428578
0.086855359 0.086933315 0.054752011
0.086556666 0.086957216 0.05474535
0.095771372 0.074677289 0.054016627
0.097675666 0.064182281 0.053403977
0.056901142 0.014739335 0.053267214
0.061778523 0.10035843 0.056537054
0.086677581 0.085323811 0.055638216
0.095896751 0.07386446 0.054507121
0.095779121 0.073076844 0.054978639
0.018833853 0.042491794 0.055722222
0.027193733 0.032209873 0.05585051
0.062076084 0.099476874 0.056953166
0.071499988 0.097467721 0.057160515
0.070754394 0.097569585 0.057209048
0.090928547 0.084020972 0.056028694
0.090913028 0.083240747 0.056488372
0.095316395 0.071543992 0.055905979
0.018065251 0.059700072 0.057133224
0.018283449 0.041024387 0.056796741
0.027511634 0.031371474 0.056362882
0.035225146 0.022052109 0.05628407
0.028569132 0.022830188 0.056365997
0.074006811 0.095592678 0.05803686
0.07313139 0.096000016 0.057942361
0.072267838 0.096363664 0.057787493
0.071520351 0.096682489 0.057613105
0.062577292 0.097741485 0.057758588
0.06165041 0.097896755 0.057823695
0.06311997 0.09686321 0.058180697
0.062407799 0.096956551 0.058195226
0.061716095 0.097059608 0.05822973
0.090878837 0.082404077 0.056923449
0.095089503 0.069176793 0.057314329
0.016241476 0.049012721 0.057885095
0.018156081 0.040277183 0.05732866
0.027902901 0.030563772 0.056886788
0.027393185 0.030628562 0.056890886
0.046474651 0.019145668 0.057157554
0.03829103 0.020165205 0.057338066
0.028555498 0.021320105 0.057480976
0.052306317 0.011573553 0.056245208
0.04724288 0.011447847 0.056913953
0.044524968 0.011782885 0.05698628
0.038476609 0.013246536 0.056491129
0.073950306 0.094765425 0.058475628
0.073188007 0.09489876 0.058518115
0.062283851 0.096140981 0.058634233
0.045985259 0.098200321 0.059000038
0.0456606 0.098237932 0.059020586
0.073787779 0.093979836 0.058896895
0.063331693 0.095289528 0.059150547
0.052365094 0.096592486 0.059353225
0.090262003 0.080878258 0.057828471
0.090134442 0.080081403 0.058275394
0.099799603 0.067011118 0.058165841
0.017572537 0.04807514 0.058383368
0.01781565 0.047266066 0.058883715
0.031465515 0.028626084 0.057920463
0.039271981 0.01928252 0.057857625
0.052484676 0.010054052 0.057367433
0.045073383 0.011006355 0.057553381
0.080813192 0.092326581 0.059190713
0.08035443 0.092379451 0.059221815
0.053196877 0.095707119 0.059767921
0.050902575 0.095982254 0.05981078
0.050185606 0.096060872 0.059818022
0.084397353 0.09112674 0.059623826
0.0816333 0.09138155 0.059620496
0.081058271 0.091473877 0.05962424
0.094073832 0.078541577 0.05882369
0.094461299 0.077524781 0.059334602
0.089954332 0.078465939 0.059176099
0.017506033 0.05503571 0.060135234
0.017283015 0.045752287 0.059912845
0.01651492 0.045880675 0.059945211
0.038507439 0.018619776 0.058440357
0.074098006 0.013513565 0.058285639
0.084471993 0.090288579 0.060058851
0.084512308 0.08947432 0.060496043
0.044231534 0.09435463 0.061212219
0.088967286 0.088111937 0.06082838
0.085131377 0.088565171 0.060893133
0.084362745 0.088685751 0.060930923
0.04339961 0.093651235 0.061666355
0.094328023 0.076327205 0.0599855
0.094368137 0.075529337 0.060443234
0.099584974 0.064660609 0.05956763
0.099692941 0.063821793 0.060024772
0.017409131 0.044134259 0.060864724
0.016693607 0.044250488 0.060914297
0.027122907 0.0253613 0.060722612
0.073295139 0.01287353 0.058868349
0.072131321 0.012262344 0.059464063
0.069615185 0.012486637 0.059422899
0.039119683 0.016229153 0.060044609
0.037227705 0.017268419 0.059573639
0.08423502 0.087874889 0.06135831
0.088743299 0.08651495 0.061697844
0.094255373 0.074713349 0.060863089
0.099572018 0.063006222 0.060470264
0.099644527 0.062165499 0.060915958
0.016112126 0.042756677 0.061939739
0.033392005 0.023805976 0.061132919
0.027380124 0.024553835 0.061273549
0.045240931 0.014717698 0.060479943
0.039555311 0.015406191 0.060564049
0.067742817 0.011229455 0.060590751
0.048650846 0.013583481 0.061003182
0.044371814 0.014101267 0.061069977
0.036992371 0.015037835 0.061253708
0.088908307 0.085682154 0.06213586
0.088576294 0.085730791 0.062148642
0.089174278 0.084799767 0.062524781
0.097572885 0.072717249 0.061740309
0.093986735 0.073097348 0.06175318
0.097430132 0.07192874 0.062195141
0.099358022 0.060634553 0.061845571
0.015454851 0.050563276 0.063163564
0.0143544 0.050708473 0.06318064
0.031105004 0.023322582 0.061694339
0.025912657 0.023950517 0.061793201
0.024903134 0.024020255 0.061782241
0.037999041 0.021686554 0.062086537
0.049911231 0.012262464 0.061776787
0.048811458 0.012048006 0.062088981
0.048051909 0.012168109 0.062131517
0.0447051 0.01327318 0.061577499
0.065308541 0.098019779 0.064440653
0.089400902 0.083908558 0.062920466
0.097640797 0.071097016 0.06262365
0.09749794 0.070328832 0.063093871
0.099778615 0.059807956 0.062346552
0.09943901 0.059846878 0.062360324
0.015902206 0.048986971 0.064173423
0.014869966 0.049074113 0.064187318
0.089771606 0.022289336 0.062263835
0.035915822 0.021232843 0.06273289
0.079550549 0.015197396 0.062458552
0.078931108 0.015217125 0.062428948
0.036220305 0.020408332 0.063250482
0.047156088 0.012285292 0.062185574
0.068272717 0.096876025 0.064870179
0.067562975 0.096982956 0.064914495
0.066431701 0.097124219 0.064922653
0.077131033 0.094903767 0.06501893
0.076199926 0.095056474 0.065089174
0.068446577 0.096044242 0.065275691
0.06707532 0.096226037 0.065340169
0.05824291 0.097237706 0.065431669
0.056247965 0.09748143 0.065460205
0.055382952 0.097626209 0.065530665
0.054554701 0.097719669 0.065542266
0.053635068 0.097835422 0.065566331
0.051821738 0.098069906 0.065589771
0.092184551 0.081233561 0.064255223
0.088918179 0.082377911 0.063800886
0.09738753 0.069515169 0.063538566
0.097444348 0.068701982 0.063974679
0.099231087 0.058298528 0.063325524
0.099084191 0.057535231 0.063807309
0.02538193 0.028613687 0.064604849
0.079776786 0.013609052 0.06350489
0.071317106 0.014548838 0.063569143
0.040427297 0.018392742 0.064259581
0.037448749 0.018738866 0.064307705
0.035004511 0.019046366 0.06436795
0.03181868 0.019437373 0.06443546
0.078178607 0.094036639 0.065517396
0.07728719 0.094107568 0.065461971
0.068618879 0.095188677 0.065688863
0.058244184 0.096464336 0.065887652
0.057204314 0.096520901 0.065829158
0.056503676 0.096598804 0.065841012
0.083651058 0.092519641 0.06579724
0.079133183 0.093086898 0.065904148
0.078017063 0.093238652 0.065946773
0.077318065 0.093337893 0.065943636
0.0924014 0.079550982 0.065093994
0.091948681 0.079614878 0.065117754
0.09318018 0.0786075 0.065458968
0.092667624 0.078676701 0.065490618
0.097479798 0.067904115 0.064420648
0.097919472 0.067009807 0.064864464
0.097369835 0.067096591 0.064881027
0.098968275 0.056771636 0.064301886
0.098840438 0.055981398 0.06476222
0.019420922 0.045330226 0.066020086
0.020018667 0.036814988 0.065434292
0.094669901 0.026990652 0.064544514
0.031603895 0.026288748 0.065493941
0.030174464 0.026465178 0.065539166
0.028006561 0.02668196 0.065513968
0.073073827 0.013666153 0.064203583
0.072288699 0.013752162 0.064172253
0.071610443 0.013776064 0.064135253
0.070576854 0.013877034 0.064144112
0.041579247 0.017422855 0.064717114
0.05806043 0.014702082 0.064982697
0.083539419 0.091731429 0.066230878
0.079185598 0.092263103 0.066317327
0.078093864 0.092405498 0.066346295
0.079222813 0.091446042 0.066724747
0.092901401 0.077061892 0.066404991
0.092558779 0.077066779 0.06636399
0.097928979 0.065802813 0.06554196
0.098396935 0.064583421 0.066259667
0.097689085 0.064644337 0.066242136
0.098947726 0.054343343 0.065657794
0.018124759 0.064181983 0.067210011
0.019423567 0.04417938 0.066786282
0.019165896 0.043824077 0.067040116
0.031501397 0.025537074 0.066029102
0.03046646 0.025647044 0.066054203
0.029371761 0.02578342 0.066082366
0.036326334 0.024181247 0.066493653
0.034873463 0.02435869 0.066505834
0.031719416 0.024727523 0.066537872
0.058008559 0.013946235 0.065512381
0.055879273 0.014212251 0.065586492
0.054807499 0.014352202 0.065614015
0.053185023 0.014521956 0.06560941
0.048960373 0.015847802 0.065206937
0.035493992 0.01666081 0.065941483
0.034369007 0.016789615 0.0659604
0.086832941 0.088860393 0.067411683
0.082834579 0.089790106 0.067307889
0.078910276 0.089842558 0.067567274
0.086861171 0.088026047 0.067812316
0.082855307 0.088554382 0.067948975
0.096256964 0.075820386 0.066736318
0.09812142 0.063004255 0.067163758
0.098768659 0.052711964 0.06654048
0.098659202 0.051897168 0.066986658
0.019707792 0.053077042 0.067441814
0.092649303 0.024924338 0.066156738
0.091889337 0.025009871 0.066149816
0.082799062 0.017758727 0.066116497
0.082431152 0.017802954 0.066114753
0.080567844 0.01722163 0.066634707
0.07999187 0.017255008 0.066602841
0.053513274 0.013751566 0.066183582
0.052249417 0.013853729 0.066152461
0.047365405 0.014467001 0.06627591
0.046635985 0.014520824 0.066234671
0.041312613 0.015206337 0.066386335
0.041631982 0.014449775 0.066981919
0.086788632 0.087207854 0.068216592
0.083143286 0.087747335 0.068381608
0.087155737 0.086369216 0.06867443
0.086673513 0.086411357 0.068658069
0.096022107 0.074222326 0.067620434
0.095879175 0.07343024 0.06805332
0.098034397 0.062214434 0.067621998
0.018511847 0.041085064 0.068941236
0.092523403 0.024152398 0.06664937
0.081277937 0.017184198 0.066689424
0.041811995 0.013690293 0.067527361
0.087357819 0.085573137 0.069136657
0.09588813 0.072637796 0.068508714
0.095972314 0.071855485 0.068979584
0.020056263 0.031465769 0.069141284
0.078611583 0.015886664 0.06769076
0.034822881 0.021312773 0.068644159
0.034230396 0.021348178 0.068642817
0.030292019 0.021816194 0.068693079
0.077847175 0.015221834 0.068254359
0.076818973 0.015384674 0.06832628
0.039406486 0.01995337 0.069076419
0.034738712 0.020535946 0.06917458
0.09107738 0.083427727 0.06982474
0.087203376 0.083960652 0.069970138
0.090410806 0.081910789 0.0707113
0.095890619 0.071035624 0.069428407
0.098361127 0.048048496 0.069432855
0.0255026 0.037635565 0.07050781
0.019807197 0.038302183 0.07056623
0.028611012 0.028809845 0.06993632
0.027607106 0.028933346 0.069965698
0.026849136 0.029062331 0.070004292
0.0888483 0.020693779 0.069267623
0.033831283 0.027414501 0.070345305
0.077069119 0.014535904 0.068805628
0.039285488 0.019211292 0.069610342
0.034684338 0.019772053 0.069702566
0.074850664 0.014101148 0.069459826
0.050830588 0.017044187 0.069915749
0.039141864 0.018467724 0.070152074
0.032131493 0.019292831 0.070257977
0.072160482 0.096813619 0.071422987
0.071443088 0.096941113 0.071458399
0.072048478 0.096000016 0.071809269
0.070949212 0.096182823 0.071878709
0.062121056 0.097278774 0.072053112
0.060542859 0.097463489 0.07208313
0.073158525 0.095107079 0.07223665
0.072248884 0.095166028 0.07220836
0.062364675 0.096394718 0.072428487
0.061218239 0.096575201 0.072472662
0.060726225 0.09662503 0.072475649
0.090847418 0.081868827 0.070727825
0.090699412 0.080562711 0.071473315
0.1009898 0.057039142 0.070287913
0.097831503 0.046507716 0.070391022
0.097694695 0.045723736 0.070852295
0.018201426 0.046916485 0.071334898
0.02627226 0.027561724 0.071016252
0.063047469 0.014762461 0.070185162
0.058114044 0.015350938 0.07025966
0.057732351 0.01540643 0.070285447
0.057083122 0.015480459 0.070296556
0.051321909 0.016191423 0.070428215
0.050702646 0.016302109 0.070446037
0.039473586 0.017638445 0.070654824
0.037379727 0.017839789 0.070650436
0.043911099 0.016349792 0.071112655
0.074700318 0.094934165 0.072244138
0.074822299 0.093217492 0.073010601
0.074105479 0.093618393 0.072910324
0.073330708 0.094265342 0.072651528
0.062975921 0.095452964 0.072771154
0.062600665 0.095522225 0.072796054
0.026550405 0.087248743 0.0732297
0.09492214 0.078108191 0.072356045
0.090306677 0.078684211 0.07245037
0.10011758 0.066478133 0.071515232
0.10032364 0.06563884 0.071952
0.10089917 0.055384219 0.071147203
0.097476527 0.044546306 0.071550637
0.015845031 0.054080307 0.073318519
0.015518621 0.054118872 0.073337883
0.017098144 0.044695258 0.072820961
0.073173597 0.012000263 0.071066715
0.033565208 0.016830921 0.071832545
0.044112414 0.014778495 0.072147027
0.043771826 0.014810324 0.072163284
0.080687806 0.091705263 0.073298439
0.05134628 0.095282078 0.073879473
0.050125912 0.095410943 0.073893517
0.04944741 0.095472336 0.073892713
0.08895953 0.089830637 0.073510967
0.081024177 0.090834498 0.073688641
0.048211388 0.094812274 0.07431668
0.047324605 0.094929934 0.074340023
0.09476459 0.077332854 0.072790898
0.09086445 0.07779783 0.072841942
0.032568723 0.084856212 0.073922291
0.089666784 0.077136874 0.073293388
0.10020775 0.052209556 0.072909079
0.097332016 0.043366611 0.072239414
0.016935162 0.043933034 0.073309653
0.01686015 0.043139577 0.073783562
0.084077261 0.01743257 0.071958832
0.083109863 0.017030835 0.072327867
0.078800395 0.01727438 0.072569393
0.032756791 0.023392558 0.073090769
0.028016508 0.024260938 0.073048145
0.027489275 0.024278164 0.073003881
0.02622439 0.023616254 0.073527858
0.024752147 0.023843706 0.073595382
0.044013157 0.014015138 0.072669946
0.038017221 0.014736414 0.072783276
0.062528141 0.010993659 0.07283631
0.043916777 0.013256192 0.073200069
0.065483913 0.10542917 0.074701741
0.084960118 0.089545429 0.074058801
0.081896462 0.089895248 0.074065357
0.081166185 0.089996099 0.074077994
0.045040973 0.094404221 0.07479994
0.085327208 0.087874174 0.074874498
0.084800862 0.087936759 0.074883349
0.082295455 0.08901608 0.074478023
0.081973717 0.089040995 0.074476413
0.045203827 0.093562901 0.0751848
0.093774088 0.086781442 0.074610546
0.043656431 0.092932522 0.075636141
0.043028243 0.092996955 0.075652063
0.094267167 0.075767398 0.073637538
0.094728708 0.074855924 0.074029334
0.094528593 0.074048877 0.074435815
0.099436834 0.062527835 0.073740669
0.099444658 0.061709762 0.074151084
0.10044671 0.051418781 0.073387206
0.096758671 0.041821599 0.073174991
0.014925145 0.051796734 0.074735522
0.096617669 0.041024148 0.073634587
0.09204863 0.024000645 0.072644949
0.016216293 0.03324157 0.074115142
0.022504278 0.031726003 0.074525192
0.032726415 0.022091866 0.073954649
0.024635941 0.023081303 0.074115217
0.083154537 0.015176833 0.073501252
0.041455619 0.020286858 0.074335545
0.032983363 0.021278977 0.074470684
0.024923533 0.022249758 0.074607715
0.061101466 0.010382712 0.07339754
0.08593411 0.086955309 0.075240478
0.041508682 0.092345834 0.076101936
0.088904977 0.085802317 0.075623676
0.085026339 0.086254835 0.075674355
0.04137373 0.09153229 0.076515809
0.040659629 0.091631413 0.076517791
0.0402762 0.091686726 0.076517567
0.097806968 0.072030723 0.07524024
0.025409825 0.080842137 0.076613113
0.10331322 0.059627771 0.074974746
0.10223287 0.059746265 0.07499209
0.099473506 0.060447037 0.074785002
0.099986516 0.049910784 0.074336194
0.096182406 0.039454579 0.074538745
0.093001746 0.031534255 0.073796839
0.093457043 0.03091526 0.074074581
0.083742268 0.022892118 0.074112281
0.076658525 0.015217543 0.074158616
0.037046783 0.019241035 0.075430118
0.06026157 0.0097101331 0.073937379
0.050022103 0.010913134 0.074082367
0.049315803 0.011039615 0.07414072
0.049233325 0.010255694 0.074638136
0.048474148 0.010374963 0.074680358
0.084336549 0.098193705 0.076707803
0.072992601 0.099583924 0.076917082
0.08918871 0.084923983 0.076001734
0.039396301 0.090970576 0.076955616
0.090793759 0.083835065 0.076303832
0.090245679 0.083949983 0.076346539
0.089185089 0.084106505 0.076399714
0.090643428 0.083010674 0.076696709
0.097618096 0.071242988 0.075655937
0.024032161 0.080218911 0.077069126
0.099577978 0.070185304 0.076018475
0.098501734 0.070320725 0.076053098
0.097488701 0.070445836 0.076063983
0.023097306 0.079488158 0.077509031
0.022413097 0.079591215 0.077549189
0.10387649 0.0586797 0.075347804
0.10031231 0.059116721 0.075395867
0.099467248 0.059182227 0.075407468
0.017628238 0.068405628 0.077473566
0.095713288 0.037911832 0.075457416
0.093499601 0.029855609 0.074708991
0.093472913 0.02903074 0.075177677
0.093493566 0.028236926 0.075635307
0.020277597 0.037145555 0.077051438
0.083890498 0.021808267 0.074731983
0.023002766 0.02926743 0.075978555
0.084291838 0.020988286 0.075239658
0.083739072 0.021039546 0.075223982
0.022025958 0.028617918 0.076508142
0.035609715 0.019450486 0.075491548
0.03605254 0.018604338 0.075976297
