# .PCD v0.7 - Point Cloud Data file format
VERSION 0.7
FIELDS x y z
SIZE 4 4 4
TYPE F F F
COUNT 1 1 1
WIDTH 1344
HEIGHT 1
VIEWPOINT 0 0 0 1 0 0 0
POINTS 1344
DATA ascii
0.072866976 0.010707378 0.021190424
0.070895374 0.0099646449 0.020997711
0.070573956 0.0098402053 0.020964421
0.10016367 0.020711422 0.024774846
0.095381647 0.01882644 0.02426336
0.093618333 0.018111356 0.024027329
0.088668853 0.016172051 0.023498122
0.086313695 0.015249506 0.023264449
0.077728033 0.011854023 0.022325959
0.074912637 0.010769755 0.022050936
0.10262182 0.015970618 0.023863573
0.098081201 0.014182001 0.023348607
0.091991067 0.011771336 0.022665478
0.089481652 0.010783881 0.022410266
0.014113337 -0.018847093 0.014285743
0.12301779 0.017561927 0.025634948
0.11875844 0.015880853 0.025181375
0.11615866 0.015602298 0.024271846
0.11389807 0.01469171 0.023983687
0.11172161 0.013441749 0.024081957
0.10973796 0.012314104 0.024185114
0.1092723 0.012122855 0.024116468
0.10688257 0.011934377 0.023239031
0.10647899 0.011026241 0.023841154
0.10395154 0.010791644 0.022903543
0.10359353 0.010648176 0.022850528
0.12366766 0.01287549 0.024162475
0.11892322 0.011025503 0.023681689
0.11708099 0.010265581 0.023446534
0.11673936 0.01013276 0.023426794
0.13980985 0.018505014 0.026567839
0.13385147 0.016150646 0.02592079
0.13120753 0.015101887 0.025644537
0.12655762 0.013264343 0.025153942
0.12625965 0.013150312 0.025114233
0.12464261 0.012521073 0.024910688
0.12400255 0.012270547 0.024856269
0.12118286 0.011155903 0.024549544
0.14371228 0.015142828 0.025608869
0.14037859 0.01380299 0.025268562
0.13710615 0.012534216 0.024910724
0.13499188 0.011701763 0.024680285
0.1344806 0.011498369 0.02461607
0.1522513 0.017751954 0.027177012
0.14665705 0.015541196 0.02656183
0.1379481 0.012125194 0.025624329
0.15748364 0.014929891 0.026538435
0.15522885 0.014033444 0.026249016
0.08682093 -0.017774865 0.017810229
0.010200173 0.15163907 0.04014029
0.011039585 0.1381446 0.038073067
0.0093373656 0.13749406 0.037942588
0.0052939057 0.13498075 0.03783213
0.0023907125 0.12180576 0.035098087
0.010140449 0.12399803 0.036366917
0.0020643175 0.10971855 0.033098593
0.0059284568 0.11037745 0.033935629
0.0086430311 0.08930999 0.030569784
0.055165827 0.10671909 0.03599399
0.0076023936 0.068613335 0.027399775
0.0022363365 0.065635368 0.027264602
0.017431468 0.062399775 0.027420133
0.017095834 0.062274128 0.027403142
0.012165934 0.060302734 0.026822921
0.019935071 0.054177284 0.026453916
0.011881202 0.042674005 0.024158478
0.0098404288 0.041855529 0.0239463
0.0082058012 0.041199058 0.023787487
0.0032099187 0.038428888 0.023732379
0.012116015 0.034465432 0.023029044
0.036092728 0.035623714 0.024723392
0.032759637 0.035152137 0.023836713
0.030476004 0.03339754 0.02413721
0.012505203 0.027191505 0.021693759
0.0101161 0.026223108 0.021375954
0.0061024129 0.024622068 0.02097325
0.0031142533 0.022656426 0.021181155
0.041414112 0.030308068 0.024144445
0.021667987 0.023326755 0.021453094
0.012976944 0.019090608 0.021019578
0.0027800798 0.01510559 0.019927297
0.049126238 0.026732758 0.023395818
0.041866541 0.023873627 0.022616699
0.030611604 0.019485563 0.02141957
0.028557569 0.018639445 0.021234654
0.026291192 0.017749667 0.020927288
0.023917317 0.016828522 0.020693287
0.019004643 0.014914989 0.020184096
0.016061962 0.013736531 0.019852754
0.014751613 0.013236701 0.019706339
0.0144265 0.013118163 0.019675355
0.011608571 0.011982188 0.019351441
0.008151412 0.010626763 0.018979523
0.049648017 0.026125759 0.024032094
0.047317088 0.025252193 0.023816049
0.044439733 0.024106532 0.023470446
0.026541352 0.017041683 0.021506809
0.024376303 0.016202748 0.021313719
0.01761198 0.013563052 0.020599209
0.016317219 0.013031796 0.020425484
0.010969758 0.010946259 0.019881561
0.088532358 0.034887113 0.026889835
0.07464996 0.0294137 0.025415208
0.072374076 0.028550953 0.025165055
0.069690317 0.027485669 0.024920959
0.063848644 0.025187746 0.024236701
0.044247687 0.017457008 0.022123728
0.039855003 0.015742481 0.021700088
0.034229636 0.013511658 0.021060947
0.029021174 0.011492804 0.020490937
0.067807525 0.020188689 0.023580942
0.050571799 0.013420194 0.021685321
0.045551747 0.011458173 0.021188222
0.045240074 0.011332601 0.021155309
0.072420061 0.021240205 0.024647385
0.070148498 0.020338565 0.024383649
0.053160369 0.013652876 0.022561353
0.050802797 0.012723953 0.022316996
0.048141479 0.011646569 0.022012945
0.093715131 0.023875304 0.025403589
0.08869347 0.021117136 0.025453981
0.086356252 0.020174816 0.025179103
0.081812352 0.018422112 0.024724782
0.079105467 0.017321512 0.024429191
0.076681167 0.016790092 0.023896337
0.074552059 0.016336501 0.02335446
0.070591033 0.014275625 0.023327954
0.068274617 0.013103038 0.023277458
0.066161454 0.012631461 0.022738822
0.064139128 0.01224272 0.022257235
0.062254131 0.011507481 0.022022769
0.060024619 0.010611445 0.021805681
0.10801682 0.023003973 0.026213132
0.10238594 0.020772129 0.025569793
0.10044304 0.020044833 0.025401134
0.095800877 0.018216483 0.024918631
0.089063257 0.015558377 0.024158794
0.086541772 0.014577165 0.023921039
0.084463537 0.013726339 0.023652848
0.082027912 0.012785956 0.023400832
0.077083945 0.010838374 0.022838175
0.11365756 0.019534849 0.025623165
0.11099699 0.018485323 0.02535741
0.10831147 0.017430276 0.025034241
0.094709516 0.012094907 0.023618963
0.094232559 0.011910215 0.023563579
0.10554084 0.015574805 0.025363505
0.098557949 0.012859963 0.024681162
0.096727967 0.012114979 0.024397667
0.12601858 0.017977372 0.026572157
0.12332404 0.016932473 0.026328586
0.1207912 0.015904337 0.025974583
0.1167717 0.014310032 0.02557198
0.11245477 0.012622491 0.025121137
0.14004391 0.017865039 0.02725927
0.13724655 0.016746894 0.02694599
0.13635391 0.016389497 0.02687178
0.13418987 0.015543319 0.026601741
0.13317952 0.015156887 0.026502626
0.13150677 0.014471777 0.026321843
0.12889299 0.013455912 0.026036909
0.1271683 0.012776919 0.025861735
0.15484175 0.018277965 0.027901344
0.15250781 0.01712437 0.027886678
0.14956924 0.016690657 0.026917422
0.14724007 0.015046835 0.027303014
0.14426735 0.013909079 0.027021583
0.14401254 0.014532469 0.026317013
0.14078483 0.013228014 0.025980154
0.13839698 0.012312934 0.025690015
0.047445536 -0.023468196 0.015916787
0.15023762 0.0162111 0.027620142
0.15547851 0.013413139 0.026951429
0.15350682 0.01263129 0.02677401
0.15313253 0.012498297 0.026752179
0.01206845 0.15056516 0.040990822
0.0080943406 0.1490102 0.040598296
0.012926638 0.13617891 0.039356261
0.0074891746 0.13405177 0.038778629
0.0028842092 0.13314477 0.037945189
0.0085183084 0.12246765 0.036511526
0.006819278 0.12180799 0.036363512
0.0047801435 0.12010956 0.036510583
0.0024954379 0.12006521 0.03587598
0.0042661428 0.10881437 0.034109645
0.0096175373 0.11002003 0.035066865
0.0021241903 0.10709812 0.034282986
0.010916501 0.099492356 0.033250794
0.0016950965 0.095862389 0.032277167
0.0052594841 0.096378684 0.033036731
0.058018357 0.10698905 0.036756933
0.012030661 0.088011354 0.032186843
0.0047577024 0.085145235 0.031421881
0.0030514598 0.084490016 0.031255234
0.0080983639 0.077204168 0.029683877
0.011341304 0.077607259 0.030480217
0.0063786805 0.075650945 0.029922299
0.0042594075 0.074811518 0.02975468
0.012636244 0.067979693 0.029264074
0.010966271 0.067352772 0.029131163
0.0093451738 0.066716 0.028915398
0.0076805055 0.066061169 0.028773926
0.0060661435 0.065436363 0.028576575
0.01775077 0.061658204 0.027893443
0.0088599026 0.058162898 0.026947558
0.0038198829 0.055321276 0.026847865
0.019368172 0.053116545 0.0268826
0.010277957 0.049493045 0.025878035
0.0086058676 0.048866391 0.025745556
0.0069069564 0.047352567 0.02600326
0.0053200722 0.047574744 0.025388148
0.0037054121 0.046950161 0.025190681
0.0015395582 0.045214862 0.025431708
0.012067884 0.041062206 0.025168926
0.0051392317 0.038346812 0.024454657
0.0018351674 0.037050873 0.024068531
0.012341142 0.033727616 0.023582239
0.0080704689 0.032008231 0.023094904
0.0063964427 0.031381875 0.02296285
0.012547344 0.032985166 0.024137754
0.009889096 0.03193599 0.0238516
0.0017204285 0.028713092 0.022949081
0.038700312 0.035832912 0.025534894
0.012858719 0.025672689 0.022767734
0.0079589486 0.0237436 0.022218086
0.0062780082 0.023042604 0.022030298
0.0017134845 0.02127859 0.021556884
0.10410672 0.054168515 0.031436533
0.039424181 0.028716773 0.024419062
0.010277003 0.017245352 0.021297771
0.0079000592 0.016313925 0.02106281
0.0046687424 0.015017107 0.020699713
0.043907672 0.029625595 0.02545619
0.02176863 0.020937726 0.023097754
0.018828601 0.019803226 0.022768062
0.015835911 0.018615112 0.02242453
0.013122171 0.017517239 0.022150166
0.010486871 0.016520798 0.021883208
0.0062412322 0.014805198 0.021377336
0.0029528737 0.013543501 0.021042138
0.052565068 0.026498601 0.024915941
0.045994222 0.023905054 0.024184525
0.037756622 0.020685107 0.023311656
0.03607884 0.020006865 0.023131683
0.030841798 0.017959833 0.022558682
0.028788 0.017131075 0.022349007
0.026823282 0.016344622 0.02210369
0.021903098 0.014448225 0.021607239
0.017208099 0.012596712 0.021117508
0.016592443 0.012339398 0.021037526
0.093369603 0.035978563 0.028017029
0.085823148 0.033053048 0.027226157
0.083548307 0.03214179 0.026939116
0.078868091 0.030299336 0.026454262
0.076223403 0.029252633 0.026160575
0.074883372 0.028707981 0.026023641
0.072597206 0.027847365 0.02578846
0.068017423 0.026009262 0.025265232
0.065810174 0.025158927 0.025063381
0.065323591 0.02497904 0.025023565
0.044470042 0.016752288 0.022732966
0.040162444 0.015061572 0.022295229
0.037879914 0.014178395 0.022015013
0.032557815 0.012063026 0.021433044
0.031220645 0.01155673 0.021330193
0.088022441 0.03307119 0.027957007
0.069943994 0.02599889 0.026055317
0.047697127 0.017214268 0.023615211
0.044727653 0.016055062 0.023322802
0.042054594 0.014981598 0.023033157
0.038124114 0.013468757 0.022605162
0.036302894 0.012767479 0.02242301
0.084191382 0.025078788 0.026521176
0.08196044 0.024189606 0.026226185
0.078955144 0.022998363 0.025912013
0.072665006 0.020540059 0.025248278
0.070408583 0.019649327 0.024988566
0.068020761 0.018707171 0.0248022
0.066570193 0.012405798 0.02310919
0.088939726 0.020436034 0.026094984
0.082072943 0.017733291 0.025338154
0.079662055 0.016760737 0.025108315
0.079337627 0.016634926 0.025080092
0.077072024 0.015775651 0.024831519
0.074796408 0.014882639 0.0245784
0.072937399 0.014125332 0.024378356
0.06860128 0.012449875 0.023902528
0.10268453 0.02013015 0.02623957
0.10072422 0.019378327 0.026023805
0.098109543 0.018358268 0.025731627
0.096104801 0.017550275 0.025550388
0.09382987 0.016654477 0.025280327
0.0868164 0.013906583 0.024559475
0.084882945 0.01311177 0.024298944
0.08225587 0.012115449 0.024060469
0.1111559 0.022705175 0.027768154
0.10547301 0.020471074 0.027131774
0.098325789 0.01766853 0.026389405
0.096360058 0.01687374 0.026184779
0.094093233 0.015991241 0.025909524
0.091743886 0.015073001 0.025667451
0.0894548 0.014171064 0.025432464
0.087469906 0.013386175 0.025217574
0.1138674 0.018097721 0.02689356
0.11183634 0.017281711 0.026680786
0.1111961 0.017042145 0.026630796
0.13121769 0.01927647 0.027790073
0.12390736 0.016399086 0.027015705
0.12357569 0.016279563 0.026999418
0.12103477 0.015259184 0.02665798
0.11703086 0.013651393 0.02622202
0.11484903 0.012835503 0.026033882
0.14663103 0.019678287 0.028567497
0.14368051 0.018539481 0.028277855
0.14027891 0.017207533 0.027935512
0.13445923 0.014907256 0.027266046
0.13282585 0.01427988 0.027102303
0.13209966 0.013973109 0.02703239
0.12931514 0.012876853 0.026732309
0.055530488 -0.016134471 0.018798694
0.042520553 -0.021274075 0.017360732
0.1577301 0.018450305 0.029102011
0.15052015 0.015598394 0.028311638
0.14449227 0.013265498 0.02772885
0.15574777 0.012799166 0.027650677
0.067585588 -0.022596374 0.018875387
0.014054805 0.14953341 0.041935243
0.010184228 0.14802691 0.041503705
0.0055746436 0.1461705 0.040965289
0.0032505393 0.14528492 0.040752579
0.011009485 0.13454115 0.039512936
0.0052545369 0.13138944 0.039266191
0.0029503405 0.13046582 0.038997069
0.012271434 0.12215945 0.037659109
0.010148466 0.12132119 0.037490457
0.013311356 0.11060645 0.035879139
0.0077016056 0.1083952 0.035256136
0.0059958696 0.10773996 0.035089515
0.0024172068 0.106328 0.03471525
0.011610001 0.10906017 0.036061581
0.0091054738 0.097010851 0.033853214
0.0068986416 0.095257625 0.034080695
0.0034746826 0.09480463 0.033284687
0.0017664433 0.09323509 0.033479709
0.010281086 0.086449131 0.032456536
0.0086670816 0.085824147 0.032259312
0.0013557971 0.082938924 0.031490229
0.0064898431 0.084060937 0.032438487
0.01316905 0.077428803 0.031101577
0.0099378526 0.076190084 0.030771475
0.011472672 0.075924411 0.03138091
0.0026044846 0.072427839 0.030381154
0.016830087 0.068805769 0.030194081
0.0038947165 0.06368652 0.028786927
0.012774944 0.066316172 0.030183341
0.0022183359 0.062185869 0.02907538
0.012214214 0.056929648 0.028704703
0.010534585 0.05622904 0.02851706
0.0089979768 0.056510255 0.027910814
0.0073807836 0.055875838 0.027728483
0.0056121051 0.054323733 0.027996924
0.0040760338 0.054580063 0.027342446
0.0019922256 0.05373475 0.027170546
0.010347337 0.046983734 0.027333066
0.0087091029 0.046352729 0.027189169
0.0037718415 0.044426784 0.026649594
0.002068162 0.043737978 0.026451565
0.009978354 0.03941682 0.025461521
0.0082980692 0.038715929 0.025273815
0.0066803992 0.038112074 0.025126446
0.0033741891 0.036810741 0.024753865
0.012224019 0.039444521 0.026179947
0.010219276 0.038679436 0.026007425
0.01273036 0.031399131 0.025201295
0.0081516504 0.029549211 0.024640996
0.0065111518 0.028918341 0.024497304
0.0048662126 0.028287187 0.024305601
0.0032710731 0.028495893 0.023660071
0.0019665956 0.027982816 0.023479488
0.034642071 0.033411443 0.025618967
0.013186127 0.024965018 0.023301691
0.010387689 0.023863018 0.02299111
0.0082030594 0.023023263 0.022794254
0.0032239556 0.02023001 0.022757962
0.10369879 0.053200215 0.031954437
0.10303313 0.052113615 0.032395281
0.04746753 0.030247718 0.02641597
0.047181994 0.030126378 0.026360244
0.041880786 0.028039128 0.025815509
0.023836225 0.020938501 0.023799565
0.022021979 0.020228803 0.023658067
0.016146064 0.017913267 0.022993997
0.013414025 0.016818792 0.022712529
0.010748208 0.015812948 0.022472218
0.0081614852 0.014774874 0.022150297
0.051883668 0.025413573 0.025367394
0.041936874 0.021472648 0.024303623
0.03799516 0.019974485 0.023898363
0.034311354 0.018498436 0.023488503
0.032689095 0.017870069 0.023311004
0.029063702 0.016442716 0.022925992
0.024718136 0.014722303 0.022472639
0.020127594 0.012900814 0.021964863
0.057568461 0.026851028 0.026545137
0.054786742 0.025760949 0.026257899
0.036259681 0.018471822 0.024270438
0.02701968 0.01480785 0.023234796
0.085307598 0.031256773 0.028315466
0.076459616 0.027758881 0.027327687
0.05024299 0.01743412 0.024481472
0.044974267 0.015357912 0.023914896
0.042476475 0.014367312 0.023660101
0.038348347 0.012765959 0.023216516
0.079183847 0.022295535 0.026525144
0.06828773 0.018027663 0.025414314
0.055814832 0.013115004 0.024003528
0.053366452 0.012165695 0.023770228
0.082186222 0.022705466 0.027419757
0.093844414 0.021586135 0.027202893
0.091157198 0.02052065 0.026934769
0.086608768 0.018736243 0.026422095
0.084305137 0.017849728 0.026206423
0.082328051 0.017057762 0.025968526
0.077403188 0.015115678 0.025432758
0.10818356 0.020759843 0.028060753
0.10489327 0.019473672 0.027672429
0.10094923 0.017913632 0.027254574
0.090316027 0.013730347 0.026141316
0.1190488 0.019388162 0.028103199
0.11414248 0.017432116 0.02753384
0.10915235 0.015480861 0.026986219
0.10633811 0.014378741 0.026762024
0.13148987 0.018621556 0.028457008
0.12651283 0.016660564 0.027908802
0.12128401 0.014605425 0.027326763
0.13405615 0.018902294 0.029377995
0.1291149 0.016941734 0.028821148
0.14688283 0.019042164 0.029253397
0.13804361 0.015569054 0.028306002
0.15774432 0.022582158 0.031082066
0.050737083 -0.019515082 0.019565098
0.15543038 0.016815305 0.029506782
0.15110657 0.015103333 0.029038489
0.0080512464 0.14537743 0.041948851
0.0056737065 0.14440636 0.041677464
0.0033792257 0.14353795 0.041440923
0.0091224015 0.13201909 0.0400404
0.012636334 0.13247336 0.040748224
0.014048517 0.12107734 0.038616732
0.0084841549 0.11888245 0.037990183
0.0067533553 0.11822221 0.037876241
0.0048406124 0.11744341 0.037616678
0.0024619401 0.11648194 0.037364509
0.012341887 0.1195209 0.038784813
0.010247141 0.11867712 0.038611893
0.004208684 0.10525441 0.035672054
0.009338975 0.10636368 0.036588546
0.010887206 0.095954776 0.034875657
0.0071800649 0.094481379 0.03450764
0.0053246021 0.093759641 0.034248646
0.0091846883 0.094411284 0.035075724
0.010421097 0.084760532 0.033325393
0.0048103034 0.082544804 0.032695223
0.0032007098 0.08191444 0.032503847
0.070676118 0.10758664 0.040199637
0.0087127984 0.08321017 0.033530798
0.0080828369 0.073722735 0.031435918
0.0043799877 0.072248936 0.03106802
0.0063843727 0.072193488 0.031667516
0.011058241 0.064792052 0.030482218
0.0077462196 0.063508973 0.03014889
0.0061221123 0.062866017 0.029942576
0.012452126 0.056176275 0.029219717
0.0021850765 0.052094862 0.028096125
0.010763198 0.054613039 0.029462382
0.0074696243 0.053348824 0.029123146
0.0041593909 0.052051395 0.028764211
0.011938751 0.047649801 0.027552076
0.0053961575 0.045069769 0.026856072
0.012260944 0.046918258 0.0280458
0.0069877207 0.044844151 0.027471449
0.0068461299 0.036499739 0.026129786
0.0035833418 0.035213962 0.025778618
0.0019287765 0.034571022 0.025582403
0.010068476 0.029500738 0.025384158
0.0051446557 0.027565718 0.024857674
0.03630203 0.032406077 0.026854627
0.013384014 0.023379728 0.024348699
0.010749578 0.022364989 0.024087884
0.0064497292 0.020642653 0.023616444
0.0047601461 0.020009652 0.023465864
0.0083014965 0.020586401 0.024381064
0.02886793 0.022077113 0.024948023
0.026580632 0.021196365 0.024658754
0.019000262 0.018241823 0.023867212
0.0031653941 0.011997536 0.022158172
0.041368425 0.026211545 0.026851799
0.034754634 0.023605362 0.026098114
0.022219688 0.018695071 0.024753269
0.0083682239 0.013227314 0.023237709
0.042151898 0.019943878 0.025435962
0.038248241 0.018454552 0.025009196
0.034538388 0.016970873 0.024625447
0.031208098 0.015695617 0.024310544
0.025269568 0.013323754 0.023630675
0.083671898 0.029785931 0.028650746
0.050567031 0.016764238 0.025074024
0.047904372 0.015695527 0.024787035
0.045265585 0.014677867 0.024529602
0.075000286 0.025563046 0.028296221
0.048428684 0.01509802 0.025437832
0.084372282 0.023587957 0.027718719
0.07947877 0.021619365 0.027146183
0.072892815 0.01904881 0.026444018
0.064257175 0.015662789 0.025553379
0.091585368 0.02560816 0.029044006
0.088978887 0.024580322 0.028754931
0.086624742 0.023631662 0.028481659
0.073144168 0.018343553 0.02705922
0.091789186 0.019981727 0.027604915
0.084555507 0.017157227 0.026832808
0.080250382 0.015456066 0.026374646
0.098407209 0.021827333 0.02887902
0.077910453 0.013751999 0.026689809
0.11380759 0.022198707 0.029282413
0.10580769 0.019065291 0.028403126
0.10124499 0.017253183 0.02789332
0.098854691 0.01634682 0.027692087
0.11472026 0.016910814 0.028261203
0.10946396 0.014846593 0.027665183
0.10658184 0.013711736 0.027424581
0.11690816 0.01700981 0.029119961
0.15799409 0.021941684 0.031767607
0.15037847 0.018927708 0.030946171
0.14742893 0.017784141 0.030638272
0.15141979 0.014501512 0.029737445
0.15920144 0.016836107 0.03126549
0.010106385 0.14439395 0.042885397
0.0058122873 0.14265393 0.042374138
0.011743754 0.14411493 0.043330826
0.0081011355 0.14267588 0.042957168
0.0034459531 0.14085907 0.042480431
0.010951221 0.13092968 0.040940084
0.0073281229 0.12950879 0.040558022
0.0026409328 0.11478256 0.038122516
0.011645973 0.10640591 0.037237
0.0076564252 0.10483328 0.03681308
0.006046772 0.10420261 0.036621917
0.0024154782 0.10278147 0.036262143
0.012646228 0.094006717 0.036271796
0.0072733164 0.091868699 0.035703488
0.0034211576 0.091270581 0.034926668
0.013225287 0.073981628 0.032839078
0.0045659244 0.070578754 0.031931434
0.011458188 0.072448432 0.033115465
0.0098513365 0.071817055 0.032927144
0.0065402389 0.07051973 0.03256816
0.01703161 0.066312551 0.031601328
0.0093344748 0.063267633 0.030733518
0.0042512417 0.060390696 0.030630488
0.0089978278 0.053095013 0.029770128
0.0057346225 0.051809207 0.029418804
0.0071848631 0.043228731 0.028467029
0.0054854751 0.042563066 0.028310262
0.0022249818 0.041272059 0.027908545
0.0051626861 0.034999609 0.026430517
0.010306478 0.036190599 0.027504172
0.02813673 0.035766765 0.027847037
0.027676791 0.03476204 0.028329879
0.010342121 0.028777912 0.025907777
0.0083019435 0.027959362 0.025695704
0.10544986 0.057983615 0.035372406
0.039046347 0.031865209 0.028210171
0.0066352189 0.019064859 0.024688076
0.0049601793 0.018438697 0.024556287
0.10159224 0.049083568 0.033808175
0.04989779 0.028723434 0.028260145
0.046301484 0.027328923 0.027882516
0.036469042 0.016940802 0.025392763
0.048051208 0.021483749 0.026620723
0.042421877 0.019239023 0.026018605
0.032809377 0.015487567 0.024984568
0.031389683 0.014147907 0.025434632
0.078213185 0.026050925 0.029237531
0.066405296 0.021381065 0.027917694
0.092007428 0.018518597 0.028810874
0.10941422 0.018946521 0.029996414
0.10664424 0.017848745 0.029746521
0.096876204 0.014760166 0.028031752
0.12679601 0.020146452 0.030799607
0.04007408 -0.019595832 0.020517346
0.012832731 0.15743391 0.046232797
0.005892694 0.13999134 0.043397531
0.0091597736 0.12843193 0.041443251
0.0073627532 0.1268274 0.041633535
0.010330677 0.11602551 0.039711393
0.013961107 0.11658107 0.040479276
0.01230669 0.11593843 0.040283944
0.0096619725 0.10295162 0.038177341
0.0035794377 0.089572132 0.035744064
0.010816514 0.091523364 0.036899511
0.0047435462 0.079020217 0.034401961
0.0032085776 0.078417867 0.034182109
0.0046578944 0.068880096 0.032803178
0.011036664 0.061326072 0.032285132
0.0077438354 0.060062304 0.031953376
0.0061174631 0.059424311 0.031741012
0.012528241 0.053638771 0.030624621
0.005340904 0.033388585 0.027432404
0.0036770999 0.03273353 0.027291458
0.0052194297 0.025102019 0.026417043
0.044218719 0.033022329 0.029276796
0.039591223 0.031257838 0.028802689
0.016141415 0.022020593 0.026257236
0.037692308 0.029671118 0.029124733
0.018998891 0.022328466 0.02712049
0.052819937 0.029088706 0.029122889
0.042906046 0.025151357 0.028050561
0.032990277 0.021290064 0.026995275
0.014103293 0.013867512 0.024987541
0.067532361 0.027525216 0.029826343
0.066590041 0.019859061 0.029080428
0.1410965 0.019412354 0.032075651
0.15390953 0.018868215 0.032655947
0.0039567053 0.1512097 0.046250366
0.0135746 0.14121111 0.044921063
0.007576108 0.10125475 0.038391389
0.050646693 0.10542795 0.04198572
0.013461202 0.081559181 0.035731934
0.010320544 0.080347806 0.035415541
0.019212514 0.053709552 0.032760315
0.10489246 0.055301867 0.03690945
0.10388476 0.054905236 0.036798734
0.04645136 0.032280177 0.030574873
0.052062809 0.027157664 0.030109592
0.069702387 0.027597457 0.030699499
0.06791383 0.026472673 0.03071855
0.050160855 -0.028989017 0.022167679
0.11711729 -0.012903169 0.027975529
0.14582884 -0.011090837 0.029519957
0.12911358 -0.021711141 0.026361976
0.0060726702 0.15021473 0.047125462
0.058133215 0.10839573 0.042835843
0.05526039 0.10724904 0.042491861
0.048340648 0.10453844 0.041746989
0.0071874857 0.088313222 0.0373028
0.050180852 0.10437393 0.042351536
0.01879257 0.052678943 0.03318844
0.047277987 0.024473816 0.030195162
0.048920512 0.02427578 0.030845597
0.079432398 -0.022952631 0.024905838
0.1196529 -0.012603521 0.028953254
0.15315846 -0.018305503 0.029905116
0.0081978142 0.14926197 0.0480421
0.043171048 0.028498709 0.031804666
0.14906538 -0.011205636 0.031246673
0.03149122 0.037779883 0.033783495
0.037760317 0.032902256 0.033000648
0.046452701 0.028993249 0.032698132
0.042824715 0.027548492 0.032283448
0.0053926408 -0.027351484 0.023129042
0.087753505 0.093783915 0.04567882
0.11919656 -0.020313978 0.030895151
0.15098408 -0.016506359 0.032327119
0.066768557 0.10384341 0.047367219
0.064089864 0.10368443 0.046697464
0.041932493 0.032065496 0.034974724
0.048530579 0.027356341 0.034514476
0.067543894 0.027524486 0.035565678
0.048466563 0.10583672 0.047818996
0.068920463 0.10294583 0.048433017
0.01903066 0.055024549 0.038135003
0.018724293 0.054885939 0.038072251
0.048643202 0.024925962 0.036093809
0.050389469 0.10569091 0.048401847
0.046350271 0.10408816 0.047983624
0.044649541 0.10254149 0.048173033
0.073394865 0.10291818 0.049684647
0.071197093 0.10295949 0.049079359
0.070816696 0.10192549 0.049425349
0.018121541 0.052063972 0.039372265
0.027846485 0.039493278 0.037446082
0.035622239 0.033545062 0.037665997
0.051811427 0.10447578 0.049380843
0.04787311 0.10292985 0.048920609
0.042538047 0.10085312 0.048385866
0.053720564 0.10430957 0.049926523
0.045774609 0.10120703 0.049081579
0.044112653 0.10055776 0.048893247
0.072856039 0.10095444 0.050474927
0.085065782 0.095760345 0.050168667
0.083103985 0.094997182 0.049966954
0.039209664 0.034128815 0.038563162
0.035064101 0.03249836 0.038114056
0.053301036 -0.024881065 0.030881856
0.11642718 -0.02491498 0.034029681
0.051333755 0.10251766 0.050102528
0.049410045 0.10176757 0.04984564
0.061760515 0.10574249 0.051619507
0.059010863 0.10465004 0.051280048
0.055931449 0.10342664 0.050944816
0.077044159 0.10083107 0.051694244
0.07507956 0.10097416 0.051128417
0.074695766 0.099941134 0.051483277
0.087683111 0.095051847 0.051313482
0.11137223 -0.032213591 0.033640809
0.061330825 0.10467758 0.051961713
0.055485159 0.10236555 0.051277753
0.064257115 0.10494519 0.052640799
0.060930729 0.10362343 0.05230074
0.079188824 0.10081213 0.052412327
0.076611519 0.099786162 0.052073464
0.087117255 0.093957223 0.051678423
0.050467104 0.02790992 0.040483028
0.049839526 0.027674615 0.04039795
0.066927075 0.10509446 0.053306617
0.063701123 0.10383992 0.052965246
0.078760326 0.099752516 0.052743163
0.017833143 0.054993868 0.043818865
0.12442973 -0.024544418 0.037731372
0.069091976 0.10420192 0.054342505
0.066428393 0.10313066 0.054034021
0.068690598 0.10315422 0.054686502
0.08132273 0.099010803 0.053788409
0.080913991 0.097971834 0.054156184
0.07827574 0.097800009 0.05349578
0.077899456 0.096769184 0.053835038
0.09028694 0.092550166 0.053273242
0.089768082 0.092347503 0.053223252
0.089388072 0.091323316 0.053577617
0.089094609 0.091215819 0.05354996
0.018238813 0.054267272 0.044276718
0.017353386 0.053949937 0.044231426
0.036316693 0.027105346 0.041729935
0.055432439 0.00034287572 0.038747035
0.078992635 -0.033917218 0.035029013
0.11937457 -0.027222723 0.037927531
0.048102945 0.10503444 0.054605275
0.070975929 0.10315169 0.055291221
0.070515126 0.10208236 0.05562919
0.068283856 0.10210457 0.05501622
0.080521435 0.096936211 0.054516446
0.083308727 0.097160451 0.055235289
0.047779679 0.029940784 0.043953385
0.098329157 -0.02701962 0.037819657
0.053865641 0.1054865 0.05595018
0.049597204 0.10384861 0.055508964
0.044273555 0.10174611 0.054923214
0.042658776 0.10112205 0.054749794
0.073038727 0.10307452 0.05594724
0.085126638 0.096091114 0.056234162
0.082915008 0.096131913 0.055607155
0.046778947 0.0286998 0.044340856
0.051520079 0.10369946 0.056086473
0.047512412 0.10212001 0.055654638
0.045806468 0.10144746 0.05546321
0.042269707 0.10007411 0.055082913
0.040559024 0.099390462 0.05490157
0.058990002 0.1057568 0.057274818
0.053340107 0.10349551 0.056641631
0.051103711 0.10263893 0.056401253
0.049110383 0.10187165 0.056197956
0.04540199 0.10040055 0.055792164
0.043777466 0.099770233 0.055622835
0.041816384 0.09900637 0.055405285
0.040124029 0.098318085 0.055236522
0.03816241 0.097531706 0.054990903
0.074942678 0.1020674 0.056909855
0.072564632 0.10111377 0.056663733
0.069997221 0.10011086 0.056368425
0.074563473 0.10102651 0.05723254
0.072190642 0.10008945 0.057011243
0.087262928 0.095191248 0.057285625
0.084625512 0.094130389 0.056986831
0.092086196 0.087155186 0.056382749
0.046992987 0.027950332 0.044876102
0.069506377 0.021605521 0.045778826
0.068289965 0.021661952 0.045231704
0.065870404 0.020189211 0.045375053
0.06396094 0.019426972 0.045106076
0.058501452 0.10467947 0.057614703
0.055627584 0.10353264 0.057270903
0.046939969 0.10010162 0.056352179
0.041418016 0.097951517 0.055737332
0.061054051 0.10475545 0.05822628
0.058100402 0.10362668 0.057944942
0.055013806 0.1024019 0.057594996
0.052889138 0.10154122 0.057328098
0.076672137 0.10096524 0.057888474
0.086795688 0.09413182 0.057651736
0.086409271 0.093100786 0.05801814
0.084161431 0.093067527 0.057361592
0.091374397 0.086008035 0.056728441
0.049463451 0.027254596 0.046134476
0.061569393 0.017668366 0.04542191
0.047884315 -0.035255909 0.037345849
0.06064412 0.10369954 0.058557678
0.057712287 0.10257555 0.058267869
0.037544131 0.094613895 0.056033731
0.063553602 0.10397668 0.059255358
0.060254365 0.10265282 0.058874138
0.057333589 0.10152604 0.05857585
0.034752458 0.092636451 0.056130726
0.076158851 0.098996632 0.05862039
0.093969911 0.085288808 0.057874978
0.039827973 0.029839128 0.046936944
0.036127597 0.028359458 0.046528477
0.035822392 0.028238684 0.046489839
0.034109652 0.027589992 0.04635172
0.037666827 0.028108314 0.047190659
0.062452137 -0.040175557 0.038179889
0.066553473 0.10426056 0.059948213
0.063165784 0.10293092 0.059565712
0.059878469 0.10161741 0.059197422
0.065905362 0.10311962 0.060252834
0.062757432 0.10187075 0.059885971
0.080666751 0.098107897 0.060234301
0.080277145 0.097956955 0.060201995
0.078059226 0.097947121 0.059561737
0.077623159 0.096890502 0.059889622
0.088968247 0.091445237 0.059476297
0.093543917 0.084256403 0.058273949
0.093078077 0.083200403 0.058648244
0.074413806 0.02656728 0.049752805
0.066163778 0.023316815 0.048867337
0.06518963 0.022935063 0.048759948
0.058590949 0.020337701 0.048054747
0.051492989 0.017533556 0.047257956
0.050795943 0.017255664 0.047226932
0.060201913 0.0012659878 0.04521507
0.057967722 0.00039502978 0.044938024
0.061819226 -0.0035206527 0.044008359
0.068419814 0.10321386 0.060878292
0.070310622 0.10307249 0.061477497
0.068036437 0.10216399 0.061207376
0.065214992 0.10106247 0.060925916
0.079803467 0.09687721 0.060572349
0.083052337 0.097284913 0.061285753
0.08801648 0.089315511 0.060177617
0.069509029 0.02377969 0.049748905
0.067415178 0.022955418 0.049494788
0.06164521 0.020706534 0.04889062
0.061202407 0.020528719 0.048822425
0.059841543 0.019995585 0.048695523
0.056811631 0.018789068 0.04834703
0.053723395 0.017585292 0.048031308
0.058270514 -0.00028882921 0.045528933
0.069815487 0.1010894 0.062152758
0.069431156 0.10094166 0.062130596
0.067604452 0.10109152 0.061534312
0.082596481 0.096221328 0.061634958
0.082219988 0.095179923 0.061956123
0.095456481 0.081470594 0.060089391
0.036049247 0.031276375 0.050414734
0.063354641 0.020525008 0.049585074
0.0543437 0.016999111 0.048611689
0.053971261 0.016855523 0.048577689
0.063646913 0.019799367 0.050089087
0.053129077 -0.0031164438 0.045550529
0.045552939 0.10145395 0.061785888
0.043912321 0.10082592 0.061644215
0.040225595 0.099343732 0.061249413
0.053130597 0.10353057 0.062949806
0.051102221 0.10274801 0.062749617
0.048986167 0.10192508 0.062520146
0.047083378 0.101146 0.062320385
0.043446362 0.099750698 0.061956551
0.041561097 0.099004894 0.061716065
0.072345227 0.10119586 0.062829062
0.074573398 0.10117588 0.063397095
0.071909189 0.10013228 0.063144088
0.081839859 0.094138585 0.062308788
0.084314376 0.094201759 0.062964909
0.091229886 0.087938145 0.061739478
0.090592653 0.086801365 0.062107854
0.03564623 0.030274019 0.050845932
0.034028769 0.029650226 0.0506722
0.039554417 0.030958667 0.051739771
0.059863687 0.024636507 0.051250245
0.049867809 0.020675659 0.050132915
0.053752065 0.021388784 0.051075187
0.052680761 0.10246335 0.063302413
0.050717294 0.10169426 0.063050017
0.054929435 0.10333233 0.063520759
0.050317436 0.10064629 0.06336917
0.046678662 0.10009152 0.062631696
0.04483825 0.098928124 0.062595755
0.042951018 0.097765043 0.062621728
0.039729267 0.097344846 0.061900683
0.039145678 0.096214518 0.062163532
0.037776649 0.09658654 0.061638627
0.037350595 0.095530406 0.061961319
0.037001312 0.095392719 0.061944846
0.076302558 0.10008483 0.064391151
0.074167848 0.10010856 0.063710451
0.08653602 0.094223708 0.063632183
0.086143821 0.09317445 0.063946545
0.083916754 0.09316507 0.063317344
0.083512664 0.092133895 0.063659504
0.039802432 0.030217811 0.052235451
0.03778407 0.029388711 0.052020598
0.056889653 0.021774501 0.051909477
0.053294122 0.020370379 0.051533844
0.052378684 0.020006225 0.051398579
0.049050242 0.018688262 0.051044032
0.06009087 0.10357424 0.064755902
0.057437956 0.10254099 0.064491935
0.054445446 0.10134189 0.064172387
0.052134097 0.10045435 0.063963994
0.049906254 0.099587902 0.063669898
0.040972471 0.096072301 0.062714458
0.034645408 0.093572587 0.062028062
0.063001513 0.10383639 0.065434799
0.062610388 0.10368411 0.065406971
0.057032824 0.10148118 0.064810202
0.054038018 0.10027573 0.064477295
0.036437035 0.09338212 0.062616475
0.075928956 0.09904179 0.064697705
0.073629826 0.098105893 0.064407967
0.075484723 0.097977728 0.065028042
0.073174566 0.097043462 0.064770311
0.08897838 0.092502654 0.06498573
0.093211293 0.084324509 0.064022258
0.096895546 0.075933449 0.063223243
0.095921844 0.036299795 0.056601293
0.082673788 0.031062022 0.055205606
0.06955865 0.025912136 0.053768694
0.061376661 0.022708327 0.052880373
0.059324116 0.021915078 0.052691031
0.051557124 0.018850639 0.051865235
0.048303694 0.017572522 0.05149474
0.066791207 0.024013311 0.054015748
0.075488061 0.021137983 0.053456452
0.073201776 0.020277202 0.053221058
0.070539355 0.018391415 0.053429618
0.050086737 -0.0083453208 0.047994651
0.065437615 0.10300188 0.066443592
0.061901331 0.10161173 0.066086635
0.059582621 0.10158599 0.065427646
0.056622833 0.1004216 0.065129369
0.056332886 0.10030115 0.065083466
0.034285218 0.091632053 0.062677704
0.031936884 0.090249389 0.062659621
0.077764452 0.097946823 0.065597147
0.077355325 0.096894301 0.065925181
0.087910295 0.090319507 0.065701149
0.092832893 0.083288625 0.064367205
0.070854187 0.017681882 0.053966895
0.059890628 -0.006113559 0.050197195
0.097761065 -0.041738957 0.046629131
0.064976573 0.10192531 0.066755928
0.031283766 0.088635936 0.063109331
0.067649603 0.10206525 0.067377321
0.064404637 0.10080015 0.067043275
0.079832584 0.096996889 0.066646814
0.076919466 0.095836334 0.066272184
0.07940957 0.095934875 0.066974029
0.095372081 0.082060844 0.065616645
0.094880521 0.081429206 0.065768905
0.033868253 0.031606838 0.055063788
0.045388281 0.021013618 0.053835645
0.063236445 0.020074517 0.05511504
0.07496652 0.01843904 0.054924637
0.076532423 0.018241227 0.055610836
0.067229152 0.10099858 0.067695037
0.063849777 0.09968257 0.0673353
0.028450072 0.085764363 0.063536286
0.072155088 0.10205773 0.068596631
0.06947881 0.10101457 0.068318918
0.066814929 0.099943317 0.068010457
0.081977546 0.095166117 0.067941174
0.08162111 0.095022082 0.067890316
0.090781271 0.08876209 0.067173935
0.090307832 0.087686382 0.067512333
0.089834183 0.08750286 0.067454278
0.035419524 0.031351388 0.055715483
0.10180429 0.041483082 0.06081209
0.061571389 0.02567555 0.056501571
0.0483132 0.020475358 0.055118736
0.047211647 0.020024031 0.054955095
0.056065291 0.022669226 0.056404844
0.054391354 0.022012159 0.05622796
0.052791148 0.021376371 0.05602489
0.051218778 0.020737886 0.055890869
0.050425082 0.02042146 0.055781402
0.049789488 0.020179898 0.055692777
0.047779411 0.019411817 0.055535704
0.062860459 0.019086763 0.055561379
0.093179226 0.030184731 0.059301443
0.088840902 0.028451808 0.058813382
0.064867973 0.019053206 0.056238715
0.083782464 0.02027005 0.056893732
0.064149767 -0.0060580671 0.051724825
0.0489209 0.10277401 0.068481714
0.071769059 0.1010045 0.068894237
0.066376358 0.098878369 0.068327516
0.068663657 0.098892324 0.068927601
0.025939941 0.082069695 0.064300209
0.081209302 0.093970172 0.068225786
0.089304447 0.086415738 0.067777514
0.018429935 0.047828317 0.05914345
0.017880082 0.048513472 0.05869589
0.099559933 0.070849456 0.066472322
0.058471292 0.022760734 0.057132307
0.056324452 0.021932274 0.056931913
0.055323929 0.021532148 0.056814957
0.053332567 0.020745412 0.056580272
0.081849545 0.02486299 0.058572061
0.083663702 -0.045739725 0.048396841
0.048391312 0.10076094 0.069117233
0.046724379 0.10009383 0.068924353
0.041114181 0.097898886 0.068323612
0.071264267 0.099005893 0.069549695
0.025471836 0.080996081 0.064611971
0.073325574 0.098916657 0.070173278
0.070800453 0.097924344 0.069855355
0.086217314 0.094156705 0.069526359
0.08359769 0.093132868 0.06924051
0.085824668 0.093104221 0.069845341
0.096996397 0.077003323 0.068453789
0.096274108 0.0767285 0.068394452
0.018253863 0.046000034 0.059943825
0.099038064 0.068904579 0.06724526
0.10175294 0.045162074 0.064055517
0.10209423 0.045287699 0.064076856
0.051137388 0.02523756 0.058578286
0.091581702 0.034100622 0.061683405
0.055490524 0.019905031 0.05779925
0.085775703 0.025597915 0.059512943
0.084188312 0.02497305 0.059307449
0.068647951 0.018841282 0.057649996
0.064351887 0.017168716 0.057171617
0.081046104 0.022881329 0.059479799
0.079567194 0.02231735 0.059344467
0.075136125 0.02055718 0.058858603
0.07302022 0.019750312 0.058621839
0.039069623 -0.045528606 0.046991833
0.054146528 0.10118915 0.07039687
0.052281141 0.10138649 0.069896221
0.051891297 0.10032958 0.070169672
0.049971581 0.10049045 0.069624923
0.047883183 0.098749906 0.069738001
0.046269715 0.09901686 0.069215879
0.044647098 0.098387986 0.069039248
0.04303214 0.097763911 0.068865828
0.042732 0.097643211 0.068835549
0.042275757 0.096563756 0.069125302
0.04058367 0.095875308 0.068956621
0.038881421 0.096093133 0.068397328
0.036580592 0.094301641 0.068530694
0.034740567 0.093576461 0.068276703
0.056419641 0.1011979 0.070974186
0.053707659 0.10011395 0.070692271
0.04414463 0.096388355 0.069673643
0.038178474 0.094014212 0.068994425
0.036165327 0.093239799 0.068819702
0.034254909 0.092492357 0.068607338
0.075628579 0.09894415 0.070758127
0.075222373 0.09788461 0.071070835
0.085319817 0.091110289 0.070538163
0.09288168 0.083396554 0.070100188
0.018430144 0.055008754 0.06171431
0.096522391 0.075936928 0.068823308
0.044474155 0.021751031 0.058327083
0.097794831 0.035688221 0.062810615
0.095769584 0.034890555 0.062603682
0.088876098 0.032162152 0.061845787
0.095011294 0.033735126 0.063027084
0.093375444 0.033115074 0.06283094
0.068377078 0.023255467 0.060112149
0.079009682 0.021261305 0.059787493
0.076704979 0.020342261 0.05951171
0.076302886 0.019333854 0.05996763
0.068070918 0.016099036 0.059065662
0.065754116 0.01520969 0.058850098
0.061806411 0.013655007 0.058435865
0.062536061 -0.0053805262 0.055652287
0.049773157 -0.015722424 0.052971121
0.059595048 0.10156097 0.071677886
0.059065163 0.10136075 0.07164444
0.058554441 0.10116042 0.071599528
0.055991232 0.10013891 0.071289062
0.049072564 0.097428173 0.070543669
0.037765294 0.09295024 0.069294542
0.035763025 0.092172951 0.069111198
0.03384465 0.091436237 0.068909973
0.06176874 0.10149828 0.072278485
0.061414778 0.10135003 0.072211638
0.033437282 0.090373084 0.0692055
0.031419665 0.089540035 0.068956666
0.074838638 0.096831128 0.071361169
0.076945513 0.096757635 0.071984738
0.087862074 0.091241464 0.071210384
0.084900886 0.090050839 0.070863135
0.087258846 0.090111896 0.071510471
0.092435241 0.082337767 0.070437327
0.092116386 0.082210265 0.070399493
0.094796658 0.082376711 0.071093805
0.035455704 0.032440618 0.060593635
0.033254266 0.031563312 0.060309775
0.10394758 0.051413998 0.066656068
0.047382534 0.022072256 0.059117917
0.045387387 0.021292999 0.058912605
0.045008749 0.021122664 0.058870498
0.044057131 0.020737171 0.058751721
0.042384267 0.020112693 0.058621094
0.041781783 0.019879669 0.058526259
0.046981364 0.021060959 0.059549443
0.092688888 0.031994149 0.063229933
0.090627313 0.031193733 0.063046336
0.089023292 0.03052254 0.062819578
0.060463309 -0.0070388019 0.055969246
0.063908488 0.10054763 0.073175177
0.061001837 0.10028236 0.072510228
0.05807054 0.099158242 0.072220355
0.030909389 0.087539241 0.069591567
0.07930097 0.096322253 0.07276915
0.076516956 0.095697731 0.072304673
0.076112181 0.094648063 0.07262376
0.086678833 0.088995457 0.071830004
0.094067067 0.081225477 0.071428843
0.093427718 0.080093481 0.071764737
0.10416374 0.050647922 0.067139879
0.040570736 0.024773985 0.060768854
0.039574355 0.024383932 0.060654331
0.047894508 0.020571768 0.060114745
0.043549687 0.018830046 0.05963394
0.039996594 0.01747705 0.059242401
0.049786359 0.020455047 0.060763791
0.092916578 0.031235173 0.063738242
0.090884149 0.030439518 0.06355352
0.086620897 0.028769374 0.063104466
0.084385812 0.027879857 0.062810197
0.067880154 0.021370694 0.061043851
0.066174269 0.020729408 0.06089047
0.056251049 0.016813144 0.05980796
0.083955139 0.026866034 0.063261032
0.070871413 0.021720722 0.06190544
0.06281811 0.018550664 0.061011534
0.060536176 0.017651275 0.060747921
0.059892088 0.017400727 0.060668625
0.058092326 -0.0095800459 0.056779247
0.063516706 0.099489823 0.07345292
0.028462052 0.085705757 0.069707185
0.069510072 0.10095653 0.074469015
0.066254079 0.099666752 0.074107364
0.027902275 0.084573075 0.069976091
0.078716993 0.094743766 0.073214322
0.081173837 0.094831616 0.073834196
0.083808571 0.094982713 0.074493758
0.089462519 0.088283971 0.072846293
0.089081675 0.087245539 0.073172882
0.040182561 0.023758724 0.061174087
0.047409117 0.025713548 0.062388361
0.097975463 0.038567126 0.066426694
0.086775839 0.027151458 0.06409499
0.081876129 0.02518326 0.063522682
0.081225246 0.024935305 0.063443333
0.07285884 0.021657631 0.062546283
0.072356761 0.021460816 0.062492847
0.070124745 0.020570382 0.062300295
0.063331515 0.017895103 0.061560888
0.085443377 0.02575548 0.0643797
0.078968436 0.023215547 0.063707799
0.075214177 0.021735445 0.06329447
0.067235976 0.018593103 0.062457349
0.061560035 0.016367078 0.061820988
0.058072537 0.014988035 0.061431788
0.054926157 -0.016913369 0.055766422
0.052507579 -0.018695042 0.056038842
0.068672419 0.098809995 0.075030826
0.027217209 0.082490325 0.070558183
0.083393186 0.093923755 0.074807726
0.088357598 0.086072467 0.07346496
0.096241772 0.077634834 0.073576279
0.01723358 0.04745625 0.064714491
0.0992378 0.070838138 0.07193362
0.098613203 0.070593826 0.071859941
0.09851414 0.069677591 0.072248176
0.0416345 0.022600815 0.062234018
0.10403416 0.046288848 0.069406629
0.10314894 0.045927852 0.069272935
0.0451864 0.023100466 0.063057467
0.039628357 0.02095823 0.062467758
0.095822632 0.035996124 0.067154124
0.057305992 0.021710292 0.062530436
0.05503428 0.020826742 0.062296361
0.052349538 0.019340038 0.062239096
0.051792234 0.018686444 0.062433999
0.080777377 0.023069039 0.064334594
0.078399926 0.022149205 0.064137951
0.076441973 0.021350741 0.063897774
0.074627012 0.020665407 0.063716456
0.06823042 0.018118054 0.062991902
0.065248907 0.016976297 0.062711634
0.063560873 0.01628682 0.062528312
0.061925501 0.015666798 0.06235601
0.05927512 0.014620721 0.062068861
0.056944042 0.013690621 0.061794534
0.05600512 -0.0067480057 0.059045367
0.053640872 -0.0076907277 0.058772683
0.062485188 -0.0094748735 0.058364108
0.046390325 0.099836051 0.075152978
0.073457778 0.099782839 0.075920284
0.070725083 0.098718159 0.075611144
0.068285733 0.09774816 0.075327247
0.067942709 0.097603016 0.075290799
0.025491476 0.080923095 0.070718199
0.07307905 0.098740131 0.076218955
0.0828439 0.09191452 0.075471312
0.082463503 0.090860665 0.07576023
0.10167444 0.044483125 0.069616623
0.049549401 0.023996621 0.064010784
0.042558104 0.022098169 0.06281355
0.097421676 0.035789378 0.067777827
0.095050484 0.034846783 0.067534164
0.053099096 0.018345013 0.062990621
0.050005466 0.10036236 0.075872913
0.047924668 0.099519774 0.075663656
0.045979559 0.098762691 0.075429559
0.044338673 0.098134533 0.075287893
0.040652782 0.096652493 0.07489308
0.056160301 0.10187322 0.076888062
0.053710401 0.10088503 0.076575726
0.051903784 0.10018474 0.076390438
0.047507524 0.098443419 0.075931177
0.045578212 0.097696379 0.075705349
0.042306513 0.096424878 0.075363174
0.040243685 0.095575526 0.075164318
0.070058137 0.096649885 0.076207332
0.024983287 0.078925759 0.071348354
0.072585762 0.096744612 0.076850802
0.084945202 0.090908907 0.076401055
0.084241867 0.089742199 0.07667698
0.092212707 0.083134167 0.075754687
0.027053595 0.029220209 0.064908862
0.045952648 0.020856857 0.064533606
0.043352008 0.019810796 0.064204127
0.086426318 0.02975025 0.067527071
0.058055907 0.018578693 0.064467065
0.057314783 0.018291235 0.064396299
0.061222672 0.10201925 0.078038298
0.055636168 0.09984228 0.077454895
0.053101778 0.099749312 0.076880306
0.051432222 0.099100664 0.076674469
0.050889254 0.097978413 0.076928116
0.049127281 0.098204762 0.076424457
0.04709956 0.097377688 0.07620956
0.046691537 0.096314594 0.076483145
0.043572456 0.095571622 0.076024011
0.039709508 0.093544871 0.075735778
0.037766814 0.092805058 0.075506441
0.03741768 0.092667326 0.075489938
0.035812378 0.092946291 0.07498046
0.035153627 0.091780931 0.075225949
0.034975946 0.091707572 0.075181767
0.07480976 0.096712716 0.077386141
0.072146565 0.095669203 0.077133223
0.024262369 0.076835901 0.071972169
0.076341242 0.096421577 0.077927493
0.074400425 0.095633477 0.077666931
0.078922421 0.0965067 0.078524984
0.07394883 0.094546542 0.077968642
0.086680114 0.088933848 0.077685714
0.091824979 0.082085535 0.076069675
0.091107041 0.081797265 0.076012209
0.032659918 0.029673219 0.06640546
0.034037292 0.023202986 0.064764574
0.034231514 0.022418484 0.065266296
0.043586075 0.019031465 0.064677939
0.094435871 0.031196445 0.069338828
0.070028305 0.021583363 0.066725031
0.06610775 0.0200665 0.0662935
0.048811108 0.013251588 0.064415075
0.077382416 0.017513484 0.066425256
0.058029532 0.099875897 0.078029074
0.055161566 0.098729089 0.07772696
0.052549511 0.097717986 0.077476114
0.034797549 0.090730876 0.075488456
0.033399045 0.090199038 0.075379461
0.060747325 0.10002147 0.078626513
0.057443023 0.098733388 0.078289524
0.054764986 0.09766078 0.077998668
0.03296572 0.089104488 0.075666323
0.032642305 0.088970855 0.075639449
0.031015903 0.088338345 0.075442627
0.063622266 0.10025769 0.079265922
0.063316852 0.10014383 0.079228237
0.060315609 0.098948419 0.078896448
0.030545473 0.08725822 0.075728297
0.078481376 0.095431909 0.07880412
0.07580182 0.094406508 0.07855577
0.022447348 0.073376596 0.072787002
0.081043154 0.095558703 0.079447404
0.078077346 0.094363801 0.079092219
0.086283326 0.087871961 0.07796777
0.08920151 0.088108949 0.078595132
0.093528003 0.080977857 0.077051453
0.093145877 0.079929054 0.077364132
0.025146991 0.034617245 0.067181319
0.025420964 0.033847079 0.067626461
0.1032362 0.047786437 0.073499724
0.093648076 0.04403352 0.072501808
0.042406082 0.023874938 0.066972658
0.038016945 0.022132128 0.066513777
0.045379072 0.01803717 0.065800279
0.05151394 0.01956673 0.066905059
0.096021473 0.030969203 0.069958791
0.094062835 0.030200079 0.069750339
0.089725465 0.028467394 0.069255188
0.080509394 0.024871573 0.068315163
0.07644704 0.022395372 0.068342805
0.074612081 0.022562236 0.067678228
0.064388096 0.018500447 0.066534847
0.059268892 0.016521111 0.0660308
0.058378547 0.01530458 0.066371009
0.054002792 0.014442518 0.065448366
0.057758033 -0.017043352 0.061636969
0.066166312 0.10035919 0.079893269
0.065748304 0.099286824 0.080171242
0.062607616 0.098507792 0.079673856
0.062041521 0.097824983 0.079795629
0.029979289 0.08613348 0.075985707
0.029415011 0.085001618 0.076253027
0.080566376 0.094461188 0.079768747
0.02197507 0.071386337 0.073387206
0.088381618 0.086899251 0.078914858
0.088056713 0.086769596 0.078882068
0.096109569 0.078397252 0.078754529
0.098200381 0.071312591 0.076893978
0.099710852 0.062211856 0.076020814
0.1001071 0.044836998 0.074048713
0.04156673 0.021814227 0.067750603
0.05279243 0.019233599 0.06748797
0.047525257 0.017157272 0.066920444
0.09126693 0.02739203 0.07039912
0.088940769 0.026445486 0.070113316
0.086536884 0.024684288 0.070382729
0.07930702 0.021834567 0.069578841
0.077323049 0.02104497 0.069352448
0.068764806 0.017670661 0.068417087
0.06481874 0.016133651 0.067990765
0.060867518 0.01457341 0.067571752
0.07087931 0.011571869 0.067645282
