# .PCD v0.7 - Point Cloud Data file format
VERSION 0.7
FIELDS x y z
SIZE 4 4 4
TYPE F F F
COUNT 1 1 1
WIDTH 1018
HEIGHT 1
VIEWPOINT 0 0 0 1 0 0 0
POINTS 1018
DATA ascii
0.35632226 0.059291497 -0.028765056
0.3151173 0.046386942 -0.027774731
0.29771468 0.051798202 -0.027360424
0.30177107 0.059047513 -0.027723491
0.23481083 0.048029169 -0.024399607
0.22671831 0.051822491 -0.021372043
0.14336395 0.050288223 -0.020026535
0.27276987 0.051748298 -0.021597981
0.12448353 0.044871576 -0.018547002
0.32175273 0.052978583 -0.022399947
0.27993789 0.04943271 -0.02114928
0.32872084 0.050032444 -0.020811373
0.26203951 0.05150564 -0.019457806
0.21063477 0.051356815 -0.018762292
0.1728082 0.050342523 -0.017074455
0.16617131 0.048237897 -0.016853979
0.21618555 0.050853446 -0.017776197
0.26781321 0.051152229 -0.017455027
0.25133497 0.051082995 -0.017037161
0.22187588 0.050721262 -0.016774468
0.18788646 0.048356317 -0.015601662
0.16000901 0.049002849 -0.01495379
0.11434577 0.047339555 -0.01356706
0.10829279 0.043762799 -0.013868957
0.34827957 0.049281105 -0.018773396
0.33517331 0.047537915 -0.018368157
0.30362317 0.05057431 -0.017212959
0.25788903 0.049462885 -0.016551305
0.20637703 0.048638836 -0.015515335
0.20056984 0.049634311 -0.015486255
0.19463558 0.050228383 -0.015211876
0.15287694 0.046953969 -0.013541325
0.13178481 0.045749445 -0.013062346
0.095328331 0.052253697 -0.012802357
0.29259804 0.050456621 -0.016219506
0.27451515 0.052475333 -0.015329074
0.24757484 0.048337959 -0.014755255
0.18120463 0.049873959 -0.013532858
0.31404805 0.055491582 -0.015744129
0.28163916 0.050147019 -0.014808877
0.24066791 0.050487693 -0.014327137
0.18780282 0.052716743 -0.012550752
0.14453043 0.052113429 -0.011889361
0.34404176 0.050829433 -0.015346154
0.30917397 0.049790487 -0.014244111
0.29910478 0.048364505 -0.014577096
0.168033 0.049214214 -0.011103679
0.31974348 0.050396957 -0.014130561
0.28814542 0.048192143 -0.013460922
0.13986835 0.045768958 -0.0099036461
0.33965755 0.049149036 -0.013033642
0.23611826 0.049002923 -0.010689436
0.15276431 0.051647492 -0.0094558224
0.35024074 0.049501605 -0.011979527
0.31539515 0.04860016 -0.01166648
0.25969106 0.050490782 -0.010536042
0.21416001 0.049509831 -0.0091414964
0.201841 0.051458087 -0.008642179
0.11620282 0.048045617 -0.0074553541
0.32548872 0.049917281 -0.010790289
0.22881883 0.051333893 -0.0091708582
0.21952271 0.048933752 -0.0080702556
0.20759821 0.050467703 -0.0086191408
0.1762224 0.048774689 -0.0077372631
0.1075537 0.049235016 -0.0057361284
0.089696385 0.047249667 -0.0049124961
0.29434577 0.051552802 -0.0096526761
0.27214947 0.047636613 -0.0081782378
0.26536953 0.050156407 -0.0084695369
0.22556958 0.04834938 -0.0076611582
0.30093622 0.049823381 -0.0080400566
0.2555187 0.048454773 -0.0076267961
0.24852169 0.050505031 -0.0075330241
0.16297148 0.047547296 -0.0051170904
0.12617263 0.044843443 -0.0041320506
0.33147398 0.048346974 -0.0078115822
0.29000551 0.04966075 -0.0070536537
0.19780849 0.049013287 -0.0053630015
0.14821137 0.049565017 -0.0041295025
0.13514222 0.044124737 -0.0037944892
0.10068484 0.046877403 -0.002251714
0.24440929 0.048499942 -0.0045735599
0.23162811 0.05142178 -0.0049379328
0.19116804 0.050530557 -0.0036157477
0.18428859 0.04820827 -0.0039659855
0.080739319 0.047749758 -0.0012563935
0.34162584 0.049620628 -0.0064545404
0.30652565 0.049227171 -0.0050443662
0.27821994 0.050711796 -0.0045581227
0.26131529 0.051317632 -0.0044868649
0.23745313 0.050428234 -0.0042189118
0.17831436 0.049617141 -0.0027171504
0.17146592 0.046931583 -0.0026953481
0.15639539 0.049445078 -0.0015587502
0.33775055 0.047352701 -0.0046442356
0.2967833 0.051207557 -0.0043737125
0.20926544 0.052093152 -0.0025007164
0.14314112 0.044504151 -0.00046732873
0.11992317 0.046059594 0.00043703424
0.10941898 0.050077233 0.00021820761
0.28416005 0.049406879 -0.002633288
0.26741803 0.050481774 -0.0030386562
0.2506454 0.050855912 -0.0022977313
0.2273068 0.049083441 -0.0019785955
0.22108085 0.050641734 -0.0018380375
0.1280923 0.045471787 0.0012352034
0.34783849 0.048548937 -0.0030686341
0.31307614 0.047425501 -0.0030019502
0.27366877 0.048495457 -0.0019740672
0.25669199 0.049991012 -0.0010433299
0.20534351 0.048903368 -7.8091747e-05
0.32316351 0.048808672 -0.0020627899
0.21718442 0.047540769 0.00053645857
0.19924568 0.050313085 0.00061294762
0.18639371 0.049247302 0.0011436843
0.091057867 0.048456497 0.0037974215
0.33339563 0.048873514 -0.0013764922
0.24642771 0.048797809 0.00056167529
0.18014462 0.050139699 0.0023316338
0.31853613 0.046707995 0.00030912692
0.3088527 0.048966601 0.00044709863
0.17267941 0.048639752 0.0038218689
0.15804784 0.05045107 0.0040041544
0.32862639 0.048136152 0.001448534
0.2865952 0.04925815 0.0025192364
0.22897393 0.049908195 0.0036758184
0.1947111 0.048289899 0.004619102
0.33960256 0.047865167 0.0018601655
0.31797451 0.051754721 0.0024317657
0.2416507 0.047210377 0.0040594935
0.22611395 0.04635644 0.0044542048
0.15338822 0.044308666 0.0060886517
0.13521259 0.04741919 0.0068632937
0.13018212 0.046553984 0.00664869
0.30408344 0.047922328 0.0034826109
0.29357442 0.047067396 0.0034792563
0.27518857 0.049606666 0.0042264862
0.18829797 0.050187256 0.006261406
0.14393722 0.046806134 0.0075556533
0.11057074 0.051485941 0.0080714859
0.31405118 0.049325168 0.0042360816
0.25788888 0.051952794 0.0055002724
0.23415384 0.050699718 0.0056995144
0.10330451 0.045808814 0.0089002578
0.32406119 0.050760269 0.005291434
0.28132099 0.048747741 0.0062160715
0.21810418 0.0498234 0.0073800012
0.21204506 0.051399563 0.0076732389
0.20597082 0.05164846 0.0074025341
0.16810921 0.047259025 0.0087876571
0.13561387 0.050900642 0.0093974434
0.1204555 0.048794851 0.01005892
0.34507009 0.047204524 0.0058557438
0.27059519 0.048743002 0.0074179368
0.24718173 0.051292665 0.0076333182
0.13267031 0.046849925 0.010307209
0.10369977 0.048896804 0.011504255
0.31004587 0.051380135 0.007614973
0.29960716 0.050559662 0.0074835708
0.25367159 0.049995631 0.008302209
0.1233477 0.047976334 0.01180194
0.083182521 0.047554191 0.013249486
0.32993418 0.049363643 0.0083606765
0.24302375 0.049368635 0.01048711
0.2019275 0.049562361 0.010482395
0.18287598 0.049066663 0.011749661
0.16128191 0.048724197 0.01203236
0.15250009 0.050128821 0.011666694
0.1407398 0.047192566 0.012670822
0.30508232 0.050141811 0.010540548
0.29417822 0.049915828 0.011091514
0.26544264 0.048233524 0.011277137
0.22603637 0.0497967 0.012767391
0.19781838 0.047255445 0.013619888
0.14758822 0.044702955 0.014443962
0.11634551 0.04578707 0.014735025
0.093469642 0.047548167 0.015646586
0.04918161 0.057398614 0.01613077
0.35016057 0.047560006 0.010432389
0.28282118 0.050207987 0.012459701
0.1916246 0.04813778 0.014400225
0.17894675 0.046965912 0.014941043
0.083614975 0.050836436 0.016916366
0.0087972581 -0.0019467548 0.020296093
0.33562222 0.049270593 0.012115682
0.27239168 0.049217239 0.012918296
0.26218143 0.048240747 0.01381135
0.25553742 0.050539609 0.01350473
0.23811378 0.047696326 0.013870326
0.23897904 0.050608277 0.014418251
0.23154201 0.049802624 0.014257947
0.20981088 0.049579795 0.015282166
0.17720294 0.045024052 0.015815418
0.043733668 -0.00028344989 0.020436464
0.013211038 0.00031942129 0.021399073
0.010354679 0.00087795407 0.021197798
0.0058068 -0.0012199283 0.021111473
0.0017847754 0.0093374699 0.021376165
0.32200879 0.049272723 0.013299214
0.2897833 0.048135154 0.013519769
0.21554275 0.048808672 0.015782734
0.20348516 0.050476983 0.015739357
0.17146376 0.045185301 0.016347965
0.14781602 0.048267968 0.01682023
0.038989339 -0.0019060895 0.021669157
0.060318682 0.04810169 0.018908696
0.031094044 0.0022350922 0.021526216
0.024021652 -0.0039886311 0.022234861
0.025371764 -0.0015916228 0.022050321
0.027831424 0.002662167 0.02192555
0.022339843 -0.0011968985 0.021633081
0.026148833 0.0054535195 0.021323401
0.028933194 0.010372184 0.021046005
0.01907447 -0.00094336271 0.022172658
0.021876074 0.0041029379 0.021892499
0.023103729 0.0062125325 0.021851739
0.025771264 0.010858461 0.021682274
0.031029772 0.020266712 0.02121947
0.01490628 -0.0024733171 0.021827251
0.017385293 0.0018440485 0.021687649
0.020186502 0.0068898872 0.021408333
0.02362632 0.018930785 0.021565057
0.012688041 0.0053172857 0.022000607
0.016692463 0.012541905 0.021604354
0.019148655 0.016795866 0.021472864
0.0097162053 0.0059660822 0.021709118
0.012193706 0.010283276 0.021569856
0.016221978 0.017439537 0.021248169
0.018888254 0.022081465 0.021074548
0.0052041262 0.003754802 0.021715406
0.011936355 0.015713245 0.021215172
-0.001458142 -0.0022667646 0.021976966
0.0010539815 0.002226077 0.021737685
0.0023075044 0.0044072196 0.021652782
0.0051404461 0.0092985332 0.021424204
-0.0018932223 0.0028622448 0.022706954
0.015047384 0.03286865 0.021285895
-0.0024224296 0.0077992827 0.022511633
-0.0011711828 0.009979181 0.022426173
0.0016572885 0.014865905 0.022197038
0.0028298832 0.017118469 0.022029303
0.0053054877 0.021435373 0.02189046
-0.0016896427 0.014895029 0.022264373
0.002387438 0.022030093 0.021978913
0.0050387643 0.026847176 0.02176328
0.0076238327 0.031368632 0.021541465
-0.0027070157 0.065893099 0.020460848
0.34561405 0.050608248 0.013852742
0.29733711 0.048510239 0.015258214
0.2784816 0.048503235 0.014956804
0.17849942 0.0072209435 0.018659569
0.20060618 0.046634685 0.01664941
0.18751186 0.045933366 0.017489791
0.039455988 -0.0068544224 0.022625808
0.04594098 0.0047738329 0.022087459
0.048578288 0.0094010755 0.021892222
0.03578382 -0.00091362745 0.022825181
0.038221505 0.0034973398 0.022637287
0.042268779 0.010714881 0.022288892
0.047530711 0.019966062 0.021866303
0.028871633 -0.0073116645 0.022449335
0.031334449 -0.0030543208 0.022326447
0.035315495 0.0040280744 0.021990493
0.02827568 -0.0022626147 0.022669829
0.032291468 0.0048010051 0.022306742
0.03472808 0.0092099458 0.022119828
0.037479088 0.014033135 0.021969916
0.031674713 0.0098842829 0.022569621
0.034386214 0.01471027 0.022360858
0.03566264 0.016950291 0.022292003
0.036959972 0.019347712 0.022094868
0.040871095 0.026141129 0.021864163
0.030001696 0.012661003 0.021970201
0.029431731 0.017790988 0.022287752
0.032183699 0.022615097 0.022137735
0.047817241 0.050418556 0.020772677
0.02531429 0.016154058 0.021991255
0.030502908 0.025387269 0.02165485
0.017033454 0.0073604733 0.022152383
0.019613497 0.011870913 0.021929689
0.02228038 0.016515017 0.021758128
0.025958542 0.023418516 0.022370599
0.03000612 0.030637451 0.022026828
0.032648697 0.035268579 0.021823084
0.023040671 0.023945861 0.022127487
0.027026234 0.031010013 0.021852486
0.029512016 0.035509109 0.021576647
0.032234311 0.040200152 0.021420298
0.020146195 0.024545427 0.021878144
0.022584207 0.028956201 0.021692742
0.0092069134 0.010925025 0.022428457
0.015667412 0.022403359 0.021901095
0.019656911 0.029490706 0.021561455
0.022363072 0.034309346 0.021355849
0.013212442 0.018148981 0.022035109
0.0062375367 0.011564419 0.0222531
0.0087140016 0.015881404 0.022114046
0.015407372 0.027678091 0.021616329
0.0057443269 0.01648099 0.023088191
0.0083956942 0.021300346 0.022871913
0.012204677 0.027959045 0.022561219
0.016195804 0.035047241 0.02222066
0.0080537573 0.026465856 0.022615599
0.011947103 0.033219531 0.022389023
0.015729735 0.040046815 0.022016326
0.0088062286 0.033481989 0.022451138
0.011589106 0.038394317 0.022174072
0.015501719 0.045384664 0.021905975
0.018074239 0.050022889 0.021650832
0.019270614 0.052135315 0.02156272
-0.0017687157 0.020411961 0.022199932
0.0018854626 0.02698683 0.021894377
0.0046835244 0.032027509 0.021622479
0.0059123933 0.034143735 0.021571716
-0.0023018718 0.02544266 0.022120209
0.0016126558 0.032391939 0.021880411
0.0054215826 0.03905471 0.02156922
0.0012554564 0.037568487 0.021855518
0.0051478762 0.04432052 0.021621054
0.00076921284 0.042451631 0.022003708
0.0019902922 0.044588864 0.021913541
0.0047724061 0.049498502 0.021636469
-0.0021758694 0.043093298 0.022315793
0.0042704158 0.054439735 0.021827076
0.0013261251 0.055126704 0.021214476
-0.0017373674 0.055476032 0.021769205
0.00081785023 0.060072422 0.021519409
0.0047979336 0.067132354 0.02125006
-0.0021536238 0.060787629 0.021027273
0.0013131667 0.072793603 0.02117883
0.31714135 0.0032753013 0.017044811
0.34190726 0.047182292 0.015023421
0.26772878 0.048237607 0.016064417
0.25066224 0.04908314 0.016811881
0.22795939 0.050282307 0.017663794
0.15864113 0.043927293 0.018750984
0.16253695 0.050912973 0.018363209
0.10374621 0.013389789 0.021562159
0.086535327 0.0051905103 0.02240476
0.078012012 0.010104604 0.021694837
0.078884855 0.012469392 0.022525204
0.071840666 0.0064052306 0.022451431
0.078505546 0.018287435 0.021861309
0.081169046 0.022848267 0.021730969
0.062616207 0.0034785382 0.023063317
0.065555789 0.0085845813 0.022897813
0.070708074 0.017651886 0.022479897
0.074544817 0.024704371 0.022051426
0.059506044 0.0042634718 0.022923995
0.062250957 0.0090846494 0.022742612
0.064740293 0.013544336 0.022517893
0.053921241 0.0006204322 0.023034051
0.058905978 0.0095379688 0.022606989
0.055806559 0.010299802 0.022602644
0.061040975 0.019580554 0.022197168
0.070278965 0.036004983 0.021442493
0.04878208 0.0041087121 0.022963133
0.055213206 0.015543781 0.022420384
0.060470194 0.024882417 0.02199889
0.052127272 0.016278312 0.022548899
0.057361819 0.025558889 0.022144048
0.060091227 0.030390136 0.021883199
0.036092758 -0.0060926899 0.023854582
0.042628203 0.0055535436 0.023318741
0.045113575 0.010053452 0.023041906
0.047836997 0.014745239 0.022894377
0.05154324 0.021487515 0.022499129
0.054479495 0.026597861 0.022334408
0.056799307 0.030825652 0.022077924
0.044740576 0.01552394 0.023061119
0.048473544 0.022190571 0.02275813
0.051215839 0.027007125 0.022577301
0.053708214 0.031470958 0.022353899
0.056436982 0.03630216 0.022092303
0.062943593 0.047894157 0.021598876
0.037869263 0.009020716 0.022754481
0.041631319 0.015761372 0.022407938
0.041266937 0.021210387 0.022550795
0.043890767 0.025834017 0.022325359
0.04774145 0.032691646 0.022067698
0.03800692 0.021586586 0.022995476
0.043192834 0.030779742 0.022573616
0.047367811 0.038131915 0.022288421
0.049687825 0.042355858 0.022031998
0.052526083 0.047195688 0.021862704
0.036341239 0.024345923 0.022400478
0.039065156 0.029038381 0.022248693
0.041528672 0.033541802 0.021978023
0.044270299 0.038357042 0.021797366
0.035999246 0.029749665 0.022727203
0.040970806 0.038652297 0.022304799
0.043902684 0.043764275 0.022141075
0.03168498 0.027875375 0.022449834
0.036951207 0.037129834 0.022022257
0.039298698 0.041409519 0.02182493
0.043296743 0.048454117 0.021542691
0.046022553 0.05328317 0.021279193
0.027433123 0.02600047 0.022288382
0.036279365 0.042016033 0.022512181
0.041514494 0.051296026 0.022110447
0.033492438 0.042721957 0.022224572
0.035839647 0.047002293 0.022027727
0.041091118 0.056337483 0.021607189
0.026544124 0.036222354 0.022345388
0.029187467 0.040853802 0.022139877
0.023563737 0.036587808 0.022283731
0.012673046 0.023056448 0.022789478
0.019121287 0.034523591 0.022239044
0.023167321 0.041740242 0.021898016
0.018900206 0.039863363 0.022016009
0.02260771 0.046615042 0.022670627
0.018482141 0.044871811 0.021864049
0.022369111 0.051883139 0.022466352
0.043168567 0.08871147 0.020829024
0.0085441452 0.038739506 0.0223906
0.011096729 0.043330967 0.022139054
0.012326708 0.045567513 0.022019902
0.0150792 0.050392702 0.021867093
-0.0010616705 0.027521566 0.023093594
0.008180989 0.043910135 0.022290355
0.012093803 0.05090005 0.022022283
0.014666248 0.055538669 0.021768924
0.015864477 0.057653494 0.021679372
0.021055516 0.066851869 0.021253906
-0.0015560165 0.03245835 0.023123225
0.0076873004 0.048843361 0.022367537
0.0089163668 0.051078975 0.022249768
0.011668909 0.05590437 0.022096436
0.015606083 0.062924489 0.021700485
0.018230446 0.06754826 0.021476831
-0.0018236451 0.037838619 0.023221308
0.0086806342 0.056402855 0.022364786
0.01125307 0.061041787 0.0221132
0.015171606 0.067847639 0.021854701
0.017644741 0.0723579 0.021596231
0.0017160419 0.049844999 0.022077443
0.0082512461 0.061500203 0.021556847
0.01074666 0.06590499 0.02227838
0.012192475 0.068419047 0.022156063
0.014816889 0.073042989 0.021932544
0.017162899 0.077327296 0.021738432
-0.0026618689 0.047967337 0.022575548
0.0037827846 0.059429012 0.02202489
0.0052529369 0.062001213 0.021939799
0.0078252237 0.066640601 0.021689979
0.011744959 0.073448136 0.021427834
-0.0031574592 0.052851602 0.022855444
0.0073125474 0.071508676 0.021968391
0.011381662 0.078644514 0.021622388
0.013727518 0.082929611 0.021428809
0.016625028 0.088012435 0.021263888
0.00032226183 0.065061718 0.021833921
0.0043638833 0.072272167 0.021500384
7.022731e-05 0.070378482 0.022234419
0.0038469154 0.077141598 0.021892808
0.0065638507 0.081828967 0.021719685
0.010260723 0.088561222 0.02135358
-0.0031675212 0.070719972 0.0218792
0.00087330025 0.077929288 0.021547034
-0.0034832731 0.076218843 0.021414949
0.00029506907 0.082984746 0.021073731
6.8331137e-06 0.088237882 0.021612544
0.35253799 0.043236487 0.015314
0.31344306 -0.00016428903 0.018234296
0.32783136 0.04805585 0.016380887
0.31687889 0.047956593 0.016068
0.22018331 0.050251603 0.018327298
0.21275295 0.049245752 0.018580306
0.18815081 0.017677056 0.02040408
0.19200967 0.047034469 0.019615099
0.17123695 0.049571253 0.019275513
0.15394919 0.037943359 0.02072804
0.12418021 0.010711387 0.021698449
0.14393871 0.045630313 0.020278675
0.12499969 0.013313126 0.0223796
0.13682668 0.034418747 0.021363473
0.11291075 0.0070316866 0.02210344
0.11906193 0.018967848 0.022380253
0.11163495 0.013320168 0.022517597
0.11799988 0.024726193 0.02190721
0.10817268 0.014708482 0.022361645
0.10723304 0.020505222 0.022121342
0.090157308 0.012261748 0.023100609
0.09295164 0.017306101 0.02280269
0.084116876 0.0090197846 0.023498399
0.10254304 0.041625239 0.022022771
0.078416958 0.0050694905 0.02331472
0.088935688 0.023866681 0.02238871
0.097910024 0.039784987 0.021705478
0.076544449 0.0081574768 0.022768224
0.085586764 0.025094371 0.022868982
0.092070147 0.036613643 0.022349784
0.098550737 0.048133612 0.021772867
0.075647786 0.013818119 0.023050822
0.082153663 0.025294941 0.022584459
0.084951706 0.030346142 0.022285894
0.065965988 0.0030006617 0.023335543
0.074910328 0.018915899 0.022569647
0.077694759 0.023884553 0.022356061
0.081861682 0.031219417 0.022000169
0.069100849 0.015620083 0.023453651
0.071700938 0.020206168 0.023252532
0.078206398 0.031679563 0.022786543
0.081006333 0.036734149 0.022487666
0.065799884 0.016120803 0.023317995
0.068633296 0.02095535 0.023155762
0.070977449 0.025266062 0.022915784
0.073761709 0.030236471 0.022702128
0.077927791 0.037571233 0.022345692
0.080465898 0.042069312 0.022115184
0.056334361 0.0054958872 0.023752542
0.061634846 0.014898237 0.023386288
0.065409489 0.021653581 0.023008652
0.068008646 0.026239842 0.022807295
0.070628941 0.031020213 0.022540214
0.074513838 0.03770975 0.022341702
0.077315517 0.042767692 0.022042518
0.07979349 0.047160964 0.021846719
0.053147376 0.0060431622 0.023827929
0.058349565 0.015358169 0.023371506
0.064947978 0.026961282 0.022844842
0.0672938 0.031271365 0.022606298
0.052661605 0.011476677 0.023575902
0.057957862 0.020876925 0.023210719
0.066956729 0.037000962 0.022364931
0.069614515 0.041559488 0.022232309
0.054686412 0.021306403 0.023328111
0.063630559 0.037218541 0.022563232
0.066414475 0.04219263 0.02234943
0.069009744 0.046651378 0.022176683
0.063307635 0.042919353 0.022453804
0.065963574 0.047477126 0.022320479
0.059992995 0.043099172 0.022781985
0.044196822 0.020619813 0.023232041
0.047901526 0.02736086 0.022838436
0.050836645 0.032472622 0.022673976
0.053156592 0.036698505 0.022417521
0.055993684 0.041537188 0.022249769
0.050085455 0.037308637 0.022821782
0.052813604 0.042139839 0.022559471
0.055409424 0.046726525 0.02235717
0.047889911 0.045238342 0.022420255
0.05072825 0.050078504 0.022250053
0.040687699 0.044079803 0.022753477
0.039018136 0.046827048 0.022331815
0.032837894 0.047574244 0.022832362
0.035574779 0.052382391 0.022652192
0.038073435 0.056854907 0.022431377
0.040796012 0.061679006 0.022167696
0.044522837 0.068298131 0.02188788
0.025972744 0.041121572 0.023004722
0.028694231 0.045812529 0.02284609
0.025742581 0.046390612 0.022688232
0.043625377 0.083838411 0.020984197
0.024942946 0.05649592 0.023241065
0.028792487 0.063351817 0.022982148
0.021949146 0.056799103 0.022398435
0.02437822 0.061281502 0.023135392
0.030855363 0.072841413 0.022598991
0.018984241 0.0573732 0.022469578
0.021608571 0.061996959 0.022245785
0.02395496 0.066279724 0.022050647
0.018560562 0.062287077 0.022512252
0.023762528 0.071594641 0.02207265
0.027506463 0.078353532 0.021716693
0.02056269 0.071761385 0.022279631
0.023468569 0.076851331 0.022114981
0.027287191 0.083630584 0.021732079
0.020368103 0.077068135 0.022413369
0.022876788 0.08155632 0.022194967
0.024111034 0.083827145 0.022058195
0.026943702 0.088665992 0.021872977
0.020069007 0.082313508 0.022568602
0.023891753 0.089095488 0.022185553
0.014232885 0.07784462 0.02216435
0.01695912 0.082637295 0.021985361
0.019469943 0.087128922 0.021767493
0.018994506 0.092129089 0.021999991
0.007043357 0.076760605 0.022272928
0.010792322 0.083449572 0.021968516
0.013516601 0.088239409 0.021789774
0.0035716547 0.082388721 0.02231249
0.0061963573 0.087012835 0.022089189
0.0030704886 0.08748354 0.021878729
0.0055482471 0.09199708 0.021626076
0.34128675 0.0036715455 0.018394679
0.34533712 0.010866746 0.018084494
0.22465175 0.0071542803 0.020697836
0.20369957 0.010136814 0.020816945
0.19572738 0.0095823994 0.021571932
0.20496896 0.025844606 0.020885643
0.20885579 0.032868087 0.020488849
0.17469919 0.017538842 0.021791644
0.16065672 0.022787474 0.021699242
0.15226109 0.018307496 0.022337848
0.13895972 0.0040195342 0.02270307
0.15498775 0.031998571 0.02175881
0.11830252 0.0023721009 0.0238073
0.12101738 0.007197801 0.023564108
0.12003687 0.013117859 0.022901773
0.12896909 0.029388994 0.02198687
0.12260581 0.026579132 0.022739219
0.13443363 0.047297139 0.021983558
0.10165543 0.011540189 0.02339334
0.094200224 0.0056339279 0.023831442
0.10097488 0.01773778 0.023239132
0.10475818 0.024449209 0.022933174
0.097313195 0.018590905 0.023374788
0.10380495 0.030109053 0.022884887
0.087283969 0.0081513114 0.024160782
0.093985751 0.019980233 0.023579238
0.096659385 0.024732903 0.02339861
0.10315543 0.036266986 0.022848872
0.10952387 0.047893394 0.022145409
0.086782977 0.013581783 0.023369169
0.089581683 0.018587507 0.02311896
0.096064687 0.030106714 0.022599256
0.093023643 0.025522815 0.023708429
0.076772913 0.003089577 0.024259765
0.083282612 0.014684182 0.023762936
0.085880846 0.019155659 0.023592331
0.092659041 0.031266473 0.023000401
0.089045197 0.032000847 0.023472628
0.095536806 0.043518722 0.022984888
0.070072502 0.0047095716 0.024429351
0.072804376 0.0095413737 0.02417127
0.086016744 0.032966774 0.023090415
0.088691078 0.037718385 0.022912215
0.091223285 0.042216662 0.022695936
0.09518382 0.049250443 0.022362389
0.078830928 0.026511114 0.023177214
0.069501176 0.010066424 0.023897942
0.084762 0.044078529 0.023127519
0.087295033 0.048577521 0.022911686
0.074914634 0.032835804 0.023535497
0.074042127 0.043816935 0.022985665
0.076581813 0.048316516 0.022754157
0.064141534 0.032444086 0.02358593
0.059284527 0.036054403 0.023841456
0.060507178 0.038332738 0.023683054
0.045394778 0.058582306 0.023781549
0.038573027 0.052235004 0.023850525
0.028298208 0.051033113 0.023461547
0.043875515 0.078781016 0.022224884
0.025268713 0.051309474 0.023507962
0.027678259 0.055820405 0.024242627
0.028909238 0.058049679 0.024125667
0.034158524 0.067382969 0.023705231
0.031245086 0.067820206 0.023761066
0.040470161 0.084234096 0.023002898
0.028519455 0.068604402 0.022854945
0.033648275 0.077655062 0.023416787
0.04016218 0.089279003 0.022872908
0.027931154 0.073294908 0.022766097
0.030647203 0.078109011 0.022502059
0.033233847 0.082690194 0.022297882
0.035875857 0.087474585 0.022045942
0.037154678 0.08970698 0.022007493
0.032694645 0.087465405 0.022306215
0.029859141 0.088141449 0.022524958
0.032502681 0.092925012 0.022274666
0.33392829 0.019902393 0.019275978
0.35094658 0.049961783 0.017985424
0.33826381 0.048600271 0.017540302
0.26938325 0.0095430426 0.02109009
0.29154712 0.048930965 0.019204523
0.28039685 0.045019783 0.018965252
0.25910458 0.0087050255 0.021220872
0.28374076 0.052381188 0.01923346
0.24931422 0.0071270987 0.021085607
0.27374962 0.050609827 0.019009985
0.24199095 0.009738259 0.021074699
0.25195611 0.02893009 0.020780085
0.25587779 0.035967469 0.020416554
0.23666674 0.045278702 0.020331623
0.22865292 0.044809163 0.020748302
0.21751924 0.049577598 0.020457055
0.19315217 0.018516604 0.022084838
0.19976018 0.030155864 0.021585073
0.19698769 0.047926992 0.02103417
0.17155074 0.013245634 0.022816855
0.16992025 0.020808734 0.022593295
0.18372467 0.04675331 0.02198611
0.15731817 0.019253362 0.023403922
0.16637255 0.044350341 0.021941556
0.15846154 0.048155077 0.021762017
0.14681293 0.03641085 0.022540946
0.153312 0.04785642 0.022023665
0.13428192 0.015832027 0.023956791
0.13169999 0.020015571 0.02405134
0.12704189 0.019282963 0.023671405
0.12610844 0.033923723 0.023234205
0.12988503 0.040587559 0.022930089
0.10573004 0.0048128553 0.024619799
0.11222182 0.016331065 0.024127727
0.1162236 0.023456382 0.023737622
0.099831991 0.0018023513 0.024700653
0.10236138 0.0062931292 0.02447571
0.1151849 0.029164117 0.023375642
0.11789723 0.034204878 0.023035802
0.12141413 0.041522246 0.023549281
0.12518817 0.048184808 0.023242643
0.10538323 0.019096451 0.023939891
0.10784984 0.023462124 0.023767525
0.1141488 0.035800073 0.023959685
0.09131074 0.0015473478 0.024874713
0.095480829 0.0088830628 0.024520781
0.098011889 0.013375226 0.024294768
0.11354898 0.04128759 0.022858003
0.090523198 0.0073748678 0.024814615
0.10105847 0.026123783 0.023939533
0.11012013 0.042422123 0.023094388
0.11256482 0.046897057 0.022808099
0.1001666 0.031807661 0.023982886
0.084224656 0.0035510585 0.025264246
0.096786767 0.033031739 0.024290295
0.10325649 0.044526301 0.023722747
0.089726545 0.026851146 0.024085147
0.096180633 0.038313746 0.023600025
0.098894849 0.04313622 0.023356
0.092227176 0.044737838 0.023526113
0.085102528 0.038391955 0.02354308
0.087876648 0.04332919 0.023333948
0.073257469 0.049196437 0.023776516
0.032239348 0.052617081 0.024455717
0.035160046 0.057719626 0.024291581
0.037489764 0.061951324 0.024035221
0.044190478 0.073856398 0.023449851
0.032079063 0.057907902 0.024200348
0.034580085 0.06238389 0.023980079
0.031825665 0.063148566 0.02396138
0.040801596 0.079291187 0.024119031
0.035980597 0.081954166 0.024188826
0.029315665 0.092827 0.023641326
0.026485767 0.093476936 0.02397061
0.35063362 0.028253362 0.019725762
0.33742866 0.027697667 0.019448848
0.30142772 0.010565117 0.021331001
0.31970242 0.043015808 0.019809123
0.30151629 0.05059126 0.019922342
0.28939673 0.048127897 0.020463249
0.26463532 0.021586273 0.021799386
0.28023815 0.049207956 0.020524159
0.24502285 0.018071216 0.021920314
0.25894192 0.04429071 0.021266334
0.25363013 0.048915371 0.020805314
0.23242608 0.025219828 0.021842735
0.22027077 0.0050058337 0.023460329
0.22421801 0.012158707 0.023041172
0.24387802 0.046966501 0.021498293
0.21803799 0.013553321 0.022523131
0.22429238 0.038453057 0.021724153
0.20125587 0.0099546295 0.022871207
0.2128491 0.044020303 0.022061087
0.1857494 0.0078739123 0.024076989
0.19613832 0.026472345 0.023152722
0.20323767 0.037679501 0.021949567
0.20783828 0.047268175 0.022163264
0.18779048 0.022342835 0.023046372
0.17263325 0.0072274036 0.024550157
0.17910936 0.018681634 0.023891553
0.18302025 0.025735665 0.023519697
0.18609294 0.029953402 0.022558616
0.1878731 0.044873796 0.022656403
0.19208457 0.051001426 0.021673325
0.16647239 0.017264422 0.024295202
0.15448114 0.0054773036 0.024105566
0.17544305 0.042448565 0.022488052
0.13931899 -0.00083417632 0.025377786
0.15284154 0.021600544 0.023833061
0.15167549 0.028417494 0.023507519
0.14052165 0.010357471 0.024783194
0.14853436 0.024175059 0.024380654
0.14759757 0.030155025 0.023425037
0.15129635 0.03779649 0.023955427
0.12639119 0.0025458336 0.025557652
0.13532442 0.01881836 0.024639614
0.15151186 0.045801289 0.022971358
0.13525651 0.027465349 0.02452215
0.13430966 0.03331966 0.02384519
0.13853827 0.04047069 0.023737254
0.11163184 0.00023987144 0.025246242
0.12659383 0.028256474 0.024587175
0.11038581 0.006582167 0.02556047
0.11685661 0.018095886 0.024985693
0.12314171 0.029577136 0.024320995
0.10293016 0.00083466247 0.025661031
0.12219802 0.035455998 0.023879942
0.12578884 0.042861659 0.024387045
0.11248206 0.025253033 0.024460664
0.11846153 0.037150055 0.024654226
0.12240884 0.044328243 0.024255907
0.098574623 0.0079420656 0.02531793
0.10905512 0.026540188 0.0244733
0.11155622 0.030994557 0.024240961
0.11754204 0.042964447 0.024404531
0.10167333 0.020792434 0.024874106
0.10814872 0.032309141 0.024298282
0.11054555 0.036634378 0.024069162
0.10724644 0.037995525 0.024255741
0.10626044 0.043574125 0.024260733
0.037231933 0.067223549 0.024713732
0.3455373 0.045168683 0.019724209
0.32157171 0.0043057948 0.022062911
0.33357206 0.046656191 0.019695641
0.3241058 0.031420916 0.020901717
0.30344543 0.037999198 0.021496762
0.30914748 0.046650007 0.020510701
0.29281262 0.019289494 0.022258908
0.26955825 0.049148493 0.021486834
0.24808633 0.026490472 0.022713277
0.23835862 0.024748255 0.02314166
0.24871576 0.043076716 0.022329116
0.23943746 0.040588282 0.022359602
0.21215069 0.018221218 0.023366064
0.21567005 0.026012287 0.023592206
0.18283379 0.004012893 0.025018489
0.18056026 0.011948057 0.02506604
0.16386577 0.0035469998 0.025401248
0.17437492 0.022048861 0.024529992
0.17834024 0.029214537 0.024143804
0.18475911 0.040688872 0.023572212
0.15948361 0.0062918775 0.025396911
0.17006274 0.024818618 0.024625523
0.17647487 0.036335744 0.023997148
0.18169516 0.045674343 0.023533417
0.15775615 0.013467177 0.025470514
0.16571538 0.027433179 0.024893748
0.17223315 0.039137557 0.024214875
0.1761055 0.04607375 0.023853069
0.16298245 0.040632196 0.02372391
0.14947349 0.01818835 0.025419652
0.14147295 0.013265075 0.025410796
0.13373742 0.0082045961 0.025782682
0.14006655 0.019584529 0.025218511
0.14425522 0.026696086 0.025054926
0.12844512 0.007374702 0.026128087
0.13233069 0.014521232 0.025687046
0.14704856 0.040157355 0.024845911
0.1391013 0.035054844 0.025164409
0.14320233 0.042048164 0.025047939
0.11851185 0.0059296414 0.026177874
0.12510568 0.01785988 0.02550354
0.12755021 0.022332698 0.025214437
0.13150264 0.029512139 0.024815947
0.11748004 0.012687715 0.02635327
0.13016744 0.035684619 0.025076546
0.13434993 0.042792045 0.02490806
0.1203777 0.025546193 0.025447192
0.12645273 0.037640598 0.025598638
0.13076361 0.043976948 0.024577342
0.11310017 0.019863367 0.025663145
0.10570402 0.014154511 0.025892349
0.10531445 0.050029356 0.025241259
0.036814794 0.072234988 0.026520945
0.03381199 0.072604716 0.026493147
0.34466204 0.024135523 0.021864662
0.31974241 0.025266699 0.021702485
0.33136591 0.045889169 0.020770863
0.32719222 0.040077172 0.021560652
0.29721183 0.0078996569 0.022945378
0.31956592 0.047438942 0.021252647
0.288688 0.013489634 0.023061546
0.30656177 0.046667218 0.022163266
0.27787679 0.013288613 0.023294836
0.28186664 0.020452667 0.022933939
0.28504744 0.027688328 0.023113903
0.29211137 0.038494214 0.022174846
0.27157873 0.019519109 0.022946138
0.26081562 0.019194331 0.02376296
0.26511616 0.042680323 0.022438005
0.26098105 0.036720376 0.023389135
0.24445836 0.022847094 0.024216067
0.2511906 0.034870382 0.023639273
0.25934434 0.048048373 0.0223017
0.23390128 0.018167598 0.024164297
0.24182279 0.032223128 0.023518549
0.24909469 0.046734057 0.023390764
0.24419025 0.050419394 0.022585848
0.2320812 0.030358914 0.024180112
0.21407712 0.010684177 0.024663629
0.21796419 0.017708093 0.02426249
0.22175978 0.024481481 0.023939513
0.22575618 0.031464908 0.023692729
0.23324652 0.046167091 0.023672845
0.22442108 0.042881306 0.023527326
0.21413209 0.036902748 0.023676964
0.21813405 0.043890208 0.02343001
0.19118266 0.008236438 0.02515677
0.19760144 0.019710895 0.024584131
0.1863196 0.011607521 0.025304204
0.19636805 0.03084046 0.025087051
0.19934183 0.034688927 0.02424231
0.20322946 0.041711573 0.023848038
0.1692895 0.0038910639 0.026148593
0.17970629 0.022375174 0.025170477
0.18626501 0.034182981 0.024557052
0.18142605 0.037298858 0.025219463
0.18842116 0.048364118 0.023996681
0.16883811 0.044563934 0.02522642
0.16349706 0.043931853 0.025133409
0.13470934 0.0021286849 0.026876973
0.14509536 0.020559553 0.026016271
0.15563846 0.038865976 0.025469113
0.14098889 0.02228282 0.025929069
0.12953846 0.010541204 0.026775006
0.14395429 0.035854444 0.025793871
0.14800943 0.042993091 0.02553731
0.13593809 0.02219337 0.02608655
0.13918546 0.043639135 0.025338756
0.040822927 0.073882982 0.026428308
0.036349174 0.077175193 0.027287992
0.34664518 0.0032034144 0.023006778
0.33984953 0.041492596 0.021864265
0.32361662 0.014275763 0.023593031
0.33136582 0.028077044 0.022973781
0.30286565 0.020869385 0.023540268
0.30642927 0.028809451 0.023716997
0.31039843 0.035815895 0.023372058
0.31436557 0.042928912 0.023036037
0.29597178 0.02783756 0.02304882
0.29522043 0.047131836 0.022914013
0.27433696 0.027564391 0.023656238
0.27833006 0.03471522 0.023278886
0.2848081 0.046026148 0.02285298
0.26362821 0.027291238 0.024499713
0.26525107 0.047381416 0.024029864
0.24025902 0.016971262 0.025063245
0.24472661 0.040358935 0.024354422
0.22362643 0.016822154 0.025415387
0.22780523 0.024172477 0.025122508
0.23539446 0.037563372 0.024532061
0.23891778 0.045393195 0.024746509
0.22015117 0.036674913 0.024496853
0.20135215 0.0047665155 0.026598454
0.21184886 0.023322605 0.025783157
0.21555012 0.029962284 0.025432371
0.20304717 0.019908108 0.025868461
0.20372137 0.045306619 0.025094321
0.1909854 0.034578815 0.026101535
0.18268003 0.0303558 0.026211819
0.16453418 0.0072090719 0.026777724
0.16653219 0.021075264 0.026394021
0.17014803 0.028720673 0.026680917
0.1622785 0.023865474 0.026620014
0.16875438 0.035317007 0.025960321
0.17228977 0.042926393 0.026334792
0.14327107 0.00088602677 0.027785536
0.14597012 0.0057675857 0.027521364
0.14995104 0.012546248 0.027354276
0.14582476 0.014326833 0.027035983
0.16063598 0.040004902 0.026156794
0.14486206 0.029936608 0.026609434
0.11592233 0.050139271 0.026884463
0.039614327 0.071861178 0.027502626
0.32662186 0.022868551 0.024196055
0.33440611 0.036698297 0.023539096
0.31377104 0.020963706 0.024005447
0.29884329 0.018477079 0.0252137
0.31465641 0.046530038 0.02392309
0.29853597 0.03710001 0.024207583
0.28765532 0.036768854 0.02446671
0.25271377 0.0092502926 0.026020179
0.26715544 0.035124522 0.02468854
0.23552999 0.011478296 0.026565155
0.23779988 0.029493637 0.025506999
0.22813964 0.013848243 0.026816741
0.21021754 0.0081698541 0.026707631
0.22147743 0.029597037 0.026343856
0.20430875 0.012785528 0.027588146
0.20710909 0.01767882 0.027386524
0.22444078 0.047172211 0.025285777
0.20602116 0.027864836 0.026918648
0.20800345 0.042221691 0.025634218
0.19936451 0.038754985 0.026187385
0.18599471 0.016422449 0.027899036
0.19241384 0.027896967 0.027326856
0.15203917 -0.00024327822 0.029229131
0.16587725 0.031409942 0.026961273
0.15068816 0.0062852055 0.028581368
0.15897371 0.020462353 0.028290246
0.1627394 0.027091637 0.02801149
0.14678715 0.008388361 0.02820548
0.16157094 0.033938732 0.027411507
0.15374409 0.029033054 0.027509566
0.34300688 0.030858338 0.024482321
0.34752837 0.037229501 0.023717631
0.30196851 0.027164131 0.025909357
0.28761896 0.01939708 0.025528148
0.29156098 0.026266046 0.025309728
0.30162472 0.045673117 0.024959121
0.27638903 0.019952767 0.02633284
0.28029549 0.026885342 0.025970586
0.26212525 0.011847753 0.026756767
0.26953915 0.026556388 0.026610885
0.25576118 0.01780495 0.026731428
0.27015179 0.043441921 0.025444221
0.24823655 0.021449275 0.027167195
0.24662934 0.032716878 0.02616192
0.22914161 0.017042743 0.027306948
0.23120072 0.036021825 0.027088702
0.2095457 0.035646003 0.02716032
0.19434139 0.020730158 0.028015483
0.16899608 0.0085655358 0.028865719
0.16463876 0.011203478 0.028844608
0.17505741 0.029688265 0.02786715
0.18161574 0.041496083 0.027255252
0.15584764 0.0074362513 0.02980219
0.30929977 0.019408524 0.0260818
0.31333059 0.026547834 0.025802154
0.31661701 0.033996046 0.025956033
0.28268349 0.01368133 0.026934771
0.28302115 0.034821402 0.026740786
0.2726033 0.035120219 0.02733941
0.25925857 0.025488067 0.02697235
0.27054167 0.015649047 0.028821863
0.27579302 0.042350568 0.027533699
0.25541821 0.040269278 0.028633365
