# .PCD v0.7 - Point Cloud Data file format
VERSION 0.7
FIELDS x y z
SIZE 4 4 4
TYPE F F F
COUNT 1 1 1
WIDTH 1339
HEIGHT 1
VIEWPOINT 0 0 0 1 0 0 0
POINTS 1339
DATA ascii
0.012776524 0.031979263 0.025818182
0.0085243881 0.034637094 0.025382724
0.050795436 -0.00031137466 0.030085491
0.049862474 0.00026655197 0.029979415
0.045656443 0.0028259754 0.029473664
0.043631047 0.0031635165 0.029830325
0.042147338 0.0040555 0.029651348
0.040658146 0.0049600005 0.02945484
0.039167821 0.0058860779 0.029277189
0.037643284 0.0068070889 0.029094521
0.036129177 0.0077362657 0.028927537
0.014630705 0.020858645 0.026370706
0.011847049 0.022571087 0.026030641
0.0080606937 0.025787592 0.025002163
0.0076847076 0.026012957 0.024957078
0.036169529 -0.00048351288 0.028277084
0.032778203 0.0015810728 0.027849142
0.01108095 0.014863729 0.025322936
0.008659482 0.016323268 0.024999578
0.021832913 -0.00077462196 0.026750606
0.015238792 0.0032823086 0.026011035
0.012822539 0.0047203302 0.02568673
0.010404587 0.0062046647 0.025409415
0.0092149377 0.0069234371 0.025271781
0.0086545348 0.0081463456 0.024569288
0.010863245 -0.0012990832 0.024649639
0.0097931623 -0.00064963102 0.024516895
0.015349835 0.13844877 0.02879725
0.014125139 0.13920021 0.028700527
0.012943566 0.13991511 0.028528303
0.01052174 0.14240468 0.027846592
0.0094341934 0.14305681 0.027697958
0.017965674 0.12174493 0.028889731
0.017258227 0.12310606 0.028283333
0.01097405 0.12598902 0.028028935
0.010588199 0.12720597 0.027521346
0.010520011 0.11310524 0.027203599
0.010203212 0.11330438 0.02717464
0.008946687 0.11410457 0.027059171
0.15895173 0.0093782544 0.044565387
0.15745059 0.010297298 0.044387992
0.020274788 0.094057024 0.028020937
0.013309479 0.098282635 0.027194096
0.0096638203 0.10054755 0.026786782
0.1615023 0.0068558455 0.045342349
0.1599974 0.0077803731 0.045169547
0.017922908 0.094528675 0.02825737
0.015174568 0.096221149 0.027923044
0.011313975 0.098562598 0.027464237
0.010087341 0.099320412 0.027293272
0.15250084 0.00019925833 0.043768074
0.14913848 0.0022744536 0.043397814
0.14732343 0.0034090877 0.043203931
0.14550643 0.0045074821 0.042986915
0.017376333 0.082743704 0.027696583
0.01589337 0.083633065 0.027484525
0.010091901 0.087179303 0.026810791
0.0086120963 0.088098109 0.026676416
0.14988078 0.00089603662 0.044002485
0.13286428 0.00013661385 0.041346259
0.12202755 0.0067736506 0.040019929
0.11686137 0.009927094 0.039406314
0.009619236 0.075398207 0.026663864
0.13004787 0.00092035532 0.041595954
0.127847 0.0022869706 0.041334417
0.1260919 0.0033163428 0.041048504
0.12428348 0.0044379234 0.040803678
0.12275963 0.0053929687 0.040640458
0.11973466 0.0072387457 0.040272016
0.11794661 0.0083060265 0.040057514
0.022706956 0.066491663 0.028758459
0.011807442 0.073102415 0.027406787
0.010363966 0.074006736 0.027277566
0.11507384 -9.9420547e-05 0.038869109
0.10540906 0.0057815313 0.037715103
0.022918224 0.05615139 0.027892943
0.02077204 0.057461023 0.027619209
0.11284527 0.00033420324 0.039151743
0.10946062 0.0023998022 0.038741596
0.084270328 0.017781913 0.035749413
0.017597109 0.05846256 0.027771167
0.09218204 0.0027965903 0.036131196
0.084230304 0.0076414943 0.035173476
0.037472874 0.036186635 0.029587092
0.032368571 0.039340734 0.0290293
0.020543545 0.046532154 0.027604157
0.012925744 0.05119133 0.026708657
0.0096641183 0.053167701 0.026282042
0.0087660253 0.053711593 0.026177205
0.094650239 0.00037878752 0.037000909
0.093141615 0.001306951 0.036820389
0.089809895 0.0033460259 0.036413424
0.088050216 0.0044046044 0.036193781
0.079764426 0.0094513893 0.035192989
0.074043483 0.012965977 0.034548964
0.028573155 0.040683508 0.02908578
0.025562972 0.04256916 0.028777478
0.022796333 0.044259667 0.028458431
0.021261454 0.045197546 0.028274359
0.018547982 0.046832442 0.027936419
0.015819848 0.048505068 0.027593639
0.011295617 0.051279843 0.027075039
0.010398984 0.051809013 0.026943857
0.079309464 0.00053590536 0.034321323
0.077764332 0.0014894605 0.034137927
0.07633695 0.0023688674 0.033985719
0.070487946 0.0059197545 0.033257842
0.069580108 0.0065042377 0.033179395
0.067162007 0.0079863071 0.032907471
0.062343121 0.010903716 0.032322261
0.059571385 0.012604177 0.031991735
0.050820202 0.017944455 0.030938381
0.04824999 0.01953572 0.03066968
0.044798076 0.021611929 0.030231144
0.042007595 0.023314893 0.029893985
0.016861051 0.038698614 0.026928926
0.015394211 0.039591134 0.026754988
0.0074491203 0.044442713 0.025794484
0.080412 -0.0010120869 0.035046142
0.064276397 0.0088398457 0.033137206
0.057320356 0.013054609 0.032299846
0.05429092 0.014918923 0.031923622
0.051572382 0.016575217 0.03160771
0.033782303 0.027469993 0.029529406
0.025478572 0.032537222 0.028548725
0.024014413 0.033426464 0.02837578
0.011790097 0.040875077 0.02689057
0.010634035 0.041571856 0.026740879
0.0094140172 0.042306423 0.026606314
0.0082054734 0.043051183 0.026444133
0.064715505 -0.00060409307 0.032623395
0.063056201 -0.00049507618 0.033005986
0.061860651 0.00022685528 0.032853067
0.060957253 0.00079917908 0.032760032
0.056834787 0.0042376518 0.031709842
0.055507571 0.0041421652 0.03213761
0.05530411 0.0051550865 0.031509414
0.044025391 0.011128247 0.030742886
0.023299366 0.024697006 0.027696032
0.017137021 0.028467059 0.027011715
0.013827413 0.030475199 0.02656308
0.010785311 0.032326341 0.026204653
0.0092971325 0.033254623 0.026048977
0.048834115 -5.9604645e-07 0.030456245
0.045255244 0.002178967 0.030030893
0.017369539 0.01921612 0.026728626
0.010357171 0.023499727 0.025894398
0.009137243 0.024235606 0.025768464
0.0088422298 0.024415731 0.025728513
0.047175616 0.00011515617 0.030860936
0.046587944 0.00047034025 0.030788867
0.032696754 0.008965075 0.029152811
0.031505108 0.0096956491 0.029021695
0.020524502 0.016401291 0.027704319
0.019364744 0.017127872 0.027587095
0.017896533 0.018019557 0.027413638
0.034084499 -0.00010085106 0.028652489
0.026363522 0.0046292543 0.027726322
0.025139153 0.0053884983 0.027614731
0.022708148 0.0068848729 0.027324608
0.021504939 0.0076008439 0.027167682
0.020330518 0.0082908869 0.027005337
0.016675144 0.010537088 0.026584012
0.015446037 0.011272967 0.026436843
0.014250666 0.012023091 0.026287623
0.0094056726 0.015001953 0.02574357
0.0091437697 0.015167415 0.0257135
0.031626761 0.00052428246 0.028955489
0.030167252 0.0014237165 0.028787762
0.028678179 0.0023254752 0.028611908
0.027157217 0.0032602549 0.02844503
0.023194999 0.0057124496 0.028011361
0.018355161 0.0086253881 0.027394651
0.017171502 0.0093508363 0.027259901
0.012330681 0.012353182 0.0267187
0.011136979 0.01309216 0.02658833
0.009956181 0.01379627 0.026430963
0.019639403 -0.00029748678 0.027140068
0.018155545 0.00062918663 0.026986891
0.016963333 0.0013611913 0.02685589
0.015683025 0.0021454692 0.026708471
0.013336688 0.0035451055 0.02639477
0.010918736 0.0050168037 0.026095755
0.011179417 0.14002842 0.028775016
0.010873437 0.14021122 0.028733283
0.0096215308 0.14099896 0.028617768
0.021122813 0.11881733 0.029700011
0.014498681 0.12288803 0.02894843
0.012891322 0.12388754 0.028773483
0.01141724 0.12476373 0.028563261
0.019094765 0.11913812 0.029982502
0.015187532 0.1214996 0.029462125
0.018243849 0.10653669 0.029183362
0.011023372 0.11091059 0.028254103
0.010163426 0.11141324 0.028133567
0.0098313689 0.11160147 0.028091775
0.016272277 0.10676354 0.029378209
0.01136747 0.1097672 0.028824158
0.020173311 0.092230737 0.029033218
0.015957475 0.094804227 0.028536484
0.010074556 0.0974316 0.028332923
0.14526805 0.0018514395 0.044517074
0.14353547 0.0028954148 0.044314824
0.14168316 0.0040259957 0.044093549
0.025849491 0.074740648 0.030224726
0.024777651 0.076363087 0.029635441
0.021429956 0.077420473 0.029674346
0.019913882 0.078359604 0.029540179
0.016882271 0.080242336 0.029206024
0.016092002 0.08165282 0.028584298
0.013889372 0.082042754 0.028809095
0.012326777 0.083016634 0.028671859
0.010823309 0.083940744 0.028480027
0.010071248 0.085351527 0.027902892
0.0088707507 0.086059809 0.027720265
0.12957846 0.00028169155 0.042076077
0.023505509 0.065023839 0.029325102
0.022255421 0.065829456 0.02922917
0.02110678 0.066503346 0.029064227
0.015634924 0.06987679 0.028455509
0.012642384 0.071656764 0.028019248
0.12664227 0.0011578798 0.042271372
0.12005252 0.0051831603 0.041392971
0.11487252 0.0083434582 0.040771209
0.017574936 0.067713082 0.0291641
0.016380847 0.068453014 0.029008441
0.013400793 0.070298433 0.028708195
0.11054358 0.00083184242 0.039430447
0.10691951 0.0030273795 0.03898982
0.1053687 0.0039864182 0.038820293
0.017758846 0.057440162 0.02834304
0.0084059834 0.063156545 0.027238954
0.11008056 0.00019323826 0.039929945
0.10001355 0.0063226223 0.03870764
0.023035049 0.053323328 0.029554201
0.019685537 0.055364907 0.029163707
0.015187413 0.058067501 0.028589964
0.013978392 0.058813632 0.028440814
0.012680978 0.059624612 0.02831123
0.011554152 0.060350716 0.028216626
0.010347843 0.061027288 0.028017795
0.085783124 0.0048619509 0.036481682
0.084206492 0.0058345795 0.0362987
0.081500173 0.007474184 0.035975758
0.080227435 0.0082563758 0.035826176
0.078113705 0.0095296502 0.035549942
0.077209204 0.010103524 0.035457805
0.076282024 0.010685802 0.035359912
0.026297808 0.041185677 0.029407253
0.024516195 0.042297542 0.029224247
0.016615599 0.047095299 0.028273594
0.013898879 0.048792541 0.027981499
0.012675077 0.049536169 0.027827501
0.090183914 0.0012764335 0.03758233
0.070062459 0.01356107 0.035187129
0.034792095 0.025958657 0.030238051
0.033325046 0.026848137 0.030065209
0.078129739 -0.00055468082 0.035339832
0.073576719 0.002219975 0.034802608
0.072335303 0.0029892921 0.034660019
0.071039766 0.0037795901 0.034500606
0.065871894 0.0060582161 0.034484137
0.064307213 0.0070006251 0.034298979
0.06201461 0.0093024969 0.033438817
0.059952527 0.010566413 0.033201881
0.056375861 0.011829197 0.033346538
0.052341312 0.015194118 0.032264613
0.03206563 0.027605534 0.029900331
0.018446922 0.035867512 0.028213378
0.016869903 0.036876976 0.02807666
0.014917344 0.03716743 0.028429836
0.014190972 0.038516462 0.027778519
0.012640387 0.039466321 0.027589217
0.010639369 0.039768219 0.027917851
0.0089761913 0.04166472 0.027127475
0.059294075 0.00093066692 0.033166781
0.056299299 0.0027608275 0.032830287
0.052024275 0.0053543448 0.032309875
0.049333692 0.0069961548 0.031983405
0.046234161 0.0088829398 0.03159114
0.044775218 0.0097810626 0.031423993
0.017466456 0.026473403 0.0281944
0.014461666 0.028313041 0.027862208
0.012637049 0.029417396 0.027621876
0.0096208751 0.031231463 0.027238693
0.057040364 0.0014175177 0.03350867
0.05007267 0.0056640506 0.032678481
0.047102243 0.007448256 0.032312371
0.044954896 0.00056761503 0.03119625
0.033449441 0.0075971484 0.029825937
0.029492825 0.010040283 0.029394386
0.017442405 0.017410457 0.027974619
0.014710486 0.019061625 0.0276195
0.011940897 0.020719409 0.02726524
0.010727197 0.021462202 0.027092125
0.040234625 0.0025621057 0.031246794
0.038770109 0.0034467578 0.031062355
0.037258625 0.0043802857 0.030868961
0.035779566 0.0052837729 0.03069797
0.034199566 0.0062422156 0.030506132
0.012713462 0.019364715 0.027960919
0.031238288 -0.0001206398 0.029533559
0.029021949 0.00036489964 0.029897679
0.0275442 0.0012586117 0.029716631
0.026008964 0.0021998882 0.029544316
0.013617009 0.0097530484 0.028078377
0.0099658072 0.012043834 0.027684463
0.0095224082 0.013187289 0.027011558
0.017705381 2.5749207e-05 0.027558461
0.015800446 0.00032287836 0.027981769
0.014567375 0.0010882616 0.027844319
0.012179554 0.0025165081 0.027528537
0.0097829103 0.0039705634 0.027231785
0.017765552 0.13406962 0.030467667
0.016578704 0.13481498 0.03033451
0.014150649 0.13628823 0.030053325
0.014519393 0.13509291 0.030559791
0.023092717 0.11575282 0.03093721
0.016231567 0.11898118 0.030601259
0.01009497 0.12366271 0.029369541
0.037852824 0.092632651 0.032443028
0.014306307 0.10698026 0.029617444
0.011833549 0.10852593 0.029360963
0.018621683 0.10341364 0.030629948
0.017398447 0.10415745 0.030471014
0.012291819 0.10726762 0.029862482
0.15257153 0.0094718933 0.045826286
0.017451674 0.091990709 0.029697228
0.015932024 0.09290576 0.029530941
0.011701912 0.095510781 0.029032845
0.010457784 0.096250474 0.028882662
0.028147519 0.084515452 0.031499494
0.021212906 0.088751316 0.030684827
0.13907975 0.0046769977 0.044320717
0.01758793 0.078865051 0.029837023
0.12407804 0.0017576218 0.042434052
0.12224258 0.0028842688 0.042158853
0.018409967 0.066239715 0.029766984
0.1200518 0.0033156276 0.04245672
0.11694615 0.0052207112 0.042082407
0.10569298 0.0019277334 0.039943606
0.097798049 0.0067439079 0.038991738
0.092915058 0.0097157359 0.038402565
0.081371784 0.016772628 0.037048727
0.020915985 0.053710938 0.029895006
0.10187238 0.0033345222 0.040047836
0.098855466 0.0051771402 0.039670948
0.090689778 0.010156989 0.038697731
0.024533212 0.050528884 0.030825449
0.021226496 0.052591681 0.030456122
0.017239183 0.055006444 0.029954206
0.016391516 0.055509865 0.02983829
0.010287106 0.059282482 0.02917478
0.0091066658 0.059957504 0.028988756
0.089681953 0.00067400932 0.038087301
0.086083204 0.0028620362 0.037648998
0.073260605 0.010708094 0.036146574
0.07025069 0.012539744 0.03578544
0.068422109 0.013641059 0.035553977
0.067507446 0.014196217 0.03545231
0.024196386 0.040650308 0.030297335
0.010268986 0.04915607 0.028645717
0.0093132854 0.04974395 0.028536662
0.013086796 0.046506703 0.029517854
0.072404325 0.0011280775 0.035821792
0.068692833 0.0033987761 0.035367012
0.065955281 0.0050961971 0.035068825
0.061414868 0.0078625083 0.034532487
0.059621453 0.0089386702 0.034306251
0.057193637 0.010436237 0.034028158
0.018728942 0.033894956 0.029414743
0.062234849 0.0064601302 0.03521467
0.043411821 0.017962635 0.032994732
0.01649344 0.034336865 0.0297211
0.014947474 0.035321772 0.029575527
0.010696977 0.037931681 0.029091053
0.022552758 0.022474766 0.029421357
0.015253007 0.026930928 0.028562121
0.05722487 0.00040477514 0.034113333
0.054172039 0.0022677779 0.033763856
0.051745027 0.0037353039 0.033458181
0.019111395 0.023644865 0.029569799
0.017501146 0.024628341 0.029354267
0.029578865 0.0081976652 0.030608846
0.028343856 0.0089660287 0.030471412
0.027167052 0.0096837282 0.030324332
0.01991263 0.014074028 0.02943607
0.018695801 0.014837444 0.029292122
0.022592217 0.0034281015 0.029793106
0.02133736 0.0042019486 0.029645432
0.020097941 0.0049616098 0.029502459
0.018930495 0.0056689382 0.029360514
0.017751187 0.0063536167 0.02918913
0.0164693 0.0071360469 0.029032955
0.0152722 0.0078684092 0.028892264
0.011039793 0.0014817715 0.028671788
0.017686605 0.13218135 0.031390898
0.010391206 0.1366477 0.030552568
0.0092184246 0.13735968 0.030389816
0.010849833 0.13540596 0.03102049
0.014269948 0.11921364 0.030839751
0.011636138 0.12079477 0.030502584
0.020573914 0.10127819 0.031377986
0.035805047 0.091024935 0.033670977
0.017337769 0.090184808 0.030718775
0.028659314 0.082272768 0.03249196
0.012384832 0.09224993 0.030631471
0.13786006 0.0035416484 0.04520851
0.025633663 0.071073353 0.032259449
0.024862766 0.072516084 0.031663656
0.023790866 0.072234333 0.032047212
0.02287817 0.061681092 0.031384598
0.021807343 0.062317073 0.031254694
0.020118088 0.063369751 0.031070257
0.015623778 0.066102386 0.030524865
0.011378378 0.068748355 0.030083325
0.10448477 0.00081390142 0.04089902
0.10266224 0.0019504428 0.040701535
0.023465246 0.050260007 0.031253748
0.021955729 0.051187873 0.031040676
0.018633097 0.053240955 0.030691622
0.014117837 0.055976212 0.030105796
0.02392301 0.049069047 0.031847864
0.020863354 0.050935507 0.031467803
0.087161839 0.0013002753 0.038353819
0.083815724 0.0033148527 0.037942532
0.082246959 0.0042824149 0.03775534
0.070376813 0.011550963 0.036371432
0.027079076 0.037971079 0.031190163
0.017016619 0.044114709 0.030015996
0.076293051 0.0069925785 0.037602682
0.068129957 0.011998057 0.036654226
0.067196161 0.012564361 0.036539409
0.031760722 0.034211159 0.032315105
0.026611686 0.037352562 0.03171353
0.015070021 0.04438132 0.030333122
0.062966913 0.0051115751 0.035878502
0.049950331 0.013035178 0.034300867
0.051940888 0.0027219653 0.034078021
0.050164968 0.0037939548 0.033867985
0.047394395 0.0054921508 0.033537403
0.045888424 0.0063951612 0.033355691
0.0125826 0.026767015 0.029430969
0.010669887 0.027929068 0.029176759
0.01637584 0.023522735 0.030429211
0.040643513 0.0005505085 0.032516912
0.024059027 0.010646403 0.030522566
0.02282989 0.011404395 0.030378975
0.020405173 0.012886703 0.030102711
0.016773969 0.015151799 0.029703252
0.033856094 0.0037922263 0.032291494
0.032386184 0.0046827197 0.032114532
0.010804683 0.017862797 0.029552961
0.024859786 0.0011432767 0.030651469
0.023362428 0.0020598769 0.030471826
0.018753916 0.12958497 0.032394186
0.018754929 0.11454725 0.032296143
0.012613177 0.10423821 0.031404741
0.015802741 0.10132295 0.032271147
0.15178631 0.0061963201 0.047753721
0.027553231 0.082010865 0.032887943
0.13416766 0.0039243698 0.045861278
0.024564058 0.070795655 0.032653816
0.017852128 0.074916363 0.031860188
0.11209521 0.0063100457 0.042573925
0.021923214 0.060410142 0.032336146
0.012870938 0.06594038 0.03126261
0.015601188 0.064236343 0.031575933
0.096863776 0.0036278963 0.041090325
0.091746658 0.0067411661 0.040464841
0.030143887 0.044366956 0.033153284
0.074647516 0.0070784688 0.037962567
0.056820542 0.017968118 0.035849251
0.053041399 0.019372702 0.03597568
0.033879668 0.03106606 0.033694275
0.029797256 0.033584416 0.033223562
0.026633739 0.035524011 0.032872275
0.023031443 0.037661016 0.032374788
0.021447778 0.03866303 0.0322272
0.0111579 0.044936836 0.030974701
0.0137209 0.034251213 0.03058644
0.056935132 0.0069599748 0.036302522
0.016040653 0.14544863 0.033210002
0.021016598 0.14042521 0.034619328
0.019416779 0.12630981 0.033891477
0.026950955 0.079539418 0.034316059
0.024466932 0.068983436 0.033695139
0.022683769 0.070076466 0.033481274
0.11416291 0.0031974316 0.043895718
0.021471679 0.059752882 0.032820929
0.020300806 0.060451925 0.032680303
0.022192359 0.058386862 0.033451766
0.072734118 0.017426908 0.038769141
0.026215732 0.04492414 0.033800028
0.025448263 0.046315491 0.03315736
0.02389735 0.047252238 0.032963801
0.020314753 0.049424648 0.03252513
0.039556146 0.026700735 0.034948308
0.035959363 0.028911889 0.034547966
0.027376324 0.034140468 0.033538945
0.04727447 0.021091759 0.036455415
0.03909722 0.026058316 0.035450216
0.026952267 0.033492446 0.034048624
0.017747015 0.1414606 0.034717701
0.028242439 0.076902688 0.035555236
0.027955413 0.0770818 0.035527702
0.022647977 0.068203151 0.034500882
0.022788048 0.056171954 0.034616791
0.020487607 0.058489263 0.033773731
0.022035033 0.046540082 0.033835411
0.073137492 0.014420927 0.040466465
0.030740052 0.040283203 0.035387766
0.025893837 0.04327482 0.03485414
0.024422586 0.044170856 0.03469301
0.0228706 0.045122445 0.034503553
0.030424595 0.030416727 0.034974433
0.031771123 0.086812019 0.036648169
0.022573948 0.066445827 0.035606701
0.020785242 0.056471586 0.034914412
0.022150308 0.054720223 0.035636328
0.020895064 0.055464983 0.035466723
0.022611707 0.04342705 0.035568193
0.021739334 0.044881582 0.034907721
0.04894954 0.017299414 0.038313512
0.035638958 0.025461614 0.036771562
0.026174366 0.075321198 0.036813051
0.025306702 0.075870275 0.036739424
0.026468575 0.062146962 0.037048101
0.020295769 0.053978801 0.036472652
0.026538491 0.040058434 0.036523886
0.023317426 0.042077541 0.036201488
0.027408779 0.038619339 0.037185781
0.025280267 0.039921582 0.036939859
0.025067806 0.073130667 0.038137533
0.023022979 0.063294351 0.037151664
0.02137658 0.064325333 0.036985107
0.021070391 0.052590668 0.037121862
0.023324996 0.05024159 0.037885725
0.02147007 0.051387668 0.037652194
0.028077185 0.037324429 0.037858706
0.02634275 0.038343668 0.037601292
0.024015635 0.072827935 0.038511463
0.022334933 0.061834753 0.038119894
0.021125168 0.062582314 0.037970878
0.02225253 0.04996866 0.038301162
0.043658823 0.025936604 0.040802021
0.095698088 0.083157599 0.048813239
0.023917615 0.070985317 0.039530054
0.023377419 0.047430158 0.03950692
0.02295208 0.048613667 0.038905382
0.02189526 0.048328102 0.039326455
0.019609153 0.050669611 0.038508315
0.10175967 0.076522827 0.050891146
0.099963099 0.077643096 0.05065291
0.09784326 0.078891873 0.050345678
0.023626328 0.069242597 0.040477123
0.027048528 0.066234946 0.041405819
0.022033691 0.057365894 0.040706187
0.021960348 0.058334887 0.040162027
0.031444818 0.041543245 0.040954974
0.036520392 0.027573287 0.041648731
0.037812412 0.02584821 0.042322371
0.10166904 0.074655831 0.051731821
0.099853247 0.075742543 0.051552717
0.02320832 0.067640424 0.041474566
0.023063362 0.066803932 0.041977111
0.021613747 0.067631125 0.041750357
0.022834569 0.055938005 0.041331824
0.021409243 0.055876255 0.041690715
0.02809459 0.041750968 0.041654062
0.025544763 0.04240036 0.041914858
0.024637491 0.042957366 0.041808091
0.023071557 0.043907285 0.041623868
0.021773607 0.045163691 0.041196976
0.020554453 0.046355605 0.040764038
0.041224808 0.021883488 0.043797828
0.10238251 0.073217034 0.052217919
0.10199526 0.071498096 0.053083107
0.10127839 0.072921097 0.052528802
0.028586298 0.062463582 0.043096211
0.023423791 0.065647304 0.042540617
0.021993041 0.06650269 0.042347431
0.026697427 0.051680386 0.042830687
0.020809948 0.054356933 0.04265441
0.02781406 0.040030122 0.042660184
0.026097089 0.041117132 0.042497452
0.025070488 0.041755378 0.042386793
0.023558706 0.042690754 0.042225994
0.030354261 0.037610173 0.043557081
0.027313292 0.039408147 0.04313894
0.021238297 0.04316926 0.042478055
0.10428163 0.06917727 0.053844552
0.10266799 0.070130706 0.053606015
0.10158339 0.06981957 0.053921856
0.020798415 0.064422429 0.04374931
0.022301197 0.053472459 0.042874079
0.024278909 0.051290631 0.0435801
0.021226794 0.053189993 0.043270022
0.0298796 0.036969483 0.044045612
0.021706611 0.041952789 0.04306921
0.10538983 0.066575229 0.054880057
0.1030862 0.066985071 0.055032827
0.10232648 0.068427265 0.054490227
0.024437904 0.073168099 0.044999998
0.021372467 0.052158833 0.043777045
0.036494523 0.020160615 0.045989707
0.035768539 0.021516442 0.045360293
0.029674739 0.025278449 0.044662483
0.096423447 0.085051715 0.055297289
0.094863862 0.086013973 0.055107012
0.093264729 0.086981833 0.054896411
0.090634823 0.088558137 0.054573443
0.089051604 0.089542627 0.05436413
0.087894946 0.090276301 0.054274719
0.085488647 0.091718912 0.053967357
0.10497364 0.064878941 0.055701356
0.10265926 0.065315425 0.055886589
0.10113725 0.066233039 0.055685747
0.025596648 0.070516288 0.046109322
0.024050713 0.071493983 0.045941561
0.023753166 0.071677923 0.045897108
0.018600494 0.051982582 0.044508241
0.023130208 0.049165428 0.045002583
0.021613032 0.050102234 0.044809114
0.033627391 0.03184104 0.046054848
0.029375881 0.02362746 0.045748003
0.095322758 0.084740877 0.055584513
0.093682349 0.085753024 0.055383056
0.090979278 0.087385297 0.05503713
0.097788602 0.082260251 0.056282092
0.09597218 0.083381653 0.056089398
0.098247141 0.080957472 0.056719072
0.096663654 0.081978023 0.056586497
0.09332183 0.084012687 0.056202762
0.10307595 0.064092338 0.05636391
0.10375425 0.062674344 0.056845259
0.034347534 0.0911268 0.048069682
0.023366094 0.05716306 0.047063515
0.022781432 0.057516396 0.04698151
0.022190899 0.057864666 0.046895124
0.022347361 0.046843708 0.046471022
0.018988729 0.048888206 0.046042915
0.017786056 0.049647391 0.045934595
0.10100546 0.07835561 0.057534553
0.098898798 0.079598367 0.057227891
0.094071001 0.08259058 0.056718569
0.097766608 0.079305947 0.05752204
0.10456905 0.060225427 0.057838235
0.10415193 0.061433494 0.057338998
0.10184669 0.061903477 0.057514511
0.10226589 0.060649395 0.058002222
0.021958143 0.069910288 0.047173601
0.018749774 0.0589993 0.0469798
0.029012829 0.040863395 0.048266225
0.020942152 0.046761692 0.046818711
0.10270298 0.075366557 0.058601115
0.099007428 0.077620685 0.058151573
0.10009822 0.075958908 0.058737677
0.10417718 0.058516681 0.058674436
0.025167376 0.042328656 0.048384298
0.022439331 0.043993771 0.048065577
0.020888448 0.044930995 0.047871992
0.036760867 0.023428142 0.050186541
0.03259933 0.026001155 0.049722265
0.025226891 0.030497134 0.04882241
0.10079071 0.074578643 0.059234828
0.099012613 0.075652122 0.059034679
0.1030277 0.072198033 0.059894592
0.1014708 0.073169172 0.059700042
0.099659592 0.074294448 0.059539527
0.1026887 0.056508064 0.059819628
0.022146672 0.042293429 0.049079224
0.040230185 0.020373404 0.051128216
0.035403341 0.023332953 0.050556019
0.042204559 0.018267572 0.051932823
0.037329495 0.021219671 0.051325768
0.036002278 0.022014499 0.05116652
0.034933746 0.022687495 0.051035829
0.032379121 0.024291754 0.050780259
0.10263926 0.070480704 0.06070346
0.099560469 0.07238996 0.060335353
0.10335764 0.069102466 0.06124736
0.10029218 0.070940912 0.060850583
0.019750535 0.052765191 0.050190262
0.028431028 0.036583543 0.050849572
0.037510693 0.020174086 0.051880978
0.073555797 0.10224909 0.058620363
0.10074952 0.069669306 0.061333805
0.10146156 0.068294704 0.061862763
0.1020087 0.053048491 0.061529711
0.10150689 0.054299831 0.061005853
0.026812434 0.070219517 0.052642688
0.020860553 0.050165534 0.0512807
0.020192951 0.051552892 0.050756831
0.028252959 0.024926007 0.051345062
0.09425652 0.087614119 0.061864071
0.091603875 0.089214265 0.061544534
0.088878721 0.090921462 0.061257146
0.087655127 0.09166497 0.061102219
0.085521668 0.092956781 0.060821179
0.091962427 0.088018835 0.061997082
0.089228958 0.089700937 0.061654061
0.085589409 0.091918945 0.061244428
0.083809704 0.093002737 0.061004937
0.10212278 0.066922843 0.06239282
0.10285985 0.065496206 0.06292966
0.10100842 0.066626906 0.062690757
0.10254699 0.051775396 0.062057104
0.10146061 0.051468194 0.062372629
0.10214531 0.050079226 0.062904805
0.024767041 0.070532918 0.052893441
0.020145655 0.06147778 0.05183582
0.021454722 0.059738934 0.052481432
0.019705713 0.060787976 0.052269213
0.017187446 0.062390804 0.052047711
0.021501243 0.048823357 0.051887285
0.01829955 0.050817609 0.051553123
0.022034794 0.047556818 0.052445896
0.02645421 0.024166822 0.052202184
0.093856901 0.085902393 0.062653027
0.08691749 0.090151608 0.061859414
0.083549976 0.092188716 0.061399646
0.076596856 0.09646368 0.060624503
0.092388093 0.08678025 0.062455613
0.090032369 0.087218165 0.062585048
0.089671731 0.088433146 0.06213212
0.087273806 0.088935256 0.062252913
0.084893137 0.090386927 0.061994229
0.082056195 0.093084037 0.061197702
0.080339611 0.094109774 0.060991652
0.077029735 0.095170736 0.06102708
0.07460013 0.096654058 0.060751729
0.10177138 0.065181851 0.063220076
0.10242274 0.063820422 0.063721702
0.10276645 0.06262362 0.064168401
0.10130522 0.06353271 0.06401924
0.022504091 0.058148086 0.053106945
0.021859765 0.058537841 0.053021438
0.027978897 0.043001235 0.05367662
0.021949708 0.045728981 0.053459875
0.041714817 0.022814035 0.055532333
0.035357624 0.026736915 0.054831631
0.031638473 0.028968275 0.054328375
0.022266537 0.034685194 0.053199522
0.09833324 0.081167638 0.063960209
0.096822113 0.082127929 0.063822672
0.093466789 0.08417213 0.063434474
0.091928542 0.085111141 0.063240767
0.077487826 0.09388268 0.06147125
0.09419632 0.08275795 0.063941196
0.089660496 0.085493147 0.063363075
0.070253313 0.097342789 0.061054543
0.099958688 0.078247309 0.065015025
0.097913116 0.079439759 0.064718783
0.096383393 0.080407321 0.064566918
0.09489423 0.081336617 0.064415008
0.093068421 0.082452714 0.064212583
0.068270206 0.097577333 0.061208099
0.10476449 0.060386539 0.064815387
0.10320646 0.061344504 0.064624786
0.10210282 0.061047077 0.064918712
0.1008589 0.061842918 0.064810351
0.022763729 0.044300735 0.054080654
0.01667282 0.048001885 0.053317308
0.021612734 0.044049919 0.054438036
0.019982725 0.045032263 0.054233804
0.043390244 0.020839572 0.056245636
0.038513631 0.023825765 0.055678662
0.034306049 0.026438534 0.055218756
0.028161913 0.030149877 0.054413062
0.026324689 0.031304598 0.054248698
0.0437828 0.019679308 0.056827251
0.03740406 0.023572326 0.056065354
0.036518782 0.024127364 0.055963904
0.035328507 0.024881542 0.055855133
0.024339676 0.031564772 0.054554299
0.024043828 0.031745017 0.054521035
0.020123601 0.034107566 0.053972356
0.099907666 0.076309144 0.065850064
0.098749965 0.077994287 0.065265
0.096830755 0.079112828 0.064998731
0.094421148 0.079648256 0.065167584
0.092968464 0.080548644 0.065016843
0.065924138 0.098065913 0.061426416
0.10434315 0.058695078 0.065613426
0.10286391 0.059579372 0.065441102
0.10322857 0.058399558 0.065912724
0.099758387 0.045679748 0.065240309
0.019414127 0.055286109 0.055204883
0.023149848 0.041225493 0.05563755
0.021884501 0.042466521 0.055235051
0.019770414 0.043286681 0.055234756
0.033449203 0.024154365 0.056675944
0.096666843 0.077277184 0.065820225
0.062796772 0.097975612 0.061835181
0.099801928 0.074407637 0.066675127
0.097977221 0.075530291 0.066447489
0.10283649 0.056677282 0.066712044
0.10125217 0.057654858 0.066536322
0.098619014 0.045415819 0.065565191
0.093805909 0.032567024 0.065659381
0.022746027 0.06314218 0.056925476
0.01913619 0.065320253 0.056479078
0.080626607 0.016012847 0.06348709
0.019993424 0.053033888 0.056275528
0.018763602 0.053783298 0.05612579
0.016075432 0.055402279 0.055764716
0.037992358 0.019453287 0.058206007
0.026708961 0.026348531 0.056865443
0.098663568 0.074105084 0.066955097
0.1006113 0.071433485 0.067728482
0.099641591 0.072545111 0.06744007
0.09936735 0.072714865 0.06741529
0.10159701 0.054495275 0.067846403
0.098775625 0.041404784 0.067328095
0.023155898 0.061913311 0.057440937
0.020847291 0.062386572 0.057651728
0.018445611 0.063866735 0.057390451
0.024645001 0.049221456 0.05730655
0.021590769 0.051102102 0.056932464
0.018926024 0.052722991 0.056629583
0.020526826 0.039993286 0.056839995
0.025763035 0.035842597 0.057949141
0.035087556 0.020289898 0.058394652
0.03228429 0.022034883 0.058077443
0.10236493 0.068898678 0.068582438
0.10076794 0.069844067 0.068383038
0.10202086 0.053260565 0.06833794
0.096866488 0.040628612 0.067988366
0.018802285 0.062716186 0.057935841
0.021252662 0.04938674 0.05786439
0.016694099 0.052182138 0.057346478
0.020806313 0.048707604 0.05831613
0.022321463 0.036955237 0.058003183
0.026634336 0.033416748 0.059101719
0.026025087 0.033797979 0.059014935
0.019679308 0.037670851 0.058249481
0.083162606 0.094501495 0.067765929
0.083854526 0.093089819 0.068255171
0.10032421 0.068170309 0.069157802
0.098846018 0.069057822 0.068982676
0.10266665 0.065780818 0.069893338
0.10112083 0.066731453 0.069710836
0.10009566 0.05246985 0.068959683
0.10077009 0.051128387 0.069497891
0.097842723 0.039071858 0.06854745
0.020406783 0.04703486 0.059247091
0.046803325 0.020166337 0.061991632
0.044386327 0.021604955 0.061666671
0.036797792 0.026298046 0.060817469
0.031639755 0.029395461 0.060155965
0.029757828 0.030544281 0.059908602
0.027972937 0.031664908 0.059734065
0.023814529 0.034199536 0.059243839
0.023132622 0.03460145 0.059137575
0.020247698 0.036350608 0.058791205
0.044835687 0.020390451 0.062237944
0.044374555 0.020662487 0.062175527
0.033289075 0.027472615 0.06089405
0.02746582 0.031025529 0.060171634
0.024797946 0.032654643 0.059892226
0.02416572 0.033048511 0.059807327
0.0208323 0.035026729 0.059345156
0.085631162 0.092021465 0.068500124
0.090878963 0.087795854 0.069509387
0.088157356 0.089497983 0.069189802
0.086949944 0.090245187 0.069097601
0.085764825 0.09093833 0.068906307
0.082118928 0.093159676 0.068437256
0.081196249 0.09372431 0.068325065
0.080317944 0.09422797 0.068223655
0.079103142 0.09498477 0.068075284
0.076673955 0.096524 0.067855678
0.094316334 0.084747016 0.070338041
0.092758328 0.085695922 0.070142128
0.091268599 0.086587369 0.06994316
0.088841349 0.088066638 0.069645017
0.088537782 0.088253736 0.06959448
0.08279112 0.091773391 0.068930283
0.07697919 0.095320404 0.068244517
0.074647576 0.096714795 0.067953341
0.073492974 0.097403228 0.06780272
0.10220829 0.06411922 0.070680581
0.10070965 0.065009475 0.070485599
0.10258791 0.062898278 0.071121402
0.10127115 0.049853086 0.069994427
0.099646389 0.050831556 0.069794193
0.10186186 0.048491538 0.070481852
0.021070927 0.057454407 0.060040958
0.0202187 0.057976544 0.059941955
0.07338202 0.012818813 0.066540331
0.072760254 0.013193309 0.066464953
0.020092905 0.045334578 0.060187157
0.018524855 0.046280622 0.060008619
0.041264206 0.021626413 0.062313341
0.038554609 0.023270726 0.061996609
0.032244414 0.02716887 0.061275791
0.085004568 0.08946234 0.069647968
0.075884938 0.09502089 0.068544708
0.093935251 0.082996309 0.071091972
0.09237504 0.083959401 0.070901655
0.090776771 0.08492732 0.070691332
0.088968039 0.086990476 0.070070125
0.071554124 0.096619785 0.06836576
0.070300072 0.097415566 0.06823191
0.097659022 0.079682827 0.071854681
0.10026234 0.063329339 0.071273595
0.10215297 0.061164737 0.071851879
0.099162728 0.047212601 0.071448952
0.098809183 0.04743737 0.071405381
0.095605314 0.035574675 0.070494354
0.095273554 0.035779357 0.070451662
0.01961115 0.055481434 0.061311558
0.016940653 0.057094693 0.060978033
0.015729427 0.057817698 0.060832687
0.022292703 0.043061137 0.060966101
0.020761073 0.043988883 0.060773686
0.025729805 0.03999275 0.061840974
0.046242982 0.015772998 0.064450696
0.032617331 0.024124384 0.062852606
0.031117022 0.025017917 0.062657118
0.024659038 0.028954983 0.061849248
0.094578803 0.081625998 0.071550466
0.09118408 0.083693802 0.071144849
0.068291336 0.097658992 0.068381771
0.096549749 0.079377413 0.072116531
0.095280558 0.080196977 0.07201086
0.093463928 0.081317723 0.071817979
0.067170322 0.097366631 0.068669647
0.065927058 0.098158419 0.068588465
0.097499102 0.077827215 0.072636046
0.064796478 0.097852528 0.068832092
0.09985283 0.061617315 0.072032973
0.10287994 0.059706092 0.072349541
0.10172498 0.05943346 0.072627589
0.10213062 0.058220923 0.073093794
0.099541306 0.046006501 0.07191214
0.098445654 0.045691609 0.072214611
0.026200086 0.076042473 0.063192248
0.021930426 0.078622043 0.062655978
0.023340672 0.064008415 0.062777206
0.020269364 0.066820562 0.061930738
0.019828081 0.065171242 0.062810093
0.01896295 0.065684259 0.06268964
0.021481514 0.040706456 0.062346697
0.020424992 0.042296708 0.061722916
0.018874019 0.043234289 0.061529286
0.017378569 0.044134796 0.061332382
0.033287168 0.022757888 0.063422211
0.041798919 0.017547011 0.064430319
0.036094934 0.020991802 0.063724808
0.030656844 0.02435714 0.063107371
0.098797053 0.076090395 0.073241472
0.097655505 0.075796366 0.073495179
0.096370459 0.077526808 0.07289049
0.094551563 0.078639269 0.072689101
0.093324602 0.079422891 0.072580382
0.062763184 0.098067582 0.068931498
0.061639309 0.097762227 0.069184117
0.06073764 0.098308265 0.069061413
0.10279754 0.056827545 0.073577076
0.098870903 0.04347086 0.073091313
0.098586231 0.043645024 0.073058195
0.025772065 0.074366987 0.064035259
0.024221331 0.04977268 0.063294001
0.017326504 0.053047776 0.062959373
0.065865457 0.012637377 0.068096466
0.020377725 0.040420473 0.062698841
0.042642891 0.01514405 0.065540358
0.041552156 0.014871061 0.065923415
0.098656952 0.074174047 0.074042171
0.098360747 0.074358642 0.074002437
0.096458942 0.075538993 0.073747799
0.094407618 0.076742589 0.073449872
0.099333078 0.072797954 0.074495584
0.05879885 0.097514451 0.069613039
0.098221272 0.07248801 0.074764818
0.057682097 0.097207069 0.069876961
0.10236362 0.055123448 0.074346423
0.10090142 0.056017876 0.074179001
0.097635776 0.041285515 0.074211739
0.09151119 0.031260312 0.073136725
0.021890879 0.073808134 0.064886719
0.077553213 0.014360547 0.071080446
0.076854438 0.01573807 0.070507526
0.019393653 0.049871385 0.064150415
0.017488122 0.051983833 0.063448533
0.028893709 0.032368302 0.065178543
0.028176188 0.03374368 0.064626396
0.026681781 0.034673393 0.064423054
0.024849147 0.035755455 0.064160936
0.023223937 0.036724627 0.063953951
0.019381672 0.038170993 0.064044051
0.039839983 0.014968634 0.066221759
0.023184299 0.025091112 0.064196035
0.10112977 0.06870544 0.075865723
0.099627495 0.069616318 0.075689763
0.099228352 0.070856154 0.07521791
0.098070472 0.070588052 0.075495288
0.097080737 0.072198629 0.075036377
0.054821074 0.096989095 0.070373952
0.10171649 0.053533792 0.075088203
0.10045251 0.054325998 0.074943647
0.097861677 0.03919822 0.075098917
0.096565247 0.040963233 0.074524999
0.090440661 0.030939639 0.073451348
0.019809991 0.060351491 0.065090477
0.018165022 0.061382174 0.064924441
0.077413321 0.013479829 0.07153707
0.018312305 0.04958123 0.064513713
0.017089397 0.05033493 0.064388357
0.075085729 0.013946652 0.071729377
0.018677473 0.048369586 0.064987056
0.017227799 0.049287379 0.0648752
0.036660284 0.026684165 0.066620506
0.03116259 0.029990494 0.065908231
0.028857142 0.030454576 0.066098757
0.024001122 0.033447266 0.065568775
0.019161612 0.036388218 0.064981408
0.033587307 0.015912056 0.066955768
0.029058695 0.018688381 0.066419661
0.10004002 0.06837666 0.076134153
0.098503262 0.069319725 0.075949714
0.096960604 0.070286751 0.075766079
0.10103539 0.066818893 0.076682702
0.10074767 0.066993594 0.076644726
0.053448617 0.095849931 0.070992157
0.10144126 0.065576971 0.077133201
0.099618107 0.050917864 0.076510899
0.026196718 0.082001746 0.06706433
0.0959723 0.038393974 0.07572832
0.025049388 0.081722319 0.06737072
0.094839483 0.038100302 0.076017037
0.014892459 0.060521483 0.065961115
0.019483447 0.057676852 0.066432506
0.018629521 0.058179259 0.066332817
0.019032776 0.04527384 0.066468462
0.018359721 0.046640396 0.065927483
0.045050263 0.019627988 0.068561673
0.054546744 0.01287061 0.070147268
0.035521239 0.024523973 0.067942142
0.024532795 0.03120625 0.066641286
0.088083148 0.089524925 0.076415218
0.085676998 0.090967536 0.076107651
0.084715843 0.091568649 0.075999334
0.081157565 0.093712211 0.075538829
0.081057191 0.094743133 0.075142086
0.07902351 0.095015466 0.075288802
0.076597989 0.096523583 0.075039037
0.091153085 0.08662796 0.077127814
0.08841455 0.088303804 0.076786228
0.082076281 0.092166662 0.076024145
0.08122462 0.092687547 0.075925238
0.077884883 0.09472388 0.075535625
0.074588388 0.096703172 0.07512714
0.10103068 0.063855171 0.077896327
0.099482238 0.064800322 0.07769087
0.10028106 0.049552619 0.077021539
0.095556617 0.03620708 0.076740488
0.020363659 0.068888485 0.067309186
0.023767352 0.065872192 0.068219289
0.021106869 0.067434609 0.067835525
0.019553035 0.056663752 0.066902831
0.016263217 0.058660924 0.066509984
0.016673625 0.057435036 0.06702286
0.020516962 0.042473912 0.067626476
0.018922508 0.043433666 0.067418255
0.043188334 0.018850148 0.069310613
0.039862573 0.020875335 0.068911694
0.039570481 0.021054864 0.068871953
0.029213041 0.027381003 0.067636378
0.041232854 0.019074142 0.069553435
0.029977024 0.025990427 0.068249032
0.09152019 0.085418761 0.077567756
0.088867456 0.087019026 0.077248245
0.08730796 0.087991536 0.077042967
0.086141407 0.088726103 0.076960772
0.084917784 0.089469671 0.076805718
0.082784504 0.090762198 0.076524816
0.081888735 0.091293216 0.076393828
0.078298956 0.093450844 0.075955942
0.075805813 0.095040977 0.075724602
0.074656457 0.095713556 0.075559691
0.073500723 0.096366048 0.075374588
0.072244644 0.097161233 0.075245894
0.093843997 0.083004534 0.078238025
0.089216411 0.085819423 0.077667482
0.087741345 0.086718917 0.077487566
0.084986806 0.088436306 0.077214837
0.083778799 0.089156806 0.077034809
0.080125809 0.091370583 0.076553352
0.07925722 0.091903687 0.076447561
0.07348451 0.095425785 0.075792313
0.072344303 0.096082509 0.075620085
0.070199758 0.097438037 0.075377934
0.1005736 0.062170863 0.078622252
0.10249498 0.059958398 0.079202071
0.1012688 0.060733616 0.07906229
0.098764032 0.047531307 0.078080207
0.032139599 0.088217139 0.070158675
0.093923688 0.035743415 0.077194184
0.085762471 0.026045978 0.076449461
0.020679981 0.06574291 0.068665676
0.018090606 0.054666936 0.068116926
0.024738848 0.037927866 0.069011323
0.022877783 0.039111614 0.068845376
0.020482808 0.04057163 0.068576567
0.019354165 0.042217135 0.067952044
0.017844945 0.043127596 0.067766696
0.01345095 0.044842839 0.06768135
0.011834443 0.046824336 0.067095995
0.043101996 0.01702714 0.070304394
0.044749022 0.015051901 0.070990309
0.025347263 0.026877701 0.068649746
0.094872475 0.080404818 0.079111561
0.092639983 0.082751751 0.078475237
0.091100723 0.08369863 0.078290023
0.089978755 0.08338815 0.078529671
0.089632273 0.084576666 0.078092739
0.070241332 0.096408606 0.0757799
0.0690476 0.097148955 0.075624034
0.067950785 0.096825838 0.075867355
0.066984594 0.097443044 0.075819261
0.095240295 0.079165399 0.079507783
0.09254846 0.080834925 0.079222918
0.090691268 0.081959724 0.079004854
0.065883428 0.097128451 0.076079585
0.064704269 0.097837567 0.075931713
0.099265844 0.05999583 0.079632536
0.099228054 0.04427129 0.079326838
0.097548723 0.045297146 0.079161569
0.017553836 0.065726399 0.069197789
0.017387003 0.053182185 0.068975918
0.017466575 0.052158952 0.069448784
0.019398093 0.04027164 0.068913266
0.018227369 0.04002887 0.069249004
0.042423069 0.015538096 0.071211718
0.032772601 0.02141273 0.070032664
0.042873979 0.014293492 0.071745634
0.092925489 0.079604983 0.079637408
0.091411173 0.080541313 0.079478227
0.091099352 0.080720663 0.079434894
0.063597172 0.097512841 0.076168261
0.09716481 0.076026618 0.080518961
0.095119268 0.077219963 0.080222875
0.091805786 0.079297543 0.079890929
0.099696338 0.058712363 0.08005587
0.10163316 0.056541026 0.080679968
0.10043317 0.057267189 0.080544651
0.10015428 0.057425022 0.080507606
0.097129226 0.043588758 0.079903543
0.02689147 0.085531592 0.072020546
0.09136343 0.032402217 0.079026967
0.091004282 0.031638861 0.079425499
0.020005018 0.07499665 0.070950344
0.078389972 0.014976978 0.076704554
0.018719763 0.051413834 0.069617897
0.072091371 0.017842114 0.076398268
0.028961301 0.032524765 0.071004532
0.023825586 0.035617411 0.070329294
0.022002935 0.036735833 0.07012742
0.020779997 0.037512422 0.070015654
0.018205374 0.038130522 0.070193872
0.043272704 0.013099253 0.072268449
0.039670616 0.015312791 0.0718574
0.035276115 0.017005622 0.071788147
0.03285259 0.018486202 0.071511805
0.030705392 0.019809663 0.071248934
0.026473969 0.022412181 0.070778072
0.023979634 0.023908436 0.070442289
0.021277606 0.025556147 0.070098974
0.097137094 0.092777669 0.081360452
0.096089542 0.075687587 0.080760375
0.094027102 0.076888978 0.080469549
0.061623901 0.096720636 0.076675892
0.0606938 0.097280264 0.076529436
0.097633243 0.072749496 0.081746712
0.09684965 0.073730052 0.081454158
0.0949772 0.075363278 0.08099249
0.057483703 0.097248077 0.07689546
0.10121328 0.054815292 0.081418023
0.10054955 0.055224061 0.081343964
0.099687278 0.055754185 0.081244364
0.097310424 0.041505575 0.080745772
0.090423733 0.030043006 0.080219164
0.071315289 0.015420914 0.077691875
0.017912775 0.048022449 0.071315408
0.016414136 0.048961759 0.071200311
0.061600238 0.010668278 0.075823456
0.060126126 0.011552572 0.075632975
0.058374494 0.011654556 0.075901136
0.057839423 0.011974752 0.075836435
0.054773152 0.013863742 0.075453714
0.021749616 0.034010649 0.071514003
0.016896963 0.037007868 0.070988715
0.099684715 0.070490181 0.082294598
0.098440468 0.071277976 0.082181141
0.057937652 0.095978498 0.077329069
0.099125534 0.069839478 0.082611136
0.055508971 0.096475899 0.077442229
0.054653883 0.096998274 0.077364162
0.035952151 0.092708468 0.074448116
0.035662323 0.092879415 0.074415043
0.10080588 0.053072751 0.082157388
0.099274814 0.054023027 0.081977479
0.10124311 0.050876141 0.083040245
0.1003288 0.051409066 0.082908146
0.10006115 0.051561236 0.082874328
0.09882614 0.052314162 0.08271426
0.037015557 0.090101063 0.075408407
0.027536303 0.082159817 0.073311031
0.10064685 0.03650099 0.082385063
0.096405745 0.039095879 0.08186119
0.095278114 0.03880471 0.082141668
0.021027446 0.070486367 0.072820894
0.018591672 0.071967542 0.072545521
0.018259764 0.072165251 0.07248807
0.017057747 0.072888553 0.072320819
0.080931485 0.020242691 0.079868056
0.072579086 0.01368171 0.078292176
0.072672248 0.012664735 0.078770012
0.070881277 0.01373899 0.078543894
0.065425515 0.017062783 0.077888563
0.058019668 0.0099659562 0.076812074
0.056516796 0.010865748 0.076630227
0.021590739 0.032223463 0.072487913
0.019534945 0.03343457 0.072194122
0.083994895 0.094815671 0.081978455
0.1006963 0.065931559 0.084003642
0.10061651 0.066962659 0.083587348
0.0999102 0.067375064 0.083484069
0.098907888 0.067967117 0.08336436
0.10553581 0.047248423 0.083916366
0.10099444 0.050046563 0.083407924
0.10204846 0.04839766 0.08393085
0.099892467 0.049732387 0.08367388
0.033806145 0.090076685 0.075812116
0.097403675 0.03653419 0.082797647
0.095945269 0.037426889 0.082632512
0.030756652 0.078239977 0.074528135
0.023854792 0.081458986 0.074131258
0.023304164 0.080807924 0.074479207
0.091093481 0.026721597 0.081595749
0.088947594 0.028021514 0.081325904
0.02587235 0.066573381 0.073869646
0.019279361 0.070599556 0.073095739
0.087642342 0.027840793 0.081602201
0.019705653 0.069326639 0.073494673
0.08820194 0.0265342 0.082103513
0.070463747 0.012078226 0.079415783
0.066087812 0.015703976 0.078438133
0.017443657 0.044437051 0.073114321
0.05418393 0.011338711 0.076804236
0.024894506 0.028277218 0.073802248
0.09322837 0.087183058 0.083827734
0.083257586 0.09326911 0.082620211
0.081457227 0.09433639 0.082406498
0.080241948 0.095094144 0.082258284
0.078938901 0.095917046 0.082129374
0.066631526 0.1034283 0.080679484
0.095145851 0.085037649 0.084454514
0.088466346 0.089115918 0.083637655
0.087258577 0.08986181 0.083545268
0.085744888 0.090758443 0.083315797
0.085119367 0.091152012 0.08324609
0.076981843 0.096141756 0.082303323
0.07577619 0.096820891 0.082102805
0.07432428 0.097699583 0.081918873
0.1001339 0.065281153 0.084315851
0.098666608 0.066156387 0.084101304
0.051064432 0.095218599 0.078458726
0.10296151 0.062574148 0.085032895
0.10176507 0.063310206 0.084906854
0.10073668 0.063915372 0.084772199
0.044837892 0.097052813 0.078482576
0.10241705 0.047187388 0.084361076
0.099427134 0.048041224 0.084417045
0.094613761 0.036274195 0.083301626
0.023752451 0.079541743 0.074904367
0.025960684 0.077207506 0.07554286
0.024404347 0.078149199 0.075345919
0.018374711 0.068183184 0.074187964
0.079709709 0.018084526 0.081048496
0.079836428 0.017038465 0.08151108
0.067724764 0.01277566 0.079556644
0.064865261 0.01451993 0.079210699
0.065554321 0.013147712 0.07976149
0.062517941 0.014973879 0.079384647
0.018555939 0.041847408 0.07418035
0.090358734 0.086921751 0.0842219
0.08790186 0.088457525 0.083921231
0.083361894 0.09122628 0.083382711
0.08251211 0.091730535 0.083265923
0.080150872 0.093147457 0.082974687
0.078930944 0.093890369 0.082824513
0.072240055 0.098004878 0.08204972
0.094216973 0.082600951 0.08543922
0.092227697 0.08481878 0.084821098
0.090259969 0.08500278 0.084931009
0.089830786 0.086248517 0.084518053
0.088311315 0.087189674 0.084324002
0.076826572 0.094203472 0.082960032
0.075577796 0.095009446 0.082872309
0.072961271 0.096527696 0.082481831
0.069392294 0.097753406 0.082431056
0.068679452 0.09922868 0.082074523
0.065656245 0.10102099 0.081607684
0.047885269 0.095185339 0.078878306
0.10038686 0.06216681 0.085494973
0.045549959 0.095640779 0.078966096
0.10073757 0.06095314 0.085904934
0.10021091 0.045572102 0.085277438
0.099031717 0.046281934 0.085151061
0.03238073 0.086997509 0.077239767
0.030000359 0.087469459 0.077354386
0.095200032 0.03294915 0.084622584
0.094471395 0.034390569 0.084099978
0.021591395 0.077911437 0.075880818
0.09588325 0.031570315 0.085120156
0.087310553 0.02413708 0.083283082
0.020635635 0.064840078 0.075339936
0.017921805 0.066496134 0.0750117
0.085264951 0.024419725 0.083469115
0.07602486 0.018398702 0.081512272
0.076453328 0.017142832 0.081996523
0.078323513 0.015055656 0.082670189
0.067177862 0.011180103 0.080399901
0.059379995 0.014971256 0.07990703
0.033502311 0.020124674 0.076266728
0.029569894 0.022569537 0.075847112
0.026834756 0.024228573 0.075491764
0.019512117 0.028688788 0.0746409
0.099413782 0.078403413 0.086353227
0.094851136 0.081227601 0.085864335
0.092125833 0.082887471 0.08554665
0.070020735 0.096363425 0.082887381
0.067324132 0.098053753 0.082629725
0.058182478 0.10363013 0.081528321
0.096813321 0.078975916 0.086396962
