# .PCD v0.7 - Point Cloud Data file format
VERSION 0.7
FIELDS x y z normal_x normal_y normal_z curvature
SIZE 4 4 4 4 4 4 4
TYPE F F F F F F F
COUNT 1 1 1 1 1 1 1
WIDTH 1249
HEIGHT 1
VIEWPOINT 0 0 0 1 0 0 0
POINTS 1249
DATA ascii
0.022498425 -0.024721591 0.17500001 0 -0 1 0
0.17207462 0.19225903 0 0 0 -1 0
-0.20471299 0.19707833 0.025 0 0 1 0
-0.011949807 -0.064155675 0 0 0 -1 0
-0.21577603 -0.21354191 0 0 0 -1 0
0.023669295 0.18597078 0 0 0 -1 0
0.0087432088 0.049061604 0.025000002 0 0 -1 0
-0.11457849 -0.19124611 0 0 0 -1 0
-0.10159437 -0.047824826 0 0 0 -1 0
-0.24926254 -0.12383392 0.025 0 0 1 0
0.2277081 -0.2461533 0 0 0 -1 0
0.16202697 0.17178088 0 0 0 -1 0
0.23543258 -0.22920571 0 0 0 -1 0
0.014028959 0.12844607 0.025 0 0 1 0
0.25 -0.11236118 0.012780726 1 0 0 0
-0.078272656 -0.15723297 0 0 0 -1 0
-0.13337031 0.1192927 0.025000002 0 0 1 0
0.15644008 0.18548508 0.025 0 0 1 0
0.25 0.020264052 0.00063120079 1 0 0 0
-0.22541781 -0.12111494 0 0 0 -1 0
-0.20384569 -0.21170051 0.025 0 0 1 0
-0.0046801716 0.24449351 0.025000002 0 0 1 0
0.08522743 0.2297934 0 0 0 -1 0
-0.10566653 0.18672709 0 0 0 -1 0
-0.16172436 -0.06323956 0.025 0 0 1 0
0.19259225 -0.15516394 0.025000002 0 0 1 0
-0.17315683 -0.15405652 0.025 0 0 1 0
-0.027409017 -0.24084792 0.025 0 0 1 0
-0.16134337 0.24363717 0.025000002 0 0 1 0
-0.096207105 -0.14406766 0.025 0 0 1 0
-0.061776422 -0.15244329 0.025 0 0 1 0
-0.14172927 -0.15411703 0.025000002 0 0 1 0
-0.034197405 -0.13512069 0.025000002 0 0 1 0
-0.15613592 -0.20950398 0.025 0 0 1 0
-0.15209049 0.095378391 0 0 0 -1 0
0.23240146 -0.24319403 0.025 0 0 1 0
-0.061333343 0.099830203 0 0 0 -1 0
-0.17891636 0.017188191 0 0 0 -1 0
-0.14334092 0.10851705 0 0 0 -1 0
-0.17149888 0.18402199 0 0 0 -1 0
0.083870322 0.25 0.021683235 0 1 0 0
-0.10205367 -0.039150581 0.025000002 0 0 1 0
-0.02044192 0.090701684 0.025 0 0 1 0
0.19698012 0.017072618 0 0 0 -1 0
-0.1591085 0.10440569 0 0 0 -1 0
0.15810002 -0.19324225 0.025000002 0 0 1 0
0.25 -0.052315153 0.011591733 1 0 0 0
0.25 0.031730186 0.015792845 1 -0 0 0
-0.094487727 -0.055364426 0.025 0 0 1 0
-0.22233918 -0.11917496 0 0 0 -1 0
-0.12135997 -0.052335955 0.025000002 0 0 1 0
0.19397819 -0.11300661 0.025 0 0 1 0
0.046986237 -0.25 0.012568819 0 -1 0 0
-0.20399176 0.25 0.019016074 0 1 0 0
-0.23643677 -0.017226979 0 0 0 -1 0
0.24320716 -0.12561865 0.025000002 0 0 1 0
0.12701544 -0.14136021 0 0 0 -1 0
-0.073244154 -0.012319509 0.024999999 0 0 1 0
-0.25 0.23648676 0.021690942 -1 0 0 0
0.087077104 -0.22550255 0.025 0 0 1 0
0.082917795 -0.038142458 0.025 0 0 1 0
-0.059855342 0.03865996 0.025 0 0 1 0
0.064755164 -0.019551216 0.025 0 0 1 0
0.02285666 -0.1915333 0 0 0 -1 0
-0.25 -0.16082563 0.00076316594 -1 0 0 0
0.025 -0.034411039 0.048019968 1 0 0 0
-0.25 -0.18600351 0.021858416 -1 0 0 0
-0.088453546 -0.13997662 0 0 0 -1 0
-0.22786248 -0.10072397 0 0 0 -1 0
0.19793281 0.18118325 0 0 0 -1 0
-0.21094805 0.095099762 0 0 0 -1 0
-0.16224641 0.17281963 0.025 0 0 1 0
-0.24665612 -0.083765015 0 0 0 -1 0
-0.19244507 -0.082564235 0.025 0 0 1 0
-0.12544222 -0.050248399 0 0 0 -1 0
-0.027565103 0.2248977 0.024999999 0 0 1 0
0.054205023 -0.045668658 0.025 0 0 1 0
0.096238382 0.044059321 0 0 0 -1 0
0.092247263 0.12445305 0 0 0 -1 0
-0.24196978 -0.066855565 0 0 0 -1 0
0.1814855 0.1532543 0 0 0 -1 0
-0.25 0.14907879 0.018787084 -1 0 0 0
-0.12165295 0.19461814 0 0 0 -1 0
0.083650559 0.22873874 0 0 0 -1 0
0.2293157 0.1956843 0.021303888 0.70710683 0.70710683 0 0
-0.14209959 -0.0043567531 0.025 0 0 1 0
0.0039334944 -0.050000004 0.13812822 0 -1 0 0
0.046614885 -0.19808048 0 0 0 -1 0
0.21975005 0.13364129 0 0 0 -1 0
0.025 0.007665813 0.14314519 1 0 0 0
-0.024999999 0.011401458 0.059662141 -1 0 0 0
-0.15139146 0.0321551 0 0 0 -1 0
0.16432305 0.20140238 0.025 0 0 1 0
-0.064932033 0.025394909 0 0 0 -1 0
0.017949808 0.15373123 0 0 0 -1 0
-0.21827692 0.040304296 0 0 0 -1 0
0.029015571 0.14318028 0.025 0 0 1 0
-0.13583812 -0.25 0.018045889 0 -1 0 0
-0.24844104 0.21285276 0.025 0 0 1 0
0.060625285 0.12604846 0 0 0 -1 0
-0.12153108 -0.071437627 0 0 0 -1 0
0.18823235 0.11413062 0.025 0 0 1 0
-0.092077136 -0.21472725 0 0 0 -1 0
-0.013321157 -0.048067123 0 0 0 -1 0
0.20524085 -0.10340167 0.024999999 0 0 1 0
0.024999999 0.0011917185 0.11645001 1 0 0 0
-0.055334866 -0.10743777 0.025 0 0 1 0
0.059509218 0.13442039 0 0 0 -1 0
-0.041939907 0.17492792 0 0 0 -1 0
0.15959755 0.13688853 0 0 0 -1 0
-0.16159898 0.20132108 0.025 0 0 1 0
0.014467478 0.23463276 0 0 0 -1 0
-0.15392751 -0.21165778 0 0 0 -1 0
-0.23810408 0.15012151 0 0 0 -1 0
-0.19266447 0.21224998 0.025 0 0 1 0
0.11835872 0.006089557 0.025 0 0 1 0
0.15651749 0.13004401 0 0 0 -1 0
-0.12462495 0.24263497 0.025000002 0 0 1 0
-0.065770462 0.0066748271 0 0 0 -1 0
0.24255735 0.044647105 0 0 0 -1 0
-0.13560966 -0.047183134 0.025000002 0 0 1 0
-0.19035935 0.17385072 0.025 0 0 1 0
0.10915519 -0.24759603 0.025 0 0 1 0
0.06591814 0.1966878 0.024999999 0 0 1 0
0.1720822 -0.25 0.0077235792 0 -1 0 0
-0.10530129 0.02730803 0.025000002 0 0 1 0
0.19390798 0.068612099 0.025 0 0 1 0
-0.25 -0.067864917 0.0052183657 -1 0 0 0
-0.12117796 -0.031554662 0 0 0 -1 0
0.084708869 0.076792389 0.025000002 0 0 1 0
0.1122259 -0.021583844 0.024999999 0 0 1 0
0.21868531 -0.057276569 0 0 0 -1 0
-0.24585709 0.15161455 0.025 0 0 1 0
-0.1229142 0.10686626 0.025000002 0 0 1 0
0.21087855 0.17891476 0.025 0 0 1 0
0.049579345 -0.13201198 0 0 0 -1 0
0.0044755526 0.041300215 0.13369979 0 0.70710683 0.70710671 0
-0.23055042 -0.027372316 0 0 0 -1 0
-0.025 -0.012303869 0.09203656 -1 0 0 0
0.045771539 0.045638938 0.025 0 0 1 0
0.041221209 -0.22434811 0 0 0 -1 0
-0.035134226 0.0058932602 0.025 0 0 1 0
-0.098470688 -0.13853364 0.025 0 0 1 0
0.025000002 0.030094862 0.075472169 1 0 0 0
0.20370308 0.038812056 0 0 0 -1 0
-0.044033654 -0.13325281 0 0 0 -1 0
0.12850928 0.25 0.0070570335 0 1 0 0
-0.085161269 0.045699332 0 0 0 -1 0
0.063286707 0.24540962 0 0 0 -1 0
0.21773803 -0.12434161 0.025000002 0 0 1 0
-0.084148794 0.20438285 0.025000002 0 0 1 0
0.0899731 -0.25 0.0049026422 0 -1 0 0
0.10641995 0.025017314 0.025 0 0 1 0
-0.20836926 -0.12416066 0.025 0 0 1 0
0.080211967 -0.23491138 0.025 0 0 1 0
-0.0806899 0.098870099 0 0 0 -1 0
0.2053712 0.20532799 0.025 0 0 1 0
-0.11216231 0.02525916 0 0 0 -1 0
-0.17583865 0.18016374 0.025 0 0 1 0
-0.11265063 0.13234818 0.025000002 0 0 1 0
0.13145928 -0.20968574 0.025000002 0 0 1 0
0.097935535 -0.22098376 0.024999999 0 0 1 0
-0.12410118 -0.078921884 0 0 0 -1 0
-0.069536448 0.053602349 0.024999999 0 0 1 0
0.10407611 -0.0099611282 0 0 0 -1 0
-0.068517648 0.20887895 0 0 0 -1 0
0.062863737 0.098745443 0.025 0 0 1 0
0.041896589 0.17369795 0.024999999 0 0 1 0
-0.20732376 -0.12387988 0 0 0 -1 0
0.14255038 -0.049033038 0 0 0 -1 0
0.18778184 0.15211268 0.025 0 0 1 0
-0.046382755 -0.20871696 0 0 0 -1 0
-0.24153687 0.23697267 0 0 0 -1 0
-0.093557611 -0.2425783 0.025000002 0 0 1 0
0.17668505 -0.20356274 0 0 0 -1 0
-0.024893302 0.028740453 0.14625956 -4.9065393e-17 0.70710683 0.70710671 0
-0.10299855 0.026246991 0 0 0 -1 0
0.081178159 -0.19886348 0.025000002 0 0 1 0
0.25 0.056805067 0.015224664 1 -0 0 0
-0.050595708 -0.15766221 0.025 0 0 1 0
-0.19833601 0.067630216 0 0 0 -1 0
-0.10963196 0.025684616 0.025 0 0 1 0
0.027580701 -0.15825504 0 0 0 -1 0
-0.074225083 0.24696979 0.025 0 0 1 0
0.17802805 0.19549605 0.025 0 0 1 0
-0.19744912 -0.10840699 0 0 0 -1 0
0.010615855 -0.25 0.013846994 0 -1 0 0
-0.12481359 -0.25 0.0057705892 0 -1 0 0
0.22948861 0.0095399991 0.025000002 0 0 1 0
0.055164162 0.091081537 0 0 0 -1 0
0.024130305 -0.050000001 0.092601098 0 -1 0 0
0.0077622626 -0.032799724 0.025 0 0 1 0
0.18866311 0.18342614 0 0 0 -1 0
0.13443677 -0.15309566 0.025 0 0 1 0
0.17969283 0.24530715 0.0070392005 0.70710683 0.70710683 0 0
0.094357707 -0.23982821 0.025 0 0 1 0
-0.1273008 -0.064216927 0.025000002 0 0 1 0
-0.036396742 0.11707225 0 0 0 -1 0
0.022393703 -0.19243407 0.025000002 0 0 1 0
-0.10286471 -0.2307844 0.025 0 0 1 0
-0.10829139 0.13524292 0.025 0 0 1 0
0.019189477 0.15144515 0.025000002 0 0 1 0
-0.12354872 0.053119533 0 0 0 -1 0
-0.19803922 0.03275039 0 0 0 -1 0
0.023168989 0.01402089 0.024999999 0 0 1 0
0.25 -0.22952077 0.024479328 1 -0 0 0
0.046560057 -0.10357095 0.025 0 0 1 0
-0.15398979 0.18227193 0.025000002 0 0 1 0
-0.025000002 -0.032918036 0.12752883 -1 0 0 0
0.23822576 -0.036592469 0.025 0 0 1 0
-0.21162525 -0.01347549 0.025 0 0 1 0
0.15020853 0.21351337 0.025 0 0 1 0
-0.040837977 0.16829588 0 0 0 -1 0
0.040139526 -0.10941535 0.025 0 0 1 0
0.02629935 0.037411101 0.025000002 0 0 1 0
0.16186863 0.0715077 0 0 0 -1 0
0.11725518 -0.21614562 0 0 0 -1 0
0.25 -0.083888181 0.016178401 1 -0 0 0
0.0040044086 0.049999997 0.10328074 0 1 -0 0
0.1710985 0.13548955 0.025 0 0 1 0
-0.15407073 0.032303195 0.025 0 0 1 0
-0.21898429 -0.081697926 0 0 0 -1 0
0.11332522 -0.014820861 0.025000002 0 0 1 0
-0.22168887 -0.030643471 0 0 0 -1 0
-0.22049809 0.2013115 0.024999999 0 0 1 0
0.21271574 -0.031628251 0 0 0 -1 0
0.067722991 0.24984832 0 0 0 -1 0
0.11355738 -0.101667 0 0 0 -1 0
0.0050639063 -0.100503 0 0 0 -1 0
-0.11976241 -0.16165885 0.025 0 0 1 0
0.10952617 -0.10031983 0 0 0 -1 0
-0.24276721 0.25 0.0077466383 0 1 0 0
0.054435484 -0.16413237 0.025 0 0 1 0
0.020673335 0.23194817 0 0 0 -1 0
-0.24129452 0.09201026 0 0 0 -1 0
0.0071590915 0.18560417 0 0 0 -1 0
-0.05470378 -0.17745966 0 0 0 -1 0
0.22191338 0.024479665 0 0 0 -1 0
0.044455983 -0.12287287 0.025000002 0 0 1 0
0.11707066 -0.25 0.018953498 0 -1 0 0
-0.12847623 -0.12083918 0 0 0 -1 0
-0.12722605 0.082168117 0.025 0 0 1 0
-0.057155162 -0.0086610243 0.025 0 0 1 0
0.17784846 -0.13035089 0 0 0 -1 0
0.13365801 -0.13988401 0 0 0 -1 0
-0.10044497 -0.17436719 0 0 0 -1 0
-0.2388604 -0.015845548 0.025 0 0 1 0
-0.18092656 0.088090576 0 0 0 -1 0
0.16764417 -0.23624428 0 0 0 -1 0
-0.0070983144 -0.012593251 0.025 0 0 -1 0
0.21437719 -0.16176069 0 0 0 -1 0
0.070211679 -0.056857631 0 0 0 -1 0
0.23228022 0.14771686 0.025 0 0 1 0
0.25 -0.036816791 0.0055733761 1 0 0 0
-0.13959029 0.19384459 0.025000002 0 0 1 0
0.022564983 -0.023952154 0.025 0 0 -1 0
0.024477653 -0.18028769 0.025 0 0 1 0
-0.12136842 -0.15047653 0 0 0 -1 0
-0.2110626 -0.19237004 0 0 0 -1 0
0.032881752 0.10875508 0 0 0 -1 0
-0.033221066 -0.044728167 0.025 0 0 1 0
0.16070363 0.013794377 0.025 0 0 1 0
0.20046574 -0.077490196 0 0 0 -1 0
0.062608689 -0.20867446 0 0 0 -1 0
0.025 0.048460327 0.092587903 1 0 0 0
-0.22914708 -0.062660277 0 0 0 -1 0
0.16853045 -0.09261857 0.025000002 0 0 1 0
-0.15444386 -0.12511785 0.025 0 0 1 0
-0.1653513 -0.11380397 0.025 0 0 1 0
0.25 -0.22730587 0.0060533597 1 0 0 0
0.22631554 0.039285563 0.025000002 0 0 1 0
0.072636746 -0.18658864 0.025 0 0 1 0
0.069901675 0.25 0.023865327 0 1 0 0
-0.2370587 0.14641769 0 0 0 -1 0
0.16536137 0.15809657 0.025 0 0 1 0
0.089938641 0.070238277 0.025000002 0 0 1 0
0.20660941 -0.24004087 0 0 0 -1 0
-0.02260121 -0.16992068 0.025 0 0 1 0
0.097868443 0.13191181 0.025 0 0 1 0
-0.12185732 0.10833151 0.025000002 0 0 1 0
-0.022978425 0.0042662099 0 0 0 -1 0
0.19347902 -0.24913038 0 0 0 -1 0
-0.013128397 0.050000001 0.029938865 0 1 0 0
-0.16874635 -0.14891918 0 0 0 -1 0
-0.024999999 -0.022936989 0.083665408 -1 0 0 0
-0.21414165 -0.2456753 0 0 0 -1 0
-0.22015642 -0.038511842 0 0 0 -1 0
-0.1519497 0.16308072 0 0 0 -1 0
-0.068357334 0.25 0.013318041 0 1 0 0
0.22996023 -0.050909407 0 0 0 -1 0
-0.10667256 0.090467378 0.025000002 0 0 1 0
-0.19728038 0.070821531 0.024999999 0 0 1 0
-0.19596452 0.1140914 0.025000002 0 0 1 0
0.12812364 -0.21630126 0 0 0 -1 0
-0.1501534 -0.071772233 0 0 0 -1 0
-0.22393335 0.17406684 0 0 0 -1 0
-0.0074148532 0.045384094 0.025 0 0 -1 0
0.21544436 0.20955563 0.0095057562 0.70710683 0.70710683 -0 0
0.22862437 -0.015571997 0 0 0 -1 0
0.11056964 -0.054888871 0.025 0 0 1 0
0.20600545 0.21899456 0.0116551 0.70710683 0.70710683 0 0
-0.047366858 -0.19292754 0 0 0 -1 0
-0.064182103 0.070526451 0.024999999 0 0 1 0
-0.0047738585 -0.050000004 0.13095999 0 -1 0 0
0.1989364 0.13209854 0 0 0 -1 0
0.017564071 -0.050000001 0.17114316 0 -1 0 0
0.21156067 0.1703449 0.025 0 0 1 0
-0.012490343 -0.07604228 0.025 0 0 1 0
-0.20851214 0.092890516 0 0 0 -1 0
0.042617451 0.09711238 0 0 0 -1 0
-0.21984142 -0.0011333916 0.025 0 0 1 0
0.19438282 0.0026758462 0 0 0 -1 0
-0.12200624 -0.054589674 0 0 0 -1 0
-0.19147891 0.038302466 0.024999999 0 0 1 0
0.0023147406 -0.04976235 0.025 0 0 -1 0
-0.036506981 0.015509284 0 0 0 -1 0
-0.081133582 0.060084239 0 0 0 -1 0
0.25 -0.092363335 0.010039592 1 0 0 0
-0.097284406 -0.25 0.008139411 0 -1 0 0
0.038122941 -0.083664946 0.025 0 0 1 0
-0.12979747 0.15459299 0 0 0 -1 0
-0.15956908 0.004099505 0.025000002 0 0 1 0
0.024037227 0.25 0.0025747835 0 1 0 0
-0.074340582 0.16669539 0.024999999 0 0 1 0
-0.052976936 -0.25 0.012560559 0 -1 0 0
-0.072306573 0.18650126 0.024999999 0 0 1 0
0.025000002 -0.028184356 0.079852447 1 0 0 0
0.12617765 -0.25 0.024202971 0 -1 0 0
0.15249248 -0.19393063 0.025000002 0 0 1 0
0.12633067 -0.22788051 0 0 0 -1 0
0.25 -0.031014748 0.024973419 1 -0 0 0
0.17253779 0.13847825 0 0 0 -1 0
-0.096606523 -0.23800173 0.025 0 0 1 0
0.14061451 0.179582 0 0 0 -1 0
0.12280042 0.03061635 0 0 0 -1 0
-0.13571411 0.16946042 0.025000002 0 0 1 0
-0.039600782 -0.17879659 0.025 0 0 1 0
0.20977941 0.13495728 0 0 0 -1 0
-0.20326006 -0.19244331 0.025 0 0 1 0
-0.22563884 0.07498505 0 0 0 -1 0
0.17582953 0.10144901 0 0 0 -1 0
0.21586159 0.20913839 0.0070939842 0.70710683 0.70710683 -0 0
0.069044597 -0.25 3.1516056e-06 0 -1 0 0
0.025 0.017315885 0.15504658 1 -0 0 0
0.16103004 -0.19717541 0 0 0 -1 0
-0.199761 0.016075902 0 0 0 -1 0
0.21700311 0.096196793 0 0 0 -1 0
-0.07019645 0.12851815 0 0 0 -1 0
0.089931674 0.25 0.020413613 0 1 0 0
0.10179065 0.24221897 0.025 0 0 1 0
0.11927899 -0.07058876 0.025000002 0 0 1 0
-0.038624585 0.02223479 0.025000002 0 0 1 0
-0.20192888 0.008482486 0 0 0 -1 0
-0.045132253 0.20014894 0 0 0 -1 0
-0.2279931 -0.14337099 0 0 0 -1 0
0.12271066 -0.20906718 0 0 0 -1 0
-0.16062777 0.20140427 0 0 0 -1 0
0.057596147 0.057693604 0.025 0 0 1 0
0.16047421 0.23717573 0.025000002 0 0 1 0
-0.17370324 -0.14069822 0 0 0 -1 0
0.13688579 -0.16781089 0 0 0 -1 0
0.101238 -0.17040056 0.024999999 0 0 1 0
-0.023239136 -0.048802115 0.025 0 0 1 0
0.15751031 -0.080665484 0 0 0 -1 0
-0.10428549 -0.25 0.024809908 0 -1 0 0
-0.13517457 -0.22075847 0 0 0 -1 0
0.17992052 0.12091185 0.024999999 0 0 1 0
0.0087951459 0.050000001 0.052330978 0 1 0 0
0.21031988 -0.014495924 0.025 0 0 1 0
-0.089524001 0.20941451 0.025 0 0 1 0
-0.076754346 -0.22219028 0 0 0 -1 0
-0.15870994 -0.14555615 0.025 0 0 1 0
-0.127058 0.20607397 0 0 0 -1 0
-0.13753836 0.055757269 0 0 0 -1 0
0.25 -0.2241929 0.020952031 1 0 0 0
-0.012769133 -0.041749068 0.025 0 0 1 0
-0.23513567 -0.23964188 0 0 0 -1 0
-0.0059644817 -0.038600326 0 0 0 -1 0
-0.13512105 -0.17931843 0 0 0 -1 0
0.16992456 -0.0017895624 0 0 0 -1 0
0.25 -0.11456452 0.012631603 1 0 0 0
-0.24409278 0.16228224 0 0 0 -1 0
-0.063881598 0.23381892 0 0 0 -1 0
0.09821523 -0.085453935 0 0 0 -1 0
-0.025 0.011201441 0.09468893 -1 0 0 0
-0.16808081 0.068004847 0 0 0 -1 0
-0.25 -0.096029624 0.013177119 -1 0 0 0
-0.25 -0.044504367 0.012480555 -1 0 0 0
0.074787147 0.15848142 0.024999999 0 0 1 0
0.035996549 -0.25 0.017336681 0 -1 0 0
0.21902755 -0.24646163 0.025 0 0 1 0
-0.23553774 0.061106615 0 0 0 -1 0
-0.25 0.21410266 0.012044343 -1 0 0 0
-0.089977711 0.050809786 0 0 0 -1 0
-0.11305112 0.10182445 0.025000002 0 0 1 0
0.025000002 -0.024947442 0.088105083 1 0 0 0
-0.12784395 0.12918483 0.025000002 0 0 1 0
0.19297895 0.16007644 0 0 0 -1 0
0.21412061 -0.14517884 0.024999999 0 0 1 0
-0.25 -0.034084909 0.0064305114 -1 0 0 0
0.010516331 -0.089412563 0 0 0 -1 0
-0.075716302 -0.11970191 0 0 0 -1 0
0.15446548 0.13431951 0 0 0 -1 0
-0.060593635 -0.1515412 0 0 0 -1 0
0.067475125 0.23947163 0.025 0 0 1 0
0.036695138 0.081091709 0 0 0 -1 0
0.0022391751 0.25 0.0033081025 0 1 0 0
0.15131077 0.22857238 0 0 0 -1 0
0.18750575 -0.19187412 0 0 0 -1 0
-0.18595371 -0.063254185 0.025 0 0 1 0
0.18957415 0.20149808 0 0 0 -1 0
-0.10583392 -0.25 0.0077499598 0 -1 0 0
0.025 0.044367339 0.10525823 1 0 0 0
-0.20204929 0.14246355 0 0 0 -1 0
-0.024784867 0.0084254043 0.16657461 -4.9065393e-17 0.70710683 0.70710671 0
0.019533694 -0.027429588 0 0 0 -1 0
0.074603528 0.11583608 0 0 0 -1 0
0.062205076 -0.1799435 0.025 0 0 1 0
0.084887624 -0.071491942 0.025 0 0 1 0
0.096074753 0.24634826 0.025000002 0 0 1 0
-0.03290683 0.1062634 0.025 0 0 1 0
-0.046272069 -0.047037132 0.025 0 0 1 0
0.036881898 0.053923845 0 0 0 -1 0
-0.013271891 -0.12550709 0 0 0 -1 0
-0.0098881517 -0.050000001 0.052621845 0 -1 0 0
-0.18319809 -0.23583573 0.025 0 0 1 0
0.242539 -0.18327516 0.025 0 0 1 0
0.25 -0.18514816 0.013158998 1 0 0 0
-0.23338462 -0.065883681 0 0 0 -1 0
-0.035834044 0.21765567 0.025 0 0 1 0
0.097772174 0.023811325 0.025000002 0 0 1 0
-0.14597803 -0.00075168163 0 0 0 -1 0
-0.24758089 -0.18821846 0 0 0 -1 0
0.18710162 -0.19512869 0.025000002 0 0 1 0
0.20607942 0.13852939 0.025 0 0 1 0
-0.1710697 -0.099073753 0 0 0 -1 0
-0.19453228 -0.046146601 0 0 0 -1 0
-0.017237347 -0.051055737 0 0 0 -1 0
0.062206678 0.017705768 0.025000002 0 0 1 0
-0.17954141 0.10438484 0.025 0 0 1 0
-0.11584163 0.15141723 0.025000002 0 0 1 0
-0.10426565 0.25 0.0037035362 0 1 0 0
-0.20149812 -0.0053818896 0.025 0 0 1 0
-0.11820596 0.0039699785 0.025 0 0 1 0
-0.23108311 0.21334611 0 0 0 -1 0
-0.13065973 0.15505418 0 0 0 -1 0
-0.039912 -0.23027231 0.024999999 0 0 1 0
-0.15298966 -0.13132951 0.025 0 0 1 0
-0.034396626 0.23631009 0 0 0 -1 0
-0.16674215 -0.11677824 0 0 0 -1 0
-0.082665324 0.1169195 0.024999999 0 0 1 0
0.23529787 -0.013825819 0.025 0 0 1 0
-0.22803238 -0.16710703 0.025 0 0 1 0
-0.096163064 -0.25 0.010247135 0 -1 0 0
-0.11676767 0.075297803 0.025 0 0 1 0
-0.012425307 -0.014725834 0 0 0 -1 0
-0.068678409 0.21146616 0.025000002 0 0 1 0
0.13308692 0.11243124 0.025 0 0 1 0
0.0047136471 -0.026394308 0.025 0 0 1 0
-0.071807683 -0.045421798 0.024999999 0 0 1 0
0.11815421 -0.22868659 0 0 0 -1 0
-0.13879749 -0.0077213384 0.025 0 0 1 0
0.1752086 -0.19452833 0.025 0 0 1 0
0.090483844 0.19679938 0.025000002 0 0 1 0
-0.018000009 0.019289169 0.15571085 -4.9065393e-17 0.70710683 0.70710671 0
0.18569992 -0.24992147 0 0 0 -1 0
-0.089020386 0.032235701 0 0 0 -1 0
-0.16235052 0.10190479 0 0 0 -1 0
-0.10993804 -0.18741773 0.025 0 0 1 0
0.18277203 -0.073354788 0.025 0 0 1 0
-0.15078706 0.17634621 0.025 0 0 1 0
0.25 -0.0019259751 0.013852628 1 -0 0 0
0.17617869 0.12481971 0.024999999 0 0 1 0
-0.25 -0.11144908 0.0055992785 -1 0 0 0
-0.13425329 -0.25 0.0063183648 0 -1 0 0
0.2356455 0.16752467 0.025 0 0 1 0
0.21105249 -0.18394506 0.025000002 0 0 1 0
0.092329167 0.12714714 0 0 0 -1 0
0.087983601 0.019483631 0.025000002 0 0 1 0
-0.15724492 -0.024875905 0.024999999 0 0 1 0
0.11555064 0.25 0.012657046 0 1 0 0
-0.19446923 0.15585047 0 0 0 -1 0
0.016964085 -0.12449992 0.025 0 0 1 0
-0.13459283 0.15024266 0.025 0 0 1 0
-0.14273253 -0.082230076 0.025000002 0 0 1 0
0.030694731 0.066278085 0 0 0 -1 0
-0.19367936 0.25 0.0046087285 0 1 0 0
0.20226447 0.2214039 0 0 0 -1 0
-0.20370355 -0.21730065 0.025 0 0 1 0
-0.11021335 0.017957866 0 0 0 -1 0
-0.052655935 -0.19693035 0.025 0 0 1 0
-0.22749749 -0.1056691 0 0 0 -1 0
0.091365658 -0.12065672 0.025 0 0 1 0
0.24307702 0.11733592 0 0 0 -1 0
-0.13143137 -0.042035855 0.025000002 0 0 1 0
-0.16238847 -0.20906585 0 0 0 -1 0
-0.18199879 -0.094880119 0 0 0 -1 0
0.024025666 -0.04323997 0.025 0 0 -1 0
-0.019356584 -0.046445649 0.17500001 0 0 1 0
-0.052391734 0.25 0.00062277616 0 1 0 0
-0.18456715 0.20460555 0.025 0 0 1 0
-0.055803053 -0.215286 0 0 0 -1 0
0.21024397 0.17975119 0 0 0 -1 0
0.21809682 0.10585555 0.024999999 0 0 1 0
0.25 0.018850211 0.01407128 1 -0 0 0
-0.14578173 0.048582006 0.025000002 0 0 1 0
-0.18073866 0.15711972 0.024999999 0 0 1 0
0.18521522 -0.18511088 0 0 0 -1 0
-0.15488401 -0.14629017 0 0 0 -1 0
-0.21405043 -0.094720304 0 0 0 -1 0
0.15534279 -0.20593137 0.025 0 0 1 0
0.094926395 -0.11249087 0.025 0 0 1 0
-0.1524978 0.23094442 0.025 0 0 1 0
-0.068144709 -0.039115377 0.025 0 0 1 0
-0.0067872703 0.17761561 0.025 0 0 1 0
-0.10774239 -0.11762288 0 0 0 -1 0
0.10344142 -0.1296044 0.025 0 0 1 0
0.011869803 0.25 0.020489793 0 1 0 0
-0.21960571 -0.18534383 0 0 0 -1 0
-0.012667498 0.050000001 0.11209487 0 1 -0 0
0.06842801 0.20958838 0.025 0 0 1 0
-0.13285223 0.22835368 0.025 0 0 1 0
0.13170052 -0.25 0.0020190205 0 -1 0 0
0.052600704 0.22585154 0 0 0 -1 0
0.25 0.11749174 0.010336144 1 -0 0 0
0.0072718384 0.050000004 0.11409602 0 1 -0 0
0.15907618 -0.17307797 0.024999999 0 0 1 0
0.23673332 0.091903277 0 0 0 -1 0
0.093698137 0.19477952 0.025000002 0 0 1 0
0.2368651 0.042543717 0 0 0 -1 0
0.018388629 -0.050000001 0.045792434 0 -1 0 0
-0.11176851 0.065302484 0.024999999 0 0 1 0
-0.12053096 0.041903518 0.025 0 0 1 0
0.19901124 0.16420946 0 0 0 -1 0
0.1638293 -0.10868004 0 0 0 -1 0
-0.083554029 -4.4077635e-05 0.025 0 0 1 0
0.064817347 -0.21221948 0.025 0 0 1 0
-0.044223495 -0.1210812 0 0 0 -1 0
-0.21793978 -0.24706483 0 0 0 -1 0
0.23732813 -0.097540706 0 0 0 -1 0
-0.049767047 0.21193603 0.025 0 0 1 0
-0.013439067 -0.23191847 0 0 0 -1 0
0.21537887 0.016440831 0.025000002 0 0 1 0
-0.038974263 -0.18341935 0 0 0 -1 0
0.23417675 -0.25 0.024880899 0 -1 0 0
0.023513224 -0.10821614 0.025 0 0 1 0
-0.00036872178 -0.095481165 0 0 0 -1 0
0.0074328855 0.13676661 0 0 0 -1 0
-0.14276399 0.20604861 0 0 0 -1 0
0.025000002 -0.00021604449 0.049778227 1 0 0 0
-0.25 0.24556337 0.017361043 -1 0 0 0
-0.23384318 -0.081434593 0 0 0 -1 0
-0.042549163 0.092968829 0.025 0 0 1 0
0.19064303 0.055798173 0.025000002 0 0 1 0
0.22229889 0.010283977 0 0 0 -1 0
-0.21259269 -0.10794991 0.025 0 0 1 0
-0.077766508 0.20946491 0 0 0 -1 0
0.17800708 0.20806268 0.025 0 0 1 0
-0.24282996 -0.078886658 0 0 0 -1 0
0.073966935 -0.10342591 0 0 0 -1 0
-0.14558646 0.040145759 0 0 0 -1 0
0.0093509406 0.20759787 0 0 0 -1 0
-0.18819153 0.1869625 0 0 0 -1 0
-0.18698153 0.1675722 0.025 0 0 1 0
0.063441396 0.14380623 0.025000002 0 0 1 0
0.1804353 0.03231816 0.025 0 0 1 0
-0.17649326 0.064245425 0.025000002 0 0 1 0
-0.071748406 -0.195243 0.025000002 0 0 1 0
-0.17940521 0.11560203 0.025 0 0 1 0
0.064949423 0.069982298 0.025 0 0 1 0
-0.088018373 0.21363449 0 0 0 -1 0
0.072631098 -0.16641538 0.025 0 0 1 0
0.038541652 -0.1790733 0.025000002 0 0 1 0
0.032005116 -0.21034315 0 0 0 -1 0
0.044829074 -0.10624857 0 0 0 -1 0
0.19111282 -0.11155397 0.024999999 0 0 1 0
-0.025 -0.034103662 0.040314108 -1 0 0 0
0.062538579 -0.095241502 0 0 0 -1 0
0.028811015 0.090490274 0 0 0 -1 0
0.25 -0.11701532 0.0092043392 1 0 0 0
-0.14785758 0.0058557503 0 0 0 -1 0
0.021291308 -0.024550371 0 0 0 -1 0
0.018932793 -0.002882397 0.17500001 0 -0 1 0
0.21000019 -0.048145555 0.025000002 0 0 1 0
-0.096089162 -0.0022013262 0 0 0 -1 0
-0.028371237 -0.18279597 0.025 0 0 1 0
-0.10720755 0.08469335 0 0 0 -1 0
-0.21239945 -0.14942704 0 0 0 -1 0
-0.24079695 -0.1690523 0.025 0 0 1 0
0.007712082 0.028861014 0.025000002 0 0 -1 0
-0.083509788 -0.15694802 0 0 0 -1 0
0.1338608 0.2136697 0 0 0 -1 0
0.1177595 0.1984318 0 0 0 -1 0
0.084143087 -0.16514386 0 0 0 -1 0
-0.20388362 0.16802448 0.025000002 0 0 1 0
-0.14104803 -0.0179324 0 0 0 -1 0
-0.025 -0.013304621 0.15988061 -1 0 0 0
-0.14556465 -0.19525492 0 0 0 -1 0
-0.029342353 -0.097410142 0 0 0 -1 0
-0.064148456 0.15644383 0 0 0 -1 0
-0.20637122 -0.17170894 0.025 0 0 1 0
-0.16931134 -0.23846656 0 0 0 -1 0
0.17622286 0.09660361 0 0 0 -1 0
-0.083039343 0.078265935 0.025 0 0 1 0
-0.025000002 0.023583759 0.025127508 -1 0 0 0
-0.23325813 0.087126933 0 0 0 -1 0
0.18549246 -0.21171468 0.025000002 0 0 1 0
0.074889496 0.25 0.008068989 0 1 0 0
-0.082770012 -0.16001563 0.025000002 0 0 1 0
-0.23258439 0.17570519 0.025 0 0 1 0
0.0072726402 -0.013360064 0.025 0 0 -1 0
0.20894533 0.18949088 0.025 0 0 1 0
0.052130297 -0.24337909 0.025 0 0 1 0
-0.16508856 0.068826139 0.025 0 0 1 0
-0.014486469 0.023564046 0.15143596 -4.9065393e-17 0.70710683 0.70710671 0
0.010594498 -0.0077653453 0 0 0 -1 0
-0.12518248 0.043370906 0 0 0 -1 0
0.23638692 0.0061397403 0.025 0 0 1 0
-0.2142553 0.067386992 0 0 0 -1 0
-0.098872334 -0.14816354 0.025 0 0 1 0
-0.013791587 0.042557102 0.13244291 0 0.70710683 0.70710671 0
0.025 -0.028915247 0.032175813 1 0 0 0
0.14948355 0.25 0.0075125308 0 1 0 0
0.25 0.11134534 0.0048313173 1 -0 0 0
0.1550061 0.21069573 0 0 0 -1 0
-0.014035612 0.1823357 0.025 0 0 1 0
-0.14539193 0.047499083 0 0 0 -1 0
0.24626926 -0.08426401 0.024999999 0 0 1 0
0.19597659 -0.087829515 0.025 0 0 1 0
0.10843235 0.18217516 0.025 0 0 1 0
0.12452897 0.063250221 0 0 0 -1 0
0.15031612 0.12061899 0.024999999 0 0 1 0
-0.23436972 0.15812787 0.024999999 0 0 1 0
-0.19701511 0.14273456 0.025 0 0 1 0
0.21816137 0.065890118 0 0 0 -1 0
0.024024244 -0.077527665 0.025 0 0 1 0
-0.2114892 -0.22973366 0.025 0 0 1 0
-0.17812893 0.19262919 0.025 0 0 1 0
-0.12662616 0.10021906 0.024999999 0 0 1 0
0.15073894 -0.13757253 0.025 0 0 1 0
0.056246266 -0.083892308 0.025 0 0 1 0
0.14308058 -0.17183289 0.025000002 0 0 1 0
0.25 -0.16159615 0.010373858 1 0 0 0
0.03662473 0.14825302 0.025 0 0 1 0
-0.0070131123 0.23168585 0.025 0 0 1 0
-0.057592578 0.23110841 0 0 0 -1 0
0.098835617 0.19476968 0.025 0 0 1 0
-0.12556592 -0.051238976 0.025 0 0 1 0
0.21224052 -0.18172917 0.025000002 0 0 1 0
-0.07651291 0.015920613 0 0 0 -1 0
-0.13064858 0.17879379 0.025 0 0 1 0
0.0043896642 0.032469209 0.025 0 0 -1 0
-0.19915566 -0.17331895 0.025 0 0 1 0
0.0050397404 0.049999997 0.057675518 0 1 0 0
0.041811831 0.058088858 0 0 0 -1 0
-0.080999166 -0.060081344 0.024999999 0 0 1 0
0.11404672 -0.24412496 0.025 0 0 1 0
0.03796212 -0.080822483 0.025 0 0 1 0
0.11812676 -0.25 0.016202694 0 -1 0 0
0.13856831 -0.065811403 0.024999999 0 0 1 0
-0.18866757 -0.23065422 0 0 0 -1 0
-0.096707687 -0.25 0.018760206 0 -1 0 0
0.22720166 0.0011223257 0.025 0 0 1 0
-0.065037519 0.056892969 0.025 0 0 1 0
-0.09500733 -0.19687648 0.025 0 0 1 0
0.17561114 -0.046959743 0 0 0 -1 0
0.069023788 0.024094464 0 0 0 -1 0
0.2187957 0.17424521 0 0 0 -1 0
0.17694309 -0.16475089 0.025 0 0 1 0
-0.15354463 -0.22754839 0 0 0 -1 0
0.021812849 0.035090085 0.025000002 0 0 1 0
-0.15603334 -0.028990816 0.025000002 0 0 1 0
0.23161733 0.006133765 0.024999999 0 0 1 0
0.11908595 0.25 0.017763201 0 1 0 0
0.19474292 -0.22057585 0 0 0 -1 0
0.1124364 0.12492754 0 0 0 -1 0
-0.11429751 0.10222027 0.024999999 0 0 1 0
-0.025 -0.0074015604 0.17333904 -1 0 0 0
0.025 -0.018894944 0.14569971 1 0 0 0
0.23671219 -0.19939825 0 0 0 -1 0
0.14644134 0.13612109 0 0 0 -1 0
0.024427408 0.050000001 0.036238533 0 1 -0 0
-0.19779468 0.10479841 0.025 0 0 1 0
0.086781219 -0.033518109 0.024999999 0 0 1 0
-0.140613 0.20551163 0 0 0 -1 0
0.086376444 -0.0897265 0 0 0 -1 0
-0.23499581 0.22048135 0.025000002 0 0 1 0
-0.21376079 -0.25 0.0046129189 0 -1 0 0
0.029106852 0.12500149 0 0 0 -1 0
-0.067345545 0.23826882 0 0 0 -1 0
-0.10011435 0.0943674 0 0 0 -1 0
0.1021751 -0.10670093 0 0 0 -1 0
0.21272707 0.047314383 0 0 0 -1 0
-0.19684541 -0.1810008 0.025 0 0 1 0
0.13897729 0.21731544 0 0 0 -1 0
0.13788451 -0.034608401 0 0 0 -1 0
0.060683206 -0.0040769335 0.025000002 0 0 1 0
-0.11292706 0.23140438 0.025 0 0 1 0
-0.24372056 0.2105637 0.025 0 0 1 0
0.011411933 -0.050000001 0.15887927 0 -1 0 0
0.0042729769 0.050000001 0.082600728 0 1 -0 0
-0.19163135 0.16901901 0.025 0 0 1 0
-0.025 -0.037323453 0.1620649 -1 0 0 0
0.10048111 0.22715849 0 0 0 -1 0
0.12245737 0.24374039 0 0 0 -1 0
-0.16092458 0.21369004 0 0 0 -1 0
-0.22289851 0.16379035 0.025 0 0 1 0
-0.18750581 -0.25 0.019403432 0 -1 0 0
0.22087352 -0.10621493 0 0 0 -1 0
0.17800176 -0.088951141 0 0 0 -1 0
-0.060393929 0.043201078 0.025 0 0 1 0
0.086088151 -0.21771815 0 0 0 -1 0
-0.1882855 0.034655947 0.024999999 0 0 1 0
0.14014134 0.066700794 0.025 0 0 1 0
0.24820825 -0.16613254 0.025 0 0 1 0
0.22732863 -0.071577251 0.025 0 0 1 0
-0.24687459 -0.20649411 0 0 0 -1 0
-0.10399939 -0.22214583 0 0 0 -1 0
0.21149123 0.0075518414 0 0 0 -1 0
-0.10889283 0.020247016 0.025 0 0 1 0
0.057537787 -0.24434249 0.025 0 0 1 0
-0.047560133 -0.13328557 0 0 0 -1 0
0.13031635 0.12248224 0.024999999 0 0 1 0
-0.062716469 0.011469318 0 0 0 -1 0
0.019085608 -0.17537196 0 0 0 -1 0
-0.032981321 -0.13473856 0 0 0 -1 0
0.25 -0.16499273 0.0075278166 1 0 0 0
0.0083540902 -0.25 0.013070515 0 -1 0 0
-0.16660453 0.06613937 0 0 0 -1 0
0.1751211 -0.20551211 0 0 0 -1 0
0.00076311268 -0.011715362 0.17500001 0 -0 1 0
0.018353503 -0.050000001 0.060184143 0 -1 0 0
-0.05563429 -0.22409578 0.025 0 0 1 0
-0.032933779 -0.14499517 0 0 0 -1 0
-0.024716504 0.21915595 0.025 0 0 1 0
-0.00012023002 -0.045921743 0 0 0 -1 0
-0.017997857 -0.03245458 0 0 0 -1 0
0.13919169 -0.16472133 0.024999999 0 0 1 0
-0.011836879 -0.089056775 0 0 0 -1 0
0.00920715 0.021373913 0.15362608 0 0.70710683 0.70710671 0
0.063444108 0.1789843 0 0 0 -1 0
-0.17560604 -0.17337956 0.025 0 0 1 0
0.10195933 -0.12430059 0 0 0 -1 0
-0.21238291 -0.20765795 0 0 0 -1 0
-0.020580027 0.050000001 0.039200135 0 1 0 0
0.21489458 -0.0034893155 0 0 0 -1 0
-0.030732632 -0.091488034 0 0 0 -1 0
0.0026181834 0.048217941 0.12678206 0 0.70710683 0.70710671 0
-0.12774494 0.05798398 0.025 0 0 1 0
0.1568338 -0.1430475 0 0 0 -1 0
-0.25 0.16368277 0.024521843 -1 0 0 0
-0.20207159 0.083377108 0 0 0 -1 0
-0.015074901 0.16122891 0 0 0 -1 0
-0.19076437 0.19736992 0.025 0 0 1 0
-0.18942907 -0.12618874 0.025 0 0 1 0
0.24737144 -0.014536418 0 0 0 -1 0
-0.13331613 0.077271402 0.025 0 0 1 0
-0.13041976 -0.010839943 0.025000002 0 0 1 0
0.096013136 0.16587198 0.024999999 0 0 1 0
-0.18396018 -0.0090823472 0 0 0 -1 0
0.085786626 -0.11229339 0 0 0 -1 0
-0.019972548 -0.16010904 0 0 0 -1 0
0.038739525 0.1552303 0 0 0 -1 0
-0.026510894 -0.061162293 0 0 0 -1 0
-0.10382193 -0.21679616 0 0 0 -1 0
-0.044050761 -0.010640666 0 0 0 -1 0
-0.016007558 -0.043482054 0 0 0 -1 0
-0.063758403 0.18030116 0.025 0 0 1 0
0.13785167 -0.24318464 0 0 0 -1 0
0.22567031 0.16206573 0.025 0 0 1 0
0.17805117 0.17845079 0 0 0 -1 0
-0.042323083 -0.17166312 0.025 0 0 1 0
0.043185424 -0.16612403 0 0 0 -1 0
-0.23483795 -0.1518334 0.025 0 0 1 0
-0.039634019 0.023243658 0.025 0 0 1 0
-0.1118927 -0.14480814 0 0 0 -1 0
-0.13443328 -0.20719728 0 0 0 -1 0
-0.025 0.033199668 0.057461016 -1 0 0 0
0.036693074 0.15656057 0 0 0 -1 0
0.19658265 -0.032041423 0 0 0 -1 0
-0.010420552 -0.032461349 0.17500001 0 0 1 0
-0.057082303 0.2258541 0 0 0 -1 0
0.12956467 0.2039613 0.025 0 0 1 0
0.05135927 -0.073057458 0 0 0 -1 0
0.24152753 0.16855142 0 0 0 -1 0
0.089837626 0.22218905 0.025 0 0 1 0
0.076384678 -0.020320272 0.024999999 0 0 1 0
-0.11068396 -0.19476068 0.025 0 0 1 0
0.025 -0.039148454 0.090754464 1 0 0 0
-0.22758672 0.12417056 0 0 0 -1 0
0.20585495 0.060806714 0 0 0 -1 0
0.067313842 0.25 0.014093813 0 1 0 0
-0.015407396 0.050000004 0.098783806 0 1 0 0
0.042971086 -0.13695 0.025000002 0 0 1 0
0.0033641122 -0.17555082 0 0 0 -1 0
0.24873975 -0.14647375 0 0 0 -1 0
-0.25 -0.0081699565 0.0086861691 -1 0 0 0
0.15538265 0.019151822 0 0 0 -1 0
0.15063293 0.18723404 0 0 0 -1 0
0.14592278 -0.11919118 0.025 0 0 1 0
-0.15614846 0.042741232 0.025 0 0 1 0
0.012359869 0.050000004 0.07524015 0 1 -0 0
-0.12179935 -0.042384461 0.025 0 0 1 0
0.19709893 -0.066898815 0.025 0 0 1 0
0.19861959 -0.25 0.0065977797 0 -1 0 0
-0.16387405 0.16721444 0 0 0 -1 0
-0.22950593 0.080485016 0 0 0 -1 0
0.24629274 0.063614696 0.025 0 0 1 0
0.20422955 -0.20712295 0 0 0 -1 0
-0.15333483 0.087070405 0.025 0 0 1 0
-0.016356893 0.24213046 0 0 0 -1 0
-0.031705111 0.052138075 0.025 0 0 1 0
0.18017009 0.12306485 0 0 0 -1 0
0.025 -0.036172133 0.11288691 1 0 0 0
-0.085572273 0.22091174 0 0 0 -1 0
-0.00081574917 -0.25 0.0092011662 0 -1 0 0
-0.027721763 0.10105258 0.024999999 0 0 1 0
0.057681538 0.0067827776 0 0 0 -1 0
-0.031530738 -0.13172269 0 0 0 -1 0
0.25 -0.013074607 0.0062960386 1 0 0 0
0.053435773 -0.19450842 0.025 0 0 1 0
0.25 0.14865467 0.022753118 1 -0 0 0
0.24604337 -0.25 0.019700753 0 -1 0 0
0.22237492 0.15962456 0.025 0 0 1 0
-0.25 0.07196527 0.015160113 -1 0 0 0
-0.096071087 0.21645346 0 0 0 -1 0
0.060722545 -0.17113248 0 0 0 -1 0
0.20855659 -0.22854388 0.025 0 0 1 0
0.20600455 -0.02464132 0.025 0 0 1 0
-0.21056548 0.088342406 0.024999999 0 0 1 0
-0.25 -0.08987201 0.012349349 -1 0 0 0
0.08733847 -0.074557468 0.025 0 0 1 0
0.0063052252 -0.033617109 0.024999999 0 0 1 0
0.062538669 -0.085569032 0.025000002 0 0 1 0
-0.13559005 -0.016660918 0.025 0 0 1 0
-0.10752015 -0.1905454 0 0 0 -1 0
0.055610247 0.10800665 0.024999999 0 0 1 0
-0.24466646 -0.25 0.012059421 0 -1 0 0
-0.19107628 -0.15344793 0.025 0 0 1 0
0.027744167 -0.18469998 0.025 0 0 1 0
-0.10192054 0.12077337 0 0 0 -1 0
0.075352333 -0.24552062 0.024999999 0 0 1 0
-0.23492433 -0.2218492 0 0 0 -1 0
-0.18361285 0.0040951669 0.025 0 0 1 0
-0.066291526 0.21514906 0 0 0 -1 0
-0.10595922 -0.20821044 0.025 0 0 1 0
0.016905911 0.20301944 0.024999999 0 0 1 0
-0.042303801 0.24788707 0 0 0 -1 0
-0.22172189 -0.12537657 0.025 0 0 1 0
-0.16216582 0.17724212 0.025 0 0 1 0
0.019625377 -0.206818 0 0 0 -1 0
0.012438942 -0.13756517 0.025 0 0 1 0
-0.0064200386 -0.10536868 0.025 0 0 1 0
-0.065316021 0.11092948 0.025 0 0 1 0
-0.12446016 0.023637913 0 0 0 -1 0
0.17055994 -0.083064646 0 0 0 -1 0
-0.22890288 0.22718191 0 0 0 -1 0
0.066446513 0.10506221 0 0 0 -1 0
-0.030534251 -0.04814586 0 0 0 -1 0
-0.07610178 0.1657986 0 0 0 -1 0
0.05133108 0.21118601 0 0 0 -1 0
0.064537331 -0.16353838 0.024999999 0 0 1 0
0.22979741 0.12904379 0 0 0 -1 0
-0.025000002 -0.012535677 0.043928184 -1 0 0 0
0.097672939 -0.21613321 0 0 0 -1 0
0.14352112 0.22801143 0.025 0 0 1 0
-0.17343611 0.030734383 0 0 0 -1 0
-0.1436297 -0.1016823 0.025 0 0 1 0
-0.049731858 -0.22035529 0 0 0 -1 0
0.025 -0.044747587 0.03337824 1 0 0 0
0.11397281 0.16022494 0 0 0 -1 0
-0.15510648 -0.19657448 0 0 0 -1 0
-0.25 -0.24043225 0.017712465 -1 0 0 0
0.19865817 0.10173617 0 0 0 -1 0
-0.11681369 0.12556134 0 0 0 -1 0
0.022126965 0.068312168 0.025000002 0 0 1 0
0.0050854757 0.24971262 0 0 0 -1 0
0.060760554 0.20360477 0.025 0 0 1 0
0.1067628 -0.12128276 0.025 0 0 1 0
0.14254485 -0.062977128 0 0 0 -1 0
0.076746628 -0.14624164 0 0 0 -1 0
0.025 -0.046322357 0.14096826 1 0 0 0
-0.080899887 0.22690432 0.025 0 0 1 0
0.15346272 -0.096954584 0.025000002 0 0 1 0
0.026080385 -0.11114481 0 0 0 -1 0
0.25 -0.18306278 0.02413038 1 -0 0 0
0.084387273 0.16112253 0.025 0 0 1 0
-0.24914828 0.13659523 0.025 0 0 1 0
-0.094731092 0.0036058947 0 0 0 -1 0
0.076376677 0.04690069 0.024999999 0 0 1 0
0.025 0.018098509 0.062581226 1 0 0 0
0.12140802 -0.10748966 0 0 0 -1 0
-0.036148906 0.12721302 0.025000002 0 0 1 0
0.025000002 0.025738806 0.039680704 1 0 0 0
0.22115417 -0.14627093 0 0 0 -1 0
-0.0079339473 0.032671828 0.14232817 -4.9065393e-17 0.70710683 0.70710671 0
0.25 0.12717693 0.023907023 1 -0 0 0
-0.013100073 0.21404526 0 0 0 -1 0
-0.050252698 -0.12502441 0 0 0 -1 0
0.19645461 0.22854537 0.0073634088 0.70710683 0.70710683 0 0
0.19488022 -0.1936567 0.025 0 0 1 0
-0.085925266 -0.068870753 0 0 0 -1 0
0.060900502 0.16113178 0.025000002 0 0 1 0
-0.014366082 0.015972257 0.025000002 0 0 -1 0
-0.080744892 -0.088411182 0.025000002 0 0 1 0
-0.075771123 0.099982738 0.025000002 0 0 1 0
-0.016603142 0.13640942 0.025 0 0 1 0
0.037670571 -0.16921549 0.025000002 0 0 1 0
-0.10114767 0.23814446 0.025000002 0 0 1 0
0.14374933 -0.012969356 0.025 0 0 1 0
0.14735782 -0.076697253 0.025 0 0 1 0
-0.19136646 -0.073945224 0 0 0 -1 0
-0.24314159 0.0099674463 0 0 0 -1 0
0.23176324 -0.011163265 0 0 0 -1 0
-0.18604353 0.013299519 0.025 0 0 1 0
-0.068401873 -0.078238688 0.024999999 0 0 1 0
0.025 0.035134289 0.13708937 1 -0 0 0
-0.02660083 -0.21197701 0 0 0 -1 0
0.025 0.024144411 0.08363992 1 0 0 0
-0.22129007 -0.051437125 0 0 0 -1 0
0.195638 0.0070185885 0 0 0 -1 0
-0.0012843907 -0.22431058 0.025 0 0 1 0
-0.055598199 0.17840554 0.025 0 0 1 0
-0.15418905 0.1019519 0.025 0 0 1 0
-0.02765739 0.19130865 0.025 0 0 1 0
-0.046017975 0.013090016 0 0 0 -1 0
-0.071548745 -0.012096889 0 0 0 -1 0
0.17132597 0.00099489838 0 0 0 -1 0
-0.0084485235 0.013289714 0.025000002 0 0 -1 0
0.067712933 0.083952159 0 0 0 -1 0
-0.14300197 -0.049333133 0 0 0 -1 0
0.24266717 -0.12257827 0 0 0 -1 0
0.19360678 0.05349569 0 0 0 -1 0
-0.1310124 -0.25 0.024039853 0 -1 0 0
0.15522821 -0.10450116 0.025 0 0 1 0
-0.019984107 0.23667482 0.024999999 0 0 1 0
0.19142805 -0.14143772 0 0 0 -1 0
-0.024999999 0.019301567 0.030531965 -1 0 0 0
0.039574414 -0.21406201 0 0 0 -1 0
0.13760996 0.047755577 0 0 0 -1 0
0.025 0.00096043944 0.11465289 1 0 0 0
-0.15817046 -0.15735468 0.025000002 0 0 1 0
0.22717881 0.15239736 0.025 0 0 1 0
-0.16143036 0.021635178 0 0 0 -1 0
-0.24379432 0.017225847 0 0 0 -1 0
0.084202714 0.13097124 0.025 0 0 1 0
-0.088137388 -0.24108835 0.025000002 0 0 1 0
-0.21219528 0.25 0.0110686 0 1 0 0
-0.060658403 -0.069128416 0 0 0 -1 0
0.098368324 -0.21574247 0.024999999 0 0 1 0
0.2449618 0.034614451 0 0 0 -1 0
-0.025 -0.036660705 0.082981601 -1 0 0 0
0.11790039 0.21525779 0.025 0 0 1 0
-0.025 0.02767667 0.12901166 -1 0 0 0
-0.1598177 0.091055326 0.024999999 0 0 1 0
0.051690288 0.11257426 0.024999999 0 0 1 0
-0.25 -0.22661333 0.0023358013 -1 0 0 0
0.025 0.016674764 0.082104042 1 0 0 0
0.23843172 -0.16329871 0.025 0 0 1 0
-0.18161464 0.13217686 0.025000002 0 0 1 0
0.17200543 -0.010013774 0 0 0 -1 0
0.22813597 0.035427585 0 0 0 -1 0
-0.078546502 -0.04589577 0 0 0 -1 0
0.18419151 0.10149372 0.025 0 0 1 0
0.25 -0.076349825 0.01827386 1 -0 0 0
0.034098476 0.082340404 0 0 0 -1 0
0.077114396 0.049612761 0.025000002 0 0 1 0
0.10008773 0.093596622 0.025 0 0 1 0
-0.012734251 0.050000001 0.028949022 0 1 0 0
-0.10362347 0.084701747 0 0 0 -1 0
-0.049712755 -0.2000418 0 0 0 -1 0
0.10684701 -0.2170918 0.025 0 0 1 0
0.083771661 -0.20958161 0.025 0 0 1 0
-0.083205633 -0.23158138 0 0 0 -1 0
-0.18928584 0.13946405 0.025 0 0 1 0
0.076437034 -0.24645953 0 0 0 -1 0
0.059288517 -0.17019776 0 0 0 -1 0
0.065318882 0.082444012 0 0 0 -1 0
-0.13295694 0.25 0.018591715 0 1 0 0
-0.058367997 -0.067905948 0.025 0 0 1 0
-0.14722878 -0.055475496 0 0 0 -1 0
-0.029047512 -0.20772842 0.025 0 0 1 0
-0.010147661 0.20581552 0.025 0 0 1 0
-0.14709049 -0.18151179 0 0 0 -1 0
-0.18741429 0.061939478 0 0 0 -1 0
-0.033716381 -0.16850932 0 0 0 -1 0
-0.24975818 0.069170058 0.025000002 0 0 1 0
-0.17996866 0.097843751 0 0 0 -1 0
0.079471156 -0.23933411 0.025000002 0 0 1 0
0.010399647 0.11118707 0 0 0 -1 0
0.1461954 0.23106751 0 0 0 -1 0
0.043338254 -0.053033881 0.025 0 0 1 0
0.020208091 -0.18212757 0.025 0 0 1 0
0.053665854 -0.042530932 0.025 0 0 1 0
-0.21497691 -0.089907259 0.025 0 0 1 0
0.16985682 -0.0076313689 0 0 0 -1 0
-0.0032862993 0.078042634 0 0 0 -1 0
-0.04515649 -0.24873064 0 0 0 -1 0
-0.15311116 -0.052251503 0 0 0 -1 0
-0.21745935 -0.25 0.011246157 0 -1 0 0
0.020867994 -0.24847642 0 0 0 -1 0
0.14597027 -0.21173786 0 0 0 -1 0
0.030989986 -0.13205557 0.025000002 0 0 1 0
0.01152429 0.1182382 0.025 0 0 1 0
0.049525246 0.13075748 0 0 0 -1 0
0.13621049 -0.1256409 0.025000002 0 0 1 0
-0.071103603 0.16318023 0 0 0 -1 0
-0.19670972 0.11421328 0.025000002 0 0 1 0
-0.2416103 -0.21225449 0 0 0 -1 0
-0.15838006 -0.19025894 0.025 0 0 1 0
0.037161864 -0.038841911 0 0 0 -1 0
-0.017273076 -0.14014569 0.025000002 0 0 1 0
-0.094974756 -0.25 0.014039604 0 -1 0 0
0.12223982 0.14133097 0.025000002 0 0 1 0
0.091614358 -0.25 0.0055177263 0 -1 0 0
-0.015327349 -0.21800871 0 0 0 -1 0
-0.2097005 -0.219396 0.025 0 0 1 0
-0.25 -0.15466547 0.012397492 -1 0 0 0
0.016085427 -0.14715883 0 0 0 -1 0
0.082806297 -0.091308102 0 0 0 -1 0
-0.17261381 -0.086016297 0 0 0 -1 0
0.024999999 0.019841632 0.067388877 1 0 0 0
-0.12139848 -0.10047996 0.025 0 0 1 0
0.041782893 -0.24205306 0.025 0 0 1 0
0.19647264 0.20392303 0 0 0 -1 0
-0.10121179 -0.09279564 0.025 0 0 1 0
-0.22965741 0.045165189 0 0 0 -1 0
-0.12678467 0.1618723 0 0 0 -1 0
-0.090634733 -0.23562002 0.025 0 0 1 0
0.097068362 -0.20143713 0 0 0 -1 0
-0.025 0.040576585 0.12013847 -1 0 0 0
-0.032471459 -0.090697713 0.025 0 0 1 0
0.01198829 0.19436815 0 0 0 -1 0
-0.05082944 -0.25 0.0098937247 0 -1 0 0
0.013985978 0.0065547912 0.025 0 0 -1 0
-0.090025671 0.23997155 0 0 0 -1 0
0.0054104147 -0.049999997 0.15435934 0 -1 0 0
0.11277631 -0.1222371 0.025 0 0 1 0
0.038028397 0.088250116 0 0 0 -1 0
-0.18183342 -0.023316398 0 0 0 -1 0
-0.076614857 0.00059143826 0.025000002 0 0 1 0
0.062684067 0.096859343 0.024999999 0 0 1 0
-0.050634608 0.22488642 0 0 0 -1 0
0.12632272 -0.054176725 0 0 0 -1 0
0.23271354 -0.044311374 0.025 0 0 1 0
0.15462601 0.15613373 0 0 0 -1 0
0.12338022 -0.038494788 0 0 0 -1 0
0.095319323 0.069071569 0.025 0 0 1 0
-0.23600473 -0.015116304 0 0 0 -1 0
-0.10045856 -0.25 0.009788123 0 -1 0 0
0.2050184 -0.24419163 0.025 0 0 1 0
-0.13891909 0.23004423 0.025 0 0 1 0
0.024473872 0.12556428 0 0 0 -1 0
-0.17932865 0.14026149 0 0 0 -1 0
-0.20809066 -0.14009008 0.025000002 0 0 1 0
0.10239083 0.1761504 0.025 0 0 1 0
0.19337313 0.23162687 0.015522335 0.70710683 0.70710683 0 0
0.011860402 -0.23788273 0 0 0 -1 0
-0.1502876 -0.16380209 0 0 0 -1 0
-0.23245823 0.24121031 0 0 0 -1 0
-0.19742474 0.10366563 0.025 0 0 1 0
-0.015535235 -0.027992524 0.025 0 0 1 0
-0.037435085 0.012616489 0.025 0 0 1 0
-0.04784824 -0.21006507 0.025 0 0 1 0
0.15087268 0.05516877 0 0 0 -1 0
-0.1728137 -0.092216417 0 0 0 -1 0
0.17943533 -0.16617657 0 0 0 -1 0
0.23760679 -0.17245075 0.025 0 0 1 0
-0.048701219 0.22400445 0 0 0 -1 0
-0.25 0.21561834 0.0082079498 -1 0 0 0
0.13273948 0.06463781 0 0 0 -1 0
-0.12142494 0.1619384 0.025000002 0 0 1 0
0.14430103 0.13635203 0.025000002 0 0 1 0
-0.20490693 -0.19823575 0 0 0 -1 0
-0.094175011 0.2360374 0 0 0 -1 0
0.012995824 -0.2060215 0.025 0 0 1 0
-0.15419734 0.047577195 0.025 0 0 1 0
0.095840529 -0.12319496 0.025 0 0 1 0
-0.077355973 0.25 0.006077704 0 1 0 0
-0.25 0.042335212 0.020493565 -1 0 0 0
0.030370526 0.10655124 0 0 0 -1 0
-0.25 -0.19786884 0.0096414071 -1 0 0 0
-0.24034326 0.14820528 0 0 0 -1 0
0.053783413 -0.18362263 0.025 0 0 1 0
-0.03038086 -0.21470389 0.025000002 0 0 1 0
0.2008417 -0.087453574 0.025000002 0 0 1 0
-0.20773852 -0.14907728 0.025 0 0 1 0
0.0091726035 0.16093837 0 0 0 -1 0
-0.11166218 -0.059699561 0.025 0 0 1 0
0.1109326 -0.13278216 0 0 0 -1 0
-0.14626017 0.12344673 0.025000002 0 0 1 0
0.15368396 0.20240295 0.025000002 0 0 1 0
-0.13540111 -0.19114919 0.025 0 0 1 0
-0.11549681 0.17547891 0.025000002 0 0 1 0
0.1140182 -0.030234493 0 0 0 -1 0
0.15790528 0.22810715 0 0 0 -1 0
0.0064437129 -0.15234549 0 0 0 -1 0
0.14798379 -0.16736265 0 0 0 -1 0
0.01934392 0.030498892 0.024999999 0 0 1 0
0.13728118 -0.14337815 0 0 0 -1 0
0.072984666 -0.23850471 0.025 0 0 1 0
0.016008684 -0.04607866 0.17500001 0 0 1 0
0.07811562 -0.022110287 0.024999999 0 0 1 0
-0.072486818 -0.07492952 0.025000002 0 0 1 0
0.18045624 0.064533472 0.025 0 0 1 0
0.24761325 0.16240066 0 0 0 -1 0
-0.18125221 0.0017449632 0 0 0 -1 0
0.078494966 -0.034215588 0.025 0 0 1 0
-0.25 0.099031754 0.012746085 -1 0 0 0
0.18395726 0.01068072 0.025 0 0 1 0
-0.10452075 0.16856295 0 0 0 -1 0
0.0077134371 -0.25 0.0078168102 0 -1 0 0
0.19777113 0.176091 0.025 0 0 1 0
0.014834745 0.0065719783 0.025 0 0 -1 0
0.088745587 0.25 0.0090464801 0 1 0 0
-0.00050727278 0.11256047 0 0 0 -1 0
-0.10633426 -0.11876868 0 0 0 -1 0
0.014854932 0.012059001 0.025 0 0 -1 0
-0.038968623 -0.16793334 0 0 0 -1 0
-0.00076278904 0.050000004 0.058419682 0 1 0 0
-0.10281165 0.056955285 0 0 0 -1 0
-0.12369522 -0.05368536 0.025 0 0 1 0
0.10303915 -0.21328929 0.025000002 0 0 1 0
-0.0075845774 0.035803262 0.025 0 0 -1 0
0.17414418 0.12456993 0.025000002 0 0 1 0
0.16970058 -0.19587366 0.024999999 0 0 1 0
-0.11661889 0.13131095 0 0 0 -1 0
-0.040321976 0.25 0.024128281 0 1 0 0
-0.040714458 -0.16959178 0 0 0 -1 0
0.038081028 0.18525399 0 0 0 -1 0
-0.066145234 -0.21063863 0 0 0 -1 0
0.11385036 0.25 0.010917142 0 1 0 0
0.046256728 0.12405448 0.024999999 0 0 1 0
0.15111932 0.013791718 0 0 0 -1 0
0.027732003 -0.091878235 0.025 0 0 1 0
-0.10629559 0.0049398318 0.025 0 0 1 0
-0.14413942 -0.13464282 0 0 0 -1 0
-0.13072029 0.15209377 0.025000002 0 0 1 0
-0.17676541 -0.19462751 0.025 0 0 1 0
0.1802008 0.06076239 0 0 0 -1 0
-0.084866226 0.11047204 0.025 0 0 1 0
0.054212201 -0.077143021 0 0 0 -1 0
0.18409818 0.13044602 0.025000002 0 0 1 0
-0.023985628 -0.01750068 0.025 0 0 -1 0
0.25 -0.058358401 0.0049861893 1 0 0 0
-0.25 0.1791079 0.00047762544 -1 0 0 0
0.037547112 0.034309871 0.025 0 0 1 0
-0.20540622 0.064787254 0.025000002 0 0 1 0
0.1171957 -0.049239315 0.025 0 0 1 0
-0.24415863 0.035568133 0.025 0 0 1 0
-0.21174408 -0.082257181 0 0 0 -1 0
-0.2133255 0.13669218 0.025 0 0 1 0
-0.047546212 0.1705842 0 0 0 -1 0
-0.016315171 0.050000001 0.065982454 0 1 0 0
0.025 -0.040250186 0.16915396 1 0 0 0
-0.20417371 -0.19711763 0.025 0 0 1 0
0.19901091 -0.0041591749 0.024999999 0 0 1 0
0.16054726 0.10080314 0.025 0 0 1 0
0.0035676421 -0.050000001 0.10419722 0 -1 0 0
0.080531262 -0.11260887 0 0 0 -1 0
0.22228694 0.062185757 0.025 0 0 1 0
0.067737818 0.033046305 0.025000002 0 0 1 0
0.15873346 -0.094133116 0.025 0 0 1 0
-0.17607655 0.064662799 0 0 0 -1 0
0.12341634 -0.14028765 0.025000002 0 0 1 0
0.10125507 0.018391915 0.025 0 0 1 0
-0.055648141 -0.17808667 0.025000002 0 0 1 0
0.0045335768 -0.050000004 0.03634572 0 -1 0 0
-0.025 -0.043585531 0.1427336 -1 0 0 0
0.2223946 -0.10310896 0 0 0 -1 0
0.0043452084 -0.050000001 0.043066233 0 -1 0 0
-0.25 -0.12478702 0.0027262405 -1 0 0 0
-0.015299419 -0.050000001 0.12860659 0 -1 0 0
0.058939114 -0.19440649 0 0 0 -1 0
0.025000002 -0.025303246 0.083462253 1 0 0 0
0.11462983 -0.25 0.016240403 0 -1 0 0
0.21387 -0.10349951 0.025000002 0 0 1 0
0.082816295 0.14309317 0.025000002 0 0 1 0
0.21080612 0.1023826 0 0 0 -1 0
-0.021123026 0.050000001 0.056394957 0 1 0 0
0.0073826462 0.23148392 0 0 0 -1 0
-0.027679786 -0.20881042 0.024999999 0 0 1 0
-0.05281508 0.068701282 0.025 0 0 1 0
0.14735416 0.002864033 0.025000002 0 0 1 0
-0.084721044 -0.077761039 0 0 0 -1 0
-0.17945811 0.25 0.023901066 0 1 0 0
-0.20102373 0.069801405 0.025 0 0 1 0
-0.052701175 0.070554301 0.025000002 0 0 1 0
0.0046123108 0.027534783 0.14746523 0 0.70710683 0.70710671 0
0.24782509 -0.25 0.0037633986 0 -1 0 0
0.066696942 -0.20698482 0 0 0 -1 0
-0.07143122 -0.15285178 0 0 0 -1 0
0.16314319 0.17430231 0 0 0 -1 0
-0.16928947 -0.18240137 0.025 0 0 1 0
-0.25 -0.12167881 0.020055141 -1 0 0 0
0.16738686 -0.1737213 0.025 0 0 1 0
-0.018182516 0.13696636 0 0 0 -1 0
0.086787246 -0.035348862 0 0 0 -1 0
-0.024999999 -0.035296708 0.14631216 -1 0 0 0
0.19907363 -0.17671797 0 0 0 -1 0
0.18224086 0.11312906 0 0 0 -1 0
0.080553852 -0.12019707 0.024999999 0 0 1 0
-0.15635508 -0.068667382 0.025000002 0 0 1 0
0.14148441 0.21436232 0.025000002 0 0 1 0
-0.054538921 -0.23678513 0.025000002 0 0 1 0
-0.05790478 0.2329241 0 0 0 -1 0
-0.010877371 0.040519178 0.025000002 0 0 1 0
-0.025 -0.034129009 0.057722487 -1 0 0 0
-0.13908625 0.17655939 0.025000002 0 0 1 0
-0.014514578 0.032576013 0.025000002 0 0 -1 0
-0.20656165 -0.044333585 0 0 0 -1 0
-0.032191634 -0.25 0.010339548 0 -1 0 0
-0.24827263 -0.21250391 0.025 0 0 1 0
0.09415403 -0.22091624 0 0 0 -1 0
-0.1670517 -0.034219109 0 0 0 -1 0
-0.25 -0.2417521 0.0039992579 -1 0 0 0
-0.058584262 0.17374164 0 0 0 -1 0
-0.0026750565 -0.23734024 0.025 0 0 1 0
-0.21604073 -0.011364491 0.025 0 0 1 0
-0.022993818 -0.091309234 0.025 0 0 1 0
-0.23600641 0.21330956 0.025 0 0 1 0
-0.24377537 0.056640398 0.025 0 0 1 0
0.11043589 -0.058734797 0.025 0 0 1 0
-0.20764217 0.12895019 0.025 0 0 1 0
-0.25 -0.17162447 0.0053506996 -1 0 0 0
-0.017794635 -0.076425165 0.025 0 0 1 0
-0.20692654 -0.22115128 0.025 0 0 1 0
-0.0077912905 -0.0091000609 0.17500001 0 -0 1 0
-0.025 0.044907697 0.065791197 -1 0 0 0
0.05949109 0.026162781 0.025000002 0 0 1 0
-0.20376265 -0.13453592 0 0 0 -1 0
-0.218522 0.037943766 0 0 0 -1 0
-0.24822485 0.058910243 0.025 0 0 1 0
-0.025000002 -0.01821908 0.14799047 -1 0 0 0
0.060335167 0.20511523 0 0 0 -1 0
-0.25 0.075288594 0.02498997 -1 0 0 0
0.052556336 0.014198951 0.025 0 0 1 0
0.062204778 0.078028373 0.025 0 0 1 0
0.24775083 -0.13903703 0.025 0 0 1 0
0.1898931 0.014067292 0.025 0 0 1 0
-0.11815026 -0.22744188 0.025000002 0 0 1 0
-0.18804029 0.16144639 0.025 0 0 1 0
0.25 -0.058409519 0.011342969 1 0 0 0
0.053852148 -0.21805131 0.025000002 0 0 1 0
-0.12101366 0.091080256 0 0 0 -1 0
-0.23289078 -0.041045308 0 0 0 -1 0
0.12761338 0.20539141 0 0 0 -1 0
-0.029823147 0.17161092 0 0 0 -1 0
0.18717724 -0.1270797 0.024999999 0 0 1 0
