# .PCD v0.7 - Point Cloud Data file format
VERSION 0.7
FIELDS x y z
SIZE 4 4 4
TYPE F F F
COUNT 1 1 1
WIDTH 659
HEIGHT 1
VIEWPOINT 0 0 0 1 0 0 0
POINTS 659
DATA ascii
0.12360897 -0.1217012 0
-0.075716302 -0.11970191 0
-0.0031768754 -0.11741643 0
-0.062194809 -0.11322479 0
-0.077443078 -0.10950522 0
0.12140802 -0.10748966 0
-0.010076635 -0.10499436 0
-0.0057299957 -0.10473166 0
0.10894624 -0.10409626 0
0.12125678 -0.10434143 0
0.073966935 -0.10342591 0
0.085267477 -0.10203632 0
0.11355738 -0.101667 0
0.080200516 -0.10046257 0
0.10952617 -0.10031983 0
0.11843694 -0.099434063 0
0.10631279 -0.096961007 0
0.10216975 -0.09443222 0
0.094808638 -0.088531367 0
-0.01880306 -0.088285185 0
0.065384217 -0.087096259 0
-0.064013645 -0.083937094 0
0.065444842 -0.083710082 0
-0.0037391931 -0.083293982 0
0.08880984 -0.08251439 0
0.092073314 -0.079905547 0
0.08976236 -0.078786939 0
0.10065695 -0.078406222 0
-0.0062021688 -0.077107556 0
-0.00073136389 -0.076914221 0
0.099960014 -0.076912448 0
0.096021652 -0.074710846 0
-0.031926915 -0.073138393 0
-0.060658403 -0.069128416 0
0.0036232024 -0.068343528 0
0.0051257163 -0.068375044 0
-0.046943966 -0.065333702 0
-0.004239887 -0.065428756 0
0.08941254 -0.063168108 0
0.067347154 -0.062813863 0
-0.048725594 -0.059016608 0
0.096188813 -0.058102392 0
-0.0041164681 -0.056514256 0
0.083158188 -0.055738792 0
0.0030242726 -0.050700642 0
0.11856639 -0.050226152 0
0.11154587 -0.046328425 0
-0.00012023002 -0.045921743 0
0.065315798 -0.045635998 0
-0.068597138 -0.045154005 0
-0.0080398275 -0.042494461 0
0.0086912066 -0.042491794 0
-0.0011999011 -0.040854663 0
0.12338022 -0.038494788 0
-0.016723288 -0.037417643 0
-0.022088751 -0.03541863 0
-0.036025405 -0.034463398 0
-0.043894358 -0.033355527 0
-0.077553444 -0.020797987 0
-0.045420408 -0.020587057 0
0.04852809 -0.0190534 0
0.131479 -0.017761841 0
0.073068827 -0.012906902 0
-0.071548745 -0.012096889 0
0.10407611 -0.0099611282 0
-0.053718466 -0.0062476359 0
0.12439507 -0.0033863485 0
0.12296863 0.0030654669 0
-0.089645535 0.0043538827 0
-0.086395368 0.0043179989 0
-0.079193994 0.0092993416 0
0.12895614 0.015220702 0
0.083775707 0.015676416 0
0.077035099 0.019210204 0
0.054395601 0.02132671 0
-0.095909193 0.021838736 0
-0.094667487 0.031164158 0
-0.1013596 0.033997722 0
0.068985112 0.033983424 0
0.1207247 0.040656276 0
0.11337522 0.042869255 0
-0.052484155 0.044252593 0
0.10371707 0.044303738 0
-0.085161269 0.045699332 0
0.11208413 0.046339557 0
0.068428993 0.047002755 0
0.098596089 0.048154525 0
-0.076977722 0.052802272 0
0.12087546 0.052598849 0
0.036881898 0.053923845 0
0.10665131 0.056907322 0
0.09837196 0.057058532 0
0.079166695 0.059730977 0
0.1098029 0.060103584 0
0.12006798 0.062414221 0
0.11309122 0.063007534 0
0.030353494 0.063515104 0
-0.088160932 0.065215595 0
0.030694731 0.066278085 0
0.11879065 0.066056609 0
-0.045019254 0.06678693 0
0.084892139 0.066837892 0
-0.10620134 0.068007901 0
-0.096823275 0.069358915 0
0.11187704 0.072164319 0
0.074391499 0.075474612 0
-0.0032862993 0.078042634 0
0.11455268 0.079994276 0
0.11375362 0.08001928 0
0.11766545 0.085778408 0
0.025121756 0.088345177 0
-0.11609911 0.088775165 0
-0.11545111 0.088866755 0
-0.056240972 0.090302825 0
0.028811015 0.090490274 0
0.030257445 0.092147902 0
0.11814451 0.095748007 0
0.037005946 0.09673921 0
0.024682149 0.097095825 0
0.042617451 0.09711238 0
0.097103298 0.097090162 0
0.036861997 0.097677931 0
0.072107792 0.10079856 0
0.023198288 0.10205822 0
0.031637516 0.10347986 0
0.028897412 0.10407878 0
0.048780974 0.10450017 0
0.056946546 0.10535332 0
0.022798013 0.10652928 0
0.073125206 0.10785682 0
0.032881752 0.10875508 0
0.096326575 0.10997006 0
0.0038633831 0.11132959 0
0.0043095164 0.11112825 0
-0.037110876 0.11405298 0
0.051941089 0.11741614 0
0.073358722 0.11772022 0
0.039444137 0.12336935 0
0.060625285 0.12604846 0
0.078310207 0.12775663 0
-0.07019645 0.12851815 0
-0.090400063 -0.13262695 0.025
-0.078215413 -0.12953106 0.025
0.053447686 -0.12570313 0.025
0.074616641 -0.1248315 0.025
0.095817439 -0.12449183 0.025
0.095840529 -0.12319496 0.025
0.048629988 -0.12207288 0.025
0.1067628 -0.12128276 0.025
0.091365658 -0.12065672 0.025
0.029383216 -0.12008712 0.025
-0.10528061 -0.11979376 0.025
-0.072195835 -0.11932628 0.025
0.039226636 -0.11885844 0.025
0.020233732 -0.11803436 0.025
0.058705024 -0.11763408 0.025
-0.0055787079 -0.11608301 0.025
0.011768688 -0.11616009 0.025
0.032617338 -0.11435695 0.025
-0.09521988 -0.11362135 0.025
0.0358322 -0.11319037 0.025
0.090060316 -0.11287337 0.024999999
0.016831111 -0.11225665 0.025
0.094926395 -0.11249087 0.025
0.040139526 -0.10941535 0.025
-0.0081062466 -0.10897702 0.025
-0.13396958 -0.10825092 0.025
0.023513224 -0.10821614 0.025
0.030405354 -0.10816956 0.025
-0.055334866 -0.10743777 0.025
0.0046021193 -0.10672607 0.025
-0.012815833 -0.10622808 0.025
0.017259132 -0.10612999 0.025
-0.0064200386 -0.10536868 0.025
0.046560057 -0.10357095 0.025
-0.037001476 -0.10327545 0.025
0.11840798 -0.10049371 0.025
-0.13788331 -0.098952666 0.025
0.038844891 -0.098340504 0.025
-0.12134677 -0.094474286 0.025
0.010267476 -0.093892641 0.025
0.030887028 -0.093325272 0.025
0.072443634 -0.092526294 0.025
0.027732003 -0.091878235 0.025
-0.0010600835 -0.091382116 0.025
0.092519075 -0.088316172 0.025
0.044319618 -0.086104691 0.025
0.038122941 -0.083664946 0.025
0.045525201 -0.083725482 0.025
0.056246266 -0.083892308 0.025
0.094419181 -0.08205729 0.025
0.03796212 -0.080822483 0.025
0.040087301 -0.079879344 0.025
0.043117907 -0.07859835 0.025
0.08733847 -0.074557468 0.025
-0.034004629 -0.074486941 0.025
0.038587607 -0.072559744 0.025
0.113424 -0.072847426 0.025
-0.099588722 -0.071981654 0.025
0.084887624 -0.071491942 0.025
-0.091831267 -0.069220245 0.024999999
-0.073352814 -0.068459958 0.025
0.10537267 -0.068369515 0.024999999
-0.058367997 -0.067905948 0.025
-0.056439072 -0.067771301 0.025
-0.05091396 -0.066507295 0.025
-0.10086384 -0.066441193 0.025
0.039152473 -0.066113882 0.025
-0.058211088 -0.065072544 0.025
-0.044803739 -0.061441384 0.025
-0.080999166 -0.060081344 0.024999999
-0.11166218 -0.059699561 0.025
-0.074537635 -0.058075503 0.025
0.032079283 -0.058403462 0.025
-0.083204091 -0.057358783 0.024999999
0.11056964 -0.054888871 0.025
-0.10060155 -0.054132156 0.025
-0.042905241 -0.054445252 0.025
-0.047107697 -0.05197303 0.025
0.11432946 -0.050551541 0.024999999
-0.11627969 -0.049544673 0.025
0.1171957 -0.049239315 0.025
-0.046272069 -0.047037132 0.025
-0.12308758 -0.043611202 0.025
0.024025666 -0.04323997 0.025
-0.11901835 -0.042778894 0.025
-0.12179935 -0.042384461 0.025
-0.060007542 -0.041114785 0.025
0.11379132 -0.036814239 0.025
-0.071236432 -0.03627421 0.025
-0.013861895 -0.036275361 0.025
0.096750289 -0.034691475 0.025
0.0063052252 -0.033617109 0.024999999
0.10530278 -0.033341557 0.025
-0.046506226 -0.032939114 0.025
0.0077622626 -0.032799724 0.025
0.02991984 -0.032081842 0.025
-0.090768725 -0.031523414 0.025
-0.013704985 -0.03037535 0.025
0.081486657 -0.028884333 0.025
0.053612199 -0.028074205 0.024999999
-0.015535235 -0.027992524 0.025
0.082524434 -0.027792117 0.025
0.096874654 -0.026922965 0.025
0.11428603 -0.026608046 0.025
0.0047136471 -0.026394308 0.025
0.068488173 -0.026222013 0.025
-0.028663874 -0.025332205 0.025
-0.022424608 -0.025419131 0.025
0.047934473 -0.025056606 0.024999999
0.05211274 -0.025371749 0.025
0.0066660047 -0.024294697 0.025
0.071707487 -0.024322642 0.025
0.11662577 -0.024230491 0.025
-0.050288081 -0.023682378 0.025
-0.015799224 -0.023840465 0.025
0.022564983 -0.023952154 0.025
-0.053767323 -0.022893324 0.025
0.07811562 -0.022110287 0.024999999
0.0037276447 -0.021229178 0.025
0.028741712 -0.020890413 0.024999999
0.030375069 -0.020265665 0.025
0.076384678 -0.020320272 0.024999999
-0.067428529 -0.018780455 0.024999999
-0.090957493 -0.018132295 0.025
-0.075613797 -0.017662071 0.025
-0.023985628 -0.01750068 0.025
0.064344846 -0.017635912 0.025
0.083174691 -0.017323354 0.025
-0.076312155 -0.016679648 0.024999999
-0.053318322 -0.016692512 0.025
0.00089181215 -0.016915329 0.024999999
-0.11518919 -0.016144544 0.025
-0.094280601 -0.016077224 0.025
-0.034687907 -0.01570949 0.025
0.084159672 -0.015745744 0.025
-0.11887321 -0.014786892 0.024999999
0.024197526 -0.014244951 0.024999999
0.089408696 -0.014202308 0.025
0.020761043 -0.013867743 0.025
-0.096733391 -0.013485637 0.025
0.0072726402 -0.013360064 0.025
0.055512015 -0.013021133 0.025
-0.0070983144 -0.012593251 0.025
-0.073244154 -0.012319509 0.024999999
0.058553502 -0.012495834 0.024999999
-0.078017354 -0.011703238 0.025
-0.013478234 -0.011626801 0.024999999
0.050338 -0.010646136 0.025
0.0050143991 -0.010010533 0.025
0.12033135 -0.010177594 0.025
-0.018133253 -0.0095825642 0.025
-0.011391521 -0.0095217377 0.025
0.0046804342 -0.0090302993 0.025
0.078163549 -0.0090848804 0.024999999
-0.11440939 -0.0083781108 0.024999999
0.032369167 -0.0050387457 0.025
0.022786111 -0.003692545 0.025
-0.058606237 -0.0030173361 0.025
-0.061282128 -0.0021260977 0.025
-0.0072201788 -0.0021442175 0.025
-0.058508873 -0.0016775355 0.025
0.0039368775 -0.0011854414 0.025
0.022348851 -0.00085007399 0.025
0.028620772 -0.00064108521 0.025
0.098985814 -0.00074333511 0.024999999
-0.024947196 -0.00012960285 0.025
-0.10571814 0.00023153797 0.024999999
0.084608458 5.0403178e-06 0.025
-0.052387238 0.0019021109 0.025
-0.013385838 0.0028918758 0.025
0.0087698773 0.0025537983 0.024999999
-0.11820596 0.0039699785 0.025
-0.11435604 0.0036983676 0.025
-0.1078051 0.0044202581 0.025
-0.10629559 0.0049398318 0.025
-0.031448931 0.0054871589 0.025
-0.035134226 0.0058932602 0.025
-0.013377169 0.0055266805 0.025
0.022075403 0.0055265962 0.024999999
-0.024947651 0.006405415 0.024999999
-0.015075177 0.0064116269 0.025
0.038344868 0.0060455203 0.024999999
0.11835872 0.006089557 0.025
0.013985978 0.0065547912 0.025
0.014834745 0.0065719783 0.025
-0.061050981 0.008950796 0.025
-0.088097483 0.0092078783 0.024999999
0.11408012 0.0092751049 0.025
-0.041912079 0.0097766295 0.025
-0.0012025237 0.0099466667 0.025
-0.019838721 0.01136139 0.025
0.039564162 0.011309154 0.025
0.00028991699 0.012043849 0.025
0.014854932 0.012059001 0.025
0.03372889 0.012036555 0.025
-0.037435085 0.012616489 0.025
0.040936597 0.012705378 0.024999999
0.077587977 0.013513034 0.024999999
-0.049019188 0.014439307 0.025
0.01257059 0.014315039 0.025
0.023168989 0.01402089 0.024999999
0.052556336 0.014198951 0.025
-0.047509938 0.01498089 0.025
0.059240669 0.014617212 0.025
-0.038618475 0.015150353 0.025
-0.022651054 0.015024891 0.024999999
0.024083048 0.015795492 0.025
-0.055477738 0.016580254 0.025
-0.01007849 0.016679712 0.025
-0.0076754093 0.016835257 0.025
-0.057458311 0.018165816 0.024999999
0.0089598298 0.018346861 0.025
-0.024599394 0.018692467 0.025
-0.033462912 0.019458301 0.025
0.030633986 0.019498892 0.025
-0.0041431487 0.020172544 0.025
0.048549712 0.02018965 0.025
-8.2049519e-06 0.02084793 0.025
-0.039634019 0.023243658 0.025
-0.041072637 0.024674952 0.024999999
0.036242574 0.02488865 0.025
-0.085956186 0.026013337 0.024999999
-0.019345261 0.026146239 0.024999999
0.009424923 0.026375931 0.025
-0.071124047 0.026646875 0.025
-0.0104101 0.026671469 0.025
-0.0106152 0.027519844 0.025
-0.024022043 0.028154649 0.025
-0.070338011 0.02875419 0.025
-0.0032484178 0.02925045 0.025
0.012260981 0.029228337 0.024999999
0.01934392 0.030498892 0.024999999
-0.013114633 0.030741688 0.025
-0.090883851 0.031047931 0.024999999
-0.057060689 0.031729713 0.025
0.0043896642 0.032469209 0.025
0.018320687 0.032835871 0.024999999
-0.0075845774 0.035803262 0.025
-0.0030042492 0.036233798 0.024999999
0.015339443 0.036739506 0.025
-0.059855342 0.03865996 0.025
0.06047637 0.039315186 0.024999999
0.10425211 0.040804502 0.025
0.0091851652 0.041049615 0.025
-0.089320749 0.041633889 0.025
-0.060393929 0.043201078 0.025
-0.0074148532 0.045384094 0.025
-0.0045646727 0.045183603 0.024999999
0.00099960249 0.045898676 0.024999999
-0.05471921 0.046753265 0.025
0.076376677 0.04690069 0.024999999
-0.00049217977 0.048013326 0.025
-0.018368458 0.04894245 0.025
-0.047032416 0.049389012 0.025
0.013552994 0.051094841 0.025
-0.1099658 0.052191012 0.024999999
-0.031705111 0.052138075 0.025
-0.069536448 0.053602349 0.024999999
0.00097984821 0.055599887 0.025
-0.083892286 0.056478787 0.025
-0.065037519 0.056892969 0.025
-0.010859102 0.056667902 0.025
0.013538361 0.056501482 0.024999999
0.057596147 0.057693604 0.025
0.059076078 0.057900384 0.024999999
-0.00060510635 0.059065152 0.025
0.050343044 0.061070848 0.025
-0.10843986 0.064076595 0.025
-0.069754899 0.064377502 0.024999999
-0.016566634 0.06457793 0.025
-0.11176851 0.065302484 0.024999999
-0.10853645 0.065339871 0.025
-0.029333472 0.06579458 0.025
-0.057733327 0.066728532 0.025
-0.029415369 0.067572236 0.025
-0.031467289 0.068450846 0.025
0.00087422132 0.068238683 0.025
-0.05281508 0.068701282 0.025
-0.045869946 0.068842731 0.025
0.0071157888 0.06879282 0.025
0.064949423 0.069982298 0.025
-0.063487351 0.071196765 0.024999999
-0.010894477 0.071171455 0.025
-0.001934588 0.071085446 0.025
0.0030961037 0.072483726 0.025
0.0019809082 0.072724685 0.024999999
-0.089334577 0.073582023 0.024999999
-0.11676767 0.075297803 0.025
-0.096356332 0.07509315 0.025
-0.018032759 0.075906932 0.025
-0.02244401 0.077304572 0.025
-0.020305276 0.077418007 0.025
-0.11766049 0.078497961 0.025
-0.083039343 0.078265935 0.025
-0.021115661 0.078190498 0.025
0.062204778 0.078028373 0.025
-0.079995334 0.082803056 0.025
-0.0061948597 0.082644954 0.025
-0.072564393 0.08301881 0.025
-0.066783518 0.085617796 0.024999999
-0.010355502 0.086603694 0.025
0.08414156 0.087945454 0.025
-0.02524966 0.088793159 0.025
-0.014119565 0.089683697 0.024999999
0.089986265 0.089707613 0.024999999
0.08084318 0.090368658 0.025
-0.02044192 0.090701684 0.025
-0.028489709 0.091301724 0.024999999
-0.12081996 0.091547787 0.024999999
-0.061937779 0.091505438 0.025
-0.05024296 0.092655607 0.025
-0.042549163 0.092968829 0.025
-0.022519052 0.092915162 0.025
-0.014974207 0.092654169 0.025
-0.10040027 0.094393022 0.025
-0.036941469 0.094767347 0.025
-0.051882505 0.095389083 0.025
-0.087619454 0.0957947 0.024999999
-0.094571024 0.096040308 0.025
0.088415623 0.096720263 0.025
-0.11849147 0.097028181 0.024999999
0.074875422 0.097345553 0.024999999
0.062863737 0.098745443 0.025
-0.027264208 0.099480286 0.025
-0.12662616 0.10021906 0.024999999
-0.027721763 0.10105258 0.024999999
-0.10399792 0.10176168 0.025
-0.11429751 0.10222027 0.024999999
-0.045766592 0.10200169 0.025
-0.072060108 0.10254911 0.024999999
-0.062417656 0.10256895 0.025
-0.088104248 0.10367709 0.024999999
-0.03945747 0.10489682 0.024999999
-0.025194466 0.10513905 0.025
-0.068379253 0.10569398 0.025
-0.039363891 0.10595947 0.025
-0.03052482 0.10567249 0.024999999
-0.051855952 0.10646024 0.024999999
-0.03290683 0.1062634 0.025
-0.084866226 0.11047204 0.025
-0.065316021 0.11092948 0.025
-0.076500982 0.11181551 0.025
0.12018856 0.11246313 0.025
0.11551639 0.11346696 0.025
-0.018595815 0.1143381 0.024999999
-0.0063267946 0.11406498 0.025
-0.051570743 0.11585415 0.024999999
0.12056369 0.1159269 0.024999999
-0.082665324 0.1169195 0.024999999
0.11918818 0.11674034 0.025
-0.014385641 0.11805987 0.025
-0.034539819 0.11888979 0.025
-0.017238289 0.12071455 0.024999999
-0.094503999 0.12138224 0.025
-0.080481797 0.1220696 0.024999999
0.13031635 0.12248224 0.024999999
-0.034376711 0.12265934 0.024999999
0.070320129 0.12262395 0.025
0.046256728 0.12405448 0.024999999
-0.023777246 0.12779677 0.024999999
-0.023966134 0.12868078 0.024999999
0.13386139 0.12933141 0.025
-0.039165854 0.12953274 0.025
0.0056214035 0.13011341 0.024999999
0.13644275 0.13042217 0.025
-0.036421359 0.13429293 0.025
-0.029607922 0.13535073 0.025
-0.029415011 0.13689202 0.025
-0.089749701 -0.12590028 0.025000002
0.025576144 -0.12335867 0.025000002
0.044455983 -0.12287287 0.025000002
-0.12725532 -0.11873361 0.025000002
0.042295419 -0.11289807 0.025000002
-0.12961984 -0.11107888 0.025000002
0.064947568 -0.10248688 0.025000002
-0.083638996 -0.098390415 0.025000002
0.022276992 -0.095889851 0.025000002
0.062538669 -0.085569032 0.025000002
-0.12054512 -0.072222121 0.025000002
0.12466703 -0.072425686 0.025000002
-0.079877228 -0.071403131 0.025000002
0.11927899 -0.07058876 0.025000002
0.059637081 -0.060507886 0.025000002
-0.070693195 -0.058240116 0.025000002
-0.10290399 -0.051799759 0.025000002
0.019241085 -0.049608164 0.025000002
-0.063251257 -0.043691069 0.025000002
-0.10205367 -0.039150581 0.025000002
-0.018932953 -0.03281948 0.025000002
0.097033247 -0.032194387 0.025000002
-0.11482486 -0.028606936 0.025000002
0.01120911 -0.028071605 0.025000002
0.089032136 -0.028245606 0.025000002
-0.10918543 -0.024237759 0.025000002
0.0037601516 -0.024234325 0.025000002
-0.10289818 -0.023819178 0.025000002
-0.10419607 -0.021607503 0.025000002
0.026910508 -0.0216524 0.025000002
0.11332522 -0.014820861 0.025000002
-0.049621314 -0.013909467 0.025000002
0.049560856 -0.013863361 0.025000002
-0.085318416 -0.013143059 0.025000002
-0.081363589 -0.013141122 0.025000002
-0.001624818 -0.010358151 0.025000002
-0.016291214 -0.0083284993 0.025000002
-0.040761203 -0.0069748983 0.025000002
0.11206306 -0.0058124587 0.025000002
0.060683206 -0.0040769335 0.025000002
-0.05392307 -0.0023668259 0.025000002
-0.106664 -0.00066448003 0.025000002
-0.076614857 0.00059143826 0.025000002
-0.10918513 0.0018903129 0.025000002
-0.0014809584 0.0015719403 0.025000002
-0.081573725 0.0020616837 0.025000002
-0.071686655 0.0030958019 0.025000002
-0.087964594 0.0037108511 0.025000002
-0.086566359 0.010796074 0.025000002
0.10462558 0.011079624 0.025000002
0.022647917 0.012379335 0.025000002
-0.0084485235 0.013289714 0.025000002
-0.014366082 0.015972257 0.025000002
0.040408604 0.016514458 0.025000002
0.06640698 0.016991217 0.025000002
0.026179127 0.017457552 0.025000002
0.062206678 0.017705768 0.025000002
-0.070388883 0.018567473 0.025000002
-0.095826387 0.021402732 0.025000002
-0.038624585 0.02223479 0.025000002
-0.064642698 0.022929538 0.025000002
-0.025000002 0.023583759 0.025127508
-0.073782951 0.024587594 0.025000002
0.0574966 0.025736965 0.025000002
0.05949109 0.026162781 0.025000002
-0.033494949 0.028160904 0.025000002
-0.041954726 0.028771218 0.025000002
0.007712082 0.028861014 0.025000002
0.051712267 0.029647827 0.025000002
-0.070242852 0.031515568 0.025000002
-0.051286221 0.031730708 0.025000002
-0.014514578 0.032576013 0.025000002
0.067737818 0.033046305 0.025000002
0.021812849 0.035090085 0.025000002
-0.0094384253 0.036131628 0.025000002
-0.010877371 0.040519178 0.025000002
0.053021662 0.041326255 0.025000002
0.015434615 0.043739453 0.025000002
-0.0046267798 0.044255763 0.025000002
-0.087275624 0.044976793 0.025000002
-0.087611824 0.045622692 0.025000002
0.062640131 0.046327956 0.025000002
0.059357576 0.047214828 0.025000002
-0.084282726 0.049297236 0.025000002
0.0087432088 0.049061604 0.025000002
0.0020613214 0.050000001 0.025383962
0.077114396 0.049612761 0.025000002
0.010284118 0.051499978 0.025000002
0.019898981 0.053469624 0.025000002
-0.063921332 0.056086235 0.025000002
0.034599654 0.058894128 0.025000002
-0.11170551 0.062087987 0.025000002
-0.093044758 0.064972408 0.025000002
-0.052701175 0.070554301 0.025000002
0.05908417 0.072065935 0.025000002
-0.070368052 0.074327014 0.025000002
-0.046264201 0.07561519 0.025000002
0.084708869 0.076792389 0.025000002
-0.043931752 0.077395141 0.025000002
-0.027639538 0.079458013 0.025000002
0.12196296 0.08292295 0.025000002
-0.081817895 0.084523916 0.025000002
-0.085280091 0.085096277 0.025000002
0.056977145 0.08532732 0.025000002
-0.10667256 0.090467378 0.025000002
-0.035664737 0.09068206 0.025000002
-0.036373198 0.096226856 0.025000002
0.095619708 0.097458191 0.025000002
-0.040537775 0.097581036 0.025000002
-0.099016368 0.098141238 0.025000002
-0.087274164 0.098775595 0.025000002
-0.013172746 0.099037781 0.025000002
-0.075771123 0.099982738 0.025000002
0.0035596415 0.099920161 0.025000002
-0.11305112 0.10182445 0.025000002
-0.060504586 0.10563705 0.025000002
-0.1229142 0.10686626 0.025000002
-0.12185732 0.10833151 0.025000002
-0.10091051 0.10840166 0.025000002
0.11584681 0.10844965 0.025000002
-0.029285699 0.10859365 0.025000002
-0.080397278 0.10972569 0.025000002
-0.048304528 0.11173916 0.025000002
-0.021039039 0.1123826 0.025000002
-0.1007627 0.11287624 0.025000002
0.12086239 0.1129925 0.025000002
-0.084417731 0.11656839 0.025000002
-0.032684177 0.11677299 0.025000002
-0.10609224 0.11872236 0.025000002
-0.036148906 0.12721302 0.025000002
-0.03870526 0.13395572 0.025000002
-0.024547575 0.050000001 0.026350653
-0.025 -0.0065725869 0.027370906
0.025 0.0041503403 0.027280465
-0.021791091 0.050000001 0.027439177
0.025 -0.048577692 0.027813289
0.025000002 -0.010606257 0.02758446
-0.020929396 0.050000001 0.027772738
-0.0088257995 0.050000001 0.027571619
-0.0073724757 0.050000001 0.028322453
0.025 0.020439349 0.028853474
-0.025 0.030682459 0.028865207
-0.025 0.031464983 0.028742462
-0.012734251 0.050000001 0.028949022
-0.025 -0.033003416 0.029422605
0.025000002 0.021276172 0.029326651
-0.013128397 0.050000001 0.029938865
-0.024999999 0.019301567 0.030531965
-0.025 -0.028471584 0.031998016
-0.025 0.026414631 0.032777864
