# .PCD v0.7 - Point Cloud Data file format
VERSION 0.7
FIELDS x y z normal_x normal_y normal_z curvature
SIZE 4 4 4 4 4 4 4
TYPE F F F F F F F
COUNT 1 1 1 1 1 1 1
WIDTH 1142
HEIGHT 1
VIEWPOINT 0 0 0 1 0 0 0
POINTS 1142
DATA ascii
-0.2212368 0.11107064 0.024999999 0 0 1 0
0.14105034 -0.090451621 0.024999999 0 0 1 0
-0.21361677 0.25 0.015759273 0 1 0 0
0.19115371 -0.10535455 0.025 -0 0 1 0
-0.010818865 0.17555168 0.025000002 0 0 1 0
0.12931912 -0.00078149978 0.13132215 0.86602408 0.50000232 0 0
0.1595504 0.060187399 0.025 -0 0 1 0
-0.21094114 0.1764136 0.024999999 0 0 1 0
-0.24877456 0.23093882 0.025 0 0 1 0
-0.15691301 0.25 0.0054335664 0 1 0 0
0.06531103 0.037707165 0.079673424 -0.49999368 0.86602908 0 0
0.041564405 -0.19064164 0.025 0 0 1 0
0.23561655 -0.043549784 0.025 -0 0 1 0
0.21926798 0.16325393 0.025 0 0 1 0
0.24006513 0.027094603 0.025000002 -0 0 1 0
0.0073832944 0.18225877 0.025000002 0 0 1 0
0.11829883 0.25 0.014055577 -0 1 0 0
-0.18042338 -0.21397704 0.025 0 0 1 0
0.10139698 0.047580786 0.047969021 0.86602408 0.50000232 0 0
0.079451002 0.25 0.018979741 -0 1 0 0
-0.24733603 0.044458695 0.025 0 0 1 0
0.10755588 -0.2280423 0.025 0 0 1 0
0.25 -0.21775196 0.023235234 1 0 0 0
0.15233904 -0.15425181 0.025 0 0 1 0
0.14978619 0.19167821 0.025000002 0 0 1 0
0.25 0.091549441 0.0030574955 1 0 0 0
0.18184489 0.12553488 0.025 0 0 1 0
0.13330594 -0.0076868017 0.044502001 0.86602408 0.50000232 0 0
0.11046146 0.20037945 0.025 0 0 1 0
-0.2469909 0.22194897 0.025 0 0 1 0
0.079801321 0.25 0.011036316 -0 1 0 0
-0.010672706 0.25 0.0088632358 0 1 0 0
-0.0069553964 0.085721135 0.025000002 0 0 1 0
0.10037835 0.071860746 0.024999999 0 0 1 0
-0.23280147 -0.19946453 0.024999999 0 0 1 0
-0.19262213 -0.14926612 0.025 0 0 1 0
-0.12604107 0.25 0.01328908 0 1 0 0
0.11343388 0.026732361 0.11884066 0.86602408 0.50000232 0 0
0.11080026 0.092914805 0.025 0 0 1 0
0.24007577 0.078359455 0.025 -0 0 1 0
0.087477885 0.086003035 0.025 0 0 1 0
0.16050205 -0.15199549 0.025 0 0 1 0
0.23103029 -0.083810918 0.025 -0 0 1 0
-0.19991827 0.1664345 0.025 0 0 1 0
-0.064655937 -0.048047125 0.025000002 0 -0 1 0
0.14146361 0.20940351 0.025000002 0 -0 1 0
0.1113591 0.030326003 0.030388277 0.86602408 0.50000232 0 0
-0.14947709 0.15808594 0.025 0 0 1 0
-0.21138652 0.22104082 0.024999999 0 0 1 0
0.22457829 0.07056997 0.025 -0 0 1 0
0.15255411 0.19813287 0.025 0 0 1 0
0.10286248 0.23080823 0.025 0 0 1 0
0.14720497 -0.22601305 0.025 0 0 1 0
-0.14251472 -0.096554197 0.024999999 0 0 1 0
0.08832752 0.050995518 0.09254583 -0.49999368 0.86602908 0 0
0.020290203 0.16367975 0.025 0 0 1 0
0.072616719 0.21137498 0.025 0 0 1 0
-0.23870082 0.10566148 0.025 0 0 1 0
0.17952827 0.22093591 0.025 0 0 1 0
-0.0038658231 0.20645615 0.025000002 0 0 1 0
0.22301844 -0.074881271 0.025 -0 0 1 0
0.20865083 0.1341262 0.024999999 -0 0 1 0
0.24119316 -0.21902828 0.025 -0 0 1 0
0.0052462928 0.014327951 0.025 0 -0 1 0
0.12336578 -0.20023414 0.025 0 0 1 0
0.088454373 0.051068749 0.12088928 -0.49999368 0.86602908 0 0
0.22187963 -0.15134482 0.025000002 -0 0 1 0
-0.02677647 0.20260838 0.025 0 0 1 0
0.22407699 -0.11198104 0.025 -0 0 1 0
0.1903608 0.23334904 0.025000002 0 0 1 0
0.23239055 -0.040366992 0.025 -0 0 1 0
0.040481169 -0.24090084 0.025000002 0 0 1 0
-0.18288514 -0.12326336 0.025 0 0 1 0
0.12285627 -0.13942821 0.025 0 0 1 0
0.16370846 0.20861678 0.025 0 0 1 0
0.11023482 -0.094681479 0.025 0 0 1 0
-0.22980174 -0.11115596 0.025 0 0 1 0
0.19138873 0.23361126 0.0067815688 0.70710683 0.70710683 0 0
-0.050965086 -0.064226709 0.025 0 -0 1 0
-0.14685637 -0.078509286 0.025 0 0 1 0
-0.066304974 0.10667194 0.025 0 0 1 0
0.18925223 -0.013123251 0.025 -0 0 1 0
0.074382931 0.11690883 0.024999999 0 -0 1 0
0.12524134 0.0062813926 0.088261895 0.86602408 0.50000232 0 0
0.17702287 0.039467689 0.025000002 -0 0 1 0
0.25 0.00087877363 0.024917359 1 0 0 0
-0.018583488 -0.012763932 0.025 0 -0 1 0
0.25 0.027799413 0.021580745 1 0 0 0
-0.014432427 0.18002668 0.025 0 0 1 0
0.1280385 0.0014366064 0.14879009 0.86602408 0.50000232 0 0
-0.21971895 -0.00010994077 0.025 0 0 1 0
-0.16132714 -0.19756296 0.025 0 0 1 0
0.14938506 0.23751575 0.025 0 0 1 0
0.20847397 -0.19734216 0.025 0 0 1 0
-0.089979313 0.0015200656 0.024999999 0 0 1 0
0.036729135 0.15674855 0.025 0 0 1 0
-0.11363189 0.007460665 0.024999999 0 0 1 0
-0.2423476 0.25 0.019222688 0 1 0 0
-0.19522384 -0.19967334 0.025 0 0 1 0
0.236985 -0.14412153 0.025000002 -0 0 1 0
-0.046523128 0.16265607 0.025000002 0 0 1 0
-0.051225238 0.18423134 0.025000002 0 0 1 0
0.050608359 0.10634462 0.025 0 0 1 0
-0.14058064 0.1946201 0.025000002 0 0 1 0
-0.10790734 0.055462327 0.025000002 0 0 1 0
0.24650025 0.17849974 0.020441361 0.70710683 0.70710683 0 0
0.1257762 0.048195686 0.025000002 -0 0 1 0
0.14607523 -0.17914478 0.025 0 0 1 0
0.13343623 -0.1774272 0.025 0 0 1 0
0.21254766 -0.069494911 0.025 -0 0 1 0
-0.23902155 0.25 0.020332457 0 1 0 0
0.10950121 0.10099195 0.025000002 0 0 1 0
-0.13895145 0.036074318 0.025 0 0 1 0
-0.060389493 0.039702296 0.025 0 0 1 0
0.097728044 0.053935532 0.079441354 0.86602408 0.50000232 0 0
-0.22822626 -0.0074169636 0.025 0 0 1 0
0.22778755 -0.15718293 0.025 -0 0 1 0
-0.16978449 0.077132903 0.024999999 0 0 1 0
0.11662269 -0.047222532 0.175 0 0 1 0
-0.1858952 0.10202667 0.025 0 0 1 0
0.11773814 -0.24575999 0.025000002 0 0 1 0
0.062822051 -0.23432022 0.024999999 0 0 1 0
0.010722782 0.11179006 0.025 0 0 1 0
0.087861151 0.050726265 0.040988714 -0.49999368 0.86602908 0 0
-0.11640374 0.20061524 0.025 0 0 1 0
-0.2216635 -0.1264836 0.025 0 0 1 0
-0.2016553 -1.2516975e-05 0.025 0 0 1 0
-0.056447376 -0.0057529761 0.025 0 0 1 0
0.15145269 0.2309466 0.025 0 0 1 0
-0.20146899 -0.047895372 0.024999999 0 0 1 0
-0.11174794 -0.1311454 0.024999999 0 0 1 0
0.25 -0.0041356776 0.016835799 1 0 0 0
0.10121553 -0.20179014 0.025 0 0 1 0
0.030272666 0.055364847 0.025 0 -0 1 0
0.025398936 0.13223341 0.025 0 0 1 0
0.13104504 -0.0037708376 0.08811003 0.86602408 0.50000232 0 0
0.12960367 -0.11873007 0.025 0 0 1 0
-0.14784178 0.20253786 0.025000002 0 0 1 0
0.14118287 0.12624976 0.025 0 0 1 0
0.18755123 0.069666184 0.025 -0 0 1 0
-0.1746103 -0.20059934 0.025 0 0 1 0
-0.13207385 0.17596631 0.024999999 0 0 1 0
0.097667366 0.054040615 0.082730003 0.86602408 0.50000232 0 0
-0.17822559 0.098533817 0.025000002 0 0 1 0
0.10168856 0.047075741 0.0876344 0.86602408 0.50000232 0 0
0.1774215 0.089949965 0.025 -0 0 1 0
0.17718914 -0.20713943 0.025 0 0 1 0
0.060743548 0.03507017 0.11421771 -0.49999368 0.86602908 0 0
0.23157293 -0.21752688 0.025000002 0 0 1 0
-0.11178455 0.010073777 0.025000002 0 0 1 0
-0.049114823 0.10724567 0.025 0 0 1 0
0.088045403 0.15336399 0.025 0 0 1 0
0.082232401 -0.016980613 0.17499998 0 0 1 0
0.12505278 0.0066079842 0.10863576 0.86602408 0.50000232 0 0
0.031892814 0.21837717 0.025 0 0 1 0
-0.13222227 0.11611802 0.025 0 0 1 0
0.25 -0.1763217 0.012173004 1 0 0 0
-0.15825978 0.031030972 0.025000002 0 0 1 0
-0.22136617 0.12510252 0.025000002 0 0 1 0
0.18992043 -0.082538441 0.025000002 -0 0 1 0
0.19035771 -0.17126349 0.025 0 0 1 0
0.17113751 0.064968191 0.025 -0 0 1 0
-0.13363522 0.070116214 0.024999999 0 0 1 0
0.18501347 -0.090292141 0.025 -0 0 1 0
-0.069510579 0.25 0.012862768 0 1 0 0
0.10402477 -0.0072852592 0.175 0 0 1 0
-0.18992423 -0.00017399341 0.025000002 0 0 1 0
0.14991243 0.073526464 0.025000002 -0 0 1 0
-0.078234211 0.25 0.0033980599 0 1 0 0
-0.23505779 0.18168727 0.025 0 0 1 0
0.066052467 -0.23476565 0.025 0 0 1 0
-0.012494979 0.045551069 0.025 0 0 1 0
0.13147458 -0.0045148376 0.026503002 0.86602408 0.50000232 0 0
-0.15850003 0.11390854 0.025000002 0 0 1 0
-0.16821896 0.049012344 0.025 0 0 1 0
0.087656371 0.072363652 0.025 0 0 1 0
-0.17850405 -0.14524999 0.025 0 0 1 0
0.13185549 0.10183169 0.025 0 0 1 0
-0.20149167 -0.14813715 0.025 0 0 1 0
0.065417185 -0.23874763 0.024999999 0 0 1 0
-0.16751 0.049514212 0.025000002 0 0 1 0
-0.13934796 -0.11540044 0.025 0 0 1 0
-0.015184255 -0.22864732 0.025 0 0 1 0
0.16254319 -0.2491647 0.025 0 0 1 0
-0.10535014 -0.052717522 0.025 0 0 1 0
0.087004952 0.050231948 0.088999152 -0.49999368 0.86602908 0 0
0.20997913 -0.080696002 0.024999999 -0 0 1 0
0.048928697 0.09033905 0.025000002 0 -0 1 0
0.23370653 0.054718122 0.025000002 -0 0 1 0
0.12841602 0.16176844 0.025 0 0 1 0
0.25 0.018921062 0.0036770592 1 0 0 0
0.028891973 0.10697595 0.025 0 0 1 0
-0.15888855 0.20831001 0.025 0 0 1 0
-0.20226225 0.047156639 0.025000002 0 0 1 0
-0.20536274 -0.16909431 0.025 0 0 1 0
0.16920316 -0.022601033 0.025 -0 0 1 0
-0.18766777 -0.045264699 0.025 0 0 1 0
-0.14955699 0.25 0.010440568 0 1 0 0
-0.089352816 0.24823736 0.025 0 0 1 0
0.16414867 0.0016598771 0.025 -0 0 1 0
0.10194082 0.046638817 0.12930864 0.86602408 0.50000232 0 0
0.1198013 0.018329186 0.025 -0 0 1 0
-0.21921299 -0.18766494 0.024999999 0 0 1 0
0.080366671 -0.21854684 0.025000002 0 0 1 0
-0.17176355 -0.050587296 0.025 0 0 1 0
-0.23289238 -0.020971596 0.025 0 0 1 0
-0.016686738 0.076414593 0.025 0 0 1 0
-0.23351683 -0.21231042 0.025 0 0 1 0
-0.06586501 -0.094906285 0.025 0 0 1 0
-0.10453955 -0.1413524 0.025 0 0 1 0
0.2431064 -0.088295929 0.025000002 -0 0 1 0
-0.097691715 -0.1056569 0.025 0 -0 1 0
0.11770318 0.12735705 0.024999999 0 0 1 0
-0.1457372 -0.16350606 0.025000002 0 0 1 0
-0.14784449 -0.12655427 0.025 0 0 1 0
-0.075565383 0.10194103 0.025 0 0 1 0
-0.098039746 -0.036824081 0.025 0 0 1 0
0.1215151 -0.21279182 0.025 0 0 1 0
0.072401457 -0.16992372 0.025 0 0 1 0
-0.057952724 0.21075325 0.025 0 0 1 0
-0.24820232 0.15765466 0.025000002 0 0 1 0
0.15636061 -0.035522103 0.025 -0 0 1 0
0.16513814 -0.19387574 0.025000002 0 0 1 0
0.075185508 0.22927576 0.025 0 0 1 0
0.11482475 -0.088153146 0.025 0 0 1 0
-0.13144454 0.068707764 0.025 0 0 1 0
0.11645582 -0.0083700251 0.175 0 0 1 0
-0.12572737 0.19754764 0.025000002 0 0 1 0
0.24376194 -0.0012794286 0.025000002 -0 0 1 0
-0.10726634 -0.024532173 0.025 0 0 1 0
-0.14364985 0.073785156 0.025 0 0 1 0
-0.20797898 0.1374632 0.024999999 0 0 1 0
-0.24104089 -0.022100955 0.025 0 0 1 0
0.17572628 -0.097752817 0.025000002 0 0 1 0
-0.16277374 0.1820839 0.025000002 0 0 1 0
-0.24572888 -0.12224224 0.024999999 0 0 1 0
0.25 -0.15235566 0.00016046649 1 0 0 0
-0.24077107 0.18827623 0.025 0 0 1 0
0.091624118 0.018823404 0.15451039 -0.35354975 0.61237639 0.70710516 0
-0.18869174 0.25 0.0080193244 0 1 0 0
-0.040965512 0.13073373 0.025 0 0 1 0
-0.0014901608 -0.012966236 0.025 0 -0 1 0
0.072613306 -0.24263072 0.025 0 0 1 0
-0.24876511 -0.20558795 0.025 0 0 1 0
0.071169809 0.041089669 0.032986976 -0.49999368 0.86602908 0 0
0.041780543 0.094931394 0.025000002 0 0 1 0
-0.12744957 -0.099509522 0.025000002 0 0 1 0
-0.18235506 0.075418189 0.025 0 0 1 0
0.24650449 -0.032935739 0.025 -0 0 1 0
0.1167253 -0.21808694 0.025000002 0 0 1 0
0.076819897 0.16206621 0.025 0 0 1 0
0.13556227 -0.13846326 0.025 0 0 1 0
0.25 0.11979049 0.00052885991 1 0 0 0
0.11649926 0.021423029 0.15667275 0.86602408 0.50000226 0 0
0.14662521 0.25 0.014928071 -0 1 0 0
0.19693954 -0.22854777 0.025 0 0 1 0
-0.047501706 -0.016541824 0.025 0 -0 1 0
0.18354179 -0.18765348 0.025 0 0 1 0
-0.042167764 0.11641402 0.025 0 0 1 0
-0.23396663 -0.17783955 0.025 0 0 1 0
0.076174632 0.049583003 0.025 0 0 1 0
0.15774721 -0.082856059 0.025 0 0 1 0
-0.013259735 0.16347647 0.025 0 0 1 0
0.18293005 -0.2442006 0.025000002 0 0 1 0
-0.11604509 -0.10914028 0.025000002 0 -0 1 0
0.097916022 0.053609941 0.11825871 0.86602408 0.50000232 0 0
0.1783291 -0.19290924 0.025 0 0 1 0
-0.24328534 0.2223206 0.025000002 0 0 1 0
0.15226869 -0.073993698 0.025 0 0 1 0
-0.18108797 0.19413085 0.025 0 0 1 0
0.12829658 0.21482432 0.025 0 0 1 0
-0.096902877 0.048071623 0.025 0 0 1 0
0.10256408 -0.054009754 0.175 0 0 1 0
0.14953625 0.018436259 0.025000002 -0 0 1 0
0.22880346 0.17719372 0.025000002 0 0 1 0
0.14315739 0.25 0.019377816 -0 1 0 0
-0.23556955 0.25 0.012172629 0 1 0 0
-0.22759451 -0.098853022 0.024999999 0 0 1 0
0.22172949 -0.10523245 0.025 -0 0 1 0
-0.047666408 0.12363014 0.024999999 0 0 1 0
0.12674116 0.0036836513 0.14586388 0.86602408 0.50000232 0 0
0.24513492 0.17986508 0.016456351 0.70710683 0.70710683 0 0
-0.23302606 0.051989801 0.025000002 0 0 1 0
-0.15254307 -0.12975408 0.025000002 0 0 1 0
0.069711722 0.25 0.008746394 -0 1 0 0
-0.1028486 -0.050143279 0.025000002 0 0 1 0
0.24277486 -0.21775113 0.025 -0 0 1 0
0.23569906 0.015229784 0.025 -0 0 1 0
0.20601778 0.17201328 0.025000002 0 0 1 0
0.07644327 0.23199695 0.025 0 0 1 0
0.13212 -0.0056327106 0.038917214 0.86602408 0.50000232 0 0
-0.24952267 -0.1737743 0.025 0 0 1 0
0.17906776 0.049359091 0.025 -0 0 1 0
-0.13042678 -0.11984351 0.025000002 0 -0 1 0
-0.18823323 0.25 0.02445971 -0 1 0 0
-0.084381923 0.22120577 0.025 0 0 1 0
0.16426045 -0.021561641 0.025 -0 0 1 0
-0.12831882 -0.0035324469 0.025 0 0 1 0
-0.10053161 0.09156245 0.025000002 0 0 1 0
0.079199374 0.001874413 0.16297647 -0.35354972 0.61237645 0.70710516 0
0.25 0.10824957 0.022466157 1 0 0 0
0.16159919 0.14336316 0.025000002 0 0 1 0
0.17431253 0.1304321 0.025 0 0 1 0
0.25 0.090604611 0.0055349208 1 0 0 0
0.095074728 -0.22678488 0.024999999 0 0 1 0
0.1469868 -0.18482739 0.025000002 0 0 1 0
0.073312946 0.017078713 0.14686584 -0.35354972 0.61237645 0.70710516 0
0.05298394 0.04149713 0.025 0 -0 1 0
-0.14395376 0.062336374 0.025000002 0 0 1 0
0.18860319 0.081283599 0.025000002 -0 0 1 0
0.076081067 0.043925144 0.11689471 -0.49999368 0.86602908 0 0
0.09634763 0.077069968 0.025 0 0 1 0
0.14846353 0.22567675 0.025 0 0 1 0
-0.19689263 -0.1792841 0.025 0 0 1 0
0.23460948 -0.12671193 0.025000002 -0 0 1 0
0.25 -0.23256938 0.013025529 1 0 0 0
-0.13828143 0.11646167 0.024999999 0 0 1 0
0.2370581 -0.09819603 0.025 -0 0 1 0
0.20327282 -0.064620502 0.025000002 -0 0 1 0
0.15721004 0.25 0.014594434 -0 1 0 0
-0.17127649 0.14067869 0.024999999 0 0 1 0
-0.22460245 0.2322937 0.025 0 0 1 0
-0.075420342 0.25 0.006831625 0 1 0 0
0.12816915 0.001210303 0.13481633 0.86602408 0.50000232 0 0
0.091723919 -0.16345932 0.025000002 0 0 1 0
0.024920821 0.23979726 0.025000002 0 0 1 0
0.22596994 0.097010657 0.025 -0 0 1 0
0.1393332 -0.19025074 0.024999999 0 0 1 0
-0.05210799 0.21020672 0.025 0 0 1 0
0.13402647 -0.24278469 0.025000002 0 0 1 0
-0.16789673 -0.078960769 0.025 0 0 1 0
0.23929104 -0.084752373 0.025 -0 0 1 0
-0.083113164 0.167429 0.025 0 0 1 0
0.068422131 0.039503329 0.098142743 -0.49999368 0.86602908 0 0
0.04156857 0.21340202 0.025000002 0 0 1 0
0.0614748 -0.22293931 0.024999999 0 0 1 0
0.20317522 -0.21420936 0.024999999 0 0 1 0
-0.17078108 0.2290004 0.025 0 0 1 0
-0.11046236 -0.092141613 0.025000002 0 -0 1 0
0.20630148 0.02012302 0.025 -0 0 1 0
0.21405768 0.14514016 0.025 -0 0 1 0
0.20121409 0.22378592 0.012053866 0.70710683 0.70710683 0 0
-0.18654101 0.22258559 0.025 0 0 1 0
0.058336452 0.033680458 0.036125991 -0.49999368 0.86602908 0 0
-0.041034788 0.13858779 0.025000002 0 0 1 0
0.066147789 0.19535597 0.025 0 0 1 0
0.051536996 0.12655467 0.025 0 0 1 0
0.085831106 0.067752182 0.025 0 0 1 0
0.16083619 -0.11943965 0.024999999 0 0 1 0
0.24122663 0.16367911 0.025 -0 0 1 0
-0.24861674 -0.16947706 0.024999999 0 0 1 0
0.00014775246 0.1211848 0.025000002 0 0 1 0
-0.17549694 -0.18286799 0.025 0 0 1 0
0.17165436 -0.089096785 0.025000002 0 0 1 0
0.18236284 0.064278714 0.024999999 -0 0 1 0
0.061563522 0.23780999 0.025 0 0 1 0
-0.078748882 0.22317378 0.024999999 0 0 1 0
0.1376507 -0.015212127 0.051259309 0.86602408 0.50000232 0 0
-0.070032373 -0.06714727 0.025 0 -0 1 0
0.12640043 -0.2019835 0.025 0 0 1 0
0.20417772 -0.23619957 0.025 0 0 1 0
0.053563524 -0.1730231 0.025 0 0 1 0
-0.16480502 -0.19211408 0.025 0 0 1 0
0.17636468 -0.10133929 0.025 0 0 1 0
0.074003667 0.23210965 0.025 0 0 1 0
-0.18052261 0.17720382 0.025 0 0 1 0
-0.045467503 0.16431431 0.024999999 0 0 1 0
-0.012224946 0.17683136 0.025000002 0 0 1 0
0.21813078 -0.056898504 0.025 -0 0 1 0
0.17518729 -0.24929477 0.025000002 0 0 1 0
0.043802038 0.15196395 0.025 0 0 1 0
-0.24641034 0.18364896 0.025 0 0 1 0
-0.13915716 -0.10641477 0.025 0 0 1 0
0.17178598 -0.23093362 0.025 0 0 1 0
0.1580212 0.22480507 0.025000002 0 -0 1 0
0.13542736 0.10014148 0.025 0 0 1 0
-0.18836987 0.07506454 0.025 0 0 1 0
0.10921305 0.034043029 0.14120479 0.86602408 0.50000226 0 0
-0.078133635 -0.055736944 0.024999999 0 -0 1 0
-0.011714201 0.13793483 0.025000002 0 0 1 0
-0.16461535 0.1502838 0.025000002 0 0 1 0
0.15408385 -0.16601157 0.025 0 0 1 0
0.06493409 -0.20966804 0.025000002 0 0 1 0
-0.22713186 -0.047371536 0.024999999 0 0 1 0
-0.22944137 0.008026883 0.025000002 0 0 1 0
-0.15080793 0.20757367 0.025000002 0 0 1 0
0.028326616 0.24273105 0.025000002 0 0 1 0
-0.030418936 0.14350581 0.025000002 0 0 1 0
-0.20730102 -0.019654892 0.025000002 0 0 1 0
0.043281592 0.14864796 0.025000002 0 0 1 0
0.028447617 -0.17638999 0.024999999 0 0 1 0
0.20494714 -0.084008545 0.025 -0 0 1 0
0.061028428 0.23061442 0.025 0 0 1 0
0.23829585 -0.1433308 0.025 -0 0 1 0
0.14232653 0.13068838 0.025 0 0 1 0
0.10336098 0.144724 0.025000002 0 -0 1 0
-0.19496897 -0.0040633157 0.024999999 0 0 1 0
0.058246631 0.11956411 0.025 0 0 1 0
-0.21467075 0.0044860095 0.024999999 0 0 1 0
0.11739032 0.22330739 0.025 0 0 1 0
-0.23521863 0.1354883 0.025 0 0 1 0
0.15840472 -0.17014173 0.024999999 0 0 1 0
0.086465672 0.14435986 0.025 0 -0 1 0
0.14605619 0.19134802 0.025000002 0 0 1 0
0.084514491 -0.12545237 0.025 0 0 1 0
-0.10681759 -0.083765864 0.025000002 0 -0 1 0
-0.19103615 0.16491832 0.025000002 0 0 1 0
0.15951955 0.16923589 0.025 0 0 1 0
-0.21022624 0.23451012 0.025 0 0 1 0
0.20719533 -0.038757123 0.025000002 -0 0 1 0
0.17156219 -0.099441782 0.025 0 0 1 0
0.17763504 0.11284193 0.025 -0 0 1 0
-0.054444108 0.030098433 0.025 0 0 1 0
-0.15281168 -0.042298384 0.025000002 0 0 1 0
0.091322564 0.1816476 0.025 0 0 1 0
-0.13070378 -0.045186661 0.025 0 0 1 0
-0.13925755 0.068347454 0.025 0 0 1 0
0.071352482 0.041195143 0.11937954 -0.49999368 0.86602908 0 0
-0.19909799 -0.13501908 0.025 0 0 1 0
-0.062270116 0.25 0.0067324275 0 1 0 0
0.23539656 -0.10846435 0.024999999 -0 0 1 0
-0.14236957 -0.11036173 0.025000002 0 0 1 0
0.13014176 0.14157194 0.025 0 0 1 0
-0.0094740652 0.1460361 0.025 0 0 1 0
-0.14916782 0.17560326 0.025000002 0 0 1 0
-0.12626426 0.0056483001 0.025000002 0 0 1 0
0.20533532 0.15077341 0.025000002 0 0 1 0
-0.0048884079 -0.20606324 0.025 0 0 1 0
-0.032629505 0.17663392 0.025000002 0 0 1 0
-0.16035929 -0.017704271 0.025000002 0 0 1 0
0.076184541 0.25 0.017714303 -0 1 0 0
-0.11499998 0.0040654801 0.024999999 0 0 1 0
0.2046119 -0.040452354 0.025 -0 0 1 0
0.21074013 0.1348305 0.025 -0 0 1 0
-0.14017045 0.030194853 0.025000002 0 0 1 0
0.11444831 -0.075006939 0.025 0 0 1 0
-0.21668503 -0.15492588 0.025 0 0 1 0
-0.2413612 0.19194244 0.024999999 0 0 1 0
-0.10003337 0.12338531 0.025 0 0 1 0
0.12124319 0.00036762864 0.175 0 0 1 0
-0.078152858 -0.036514554 0.025 0 0 1 0
0.24542223 0.013622038 0.025 -0 0 1 0
0.033448953 -0.21323046 0.025000002 0 0 1 0
0.18402942 0.11826211 0.025000002 -0 0 1 0
0.25 -0.078378692 0.001539827 1 0 0 0
0.032201335 0.20615783 0.025000002 0 0 1 0
-0.1740084 0.20642669 0.024999999 0 0 1 0
-0.079032384 0.16002858 0.025 0 0 1 0
-0.23093235 -0.11245061 0.025000002 0 0 1 0
0.089990459 -0.12015652 0.025 0 0 1 0
0.10542568 0.18430744 0.025 0 0 1 0
0.22624288 0.056595951 0.025 -0 0 1 0
0.18459041 0.11387466 0.025 -0 0 1 0
-0.14360876 -0.016791031 0.025000002 0 0 1 0
0.13732138 0.059732109 0.025 -0 0 1 0
0.21569127 -0.17884938 0.025 0 0 1 0
-0.15794568 0.079013504 0.025000002 0 0 1 0
0.12364589 -0.13673879 0.025 0 0 1 0
-0.097994566 -0.12724531 0.025000002 0 0 1 0
0.25 -0.10289554 0.00099801645 1 0 0 0
0.034977861 0.026160266 0.025 0 -0 1 0
0.20837721 -0.033792675 0.025 -0 0 1 0
0.12946126 -0.022917513 0.175 0 0 1 0
-0.24002507 -0.13448982 0.025 0 0 1 0
0.20851889 -0.06482549 0.025 -0 0 1 0
-0.18055028 0.19722196 0.025 0 0 1 0
0.13318793 0.092720002 0.025 0 0 1 0
0.14505845 -0.1388939 0.024999999 0 0 1 0
0.018252842 -0.0017523803 0.025 0 0 1 0
-0.077938914 0.015298676 0.025 0 0 1 0
0.1666209 -0.21422842 0.025 0 0 1 0
0.13835086 -0.01642482 0.11239252 0.86602408 0.50000232 0 0
-0.1676403 -0.21420127 0.024999999 0 0 1 0
0.13013051 -0.0021868609 0.148425 0.86602408 0.50000232 0 0
0.16062385 0.25 0.0061016278 -0 1 0 0
0.24572444 -0.10585614 0.024999999 -0 0 1 0
0.059339613 0.12624006 0.025 0 0 1 0
-0.14610949 0.17130451 0.025 0 0 1 0
-0.12746921 -0.16326711 0.025 0 0 1 0
-0.04974068 -0.02149909 0.025 0 -0 1 0
0.0060995445 0.17943576 0.025000002 0 0 1 0
-0.1766897 -0.060802996 0.025 0 0 1 0
-0.10289559 0.15831858 0.025 0 0 1 0
-0.11911841 0.11020088 0.025 0 0 1 0
0.071720816 0.0087846098 0.15325275 -0.35354972 0.61237645 0.70710516 0
0.13169061 -0.0048889946 0.072105318 0.86602408 0.50000232 0 0
0.14367379 -0.22049762 0.025 0 0 1 0
-0.087033734 -0.10597724 0.025000002 0 0 1 0
-0.077855028 0.037560966 0.025 0 0 1 0
-0.19270012 -0.20619655 0.025 0 0 1 0
0.11711992 0.020348009 0.14206432 0.86602408 0.50000232 0 0
-0.1382938 -0.12008171 0.025 0 -0 1 0
0.05045788 0.25 0.0084330868 -0 1 0 0
0.21433368 -0.096013725 0.025 -0 0 1 0
-0.2289397 0.00410299 0.025 0 0 1 0
-0.18406524 0.03233926 0.025 0 0 1 0
0.19242345 -0.058356028 0.025 -0 0 1 0
-0.13075879 -0.1536684 0.025 0 0 1 0
-0.15386321 -0.12723456 0.025 0 0 1 0
0.11933968 0.095803969 0.025000002 0 0 1 0
-0.22687185 -0.23794039 0.025 0 0 1 0
0.11224297 0.028795086 0.085384354 0.86602408 0.50000232 0 0
0.11047827 0.031851638 0.13428399 0.86602408 0.50000232 0 0
-0.060587995 0.055732846 0.025 0 0 1 0
0.10700233 -0.043843754 0.175 0 0 1 0
-0.20251915 0.25 0.013080655 0 1 0 0
-0.15306623 0.20003861 0.025000002 0 0 1 0
0.011205293 -0.24521635 0.025 0 0 1 0
0.24418208 -0.0056544766 0.025 -0 0 1 0
-0.18820363 -0.21488979 0.025 0 0 1 0
0.16295078 -0.037072517 0.025 -0 0 1 0
0.054156825 0.14020714 0.025000002 0 0 1 0
-0.030585293 -0.04417314 0.025 0 -0 1 0
-0.15182182 0.25 0.0086103529 0 1 0 0
0.17232165 -0.12839204 0.024999999 0 0 1 0
-0.018036112 0.17312604 0.025000002 0 0 1 0
0.15539491 -0.056261525 0.025 0 0 1 0
-0.17346388 0.24301977 0.025 0 0 1 0
-0.14371084 -0.055125445 0.025 0 0 1 0
-0.088262632 0.029977905 0.025 0 0 1 0
-0.16945498 0.017781325 0.025 0 0 1 0
-0.18157031 -0.15891138 0.025000002 0 0 1 0
-0.20585071 -0.15334195 0.025 0 0 1 0
0.076815248 0.044349015 0.081514597 -0.49999368 0.86602908 0 0
0.019481145 0.17546992 0.025 0 0 1 0
0.24023642 -0.1351711 0.024999999 -0 0 1 0
-0.18468229 -0.10969889 0.025 0 0 1 0
-0.21852675 0.11374553 0.025000002 0 0 1 0
0.066545136 0.23199135 0.025000002 0 0 1 0
-0.13295534 0.1681747 0.025000002 0 0 1 0
0.10576217 0.040020104 0.11390588 0.86602408 0.50000232 0 0
-0.24733485 0.01258751 0.024999999 0 0 1 0
-0.002187334 0.19535899 0.025 0 0 1 0
-0.21918012 -0.24260423 0.025000002 0 0 1 0
0.020510344 0.25 0.011898287 -0 1 0 0
-0.020008866 -0.0073610768 0.025 0 -0 1 0
0.00177541 -0.24120769 0.025000002 0 0 1 0
-0.14056827 0.050106239 0.025000002 0 0 1 0
-0.24946514 -0.18528354 0.025 0 0 1 0
-0.19919762 0.0020178482 0.025000002 0 0 1 0
0.068105459 -0.134102 0.025 0 0 1 0
0.20266026 -0.22118489 0.025 0 0 1 0
-0.080876932 0.14463282 0.025 0 0 1 0
0.12467267 0.0072663482 0.17436671 0.86602408 0.50000226 0 0
0.12025101 0.16278924 0.024999999 0 -0 1 0
-0.22447623 0.20385377 0.025 0 0 1 0
0.19824529 0.17129159 0.025000002 0 0 1 0
0.14111921 -0.021219712 0.13650554 0.86602408 0.50000232 0 0
-0.1315271 0.16394976 0.025 0 0 1 0
0.11740182 0.24875313 0.025 0 0 1 0
0.19930874 -0.14652054 0.025000002 0 0 1 0
-0.20067793 0.10940784 0.024999999 0 0 1 0
0.14775054 0.049542092 0.025000002 -0 0 1 0
-0.047110349 0.13972756 0.025000002 0 0 1 0
-0.043060347 0.1896911 0.025 0 0 1 0
0.034873635 0.17874773 0.025 0 0 1 0
0.21137679 0.1047488 0.024999999 -0 0 1 0
0.10474622 -0.16252808 0.025 0 0 1 0
0.13989256 -0.019095147 0.16811949 0.86602408 0.50000232 0 0
0.2066042 -0.04688156 0.025000002 -0 0 1 0
0.23021218 -0.13971433 0.025 -0 0 1 0
0.12491664 -0.1417837 0.025 0 0 1 0
-0.21898164 -0.068557456 0.025 0 0 1 0
-0.067459457 0.25 0.015084388 -0 1 0 0
0.1172305 0.030778555 0.025000002 -0 0 1 0
-0.0079055848 0.075156637 0.025 0 0 1 0
-0.22258927 -0.11508031 0.025000002 0 0 1 0
-0.0097812368 0.073262289 0.025 0 0 1 0
-0.00057995319 0.25 0.0092386175 0 1 0 0
0.25 0.14933354 0.017915428 1 0 0 0
-0.20382938 0.035116561 0.025000002 0 0 1 0
0.06606824 -0.13922372 0.024999999 0 0 1 0
0.12061976 0.1484831 0.024999999 0 0 1 0
0.080299318 0.046360515 0.088716783 -0.49999368 0.86602908 0 0
0.053101309 0.17241333 0.025000002 0 0 1 0
-0.085111953 0.1529133 0.024999999 0 0 1 0
-0.1404587 0.25 0.015184253 0 1 0 0
0.081909068 -0.23821323 0.025000002 0 0 1 0
0.20407286 0.21199858 0.025 0 0 1 0
-0.090583511 0.15355882 0.025 0 0 1 0
0.13891615 0.22606289 0.025 0 0 1 0
0.23906337 -0.15489377 0.024999999 -0 0 1 0
-0.14532618 -0.10783515 0.024999999 0 0 1 0
0.11042245 0.031948302 0.12931462 0.86602408 0.50000232 0 0
0.020210952 0.2437475 0.025000002 0 0 1 0
-0.11959595 -0.076603994 0.024999999 0 0 1 0
-0.11616044 -0.15684527 0.024999999 0 0 1 0
0.082537413 -0.22504935 0.025000002 0 0 1 0
-0.18498826 0.20168999 0.025 0 0 1 0
0.029250756 0.22734296 0.025 0 0 1 0
0.12082189 0.013936054 0.17302822 0.86602408 0.50000226 0 0
0.13626096 -0.012805028 0.030197131 0.86602408 0.50000232 0 0
-0.032228164 0.20960504 0.025 0 0 1 0
0.15242217 -0.081012957 0.025 0 0 1 0
-0.17449227 -0.1726259 0.025000002 0 -0 1 0
0.032927863 0.080593646 0.025 0 -0 1 0
0.020526573 -0.24465555 0.025 0 0 1 0
-0.16639361 0.083397813 0.025000002 0 0 1 0
-0.10157848 0.021831237 0.025000002 0 0 1 0
0.0012815893 -0.20446475 0.025 0 0 1 0
0.017626591 0.25 0.024291832 -0 1 0 0
0.25 -0.1297915 0.021049401 1 0 0 0
0.078069352 0.076710552 0.025 0 -0 1 0
0.16785771 0.053352322 0.024999999 -0 0 1 0
-0.19720936 0.091973096 0.025 0 0 1 0
0.13963813 -0.094491042 0.025000002 0 0 1 0
0.22463654 -0.075312555 0.025000002 -0 0 1 0
0.026909735 0.033720404 0.025000002 0 -0 1 0
-0.19667208 0.15306498 0.024999999 0 0 1 0
0.22518384 -0.080719039 0.025 -0 0 1 0
-0.089807108 0.13717601 0.025000002 0 0 1 0
-0.051599231 0.19872478 0.025 0 0 1 0
0.066865042 -0.21281131 0.025000002 0 0 1 0
0.14961012 -0.11959045 0.025 0 0 1 0
0.024047382 0.22166687 0.025 0 0 1 0
0.12608235 0.16220507 0.025 0 -0 1 0
-0.13752076 -0.094571546 0.024999999 0 0 1 0
0.17395799 -0.02445603 0.025000002 -0 0 1 0
-0.17596841 0.24359642 0.025 0 0 1 0
-0.13438673 -0.12662834 0.025 0 -0 1 0
-0.11439904 0.12434985 0.025 0 0 1 0
0.25 0.098824143 0.022296695 1 0 0 0
0.16444628 0.008726418 0.025 -0 0 1 0
0.086071722 -0.24209195 0.025 0 0 1 0
0.069411732 0.040074669 0.072397888 -0.49999368 0.86602908 0 0
0.01141865 0.010890879 0.025000002 0 -0 1 0
-0.046366919 -0.059212588 0.025 0 -0 1 0
0.15160303 -0.18301672 0.025000002 0 0 1 0
0.25 -0.16181441 0.019311598 1 0 0 0
0.078068256 0.13206275 0.025 0 -0 1 0
0.032483768 0.25 0.017230332 -0 1 0 0
0.17407636 -0.12981395 0.025 0 0 1 0
-0.17289859 0.12666428 0.025 0 0 1 0
-0.20849788 -0.23721135 0.025000002 0 0 1 0
0.22241539 -0.048757192 0.025000002 -0 0 1 0
-0.22535247 0.036478817 0.025 0 0 1 0
0.1317748 -0.0050348248 0.058478214 0.86602408 0.50000232 0 0
0.20977092 -0.11758716 0.025000002 -0 0 1 0
0.032744437 -0.16680774 0.025 0 0 1 0
-0.18253188 -0.23064639 0.025000002 0 0 1 0
0.10782039 0.10170633 0.025 0 0 1 0
0.090804212 0.17680007 0.025 0 0 1 0
0.24800763 0.029776432 0.025000002 -0 0 1 0
0.029658347 -0.22491273 0.025 0 0 1 0
0.12303904 0.10051532 0.025000002 0 0 1 0
-0.24309605 0.044662073 0.025000002 0 0 1 0
-0.21909393 0.030246109 0.025 0 0 1 0
-0.083578959 -0.053648222 0.025 0 0 1 0
0.043585625 -0.20322159 0.025 0 0 1 0
0.13032402 -0.12629378 0.025 0 0 1 0
0.095266461 0.24464865 0.025 0 0 1 0
0.23067826 -0.19882168 0.025 -0 0 1 0
-0.12432581 -0.047500826 0.024999999 0 0 1 0
-0.069754668 -0.029371705 0.024999999 0 0 1 0
0.23154485 0.19345514 0.0091163721 0.70710683 0.70710683 0 0
0.23055756 0.1724444 0.025000002 0 0 1 0
0.090484284 0.078386754 0.025000002 0 0 1 0
0.25 -0.10842778 0.0064334036 1 0 0 0
-0.14024414 0.23512319 0.025 0 0 1 0
0.25 0.011876896 0.0036186527 1 0 0 0
0.22010581 -0.0049651861 0.024999999 -0 0 1 0
0.22913751 -0.1001018 0.024999999 -0 0 1 0
-0.16183628 -0.075779513 0.025 0 0 1 0
0.072199851 0.041684359 0.11360247 -0.49999368 0.86602908 0 0
-0.018927202 0.24568585 0.025 0 0 1 0
0.15839955 -0.12828861 0.025000002 0 0 1 0
-0.076011643 0.25 0.014200903 0 1 0 0
0.14044482 0.18616141 0.024999999 0 0 1 0
-0.16446482 0.067945451 0.025000002 0 0 1 0
-0.098319471 0.14758702 0.025 0 0 1 0
0.02400554 -0.24328832 0.025 0 0 1 0
-0.11663717 -0.039071955 0.025000002 0 0 1 0
0.099541329 0.050794844 0.083664715 0.86602408 0.50000232 0 0
-0.14920691 0.065646738 0.024999999 0 0 1 0
0.0064142309 0.11855425 0.025 0 0 1 0
-0.029459275 0.18822324 0.025 0 0 1 0
-0.012436368 0.16320693 0.025 0 0 1 0
0.044017188 0.062673293 0.025 0 -0 1 0
0.23986505 -0.24572919 0.025 0 0 1 0
-0.15648942 0.036160629 0.024999999 0 0 1 0
0.14294568 -0.19314629 0.025 0 0 1 0
-0.21181789 0.067245014 0.024999999 0 0 1 0
0.15010744 -0.092436172 0.025 0 0 1 0
0.11230636 0.034408979 0.025000002 -0 0 1 0
-0.010855095 -0.2273401 0.025 0 0 1 0
-0.096678853 -0.07735534 0.025 0 -0 1 0
0.17974204 -0.10104813 0.024999999 0 0 1 0
-0.22414638 -0.19652678 0.024999999 0 0 1 0
-0.24773926 0.25 0.007530849 0 1 0 0
0.14252259 -0.18705222 0.025 0 0 1 0
-0.23146057 -0.17803544 0.025 0 0 1 0
0.047942355 0.093401738 0.024999999 0 -0 1 0
-0.018931611 0.25 0.013909091 -0 1 0 0
0.24657981 0.06566745 0.025000002 -0 0 1 0
0.24353737 0.10099803 0.025 -0 0 1 0
-0.061277244 0.08901719 0.025 0 0 1 0
-0.12748934 0.14500441 0.025 0 0 1 0
-0.079731867 0.040204059 0.024999999 0 0 1 0
-0.028355613 0.063040555 0.025 0 0 1 0
-0.16010278 -0.13286206 0.025 0 0 1 0
0.24820888 0.030872084 0.025 -0 0 1 0
0.19878101 0.20074911 0.025 0 0 1 0
0.14564797 -0.029063702 0.12287444 0.86602408 0.50000232 0 0
-0.16356704 0.16520976 0.025000002 0 0 1 0
-0.14267257 -0.077427924 0.025 0 0 1 0
0.20641457 -0.12960652 0.025 -0 0 1 0
-0.20705414 -0.14521883 0.025 0 0 1 0
0.093593955 0.059671883 0.025 0 0 1 0
-0.10611542 0.13135174 0.025 0 0 1 0
-0.034744311 -0.030041367 0.025 0 -0 1 0
0.017597489 0.25 0.00014536761 0 1 0 0
0.068870984 -0.22256106 0.025 0 0 1 0
-0.081772298 0.19019417 0.025 0 0 1 0
0.1015314 0.20761304 0.025 0 0 1 0
0.1621836 0.13060758 0.025000002 0 0 1 0
0.030341014 0.25 0.024719134 -0 1 0 0
0.25 -0.048620451 0.021316346 1 0 0 0
0.1146507 0.024624787 0.15609789 0.86602408 0.50000226 0 0
-0.11343904 -0.096469313 0.025 0 -0 1 0
-0.024805576 0.17306283 0.024999999 0 0 1 0
0.23965336 0.18534663 0.0091552399 0.70710683 0.70710683 0 0
0.25 0.03312185 0.013298691 1 0 0 0
-0.18040666 0.20615831 0.025 0 0 1 0
0.054218832 0.25 0.017390171 -0 1 0 0
0.22101665 0.20398334 0.024204463 0.70710683 0.70710683 0 0
0.24739146 -0.029595479 0.025 -0 0 1 0
0.22743887 -0.080864042 0.025 -0 0 1 0
-0.086677976 0.15104324 0.025000002 0 0 1 0
-0.20791224 0.070200935 0.025 0 0 1 0
-0.012313217 0.1204737 0.025000002 0 0 1 0
0.1656945 -0.20861396 0.025 0 0 1 0
-0.24008973 -0.14606375 0.024999999 0 0 1 0
0.24055175 0.15436542 0.025 -0 0 1 0
-0.19541202 0.16767956 0.025000002 0 0 1 0
0.10435503 0.15309805 0.025 0 -0 1 0
0.11597385 0.05891731 0.025 -0 0 1 0
0.18756744 0.20823985 0.025 0 0 1 0
-0.044649724 -0.0038656946 0.025 0 0 1 0
-0.15712787 -0.18394007 0.025000002 0 0 1 0
0.14808476 -0.19757363 0.025 0 0 1 0
0.18109123 0.23441823 0.024999999 0 0 1 0
0.073545158 0.25 0.022495737 -0 1 0 0
0.02050944 0.25 0.0069545787 0 1 0 0
0.041594848 -0.18522175 0.024999999 0 0 1 0
0.12534139 -0.066596821 0.025000002 0 0 1 0
0.019002479 0.10674953 0.025000002 0 0 1 0
0.17383842 -0.21919103 0.025000002 0 0 1 0
-0.17219479 -0.1415582 0.025 0 0 1 0
0.14966808 0.16746436 0.025 0 0 1 0
-0.22910684 -0.22319287 0.025 0 0 1 0
0.018435996 0.0090649202 0.025 0 -0 1 0
0.042381771 0.025529584 0.025 0 -0 1 0
-0.18513989 0.22841503 0.025 0 0 1 0
-0.036480084 0.24725324 0.025 0 0 1 0
0.15272895 0.25 0.0023853634 -0 1 0 0
0.25 -0.084617034 0.023920774 1 0 0 0
-0.10535903 0.12313344 0.025 0 0 1 0
-0.04673649 -0.042345703 0.025 0 -0 1 0
0.10901552 0.03438516 0.068818651 0.86602408 0.50000232 0 0
-0.10270718 -0.069186807 0.025 0 0 1 0
-0.18651886 -0.13301298 0.025 0 0 1 0
-0.22296301 -0.14982684 0.025 0 0 1 0
-0.22155581 -0.015258372 0.025 0 0 1 0
0.1209721 0.013675876 0.12159741 0.86602408 0.50000232 0 0
0.11564621 0.022900518 0.12423175 0.86602408 0.50000232 0 0
-0.080446333 0.25 0.011126114 0 1 0 0
0.077388555 0.038645536 0.13022606 -0.35354972 0.61237645 0.70710516 0
-0.15311149 0.13286857 0.025000002 0 0 1 0
-0.032739468 0.25 0.024531474 -0 1 0 0
0.088794246 0.22146492 0.025 0 0 1 0
0.18212718 0.13753253 0.025 0 0 1 0
0.25 -0.079904787 0.015628861 1 0 0 0
0.13791718 -0.015673684 0.036972728 0.86602408 0.50000232 0 0
0.17261128 -0.15439621 0.025 0 0 1 0
-0.22998078 0.19280286 0.025 0 0 1 0
0.22162871 0.20296106 0.025 0 0 1 0
-0.18866563 0.12348532 0.025 0 0 1 0
-0.038141116 0.25 0.0091412719 0 1 0 0
0.075425439 0.17404923 0.025 0 0 1 0
-0.11910348 0.1310375 0.025 0 0 1 0
-0.13722101 0.21995917 0.025 0 0 1 0
-0.20093389 0.16900271 0.024999999 0 0 1 0
0.16616391 0.028141664 0.025000002 -0 0 1 0
0.17050785 -0.13281661 0.024999999 0 0 1 0
0.18297562 -0.20123149 0.025 0 0 1 0
-0.10226578 0.030796792 0.025 0 0 1 0
-0.0076220189 0.059999473 0.025 0 0 1 0
0.13725489 0.20247906 0.025 0 -0 1 0
-0.18689711 -0.068821974 0.025000002 0 0 1 0
-0.16096735 0.13961878 0.024999999 0 0 1 0
0.14945333 0.14178127 0.025 0 0 1 0
0.028456774 0.088491581 0.025 0 0 1 0
0.13765524 -0.015219973 0.14545013 0.86602408 0.50000232 0 0
-0.23104087 -0.046231568 0.024999999 0 0 1 0
0.039302811 0.20150414 0.025 0 0 1 0
0.060130473 0.034716222 0.1097651 -0.49999368 0.86602908 0 0
-0.12065845 0.018082689 0.024999999 0 0 1 0
0.25 0.05834936 0.0098696956 1 0 0 0
-0.23878059 -0.20653436 0.025 0 0 1 0
-0.21470045 0.096754566 0.025000002 0 0 1 0
0.094485581 0.048743375 0.13002944 -0.35354972 0.61237645 0.70710516 0
0.039468274 0.19249958 0.025 0 0 1 0
-0.036769308 0.082946286 0.025 0 0 1 0
0.13325465 -0.0075979782 0.052040547 0.86602408 0.50000232 0 0
0.13471794 -0.15612659 0.025 0 0 1 0
0.084386528 0.034849487 0.13701251 -0.35354972 0.61237645 0.70710516 0
-0.21899948 0.16346101 0.025 0 0 1 0
0.12977874 0.18394101 0.025 0 -0 1 0
-0.083709739 0.1336156 0.024999999 0 0 1 0
0.066792935 0.14411025 0.025 0 0 1 0
0.06302692 0.13612613 0.025 0 0 1 0
-0.12625223 0.029420577 0.024999999 0 0 1 0
-0.21314457 -0.1573521 0.025 0 0 1 0
-0.17569606 -0.17463842 0.024999999 0 -0 1 0
0.15412071 0.21632004 0.025 0 -0 1 0
-0.20799069 0.21108904 0.025 0 0 1 0
0.10935731 -0.16775137 0.025000002 0 0 1 0
-0.060726784 0.14110065 0.025000002 0 0 1 0
-0.22751689 -0.15720934 0.025 0 0 1 0
0.13582736 0.18126427 0.025 0 -0 1 0
0.17462184 -0.058348648 0.025 -0 0 1 0
-0.19069792 0.16239434 0.024999999 0 0 1 0
0.18935812 0.19114608 0.024999999 0 0 1 0
-0.06947846 -0.10142694 0.025 0 0 1 0
0.14355935 0.25 0.014867602 -0 1 0 0
0.25 0.10647128 0.017692219 1 0 0 0
0.055223618 0.11239944 0.025 0 0 1 0
0.15097338 -0.22886761 0.025000002 0 0 1 0
0.067400351 0.050154723 0.025 0 0 1 0
-0.17537935 -0.16270269 0.025000002 0 -0 1 0
0.038042195 0.058765803 0.025 0 -0 1 0
0.13568887 0.073450141 0.025 -0 0 1 0
-0.19509234 -0.087789714 0.025000002 0 0 1 0
-0.095496967 0.04978238 0.025 0 0 1 0
-0.0011844523 0.12783875 0.025 0 0 1 0
0.17369428 0.093929842 0.025000002 -0 0 1 0
0.25 -0.15734027 0.018267553 1 0 0 0
0.18617624 -0.10438432 0.025000002 -0 0 1 0
0.090104222 0.070914917 0.025 0 0 1 0
0.16135898 0.03150145 0.025 -0 0 1 0
0.14229585 -0.0065887608 0.025 -0 0 1 0
-0.012115146 0.071771905 0.025 0 0 1 0
0.026084136 -0.23729357 0.025 0 0 1 0
0.018814526 0.19076651 0.025 0 0 1 0
0.19912735 0.16274945 0.025000002 0 0 1 0
-0.16036104 -0.13729215 0.025 0 0 1 0
0.25 -0.010801995 0.013277614 1 0 0 0
0.040483966 0.19585803 0.025 0 0 1 0
-0.21446781 -0.054234952 0.025000002 0 0 1 0
0.082384422 -0.2244042 0.025 0 0 1 0
-0.2295412 0.20191273 0.025 0 0 1 0
-0.20068431 -0.027416646 0.025 0 0 1 0
0.25 0.091596693 0.014980887 1 0 0 0
0.090376697 0.15646939 0.025000002 0 0 1 0
0.17459697 0.25 0.0027309747 -0 1 0 0
-0.016321063 0.24215992 0.025 0 0 1 0
0.078791484 0.052907255 0.025 0 0 1 0
-0.054065358 0.051060714 0.025 0 0 1 0
0.062214538 -0.24896301 0.025 0 0 1 0
-0.19135787 0.055391528 0.025 0 0 1 0
-0.13860691 -0.082759984 0.025000002 0 0 1 0
0.074415989 0.1040159 0.025 0 -0 1 0
0.13102177 -0.0037305523 0.083256781 0.86602408 0.50000232 0 0
-0.14761828 0.017686833 0.025 0 0 1 0
-0.20521587 0.25 0.016652122 0 1 0 0
-0.15834054 0.25 0.0064219837 0 1 0 0
0.092192732 0.25 0.023474064 -0 1 0 0
0.19743598 0.22756404 0.0075035263 0.70710683 0.70710683 0 0
-0.057060663 0.11780232 0.025000002 0 0 1 0
0.094528273 0.20985851 0.025 0 0 1 0
0.16916156 0.13044423 0.025 0 0 1 0
0.17148063 0.25 0.012628674 -0 1 0 0
0.19587374 0.18902043 0.025000002 0 0 1 0
0.1082662 -0.14054516 0.025000002 0 0 1 0
-0.1191097 -0.033477344 0.025 0 0 1 0
0.19380252 0.039793257 0.025 -0 0 1 0
0.16176447 -0.13442633 0.025000002 0 0 1 0
0.16783743 0.23709521 0.025 0 -0 1 0
-0.087339863 0.070487067 0.025 0 0 1 0
0.1363568 -0.023367967 0.175 0 0 1 0
0.082669847 0.047729116 0.089503609 -0.49999368 0.86602908 0 0
0.23015741 -0.20077714 0.025000002 -0 0 1 0
0.22648475 0.10252734 0.025 -0 0 1 0
0.25 0.064123496 0.00088215602 1 0 0 0
0.19681317 -0.017528657 0.025000002 -0 0 1 0
0.045905992 0.25 0.018524081 -0 1 0 0
0.16841005 -0.11231009 0.025000002 0 0 1 0
-0.11379801 0.11166477 0.025 0 0 1 0
-0.2178866 -0.14707838 0.024999999 0 0 1 0
0.16953522 0.20718162 0.025 0 0 1 0
0.19121467 -0.22891414 0.025 0 0 1 0
0.19076961 0.20162059 0.024999999 0 0 1 0
0.24731484 -0.079916395 0.025 -0 0 1 0
0.25 -0.22455077 0.0165607 1 0 0 0
0.080409668 0.07690683 0.025 0 0 1 0
-0.20696451 -0.19907983 0.025 0 0 1 0
0.11782715 -0.026509566 0.175 0 0 1 0
0.13508078 0.2072801 0.025 0 0 1 0
0.020145822 0.25 0.020518266 -0 1 0 0
0.037317827 -0.22079432 0.025 0 0 1 0
-0.20903298 0.042208418 0.025 0 0 1 0
-0.18082857 0.20224054 0.025000002 0 0 1 0
0.17642257 -0.018563185 0.025 -0 0 1 0
0.10867864 0.048857581 0.025 -0 0 1 0
-0.19722439 -0.20999263 0.025000002 0 0 1 0
0.22220856 -0.17241418 0.025000002 -0 0 1 0
0.20780408 0.16486588 0.025000002 0 0 1 0
-0.067753747 0.046816833 0.025000002 0 0 1 0
0.057644457 0.16453569 0.025 0 0 1 0
0.093760245 0.054132052 0.11785707 -0.49999368 0.86602908 0 0
-0.19888371 0.0018192157 0.025 0 0 1 0
-0.14410056 -0.10138382 0.025 0 0 1 0
0.18035343 -0.2425514 0.025 0 0 1 0
0.09707088 0.0050885817 0.16912857 -0.35354975 0.61237639 0.70710516 0
0.25 0.078518897 0.0080309277 1 0 0 0
0.09775532 0.061433174 0.025 0 0 1 0
0.19018868 0.013438106 0.025000002 -0 0 1 0
-0.18983164 0.11289228 0.024999999 0 0 1 0
0.24022028 0.015437752 0.025000002 -0 0 1 0
-0.21473315 -0.02322454 0.025 0 0 1 0
-0.05517729 0.03160524 0.025 0 0 1 0
0.22283714 -0.037033755 0.025000002 -0 0 1 0
0.063632324 0.036737978 0.027391553 -0.49999368 0.86602908 0 0
0.25 0.034818918 0.011795731 1 0 0 0
0.14657328 0.12496276 0.025000002 0 0 1 0
0.090203144 -0.16117764 0.025 0 0 1 0
0.22738887 -0.11855846 0.025 -0 0 1 0
-0.060460731 0.15434024 0.024999999 0 0 1 0
0.24396199 -0.095609419 0.025 -0 0 1 0
-0.043625686 -0.042156547 0.025 0 -0 1 0
0.25 0.10933055 0.0072769793 1 0 0 0
0.046119578 0.1286194 0.025 0 0 1 0
-0.077061623 -0.095678367 0.025 0 0 1 0
0.092620403 0.053473976 0.12474883 -0.49999368 0.86602908 0 0
-0.037214201 0.1018006 0.025000002 0 0 1 0
0.10484481 0.041609 0.12210798 0.86602408 0.50000232 0 0
0.19435956 0.10280933 0.025 -0 0 1 0
0.032695606 0.090378068 0.025 0 0 1 0
0.088359833 0.001460043 0.16791551 -0.35354975 0.61237639 0.70710516 0
0.11875118 -0.17802492 0.025 0 0 1 0
0.19421875 -0.049854293 0.025000002 -0 0 1 0
0.14289637 -0.024297826 0.050866637 0.86602408 0.50000232 0 0
0.14210011 0.16318321 0.025 0 0 1 0
0.20074558 -0.20242831 0.025 0 0 1 0
0.044701822 -0.16369149 0.025 0 0 1 0
0.13809714 0.036690671 0.025000002 -0 0 1 0
0.056526639 0.10033602 0.025 0 -0 1 0
0.1246939 -0.20961654 0.025000002 0 0 1 0
0.19729705 0.22468454 0.025000002 0 0 1 0
0.17649247 -0.11551439 0.025 0 0 1 0
0.12385471 -0.23940316 0.025000002 0 0 1 0
0.072491571 0.04185278 0.03384595 -0.49999368 0.86602908 0 0
-0.23073006 0.038621746 0.024999999 0 0 1 0
0.17538384 0.24961616 0.015293312 0.70710683 0.70710683 0 0
-0.1613631 -0.014725097 0.025000002 0 0 1 0
0.07645724 -0.18363872 0.025000002 0 0 1 0
0.25 -0.093771845 0.022294836 1 0 0 0
-0.18881065 0.011590369 0.024999999 0 0 1 0
-0.20937809 -0.24248338 0.025000002 0 0 1 0
0.20734411 -0.16604909 0.024999999 0 0 1 0
0.013506487 -0.21216324 0.025000002 0 0 1 0
-0.24116397 0.18088661 0.025 0 0 1 0
-0.13634273 0.001520168 0.025000002 0 0 1 0
-0.011250883 0.14630425 0.025000002 0 0 1 0
-0.14071101 -0.088938236 0.025 0 0 1 0
0.097666062 0.07142093 0.025 0 0 1 0
-0.1889521 0.23615186 0.025 0 0 1 0
-0.19364132 0.019957304 0.025 0 0 1 0
-0.24057631 0.23610668 0.025 0 0 1 0
0.15992445 -0.20148243 0.025 0 0 1 0
-0.083354801 -0.027910914 0.025000002 0 0 1 0
-0.16146199 0.11685383 0.025000002 0 0 1 0
-0.24180901 -0.15533549 0.025000002 0 0 1 0
0.21827942 -0.10099988 0.025 -0 0 1 0
-0.062008619 0.018971877 0.025 0 0 1 0
0.20293011 0.0039434657 0.025000002 -0 0 1 0
-0.15279177 0.16923693 0.025 0 0 1 0
0.061891355 -0.14165884 0.025000002 0 0 1 0
0.12800869 0.22155322 0.025 0 0 1 0
0.10190442 0.14988418 0.024999999 0 -0 1 0
0.13625887 -0.17616652 0.025000002 0 0 1 0
0.047281604 0.12288912 0.025 0 0 1 0
0.10831437 0.035599589 0.056917753 0.86602408 0.50000232 0 0
0.1429525 -0.024395041 0.055073678 0.86602408 0.50000232 0 0
0.21329945 -0.01468594 0.025 -0 0 1 0
0.099340558 -0.23488364 0.025 0 0 1 0
0.22428992 0.038876705 0.025000002 -0 0 1 0
0.030251067 0.12104703 0.025 0 0 1 0
-0.1152263 0.15048078 0.025 0 0 1 0
0.028435223 -0.20295784 0.024999999 0 0 1 0
0.19094512 0.17885257 0.024999999 0 0 1 0
-0.14223625 -0.1083975 0.025 0 0 1 0
0.12484208 0.006972909 0.06814453 0.86602408 0.50000232 0 0
-0.18429597 0.20205657 0.025 0 0 1 0
0.19353232 -0.227477 0.025 0 0 1 0
-0.077763259 -0.028474193 0.025000002 0 0 1 0
0.22288021 0.13028148 0.025 -0 0 1 0
-0.20443039 0.25 0.022600612 -0 1 0 0
0.20730564 0.19536963 0.025000002 0 0 1 0
-0.16511717 0.021929972 0.025000002 0 0 1 0
0.056484804 -0.19408718 0.025 0 0 1 0
-0.067930833 0.093402907 0.025000002 0 0 1 0
0.20461021 -0.01189971 0.025 -0 0 1 0
-0.18055674 0.20221849 0.025000002 0 0 1 0
-0.11778019 -0.12875986 0.025 0 0 1 0
0.11489864 0.024195382 0.13061889 0.86602408 0.50000232 0 0
0.075050876 0.23623872 0.025 0 0 1 0
0.091873497 0.22564204 0.025 0 0 1 0
-0.19442691 -0.054307058 0.025000002 0 0 1 0
0.0053748172 0.055489209 0.025 0 0 1 0
0.09429346 0.054439895 0.05422917 -0.49999368 0.86602908 0 0
-0.11932455 0.012490459 0.024999999 0 0 1 0
0.051866926 -0.14163452 0.025 0 0 1 0
0.24508944 0.092110753 0.025 -0 0 1 0
-0.16093816 -0.039750621 0.025 0 0 1 0
0.2409607 0.088450819 0.025 -0 0 1 0
0.1132419 0.027064903 0.037142366 0.86602408 0.50000232 0 0
0.20524639 0.21975364 0.01183934 0.70710683 0.70710683 0 0
0.074213818 0.042847104 0.12468013 -0.49999368 0.86602908 0 0
0.14128788 0.25 0.0003148971 0 1 0 0
0.24006501 0.11301173 0.025 -0 0 1 0
-0.059754353 0.16253629 0.025 0 0 1 0
0.25 -0.22351256 0.0081598209 1 0 0 0
0.25 -0.081859812 0.022049479 1 0 0 0
0.078634709 0.017863888 0.14884672 -0.35354972 0.61237645 0.70710516 0
-0.22576015 -0.017696604 0.025 0 0 1 0
-0.16977367 0.03154476 0.025000002 0 0 1 0
-0.23109357 0.25 0.014644604 0 1 0 0
-0.17355078 0.045872316 0.025 0 0 1 0
-0.19839498 -0.03258843 0.024999999 0 0 1 0
-0.060351968 0.24731284 0.024999999 0 0 1 0
0.21572115 0.056958325 0.025 -0 0 1 0
0.087142013 0.21423116 0.025 0 0 1 0
-0.18529426 -0.094195411 0.025000002 0 0 1 0
0.038398907 0.16419442 0.025 0 0 1 0
-0.2457141 0.22122948 0.025 0 0 1 0
0.21508256 -0.053916849 0.025 -0 0 1 0
0.1300963 -0.0021276027 0.029433826 0.86602408 0.50000232 0 0
-0.21448046 0.25 0.0052743554 0 1 0 0
0.012976639 0.14969045 0.025000002 0 0 1 0
-0.049255244 0.23993045 0.025000002 0 0 1 0
0.051137667 0.12459072 0.025 0 0 1 0
0.25 -0.13354152 0.017768232 1 0 0 0
-0.15249789 -0.14842504 0.025 0 -0 1 0
0.14570519 -0.029162809 0.057822242 0.86602408 0.50000232 0 0
0.053461723 0.048613984 0.025000002 0 -0 1 0
0.19041294 0.23458706 0.011374615 0.70710683 0.70710683 0 0
-0.0088781416 0.18767077 0.025 0 0 1 0
0.046483979 0.21407309 0.025 0 0 1 0
0.14820272 -0.016360538 0.024999999 -0 0 1 0
0.02170521 0.18009381 0.025 0 0 1 0
-0.11236547 0.19339058 0.025 0 0 1 0
0.066916533 -0.24590778 0.025000002 0 0 1 0
0.2352632 -0.20864214 0.025 -0 0 1 0
0.13118671 0.17823008 0.025 0 -0 1 0
0.13134488 0.13411275 0.025 0 0 1 0
0.24603876 0.15576772 0.025 -0 0 1 0
0.11485021 0.024279241 0.058834981 0.86602408 0.50000232 0 0
-0.21201546 -0.21360883 0.025 0 -0 1 0
0.21975903 0.13429037 0.025 -0 0 1 0
-0.089946151 0.17981535 0.025 0 0 1 0
0.10167492 -0.10599566 0.025 0 0 1 0
-0.22247455 -0.22287647 0.025000002 0 -0 1 0
0.25 -0.21578981 0.0064545115 1 0 0 0
0.1821505 0.20485884 0.025 0 0 1 0
0.24187092 -7.1577728e-05 0.024999999 -0 0 1 0
-0.23888505 0.083815694 0.025 0 0 1 0
-0.14900261 0.1589717 0.025000002 0 0 1 0
0.12066073 0.17743969 0.025 0 -0 1 0
0.19452183 0.23047818 0.016099397 0.70710683 0.70710683 0 0
-0.15278611 0.25 0.0045831818 0 1 0 0
-0.01971554 0.007381998 0.025 0 -0 1 0
0.17772208 0.056839537 0.025 -0 0 1 0
0.078897759 0.049126111 0.025000002 0 0 1 0
0.091753773 0.052973628 0.03754428 -0.49999368 0.86602908 0 0
0.097564429 0.25 0.0018273686 0 1 0 0
-0.24277754 0.075730599 0.025000002 0 0 1 0
-0.18223426 -0.028366767 0.024999999 0 0 1 0
-0.045543 -0.02244018 0.025 0 -0 1 0
-0.22692344 -0.046249062 0.025 0 0 1 0
0.23059264 0.025873601 0.025000002 -0 0 1 0
-0.088654645 0.12143592 0.025000002 0 0 1 0
-0.095151283 0.21841754 0.025 0 0 1 0
0.10527571 0.16691011 0.025 0 -0 1 0
0.16531 0.22279005 0.025 0 0 1 0
-0.12199098 0.23879626 0.025 0 0 1 0
-0.23359956 -0.030446157 0.025 0 0 1 0
-0.046645168 0.074818939 0.025 0 0 1 0
0.069930062 0.24533509 0.025 0 0 1 0
0.15214676 -0.009741243 0.025 -0 0 1 0
0.058064289 0.049887404 0.025 0 -0 1 0
-0.22689861 0.25 0.0024238084 0 1 0 0
0.20635465 -0.0057705268 0.025 -0 0 1 0
-0.084178053 0.1042008 0.024999999 0 0 1 0
-0.20205005 -0.23698694 0.025 0 0 1 0
0.14918746 0.068809867 0.025 -0 0 1 0
0.24884528 0.14111741 0.025 -0 0 1 0
0.14513683 0.017367465 0.025000002 -0 0 1 0
-0.15227361 -0.045850322 0.025000002 0 0 1 0
-0.16400529 0.011401206 0.025000002 0 0 1 0
0.2475803 -0.0097911581 0.025 -0 0 1 0
0.24556443 0.028399304 0.025000002 -0 0 1 0
0.13971528 -0.01878806 0.081228815 0.86602408 0.50000232 0 0
-0.20016177 -0.1244189 0.025 0 0 1 0
0.10721946 -0.20316368 0.025000002 0 0 1 0
0.24939761 -0.064411551 0.025000002 -0 0 1 0
0.1035504 0.18793452 0.025 0 0 1 0
-0.24117371 -0.15768804 0.025 0 0 1 0
0.10117027 0.25 0.023138199 -0 1 0 0
-0.20589599 -0.018977776 0.025000002 0 0 1 0
0.14844453 -0.098834246 0.025000002 0 0 1 0
0.15790659 -0.035102628 0.025 -0 0 1 0
0.22811945 0.15465857 0.024999999 -0 0 1 0
0.029070586 0.2045161 0.025 0 0 1 0
-0.14692998 -0.059597202 0.025 0 0 1 0
0.25 0.03610871 0.0090446426 1 0 0 0
0.22299904 0.20200098 0.010837141 0.70710683 0.70710683 0 0
-0.026110031 0.010031901 0.025 0 -0 1 0
-0.049717829 -0.021095991 0.025 0 -0 1 0
-0.046874579 0.06308341 0.025 0 0 1 0
0.20241916 -0.076438561 0.025000002 -0 0 1 0
-0.16351393 0.18425725 0.025000002 0 0 1 0
0.16171964 -0.15527914 0.025 0 0 1 0
-0.22187789 -0.0072210431 0.025 0 0 1 0
0.12574676 -0.10131846 0.025 0 0 1 0
-0.11586241 -0.069434352 0.025000002 0 0 1 0
0.25 -0.17311125 0.0056076096 1 0 0 0
-0.082373947 0.0029887259 0.024999999 0 0 1 0
0.030041374 0.16461888 0.025000002 0 0 1 0
-0.13159671 0.12126522 0.025 0 0 1 0
-0.0072168019 -0.21356907 0.025 0 0 1 0
-0.05380553 -0.02045919 0.025 0 -0 1 0
0.028783642 0.22142103 0.025 0 0 1 0
0.10844304 0.03537672 0.093197733 0.86602408 0.50000232 0 0
0.018856559 -0.24250983 0.025 0 0 1 0
0.07305447 0.0032043229 0.15875229 -0.35354972 0.61237645 0.70710516 0
-0.24897575 -0.10809186 0.024999999 0 0 1 0
0.064794175 0.15313482 0.025000002 0 0 1 0
0.25 0.059780601 0.0073116585 1 0 0 0
0.13282131 0.078227609 0.025000002 -0 0 1 0
-0.16068411 0.22638217 0.025000002 0 0 1 0
0.22670738 -0.22894469 0.025 0 0 1 0
