# .PCD v0.7 - Point Cloud Data file format
VERSION 0.7
FIELDS x y z
SIZE 4 4 4
TYPE F F F
COUNT 1 1 1
WIDTH 1078
HEIGHT 1
VIEWPOINT 0 0 0 1 0 0 0
POINTS 1078
DATA ascii
0.093577474 -0.046729982 0
0.07013876 -0.045776844 0
0.061701361 -0.0447108 0
0.052085057 -0.044062652 0
0.034808449 -0.043394245 0
0.010348216 -0.042389937 0
-0.039886173 -0.039234132 0
-0.046030469 -0.038921185 0
-0.067601047 -0.037070498 0
-0.0814346 -0.035246417 0
-0.12191916 -0.034099877 0
0.14458585 -0.053554628 0.024999999
0.14070933 -0.053319424 0.025
0.13203545 -0.050931536 0.025
0.045503311 -0.047571644 0.024999999
0.054205023 -0.045668658 0.025
-0.012769133 -0.041749068 0.025
-0.068144709 -0.039115377 0.025
-0.078957856 -0.037589405 0.025000002
0.025 -0.044747587 0.03337824
0.025 -0.045311447 0.055026997
-0.025000002 -0.045326844 0.065388829
-0.025000002 -0.044594303 0.074611381
-0.025 -0.043950878 0.077890404
0.025 -0.049863648 0.084276937
0.020547625 -0.050000001 0.089891627
0.016514204 -0.050000001 0.091201633
0.024130305 -0.050000001 0.092601098
-0.025 -0.04749646 0.093026683
0.020557441 -0.050000001 0.10102835
0.0073493309 -0.050000001 0.10165471
0.0054959543 -0.050000001 0.10346811
0.0035676421 -0.050000001 0.10419722
0.015120975 -0.050000001 0.10939837
-0.0020960325 -0.050000004 0.10977191
0.023949303 -0.050000004 0.11090245
0.023138328 -0.050000004 0.11194862
0.010914708 -0.050000001 0.11203272
0.021210298 -0.049999997 0.1122553
0.006183547 -0.050000001 0.11386324
-0.0061190226 -0.050000004 0.12057517
-0.0018964524 -0.050000004 0.12793955
0.0080303913 -0.050000004 0.12831181
-0.015299419 -0.050000001 0.12860659
-0.016002586 -0.050000001 0.12941682
-0.0047738585 -0.050000004 0.13095999
0.01902058 -0.050000001 0.13110164
-0.025 -0.048407827 0.13157922
0.0075953426 -0.050000001 0.13471413
-0.025 -0.049508307 0.13505766
0.0056794863 -0.049999997 0.13779253
0.0039334944 -0.050000004 0.13812822
-0.0098106377 -0.050000001 0.13927247
-0.01587964 -0.050000001 0.15375395
-0.023399958 -0.050000001 0.15487045
-0.025 -0.049258497 0.15702666
-0.024704581 -0.050000001 0.17370974
-0.023380235 -0.14052093 0
-0.02519683 -0.053246781 0
-0.024074186 -0.011229619 0
-0.024893954 0.063905202 0
-0.025170013 0.087393031 0
-0.023346217 0.096377015 0
-0.024085633 0.10416597 0
-0.023809878 -0.062939867 0.025
-0.023560792 -0.045067616 0.025
-0.023384511 0.13118617 0.025000002
-0.025 -0.026624134 0.032844067
-0.025 -0.024297928 0.034812443
-0.025 0.0085289543 0.035788298
-0.025 -0.036929801 0.036452703
-0.025 -0.0262792 0.036337573
-0.025 -0.00098305708 0.036008824
-0.025000002 0.029288227 0.036387261
-0.025 -0.034103662 0.040314108
-0.025000002 -0.012535677 0.043928184
-0.025000002 -0.016024064 0.046204831
-0.025 -0.014611963 0.046335422
-0.025000002 0.0010324623 0.047748573
-0.025000002 0.00023708399 0.050836846
-0.025 -0.023229491 0.053848296
-0.025 0.011146664 0.054685928
-0.025 -0.021972641 0.05517919
-0.025 0.033199668 0.057461016
-0.025 -0.034129009 0.057722487
-0.025000002 0.0076276455 0.0575874
-0.025 -0.018114844 0.058954872
-0.025 0.014202563 0.058939241
-0.025000002 0.014195841 0.059058953
-0.024999999 0.011401458 0.059662141
-0.024999999 -0.0063868556 0.061041839
-0.025000002 -0.047439151 0.063191459
-0.024999999 -0.016992446 0.063517384
-0.025000002 -0.038935538 0.064854681
-0.025 0.041051731 0.065415666
-0.025 0.044907697 0.065791197
-0.025 0.020735325 0.067680471
-0.025 0.00019187666 0.068031467
-0.025 0.042350676 0.06884703
-0.025000002 -0.012292462 0.071335018
-0.025000002 0.03070993 0.071270943
-0.025 -0.028628146 0.072603099
-0.025 -0.010747121 0.072576225
-0.025 -0.025709949 0.073022902
-0.025000002 -0.042122804 0.074395165
-0.025 0.0069594532 0.076171756
-0.025 0.032628406 0.079371855
-0.025000002 -0.047549605 0.081453525
-0.025 -0.036660705 0.082981601
-0.025 0.0095259398 0.083398797
-0.025000002 0.031363502 0.083398961
-0.024999999 -0.022936989 0.083665408
-0.025000002 -0.018262386 0.083612889
-0.025 0.031779975 0.083808728
-0.025 0.01070305 0.084205858
-0.025 -0.026172929 0.085613757
-0.025000002 -0.016964814 0.085921362
-0.025000002 -0.024382312 0.086091004
-0.025000002 -0.021727556 0.086623952
-0.025 -0.038729828 0.089213237
-0.025000002 0.044712909 0.089175642
-0.025 -0.014540051 0.092273906
-0.025 -0.012303869 0.09203656
-0.025 0.011201441 0.09468893
-0.025 0.032475535 0.094834514
-0.025 0.01273526 0.096709497
-0.025 -0.017658494 0.097796798
-0.025000002 0.048509501 0.098145463
-0.025000002 -0.035657212 0.10319082
-0.025 0.03176998 0.10313156
-0.025 -0.016702892 0.10420253
-0.025 -0.043369677 0.10487057
-0.025 -0.043695375 0.10628826
-0.025 -0.028707635 0.10931046
-0.024999999 -0.024526205 0.10954554
-0.025 -0.015595255 0.11255708
-0.025 -0.01361984 0.11429241
-0.025000002 -0.0070639686 0.11486451
-0.025 -0.025077751 0.11512822
-0.024999999 0.029270446 0.11505891
-0.025000002 -0.009671337 0.1164712
-0.025 -0.011933867 0.11745593
-0.024999999 -0.028935598 0.11761123
-0.025000002 -0.010751182 0.11821522
-0.025 -0.004085802 0.11899883
-0.025 -0.033244208 0.11939999
-0.024999999 0.010488571 0.11912101
-0.025 0.040576585 0.12013847
-0.025000002 -0.035227824 0.12053925
-0.024999999 0.016644513 0.12315729
-0.025000002 -0.023243304 0.12374169
-0.025000002 -0.015908569 0.12428666
-0.025 -0.011532183 0.12450274
-0.024999999 0.016037239 0.12512459
-0.025 0.021916976 0.1274538
-0.025000002 -0.032918036 0.12752883
-0.025000002 0.010229505 0.12862164
-0.025 0.02767667 0.12901166
-0.025 0.020436659 0.13039038
-0.023632899 0.042531926 0.13246809
-0.025 -0.036143534 0.13315597
-0.024999999 0.019023569 0.13481827
-0.025000002 -0.0096092988 0.13544826
-0.025000002 -0.018674176 0.1370167
-0.025 4.1367042e-05 0.13782768
-0.025000002 -0.022206383 0.14088322
-0.025000002 -0.0030063372 0.14244069
-0.025 -0.043585531 0.1427336
-0.025 0.016502259 0.14252561
-0.025 -0.0018193326 0.14463349
-0.025000002 0.02800655 0.14586183
-0.024999999 -0.035296708 0.14631216
-0.024893302 0.028740453 0.14625956
-0.025000002 -0.01821908 0.14799047
-0.025000002 0.0082976138 0.15030855
-0.025 -0.028638352 0.15438539
-0.025 -0.040472873 0.15654269
-0.025 -0.013304621 0.15988061
-0.025 -0.037323453 0.1620649
-0.025 -0.029257253 0.16274427
-0.025 0.010683708 0.16290118
-0.024999999 0.0089257956 0.16326293
-0.024999999 -0.03354831 0.16481405
-0.025 -0.035897236 0.16604835
-0.024784867 0.0084254043 0.16657461
-0.025000002 -0.047805596 0.16752906
-0.025 -0.022397313 0.16750693
-0.025000002 -0.0045246026 0.17015621
-0.025 -0.0074015604 0.17333904
0.069885731 -0.14973626 0
0.11499359 -0.14973988 0
-0.09142679 -0.14887907 0
0.004250925 -0.1483245 0
0.027495723 -0.14762105 0
-0.1142226 -0.14738686 0
0.016085427 -0.14715883 0
-0.095939741 -0.14697802 0
-0.010841228 -0.1467777 0
-0.0070238039 -0.14662018 0
0.076746628 -0.14624164 0
0.088454239 -0.14639473 0
0.10619973 -0.14641878 0
0.044031247 -0.14551705 0
-0.1118927 -0.14480814 0
-0.032933779 -0.14499517 0
-0.082001567 -0.14446718 0
-0.066252381 -0.14416298 0
-0.028958648 -0.14409447 0
-0.12615097 -0.14360258 0
-0.067436382 -0.14345114 0
0.0086259432 -0.1433268 0
0.04239922 -0.14326358 0
0.13728118 -0.14337815 0
-0.049018539 -0.14265582 0
0.016940139 -0.14262138 0
-0.1082477 -0.14233057 0
-0.14849091 -0.14159796 0
0.0026214495 -0.1417641 0
0.12235726 -0.14168656 0
0.13479565 -0.14167401 0
-0.051293582 -0.14107916 0
0.12701544 -0.14136021 0
-0.0010136738 -0.14097187 0
0.034656756 -0.1408997 0
0.058635134 -0.14024614 0
0.081535988 -0.14017859 0
-0.10032436 -0.13950373 0
-0.088453546 -0.13997662 0
-0.068181828 -0.13969412 0
0.13365801 -0.13988401 0
0.029175404 -0.13860211 0
0.14572129 -0.13865323 0
-0.12052325 -0.13804701 0
0.0050439797 -0.13822469 0
0.037774019 -0.13818166 0
0.077956378 -0.13828528 0
0.078587823 -0.13823843 0
0.083096243 -0.13819942 0
-0.12493062 -0.13757324 0
0.14185482 -0.13734177 0
-0.057775348 -0.13680363 0
0.083895326 -0.13663718 0
0.14485498 -0.13679422 0
-0.13989909 -0.13641889 0
-0.061216027 -0.13632418 0
0.0053256452 -0.13611114 0
0.060457449 -0.13613744 0
-0.028517962 -0.13528527 0
-0.14413942 -0.13464282 0
-0.032981321 -0.13473856 0
-0.043125957 -0.134036 0
0.10800048 -0.13436861 0
-0.081638604 -0.13377222 0
-0.13274984 -0.13326101 0
-0.047560133 -0.13328557 0
-0.044033654 -0.13325281 0
-0.0066614598 -0.13283339 0
0.044728957 -0.13258174 0
0.1109326 -0.13278216 0
0.12377684 -0.13284788 0
-0.10404462 -0.13209207 0
0.049579345 -0.13201198 0
-0.031530738 -0.13172269 0
0.06907399 -0.13116901 0
0.12629715 -0.13131419 0
0.13544337 -0.13115667 0
-0.14356026 -0.13078421 0
0.033888206 -0.13052388 0
-0.1152653 -0.13040495 0
0.0019220412 -0.13018885 0
-0.091145828 -0.12952101 0
0.049882658 -0.12975307 0
0.071721248 -0.1293847 0
-0.062344193 -0.12869336 0
0.0041585714 -0.1286656 0
0.13965982 -0.12888958 0
0.14151897 -0.12754998 0
-0.054264918 -0.12711117 0
-0.031389564 -0.12746221 0
0.011124484 -0.12689236 0
-0.06135954 -0.12575777 0
-0.013271891 -0.12550709 0
-0.050252698 -0.12502441 0
-0.045339569 -0.125431 0
0.12370604 -0.12490256 0
0.12955092 -0.12484792 0
0.067366041 -0.12434396 0
0.096195802 -0.1244459 0
0.10195933 -0.12430059 0
-0.078530312 -0.12350924 0
-0.047900587 -0.12331416 0
-0.12576488 -0.12253565 0
-0.00063616037 -0.12249133 0
0.084057212 -0.12218228 0
-0.044771954 -0.1217582 0
0.011306293 -0.12162123 0
-0.044223495 -0.1210812 0
-0.028564997 -0.12119621 0
-0.12847623 -0.12083918 0
-0.11330318 -0.12034008 0
-0.027138315 -0.1200449 0
0.1089257 -0.12004064 0
0.095693097 -0.11937231 0
-0.1331206 -0.11882363 0
-0.10633426 -0.11876868 0
-0.093786389 -0.11863822 0
-0.034083575 -0.11896147 0
0.053869192 -0.11811982 0
-0.10774239 -0.11762288 0
-0.14247482 -0.11719358 0
-0.018087499 -0.11491378 0
0.06399671 -0.11483836 0
-0.0036495775 -0.11407577 0
0.082107849 -0.11375053 0
0.14882976 -0.11380368 0
0.10929041 -0.1132881 0
0.13322714 -0.11309555 0
0.080531262 -0.11260887 0
0.085786626 -0.11229339 0
0.056479879 -0.11151481 0
0.070321724 -0.11189558 0
-0.063694924 -0.11112409 0
0.026080385 -0.11114481 0
0.14872713 -0.11141148 0
-0.13404624 -0.11033697 0
0.086040199 -0.11034696 0
0.11723457 -0.10963807 0
-0.10076173 -0.10949901 0
0.13017355 -0.108897 0
-0.039569616 -0.10814644 0
0.045311082 -0.10818951 0
-0.11365417 -0.10789768 0
0.13293478 -0.10737024 0
0.1021751 -0.10670093 0
-0.041376859 -0.10625292 0
0.044829074 -0.10624857 0
-0.12962238 -0.10525827 0
-0.10186195 -0.10533231 0
-0.1338381 -0.10484087 0
0.13972297 -0.1046734 0
0.083281614 -0.10423638 0
0.023239501 -0.10357653 0
-0.11838341 -0.10272054 0
-0.037915468 -0.10279749 0
0.010615446 -0.10271922 0
0.048143376 -0.1025212 0
-0.10052808 -0.10216367 0
0.067988254 -0.10235381 0
0.099075079 -0.10219401 0
-0.062813684 -0.10174042 0
-0.076011151 -0.10135059 0
-0.11958212 -0.10066344 0
-0.067895234 -0.10052557 0
-0.013950363 -0.10059131 0
0.0050639063 -0.100503 0
-0.055632755 -0.10039531 0
0.068937957 -0.1004457 0
-0.11234947 -0.099309191 0
0.019749254 -0.098065078 0
-0.046398386 -0.097710632 0
-0.041805968 -0.097560361 0
-0.029342353 -0.097410142 0
-0.098743536 -0.095925912 0
0.027012624 -0.095850073 0
0.060181938 -0.095624827 0
-0.13163669 -0.095031455 0
-0.00036872178 -0.095481165 0
0.062538579 -0.095241502 0
0.12900731 -0.095025137 0
-0.10359274 -0.094863459 0
-0.035746813 -0.094809741 0
0.12071949 -0.094474547 0
0.13573796 -0.093094416 0
-0.10256803 -0.092575401 0
0.12687479 -0.092720687 0
-0.04335621 -0.092289336 0
-0.14414179 -0.091630854 0
-0.030732632 -0.091488034 0
0.082806297 -0.091308102 0
-0.078825593 -0.090715922 0
0.054364394 -0.090217002 0
0.14000973 -0.090192534 0
-0.079697467 -0.089512482 0
0.086376444 -0.0897265 0
-0.011836879 -0.089056775 0
0.010516331 -0.089412563 0
-0.10497073 -0.088438913 0
-0.10026523 -0.088375837 0
-0.087408684 -0.088170171 0
-0.096554145 -0.087469995 0
-0.064026356 -0.087407008 0
0.050759148 -0.086542703 0
0.11145142 -0.086671874 0
-0.032536983 -0.086057849 0
0.032120444 -0.08569061 0
0.09821523 -0.085453935 0
-0.011191249 -0.082884841 0
0.1314199 -0.082493365 0
-0.13295339 -0.081382431 0
0.12488216 -0.081132784 0
-0.10135825 -0.080787808 0
-0.082342163 -0.080936506 0
-0.073361017 -0.080604009 0
-0.049279943 -0.080801159 0
0.033695519 -0.080761842 0
-0.13986307 -0.079822429 0
-0.028570995 -0.079374239 0
-0.012454107 -0.07900393 0
0.06625285 -0.079045527 0
-0.12410118 -0.078921884 0
0.11637369 -0.078595154 0
-0.033370018 -0.07822343 0
-0.029624939 -0.078462839 0
-0.012536377 -0.078033112 0
-0.084721044 -0.077761039 0
0.054212201 -0.077143021 0
-0.085571155 -0.076303244 0
0.0086597726 -0.076193526 0
0.045871548 -0.07583303 0
-0.092305288 -0.074816629 0
-0.069012292 -0.074538007 0
0.13584894 -0.074982941 0
0.0075397193 -0.074055918 0
-0.073269263 -0.073642828 0
0.05135927 -0.073057458 0
0.036873214 -0.072051346 0
0.04886163 -0.072443329 0
-0.12153108 -0.071437627 0
-0.11390901 -0.070781715 0
0.013196379 -0.070746623 0
0.019589692 -0.070761085 0
0.095838867 -0.070855521 0
-0.12105045 -0.069808215 0
0.015004158 -0.069831178 0
0.080724031 -0.069735594 0
-0.099052101 -0.069356784 0
-0.097828239 -0.069343701 0
-0.085925266 -0.068870753 0
-0.13177216 -0.068246409 0
-0.14272434 -0.067844838 0
-0.015552141 -0.067215316 0
0.090469457 -0.067403585 0
0.13786785 -0.067102715 0
0.062451188 -0.066391498 0
-0.011949807 -0.064155675 0
0.021648936 -0.064392351 0
-0.078661069 -0.063682139 0
-0.095294319 -0.063385136 0
-0.12709913 -0.062864088 0
-0.043985523 -0.062556416 0
0.14254485 -0.062977128 0
-0.13123834 -0.062178396 0
0.053662542 -0.062072195 0
0.077960387 -0.061886586 0
-0.026510894 -0.061162293 0
-0.085733987 -0.060717031 0
0.061589252 -0.060546778 0
0.12403046 -0.060835361 0
0.14947329 -0.060928807 0
0.037055023 -0.060192406 0
0.075500198 -0.060252979 0
-0.021850348 -0.059739828 0
0.046240471 -0.059870869 0
0.058355916 -0.059545048 0
0.0048808753 -0.059438832 0
-0.13060087 -0.058189154 0
0.010309987 -0.058339909 0
0.10513803 -0.058079086 0
0.14500551 -0.057707138 0
-0.11634155 -0.056999214 0
0.070211679 -0.056857631 0
0.14705513 -0.056962758 0
-0.14774159 -0.055522874 0
-0.021759531 -0.055624507 0
-0.14722878 -0.055475496 0
-0.12200624 -0.054589674 0
-0.098719396 -0.05473759 0
-0.071165211 -0.054755867 0
0.12632272 -0.054176725 0
-0.06543006 -0.053317413 0
0.042320654 -0.052065581 0
-0.12527902 -0.051384009 0
-0.10957589 -0.051280119 0
-0.017237347 -0.051055737 0
0.025428198 -0.050857529 0
-0.12544222 -0.050248399 0
0.024062023 -0.050407022 0
0.076935984 -0.050033629 0
0.10244121 -0.050495535 0
-0.14300197 -0.049333133 0
-0.14180258 -0.049014404 0
0.015478007 -0.049299233 0
0.14255038 -0.049033038 0
0.1459524 -0.049203575 0
-0.030534251 -0.04814586 0
-0.013321157 -0.048067123 0
-0.10528448 -0.047566049 0
-0.10159437 -0.047824826 0
-0.018212084 -0.047789369 0
-0.050967146 -0.047146998 0
-0.078546502 -0.04589577 0
-0.10531631 -0.045223385 0
-0.019114463 -0.045055442 0
0.12753515 -0.045155197 0
0.0018725321 -0.044657879 0
-0.092943497 -0.043435354 0
-0.073028319 -0.043251485 0
-0.021027323 -0.043415152 0
-0.016007558 -0.043482054 0
0.055766784 -0.043022752 0
-0.019523799 -0.04258737 0
0.082409434 -0.042361788 0
0.081675433 -0.041383065 0
-0.081119694 -0.040252011 0
0.034432866 -0.040138833 0
-0.083620928 -0.03967806 0
0.0051014423 -0.039120436 0
-0.091793694 -0.038550232 0
-0.0059644817 -0.038600326 0
0.037161864 -0.038841911 0
0.1273604 -0.038498968 0
-0.10372886 -0.037537076 0
0.075180858 -0.037526652 0
0.091618806 -0.037413262 0
-0.13294074 -0.036058806 0
-0.047881197 -0.03589496 0
0.011716954 -0.035520621 0
0.086787246 -0.035348862 0
0.024624437 -0.034964077 0
0.13788451 -0.034608401 0
-0.044628303 -0.034484893 0
-0.027179513 -0.034416661 0
0.093815789 -0.03426192 0
0.1388505 -0.033509918 0
-0.080868572 -0.03344002 0
0.016382381 -0.033037543 0
-0.085717849 -0.032683227 0
-0.072106034 -0.032681074 0
-0.004432248 -0.032559667 0
0.051935211 -0.0329118 0
0.13340892 -0.032950327 0
-0.017997857 -0.03245458 0
0.099124178 -0.032448761 0
-0.12117796 -0.031554662 0
-0.099324986 -0.031561524 0
-0.066635758 -0.031910874 0
-0.070489272 -0.03133931 0
0.029990256 -0.030752987 0
0.1140182 -0.030234493 0
0.0077295806 -0.029668417 0
0.14732416 -0.029953197 0
-0.029647518 -0.02925913 0
-0.05527094 -0.028999299 0
-0.14480859 -0.027872205 0
-0.012699414 -0.027748659 0
0.019533694 -0.027429588 0
-0.14979145 -0.025477119 0
0.099586964 -0.025143057 0
0.021291308 -0.024550371 0
0.13261399 -0.024536945 0
0.14025559 -0.024851337 0
0.081794262 -0.023613006 0
-0.13527763 -0.023340426 0
-0.083464175 -0.023299117 0
0.13452621 -0.022660658 0
-0.093633503 -0.022411734 0
0.083957076 -0.021452956 0
0.13979763 -0.021050423 0
-0.062649384 -0.02072379 0
0.14516793 -0.020797767 0
-0.14394376 -0.020303383 0
-0.080766305 -0.020147294 0
0.14589903 -0.020484053 0
0.049901016 -0.019577123 0
-0.0026796218 -0.019288026 0
0.11415063 -0.019136705 0
-0.066511378 -0.018900784 0
-0.14104803 -0.0179324 0
-0.053421658 -0.017278258 0
0.068425208 -0.016640648 0
0.019810323 -0.016071917 0
0.10023342 -0.016208783 0
0.055155195 -0.015093185 0
0.11553794 -0.015156545 0
-0.012425307 -0.014725834 0
-0.05704153 -0.014164554 0
-0.0048951358 -0.014338784 0
-0.0074463189 -0.013710469 0
-0.028394185 -0.013486817 0
-0.030608386 -0.012769818 0
-0.07166446 -0.0117249 0
-0.081907049 -0.010824047 0
-0.044050761 -0.010640666 0
0.020832684 -0.010530559 0
-0.058542959 -0.010253182 0
-0.012921195 -0.010479189 0
-0.011884607 -0.01025153 0
0.048890285 -0.01038561 0
-0.019063432 -0.00997594 0
0.13698213 -0.0097286329 0
-0.13787355 -0.0092035607 0
-0.10960374 -0.0093832836 0
-0.055053588 -0.0083858361 0
-0.1399786 -0.0075706244 0
-0.030760847 -0.0076200739 0
0.010594498 -0.0077653453 0
0.11914057 -0.0076127872 0
0.14525571 -0.007856667 0
0.073711351 -0.0074622333 0
-0.10076365 -0.0062475279 0
0.11126335 -0.0058547929 0
0.14973266 -0.0044193044 0
0.13173777 -0.0036498457 0
0.13117954 -0.0033714548 0
-0.11613673 -0.0024442375 0
-0.096089162 -0.0022013262 0
-0.019849658 -0.0017457977 0
-0.14253792 -0.0012021177 0
-0.056915838 -0.0011434145 0
0.052513614 -0.001379922 0
-0.14597803 -0.00075168163 0
0.063273743 -2.9377639e-05 0
-0.022098757 0.00017278641 0
0.01286364 0.00034961849 0
-0.094598383 0.0007542558 0
0.002717942 0.0018462166 0
0.098051101 0.0015717819 0
-0.052356787 0.0029130992 0
0.10661268 0.0027726293 0
-0.065508202 0.003331895 0
-0.016713522 0.0031008422 0
-0.094731092 0.0036058947 0
-0.022978425 0.0042662099 0
0.051325418 0.0041871667 0
0.020128591 0.0049295388 0
0.14954747 0.0048565716 0
-0.0034553222 0.005167529 0
-0.14785758 0.0058557503 0
-0.078878991 0.0058817323 0
-0.082423434 0.006082993 0
0.1037969 0.0061428621 0
-0.065770462 0.0066748271 0
0.028364779 0.0067291167 0
0.057681538 0.0067827776 0
-0.096482828 0.0074631777 0
-0.092904285 0.0071579106 0
-0.031766146 0.0073765134 0
0.11389911 0.0072656721 0
-0.016494595 0.0081452504 0
0.13563737 0.0091431588 0
-0.0092954636 0.0097659901 0
-0.12048867 0.010320071 0
0.020054279 0.01004203 0
0.14372677 0.010010391 0
0.05648227 0.010629993 0
0.11836817 0.010962337 0
-0.10267907 0.011138711 0
-0.062716469 0.011469318 0
0.032275796 0.012256792 0
0.038144112 0.012369992 0
-0.12263433 0.0125857 0
-0.046017975 0.013090016 0
0.11194605 0.013045438 0
-0.086820982 0.013795162 0
-0.094696231 0.014432995 0
0.04545993 0.014511913 0
0.064990699 0.014702603 0
0.1480561 0.015411459 0
-0.080458678 0.015975198 0
-0.07651291 0.015920613 0
-0.036506981 0.015509284 0
0.0062276274 0.016199596 0
-0.060906634 0.01696704 0
-0.031161085 0.016909091 0
-0.0011186153 0.016787231 0
-0.11021335 0.017957866 0
-0.069195509 0.017930068 0
0.11569433 0.017578855 0
0.12789764 0.017717779 0
-0.14129686 0.018471021 0
0.001096651 0.018157966 0
0.010238446 0.018164091 0
0.036201254 0.018215152 0
0.12127133 0.018507726 0
-0.13577893 0.019227397 0
0.082689442 0.020002842 0
-0.031724013 0.021001097 0
0.089332022 0.021032676 0
-0.10395397 0.021795308 0
-0.061454546 0.021845162 0
-0.10583596 0.022417493 0
0.10907171 0.02215381 0
0.016142171 0.022726621 0
-0.12446016 0.023637913 0
0.069023788 0.024094464 0
0.12892585 0.024285287 0
-0.11216231 0.02525916 0
-0.064932033 0.025394909 0
0.14385471 0.025309876 0
-0.10299855 0.026246991 0
-0.048952319 0.026647402 0
-0.11782856 0.027028516 0
-0.10658379 0.027166992 0
0.1105112 0.027659103 0
-0.12658836 0.02820335 0
-0.08197052 0.02808325 0
0.14825082 0.028321862 0
-0.12162167 0.028946813 0
-0.13780358 0.029467367 0
-0.13554874 0.029141314 0
-0.057758898 0.029342199 0
0.0020465702 0.029465437 0
0.022899367 0.029117692 0
-0.12164618 0.02956799 0
-0.066187076 0.030032715 0
0.12280042 0.03061635 0
0.14452909 0.030921817 0
-0.14116946 0.031026222 0
-0.10283391 0.031261016 0
0.041163154 0.031034553 0
-0.0091049969 0.031968482 0
0.033368133 0.03167028 0
-0.14312056 0.032043487 0
-0.089020386 0.032235701 0
-0.010190419 0.032441724 0
0.014631141 0.032291509 0
0.12981385 0.032498956 0
-0.039620645 0.032937106 0
0.041712221 0.032874368 0
0.096493483 0.032952935 0
0.04421946 0.033285949 0
0.10741518 0.033482969 0
0.11147511 0.033193693 0
0.0085048452 0.03369385 0
-0.13030404 0.03432836 0
0.04787657 0.034651197 0
0.098860472 0.034521103 0
-0.13518199 0.035240315 0
0.021682005 0.035226606 0
0.03788206 0.035973694 0
0.10065681 0.035854399 0
0.13596028 0.035599053 0
0.1464926 0.036002047 0
-0.11241433 0.036631934 0
0.10566295 0.036906846 0
0.099401146 0.037467808 0
-0.031332947 0.037659507 0
0.037683785 0.038416851 0
0.068198353 0.038228326 0
0.10587037 0.038350716 0
0.12693709 0.038036123 0
-0.095016882 0.039497171 0
0.054505851 0.039661206 0
0.13330345 0.039745547 0
-0.14558646 0.040145759 0
-0.14149445 0.040075339 0
0.027051106 0.040028214 0
0.027540129 0.04000473 0
0.037979402 0.040342517 0
-0.01561299 0.040682863 0
-0.14750713 0.041824818 0
-0.058736652 0.042163767 0
-0.034832671 0.042310953 0
0.076693505 0.042429574 0
-0.086028069 0.042971246 0
-0.12518248 0.043370906 0
-0.12895596 0.043568607 0
-0.090973184 0.043865032 0
0.037000261 0.043508496 0
0.040966347 0.043865547 0
-0.11271717 0.044262879 0
0.004298985 0.044423766 0
0.096238382 0.044059321 0
-0.13386238 0.044612166 0
-0.020871263 0.044813655 0
-0.11317897 0.045245297 0
-0.0085846335 0.045307823 0
-0.1327049 0.045629933 0
-0.082171679 0.045989383 0
0.13882217 0.045816563 0
0.13977179 0.045939237 0
-0.1463263 0.046964142 0
-0.14527939 0.047309533 0
-0.01017757 0.047306772 0
0.0063402429 0.047878377 0
0.093586549 0.047592871 0
0.13760996 0.047755577 0
0.14657198 0.048005082 0
-0.044303842 0.048829906 0
-0.084663436 0.049472824 0
0.028178152 0.049226858 0
-0.11699682 0.050292939 0
-0.089977711 0.050809786 0
-0.060856059 0.050525092 0
-0.10512488 0.051124349 0
-0.14266242 0.051603083 0
-0.1327512 0.051986154 0
0.031344928 0.05183626 0
-0.047691144 0.052977428 0
0.077604406 0.05287113 0
-0.12354872 0.053119533 0
0.068113364 0.053685609 0
-0.064245433 0.054218695 0
-0.018413886 0.054249696 0
0.084093221 0.054012593 0
0.04402557 0.054576468 0
0.075902313 0.054962728 0
-0.13753836 0.055757269 0
0.083605945 0.056211013 0
-0.10281165 0.056955285 0
-0.069661185 0.056772869 0
0.0010141651 0.056659475 0
-0.071773767 0.057326186 0
-0.0186226 0.057340398 0
0.0084425667 0.057016782 0
0.12809944 0.057256296 0
0.0094700493 0.058022901 0
0.041811831 0.058088858 0
-0.065676466 0.058844164 0
0.097821862 0.058960617 0
0.096352994 0.059203353 0
-0.10251059 0.059688058 0
-0.081133582 0.060084239 0
-0.073486269 0.061184142 0
0.13111824 0.062464252 0
0.0063415552 0.062563941 0
0.12452897 0.063250221 0
-0.14309987 0.064318195 0
0.066220663 0.064097494 0
-0.051390208 0.064917266 0
0.13273948 0.06463781 0
-0.047816578 0.065476529 0
-0.032642595 0.065563619 0
0.14492247 0.065608926 0
-0.065274276 0.067718454 0
0.094274014 0.067961209 0
-0.027939022 0.068446174 0
-0.027270876 0.06824746 0
0.026906423 0.069400951 0
-0.055781115 0.069920376 0
0.13602954 0.070472777 0
0.096401095 0.07075654 0
0.094018489 0.07199692 0
-0.14917934 0.072697498 0
0.050724369 0.073051468 0
0.086094752 0.073445708 0
0.12932764 0.073333912 0
0.07916607 0.073855773 0
0.10728989 0.074105076 0
-0.1382769 0.074709885 0
0.10516357 0.074501067 0
-0.096483402 0.075191945 0
0.019532695 0.075353131 0
0.020832114 0.075471669 0
-0.084646568 0.07599555 0
-0.14155397 0.076160327 0
-0.05943149 0.076067865 0
0.051752448 0.076295674 0
-0.14181633 0.076608598 0
-0.069844082 0.076916412 0
0.055154182 0.076514818 0
-0.14957952 0.077117033 0
0.00057892501 0.077729195 0
0.14069524 0.077599958 0
0.072388358 0.078324758 0
0.030304708 0.078535438 0
0.04946962 0.079132482 0
0.02095362 0.080149546 0
-0.077889115 0.080936387 0
-0.052588612 0.081089586 0
0.036695138 0.081091709 0
0.056510959 0.081108689 0
-0.14147258 0.082440786 0
-0.11791561 0.08233384 0
0.034098476 0.082340404 0
0.065318882 0.082444012 0
0.067712933 0.083952159 0
-0.12449975 0.08442381 0
-0.10720755 0.08469335 0
-0.10362347 0.084701747 0
-0.060015589 0.084905773 0
0.041147761 0.084602959 0
0.096373826 0.084502973 0
0.12730268 0.084649324 0
0.096692517 0.085072629 0
-0.09262614 0.085626259 0
0.09555696 0.085845172 0
0.056505259 0.087053001 0
0.038028397 0.088250116 0
0.057623301 0.0880346 0
0.11334403 0.08825691 0
0.11395907 0.089185208 0
-0.14512053 0.089589253 0
-0.00020699203 0.09009023 0
0.077611879 0.090787143 0
-0.12101366 0.091080256 0
0.055164162 0.091081537 0
0.015279893 0.09195631 0
-0.067603484 0.092194431 0
-0.00034037046 0.092251517 0
0.13827915 0.092322394 0
-0.10182182 0.092785314 0
-0.051155202 0.092906505 0
-0.032012947 0.093057483 0
-0.076111212 0.093955383 0
0.13593726 0.093511626 0
-0.11212065 0.094464123 0
-0.10011435 0.0943674 0
0.0066335294 0.094080314 0
-0.031261664 0.095604673 0
0.053830825 0.095606565 0
0.11759956 0.095839888 0
-0.1298741 0.096532844 0
-0.048249755 0.096713185 0
-0.043700278 0.09688542 0
0.074644923 0.096688509 0
-0.13990936 0.098124698 0
-0.0806899 0.098870099 0
-0.011041854 0.098914735 0
-0.031729385 0.099201277 0
0.12452661 0.099172339 0
-0.061333343 0.099830203 0
0.12082216 0.099551857 0
0.043449238 0.10065971 0
-0.0039879698 0.10127203 0
-0.032408468 0.10374404 0
0.14224085 0.10406382 0
-0.038162887 0.10513979 0
0.066446513 0.10506221 0
0.082163662 0.10532641 0
-0.09360981 0.10595933 0
-0.018833224 0.10555151 0
-0.11823234 0.10604578 0
0.11227775 0.10609614 0
-0.065689966 0.10659595 0
0.030370526 0.10655124 0
-0.12063292 0.10790451 0
0.016167443 0.1078747 0
-0.14334092 0.10851705 0
0.077131629 0.10874799 0
0.11610514 0.10922498 0
-0.018723011 0.10968425 0
0.011503808 0.10971078 0
0.019895181 0.10961955 0
0.14074565 0.1099847 0
0.010399647 0.11118707 0
0.05527601 0.11160573 0
-0.070524216 0.11249109 0
-0.12177201 0.11292072 0
-0.00050727278 0.11256047 0
-0.067586482 0.11369747 0
0.039350659 0.11388095 0
0.07954476 0.11363949 0
-0.12199356 0.11456711 0
-0.066415109 0.11520231 0
0.016839422 0.11524688 0
0.064214781 0.11506864 0
0.11133924 0.11501473 0
-0.12088946 0.11587341 0
-0.041041076 0.1158831 0
-0.016143445 0.11594025 0
0.074603528 0.11583608 0
0.082913809 0.11597154 0
-0.078966781 0.11623265 0
0.063132323 0.11633866 0
-0.11241091 0.11650144 0
-0.10056416 0.11679047 0
-0.11203106 0.11724854 0
-0.063940212 0.11732475 0
-0.036396742 0.11707225 0
-0.12804902 0.1178684 0
0.10270781 0.11750162 0
-0.11621852 0.11841763 0
-0.084266916 0.11839779 0
0.044014301 0.11855381 0
0.099145085 0.11968725 0
0.10725722 0.11989463 0
-0.10192054 0.12077337 0
-0.090163566 0.12058575 0
-0.0087838881 0.1206299 0
-0.10333886 0.12118945 0
0.0039563552 0.12111712 0
0.008132305 0.12112787 0
0.018733222 0.12143825 0
-0.13933641 0.12184779 0
0.13172975 0.12214743 0
0.12098229 0.12269578 0
0.092247263 0.12445305 0
0.0067694187 0.12487968 0
0.1124364 0.12492754 0
0.029106852 0.12500149 0
-0.11681369 0.12556134 0
-0.048790768 0.12574661 0
0.013540633 0.12592605 0
0.024473872 0.12556428 0
0.10643392 0.12586571 0
-0.063770711 0.12635483 0
-0.0059578866 0.12612462 0
0.026311312 0.12613143 0
0.059431888 0.12609428 0
0.10153049 0.12602356 0
0.10265925 0.12615356 0
0.11193569 0.12649049 0
0.057468295 0.12687162 0
0.11978836 0.12692165 0
0.084441513 0.12714599 0
0.092329167 0.12714714 0
0.13398948 0.12787838 0
0.072079405 0.12832604 0
-0.1478857 0.12893274 0
-0.11638968 0.12958871 0
-0.11846702 0.13012218 0
0.015448812 0.13022491 0
-0.02309439 0.13074589 0
0.049525246 0.13075748 0
-0.11661889 0.13131095 0
-0.072510347 0.13183175 0
0.015911553 0.1315712 0
0.045449503 0.13174811 0
0.039840352 0.13207963 0
0.1066801 0.13267271 0
-0.11434954 0.13336636 0
-0.12614316 0.13374652 0
-0.13726592 0.13432646 0
-0.10362401 0.13449627 0
-0.020206209 0.13439676 0
0.059509218 0.13442039 0
-0.12251632 0.13496217 0
-0.053320713 0.13498954 0
0.077193342 0.13493536 0
0.091820717 0.1349344 0
0.0011616498 0.13564546 0
0.026432332 0.13596293 0
0.14644134 0.13612109 0
-0.060192004 0.13651231 0
-0.018182516 0.13696636 0
0.0074328855 0.13676661 0
0.10493005 0.13703345 0
-0.14765559 0.13758941 0
-0.056804523 0.13841577 0
-0.031606335 0.13819385 0
-0.012617372 0.13800156 0
-0.0069095641 0.13801822 0
0.098375335 0.13839026 0
-0.058354896 0.13888298 0
-0.01569498 0.13897261 0
0.033350017 0.13869265 0
0.092449397 0.13913789 0
0.12326393 0.14010048 0
-0.10085765 0.1406579 0
-0.068059489 0.14072825 0
0.082062118 0.14093025 0
-0.11748575 0.14116411 0
0.11506166 0.14116694 0
0.053080305 0.14179964 0
-0.14082627 0.14216535 0
-0.0039205924 0.1430431 0
-0.11734927 0.143673 0
0.057942696 0.14380831 0
-0.041154657 0.14417832 0
0.00062816963 0.14508444 0
-0.14645003 0.14562942 0
0.051395275 0.14583878 0
0.063945889 0.14572072 0
0.095068663 0.14586893 0
0.097831666 0.14568719 0
-0.12557727 0.14640507 0
0.12224206 0.14631324 0
-0.084304959 0.14696327 0
-0.13632271 0.14724322 0
-0.06534639 0.14713027 0
-0.057402633 0.14718942 0
0.05922319 0.14871569 0
0.066211626 0.14868987 0
0.14979315 0.14853965 0
-0.13545752 0.1498998 0
-0.11500595 0.14958863 0
0.12596264 0.14991377 0
