# .PCD v0.7 - Point Cloud Data file format
VERSION 0.7
FIELDS x y z
SIZE 4 4 4
TYPE F F F
COUNT 1 1 1
WIDTH 951
HEIGHT 1
VIEWPOINT 0 0 0 1 0 0 0
POINTS 951
DATA ascii
0.026390979 0.050432332 0.025
0.0067065847 0.051283736 0.025
0.02202503 0.05108228 0.025
0.0064092628 0.050000004 0.025389727
0.0095419325 0.050000001 0.026824772
0.0095425136 0.050000001 0.027130373
0.014255621 0.049999997 0.027346237
0.020363677 0.050000001 0.027694512
0.0059192586 0.050000001 0.02875126
0.0013934849 0.050000001 0.029285528
0.01943879 0.050000004 0.030482095
0.025 0.049988061 0.033031005
0.0068607777 0.050000001 0.033872083
0.0067449901 0.050000004 0.033976957
0.025 0.048621565 0.034160823
0.0052581797 0.050000001 0.034372032
0.012658583 0.050000001 0.034148239
0.022514129 0.050000001 0.034718957
0.0039192191 0.050000001 0.03577552
0.02302268 0.050000004 0.036558598
0.010044409 0.050000001 0.03748326
0.018519307 0.050000001 0.037223648
0.01975546 0.050000004 0.038278114
0.020382289 0.050000004 0.038195603
0.0091951713 0.050000001 0.038897328
0.015777135 0.050000001 0.039815098
0.0053254757 0.050000004 0.039916914
0.0063462937 0.050000001 0.040527664
0.013090954 0.050000004 0.040883161
0.017780161 0.050000004 0.040990606
0.01121771 0.050000001 0.041303709
0.0059339036 0.050000004 0.041306648
0.019232336 0.050000001 0.042383857
0.024000632 0.050000001 0.04247788
0.024033032 0.050000004 0.042448521
0.0081158094 0.050000001 0.043325897
0.0020663003 0.050000001 0.045980088
0.003436462 0.050000001 0.045887534
0.014544579 0.049999997 0.046571463
0.016575623 0.050000001 0.048918847
0.0013159453 0.050000001 0.049120694
0.0033424513 0.050000001 0.049652684
0.007973874 0.050000001 0.050326131
0.019289024 0.050000001 0.050083376
0.0060060159 0.050000001 0.052412268
0.0093430914 0.050000001 0.053425059
0.014807031 0.050000001 0.054493409
0.025 0.049112674 0.054668501
0.023638185 0.049999997 0.054670975
0.00064485852 0.050000001 0.056016315
0.0062269536 0.050000001 0.056673829
0.0022503482 0.050000001 0.058548566
0.025 0.049947649 0.060785543
0.025 0.049300611 0.062150583
0.015280524 0.050000001 0.062122568
0.0067572906 0.050000001 0.063340291
0.011389565 0.050000001 0.06353192
0.016341861 0.050000001 0.063608944
0.016477935 0.050000001 0.064775132
0.020127455 0.050000001 0.065356374
0.018100288 0.050000001 0.065874018
0.0019889639 0.050000004 0.066615477
0.003414287 0.050000001 0.067411169
0.019457314 0.050000004 0.067953274
0.018598204 0.050000004 0.068794757
0.019425638 0.050000001 0.072094023
0.011467436 0.050000001 0.073322833
0.015142555 0.050000001 0.073783405
0.019806407 0.050000001 0.073790237
0.01085246 0.050000001 0.075666375
0.0011693458 0.050000001 0.077303879
0.011998942 0.049999997 0.077618003
0.020856559 0.050000004 0.077882774
0.0082227439 0.050000001 0.078591578
0.018338934 0.050000004 0.078695536
0.0017718667 0.050000001 0.07975094
0.02021583 0.050000004 0.081604153
0.016938234 0.050000001 0.084152743
0.02050842 0.050000001 0.084015444
0.021737194 0.050000004 0.08422932
0.025 0.049488213 0.086173251
0.018434979 0.050000001 0.086192422
0.013941734 0.050000001 0.088082373
0.024527635 0.050000004 0.08837112
0.024999999 0.049013019 0.088800989
0.025 0.049959879 0.090057716
0.011003929 0.050000004 0.090781435
0.0028193181 0.050000001 0.091675423
0.0092572868 0.050000001 0.092125252
0.0013036404 0.050000004 0.092205442
0.0078765238 0.050000004 0.092755035
0.0011987746 0.050000004 0.093394049
0.012866961 0.050000001 0.094120935
0.01420011 0.049999997 0.094436124
0.023208112 0.050000004 0.094476208
0.0073444508 0.050000001 0.095872074
0.023478709 0.050000001 0.095845178
0.021696484 0.050000001 0.097674303
0.022134652 0.050000001 0.099151656
0.00049651315 0.050000001 0.099836141
0.0024080556 0.050000004 0.099989422
0.0083012963 0.050000001 0.1011968
0.02009007 0.050000001 0.10184841
0.021721467 0.050000001 0.10369272
0.0034962064 0.050000004 0.10412109
0.024999999 0.049769923 0.1053943
0.010932445 0.050000001 0.10628876
0.020234184 0.050000001 0.10657565
0.00034748408 0.050000001 0.10745645
0.015383112 0.050000001 0.107173
0.016248807 0.050000004 0.10797424
0.019897066 0.050000004 0.10771446
0.0037778877 0.050000004 0.10820171
0.024999999 0.048799682 0.11045139
0.012216954 0.049999997 0.11129311
0.0023402735 0.050000004 0.11182953
0.010117847 0.049999997 0.11217077
0.019291351 0.049999997 0.11474281
0.017413741 0.050000004 0.11496169
0.021561559 0.049999997 0.11502946
0.010091064 0.050000001 0.11588576
0.013505924 0.049999997 0.11581795
0.018381758 0.050000001 0.11554202
0.0064345296 0.049999997 0.11610232
0.017256919 0.050000001 0.11716577
0.021871036 0.050000001 0.11766221
0.010806382 0.050000001 0.11802982
0.019971075 0.050000001 0.11856677
0.0014137006 0.050000001 0.11991014
0.0061255302 0.050000001 0.12035707
0.020616537 0.050000001 0.1204317
0.0022728068 0.050000001 0.12059407
0.0051472289 0.049999997 0.12056044
0.019626504 0.050000004 0.12074775
0.0084169647 0.050000001 0.12139304
0.017942406 0.049999997 0.12194467
0.0011445455 0.050000001 0.12258483
0.025 0.049821027 0.12382348
0.024561271 0.050000001 0.12461131
0.00079890859 0.04892901 0.12607099
0.019189196 0.048517879 0.12648211
0.023552697 -0.053458121 0.025
0.026414882 -0.036035109 0.024999999
0.025261626 0.010043668 0.025
0.025998514 0.03885169 0.025
0.025642907 0.052275416 0.024999999
0.024925541 0.05423088 0.025
0.025 -0.026010897 0.025479237
0.025000002 -0.014362877 0.025241993
0.02614975 -0.010783635 0.025000002
0.025 -0.007890353 0.025034543
0.025 -0.0051520467 0.025288645
0.025900137 0.014923526 0.025000002
0.026324928 0.020877967 0.025000002
0.025 0.036886819 0.025841383
0.025 -0.014753103 0.026320286
0.025 -0.034002967 0.026649579
0.025 -0.030533612 0.026758434
0.025000002 0.020849859 0.026913552
0.025 0.043473911 0.027181083
0.025 0.001626987 0.027980806
0.024999999 0.042362049 0.02758375
0.025 0.011355532 0.028182149
0.025 -0.042813789 0.028757086
0.025 -0.03065175 0.028911646
0.025 0.00934246 0.028650314
0.024999999 0.010003908 0.028753594
0.025 0.014393054 0.028752606
0.025 0.043865651 0.028939065
0.025 -0.025491413 0.02920885
0.025 0.011905916 0.029184356
0.025 0.037828624 0.029453529
0.025 -0.040656801 0.029677335
0.025000002 -0.027240174 0.029661011
0.025000002 0.02981576 0.02966743
0.025 -0.022289813 0.030313071
0.025 -0.002491001 0.030408759
0.025 0.0062015112 0.030456774
0.025 -0.015083513 0.030556928
0.025000002 -0.010532793 0.031140741
0.025 -0.01246368 0.03174236
0.025 -0.0034361687 0.031708751
0.025 0.0056499261 0.031623259
0.025 0.019822843 0.031923145
0.025 -0.049634736 0.032419603
0.025 -0.037498888 0.032160372
0.025 -0.03176878 0.032481246
0.025 -0.019773435 0.032999925
0.025000002 0.025501139 0.032565091
0.025000002 0.04804128 0.033349205
0.025000002 -0.046346817 0.033860531
0.025 0.017236557 0.033844709
0.025 -0.024320554 0.034231603
0.025 0.0078958366 0.034181878
0.024999999 0.035139039 0.034312192
0.025 -0.039904278 0.034987517
0.025 0.033175807 0.034644563
0.025 -0.039191876 0.035058878
0.025 -0.011434372 0.035426233
0.025000002 0.00051837973 0.035452113
0.025000002 0.011093952 0.035062607
0.025000002 -0.015531916 0.035573166
0.025 0.036105547 0.035544299
0.025 0.047297351 0.035533585
0.025 -0.011608859 0.036395237
0.025 0.030197326 0.036101595
0.025 -0.014271707 0.036889199
0.025 -0.00039508007 0.036553767
0.025000002 0.021715868 0.036899157
0.025 0.031835627 0.036900327
0.025000002 0.02114239 0.037492372
0.025000002 0.032300249 0.037124433
0.024999999 -0.047189314 0.037875377
0.025000002 -0.014510309 0.037839368
0.025 -0.0066839335 0.03790484
0.025 0.010557082 0.03779123
0.025000002 0.037433662 0.037799299
0.025 0.0037342235 0.03829281
0.025 -0.028362637 0.038567927
0.025 -0.015304861 0.038807787
0.025000002 -0.0016339906 0.038621332
0.025000002 -0.00098385662 0.038543317
0.025 -0.049579054 0.039233439
0.025 -0.035796888 0.039172713
0.025 -0.024957404 0.039137635
0.025000002 -0.018701039 0.039168965
0.025 -0.00018136576 0.039040439
0.025 0.044148076 0.039459646
0.025 -0.032165121 0.039782211
0.025 -0.038355917 0.040012442
0.025000002 0.030208692 0.040233478
0.025 0.035799112 0.040070221
0.025 -0.036685232 0.040990688
0.025000002 -0.0285972 0.040675111
0.025 -0.025728624 0.04054331
0.025 -0.020177053 0.040870681
0.025000002 -0.013572986 0.040553555
0.025 0.0011496022 0.040866394
0.025 0.011565547 0.040917717
0.024999999 -0.045526184 0.041226842
0.025000002 -0.012182917 0.041287273
0.025000002 -0.032106087 0.041931711
0.025000002 0.0031554559 0.041748174
0.024999999 0.022927251 0.04161929
0.025 -0.040656596 0.042288929
0.025000002 -0.0068169814 0.042460974
0.024999999 0.04099058 0.04215759
0.025 0.0096417582 0.042876892
0.025000002 0.013636277 0.043003269
0.025 0.039945003 0.043486595
0.025 0.04533368 0.043234561
0.025 -0.019532252 0.043610357
0.025 0.019806352 0.043822009
0.025 0.02437876 0.043872178
0.025 -0.04285863 0.04421223
0.025 -0.024252418 0.044065375
0.025 -0.0060150148 0.044282954
0.025 -0.00041002687 0.044066902
0.025000002 -0.04992009 0.04498367
0.025 -0.0060201418 0.045046445
0.025 -0.016114783 0.045500495
0.025 0.0063988576 0.045600303
0.024999999 -0.035700228 0.046080053
0.025 0.0135797 0.046413336
0.025000002 0.043081284 0.046181705
0.025000002 0.0052379984 0.04688682
0.025 -0.035685439 0.047682505
0.025 -0.034429558 0.047741182
0.025000002 0.0066584721 0.047971155
0.025000002 0.0045757992 0.048246764
0.025 -0.0078062667 0.049025036
0.025 -0.014900217 0.049622141
0.025 0.047386389 0.049888678
0.025000002 -0.00087494962 0.050029125
0.025000002 -0.015478737 0.050730363
0.024999999 0.0028697615 0.050692793
0.025 0.018671263 0.050762754
0.025000002 0.028359586 0.050919961
0.025000002 0.030220561 0.050664242
0.024999999 0.028235551 0.051063225
0.025 -0.026147801 0.051874824
0.024999999 0.034665465 0.051997311
0.024999999 0.042523108 0.051891737
0.025000002 -0.031043068 0.052406527
0.025 -0.01976615 0.052284949
0.025 0.028148359 0.052126277
0.025000002 0.037226193 0.052386086
0.025000002 -0.018530836 0.05281733
0.024999999 0.011659794 0.052873161
0.025 -0.027666109 0.053271852
0.025000002 -0.047769077 0.053892598
0.025 -0.043866672 0.053913277
0.025000002 -0.0025890414 0.053720873
0.025 0.019654924 0.054130357
0.024999999 -0.043020479 0.054749511
0.025000002 -0.010972487 0.054795735
0.024999999 0.046369869 0.054654293
0.025000002 -0.023309473 0.055480227
0.025000002 0.020085383 0.055014104
0.025 0.0027084751 0.055794071
0.025 0.0050899005 0.055789601
0.024999999 -0.041923918 0.056451797
0.025000002 -0.0018211352 0.056113109
0.025 0.033424206 0.056380466
0.025000002 0.017210774 0.056949116
0.025 0.041173827 0.056695055
0.025 -0.00060260482 0.0570256
0.024999999 -0.03591264 0.057646088
0.025000002 -0.02806044 0.057610579
0.025 0.02353663 0.05799754
0.024999999 0.035490595 0.057778001
0.025000002 0.048389021 0.057511561
0.025 -0.047446929 0.058332227
0.024999999 -0.035456832 0.058454413
0.025 -0.042076662 0.058855169
0.025 -0.0039590467 0.05879933
0.025000002 0.032532841 0.058584165
0.025000002 -0.015951507 0.059411302
0.024999999 0.043513224 0.059174594
0.025 0.0025313869 0.059813336
0.025 -0.036711056 0.060190354
0.025 -0.025229935 0.060059018
0.025 0.0051200427 0.060352217
0.024999999 0.045188077 0.060290996
0.025 -0.0012683896 0.060879335
0.025000002 0.0075231707 0.060981084
0.025 -0.027929096 0.061480239
0.025000002 0.0075552398 0.061114181
0.025 0.010417175 0.061148338
0.025 -0.030706763 0.06157627
0.025 0.0075736521 0.061832126
0.025 0.020545149 0.061515484
0.025 -0.027030982 0.062206939
0.025 -0.0055613965 0.062146343
0.024999999 -0.03081345 0.063091032
0.024999999 -0.030389428 0.063202776
0.024999999 -0.024767995 0.06341742
0.024999999 0.036013138 0.06305445
0.025000002 -0.026831385 0.063763887
0.025 -0.026324391 0.06381315
0.025 -0.027230445 0.064482696
0.025 -0.021736041 0.06472034
0.025 0.043846302 0.06480398
0.025 -0.049711816 0.065066531
0.025000002 -0.016803786 0.065394357
0.025000002 0.020447299 0.065137364
0.025000002 -0.01235898 0.065649562
0.025 0.0043159993 0.065979205
0.025000002 0.02292059 0.065915056
0.024999999 0.031989068 0.065980725
0.025 -0.016444994 0.066116303
0.025 -7.7780802e-05 0.066099122
0.025000002 0.028656518 0.066273063
0.025000002 0.04006689 0.066901654
0.025 -0.014809979 0.067303106
0.024999999 0.015957002 0.067588426
0.025 -0.031172153 0.068210304
0.025000002 0.01299754 0.068378732
0.025 -0.010257643 0.068691835
0.025000002 0.029144106 0.068731695
0.024999999 -0.044726044 0.069394596
0.025 -0.0030800076 0.069327131
0.025000002 0.027896388 0.069262415
0.024999999 0.034029089 0.069104396
0.025 0.043504871 0.069049403
0.025 -0.03151435 0.069728531
0.024999999 -0.028358243 0.069924608
0.024999999 -0.02088256 0.069885947
0.024999999 -0.016449004 0.070142716
0.025 0.029449414 0.070498459
0.025 -0.040866524 0.070667937
0.025000002 -0.013856924 0.070895769
0.025000002 0.035983868 0.070561044
0.025 -0.030599415 0.071161985
0.025 0.037245408 0.071257718
0.025 -0.046905536 0.071642652
0.025000002 0.0096715074 0.072357357
0.024999999 0.030147992 0.072058432
0.025 -0.041814651 0.072596475
0.024999999 -0.041030586 0.072621509
0.025 0.019141506 0.072693437
0.025 0.029339552 0.072615892
0.025000002 0.0036354645 0.07303223
0.024999999 0.004441292 0.073231377
0.025 0.015047888 0.073215462
0.025 -0.011037817 0.073700942
0.024999999 -0.047951654 0.07444527
0.025000002 -0.036265485 0.074068189
0.025000002 -0.04461173 0.074512549
0.025 -0.04028669 0.07457348
0.024999999 -0.047746882 0.075153567
0.025 -0.033470232 0.075278223
0.025 -0.01192847 0.075005494
0.025 0.011944771 0.075480901
0.024999999 0.014406912 0.075401105
0.025 -0.021520887 0.075515464
0.025000002 -0.017432082 0.075558841
0.025 0.0084259361 0.075962931
0.025000002 -0.027203884 0.076438591
0.025 0.032086801 0.076386653
0.025000002 -0.020772718 0.077336922
0.025 -0.010782173 0.077190913
0.025000002 0.0050468422 0.077392049
0.025 -0.046864044 0.077628471
0.024999999 -0.026119193 0.077547759
0.024999999 -0.013205674 0.077594198
0.025000002 -0.047948264 0.078034222
0.025 -0.0016061552 0.078217059
0.025000002 -0.0010004956 0.078400433
0.025 0.0022620559 0.078427084
0.025 0.034135185 0.078499816
0.025000002 -0.039982263 0.078507282
0.025 -0.020853803 0.07897874
0.025000002 -0.013307431 0.078615062
0.025 -0.010112863 0.078887559
0.025 0.014775487 0.078595072
0.024999999 -0.049987391 0.079280309
0.025 -0.01431186 0.079239339
0.025000002 -0.0053568408 0.080412358
0.025000002 0.0080220932 0.080376051
0.025000002 0.024262104 0.08041048
0.025 -0.02779139 0.080962971
0.025000002 -0.019829072 0.080524817
0.025 0.0034511127 0.080966361
0.025 0.013615108 0.080932371
0.025000002 0.034481078 0.080872871
0.024999999 -0.040516123 0.081303433
0.025 -0.038363941 0.081501059
0.025 -0.021919938 0.081563808
0.025 -0.013195338 0.0818424
0.025000002 0.013998706 0.081651434
0.025 0.018359121 0.081787266
0.025000002 0.035462342 0.081780396
0.025000002 0.040195756 0.081505515
0.024999999 -0.039001584 0.082443051
0.025 -0.01873276 0.082052357
0.025 0.0044413526 0.082672462
0.024999999 0.0076152324 0.082573488
0.025000002 0.034603469 0.082676671
0.024999999 -0.034612805 0.083478808
0.025000002 0.031974256 0.083467044
0.024999999 -0.048587359 0.083808079
0.025 -0.013773418 0.083911605
0.025 0.0038337521 0.083588146
0.025 -0.043317713 0.084544316
0.025 -0.041855272 0.084510595
0.025 -0.033421233 0.085311018
0.025 -0.014818821 0.085241832
0.024999999 0.04312367 0.08529187
0.025 0.0077300016 0.085779101
0.025 0.012406917 0.085579202
0.024999999 0.013079979 0.085745834
0.025 0.029064912 0.085812248
0.025 -0.016011354 0.0863083
0.025 -0.046138227 0.086562969
0.025 -0.037857637 0.086915053
0.025 -0.010252035 0.086628929
0.025 -0.017514769 0.087440245
0.025 -0.0032806527 0.087212384
0.025 0.039635058 0.087139778
0.025000002 0.044474579 0.087492034
0.024999999 -0.04378783 0.087837793
0.025 -0.002456015 0.08841791
0.025 0.0095946509 0.088049024
0.024999999 0.020634914 0.08813443
0.025 0.036204483 0.08837904
0.025 -0.019155677 0.088678792
0.025000002 -0.008641813 0.088978395
0.025 0.025393143 0.088534512
0.025 0.0019045565 0.089061461
0.025000002 0.023970904 0.089397587
0.025 -0.043033481 0.089860685
0.025 -0.02000384 0.089507505
0.025 -0.04564824 0.090526715
0.025000002 0.00024222955 0.090771966
0.025 0.01735493 0.090526342
0.025 0.020650864 0.090804651
0.025000002 0.045977898 0.090932518
0.025 -0.03534694 0.091088794
0.025 -0.030689567 0.091118596
0.025000002 -0.0090827709 0.09117765
0.025 -0.018082244 0.091907844
0.025000002 0.0086647104 0.092335686
0.025 0.0096887834 0.092225567
0.025000002 -0.00074785948 0.092806943
0.025000002 0.0059146862 0.092972122
0.025000002 0.016879601 0.092938788
0.025000002 0.022594877 0.092503883
0.025 0.043466069 0.092504583
0.025000002 -0.038770407 0.093288019
0.025 0.027806571 0.093192562
0.025 -0.01179141 0.093958139
0.025000002 -0.0059650596 0.093660899
0.025000002 0.042622294 0.093817137
0.025 -0.029900262 0.094508313
0.025 0.013384992 0.094787993
0.025000002 0.025726229 0.094614185
0.025 0.046236861 0.094581351
0.024999999 -0.042535752 0.095372953
0.025 -0.038748469 0.095486321
0.025 -0.020949481 0.095408663
0.025000002 -0.010425105 0.095461383
0.025000002 -0.0048848493 0.095496453
0.025000002 0.0001621563 0.095331073
0.024999999 0.039825339 0.095434673
0.025000002 -0.047907583 0.095860973
0.025000002 -0.042711105 0.095865086
0.024999999 -0.041758094 0.09561722
0.025 -0.019880835 0.095749028
0.025 0.037040666 0.096896634
0.025000002 0.038802184 0.096540399
0.025 -0.046284012 0.097395852
0.025 -0.033371922 0.09746673
0.025 0.0072438326 0.097458616
0.024999999 0.034525357 0.097473241
0.025 -0.03645299 0.097856574
0.025 -0.035834126 0.09766943
0.025 0.026760506 0.097527213
0.025000002 0.033702694 0.097696483
0.024999999 -0.047714312 0.098451167
0.025000002 -0.030724896 0.098873653
0.025 0.018292308 0.09874209
0.025 -0.046181906 0.099033237
0.025 -0.036649063 0.099454686
0.025 -0.041895993 0.099835619
0.024999999 -0.02921856 0.099679418
0.025000002 0.038039345 0.099728651
0.025000002 -0.041101638 0.1001186
0.025 -0.034554858 0.1001747
0.025 -0.02637165 0.10049324
0.025 -0.024285734 0.10042539
0.025 -0.014146369 0.10041537
0.024999999 0.0061584162 0.10041322
0.025000002 -0.0071904678 0.10059106
0.025 0.0015829727 0.10092812
0.025000002 0.021496488 0.10063713
0.025 0.034152847 0.10095292
0.025 -0.039895888 0.10138042
0.025 -0.027096264 0.10133217
0.024999999 -0.0053513153 0.10131723
0.025000002 0.0070234472 0.10139044
0.025 -0.048311733 0.10182226
0.025000002 -0.0057400763 0.10205197
0.025 0.011177737 0.10218176
0.025000002 0.022294225 0.1024881
0.025000002 0.043651037 0.10238584
0.025 0.012634405 0.10274708
0.025000002 0.031432483 0.10287341
0.025 0.033364397 0.10251025
0.025 0.0014306102 0.10312612
0.025 0.021200165 0.1034447
0.025000002 0.0085020252 0.10382152
0.024999999 0.019197349 0.10365497
0.025 -0.035811469 0.10414764
0.025 0.042523049 0.10440086
0.025 -0.046842769 0.10451849
0.025 0.022183552 0.10465965
0.024999999 -0.012564513 0.10515761
0.025 -0.0097568892 0.10537332
0.024999999 -0.0061813444 0.1059122
0.025 0.013204948 0.10582096
0.025 0.023398891 0.10577459
0.024999999 0.023957049 0.10626449
0.025000002 0.024637027 0.10638352
0.025000002 -0.03173165 0.10687923
0.024999999 -0.02190165 0.1074338
0.025 -0.046706993 0.1078279
0.025000002 0.048087366 0.10773656
0.025 -0.041004602 0.10818417
0.025000002 -0.0090114623 0.10835465
0.025000002 0.007975826 0.10840204
0.025 -0.04307247 0.10892174
0.025 0.00021437835 0.10879418
0.025 0.035821583 0.10891108
0.025 -0.048903823 0.10936465
0.025000002 -0.025560934 0.10919777
0.025 -0.0085045043 0.10915608
0.025000002 0.0064438079 0.10923237
0.025 0.04011412 0.10903677
0.025 -0.046729535 0.1096657
0.025 -0.035660598 0.10972459
0.025 0.014130381 0.10966855
0.025 0.017816108 0.10957959
0.025000002 0.017861096 0.10979465
0.025 0.019417657 0.10985319
0.025000002 -0.010847509 0.11056133
0.025 0.008901245 0.11080071
0.024999999 0.012434754 0.11071609
0.025 0.041820943 0.11087412
0.025000002 -0.006632932 0.11138828
0.025 -0.038257144 0.11172
0.025000002 -0.025884032 0.11156853
0.025 -0.046761535 0.11210112
0.025000002 -0.021764198 0.11209679
0.025000002 0.031370841 0.11232495
0.025 -0.017442357 0.1129065
0.025 0.032571718 0.11281295
0.025 -0.016165022 0.1134326
0.025 0.0045452919 0.11345539
0.025 0.025888804 0.11330086
0.025000002 -0.020246759 0.11381739
0.025000002 -0.040522046 0.114167
0.025000002 -0.032379992 0.11444442
0.025000002 -0.024664868 0.11432512
0.025 -0.009266356 0.11440667
0.025000002 0.010235076 0.11443748
0.025 0.00039204583 0.11454444
0.025000002 9.1559254e-05 0.11587566
0.025 0.0071977535 0.11579227
0.025 -0.033356711 0.11617199
0.025 -0.019000161 0.11625026
0.025 -0.017588055 0.11609101
0.025 0.02148127 0.11608935
0.025000002 -0.043002937 0.11682268
0.025000002 -0.028500436 0.11695009
0.025 -0.01529661 0.11679697
0.025 0.00041681156 0.1168421
0.025 0.02026586 0.11740981
0.024999999 0.027613731 0.11744487
0.025 -0.027347604 0.11780953
0.025000002 -0.008485199 0.11754047
0.025000002 -0.0045906017 0.11788423
0.024999999 0.019627471 0.11775288
0.025 0.040796164 0.11756669
0.025 -0.047757056 0.11817486
0.025 -0.034461219 0.11826348
0.025000002 -0.0044096406 0.11849952
0.025000002 -0.00047580246 0.11895362
0.025000002 0.011349307 0.11869349
0.025 0.021771509 0.1194282
0.025000002 -0.017527658 0.11952653
0.025000002 -0.006565982 0.11953597
0.025 0.034518603 0.11963568
0.025000002 -0.023285298 0.12027134
0.025 -0.021139888 0.12041849
0.025000002 -0.0057794587 0.12023891
0.025 -0.034568697 0.12071169
0.024999999 0.0067567341 0.12056776
0.025000002 -0.038718261 0.12160636
0.025 -0.017921971 0.12169751
0.025 0.013129245 0.12186229
0.025 0.046112534 0.12176013
0.025000002 -0.02386125 0.12202411
0.025 0.043258708 0.12205376
0.025 0.0043921852 0.12272672
0.025000002 0.025852202 0.1226918
0.025 0.026995959 0.12271053
0.025000002 -0.0084673567 0.12317739
0.025 -0.047931563 0.12396515
0.025 0.017274344 0.1235173
0.025000002 0.027732568 0.12383801
0.025 0.029393733 0.12365164
0.025 0.044425361 0.12362859
0.025000002 -0.037794735 0.12436502
0.025000002 0.022794789 0.12417361
0.025 0.039642591 0.12422407
0.025 -0.017567599 0.12485465
0.025000002 -0.0080644153 0.12473772
0.024999999 0.045416165 0.12506647
0.025 -0.039240912 0.12561081
0.025 -0.026917644 0.12590289
0.025 0.0240913 0.12595123
0.025 0.015058605 0.12617531
0.025 0.041524075 0.12632942
0.025 0.014582084 0.1269128
0.025 0.024102816 0.12655729
0.025 -0.014705356 0.12730685
0.025 0.018033864 0.12745357
0.025 -0.047833007 0.1276751
0.025 -0.040451623 0.12759872
0.024999999 -0.02472654 0.12763925
0.025000002 -0.046198394 0.12823199
0.025000002 0.015672205 0.12817177
0.025 -0.042147432 0.12861228
0.024999999 0.0065912781 0.12896544
0.025 0.01819773 0.12857383
0.025 -0.048415106 0.12923172
0.025 -0.031127475 0.12945937
0.025 -0.045566175 0.12976974
0.025 -0.04278877 0.12961356
0.025 -0.013743339 0.12970504
0.025 0.024402736 0.12979577
0.025 -0.019131277 0.13045527
0.025 -0.048496999 0.13097374
0.025 -0.014217678 0.13065989
0.025 0.024929859 0.1307604
0.025 0.043213841 0.13076451
0.025000002 -0.036417857 0.13131118
0.025 0.0079758558 0.1314898
0.025000002 0.020476531 0.13124929
0.025000002 0.033945676 0.1311487
0.025 0.010411234 0.13191313
0.025 0.043155424 0.13152042
0.025000002 0.0049968115 0.13218027
0.024999999 0.010384359 0.13216028
0.025 0.013373364 0.13246879
0.025 -0.0011359695 0.13255176
0.025 0.011599423 0.1328368
0.025 -0.026101504 0.13335615
0.025 -0.016974621 0.13319378
0.025000002 -0.022355214 0.13357334
0.024999999 0.0029661283 0.13379456
0.025 0.019956032 0.13371831
0.025 0.030254565 0.13411839
0.025 -0.046927046 0.13454965
0.025 0.012156912 0.1349293
0.025 0.022807501 0.13497922
0.025 -0.049923629 0.13540304
0.025 0.00056053232 0.13506018
0.024999999 0.0069584539 0.13531534
0.025 0.030332662 0.13510807
0.025 0.008371097 0.13551055
0.025 -0.035273824 0.13631383
0.025 -0.028574143 0.13603112
0.025 -0.01226954 0.1364243
0.025 0.029111199 0.13601989
0.025 -0.041609883 0.13685781
0.025 -0.0034583546 0.13655102
0.025 0.034744702 0.13749796
0.025 0.0080197947 0.13781348
0.025000002 -0.042246796 0.1384736
0.025 -0.0088963695 0.1384892
0.024999999 0.0060867658 0.13849492
0.024999999 0.01749694 0.13819356
0.025 0.035490416 0.13848938
0.025000002 0.019046882 0.13884898
0.025 0.021363756 0.13947417
0.025 -0.0063742539 0.13979281
0.025 0.021817984 0.13951592
0.025 -0.04913133 0.1402429
0.025 -0.00071911747 0.14061072
0.025 -0.046836689 0.14147273
0.025 -0.044470813 0.14185649
0.025 -0.039332479 0.14247651
0.025000002 -0.032172188 0.14240551
0.025 -0.012778688 0.14238712
0.025000002 -0.04910177 0.14259697
0.025000002 -0.048544399 0.14269327
0.025 -0.0050153742 0.14274549
0.025 0.025870921 0.14264847
0.023580957 0.032306459 0.14269355
0.025 -0.04600272 0.14349195
0.025 -0.014963362 0.14335109
0.025 -0.027814703 0.14352015
0.025 -0.00122565 0.1436608
0.025 0.010810017 0.14370498
0.025 0.024920436 0.14380503
0.024687259 0.031144338 0.14385566
0.025 -0.039294802 0.14403895
0.025 -0.020692289 0.14438222
0.025 -0.011301033 0.14445475
0.024999999 0.0059662545 0.14433892
0.025000002 0.023245027 0.14419523
0.025 -0.037635088 0.144887
0.025 -0.03632931 0.14478426
0.025 0.020770511 0.1446227
0.025 0.027973125 0.14481068
0.025 -0.041437935 0.14502689
0.025 -0.040990151 0.14523265
0.025000002 -0.036082789 0.14532419
0.025 0.0094185779 0.14541042
0.025 0.029330561 0.14502558
0.025000002 -0.040713519 0.1459869
0.025 -0.01558326 0.14567786
0.025 -0.0034957156 0.14563034
0.025 0.00023365137 0.14558086
0.025 0.015869167 0.14641634
0.025 -0.038851235 0.14663646
0.025 0.018663289 0.14657809
0.025 -0.0423165 0.1474672
0.025 -0.035279129 0.14703991
0.025 0.012554497 0.14749508
0.025 0.024291057 0.14753251
0.025 -0.044802874 0.14902699
0.025 -0.03123961 0.1490081
0.025 -0.0017623166 0.1492811
0.025 -0.036286376 0.14960161
0.025000002 -0.032543987 0.14986481
0.025000002 0.01373574 0.14979888
0.025000002 -0.027246134 0.15025331
0.025 -0.025848273 0.15024289
0.025 0.00086824823 0.15006597
0.025 0.0078013837 0.15004836
0.025 0.019447491 0.15070093
0.025 -0.010851985 0.15105145
0.025000002 0.010844575 0.15133867
0.025 -0.039134834 0.15172541
0.025 -0.022459622 0.15195511
0.025 -0.0045401212 0.1519883
0.025 0.002997692 0.15159206
0.025 -0.042868197 0.15247166
0.025 -0.036384981 0.15244986
0.025 -0.021534903 0.15240759
0.025 -0.010259541 0.15221487
0.02423019 0.022648586 0.15235141
0.025 -0.0068554715 0.15271778
0.025 0.0088536851 0.15294674
0.025 -0.023279574 0.15342396
0.025 0.0028376512 0.15322356
0.025 0.019183736 0.1532988
0.025 -0.04977515 0.15382083
0.025 0.016517682 0.15365905
0.025 -0.039822903 0.1544407
0.025 -0.036884248 0.15447205
0.025 -0.034108788 0.15421668
0.025 -0.030497998 0.15446679
0.025 0.02001502 0.15426958
0.025 -0.031548325 0.1549024
0.025 -0.0052684583 0.15489239
0.025 -0.0028770939 0.15495075
0.025 -0.021919549 0.15549447
0.025 0.01986222 0.15513766
0.025 -0.045328442 0.1556159
0.024999999 -0.0032788487 0.15554245
0.025 -0.022149812 0.15635961
0.025 -0.014482846 0.15632419
0.025 -0.036029741 0.15674396
0.025 -1.7358037e-05 0.15664099
0.025 -0.046943214 0.1575354
0.023626301 0.016987035 0.15801296
0.025 -0.030679509 0.15893273
0.025 -0.0057837307 0.15881738
0.025 0.00099056819 0.15897894
0.024449248 0.016422257 0.15857774
0.025 -0.034212235 0.15918629
0.025000002 -0.034458973 0.1593653
0.025000002 -0.0015073335 0.15943474
0.025 -0.031603612 0.15990312
0.025 -0.026937276 0.16018818
0.025 -0.024699954 0.16045812
0.025 -0.021378666 0.16033551
0.025 0.0065442435 0.16049883
0.025 -0.038027283 0.16077127
0.025 -0.00053196965 0.16062613
0.025 -0.049247649 0.16104887
0.025 -0.045913745 0.1613722
0.025 0.0058998335 0.16104645
0.025 -0.014585004 0.16150749
0.025 0.0026025705 0.16181403
0.024999999 0.005543422 0.16175932
0.025 -0.037698157 0.16212101
0.025 -0.041063413 0.16267724
0.025 -0.039977752 0.16273923
0.025 -0.034840498 0.16281672
0.025000002 -0.0090051759 0.16285181
0.024999999 0.0095007615 0.16257173
0.025 -0.028226137 0.16304398
0.025 -0.021687051 0.16310582
0.025000002 -0.011637695 0.16349895
0.025 -0.028173942 0.16387208
0.025 -0.047885768 0.1641257
0.025 -0.01825483 0.1643043
0.025 -0.032942548 0.16463023
0.025 -0.016808257 0.16497771
0.025000002 -0.027832575 0.16542655
0.025 0.0085883308 0.16501215
0.025 -0.024492389 0.16552302
0.025000002 0.0028819197 0.16558504
0.025000002 -0.016571784 0.16628335
0.025 -0.005683152 0.16618723
0.025 -0.040838256 0.16687277
0.025000002 -0.0018539097 0.16672143
0.025 -0.046640817 0.16719806
0.025 -0.042817451 0.16736567
0.025 0.0063494216 0.16776735
0.025 -0.044797119 0.16891445
0.025000002 0.0033183938 0.16877729
0.025 -0.043761034 0.1697077
0.025 -0.0062678475 0.16953118
0.025 -0.039747417 0.17003724
0.025 -0.03003471 0.17019865
0.025 0.00073109096 0.17000599
0.025 -0.03561601 0.17073412
0.024999999 -0.036356684 0.17163804
0.025 -0.00029675767 0.17153729
0.025 -0.042664196 0.17244318
0.024999999 -0.0055356529 0.17278883
0.025000002 -0.034987457 0.17332977
0.025 -0.045578752 0.17420509
0.023744542 -0.018110331 0.17499998
0.025000002 -0.016210815 0.17490126
0.024463056 -0.0035158365 0.175
0.024654072 -0.036845483 0.17500001
0.0079811579 0.0013909197 0.17360908
0.011394004 0.0010328642 0.17396712
0.019032314 0.0011860143 0.173814
0.0097528435 0.00088398426 0.17411602
0.00012256851 -0.049244352 0.175
0.012493337 -0.049000174 0.175
0.012998373 -0.049193129 0.175
0.01652425 -0.047588933 0.175
0.008788364 -0.047226366 0.175
0.012896821 -0.045979761 0.175
0.011524748 -0.045088664 0.175
0.00016984396 -0.043907631 0.175
0.0062951399 -0.041546382 0.175
0.014317846 -0.040881328 0.175
0.015182052 -0.03936328 0.175
0.014986658 -0.038942561 0.175
0.00042904416 -0.03710711 0.175
0.022135913 -0.035039604 0.17499998
0.00098092703 -0.034031481 0.175
0.022418831 -0.033375736 0.17499998
0.0080827409 -0.032367267 0.175
0.011485144 -0.030724928 0.175
0.009840237 -0.030216364 0.175
0.02083946 -0.029645061 0.175
0.0056710159 -0.029445171 0.17499998
0.019189373 -0.028813282 0.175
0.012077178 -0.026481766 0.175
0.0055903075 -0.025693374 0.175
0.00039468697 -0.023227243 0.17499998
0.0034070956 -0.021409664 0.175
0.011480198 -0.020687239 0.175
0.01309636 -0.020526307 0.175
0.020546919 -0.019509107 0.175
0.010684667 -0.017334718 0.175
0.0033444439 -0.016946737 0.175
0.020432258 -0.016782891 0.17499998
0.020594664 -0.011043157 0.175
0.018054152 -0.01063063 0.175
0.021749621 -0.01064576 0.175
0.009031672 -0.0096579622 0.175
0.02138136 -0.0091906115 0.175
0.0073013101 -0.0082769152 0.175
0.0065923473 -0.0066773221 0.175
0.012193059 -0.0061023575 0.175
0.022045428 -0.0052140444 0.175
0.0043653436 -0.0048946966 0.175
0.0054296483 -0.004960754 0.175
0.009338893 -0.0041517001 0.175
0.021742431 -0.0043417085 0.175
0.0030595621 -0.0037546321 0.175
0.021767192 -0.0035757984 0.175
0.0018326949 -0.0022255159 0.175
0.01135093 -0.0017627487 0.175
0.015978063 -0.0010030363 0.175
0.0051551014 -0.00094581471 0.175
0.0095960246 0.00021423097 0.17478576
0.019612178 0.00035413294 0.17464586
0.0037688715 -0.042727415 0.17500001
0.023317523 -0.037472323 0.17500001
0.010933035 -0.02888109 0.17500001
0.0031828107 -0.02794674 0.17500001
0.0078471266 -0.025645537 0.17500001
0.010384453 -0.025313804 0.17500001
0.0020622369 -0.021709327 0.17500001
0.013509565 -0.021428721 0.17500001
0.0018182759 -0.019056663 0.17500001
0.022676777 -0.015436986 0.17500001
0.0017918857 -0.0060803327 0.17500001
