# .PCD v0.7 - Point Cloud Data file format
VERSION 0.7
FIELDS x y z
SIZE 4 4 4
TYPE F F F
COUNT 1 1 1
WIDTH 294
HEIGHT 1
VIEWPOINT 0 0 0 1 0 0 0
POINTS 294
DATA ascii
0.053075582 0.038872588 0.025
0.061916761 0.039747238 0.025
0.10979693 0.044187836 0.025
0.070931144 0.040951885 0.025107224
0.10328559 0.044309638 0.025079915
0.070062332 0.040450286 0.025818381
0.10388365 0.043273766 0.026766449
0.071010754 0.040997844 0.028575756
0.10287371 0.045023028 0.030808624
0.10424431 0.042649072 0.031133331
0.104241 0.04265482 0.03197952
0.071169809 0.041089669 0.032986976
0.067980334 0.039248262 0.033394814
0.072491571 0.04185278 0.03384595
0.073366955 0.042358179 0.035374194
0.10395147 0.043156296 0.038288943
0.069595218 0.040180601 0.039675251
0.073317081 0.042329378 0.039501853
0.10295475 0.044882655 0.039543167
0.073016226 0.042155683 0.045658663
0.072788939 0.042024463 0.048330165
0.068016253 0.039268997 0.05123952
0.10399646 0.043078389 0.053479116
0.10435422 0.042458732 0.054227281
0.067749865 0.039115205 0.054824471
0.071802385 0.041454893 0.057161707
0.10421267 0.042703874 0.061226584
0.071228281 0.041123431 0.063691065
0.070421703 0.040657766 0.064563401
0.10394466 0.043168098 0.064747959
0.068153709 0.039348364 0.065392137
0.069198377 0.039951485 0.072453484
0.069411732 0.040074669 0.072397888
0.10337397 0.044156544 0.075162157
0.068635181 0.039626334 0.076103136
0.10476605 0.041745409 0.076582968
0.071910277 0.041517179 0.077798143
0.069644801 0.040209226 0.084242165
0.066039175 0.038127553 0.087357447
0.10441145 0.042359598 0.087434754
0.067801595 0.039145071 0.091242746
0.068000108 0.03925968 0.092477679
0.070703462 0.040820435 0.09274821
0.068045363 0.039285805 0.093874544
0.10435947 0.04244962 0.094627462
0.071371511 0.041206129 0.095302112
0.10403232 0.043016266 0.095265858
0.10420323 0.042720236 0.096771508
0.068422131 0.039503329 0.098142743
0.070072763 0.040456302 0.099943399
0.067191616 0.038792901 0.10003376
0.070081338 0.040461257 0.10019502
0.071593441 0.041334253 0.10041881
0.10355585 0.043841515 0.10199596
0.069951415 0.040386252 0.10450163
0.067983665 0.039250184 0.10662752
0.070880145 0.040922441 0.10652365
0.10405201 0.042982172 0.10894568
0.066184655 0.038211539 0.11009374
0.068027176 0.039275303 0.11716764
0.066143632 0.038187854 0.12113853
0.10484481 0.041609 0.12210798
0.069705665 0.03807782 0.12687631
0.10483567 0.041624822 0.126632
0.077388555 0.038645536 0.13022606
0.084152237 0.041720781 0.13094461
0.081120491 0.03938406 0.13145243
0.084493093 0.041369006 0.13141969
0.08507926 0.041148305 0.13190389
0.088110439 0.040125597 0.13430518
0.10443556 0.042317849 0.13714439
0.10505912 0.04123779 0.13846552
0.10258156 0.04276859 0.13925175
0.10162418 0.040938765 0.14035776
0.12810948 0.015456723 0.025
0.12758143 0.013782337 0.025000002
0.13147458 -0.0045148376 0.026503002
0.12894991 -0.00014199689 0.027068434
0.12979445 -0.0016047973 0.028801605
0.1300963 -0.0021276027 0.029433826
0.12857091 0.00051445141 0.032852568
0.12766778 0.0020786952 0.034548376
0.12900254 -0.00023315009 0.037961233
0.12756068 0.0022642007 0.038582142
0.12884688 3.6442652e-05 0.039726183
0.12984356 -0.0016898531 0.042827815
0.12667583 0.0037967768 0.054307714
0.12540472 0.0059984284 0.059416741
0.12830321 0.00097809359 0.062913857
0.12561882 0.0056276023 0.064148016
0.12624058 0.0045506703 0.065341994
0.12484208 0.006972909 0.06814453
0.12635967 0.0043444019 0.069771178
0.12486549 0.0069323722 0.074189559
0.12400242 0.0084272567 0.074916035
0.12561783 0.0056292824 0.075695589
0.12638824 0.0042949189 0.077686049
0.12494168 0.0068004234 0.080792077
0.12379157 0.0087924646 0.080929056
0.12558703 0.0056826351 0.083086431
0.12524134 0.0062813926 0.088261895
0.12254892 0.010944779 0.088159502
0.12538475 0.0060330201 0.089717701
0.12461868 0.0073598679 0.089707494
0.12234318 0.011301105 0.091403052
0.1241315 0.0082036732 0.092916511
0.12326241 0.009708982 0.093749404
0.12425524 0.0079893321 0.094731152
0.12355581 0.0092007937 0.1026049
0.12285753 0.01041026 0.1048296
0.12351225 0.0092762224 0.10578062
0.12208096 0.011755292 0.10588659
0.12095763 0.013700949 0.10992859
0.12089768 0.013804766 0.11041269
0.12192795 0.012020323 0.11615859
0.12238045 0.011236573 0.11947549
0.12109768 0.013458367 0.11971911
0.1209721 0.013675876 0.12159741
0.12044581 0.014587449 0.12220119
0.12100548 0.013618097 0.12337383
0.12035108 0.014751493 0.12954453
0.12107953 0.01348979 0.13147382
0.11849725 0.017962411 0.13313136
0.12133721 0.013043519 0.13793433
0.12154041 0.012691545 0.13949655
0.11969468 0.01588843 0.14046855
0.11874948 0.017525565 0.14011614
0.12090524 0.013791678 0.14641879
0.12036061 0.014735003 0.14811027
0.11947973 0.016260732 0.15088581
0.11943953 0.016330365 0.15137951
0.11782068 0.019134276 0.15282033
0.11998767 0.015380966 0.15399253
0.11649926 0.021423029 0.15667275
0.11724254 0.020135636 0.15815331
0.11967341 0.01592527 0.15865844
0.11955059 0.016138013 0.15930401
0.11832247 0.01826515 0.15945676
0.11623599 0.021879017 0.15928906
0.11807289 0.018697437 0.16046134
0.11611872 0.017561894 0.16785011
0.11754983 0.017819442 0.16834261
0.11784731 0.016385484 0.1697332
0.12233901 -0.044204421 0.175
0.12093845 -0.033233229 0.175
0.12216204 -0.027761571 0.175
0.12150794 -0.027419496 0.175
0.12160854 -0.026546149 0.175
0.12144406 -0.016761431 0.175
0.11996017 -0.0086494246 0.175
0.11755887 0.0077782716 0.175
0.11843003 0.0094197625 0.175
0.11759449 0.0097236456 0.175
0.12274735 -0.036322758 0.17500001
0.11901838 -0.003494045 0.17500001
0.12037424 -0.0031953834 0.17500001
0.14295311 -0.024396118 0.1739566
0.13883469 -0.017262802 0.17387533
0.10053553 0.0016288119 0.17385715
0.13355707 -0.008121796 0.17402363
0.12467267 0.0072663482 0.17436671
0.10256408 -0.054009754 0.175
0.1051181 -0.051177587 0.175
0.11514507 -0.047216494 0.175
0.11662269 -0.047222532 0.175
0.10754275 -0.04627737 0.175
0.10203388 -0.043635663 0.175
0.10700233 -0.043843754 0.175
0.11121146 -0.0433442 0.175
0.12163191 -0.043375824 0.175
0.098553091 -0.042510182 0.175
0.1099634 -0.042807527 0.175
0.11198993 -0.042313222 0.175
0.12041427 -0.041908804 0.175
0.11919905 -0.040136661 0.175
0.12790307 -0.039112467 0.175
0.13245636 -0.037813529 0.175
0.11143006 -0.037191588 0.175
0.12819648 -0.037433453 0.17499998
0.10031055 -0.036846071 0.175
0.095808417 -0.034702048 0.175
0.097052157 -0.034751356 0.175
0.10386936 -0.03421342 0.17499998
0.097947083 -0.033608023 0.175
0.10302344 -0.033674166 0.17499998
0.12813927 -0.033028699 0.175
0.12637448 -0.032907318 0.175
0.13382086 -0.032935187 0.175
0.095392682 -0.031667098 0.175
0.13718417 -0.031692088 0.175
0.14213967 -0.030822631 0.175
0.11740218 -0.029865624 0.175
0.14138104 -0.029720526 0.175
0.1202219 -0.029397346 0.175
0.10799169 -0.028270762 0.17499998
0.11907945 -0.027994487 0.175
0.13777162 -0.027794154 0.17499998
0.14466794 -0.027366253 0.17452028
0.11782715 -0.026509566 0.175
0.13135464 -0.026810177 0.175
0.13490531 -0.026712097 0.175
0.136397 -0.025643777 0.17499998
0.14065669 -0.025997309 0.17499998
0.14068834 -0.025253966 0.175
0.10816549 -0.02447661 0.175
0.10103813 -0.023357866 0.175
0.1363568 -0.023367967 0.175
0.088722214 -0.022829179 0.17499998
0.10981733 -0.02278414 0.175
0.12946126 -0.022917513 0.175
0.13653663 -0.022072859 0.175
0.095117725 -0.021573927 0.175
0.12626691 -0.021869641 0.175
0.13748826 -0.021790139 0.175
0.11428259 -0.021328963 0.175
0.11236063 -0.020713497 0.175
0.14055647 -0.020245023 0.17463437
0.088026419 -0.019655369 0.175
0.088866144 -0.019573923 0.175
0.11059976 -0.019851981 0.175
0.1333154 -0.019697255 0.175
0.12822206 -0.019381225 0.175
0.1323736 -0.018439546 0.175
0.088618837 -0.017892871 0.17499998
0.09048073 -0.017990623 0.17499998
0.10246652 -0.017372975 0.175
0.11436501 -0.017129162 0.17499998
0.12912953 -0.017293502 0.175
0.082232401 -0.016980613 0.17499998
0.10651775 -0.016614232 0.175
0.12634675 -0.016745767 0.175
0.12978145 -0.016662527 0.175
0.090546206 -0.01613066 0.175
0.10746684 -0.016347842 0.175
0.10502286 -0.015620194 0.175
0.12275048 -0.015506139 0.175
0.1107966 -0.015256233 0.175
0.10239994 -0.014916221 0.175
0.11815203 -0.013782535 0.175
0.097637206 -0.012968625 0.175
0.12608689 -0.012980282 0.175
0.087116122 -0.01210107 0.175
0.10534687 -0.012004115 0.17499998
0.13316017 -0.010649851 0.175
0.12316208 -0.0095856767 0.17499998
0.12680428 -0.0093371095 0.175
0.10870486 -0.0087720109 0.175
0.099326164 -0.0080971308 0.175
0.11645582 -0.0083700251 0.175
0.13362846 -0.0082454514 0.17476426
0.11493399 -0.0075901127 0.175
0.10402477 -0.0072852592 0.175
0.1163106 -0.0071076262 0.175
0.096248731 -0.0057523283 0.17499998
0.098415986 -0.0056729391 0.175
0.09969005 -0.005316373 0.175
0.11362701 -0.005269411 0.17499998
0.12479736 -0.0042387256 0.17499998
0.12800467 -0.0021380438 0.175
0.12138329 -0.0015961695 0.175
0.12112514 -0.00065959408 0.175
0.12124319 0.00036762864 0.175
0.11303178 0.0010870902 0.175
0.10598184 0.0034608399 0.17499369
0.10790544 0.003313021 0.175
0.12449503 0.0040798411 0.175
0.11009574 0.0059950612 0.17485592
0.11226215 0.0065608523 0.175
0.12093937 0.0071956101 0.17499998
0.11969299 0.0083656954 0.175
0.12341658 0.0094419532 0.17470866
0.1058307 -0.050221413 0.17500001
0.11315001 -0.048316158 0.17500001
0.11673009 -0.043912187 0.17500001
0.11252029 -0.043367218 0.17500001
0.11802283 -0.041117493 0.17500001
0.10851694 -0.039502189 0.17500001
0.09826348 -0.036323234 0.17500001
0.11061113 -0.036181379 0.17500001
0.11542729 -0.036457598 0.17500001
0.092437886 -0.03522566 0.17500001
0.12622073 -0.034417629 0.17500001
0.10083964 -0.033521585 0.17500001
0.10687597 -0.030908357 0.17500001
0.086115643 -0.023425654 0.17500001
0.088637814 -0.020228853 0.17500001
0.13166535 -0.018203836 0.17500001
0.11783748 -0.015684072 0.17500001
0.11732084 -0.011848501 0.17500001
0.10700132 -0.010549361 0.17500001
0.13313067 -0.010317212 0.17500001
0.093408003 -0.0095895249 0.17500001
0.11402799 -0.0083352588 0.17500001
0.093579561 -0.0048913448 0.17500001
