# .PCD v0.7 - Point Cloud Data file format
VERSION 0.7
FIELDS x y z normal_x normal_y normal_z curvature
SIZE 4 4 4 4 4 4 4
TYPE F F F F F F F
COUNT 1 1 1 1 1 1 1
WIDTH 1192
HEIGHT 1
VIEWPOINT 0 0 0 1 0 0 0
POINTS 1192
DATA ascii
0.14279592 -0.020867571 0.025 -0 0 1 0
-0.028086092 -0.13706425 0.024999999 0 0 1 0
0.22867858 -0.080473259 0.024999999 -0 0 1 0
-0.225439 -0.090336688 0.025 0 0 1 0
0.25 -0.2344853 0.0019189308 1 0 0 0
-0.12597595 -0.22476424 0.025 0 0 1 0
-0.14782241 0.15249692 0.025 0 0 1 0
0.031136354 0.045069791 0.025 -0 0 1 0
0.0088539347 -0.21882173 0.025 0 0 1 0
-0.19222148 -0.025836743 0.024999999 0 0 1 0
-0.16898958 -0.22325273 0.025 0 0 1 0
-0.15684408 0.058375444 0.025 0 0 1 0
0.025 -0.02637165 0.10049324 1 0 0 0
-0.1910115 0.099977493 0.025000002 0 0 1 0
0.014324013 0.15972716 0.025 0 0 1 0
-0.055811163 0.1935927 0.025 0 0 1 0
0.12145743 0.19141379 0.025 0 0 1 0
0.25 -0.033829704 0.0096238023 1 0 0 0
0.012896821 -0.045979761 0.175 0 0 1 0
-0.093417324 0.079927646 0.025000002 0 0 1 0
-0.02134113 -0.24452703 0.024999999 0 0 1 0
-0.019436214 -0.16748223 0.025 0 0 1 0
0.024999999 0.049013019 0.088800989 1 0 0 0
0.053757638 -0.14650699 0.025 0 0 1 0
-0.20880789 -0.052718073 0.024999999 0 0 1 0
0.14059848 -0.045095209 0.025 -0 0 1 0
-0.026630282 0.15744075 0.025000002 0 0 1 0
-0.16981697 0.25 0.015378525 0 1 0 0
0.14569086 0.0017157085 0.025 -0 0 1 0
-0.11425151 -0.2447132 0.025 0 0 1 0
0.12156196 -0.19981746 0.025 0 0 1 0
-0.032124523 -0.1742309 0.024999999 0 0 1 0
-0.1265922 0.12806349 0.025 0 0 1 0
0.10733853 0.1976694 0.025 0 0 1 0
0.02198755 0.091476932 0.025000002 0 0 1 0
-0.14070867 0.097947478 0.025000002 0 0 1 0
0.028420696 0.0026910529 0.025 -0 0 1 0
-0.044514202 0.19172509 0.025 0 0 1 0
-0.087402239 -0.23200206 0.025 0 0 1 0
-0.14568141 0.05558696 0.024999999 0 0 1 0
-0.14198172 0.13396353 0.025 0 0 1 0
0.1570465 -0.17778425 0.025000002 0 0 1 0
-0.054020062 0.21030101 0.025 0 0 1 0
0.027259573 0.17586035 0.025000002 0 0 1 0
-0.21033612 0.13716358 0.025000002 0 0 1 0
0.025 -0.014482846 0.15632419 1 0 0 0
0.13795444 0.22101715 0.025 0 0 1 0
-0.089821205 0.13951689 0.025 0 0 1 0
0.024999999 0.04099058 0.04215759 1 0 0 0
-0.14366515 -0.044642676 0.025 0 0 1 0
0.11233342 -0.2064624 0.025 0 0 1 0
0.22304913 -0.045190655 0.025 -0 0 1 0
0.25 -0.074785277 0.015645482 1 0 0 0
0.2422528 -0.18444557 0.025 -0 0 1 0
-0.068606503 0.23642875 0.025 0 0 1 0
-0.0088114515 0.25 0.023267983 -0 1 0 0
0.095184281 -0.048424259 0.025 -0 0 1 0
-0.070458278 -0.23580739 0.025 0 0 1 0
0.21093988 0.17149997 0.024999999 0 0 1 0
-0.19693691 0.055947237 0.025 0 0 1 0
-0.21265501 -0.070092335 0.025000002 0 0 1 0
0.089096926 -0.15881735 0.025 0 0 1 0
0.22095922 0.10771728 0.025 -0 0 1 0
-0.12493458 0.015714582 0.025 0 0 1 0
0.029508602 0.10629856 0.025000002 0 0 1 0
-0.13846233 0.22173232 0.024999999 0 0 1 0
-0.12750998 0.081211098 0.025 0 0 1 0
0.025 -0.009266356 0.11440667 1 0 0 0
-0.19175678 0.057660569 0.025000002 0 0 1 0
-0.0070443228 -0.089184761 0.025 0 0 1 0
0.25 0.16383414 0.023624061 1 0 0 0
0.0065203756 0.21562476 0.024999999 0 0 1 0
0.18712883 -0.11950107 0.025000002 -0 0 1 0
0.0079985559 0.067246974 0.025 0 0 1 0
0.019897066 0.050000004 0.10771446 0 1 0 0
0.0021499768 -0.2198983 0.025000002 0 0 1 0
-0.13712385 0.0023427531 0.025000002 0 0 1 0
0.0055932216 -0.15010524 0.025000002 0 0 1 0
0.13515301 0.18293141 0.025 -0 0 1 0
-0.050346777 0.2304579 0.025 0 0 1 0
-0.022434473 0.21885541 0.025 0 0 1 0
-0.038884934 0.10198758 0.025000002 0 0 1 0
-0.17058823 0.060383163 0.025000002 0 0 1 0
0.092033587 0.025086166 0.025000002 0 0 1 0
0.19527219 0.22972779 0.022169881 0.70710683 0.70710683 0 0
-0.16470103 -0.032066755 0.025 0 0 1 0
0.0040286556 -0.16747516 0.025000002 0 0 1 0
0.22245222 0.13763195 0.025 -0 0 1 0
0.12702125 0.21982507 0.025 0 0 1 0
0.073974513 -0.23292378 0.024999999 0 0 1 0
0.04552564 0.1375583 0.025 0 0 1 0
-0.14849983 -0.0020099692 0.025 0 0 1 0
0.058400728 0.19970424 0.025000002 0 0 1 0
0.15713441 0.16551527 0.025000002 0 0 1 0
0.24983567 0.11209036 0.025 -0 0 1 0
0.24221648 -0.20092908 0.025 -0 0 1 0
0.12914489 -0.043118309 0.025000002 -0 0 1 0
-0.048474953 0.20199233 0.025000002 0 0 1 0
0.087105639 -0.1494249 0.025 0 0 1 0
0.014428005 0.24885163 0.025 0 0 1 0
0.025010129 -0.086440817 0.025 0 0 1 0
0.25 0.14650486 0.0036788927 1 0 0 0
-0.11234853 -0.019031154 0.025000002 0 0 1 0
0.025000002 -0.025884032 0.11156853 1 0 0 0
-0.10262739 0.17022711 0.025 0 0 1 0
0.031676207 0.10393705 0.025000002 0 0 1 0
0.013020705 -0.07067278 0.025 0 0 1 0
-0.17246038 0.0019524395 0.025 0 0 1 0
0.16207062 0.21694106 0.025 0 0 1 0
-0.051946778 0.17409351 0.024999999 0 0 1 0
-0.22096956 0.23287088 0.025 0 0 1 0
-0.1557612 0.2001031 0.025000002 0 0 1 0
0.12309811 -0.10479671 0.025 -0 0 1 0
0.20256363 -0.011388965 0.024999999 -0 0 1 0
0.044367529 0.16504376 0.025 0 0 1 0
0.20414838 -0.14817049 0.025 -0 0 1 0
0.25 0.01815505 0.011893142 1 0 0 0
0.25 -0.23189925 0.024678187 1 0 0 0
0.097229637 0.1825107 0.025000002 0 0 1 0
-0.10110852 0.11023827 0.024999999 0 0 1 0
0.14954528 0.2201277 0.025000002 0 0 1 0
-0.16248485 -0.0063527524 0.024999999 0 0 1 0
-0.13252363 -0.22034128 0.025 0 0 1 0
0.17741211 -0.23211975 0.025 0 0 1 0
0.17418037 -0.16446269 0.025 -0 0 1 0
-0.065569907 0.032629162 0.025 0 0 1 0
0.025 0.021817984 0.13951592 1 0 0 0
-0.17894921 0.23729429 0.025 0 0 1 0
-0.20762938 0.071809292 0.025000002 0 0 1 0
0.15169322 0.21458022 0.025 -0 0 1 0
0.25 -0.22453661 0.0027543681 1 0 0 0
-0.19629645 -0.01135508 0.025 0 0 1 0
0.034194112 0.12954083 0.025000002 0 0 1 0
0.25 0.10654879 0.012766344 1 0 0 0
-0.18113518 0.010259807 0.025 0 0 1 0
0.25 -0.15538876 0.0083323522 1 0 0 0
0.25 -0.16543378 0.0070100212 1 0 0 0
0.21684873 -0.037700869 0.025 -0 0 1 0
0.02788537 -0.14557062 0.025 0 0 1 0
-0.19072273 0.085485019 0.025 0 0 1 0
-0.0041065924 0.15579277 0.024999999 0 0 1 0
0.076817095 0.18731382 0.025000002 0 0 1 0
0.17961536 -0.098579213 0.025 -0 0 1 0
-0.13811427 -0.030076291 0.025 0 0 1 0
-0.040831365 0.14085424 0.024999999 0 0 1 0
0.2204363 0.056960963 0.025 -0 0 1 0
0.17561556 0.24938443 0.020893507 0.70710683 0.70710683 0 0
-0.051966067 0.13853611 0.025000002 0 0 1 0
-0.14760631 -0.20750056 0.025000002 0 0 1 0
-0.1995526 0.0078105293 0.025 0 0 1 0
0.22986148 0.05073595 0.024999999 -0 0 1 0
0.15342805 0.23869762 0.025 0 0 1 0
0.25 -0.1685641 0.0083235987 1 0 0 0
0.11573971 -0.13429724 0.025 0 0 1 0
0.22943555 0.019698374 0.025000002 -0 0 1 0
0.25 -0.012099855 0.0034601844 1 0 0 0
-0.18036127 0.047232892 0.025 0 0 1 0
-0.24869628 0.20761353 0.025 0 0 1 0
0.069947347 -0.2445522 0.025 0 0 1 0
0.10817777 -0.20222151 0.025 0 0 1 0
0.025 -0.040451623 0.12759872 1 0 0 0
0.074413158 0.25 0.0042634672 0 1 0 0
0.25 -0.05356567 0.010793449 1 0 0 0
-0.0013936274 0.16497615 0.025 0 0 1 0
0.20696156 0.21723229 0.025 0 0 1 0
0.025000002 -0.0071904678 0.10059106 1 0 0 0
0.10346855 -0.046835579 0.025 -0 0 1 0
-0.16991457 0.14383538 0.025 0 0 1 0
-0.24408048 0.15042223 0.025 0 0 1 0
-0.14191335 0.22028251 0.024999999 0 0 1 0
-0.044399016 -0.2410114 0.025 0 0 1 0
-0.021377243 0.24909557 0.025 0 0 1 0
-0.24171799 0.10460816 0.025 0 0 1 0
0.14667813 0.0079579838 0.025 -0 0 1 0
0.063760765 0.22477196 0.025 0 0 1 0
-0.034974955 0.11105726 0.025000002 0 0 1 0
0.099685907 -0.10473104 0.025000002 -0 0 1 0
0.014521692 -0.091764197 0.025 0 0 1 0
0.25 0.13901073 0.0024485225 1 0 0 0
0.0083779609 0.037232071 0.13776793 0 0.70710677 0.70710683 0
0.085299075 -0.11161482 0.025000002 0 0 1 0
0.10126895 -0.11711616 0.024999999 -0 0 1 0
0.17416899 0.038521007 0.025 -0 0 1 0
0.23007174 0.055287234 0.025000002 -0 0 1 0
-0.20146468 0.18676497 0.025 0 0 1 0
0.065511033 0.25 0.016372874 -0 1 0 0
-0.12749293 0.24366571 0.025000002 0 0 1 0
0.023927934 0.18985875 0.025 0 0 1 0
-0.201453 0.13467197 0.025000002 0 0 1 0
0.23904537 0.1123582 0.025 -0 0 1 0
-0.1219462 -0.026624296 0.025 0 0 1 0
0.024999999 0.028235551 0.051063225 1 0 0 0
0.025000002 0.04804128 0.033349205 1 0 0 0
0.068246692 0.2049876 0.025 0 0 1 0
0.078804083 -0.10179576 0.025000002 0 0 1 0
-0.19466922 -0.065561756 0.025000002 0 0 1 0
0.086383775 -0.22111493 0.025 0 0 1 0
0.048416052 -0.098070547 0.025 0 0 1 0
-0.21526265 -0.020222642 0.024999999 0 0 1 0
0.11646517 0.1812451 0.025 0 0 1 0
0.024999999 -0.039001584 0.082443051 1 0 0 0
0.025 0.02001502 0.15426958 1 0 0 0
-0.067277364 0.24766988 0.025 0 0 1 0
0.12876123 -0.045326576 0.025 -0 0 1 0
-0.13719352 0.22611253 0.024999999 0 0 1 0
-0.22432874 0.075008318 0.025 0 0 1 0
-0.18736623 0.20997512 0.025 0 0 1 0
0.1360701 -0.22441439 0.025 0 0 1 0
0.0055093858 0.09002012 0.025 0 0 1 0
0.2130367 0.1200622 0.025000002 -0 0 1 0
-0.12489019 0.091559798 0.025000002 0 0 1 0
0.23550196 0.16708519 0.025000002 0 0 1 0
0.13328007 -0.060949825 0.025 -0 0 1 0
0.21764126 -0.084614977 0.025000002 -0 0 1 0
0.096620299 -0.18158841 0.025 0 0 1 0
-0.20826775 0.18382667 0.025 0 0 1 0
0.024999999 -0.041758094 0.09561722 1 0 0 0
0.024142522 0.14431904 0.025 0 0 1 0
-0.14039741 0.19989389 0.025000002 0 0 1 0
0.2395865 -0.20354168 0.025 -0 0 1 0
0.19691825 0.16825786 0.025000002 0 0 1 0
-0.20496801 -0.047726832 0.025000002 0 0 1 0
0.064578071 -0.012046825 0.025 -0 0 1 0
0.20595384 -0.24192658 0.025 0 0 1 0
0.14372846 -0.083038285 0.025000002 -0 0 1 0
-0.19402818 0.11394431 0.025 0 0 1 0
0.025 -0.041437935 0.14502689 1 0 0 0
0.24051201 -0.23323834 0.025 -0 0 1 0
0.015707903 0.22091573 0.025000002 0 0 1 0
0.15550284 -0.13183759 0.025 -0 0 1 0
-0.24352597 0.25 0.010626963 0 1 0 0
-0.09022364 0.10979795 0.025 0 0 1 0
0.23284516 -0.03141202 0.025 -0 0 1 0
0.0096897576 -0.067492448 0.025 0 0 1 0
0.10123302 -0.18248074 0.024999999 0 0 1 0
-0.043258604 0.032252871 0.025 0 0 1 0
0.024999999 0.042362049 0.02758375 1 0 0 0
0.073273316 0.033441737 0.025 0 0 1 0
0.00067292154 -0.22672698 0.025 0 0 1 0
-0.17750469 0.22098047 0.025000002 0 0 1 0
-0.22129764 0.014158167 0.025 0 0 1 0
-0.11724307 0.019188665 0.025 0 0 1 0
-0.057957098 0.17033529 0.025000002 0 0 1 0
0.17552696 -0.18693927 0.025000002 0 0 1 0
0.14721365 -0.24655874 0.025 0 0 1 0
0.026390979 0.050432332 0.025 -0 0 1 0
0.025 0.049896859 0.12395029 1 0 0 0
0.061812632 -0.037864488 0.025 -0 0 1 0
0.08710783 -0.22997265 0.025000002 0 0 1 0
0.20736857 0.10748705 0.025 -0 0 1 0
-0.20674488 -0.032339677 0.025 0 0 1 0
0.19664219 0.21412794 0.024999999 0 0 1 0
0.010384453 -0.025313804 0.17500001 0 0 1 0
0.026167788 -0.19385365 0.025 0 0 1 0
0.23981078 0.15879758 0.025000002 -0 0 1 0
0.24616146 0.15599552 0.025000002 -0 0 1 0
0.031138707 -0.054980583 0.025 -0 0 1 0
0.081529498 -0.059341334 0.025 -0 0 1 0
0.21085486 -0.084982142 0.025 -0 0 1 0
0.1390259 0.17544375 0.025 0 0 1 0
0.25 0.10138879 0.0069329021 1 0 0 0
-0.12813169 0.23525518 0.025000002 0 0 1 0
-0.080093287 -0.19749558 0.024999999 0 0 1 0
0.00094370544 0.055537835 0.024999999 0 0 1 0
-0.10033484 0.086027466 0.025 0 0 1 0
0.012437277 0.24587379 0.025 0 0 1 0
-0.047329165 0.24066216 0.024999999 0 0 1 0
-0.13967773 0.22218099 0.025 0 0 1 0
0.11310555 0.22076209 0.025 0 0 1 0
0.08722765 -0.047693461 0.025 -0 0 1 0
0.15433878 0.22382119 0.025 0 0 1 0
-0.11962013 0.13627107 0.025 0 0 1 0
-0.12403856 0.072863638 0.025 0 0 1 0
0.043038756 -0.063999608 0.025 -0 0 1 0
0.16844977 0.13144195 0.025 0 0 1 0
0.065331213 0.0012416262 0.025 0 0 1 0
0.20050228 0.18773052 0.025 0 0 1 0
0.19806463 0.062776409 0.025 -0 0 1 0
-0.17520781 0.18034932 0.025000002 0 0 1 0
0.11144571 0.21861501 0.025 0 0 1 0
-0.19325189 0.15084139 0.024999999 0 0 1 0
-0.16093487 -0.055379853 0.025000002 0 0 1 0
-0.0054476932 0.23071635 0.025 0 0 1 0
-0.068692267 -0.18321279 0.024999999 0 0 1 0
-0.050632261 -0.24966268 0.025 0 0 1 0
-0.23892608 -0.042272475 0.025 0 0 1 0
0.24947129 0.17552872 0.00055770727 0.70710683 0.70710683 0 0
-0.20487107 0.15818176 0.025 0 0 1 0
-0.066738211 -0.16050781 0.025 0 0 1 0
0.026265241 -0.13988405 0.025000002 0 0 1 0
0.089859739 -0.15376928 0.025 0 0 1 0
-0.24638464 -0.092293672 0.025 0 0 1 0
-0.14610641 -0.016202278 0.025 0 0 1 0
0.25 -0.21581462 0.021245671 1 0 0 0
0.16136229 0.02356343 0.025 -0 0 1 0
0.1380863 0.04633379 0.025 -0 0 1 0
-0.13815814 -0.23164193 0.025000002 0 0 1 0
0.013719708 -0.21736382 0.025 0 0 1 0
0.05168847 0.15508355 0.025 0 0 1 0
0.010044409 0.050000001 0.03748326 0 1 0 0
0.20582482 -0.20694712 0.025000002 -0 0 1 0
-0.043774724 0.24557838 0.025000002 0 0 1 0
-0.16235828 0.025680583 0.025000002 0 0 1 0
-0.16288421 0.046148267 0.025 0 0 1 0
0.041825123 -0.23664503 0.025 0 0 1 0
0.17607018 0.2489298 0.0087491199 0.70710683 0.70710683 0 0
0.16125712 -0.2375382 0.025000002 0 0 1 0
0.089650333 0.25 0.017059173 -0 1 0 0
-0.056970302 0.11436763 0.025 0 0 1 0
0.038383935 0.090124331 0.025000002 0 0 1 0
0.024241045 0.25 0.0037531282 0 1 0 0
0.24901691 0.17598309 0.019540261 0.70710683 0.70710683 0 0
0.25 -0.14687689 0.019179642 1 0 0 0
-0.099898592 0.084862262 0.025 0 0 1 0
0.21377301 -0.10077305 0.025000002 -0 0 1 0
0.16644925 0.13301864 0.025 0 0 1 0
0.14188194 0.20309813 0.025000002 -0 0 1 0
0.024999999 -0.03591264 0.057646088 1 0 0 0
-0.10496964 0.094311357 0.025000002 0 0 1 0
-0.01739445 -0.1397341 0.025 0 0 1 0
-0.016194522 0.14599447 0.025000002 0 0 1 0
-0.16493477 0.094992794 0.025 0 0 1 0
-0.20058505 0.15286149 0.025 0 0 1 0
0.22375208 -0.080206759 0.025000002 -0 0 1 0
0.23894623 -0.21395558 0.025 -0 0 1 0
-0.20321535 0.18051884 0.025000002 0 0 1 0
0.10230307 0.0017551091 0.025 -0 0 1 0
0.068185329 0.026378723 0.025000002 0 0 1 0
-0.10377925 0.149095 0.025 0 0 1 0
0.11013134 0.18460268 0.025 0 0 1 0
-0.16571124 0.022154804 0.025000002 0 0 1 0
0.15439785 -0.23802297 0.025 0 0 1 0
-0.22613722 0.21595138 0.025 0 0 1 0
0.1718587 0.21760353 0.025 0 0 1 0
-0.21565542 0.25 0.017859783 0 1 0 0
0.20903099 -0.24448484 0.025 0 0 1 0
0.056944795 0.23452477 0.025 0 0 1 0
0.025000002 -0.037794735 0.12436502 1 0 0 0
0.21688439 0.11611146 0.025 -0 0 1 0
0.25 -0.21372995 0.012946846 1 0 0 0
0.15217781 -0.027403884 0.025 -0 0 1 0
0.12212078 0.25 0.015505885 -0 1 0 0
-0.1489329 0.0038953982 0.024999999 0 0 1 0
0.25 -0.0058503076 0.024981081 1 0 0 0
0.018598204 0.050000004 0.068794757 0 1 0 0
-0.22209492 -0.048039921 0.024999999 0 0 1 0
-0.12976895 -0.022063345 0.025 0 0 1 0
-0.18984909 0.062365305 0.025000002 0 0 1 0
0.025 -0.02000384 0.089507505 1 0 0 0
-0.22173133 0.066639833 0.025 0 0 1 0
-0.14948781 0.19088584 0.024999999 0 0 1 0
0.16599822 0.12380606 0.025 0 0 1 0
-0.11646293 -0.023931665 0.025 0 0 1 0
-0.045374162 0.13464449 0.025000002 0 0 1 0
0.077807911 0.214745 0.025 0 0 1 0
0.025 -0.039904278 0.034987517 1 0 0 0
-0.10216307 0.16263083 0.024999999 0 0 1 0
-0.005369138 -0.13662659 0.025 0 0 1 0
0.24603754 0.17896245 0.0076677296 0.70710683 0.70710683 0 0
0.10861603 -0.17707564 0.025 0 0 1 0
-0.22204407 -0.030993525 0.025000002 0 0 1 0
-0.15723619 -0.22175725 0.025 0 0 1 0
-0.18848534 -0.025064215 0.025 0 0 1 0
-0.22836724 0.13958986 0.025 0 0 1 0
0.11558376 -0.13476756 0.025 0 0 1 0
0.078660339 0.15121827 0.025 0 0 1 0
-0.23333023 0.12328797 0.025 0 0 1 0
-0.11312173 -0.23054029 0.025 0 0 1 0
-0.078204177 0.24528113 0.025 0 0 1 0
0.053251721 0.19148938 0.025 0 0 1 0
0.22247729 0.15145719 0.025 0 0 1 0
0.062064193 0.21965182 0.025 0 0 1 0
-0.076406293 0.013349822 0.025 0 0 1 0
-0.12210887 -0.21719657 0.025 0 0 1 0
0.015944637 0.17743826 0.025 0 0 1 0
0.025 0.043865651 0.028939065 1 0 0 0
0.029217847 -0.23810458 0.025 0 0 1 0
-0.026894715 0.064712241 0.025 0 0 1 0
0.20809603 -0.060911883 0.025 -0 0 1 0
0.23811069 0.10910855 0.025 -0 0 1 0
0.14726138 -0.23709579 0.025 0 0 1 0
-0.13997582 0.23040372 0.025 0 0 1 0
-0.19992626 0.044942088 0.025 0 0 1 0
-0.18243778 0.15704624 0.025000002 0 0 1 0
0.21318673 -0.030012339 0.025 -0 0 1 0
-0.090146676 0.14609222 0.025 0 0 1 0
0.25 -0.0097210901 0.01453565 1 0 0 0
-0.18158038 0.044914942 0.025000002 0 0 1 0
-0.043975525 0.21997449 0.025 0 0 1 0
-0.085191965 -0.21248081 0.025000002 0 0 1 0
0.21738295 0.059910215 0.025000002 -0 0 1 0
0.18923935 0.11105521 0.024999999 -0 0 1 0
-0.078756168 -0.19912267 0.025000002 0 0 1 0
0.026003405 0.25 0.018428054 -0 1 0 0
0.15022285 -0.14854826 0.025000002 -0 0 1 0
0.024999999 0.0067567341 0.12056776 1 0 0 0
-0.024278518 0.10338738 0.025 0 0 1 0
0.073606804 0.038923699 0.025 0 0 1 0
-0.14375019 0.12977581 0.025000002 0 0 1 0
-0.18663542 0.25 0.020841738 0 1 0 0
0.027925607 -0.11432809 0.025 0 0 1 0
0.11904763 -0.066384003 0.025 -0 0 1 0
0.044717051 0.25 0.024567332 -0 1 0 0
0.21450853 -0.077868879 0.025 -0 0 1 0
-0.20863913 0.23627369 0.025 0 0 1 0
-0.21139544 -0.068106934 0.025000002 0 0 1 0
-0.056838162 -0.12681183 0.024999999 0 0 1 0
0.13829042 -0.1292915 0.025 -0 0 1 0
0.13595463 -0.2198272 0.025000002 0 0 1 0
0.1781107 -0.22290459 0.025 0 0 1 0
0.11154494 -0.086418748 0.025 -0 0 1 0
0.014403023 -0.20004269 0.025 0 0 1 0
-0.028222218 0.17015323 0.025000002 0 0 1 0
-0.22556269 0.04290805 0.025 0 0 1 0
0.0133936 -0.12994987 0.025 0 0 1 0
-0.22042622 0.19129775 0.025000002 0 0 1 0
-0.079670712 0.12696676 0.025 0 0 1 0
-0.065946855 0.18638052 0.025 0 0 1 0
-0.10097291 0.057232521 0.024999999 0 0 1 0
-0.099378072 0.082739443 0.025000002 0 0 1 0
-0.017810553 -0.18955782 0.025 0 0 1 0
0.12898688 0.22908814 0.025 0 0 1 0
0.18379429 0.15273865 0.025 0 0 1 0
0.0067007691 0.19181417 0.025000002 0 0 1 0
-0.19072437 -0.035843901 0.025 0 0 1 0
0.100263 0.1089194 0.025000002 -0 0 1 0
0.13173288 -0.0011017509 0.025 -0 0 1 0
0.025000002 -0.047948264 0.078034222 1 0 0 0
-0.035671089 -0.13729754 0.025 0 0 1 0
0.1624804 0.064774059 0.025 -0 0 1 0
0.13270754 -0.060874242 0.025 -0 0 1 0
-0.21734637 0.24094571 0.025 0 0 1 0
-0.22101739 0.19896595 0.025 0 0 1 0
0.0086691305 -0.20502195 0.025 0 0 1 0
-0.017725591 0.17539033 0.025 0 0 1 0
-0.031870767 -0.12679689 0.025000002 0 0 1 0
0.17579608 -0.10774965 0.025 -0 0 1 0
-0.050137132 0.22199747 0.025 0 0 1 0
-0.10550212 0.047020786 0.025000002 0 0 1 0
-0.21845396 0.25 0.017733367 0 1 0 0
0.00089488924 -0.17040807 0.025000002 0 0 1 0
-0.18544574 0.12691569 0.025 0 0 1 0
0.22943938 0.16361989 0.025 0 0 1 0
0.089318603 -0.062582284 0.025 -0 0 1 0
0.011819463 0.25 0.0097370567 -0 1 0 0
-0.0052776784 -0.12074717 0.025 0 0 1 0
0.031897262 -0.23762098 0.025 0 0 1 0
-0.15568648 0.063304484 0.025 0 0 1 0
0.025 0.026760506 0.097527213 1 0 0 0
-0.24284467 -0.030770727 0.025000002 0 0 1 0
-0.13783878 0.038538091 0.025000002 0 0 1 0
0.17272179 0.23445432 0.025 0 0 1 0
0.18833348 -0.23947826 0.024999999 0 0 1 0
0.25 -0.02527437 0.02010995 1 0 0 0
0.10304051 0.061925553 0.025 0 0 1 0
-0.099869274 0.15494746 0.024999999 0 0 1 0
-0.17414455 0.14142051 0.025 0 0 1 0
-0.19473892 -0.047550138 0.025000002 0 0 1 0
0.23747528 -0.10353144 0.025000002 -0 0 1 0
0.18720219 0.18142822 0.025000002 0 0 1 0
0.099004447 -0.060098618 0.025 -0 0 1 0
0.25 -0.014848053 0.020174239 1 0 0 0
0.23769072 0.18730928 0.021410078 0.70710683 0.70710683 0 0
-0.17393106 -0.056087233 0.024999999 0 0 1 0
0.18850571 0.12861867 0.025 0 0 1 0
0.096029341 -0.24603926 0.025 0 0 1 0
0.078445904 0.011128454 0.025000002 0 0 1 0
-0.044938199 0.038432844 0.025 0 0 1 0
0.21249138 0.049888775 0.025000002 -0 0 1 0
0.13062237 0.10609014 0.025 0 0 1 0
0.25 0.12417197 0.012135595 1 0 0 0
0.12540996 0.074770391 0.025 0 0 1 0
-0.0083433092 -0.123779 0.025 0 0 1 0
-0.086032718 -0.00096840598 0.024999999 0 0 1 0
-0.11543094 0.01275482 0.025000002 0 0 1 0
0.056247279 0.041646633 0.025 -0 0 1 0
0.025 0.041173827 0.056695055 1 0 0 0
0.16990516 0.19932199 0.025 0 0 1 0
0.025 -0.00018136576 0.039040439 1 0 0 0
-0.18012482 0.0014587119 0.025 0 0 1 0
0.14749551 -0.082557455 0.025000002 -0 0 1 0
0.099117242 0.10733254 0.025 -0 0 1 0
0.22606948 -0.21004829 0.025 -0 0 1 0
-0.030018181 -0.20794788 0.025 0 0 1 0
0.110188 -0.24136317 0.025 0 0 1 0
0.20142575 -0.0030141175 0.025 -0 0 1 0
-0.1779083 0.053710707 0.025 0 0 1 0
0.072427459 -0.23070656 0.025 0 0 1 0
0.014316007 -0.17567781 0.025000002 0 0 1 0
0.069902673 0.22331928 0.025 0 0 1 0
0.21068327 -0.0082221776 0.024999999 -0 0 1 0
-0.00011699647 -0.1722814 0.025 0 0 1 0
-0.08707729 -0.20323029 0.024999999 0 0 1 0
0.083374321 0.22318041 0.025 0 0 1 0
0.2031692 -0.05981008 0.025 -0 0 1 0
0.20855328 0.13792634 0.025 0 0 1 0
-0.17349216 0.010701653 0.025000002 0 0 1 0
0.059208442 -0.103903 0.025 0 0 1 0
0.21319102 0.033854999 0.025000002 -0 0 1 0
-0.17751783 0.24479865 0.025 0 0 1 0
-0.12642641 0.072924599 0.025000002 0 0 1 0
-0.026252873 0.21029785 0.025 0 0 1 0
0.23297003 0.19202995 0.024114087 0.70710683 0.70710683 0 0
0.16102757 -0.049332879 0.024999999 -0 0 1 0
-0.066315033 -0.15357605 0.025 0 0 1 0
0.029297434 -0.0016809236 0.024999999 -0 0 1 0
0.21004073 -0.027771361 0.025 -0 0 1 0
-0.21221481 -0.075220108 0.025000002 0 0 1 0
0.060955185 0.091500327 0.025000002 -0 0 1 0
-0.22787309 0.043059349 0.025 0 0 1 0
0.025 0.0088536851 0.15294674 1 0 0 0
-0.23999213 0.23815897 0.025 0 0 1 0
0.25 0.16414934 0.0078231916 1 0 0 0
0.088843293 0.12762715 0.025 -0 0 1 0
-0.02230477 -0.13681298 0.025000002 0 0 1 0
-0.11745368 0.095650628 0.025000002 0 0 1 0
-0.098872446 0.17477542 0.025 0 0 1 0
0.035974607 -0.18907273 0.024999999 0 0 1 0
0.20279828 -0.022208668 0.025 -0 0 1 0
0.045509033 -0.16061947 0.025 0 0 1 0
-0.077900387 0.075148806 0.025 0 0 1 0
0.043308303 -0.012325849 0.025 -0 0 1 0
0.064275131 0.10455962 0.024999999 0 0 1 0
0.024654072 -0.036845483 0.17500001 0 0 1 0
0.06280043 -0.16942149 0.025 0 0 1 0
-0.15501729 0.2475116 0.025 0 0 1 0
-0.088631161 0.13298948 0.025000002 0 0 1 0
0.20789771 -0.17730877 0.025 -0 0 1 0
-0.084428236 0.032896657 0.025 0 0 1 0
-0.00022729486 -0.15291227 0.025 0 0 1 0
-0.13466087 0.077853233 0.025 0 0 1 0
-0.13950031 0.078622282 0.024999999 0 0 1 0
0.021307569 0.14278026 0.025 0 0 1 0
0.096019 -0.14725907 0.025 0 0 1 0
0.068965189 -0.22623113 0.025 0 0 1 0
0.25 0.083029687 0.017828254 1 0 0 0
0.009031672 -0.0096579622 0.175 0 0 1 0
-0.22940244 -0.0006397143 0.025000002 0 0 1 0
0.051561177 0.099132799 0.025000002 0 0 1 0
0.25 0.16617654 0.0046550459 1 0 0 0
0.14947005 -0.14501968 0.025 -0 0 1 0
-0.032349683 0.25 0.0049098404 0 1 0 0
0.1102432 -0.15720448 0.025 0 0 1 0
0.025000002 0.028656518 0.066273063 1 0 0 0
0.073331341 -0.096144602 0.025 0 0 1 0
0.20719945 -0.16636851 0.024999999 -0 0 1 0
0.028054368 -0.0076331105 0.025 -0 0 1 0
0.082848936 -0.2378314 0.025 0 0 1 0
-0.045121241 0.17734089 0.025 0 0 1 0
0.061452325 0.11215672 0.025 0 0 1 0
0.25 -0.059268471 0.02220583 1 0 0 0
0.025 0.029339552 0.072615892 1 0 0 0
0.21589421 0.13835825 0.025000002 -0 0 1 0
-0.16086677 0.14206375 0.025 0 0 1 0
0.047580093 -0.1706759 0.025 0 0 1 0
-0.061908364 0.19977039 0.025 0 0 1 0
0.033806093 0.075493447 0.025000002 0 0 1 0
0.14892259 0.18914849 0.025 0 0 1 0
0.025 -0.029900262 0.094508313 1 0 0 0
0.014449462 -0.23603977 0.025 0 0 1 0
0.19491273 0.23008728 0.0081158197 0.70710683 0.70710683 0 0
0.1232847 0.055795327 0.025 0 0 1 0
-0.24447501 -0.014410019 0.025 0 0 1 0
-0.022664368 0.23652191 0.025 0 0 1 0
0.1136076 0.11502898 0.024999999 0 0 1 0
-0.065600321 0.22344865 0.025 0 0 1 0
0.02423019 0.022648586 0.15235141 -0 0.70710677 0.70710683 0
0.15828221 -0.16634074 0.024999999 -0 0 1 0
0.025000002 -0.017432082 0.075558841 1 0 0 0
0.08549083 -0.15749547 0.025 0 0 1 0
0.064904332 -0.038714245 0.025 -0 0 1 0
-0.11711986 0.049858764 0.025000002 0 0 1 0
-0.23506172 0.25 0.0018313716 0 1 0 0
0.014986658 -0.038942561 0.175 0 0 1 0
0.063248985 0.056297936 0.025 -0 0 1 0
0.076017313 0.20572904 0.025 0 0 1 0
-0.0754769 0.0059653968 0.024999999 0 0 1 0
-0.12161945 0.024934923 0.025 0 0 1 0
-0.15076466 0.066706985 0.024999999 0 0 1 0
-0.11913905 0.13319217 0.025 0 0 1 0
0.025000002 -0.015951507 0.059411302 1 0 0 0
0.13419519 0.07736598 0.025 0 0 1 0
0.003414287 0.050000001 0.067411169 0 1 0 0
-0.069028504 0.10749754 0.024999999 0 0 1 0
0.021455076 0.25 0.015989605 -0 1 0 0
0.18032299 -0.20069112 0.025 0 0 1 0
-0.17384781 0.17208342 0.024999999 0 0 1 0
-0.02691076 0.20970581 0.025 0 0 1 0
0.082930982 -0.18664083 0.025 0 0 1 0
0.025 -0.04028669 0.07457348 1 0 0 0
-0.23765996 0.023093507 0.025000002 0 0 1 0
-0.20028879 -0.05844298 0.024999999 0 0 1 0
0.038075261 0.07965678 0.025 0 0 1 0
0.19593415 0.064791314 0.025 -0 0 1 0
0.034786776 0.088071965 0.025 0 0 1 0
0.022052467 0.20360282 0.025 0 0 1 0
0.22918984 -0.22529359 0.025 -0 0 1 0
0.21177028 0.0073442087 0.025000002 -0 0 1 0
-0.10498673 -0.18435465 0.024999999 0 0 1 0
0.15206923 0.077226266 0.024999999 0 0 1 0
0.050181963 -0.22883752 0.024999999 0 0 1 0
0.090942234 -0.20876081 0.025 0 0 1 0
0.15982649 -0.024579883 0.025 -0 0 1 0
-0.094946191 0.15193394 0.025 0 0 1 0
0.22667499 -0.026534967 0.025000002 -0 0 1 0
0.058696184 -0.11617644 0.025000002 0 0 1 0
-0.21236764 0.11624938 0.025 0 0 1 0
0.1858326 0.23916739 0.012057978 0.70710683 0.70710683 0 0
0.022485578 0.10749863 0.025 0 0 1 0
-0.16983172 0.1309316 0.025 0 0 1 0
-0.24090715 0.14594483 0.025000002 0 0 1 0
-0.161575 0.21666716 0.025 0 0 1 0
0.19421822 -0.24037296 0.025 0 0 1 0
-0.19071281 -0.0022612736 0.025000002 0 0 1 0
0.11004381 0.18902582 0.025000002 0 0 1 0
0.025177848 -0.17078319 0.025 0 0 1 0
-0.053354949 0.075200953 0.025 0 0 1 0
0.01085246 0.050000001 0.075666375 0 1 0 0
-0.1075104 0.19095172 0.025 0 0 1 0
0.19798137 -0.017541848 0.025000002 -0 0 1 0
0.079809539 0.2307194 0.025 0 0 1 0
-0.24901024 -0.019511849 0.025 0 0 1 0
0.096420079 -0.037412249 0.025 -0 0 1 0
0.23987235 0.15501252 0.025000002 -0 0 1 0
-0.11962879 -0.024185792 0.025000002 0 0 1 0
0.052737456 0.024698479 0.025 -0 0 1 0
0.093659595 -0.21208148 0.025 0 0 1 0
0.1613622 -0.23069006 0.025 0 0 1 0
-0.20436141 -0.0422424 0.025000002 0 0 1 0
0.058587343 -0.10219564 0.025000002 0 0 1 0
0.025000002 0.028359586 0.050919961 1 0 0 0
0.14146629 0.11673367 0.025 0 0 1 0
0.1899495 0.17226306 0.025 0 0 1 0
-0.07567624 -0.23601922 0.024999999 0 0 1 0
0.16240665 -0.094477907 0.025 -0 0 1 0
0.14987451 -0.12026942 0.025 -0 0 1 0
-0.14024873 0.084503122 0.025 0 0 1 0
0.097906299 -0.23455815 0.025 0 0 1 0
0.13126172 -0.2113061 0.025 0 0 1 0
0.10427909 0.11604431 0.025 -0 0 1 0
0.20153433 -0.037104316 0.025 -0 0 1 0
-0.2339111 0.063072905 0.025 0 0 1 0
0.23825586 -0.07762143 0.025 -0 0 1 0
0.032543678 0.088866718 0.025 0 0 1 0
-0.18067133 0.08657749 0.025000002 0 0 1 0
0.12915723 0.068616971 0.025 0 0 1 0
0.13212419 -0.032097191 0.025000002 -0 0 1 0
0.25 0.15011469 0.0078888601 1 0 0 0
-0.22451083 0.17448878 0.025 0 0 1 0
-0.039769281 0.091985047 0.025 0 0 1 0
0.017934054 -0.16781151 0.025000002 0 0 1 0
0.078573503 0.017592965 0.025000002 0 0 1 0
0.23935683 0.009967804 0.025 -0 0 1 0
0.11265889 0.042447958 0.025 0 0 1 0
0.25 -0.010928143 0.0086568296 1 0 0 0
-0.027207077 -0.11861888 0.025 0 0 1 0
-0.096655972 0.19865337 0.025 0 0 1 0
-0.082785144 0.25 0.0045449673 0 1 0 0
-0.17088974 0.059045091 0.025000002 0 0 1 0
0.020234184 0.050000001 0.10657565 0 1 0 0
0.0094434097 0.19099398 0.025 0 0 1 0
0.092838667 0.1093014 0.025 -0 0 1 0
0.16732733 -0.12405718 0.025 -0 0 1 0
0.21520109 0.18600699 0.025000002 0 0 1 0
0.15810825 0.1004511 0.025000002 0 0 1 0
-0.0061536971 0.088225901 0.025000002 0 0 1 0
-0.057313878 0.17707178 0.025 0 0 1 0
0.10298745 0.046596099 0.025000002 0 0 1 0
0.13810518 -0.18070637 0.024999999 0 0 1 0
0.025 -0.040656596 0.042288929 1 0 0 0
-0.23969831 0.10437949 0.025 0 0 1 0
0.16769066 0.14889473 0.024999999 0 0 1 0
-0.21454462 0.021787733 0.024999999 0 0 1 0
0.03212899 0.070207454 0.025 0 0 1 0
0.067571342 0.25 0.024976725 -0 1 0 0
0.10165042 0.03878548 0.025000002 0 0 1 0
0.007973874 0.050000001 0.050326131 0 1 0 0
0.0357427 -0.10630995 0.025 0 0 1 0
-0.036661774 0.20232032 0.025 0 0 1 0
0.14957601 -0.075523593 0.024999999 -0 0 1 0
-0.10664579 0.0069997869 0.025000002 0 0 1 0
-0.10209621 0.25 0.0097266724 0 1 0 0
0.055435408 -0.12389544 0.025 0 0 1 0
-0.231398 0.18229336 0.025 0 0 1 0
0.042744406 -0.026009083 0.025 0 0 1 0
0.12088466 0.11749564 0.025 0 0 1 0
0.17540723 0.09252362 0.025000002 -0 0 1 0
0.25 0.13485196 0.017499974 1 0 0 0
0.19622277 0.14874783 0.025000002 0 0 1 0
-0.18610433 -0.23777133 0.025000002 0 0 1 0
-0.20762697 0.01304993 0.025 0 0 1 0
-0.1121847 0.1174892 0.025000002 0 0 1 0
0.0574954 -0.030946735 0.025 -0 0 1 0
-0.099080019 -0.20599806 0.025 0 0 1 0
-0.17666231 0.2259201 0.025 0 0 1 0
0.023518078 0.097252637 0.025000002 0 0 1 0
0.18742332 0.068913914 0.025 -0 0 1 0
-0.23903643 0.2175445 0.025 0 0 1 0
-0.086912572 0.016019268 0.025 0 0 1 0
0.23952848 -0.00052578747 0.025 -0 0 1 0
0.19319315 0.032382756 0.024999999 -0 0 1 0
-0.19322693 0.18058729 0.025 0 0 1 0
0.062031798 0.1747618 0.025 0 0 1 0
-0.22184986 0.071087107 0.025 0 0 1 0
0.07415162 0.02409333 0.025 0 0 1 0
-0.086528942 0.22960246 0.025 0 0 1 0
0.22262599 -0.19189198 0.025 -0 0 1 0
0.19316009 0.23183991 0.0060067233 0.70710683 0.70710683 0 0
0.0055903075 -0.025693374 0.175 0 0 1 0
0.0053811222 0.25 0.020246422 -0 1 0 0
-0.2167369 -0.06470938 0.025 0 0 1 0
0.019111127 -0.21446314 0.025 0 0 1 0
-0.10581298 0.019655453 0.025 0 0 1 0
0.14112362 0.059752472 0.025000002 -0 0 1 0
0.16129798 -0.1960281 0.025 0 0 1 0
-0.072166458 0.17762858 0.025 0 0 1 0
-0.2132957 -0.018563755 0.024999999 0 0 1 0
0.16345753 -0.1176474 0.025000002 -0 0 1 0
-0.10058858 0.15500823 0.025000002 0 0 1 0
0.0054011717 -0.16412446 0.025000002 0 0 1 0
0.039088339 0.19245937 0.025 0 0 1 0
-0.013305016 -0.24715361 0.025 0 0 1 0
0.049669877 0.047148272 0.025000002 -0 0 1 0
0.25 0.010929309 0.0038604946 1 0 0 0
0.10540362 -0.13514125 0.025 0 0 1 0
0.11890711 -0.11636477 0.025 -0 0 1 0
-0.077462792 0.077088483 0.025 0 0 1 0
0.19446427 -0.0047952309 0.025 -0 0 1 0
0.077092715 -0.12521692 0.025 0 0 1 0
0.18200928 0.20211391 0.025000002 0 0 1 0
0.054476533 -0.10398285 0.025 0 0 1 0
-0.24507555 0.14285459 0.025 0 0 1 0
-0.16501462 0.037204318 0.025 0 0 1 0
0.025000002 -0.00087494962 0.050029125 1 0 0 0
0.19593567 -0.13483921 0.025 -0 0 1 0
-0.17847578 0.24965987 0.025000002 0 0 1 0
-0.20610453 0.055011623 0.024999999 0 0 1 0
-0.14117576 0.15221214 0.025 0 0 1 0
0.0062119346 -0.068101101 0.025 0 0 1 0
0.019452561 0.15364747 0.025 0 0 1 0
-0.10392699 0.17608404 0.025 0 0 1 0
-0.23756962 0.12684564 0.025 0 0 1 0
-0.14646463 0.079035468 0.025 0 0 1 0
0.002797842 -0.079579197 0.025 0 0 1 0
-0.12998161 -0.0025452375 0.025 0 0 1 0
0.16102357 0.19981021 0.024999999 0 0 1 0
0.2193813 -0.17159379 0.025 -0 0 1 0
-0.014972888 0.21419007 0.024999999 0 0 1 0
-0.10757239 -0.21448155 0.025 0 0 1 0
0.051198177 -0.2065623 0.025000002 0 0 1 0
-0.0090759806 0.25 0.0099489084 0 1 0 0
-0.009198755 -0.2426524 0.025000002 0 0 1 0
0.0056336448 0.22567621 0.024999999 0 0 1 0
0.22141835 -0.1904739 0.025 -0 0 1 0
0.23634797 -0.021571927 0.025 -0 0 1 0
0.030585025 0.003204301 0.025000002 -0 0 1 0
0.2283777 0.19662231 0.024886053 0.70710683 0.70710683 0 0
0.079360798 -0.19019589 0.025 0 0 1 0
-0.10063828 0.18968877 0.025 0 0 1 0
0.14821528 0.22101142 0.025 0 0 1 0
-0.17226575 0.24321669 0.025 0 0 1 0
0.1863562 0.22018333 0.025 0 0 1 0
-0.02409718 0.042863112 0.025000002 0 0 1 0
0.13731089 0.040249854 0.025 -0 0 1 0
0.082748599 0.2205047 0.025 0 0 1 0
0.15827408 -0.23978396 0.025 0 0 1 0
-0.045636714 0.071743295 0.025 0 0 1 0
-0.0093406439 0.21029603 0.025 0 0 1 0
0.047972575 -0.063736372 0.025 -0 0 1 0
0.1089576 0.22027214 0.025 0 0 1 0
-0.24234051 0.019742697 0.025000002 0 0 1 0
0.25 0.12171438 0.003280594 1 0 0 0
-0.19503631 0.25 0.0028173751 0 1 0 0
0.13318542 -0.16806851 0.025 0 0 1 0
0.012658583 0.050000001 0.034148239 0 1 0 0
0.025 -0.034212235 0.15918629 1 0 0 0
0.25 -0.088962838 0.019253107 1 0 0 0
-0.081037804 0.014471223 0.025 0 0 1 0
0.038694881 0.050347321 0.025000002 -0 0 1 0
0.06668061 0.10536141 0.025 -0 0 1 0
0.15300697 -0.13810506 0.024999999 -0 0 1 0
0.12589101 -0.12548785 0.025 -0 0 1 0
-0.11194789 -0.023512697 0.024999999 0 0 1 0
0.17573768 -0.16763669 0.024999999 -0 0 1 0
-0.16761613 -0.012782469 0.025 0 0 1 0
-0.12071174 0.13409019 0.025 0 0 1 0
0.0078765238 0.050000004 0.092755035 0 1 0 0
0.18998159 0.029119201 0.025 -0 0 1 0
0.24857271 0.080636874 0.025 -0 0 1 0
0.24934453 0.069359809 0.025 -0 0 1 0
-0.09336976 0.13972712 0.025 0 0 1 0
-0.14319 0.21863534 0.024999999 0 0 1 0
-0.14957528 -0.031595767 0.025 0 0 1 0
-0.21432413 -0.072771944 0.025 0 0 1 0
0.019289024 0.050000001 0.050083376 0 1 0 0
0.042275377 0.22305463 0.025 0 0 1 0
0.13449763 -0.20674954 0.025 0 0 1 0
0.025 -0.042147432 0.12861228 1 0 0 0
-0.064664781 0.17992759 0.025 0 0 1 0
-0.1879579 0.18569674 0.024999999 0 0 1 0
-0.03010847 0.15555686 0.025000002 0 0 1 0
0.1019716 -0.14622392 0.025 0 0 1 0
-0.2404741 0.0093558207 0.025 0 0 1 0
-0.24040876 0.10769328 0.025 0 0 1 0
0.11592598 -0.2266012 0.025000002 0 0 1 0
0.025 0.021363756 0.13947417 1 0 0 0
0.14722393 0.1331926 0.024999999 0 0 1 0
0.058588162 0.25 0.00084599212 0 1 0 0
0.024999999 0.01749694 0.13819356 1 0 0 0
0.012253582 -0.20305468 0.025 0 0 1 0
0.006418325 -0.088785574 0.025 0 0 1 0
0.25 -0.039126985 0.021919843 1 0 0 0
-0.014106872 -0.10314043 0.025 0 0 1 0
0.01560398 0.10329605 0.025 0 0 1 0
0.025636934 0.2392045 0.025000002 0 0 1 0
-0.027555875 -0.11896902 0.025 0 0 1 0
-0.18081912 0.035541825 0.025000002 0 0 1 0
0.24550487 0.064950913 0.025 -0 0 1 0
-0.022316577 -0.095832936 0.025 0 0 1 0
-0.0090391692 0.055313922 0.024999999 0 0 1 0
-0.061388429 0.059610218 0.025 0 0 1 0
0.027174659 0.13424501 0.025 0 0 1 0
0.15334108 0.25 0.0092135211 -0 1 0 0
0.25 0.165188 0.024921851 1 0 0 0
-0.06578692 0.17026378 0.025 0 0 1 0
0.15508421 0.24030101 0.025 0 0 1 0
-0.18937916 -0.0095592476 0.025 0 0 1 0
0.043746289 -0.038333464 0.025 -0 0 1 0
0.15139917 -0.0056800805 0.025 -0 0 1 0
0.12323587 -0.035145238 0.025 -0 0 1 0
0.25 -0.21077885 0.022434641 1 0 0 0
-0.16946021 0.25 0.010352697 0 1 0 0
-0.0082648471 -0.14064945 0.025 0 0 1 0
0.011198126 -0.1393525 0.025 0 0 1 0
0.21823788 -0.22643426 0.024999999 0 0 1 0
0.15788016 0.25 0.011710121 -0 1 0 0
0.25 0.073634006 0.013347388 1 0 0 0
-0.1043976 0.15423864 0.025 0 0 1 0
-0.14959174 0.24575993 0.025 0 0 1 0
0.10678203 0.088794217 0.025 0 0 1 0
0.089568034 -0.13672848 0.025 0 0 1 0
0.25 0.13958469 5.2902178e-05 1 0 0 0
-0.011571977 0.1512638 0.025 0 0 1 0
-0.14439103 -0.040114194 0.025 0 0 1 0
0.1750391 0.24874881 0.025 0 0 1 0
0.0028716868 0.038326174 0.13667384 0 0.70710677 0.70710683 0
-0.0063768551 0.25 0.024151869 -0 1 0 0
-0.044068903 0.10377647 0.025000002 0 0 1 0
0.23324615 -0.16200304 0.025 -0 0 1 0
0.22759056 -0.231244 0.025 0 0 1 0
-0.24277796 0.16571958 0.025 0 0 1 0
0.064459391 -0.070807889 0.025 -0 0 1 0
0.19809294 -0.13279334 0.025000002 -0 0 1 0
-0.23645265 0.087681398 0.025 0 0 1 0
-0.23633096 0.06898547 0.025 0 0 1 0
-0.24934746 0.10389666 0.025 0 0 1 0
0.082640216 -0.22095589 0.025000002 0 0 1 0
0.04402452 -0.0805052 0.025 0 0 1 0
0.079954162 -0.077563256 0.025 -0 0 1 0
0.25 -0.039047621 0.0009175365 1 0 0 0
-0.18858728 0.071311027 0.025 0 0 1 0
-0.17702293 0.25 0.010151885 0 1 0 0
0.25 0.10374986 0.0050096265 1 0 0 0
-0.031563651 -0.14634027 0.025000002 0 0 1 0
0.15367907 -0.23047875 0.025000002 0 0 1 0
0.055156011 0.1275932 0.024999999 0 0 1 0
0.080366388 0.24490613 0.025 0 0 1 0
-0.098430321 -0.1740303 0.025000002 0 0 1 0
0.12014269 -0.14053854 0.025 0 0 1 0
-0.14862628 0.2406691 0.025000002 0 0 1 0
-0.10892987 0.17276695 0.025 0 0 1 0
0.054637074 0.053008575 0.025 -0 0 1 0
-0.22540508 0.11578586 0.025000002 0 0 1 0
0.22737896 -0.085499689 0.025000002 -0 0 1 0
0.010708893 -0.087973878 0.025 0 0 1 0
-0.091110326 -0.1660009 0.025 0 0 1 0
0.20782539 0.21717463 0.0091372067 0.70710683 0.70710683 0 0
0.25 0.010193951 0.0037579036 1 0 0 0
0.10360001 0.17097916 0.025 0 0 1 0
-0.056047879 -0.17106718 0.025 0 0 1 0
-0.087108538 0.061699279 0.024999999 0 0 1 0
0.1758634 0.0089602917 0.025 -0 0 1 0
0.1298757 0.23446459 0.025 0 0 1 0
-0.12020844 0.0044691544 0.025 0 0 1 0
-0.13104148 0.24205996 0.025 0 0 1 0
-0.06445244 0.068262413 0.025000002 0 0 1 0
0.085241809 0.19365439 0.025 0 0 1 0
0.1734813 0.23902225 0.025 0 0 1 0
0.051005252 -0.088394456 0.025 0 0 1 0
-0.12957919 -0.0077134818 0.025 0 0 1 0
0.018054152 -0.01063063 0.175 0 0 1 0
0.25 -0.11985261 0.012864722 1 0 0 0
-0.18369488 0.20384271 0.025 0 0 1 0
-0.028186373 0.22536331 0.025000002 0 0 1 0
0.023434797 -0.084706903 0.025 0 0 1 0
-0.07945767 0.20689797 0.025000002 0 0 1 0
0.06355267 -0.17670161 0.024999999 0 0 1 0
-0.16913685 0.041345552 0.025 0 0 1 0
-0.21042627 -0.052323934 0.025 0 0 1 0
-0.039830647 0.25 0.021994125 -0 1 0 0
-0.20806174 0.079698414 0.025000002 0 0 1 0
0.025 0.00021437835 0.10879418 1 0 0 0
-0.20632449 0.22730272 0.025000002 0 0 1 0
-0.0064172074 -0.15462367 0.025000002 0 0 1 0
0.069463119 0.14169809 0.025 0 0 1 0
-0.001724951 0.21734808 0.025000002 0 0 1 0
0.025 0.012406917 0.085579202 1 0 0 0
-0.059869342 0.23464653 0.024999999 0 0 1 0
0.090923145 0.020732455 0.025 0 0 1 0
-0.14532931 0.057761848 0.024999999 0 0 1 0
0.025 -0.030679509 0.15893273 1 0 0 0
0.17915404 0.090574607 0.025000002 -0 0 1 0
0.025 -0.01179141 0.093958139 1 0 0 0
-0.23027925 0.24753629 0.024999999 0 0 1 0
0.21642557 0.20857441 0.003508663 0.70710683 0.70710683 0 0
0.16986731 -0.20695782 0.025 0 0 1 0
-0.023557955 0.071848921 0.025 0 0 1 0
0.19078359 -0.047856905 0.025 -0 0 1 0
0.13605067 -0.13939463 0.025 -0 0 1 0
0.020330079 -0.16029981 0.025 0 0 1 0
0.056887221 0.1216698 0.025 0 0 1 0
0.19330308 -0.083702236 0.025000002 -0 0 1 0
-0.018964291 0.25 0.022578441 -0 1 0 0
0.075709529 0.21571039 0.025 0 0 1 0
-0.12601814 0.069194324 0.025 0 0 1 0
0.25 -0.1987198 0.010506399 1 0 0 0
-0.070521735 0.023213487 0.024999999 0 0 1 0
0.0092086717 0.1331135 0.024999999 0 0 1 0
0.12591085 0.080240317 0.025 0 0 1 0
0.23268798 -0.12219493 0.025000002 -0 0 1 0
-0.12266722 0.23223075 0.025000002 0 0 1 0
0.025 -0.042664196 0.17244318 1 0 0 0
-0.13250446 -0.23641357 0.025 0 0 1 0
-0.098276198 0.094527356 0.025 0 0 1 0
-0.2336275 0.18733302 0.025 0 0 1 0
0.013860267 0.11915116 0.024999999 0 0 1 0
-0.058606163 -0.22446033 0.025 0 0 1 0
0.23132761 0.071464546 0.024999999 -0 0 1 0
-0.068637148 0.25 0.0080932742 0 1 0 0
0.1472232 -0.06945926 0.025000002 -0 0 1 0
0.25 -0.15719831 0.0048557459 1 0 0 0
0.24063452 -0.23459101 0.025 -0 0 1 0
0.11291933 0.065369293 0.025000002 0 0 1 0
-0.11241128 0.064419687 0.025 0 0 1 0
-0.19410007 0.18785727 0.025 0 0 1 0
-0.23252696 0.13866603 0.025 0 0 1 0
0.011301041 -0.24736738 0.025000002 0 0 1 0
0.11250743 0.17924736 0.025 0 0 1 0
0.25 0.14350107 0.0061620455 1 0 0 0
0.093385823 -0.1169565 0.025 0 0 1 0
-0.16556925 0.22823282 0.025 0 0 1 0
0.0090269521 0.25 0.0088988589 0 1 0 0
0.21544085 0.10863203 0.025 -0 0 1 0
-0.038513884 -0.24574487 0.025 0 0 1 0
0.22910918 0.028435357 0.025 -0 0 1 0
0.093536444 0.0579805 0.025 0 0 1 0
0.11533515 -0.11048506 0.025000002 -0 0 1 0
0.123856 -0.10444383 0.025000002 -0 0 1 0
0.048696756 0.24661145 0.025 0 0 1 0
0.16200258 -0.16290753 0.024999999 -0 0 1 0
-0.10670151 0.082099289 0.024999999 0 0 1 0
0.025000002 -0.027240174 0.029661011 1 0 0 0
-0.0029280446 -0.13302335 0.025 0 0 1 0
0.16804877 -0.16698843 0.025 -0 0 1 0
0.23528068 -0.2007169 0.025 -0 0 1 0
0.025000002 0.031432483 0.10287341 1 0 0 0
0.13385218 -0.0057345182 0.025 -0 0 1 0
0.12575397 -0.24745059 0.025 0 0 1 0
-0.20512484 0.23401147 0.025 0 0 1 0
0.054147922 0.1877884 0.025000002 0 0 1 0
-0.16274567 0.18381384 0.025 0 0 1 0
-0.09770412 0.23942363 0.025 0 0 1 0
0.010612059 0.12775365 0.025 0 0 1 0
-0.18377917 0.091367692 0.025 0 0 1 0
-0.00046668574 0.25 0.017879762 -0 1 0 0
0.032474149 -0.17678705 0.025 0 0 1 0
0.22603196 -0.086124562 0.025 -0 0 1 0
0.089913584 0.20219898 0.025000002 0 0 1 0
-0.031104788 0.22234423 0.025000002 0 0 1 0
0.10953143 0.09807431 0.025 0 0 1 0
-0.047841694 -0.18279956 0.024999999 0 0 1 0
0.097428009 -0.045136008 0.025 -0 0 1 0
-0.10322725 -0.21214135 0.025000002 0 0 1 0
0.25 0.12559727 0.010527371 1 0 0 0
-0.012466859 -0.15916334 0.025 0 0 1 0
-0.093616918 0.058725972 0.025 0 0 1 0
0.17463599 0.039198108 0.025 -0 0 1 0
0.025 -0.025229935 0.060059018 1 0 0 0
0.16391726 -0.041116092 0.025 -0 0 1 0
0.026239902 -0.20362455 0.025000002 0 0 1 0
-0.091377363 0.25 0.015899666 -0 1 0 0
0.18204361 0.059662335 0.024999999 -0 0 1 0
0.042538833 -0.18925589 0.025 0 0 1 0
-0.20892309 0.11575031 0.025000002 0 0 1 0
-0.13160889 0.14597915 0.025 0 0 1 0
0.13616218 0.25 0.0089766141 -0 1 0 0
-0.024916045 0.23120356 0.025 0 0 1 0
0.12024137 -0.12461578 0.025 -0 0 1 0
0.19177651 0.15123339 0.025 0 0 1 0
0.089687765 0.21431917 0.025 0 0 1 0
0.075763687 -0.017739216 0.025 -0 0 1 0
0.03157413 0.17023958 0.025 0 0 1 0
0.23996884 -0.020007238 0.025 -0 0 1 0
-0.2026394 0.093187466 0.025 0 0 1 0
0.15818892 0.23142041 0.025 0 0 1 0
0.11862535 0.25 0.021268118 -0 1 0 0
-0.22490127 0.086376384 0.025 0 0 1 0
0.15206489 0.25 0.017850757 -0 1 0 0
0.25 -0.22016168 0.021410884 1 0 0 0
0.10891911 -0.2348596 0.025 0 0 1 0
-0.12603287 0.10725695 0.025 0 0 1 0
0.0062269536 0.050000001 0.056673829 0 1 0 0
0.24027222 0.094979301 0.025 -0 0 1 0
0.12219792 0.039114911 0.025 -0 0 1 0
0.060485922 0.14201681 0.025 0 0 1 0
-0.14774601 0.22206093 0.025000002 0 0 1 0
0.20419401 0.21743068 0.025 0 0 1 0
0.23007141 0.023821317 0.025000002 -0 0 1 0
0.22069833 0.03907232 0.025 -0 0 1 0
-0.23269457 -0.028152637 0.025 0 0 1 0
-0.13051371 -0.016082862 0.025 0 0 1 0
0.071802944 0.24122746 0.025 0 0 1 0
0.015182052 -0.03936328 0.175 0 0 1 0
0.25 0.056580059 0.0044356603 1 0 0 0
0.072748572 -0.15410699 0.025 0 0 1 0
-0.22320274 -0.0010388643 0.024999999 0 0 1 0
0.24915314 -0.13519573 0.025 -0 0 1 0
0.15193568 0.028764829 0.025 -0 0 1 0
0.1401742 0.18462251 0.025000002 -0 0 1 0
-0.19506645 0.25 0.019902833 0 1 0 0
0.19778757 -0.13228507 0.025 -0 0 1 0
0.1786807 0.18865356 0.025 0 0 1 0
0.15905663 -0.02920964 0.025 -0 0 1 0
0.023755457 -0.12805015 0.025 0 0 1 0
0.05848261 0.25 0.017457178 -0 1 0 0
0.14393151 -0.041229509 0.024999999 -0 0 1 0
-0.029944338 0.20817031 0.025000002 0 0 1 0
-0.1059006 0.19486395 0.024999999 0 0 1 0
0.23515564 -0.082289584 0.025 -0 0 1 0
0.20629273 0.2161611 0.025000002 0 0 1 0
0.0017475062 0.032907624 0.14209238 0 0.70710677 0.70710683 0
-0.10827243 -0.20972046 0.025000002 0 0 1 0
0.20776302 0.12702936 0.025000002 -0 0 1 0
0.02384501 0.22263232 0.025 0 0 1 0
0.11827031 0.25 0.0083813909 -0 1 0 0
-0.032477777 -0.16639593 0.025 0 0 1 0
-0.10059348 0.011842383 0.025 0 0 1 0
0.054315791 0.017352913 0.025 -0 0 1 0
0.05087126 0.13377431 0.025000002 0 0 1 0
0.047338165 -0.097226061 0.025 0 0 1 0
0.019120719 -0.059321914 0.025 0 0 1 0
0.23565179 0.056462571 0.025000002 -0 0 1 0
-0.11836182 0.11052389 0.025000002 0 0 1 0
0.084747493 -0.15209156 0.025 0 0 1 0
-0.020754695 0.069385834 0.025 0 0 1 0
0.036449313 -0.17291757 0.025 0 0 1 0
-0.030426042 0.093126155 0.025 0 0 1 0
-0.020945227 0.11347516 0.025 0 0 1 0
0.22461763 -0.095566317 0.025 -0 0 1 0
-0.099416211 0.028180465 0.024999999 0 0 1 0
0.0010230041 0.020199561 0.15480044 0 0.70710677 0.70710683 0
0.025 0.0058998335 0.16104645 1 0 0 0
0.16514918 0.25 0.0056725703 -0 1 0 0
-0.22985868 0.048598137 0.025 0 0 1 0
0.11395609 -0.022705333 0.025 -0 0 1 0
0.1843197 0.17944527 0.025000002 0 0 1 0
0.10740358 0.24830003 0.025 0 0 1 0
0.1865149 -0.14592864 0.024999999 -0 0 1 0
0.025 -0.039977752 0.16273923 1 0 0 0
-0.22592005 -0.0030294657 0.025 0 0 1 0
-0.1504283 0.15111618 0.024999999 0 0 1 0
-0.11609946 0.16307293 0.025 0 0 1 0
-0.071239449 0.25 0.023663811 -0 1 0 0
0.0091951713 0.050000001 0.038897328 0 1 0 0
0.032848131 0.019311342 0.025 -0 0 1 0
0.0085808411 -0.2202135 0.025 0 0 1 0
0.0534839 -0.020083945 0.025 0 0 1 0
0.18201604 0.1972371 0.025 0 0 1 0
0.1196982 -0.24265835 0.025 0 0 1 0
-0.028462505 0.077241257 0.025 0 0 1 0
-0.18881303 0.0048222467 0.025 0 0 1 0
-0.19348066 0.14068879 0.025 0 0 1 0
0.21632418 -0.23547156 0.025000002 0 0 1 0
-0.14321578 0.22627756 0.025000002 0 0 1 0
-0.090736344 -0.24917528 0.025 0 0 1 0
0.12655796 -0.19689929 0.025 0 0 1 0
0.23506477 0.075065032 0.025000002 -0 0 1 0
0.15515199 -0.034549091 0.025 -0 0 1 0
0.075221688 0.054620195 0.025 -0 0 1 0
0.025 -0.04600272 0.14349195 1 0 0 0
-0.11237795 0.052533951 0.025000002 0 0 1 0
-0.057894617 -0.2489565 0.025000002 0 0 1 0
-0.24061546 0.16999027 0.025 0 0 1 0
-0.17666449 0.16830072 0.024999999 0 0 1 0
0.025 -0.03561601 0.17073412 1 0 0 0
0.25 -0.042700607 0.022590674 1 0 0 0
-0.12128063 0.1978094 0.025 0 0 1 0
-0.23689686 0.23454899 0.025 0 0 1 0
0.025000002 0.033945676 0.1311487 1 0 0 0
0.087275334 0.25 0.0051114778 0 1 0 0
0.25 0.051280227 0.0043498753 1 0 0 0
0.084407121 0.19144629 0.025 0 0 1 0
-0.13808161 0.19350415 0.025 0 0 1 0
-0.18072705 0.069078907 0.025 0 0 1 0
-0.047330953 0.12312168 0.025 0 0 1 0
0.027435347 0.18103641 0.025 0 0 1 0
-0.24333024 -0.0552825 0.025 0 0 1 0
0.1199875 -0.08097633 0.025000002 -0 0 1 0
0.11917865 -0.070520304 0.025000002 -0 0 1 0
0.089899242 0.040609829 0.025 0 0 1 0
0.19565891 -0.24845076 0.025 0 0 1 0
-0.24061751 -0.0047348589 0.025000002 0 0 1 0
0.025000002 0.016879601 0.092938788 1 0 0 0
0.027039248 0.15787897 0.025 0 0 1 0
0.22570544 0.18384448 0.025 0 0 1 0
-0.22153011 0.10454336 0.025 0 0 1 0
0.090588905 -0.04475151 0.025 -0 0 1 0
0.20081919 -0.0096031576 0.025 -0 0 1 0
-0.086081661 -0.17355376 0.025000002 0 0 1 0
-0.22322586 -0.039847974 0.025 0 0 1 0
0.25 0.056959011 0.014959384 1 0 0 0
0.18376839 0.24123161 0.0039078891 0.70710683 0.70710683 0 0
0.030780211 -0.0088789277 0.025 -0 0 1 0
0.054338198 0.10447374 0.025 0 0 1 0
0.0029943585 -0.15380174 0.025 0 0 1 0
0.14812104 -0.21996158 0.024999999 0 0 1 0
0.064160101 0.23410766 0.025 0 0 1 0
-0.1832974 0.0041623302 0.025000002 0 0 1 0
0.088757321 -0.14567234 0.025 0 0 1 0
-0.12466292 0.22151631 0.024999999 0 0 1 0
0.061183561 0.10523528 0.025 0 0 1 0
-0.19256964 0.032423288 0.025 0 0 1 0
0.17098561 -0.087476678 0.025 -0 0 1 0
0.028031416 -0.23284602 0.025 0 0 1 0
-0.18481375 0.14002639 0.025 0 0 1 0
0.15930149 0.15216213 0.025000002 0 0 1 0
0.24517141 0.17982858 0.00098817167 0.70710683 0.70710683 0 0
0.025 -0.01431186 0.079239339 1 0 0 0
-0.055811256 0.050897948 0.025 0 0 1 0
0.08631213 0.13536316 0.025000002 0 0 1 0
-0.016393758 -0.20382476 0.025000002 0 0 1 0
0.25 0.006709896 0.02098532 1 0 0 0
0.03902816 -0.23721698 0.024999999 0 0 1 0
-0.13926467 0.10604805 0.024999999 0 0 1 0
-0.13969539 0.17341471 0.025000002 0 0 1 0
0.013113007 0.081543773 0.025 0 0 1 0
-0.071884587 0.214577 0.025000002 0 0 1 0
-0.032788426 0.24126133 0.025 0 0 1 0
0.031143043 -0.12331474 0.025000002 0 0 1 0
0.16109583 -0.24203753 0.025000002 0 0 1 0
0.20801586 -0.048265975 0.024999999 -0 0 1 0
-0.23867573 0.10548458 0.024999999 0 0 1 0
0.25 -0.15219508 0.0057533323 1 0 0 0
-0.17600062 -0.037903197 0.025000002 0 0 1 0
0.07767044 -0.19582255 0.025000002 0 0 1 0
0.16695419 -0.013143059 0.025000002 -0 0 1 0
0.072120808 -0.10775799 0.025 0 0 1 0
-0.15636593 -0.049217124 0.025 0 0 1 0
-0.19939093 0.15300155 0.025 0 0 1 0
0.028920062 0.091459908 0.025 0 0 1 0
0.025 -0.034554858 0.1001747 1 0 0 0
-0.075741112 0.092633829 0.025000002 0 0 1 0
-0.11059664 0.016363166 0.025000002 0 0 1 0
0.003699908 0.1055658 0.025000002 0 0 1 0
-0.032702763 -0.12597692 0.024999999 0 0 1 0
0.025 -0.019880835 0.095749028 1 0 0 0
0.14889343 -0.17337462 0.025000002 0 0 1 0
-0.21467452 0.022317789 0.025000002 0 0 1 0
-0.17463894 0.047374059 0.024999999 0 0 1 0
0.025 -0.01246368 0.03174236 1 0 0 0
-0.073084168 0.11467093 0.025000002 0 0 1 0
-0.14763659 0.25 0.020269051 -0 1 0 0
-0.20557815 -0.012439311 0.024999999 0 0 1 0
-0.023500456 0.11831007 0.025000002 0 0 1 0
0.13961498 -0.098758206 0.025 -0 0 1 0
0.073114105 -0.23386841 0.024999999 0 0 1 0
0.25 0.15030891 0.022976223 1 0 0 0
-0.1232288 0.17144565 0.025000002 0 0 1 0
-0.065537632 0.25 0.021047372 -0 1 0 0
0.085223973 -0.21191785 0.025000002 0 0 1 0
0.11389398 0.20151405 0.025 0 0 1 0
-0.13154125 -0.21722209 0.024999999 0 0 1 0
-0.029849946 0.23279434 0.025 0 0 1 0
0.07951609 0.10611743 0.025 -0 0 1 0
-0.24279343 0.11286068 0.025 0 0 1 0
0.25 -0.21508393 0.021427352 1 0 0 0
-0.1974673 -0.034393296 0.025 0 0 1 0
-0.17822352 0.094341516 0.025 0 0 1 0
0.18521088 -0.23711684 0.025000002 0 0 1 0
-0.046105471 0.19357276 0.025 0 0 1 0
0.10295806 -0.14993824 0.025 0 0 1 0
-0.0041656196 0.18023977 0.025 0 0 1 0
