# .PCD v0.7 - Point Cloud Data file format
VERSION 0.7
FIELDS x y z normal_x normal_y normal_z curvature
SIZE 4 4 4 4 4 4 4
TYPE F F F F F F F
COUNT 1 1 1 1 1 1 1
WIDTH 733
HEIGHT 1
VIEWPOINT 0 0 0 1 0 0 0
POINTS 733
DATA ascii
0.11289035 0.02767379 0.14237137 0.86602414 0.50000232 0 0
0.10972357 0.033158783 0.14238515 0.86602414 0.50000232 0 0
0.093182005 0.033645257 0.1424531 -0.35354975 0.61237639 0.70710516 0
0.094669878 0.034458466 0.14249279 -0.35354975 0.61237639 0.70710516 0
0.09884835 0.037109107 0.14228646 -0.35354975 0.61237639 0.70710516 0
0.1454082 -0.028648412 0.14272985 0.86602408 0.50000232 0 0
0.14423369 -0.026614118 0.14257015 0.86602408 0.50000232 0 0
0.14140514 -0.021714961 0.14261265 0.86602408 0.50000232 0 0
0.1403937 -0.019963112 0.14261065 0.86602408 0.50000232 0 0
0.13460088 -0.009929711 0.14257416 0.86602408 0.50000232 0 0
0.13342035 -0.0078849904 0.14255546 0.86602408 0.50000232 0 0
0.1305552 -0.0029224101 0.1426678 0.86602408 0.50000232 0 0
0.06419991 0.016748883 0.14259501 -0.35354972 0.61237645 0.70710516 0
0.064255401 0.016722625 0.14264549 -0.35354972 0.61237645 0.70710516 0
0.11890825 0.017250571 0.14257151 0.86602408 0.50000232 0 0
0.11828704 0.018326502 0.14258121 0.86602408 0.50000232 0 0
0.069378808 0.019743975 0.14259058 -0.35354972 0.61237645 0.70710516 0
0.081569359 0.026699947 0.14266172 -0.35354972 0.61237645 0.70710516 0
0.086159378 0.029515529 0.14251833 -0.35354972 0.61237645 0.70710516 0
0.092251122 0.032840699 0.14268446 -0.35354975 0.61237639 0.70710516 0
0.096422099 0.035218317 0.14271083 -0.35354975 0.61237639 0.70710516 0
0.10824391 0.035721626 0.14261928 0.86602414 0.50000232 0 0
0.10620444 0.039254077 0.14272667 0.86602414 0.50000232 0 0
0.14389162 -0.02602165 0.14281927 0.86602408 0.50000232 0 0
0.14183623 -0.022461625 0.14288904 0.86602408 0.50000232 0 0
0.13542138 -0.011350841 0.14282742 0.86602408 0.50000232 0 0
0.12714656 0.0029814669 0.1429197 0.86602408 0.50000232 0 0
0.12700394 0.0032284958 0.14278737 0.86602408 0.50000232 0 0
0.12512434 0.0064840494 0.14292723 0.86602408 0.50000232 0 0
0.062318057 0.015318589 0.14289278 -0.35354972 0.61237645 0.70710516 0
0.11847278 0.018004801 0.14297898 0.86602408 0.50000232 0 0
0.067626394 0.018439546 0.14284405 -0.35354972 0.61237645 0.70710516 0
0.11651605 0.021393934 0.14299767 0.86602408 0.50000232 0 0
0.073733099 0.021869641 0.14292681 -0.35354972 0.61237645 0.70710516 0
0.080737591 0.02584004 0.14299053 -0.35354972 0.61237645 0.70710516 0
0.082466841 0.026953161 0.14289117 -0.35354972 0.61237645 0.70710516 0
0.1132279 0.027089152 0.14278042 0.86602414 0.50000232 0 0
0.084519073 0.028081985 0.14293969 -0.35354972 0.61237645 0.70710516 0
0.11168014 0.029769931 0.14289674 0.86602414 0.50000232 0 0
0.089885868 0.031389557 0.14275858 -0.35354972 0.61237645 0.70710516 0
0.10899639 0.034418292 0.14289872 0.86602414 0.50000232 0 0
0.10167055 0.037968569 0.14295323 -0.35354975 0.61237639 0.70710516 0
0.10186061 0.038123038 0.14291449 -0.35354975 0.61237639 0.70710516 0
0.14641 -0.030383583 0.1432443 0.86602408 0.50000232 0 0
0.14562421 -0.029022556 0.14312929 0.86602408 0.50000232 0 0
0.14524105 -0.028358907 0.1432164 0.86602408 0.50000232 0 0
0.14022653 -0.019673571 0.14318092 0.86602408 0.50000232 0 0
0.13738856 -0.014758075 0.1430389 0.86602408 0.50000232 0 0
0.13243987 -0.0061867367 0.14309616 0.86602408 0.50000232 0 0
0.13137212 -0.0043373946 0.14319918 0.86602408 0.50000232 0 0
0.12772377 0.0019817145 0.14323242 0.86602408 0.50000232 0 0
0.12738201 0.0025736804 0.14314389 0.86602408 0.50000232 0 0
0.12711672 0.0030331477 0.14301234 0.86602408 0.50000232 0 0
0.1262604 0.0045163296 0.14309698 0.86602408 0.50000232 0 0
0.1237675 0.0088341264 0.14305428 0.86602408 0.50000232 0 0
0.120717 0.014117725 0.14324708 0.86602408 0.50000232 0 0
0.06520018 0.016776135 0.14307153 -0.35354972 0.61237645 0.70710516 0
0.068954356 0.018895365 0.14311329 -0.35354972 0.61237645 0.70710516 0
0.11475455 0.024444932 0.143031 0.86602408 0.50000232 0 0
0.079526238 0.025044115 0.14307417 -0.35354972 0.61237645 0.70710516 0
0.080756977 0.025774388 0.14305708 -0.35354972 0.61237645 0.70710516 0
0.082172848 0.026509566 0.14312832 -0.35354972 0.61237645 0.70710516 0
0.11034204 0.032087579 0.14312603 0.86602414 0.50000232 0 0
0.11012878 0.032456964 0.14308912 0.86602414 0.50000232 0 0
0.093617305 0.032979168 0.14324763 -0.35354975 0.61237639 0.70710516 0
0.10784067 0.036420044 0.14312303 0.86602414 0.50000232 0 0
0.10416568 0.039174881 0.14315608 -0.35354975 0.61237639 0.70710516 0
0.1453526 -0.028552108 0.14341252 0.86602408 0.50000232 0 0
0.12959938 -0.0012668947 0.14326021 0.86602408 0.50000232 0 0
0.12904891 -0.00031349086 0.14341731 0.86602408 0.50000232 0 0
0.12594017 0.0050709732 0.14340042 0.86602408 0.50000232 0 0
0.12159361 0.012599409 0.1433955 0.86602408 0.50000232 0 0
0.12057827 0.014357993 0.1433685 0.86602408 0.50000232 0 0
0.12037808 0.014704747 0.14337198 0.86602408 0.50000232 0 0
0.11925675 0.01664694 0.14344753 0.86602408 0.50000232 0 0
0.067174911 0.017610516 0.14333628 -0.35354972 0.61237645 0.70710516 0
0.067407332 0.017733164 0.14334628 -0.35354972 0.61237645 0.70710516 0
0.11855344 0.017865097 0.14342928 0.86602408 0.50000232 0 0
0.068334661 0.018203836 0.14340234 -0.35354972 0.61237645 0.70710516 0
0.075232416 0.022353142 0.14325774 -0.35354972 0.61237645 0.70710516 0
0.078436807 0.024066206 0.14337635 -0.35354972 0.61237645 0.70710516 0
0.08092849 0.02545891 0.14341605 -0.35354972 0.61237645 0.70710516 0
0.083621025 0.026937451 0.14348185 -0.35354972 0.61237645 0.70710516 0
0.091858126 0.031744216 0.14343755 -0.35354975 0.61237639 0.70710516 0
0.099968009 0.036516845 0.14335921 -0.35354975 0.61237639 0.70710516 0
0.10745984 0.037079658 0.1433295 0.86602414 0.50000232 0 0
0.10218475 0.037655503 0.14348146 -0.35354975 0.61237639 0.70710516 0
0.10692906 0.037999 0.14326513 0.86602414 0.50000232 0 0
0.10283488 0.038262125 0.14328116 -0.35354975 0.61237639 0.70710516 0
0.10365776 0.038568757 0.14342704 -0.35354975 0.61237639 0.70710516 0
0.14605311 -0.029765401 0.14353663 0.86602408 0.50000232 0 0
0.14257923 -0.023748536 0.14374676 0.86602408 0.50000232 0 0
0.13858369 -0.016828112 0.1436822 0.86602408 0.50000232 0 0
0.13823806 -0.016229473 0.1435798 0.86602408 0.50000232 0 0
0.13135388 -0.0043057855 0.14361718 0.86602408 0.50000232 0 0
0.12707049 0.0031132302 0.14355801 0.86602408 0.50000232 0 0
0.12432781 0.0078636445 0.14362924 0.86602408 0.50000232 0 0
0.062939495 0.014889273 0.14357528 -0.35354972 0.61237645 0.70710516 0
0.075040892 0.021711413 0.14371774 -0.35354972 0.61237645 0.70710516 0
0.11619001 0.021958655 0.14374936 0.86602408 0.50000232 0 0
0.11591086 0.022442149 0.14372732 0.86602408 0.50000232 0 0
0.080555633 0.024905348 0.14370903 -0.35354972 0.61237645 0.70710516 0
0.11274581 0.027924152 0.14368764 0.86602414 0.50000232 0 0
0.085796595 0.02804477 0.14361066 -0.35354972 0.61237645 0.70710516 0
0.086694784 0.02860661 0.14357316 -0.35354972 0.61237645 0.70710516 0
0.08764486 0.029109709 0.1436125 -0.35354972 0.61237645 0.70710516 0
0.10041268 0.036547918 0.14355463 -0.35354975 0.61237639 0.70710516 0
0.10136187 0.037083939 0.143565 -0.35354975 0.61237639 0.70710516 0
0.10628909 0.039107453 0.1435369 0.86602414 0.50000232 0 0
0.14457858 -0.027211478 0.1439162 0.86602408 0.50000232 0 0
0.14427644 -0.026688151 0.14391251 0.86602408 0.50000232 0 0
0.13743544 -0.014839282 0.14391822 0.86602408 0.50000232 0 0
0.1349057 -0.010457644 0.14377925 0.86602408 0.50000232 0 0
0.1330459 -0.0072364183 0.14394504 0.86602408 0.50000232 0 0
0.13058269 -0.0029700191 0.14394636 0.86602408 0.50000232 0 0
0.12641394 0.0042503998 0.14393683 0.86602408 0.50000232 0 0
0.12567398 0.0055320244 0.14383519 0.86602408 0.50000232 0 0
0.12542211 0.0059683062 0.14395727 0.86602408 0.50000232 0 0
0.063627765 0.015003485 0.14382051 -0.35354972 0.61237645 0.70710516 0
0.11959535 0.016060477 0.14388612 0.86602408 0.50000232 0 0
0.11915259 0.016827345 0.14381522 0.86602408 0.50000232 0 0
0.11884793 0.017355032 0.1437635 0.86602408 0.50000232 0 0
0.081677645 0.025287854 0.14393878 -0.35354972 0.61237645 0.70710516 0
0.084055558 0.02674564 0.14386523 -0.35354972 0.61237645 0.70710516 0
0.11335985 0.026860632 0.1438933 0.86602414 0.50000232 0 0
0.1101753 0.032376386 0.14393359 0.86602414 0.50000232 0 0
0.095663369 0.033556417 0.14377072 -0.35354975 0.61237639 0.70710516 0
0.1021657 0.037237834 0.14383364 -0.35354975 0.61237639 0.70710516 0
0.10666059 0.038463995 0.14375463 0.86602414 0.50000232 0 0
0.10519315 0.038875386 0.14392918 -0.35354975 0.61237639 0.70710516 0
0.1427716 -0.024081727 0.14419001 0.86602408 0.50000232 0 0
0.14142366 -0.021747004 0.14413738 0.86602408 0.50000232 0 0
0.13885921 -0.017305326 0.14424208 0.86602408 0.50000232 0 0
0.13766067 -0.015229382 0.14409739 0.86602408 0.50000232 0 0
0.13715234 -0.014348935 0.14408329 0.86602408 0.50000232 0 0
0.1260495 0.0048816074 0.14403506 0.86602408 0.50000232 0 0
0.066026732 0.016115826 0.14405666 -0.35354972 0.61237645 0.70710516 0
0.066311985 0.016304642 0.14403576 -0.35354972 0.61237645 0.70710516 0
0.068919204 0.017819759 0.14402723 -0.35354972 0.61237645 0.70710516 0
0.071777925 0.019381225 0.1441043 -0.35354972 0.61237645 0.70710516 0
0.089914091 0.029684525 0.14424931 -0.35354975 0.61237639 0.70710516 0
0.09590289 0.033385336 0.14403865 -0.35354975 0.61237639 0.70710516 0
0.10929888 0.033894364 0.14417937 0.86602414 0.50000232 0 0
0.10865004 0.035018165 0.14423221 0.86602414 0.50000232 0 0
0.099487245 0.035312332 0.14416197 -0.35354975 0.61237639 0.70710516 0
0.10142198 0.03641101 0.14417785 -0.35354975 0.61237639 0.70710516 0
0.14604543 -0.029752115 0.14426817 0.86602408 0.50000232 0 0
0.13937043 -0.018190755 0.14443229 0.86602408 0.50000232 0 0
0.13658258 -0.01336211 0.14427969 0.86602408 0.50000232 0 0
0.13036489 -0.0025928172 0.14443985 0.86602408 0.50000232 0 0
0.12788726 0.0016985375 0.14425604 0.86602408 0.50000232 0 0
0.12643127 0.0042203609 0.14435408 0.86602408 0.50000232 0 0
0.12559499 0.0056688809 0.14443731 0.86602408 0.50000232 0 0
0.12544027 0.0059368298 0.14446667 0.86602408 0.50000232 0 0
0.12418726 0.0081070997 0.14427294 0.86602408 0.50000232 0 0
0.12394088 0.0085338484 0.14441648 0.86602408 0.50000232 0 0
0.065900929 0.015553112 0.14448109 -0.35354972 0.61237645 0.70710516 0
0.11871383 0.017587297 0.14449035 0.86602408 0.50000232 0 0
0.11841118 0.018111505 0.14430769 0.86602408 0.50000232 0 0
0.11710628 0.020371636 0.14433922 0.86602408 0.50000232 0 0
0.11628617 0.021792088 0.14446649 0.86602408 0.50000232 0 0
0.086365834 0.027563259 0.14431228 -0.35354972 0.61237645 0.70710516 0
0.11212628 0.028997215 0.14428778 0.86602414 0.50000232 0 0
0.089762077 0.029337175 0.14447412 -0.35354975 0.61237639 0.70710516 0
0.1105988 0.031642873 0.14443518 0.86602414 0.50000232 0 0
0.094307907 0.032190163 0.14427623 -0.35354975 0.61237639 0.70710516 0
0.099987864 0.035495553 0.14425361 -0.35354975 0.61237639 0.70710516 0
0.10789306 0.036329295 0.14443657 0.86602414 0.50000232 0 0
0.10227172 0.036795739 0.14426953 -0.35354975 0.61237639 0.70710516 0
0.10272288 0.036803789 0.14448813 -0.35354975 0.61237639 0.70710516 0
0.14291838 -0.024335943 0.14459461 0.86602408 0.50000232 0 0
0.13283001 -0.0068624858 0.1446618 0.86602408 0.50000232 0 0
0.13104628 -0.0037729929 0.14466055 0.86602408 0.50000232 0 0
0.13052982 -0.0028784578 0.14472118 0.86602408 0.50000232 0 0
0.1289093 -7.16832e-05 0.14466292 0.86602408 0.50000232 0 0
0.12839226 0.00082386518 0.14466949 0.86602408 0.50000232 0 0
0.12610726 0.0047815777 0.14471701 0.86602408 0.50000232 0 0
0.12211936 0.011688785 0.14468524 0.86602408 0.50000232 0 0
0.066898532 0.015981469 0.14460891 -0.35354972 0.61237645 0.70710516 0
0.076534435 0.021582386 0.14457625 -0.35354972 0.61237645 0.70710516 0
0.11401837 0.025720036 0.14455689 0.86602414 0.50000232 0 0
0.088223286 0.02833342 0.14457402 -0.35354972 0.61237645 0.70710516 0
0.092265241 0.030546255 0.14467859 -0.35354975 0.61237639 0.70710516 0
0.095305905 0.032356128 0.14463149 -0.35354975 0.61237639 0.70710516 0
0.10094707 0.03548079 0.14474599 -0.35354975 0.61237639 0.70710516 0
0.10240106 0.036425479 0.14465486 -0.35354975 0.61237639 0.70710516 0
0.10377997 0.037141249 0.14472441 -0.35354975 0.61237639 0.70710516 0
0.10490727 0.037797552 0.14471969 -0.35354975 0.61237639 0.70710516 0
0.14632389 -0.030234439 0.14492917 0.86602408 0.50000232 0 0
0.14604807 -0.029756702 0.14481933 0.86602408 0.50000232 0 0
0.14396627 -0.02615094 0.14492826 0.86602408 0.50000232 0 0
0.14030768 -0.019814124 0.14481035 0.86602408 0.50000232 0 0
0.13732585 -0.014649475 0.14484881 0.86602408 0.50000232 0 0
0.1339981 -0.0088856537 0.1448805 0.86602408 0.50000232 0 0
0.1282353 0.0010957285 0.14499514 0.86602408 0.50000232 0 0
0.12248641 0.011053038 0.14490607 0.86602408 0.50000232 0 0
0.064424731 0.014250409 0.14487118 -0.35354972 0.61237645 0.70710516 0
0.065964669 0.015103905 0.14490199 -0.35354972 0.61237645 0.70710516 0
0.067362428 0.015862875 0.14494357 -0.35354972 0.61237645 0.70710516 0
0.069602586 0.017236562 0.14487398 -0.35354972 0.61237645 0.70710516 0
0.072159037 0.018812424 0.14478746 -0.35354972 0.61237645 0.70710516 0
0.076396868 0.021107385 0.14491883 -0.35354972 0.61237645 0.70710516 0
0.11575814 0.022706682 0.14491448 0.86602414 0.50000232 0 0
0.11356323 0.026508326 0.14497851 0.86602414 0.50000232 0 0
0.11279188 0.027844356 0.14476801 0.86602414 0.50000232 0 0
0.088420123 0.028107282 0.14486825 -0.35354972 0.61237645 0.70710516 0
0.088536233 0.028172052 0.14487022 -0.35354972 0.61237645 0.70710516 0
0.090339378 0.029245479 0.14484218 -0.35354975 0.61237639 0.70710516 0
0.095711 0.032404862 0.14479183 -0.35354975 0.61237639 0.70710516 0
0.099576153 0.034682117 0.1447522 -0.35354975 0.61237639 0.70710516 0
0.10288909 0.03651873 0.1448181 -0.35354975 0.61237639 0.70710516 0
0.10367987 0.036990918 0.14480457 -0.35354975 0.61237639 0.70710516 0
0.10612667 0.038389843 0.14481643 -0.35354975 0.61237639 0.70710516 0
0.10677421 0.038267184 0.14499173 0.86602414 0.50000232 0 0
0.14533044 -0.028513741 0.14522235 0.86602408 0.50000232 0 0
0.13759853 -0.015121765 0.14500937 0.86602408 0.50000232 0 0
0.12897722 -0.00018932181 0.14513062 0.86602408 0.50000232 0 0
0.11859071 0.017800556 0.14518727 0.86602408 0.50000232 0 0
0.074994564 0.020063698 0.14512156 -0.35354972 0.61237645 0.70710516 0
0.076180249 0.020809297 0.14506868 -0.35354972 0.61237645 0.70710516 0
0.11681347 0.020878803 0.14511542 0.86602408 0.50000232 0 0
0.11591171 0.022440676 0.14505184 0.86602414 0.50000232 0 0
0.089060262 0.0281273 0.14517099 -0.35354972 0.61237645 0.70710516 0
0.0897303 0.028502291 0.14518125 -0.35354975 0.61237639 0.70710516 0
0.094664775 0.031466667 0.14508124 -0.35354975 0.61237639 0.70710516 0
0.1091077 0.034225494 0.14521518 0.86602414 0.50000232 0 0
0.1078537 0.036397476 0.14507447 0.86602414 0.50000232 0 0
0.10494927 0.037416179 0.14507097 -0.35354975 0.61237639 0.70710516 0
0.10619035 0.03805251 0.14514041 -0.35354975 0.61237639 0.70710516 0
0.14393809 -0.026102142 0.1452847 0.86602408 0.50000232 0 0
0.14275156 -0.024047013 0.14547139 0.86602408 0.50000232 0 0
0.13645023 -0.01313287 0.1452806 0.86602408 0.50000232 0 0
0.13209876 -0.0055959495 0.1454647 0.86602408 0.50000232 0 0
0.12916666 -0.00051742885 0.14541376 0.86602408 0.50000232 0 0
0.12739079 0.0025584819 0.14526474 0.86602408 0.50000232 0 0
0.12126759 0.01316407 0.14542115 0.86602408 0.50000232 0 0
0.070732854 0.017333753 0.14535494 -0.35354972 0.61237645 0.70710516 0
0.070870489 0.017293502 0.14545861 -0.35354972 0.61237645 0.70710516 0
0.071393274 0.01755867 0.14549036 -0.35354972 0.61237645 0.70710516 0
0.075303689 0.019854225 0.14545754 -0.35354972 0.61237645 0.70710516 0
0.075826392 0.020113572 0.14549428 -0.35354972 0.61237645 0.70710516 0
0.077583343 0.021275096 0.14536682 -0.35354972 0.61237645 0.70710516 0
0.11611465 0.022089185 0.14530973 0.86602414 0.50000232 0 0
0.083375886 0.024477595 0.1454896 -0.35354972 0.61237645 0.70710516 0
0.11476979 0.02441852 0.14525419 0.86602414 0.50000232 0 0
0.083826333 0.024829287 0.14541024 -0.35354972 0.61237645 0.70710516 0
0.090141401 0.028407479 0.14546892 -0.35354975 0.61237639 0.70710516 0
0.11038482 0.032013468 0.14537263 0.86602414 0.50000232 0 0
0.10005289 0.034253556 0.14536174 -0.35354975 0.61237639 0.70710516 0
0.10489127 0.037073977 0.14533833 -0.35354975 0.61237639 0.70710516 0
0.14151298 -0.021901708 0.1456894 0.86602408 0.50000232 0 0
0.13799152 -0.015802454 0.14565465 0.86602408 0.50000232 0 0
0.13481298 -0.010297091 0.14556618 0.86602408 0.50000232 0 0
0.13415775 -0.0091621876 0.14567308 0.86602408 0.50000232 0 0
0.134055 -0.008984223 0.14553973 0.86602408 0.50000232 0 0
0.12938929 -0.00090302329 0.14562386 0.86602408 0.50000232 0 0
0.12819375 0.0011676906 0.14572723 0.86602408 0.50000232 0 0
0.12265036 0.010769079 0.14562513 0.86602408 0.50000232 0 0
0.070218548 0.016662527 0.14567909 -0.35354972 0.61237645 0.70710516 0
0.072909422 0.018265221 0.14563653 -0.35354972 0.61237645 0.70710516 0
0.076038137 0.019943133 0.14574775 -0.35354972 0.61237645 0.70710516 0
0.11543997 0.023257762 0.1455189 0.86602414 0.50000232 0 0
0.083577238 0.024365634 0.14568724 -0.35354972 0.61237645 0.70710516 0
0.084521174 0.025066977 0.14555182 -0.35354972 0.61237645 0.70710516 0
0.085308462 0.025524113 0.14554957 -0.35354972 0.61237645 0.70710516 0
0.086296096 0.026121169 0.1455263 -0.35354972 0.61237645 0.70710516 0
0.11183064 0.02950925 0.14569546 0.86602414 0.50000232 0 0
0.096099205 0.031611677 0.14567286 -0.35354975 0.61237639 0.70710516 0
0.10196984 0.034945637 0.14572084 -0.35354975 0.61237639 0.70710516 0
0.10297409 0.035747454 0.14552855 -0.35354975 0.61237639 0.70710516 0
0.10508008 0.036752898 0.1457108 -0.35354975 0.61237639 0.70710516 0
0.14519198 -0.028273918 0.14599212 0.86602408 0.50000232 0 0
0.13697003 -0.014033167 0.14585194 0.86602408 0.50000232 0 0
0.1360772 -0.012486744 0.14583693 0.86602408 0.50000232 0 0
0.1347996 -0.010273889 0.1458821 0.86602408 0.50000232 0 0
0.1310066 -0.0037042666 0.14585544 0.86602408 0.50000232 0 0
0.12334724 0.0095620593 0.14598233 0.86602408 0.50000232 0 0
0.06812565 0.015140444 0.14595082 -0.35354972 0.61237645 0.70710516 0
0.11939095 0.016414503 0.14599317 0.86602408 0.50000232 0 0
0.11847593 0.017999351 0.14589117 0.86602408 0.50000232 0 0
0.11815786 0.018550258 0.14577214 0.86602408 0.50000232 0 0
0.078457795 0.021328956 0.14575739 -0.35354972 0.61237645 0.70710516 0
0.080084376 0.022257742 0.14576632 -0.35354972 0.61237645 0.70710516 0
0.080519222 0.022276163 0.14596778 -0.35354972 0.61237645 0.70710516 0
0.11369772 0.026275408 0.14589725 0.86602414 0.50000232 0 0
0.088294663 0.02681038 0.14592871 -0.35354972 0.61237645 0.70710516 0
0.090248652 0.028101524 0.14578751 -0.35354975 0.61237639 0.70710516 0
0.092246234 0.029038485 0.14597486 -0.35354975 0.61237639 0.70710516 0
0.1116429 0.029834433 0.14576769 0.86602414 0.50000232 0 0
0.14523824 -0.028354049 0.14600442 0.86602408 0.50000232 0 0
0.14500566 -0.027951222 0.14607999 0.86602408 0.50000232 0 0
0.14188977 -0.022554372 0.14617509 0.86602408 0.50000232 0 0
0.14165613 -0.022149701 0.14600849 0.86602408 0.50000232 0 0
0.14015225 -0.019544914 0.14620267 0.86602408 0.50000232 0 0
0.13679442 -0.01372901 0.1462338 0.86602408 0.50000232 0 0
0.12861346 0.00044075865 0.14602873 0.86602408 0.50000232 0 0
0.12606463 0.0048554125 0.14611304 0.86602408 0.50000232 0 0
0.12335306 0.0095519749 0.14615229 0.86602408 0.50000232 0 0
0.068487883 0.015218931 0.14606397 -0.35354972 0.61237645 0.70710516 0
0.074006826 0.018263508 0.14618671 -0.35354972 0.61237645 0.70710516 0
0.074446492 0.018555861 0.14615336 -0.35354972 0.61237645 0.70710516 0
0.11591555 0.022434043 0.14618312 0.86602414 0.50000232 0 0
0.11476272 0.024430776 0.14611791 0.86602414 0.50000232 0 0
0.088273562 0.026578566 0.14611891 -0.35354972 0.61237645 0.70710516 0
0.092488773 0.029082697 0.14605783 -0.35354975 0.61237639 0.70710516 0
0.10991496 0.032827307 0.14618368 0.86602414 0.50000232 0 0
0.10096261 0.033845816 0.14616971 -0.35354975 0.61237639 0.70710516 0
0.10792667 0.036271084 0.14615744 0.86602414 0.50000232 0 0
0.14646047 -0.030471025 0.14641137 0.86602408 0.50000232 0 0
0.14383487 -0.025923356 0.14641139 0.86602408 0.50000232 0 0
0.14038838 -0.019953899 0.14629084 0.86602408 0.50000232 0 0
0.13116284 -0.0039748624 0.14635643 0.86602408 0.50000232 0 0
0.12453037 0.007512826 0.14633232 0.86602408 0.50000232 0 0
0.12197327 0.011941816 0.14636132 0.86602408 0.50000232 0 0
0.069955193 0.015666898 0.14640966 -0.35354972 0.61237645 0.70710516 0
0.073514752 0.017727632 0.14640477 -0.35354972 0.61237645 0.70710516 0
0.075883552 0.019030979 0.14646041 -0.35354972 0.61237645 0.70710516 0
0.078737408 0.020870533 0.14629421 -0.35354972 0.61237645 0.70710516 0
0.11573979 0.022738453 0.1463948 0.86602414 0.50000232 0 0
0.086538821 0.025255023 0.14639777 -0.35354972 0.61237645 0.70710516 0
0.087463014 0.025752867 0.1464287 -0.35354972 0.61237645 0.70710516 0
0.092318214 0.028662555 0.14633642 -0.35354975 0.61237639 0.70710516 0
0.11205281 0.029124467 0.14634621 0.86602414 0.50000232 0 0
0.096094511 0.030792471 0.14637998 -0.35354975 0.61237639 0.70710516 0
0.11103827 0.030881694 0.14637803 0.86602414 0.50000232 0 0
0.096567474 0.031170392 0.14628917 -0.35354975 0.61237639 0.70710516 0
0.14332357 -0.025037766 0.14653906 0.86602408 0.50000232 0 0
0.14299875 -0.024475187 0.14663583 0.86602408 0.50000232 0 0
0.13772142 -0.015334599 0.14671247 0.86602408 0.50000232 0 0
0.12754698 0.0022879357 0.14652146 0.86602408 0.50000232 0 0
0.12658033 0.003962209 0.14670594 0.86602408 0.50000232 0 0
0.12567706 0.0055266921 0.14664704 0.86602408 0.50000232 0 0
0.12475447 0.0071246675 0.1466451 0.86602408 0.50000232 0 0
0.067775622 0.014062527 0.14670932 -0.35354972 0.61237645 0.70710516 0
0.11986394 0.015595254 0.14662851 0.86602408 0.50000232 0 0
0.07582213 0.018836394 0.14659822 -0.35354972 0.61237645 0.70710516 0
0.076610133 0.01919283 0.14668351 -0.35354972 0.61237645 0.70710516 0
0.078959629 0.020510629 0.14671701 -0.35354972 0.61237645 0.70710516 0
0.08021649 0.021268193 0.14668937 -0.35354972 0.61237645 0.70710516 0
0.11640392 0.021588139 0.14654517 0.86602414 0.50000232 0 0
0.11454535 0.024807263 0.14653879 0.86602414 0.50000232 0 0
0.11419874 0.02540762 0.14658026 0.86602414 0.50000232 0 0
0.088549748 0.026214534 0.14657226 -0.35354972 0.61237645 0.70710516 0
0.11346608 0.026676606 0.14674537 0.86602414 0.50000232 0 0
0.089722939 0.026861923 0.14659819 -0.35354975 0.61237639 0.70710516 0
0.091839194 0.028162016 0.14653039 -0.35354975 0.61237639 0.70710516 0
0.10100929 0.033290509 0.14667396 -0.35354975 0.61237639 0.70710516 0
0.10858291 0.035134465 0.1465303 0.86602414 0.50000232 0 0
0.14336923 -0.025116842 0.14692965 0.86602408 0.50000232 0 0
0.1353683 -0.011258909 0.14697529 0.86602408 0.50000232 0 0
0.13300878 -0.0071721165 0.1469508 0.86602408 0.50000232 0 0
0.12608288 0.0048237974 0.14697954 0.86602408 0.50000232 0 0
0.12168103 0.012447989 0.14680381 0.86602408 0.50000232 0 0
0.065863714 0.012870736 0.14678551 -0.35354972 0.61237645 0.70710516 0
0.073312946 0.017078713 0.14686584 -0.35354972 0.61237645 0.70710516 0
0.07464467 0.017952777 0.14677474 -0.35354972 0.61237645 0.70710516 0
0.075011835 0.018009342 0.14690933 -0.35354972 0.61237645 0.70710516 0
0.078346953 0.019869016 0.14696632 -0.35354972 0.61237645 0.70710516 0
0.084799945 0.023771793 0.14681287 -0.35354972 0.61237645 0.70710516 0
0.088703148 0.026055016 0.14678711 -0.35354975 0.61237639 0.70710516 0
0.092613623 0.028244395 0.14684626 -0.35354975 0.61237639 0.70710516 0
0.11269601 0.028010402 0.14693625 0.86602414 0.50000232 0 0
0.094900623 0.029389797 0.14699779 -0.35354975 0.61237639 0.70710516 0
0.14439632 -0.02689581 0.14703092 0.86602408 0.50000232 0 0
0.13987216 -0.019059805 0.14707254 0.86602408 0.50000232 0 0
0.13798001 -0.015782516 0.14712605 0.86602408 0.50000232 0 0
0.13728088 -0.014571587 0.14714399 0.86602408 0.50000232 0 0
0.13406542 -0.009002259 0.14704466 0.86602408 0.50000232 0 0
0.13347822 -0.0079852324 0.14723496 0.86602408 0.50000232 0 0
0.12832032 0.00094846205 0.1471694 0.86602408 0.50000232 0 0
0.12790954 0.0016599334 0.14722434 0.86602408 0.50000232 0 0
0.12288288 0.010366336 0.14714706 0.86602408 0.50000232 0 0
0.067173868 0.013350948 0.14702469 -0.35354972 0.61237645 0.70710516 0
0.12104784 0.013544692 0.14718431 0.86602408 0.50000232 0 0
0.070324346 0.015161041 0.14703232 -0.35354972 0.61237645 0.70710516 0
0.071290821 0.015696082 0.1470522 -0.35354972 0.61237645 0.70710516 0
0.071466759 0.015837755 0.14701746 -0.35354972 0.61237645 0.70710516 0
0.073933154 0.017131094 0.14713058 -0.35354972 0.61237645 0.70710516 0
0.079132125 0.020156123 0.14711027 -0.35354972 0.61237645 0.70710516 0
0.11625568 0.021844907 0.14722201 0.86602414 0.50000232 0 0
0.087415487 0.024876909 0.14716357 -0.35354972 0.61237645 0.70710516 0
0.090577736 0.026777769 0.14709848 -0.35354975 0.61237639 0.70710516 0
0.11190885 0.029373787 0.14705075 0.86602414 0.50000232 0 0
0.097987801 0.031085737 0.14707263 -0.35354975 0.61237639 0.70710516 0
0.11018993 0.032351036 0.14723201 0.86602414 0.50000232 0 0
0.10175958 0.033083472 0.1472284 -0.35354975 0.61237639 0.70710516 0
0.10338198 0.03406987 0.14718536 -0.35354975 0.61237639 0.70710516 0
0.10460189 0.034838744 0.14712942 -0.35354975 0.61237639 0.70710516 0
0.10608712 0.035758398 0.14707558 -0.35354975 0.61237639 0.70710516 0
0.14273517 -0.024018615 0.14735313 0.86602408 0.50000232 0 0
0.13889234 -0.017362678 0.14749426 0.86602408 0.50000232 0 0
0.13340941 -0.0078660455 0.1473695 0.86602408 0.50000232 0 0
0.067618646 0.013264933 0.14732158 -0.35354972 0.61237645 0.70710516 0
0.12097679 0.013667743 0.14744404 0.86602408 0.50000232 0 0
0.073653251 0.016745767 0.14732434 -0.35354972 0.61237645 0.70710516 0
0.085599765 0.023449019 0.14749232 -0.35354972 0.61237645 0.70710516 0
0.088533081 0.025329588 0.14733033 -0.35354975 0.61237639 0.70710516 0
0.089735836 0.025914595 0.14742507 -0.35354975 0.61237639 0.70710516 0
0.095166348 0.02909724 0.147384 -0.35354975 0.61237639 0.70710516 0
0.10014395 0.03199672 0.14736176 -0.35354975 0.61237639 0.70710516 0
0.10390322 0.034248039 0.14729166 -0.35354975 0.61237639 0.70710516 0
0.10804416 0.036067598 0.14744517 0.86602414 0.50000232 0 0
0.14616311 -0.029955953 0.14759828 0.86602408 0.50000232 0 0
0.1458205 -0.029362556 0.1476697 0.86602408 0.50000232 0 0
0.14002107 -0.019317698 0.1476334 0.86602408 0.50000232 0 0
0.13526517 -0.011080308 0.14757891 0.86602408 0.50000232 0 0
0.13307986 -0.0072952332 0.14771034 0.86602408 0.50000232 0 0
0.13148353 -0.0045303102 0.14774692 0.86602408 0.50000232 0 0
0.06600666 0.011956682 0.14764857 -0.35354972 0.61237645 0.70710516 0
0.071954861 0.015495906 0.14755757 -0.35354972 0.61237645 0.70710516 0
0.073622435 0.016237359 0.14774923 -0.35354972 0.61237645 0.70710516 0
0.078406386 0.019050751 0.14770469 -0.35354972 0.61237645 0.70710516 0
0.11733607 0.019973649 0.14770062 0.86602414 0.50000232 0 0
0.11727474 0.020079866 0.14766957 0.86602414 0.50000232 0 0
0.081568211 0.0208396 0.1477364 -0.35354972 0.61237645 0.70710516 0
0.088249594 0.024704486 0.14772993 -0.35354972 0.61237645 0.70710516 0
0.091487698 0.026606077 0.14770213 -0.35354975 0.61237639 0.70710516 0
0.10041212 0.031721696 0.14773402 -0.35354975 0.61237639 0.70710516 0
0.10112304 0.03214081 0.14772652 -0.35354975 0.61237639 0.70710516 0
0.10250482 0.033039767 0.14763887 -0.35354975 0.61237639 0.70710516 0
0.10980739 0.033013612 0.14756924 0.86602414 0.50000232 0 0
0.10722576 0.035911184 0.14751257 -0.35354975 0.61237639 0.70710516 0
0.14514129 -0.028186115 0.14794712 0.86602408 0.50000232 0 0
0.14420128 -0.026557965 0.14790693 0.86602408 0.50000232 0 0
0.1428391 -0.024198623 0.14797772 0.86602408 0.50000232 0 0
0.14139627 -0.021699581 0.14780822 0.86602408 0.50000232 0 0
0.14018957 -0.019609563 0.14789513 0.86602408 0.50000232 0 0
0.13454267 -0.0098288953 0.14796081 0.86602408 0.50000232 0 0
0.1288951 -4.7072186e-05 0.1478091 0.86602408 0.50000232 0 0
0.067726195 0.012705964 0.14785944 -0.35354972 0.61237645 0.70710516 0
0.07080853 0.014576646 0.14778054 -0.35354972 0.61237645 0.70710516 0
0.078577012 0.019044779 0.14779519 -0.35354972 0.61237645 0.70710516 0
0.082175612 0.020970955 0.14792633 -0.35354972 0.61237645 0.70710516 0
0.11332779 0.026916161 0.14797232 0.86602414 0.50000232 0 0
0.092672296 0.027150752 0.14782272 -0.35354975 0.61237639 0.70710516 0
0.09589456 0.029047798 0.14779094 -0.35354975 0.61237639 0.70710516 0
0.11006343 0.032570131 0.14798395 0.86602414 0.50000232 0 0
0.10468117 0.034057915 0.1478453 -0.35354975 0.61237639 0.70710516 0
0.14655438 -0.030633664 0.14816822 0.86602408 0.50000232 0 0
0.1424568 -0.023536474 0.14801183 0.86602408 0.50000232 0 0
0.14079563 -0.020659264 0.1481453 0.86602408 0.50000232 0 0
0.13907686 -0.017682299 0.14815037 0.86602408 0.50000232 0 0
0.13860756 -0.016869433 0.14807293 0.86602408 0.50000232 0 0
0.13496296 -0.01055684 0.14802688 0.86602408 0.50000232 0 0
0.12564033 0.0055902982 0.14812681 0.86602408 0.50000232 0 0
0.065646246 0.01108043 0.14822723 -0.35354972 0.61237645 0.70710516 0
0.070436426 0.013959595 0.14812887 -0.35354972 0.61237645 0.70710516 0
0.073965341 0.016035855 0.14809519 -0.35354972 0.61237645 0.70710516 0
0.074878737 0.016512912 0.14813873 -0.35354972 0.61237645 0.70710516 0
0.11891364 0.017241219 0.14821176 0.86602414 0.50000232 0 0
0.11847156 0.018006928 0.14822054 0.86602414 0.50000232 0 0
0.087087043 0.023615297 0.14809194 -0.35354972 0.61237645 0.70710516 0
0.093044788 0.027147491 0.14801177 -0.35354975 0.61237639 0.70710516 0
0.11322263 0.027098283 0.14803134 0.86602414 0.50000232 0 0
0.10033162 0.031212414 0.14813483 -0.35354975 0.61237639 0.70710516 0
0.10205054 0.032307472 0.14804593 -0.35354975 0.61237639 0.70710516 0
0.11009809 0.032510117 0.14819983 0.86602414 0.50000232 0 0
0.10356921 0.033086766 0.14813036 -0.35354975 0.61237639 0.70710516 0
0.10718882 0.03520593 0.14810488 -0.35354975 0.61237639 0.70710516 0
0.14526203 -0.028395243 0.14838935 0.86602408 0.50000232 0 0
0.13684738 -0.013820766 0.14830205 0.86602408 0.50000232 0 0
0.13634872 -0.012957041 0.14838061 0.86602408 0.50000232 0 0
0.13277708 -0.0067708041 0.14834021 0.86602408 0.50000232 0 0
0.13269672 -0.006631623 0.14826991 0.86602408 0.50000232 0 0
0.06950137 0.013153227 0.14835967 -0.35354972 0.61237645 0.70710516 0
0.12043383 0.014608189 0.1482652 0.86602408 0.50000232 0 0
0.11676389 0.020964675 0.14840004 0.86602414 0.50000232 0 0
0.083751313 0.021482896 0.14827085 -0.35354972 0.61237645 0.70710516 0
0.11577691 0.02267416 0.14843301 0.86602414 0.50000232 0 0
0.086373784 0.023018524 0.14825213 -0.35354972 0.61237645 0.70710516 0
0.088565812 0.024271445 0.14826307 -0.35354975 0.61237639 0.70710516 0
0.11474937 0.024453908 0.14827269 0.86602414 0.50000232 0 0
0.093768276 0.027250802 0.14828406 -0.35354975 0.61237639 0.70710516 0
0.11310434 0.027303148 0.14840701 0.86602414 0.50000232 0 0
0.095732108 0.028225521 0.14842184 -0.35354975 0.61237639 0.70710516 0
0.11249641 0.028356131 0.14833337 0.86602414 0.50000232 0 0
0.097258247 0.029112916 0.14841639 -0.35354975 0.61237639 0.70710516 0
0.097975723 0.029655505 0.14830522 -0.35354975 0.61237639 0.70710516 0
0.10137603 0.031452365 0.14844921 -0.35354975 0.61237639 0.70710516 0
0.10605919 0.034320619 0.14830679 -0.35354975 0.61237639 0.70710516 0
0.10661684 0.034511551 0.14842024 -0.35354975 0.61237639 0.70710516 0
0.1460759 -0.029804913 0.1487467 0.86602408 0.50000232 0 0
0.14374751 -0.02577203 0.14857385 0.86602408 0.50000232 0 0
0.12765095 0.0021078503 0.14854528 0.86602408 0.50000232 0 0
0.12684898 0.0034968797 0.14860474 0.86602408 0.50000232 0 0
0.12372337 0.0089105787 0.14867879 0.86602408 0.50000232 0 0
0.073709927 0.015387231 0.14852922 -0.35354972 0.61237645 0.70710516 0
0.082651392 0.020376913 0.14867869 -0.35354972 0.61237645 0.70710516 0
0.11696739 0.020612217 0.14871842 0.86602414 0.50000232 0 0
0.11565822 0.022879746 0.14872457 0.86602414 0.50000232 0 0
0.087491475 0.023356559 0.14851823 -0.35354972 0.61237645 0.70710516 0
0.088145345 0.023513081 0.1487096 -0.35354975 0.61237639 0.70710516 0
0.089109652 0.024301557 0.14850891 -0.35354975 0.61237639 0.70710516 0
0.093505643 0.026618794 0.14870007 -0.35354975 0.61237639 0.70710516 0
0.094928041 0.027571186 0.14858648 -0.35354975 0.61237639 0.70710516 0
0.10157491 0.031436782 0.14856215 -0.35354975 0.61237639 0.70710516 0
0.10316861 0.032326333 0.14858861 -0.35354975 0.61237639 0.70710516 0
0.14345244 -0.025260981 0.14896274 0.86602408 0.50000232 0 0
0.14358833 -0.025496319 0.14888437 0.86602408 0.50000232 0 0
0.14305708 -0.024576191 0.14899796 0.86602408 0.50000232 0 0
0.13645133 -0.013134781 0.14877716 0.86602408 0.50000232 0 0
0.13651581 -0.013246423 0.14878155 0.86602408 0.50000232 0 0
0.12581114 0.0052944547 0.14895318 0.86602408 0.50000232 0 0
0.06540519 0.010113041 0.14894451 -0.35354972 0.61237645 0.70710516 0
0.069817483 0.012859634 0.148772 -0.35354972 0.61237645 0.70710516 0
0.12109803 0.013457774 0.14877726 0.86602408 0.50000232 0 0
0.074199364 0.015347952 0.14880794 -0.35354972 0.61237645 0.70710516 0
0.12004592 0.015280053 0.14881998 0.86602414 0.50000232 0 0
0.11875929 0.017508557 0.14875096 0.86602414 0.50000232 0 0
0.078634709 0.017863888 0.14884672 -0.35354972 0.61237645 0.70710516 0
0.092808798 0.026105067 0.14879657 -0.35354975 0.61237639 0.70710516 0
0.093440391 0.026470948 0.14879552 -0.35354975 0.61237639 0.70710516 0
0.10342328 0.032008506 0.1489912 -0.35354975 0.61237639 0.70710516 0
0.10373266 0.032363228 0.1488387 -0.35354975 0.61237639 0.70710516 0
0.14399971 -0.026208851 0.14911473 0.86602408 0.50000232 0 0
0.14317475 -0.024780007 0.14917447 0.86602408 0.50000232 0 0
0.13426933 -0.009355451 0.14920275 0.86602408 0.50000232 0 0
0.13225146 -0.0058604022 0.14900376 0.86602408 0.50000232 0 0
0.13143887 -0.0044529689 0.1490116 0.86602408 0.50000232 0 0
0.13116328 -0.0039756647 0.14915587 0.86602408 0.50000232 0 0
0.12897928 -0.000192879 0.1492206 0.86602408 0.50000232 0 0
0.12505767 0.006599511 0.14919055 0.86602408 0.50000232 0 0
0.12418242 0.0081154779 0.14918955 0.86602408 0.50000232 0 0
0.066839829 0.010649851 0.14919692 -0.35354972 0.61237645 0.70710516 0
0.069097601 0.012057987 0.14910629 -0.35354972 0.61237645 0.70710516 0
0.069717348 0.012420665 0.14910209 -0.35354972 0.61237645 0.70710516 0
0.080537833 0.018661249 0.14910772 -0.35354972 0.61237645 0.70710516 0
0.085134685 0.021306008 0.14911568 -0.35354972 0.61237645 0.70710516 0
0.085433826 0.021593701 0.14901611 -0.35354972 0.61237645 0.70710516 0
0.1160915 0.022129284 0.14908174 0.86602414 0.50000232 0 0
0.086975761 0.022426564 0.14906579 -0.35354972 0.61237645 0.70710516 0
0.087360635 0.022587504 0.14911884 -0.35354972 0.61237645 0.70710516 0
0.098986343 0.029151874 0.14924668 -0.35354975 0.61237639 0.70710516 0
0.10191062 0.031013202 0.14909685 -0.35354975 0.61237639 0.70710516 0
0.1088188 0.03472589 0.14909899 0.86602414 0.50000232 0 0
0.1395245 -0.01845764 0.14933163 0.86602408 0.50000232 0 0
0.13838312 -0.016480725 0.14930329 0.86602408 0.50000232 0 0
0.13460742 -0.0099410582 0.1494548 0.86602408 0.50000232 0 0
0.13272035 -0.0066725565 0.1492743 0.86602408 0.50000232 0 0
0.13156214 -0.0046664998 0.149327 0.86602408 0.50000232 0 0
0.13039871 -0.0026513929 0.14938097 0.86602408 0.50000232 0 0
0.12667842 0.0037922824 0.14935556 0.86602408 0.50000232 0 0
0.12500702 0.006687243 0.1494361 0.86602408 0.50000232 0 0
0.066869341 0.010317212 0.14949976 -0.35354972 0.61237645 0.70710516 0
0.12196656 0.011953427 0.14935036 0.86602408 0.50000232 0 0
0.11963023 0.016000059 0.14925095 0.86602414 0.50000232 0 0
0.082506977 0.019423673 0.14943203 -0.35354972 0.61237645 0.70710516 0
0.085717417 0.021328963 0.14938717 -0.35354972 0.61237645 0.70710516 0
0.090398699 0.024161804 0.14927445 -0.35354975 0.61237639 0.70710516 0
0.092892334 0.025423575 0.14942853 -0.35354975 0.61237639 0.70710516 0
0.094502442 0.026551897 0.14925641 -0.35354975 0.61237639 0.70710516 0
0.095201105 0.026843252 0.14935341 -0.35354975 0.61237639 0.70710516 0
0.095751777 0.027198503 0.14932111 -0.35354975 0.61237639 0.70710516 0
0.096185148 0.027356451 0.14940101 -0.35354975 0.61237639 0.70710516 0
0.11207868 0.029079635 0.1493752 0.86602414 0.50000232 0 0
0.10126913 0.030265676 0.14942347 -0.35354975 0.61237639 0.70710516 0
0.11137576 0.030297134 0.14937371 0.86602414 0.50000232 0 0
0.10191037 0.030585276 0.14946732 -0.35354975 0.61237639 0.70710516 0
0.14444612 -0.026982045 0.14959385 0.86602408 0.50000232 0 0
0.14404257 -0.026283093 0.14956723 0.86602408 0.50000232 0 0
0.13941839 -0.018273853 0.14959612 0.86602408 0.50000232 0 0
0.13907504 -0.017679123 0.14954738 0.86602408 0.50000232 0 0
0.13778253 -0.015440435 0.14952672 0.86602408 0.50000232 0 0
0.13194448 -0.0053287121 0.14960523 0.86602408 0.50000232 0 0
0.1297677 -0.0015584531 0.14954564 0.86602408 0.50000232 0 0
0.12863676 0.00040039152 0.1495056 0.86602408 0.50000232 0 0
0.1262061 0.0046103736 0.14971508 0.86602408 0.50000232 0 0
0.1234271 0.0094237197 0.14966024 0.86602408 0.50000232 0 0
0.071018443 0.012566799 0.14962606 -0.35354972 0.61237645 0.70710516 0
0.077752084 0.016342418 0.14972305 -0.35354972 0.61237645 0.70710516 0
0.08481732 0.020516859 0.14964043 -0.35354972 0.61237645 0.70710516 0
0.11570972 0.022790523 0.14960359 0.86602414 0.50000232 0 0
0.089176223 0.023153538 0.14953643 -0.35354975 0.61237639 0.70710516 0
0.11517879 0.023710126 0.14968151 0.86602414 0.50000232 0 0
0.093264863 0.025308216 0.14971469 -0.35354975 0.61237639 0.70710516 0
0.09625861 0.027051901 0.14970146 -0.35354975 0.61237639 0.70710516 0
0.10090765 0.029704165 0.14972903 -0.35354975 0.61237639 0.70710516 0
0.10205557 0.030405503 0.14969561 -0.35354975 0.61237639 0.70710516 0
0.10330971 0.031263366 0.14957973 -0.35354975 0.61237639 0.70710516 0
0.10374813 0.031354319 0.14972016 -0.35354975 0.61237639 0.70710516 0
0.14663512 -0.030773487 0.14994788 0.86602408 0.50000232 0 0
0.14648232 -0.030508831 0.14987203 0.86602408 0.50000232 0 0
0.13179207 -0.0050647394 0.1498636 0.86602408 0.50000232 0 0
0.12901036 -0.00024671853 0.14994717 0.86602408 0.50000232 0 0
0.12707369 0.0031076903 0.14978665 0.86602408 0.50000232 0 0
0.078555934 0.016761431 0.14976209 -0.35354972 0.61237645 0.70710516 0
0.11918864 0.016764896 0.14997618 0.86602414 0.50000232 0 0
0.086068995 0.020901257 0.14993337 -0.35354972 0.61237645 0.70710516 0
0.090540692 0.023533709 0.14988941 -0.35354975 0.61237639 0.70710516 0
0.094957419 0.026138505 0.14984192 -0.35354975 0.61237639 0.70710516 0
0.097574033 0.027616518 0.1498702 -0.35354975 0.61237639 0.70710516 0
0.1007968 0.029604817 0.14975965 -0.35354975 0.61237639 0.70710516 0
0.11059792 0.03164437 0.14987156 0.86602414 0.50000232 0 0
0.10525459 0.03200024 0.149914 -0.35354975 0.61237639 0.70710516 0
0.14385313 -0.025954973 0.1502246 0.86602408 0.50000232 0 0
0.1430852 -0.024624892 0.15019783 0.86602408 0.50000232 0 0
0.14096685 -0.020955818 0.15015461 0.86602408 0.50000232 0 0
0.13630594 -0.012882935 0.15010563 0.86602408 0.50000232 0 0
0.13595642 -0.012277583 0.15009107 0.86602408 0.50000232 0 0
0.12704803 0.0031521255 0.15016314 0.86602408 0.50000232 0 0
0.12388036 0.0086386641 0.15012631 0.86602408 0.50000232 0 0
0.066743784 0.0094516575 0.15018657 -0.35354972 0.61237645 0.70710516 0
0.12273506 0.010622377 0.1500742 0.86602408 0.50000232 0 0
0.070392683 0.011633902 0.15012111 -0.35354972 0.61237645 0.70710516 0
0.071711898 0.012441771 0.15008107 -0.35354972 0.61237645 0.70710516 0
0.075596415 0.014654305 0.15010718 -0.35354972 0.61237645 0.70710516 0
0.077249527 0.015506139 0.15019602 -0.35354972 0.61237645 0.70710516 0
0.077645451 0.015908206 0.15004578 -0.35354972 0.61237645 0.70710516 0
0.077911854 0.015874229 0.15020841 -0.35354972 0.61237645 0.70710516 0
0.081361793 0.01787509 0.15020055 -0.35354972 0.61237645 0.70710516 0
0.082447894 0.018456068 0.15024045 -0.35354972 0.61237645 0.70710516 0
0.11713252 0.020326188 0.15023956 0.86602414 0.50000232 0 0
0.086215243 0.020773863 0.15011683 -0.35354972 0.61237645 0.70710516 0
0.090477236 0.023081293 0.1502495 -0.35354975 0.61237639 0.70710516 0
0.096349075 0.026718505 0.15003544 -0.35354975 0.61237639 0.70710516 0
0.096644521 0.026839953 0.15007798 -0.35354975 0.61237639 0.70710516 0
0.10345723 0.030647997 0.15018642 -0.35354975 0.61237639 0.70710516 0
0.10841116 0.033479165 0.15021148 -0.35354975 0.61237639 0.70710516 0
0.14633173 -0.030248005 0.15027136 0.86602408 0.50000232 0 0
0.14542988 -0.028685953 0.15049146 0.86602408 0.50000232 0 0
0.14437228 -0.0268542 0.1504239 0.86602408 0.50000232 0 0
0.14379749 -0.025858611 0.15028144 0.86602408 0.50000232 0 0
0.14104077 -0.021083843 0.1503064 0.86602408 0.50000232 0 0
0.13909076 -0.017706374 0.15048729 0.86602408 0.50000232 0 0
0.13540304 -0.011319095 0.15037601 0.86602408 0.50000232 0 0
0.13458358 -0.0098997448 0.15047714 0.86602408 0.50000232 0 0
0.1295152 -0.0011211141 0.15041897 0.86602408 0.50000232 0 0
0.12719099 0.0029045241 0.1502786 0.86602408 0.50000232 0 0
0.12706423 0.0031240701 0.15031759 0.86602408 0.50000232 0 0
0.06737639 0.0094583482 0.15049708 -0.35354972 0.61237645 0.70710516 0
0.1231086 0.0099753849 0.15042676 0.86602408 0.50000232 0 0
0.12292609 0.010291493 0.15045246 0.86602408 0.50000232 0 0
0.12242582 0.011157977 0.15048975 0.86602408 0.50000232 0 0
0.073542185 0.013259036 0.15028843 -0.35354972 0.61237645 0.70710516 0
0.083165489 0.018824389 0.15028027 -0.35354972 0.61237645 0.70710516 0
0.083451025 0.018878626 0.15037605 -0.35354972 0.61237645 0.70710516 0
0.08409214 0.019127058 0.15048146 -0.35354972 0.61237645 0.70710516 0
0.083992608 0.019263191 0.15031379 -0.35354972 0.61237645 0.70710516 0
0.087417029 0.021123517 0.1504149 -0.35354975 0.61237639 0.70710516 0
0.11494629 0.024112819 0.15048757 0.86602414 0.50000232 0 0
0.093337931 0.024444615 0.15049914 -0.35354975 0.61237639 0.70710516 0
0.097744241 0.027083877 0.1504166 -0.35354975 0.61237639 0.70710516 0
0.1002014 0.028487062 0.15042996 -0.35354975 0.61237639 0.70710516 0
0.10227145 0.029725207 0.1503927 -0.35354975 0.61237639 0.70710516 0
0.11172347 0.029694883 0.1503257 0.86602414 0.50000232 0 0
0.11128616 0.030452307 0.15028329 0.86602414 0.50000232 0 0
0.1089211 0.033720613 0.15025735 -0.35354975 0.61237639 0.70710516 0
0.1442152 -0.026582103 0.15053284 0.86602408 0.50000232 0 0
0.14105967 -0.021116588 0.15050499 0.86602408 0.50000232 0 0
0.13590127 -0.012182059 0.15064465 0.86602408 0.50000232 0 0
0.13055839 -0.0029279566 0.15068708 0.86602408 0.50000232 0 0
0.13008821 -0.0021135872 0.15068671 0.86602408 0.50000232 0 0
0.12992403 -0.0018292317 0.15073141 0.86602408 0.50000232 0 0
0.12350266 0.009292841 0.15067814 0.86602408 0.50000232 0 0
0.1223691 0.01125622 0.15050708 0.86602408 0.50000232 0 0
0.073913112 0.012980282 0.15071532 -0.35354972 0.61237645 0.70710516 0
0.073952444 0.013028366 0.15069333 -0.35354972 0.61237645 0.70710516 0
0.075878553 0.014140334 0.15069336 -0.35354972 0.61237645 0.70710516 0
0.078715712 0.015940063 0.15055332 -0.35354972 0.61237645 0.70710516 0
0.079763621 0.016438579 0.15064555 -0.35354972 0.61237645 0.70710516 0
0.086408488 0.020159205 0.15074575 -0.35354972 0.61237645 0.70710516 0
0.11582816 0.022585398 0.15068854 0.86602414 0.50000232 0 0
0.095626064 0.025738869 0.15052234 -0.35354975 0.61237639 0.70710516 0
0.096255392 0.025863057 0.15072945 -0.35354975 0.61237639 0.70710516 0
0.11164979 0.029822504 0.15072384 0.86602414 0.50000232 0 0
0.10414515 0.030657856 0.15052183 -0.35354975 0.61237639 0.70710516 0
0.10434946 0.030557968 0.15071049 -0.35354975 0.61237639 0.70710516 0
0.10610187 0.031688668 0.15060747 -0.35354975 0.61237639 0.70710516 0
0.10800809 0.032734632 0.15065473 -0.35354975 0.61237639 0.70710516 0
0.10925059 0.033555418 0.15056515 -0.35354975 0.61237639 0.70710516 0
0.1463456 -0.030272026 0.15081421 0.86602408 0.50000232 0 0
0.14617303 -0.029973147 0.15083236 0.86602408 0.50000232 0 0
0.14151575 -0.021906544 0.15098865 0.86602408 0.50000232 0 0
0.13129526 -0.004204229 0.15081634 0.86602408 0.50000232 0 0
0.12655899 0.0039991965 0.15078029 0.86602408 0.50000232 0 0
0.12475774 0.0071189972 0.1508826 0.86602408 0.50000232 0 0
0.069834597 0.010351958 0.15095228 -0.35354972 0.61237645 0.70710516 0
0.12169949 0.012416006 0.1509122 0.86602414 0.50000232 0 0
0.073272698 0.012522582 0.1507915 -0.35354972 0.61237645 0.70710516 0
0.092129089 0.023398789 0.15080045 -0.35354975 0.61237639 0.70710516 0
0.092728481 0.023746004 0.15079945 -0.35354975 0.61237639 0.70710516 0
0.093726322 0.02422375 0.15088461 -0.35354975 0.61237639 0.70710516 0
0.093836151 0.024399249 0.15078753 -0.35354975 0.61237639 0.70710516 0
0.097594261 0.026464112 0.15087834 -0.35354975 0.61237639 0.70710516 0
0.10333872 0.029774033 0.15088405 -0.35354975 0.61237639 0.70710516 0
0.1093515 0.033331741 0.15080932 -0.35354975 0.61237639 0.70710516 0
0.1437491 -0.025774788 0.15104222 0.86602408 0.50000232 0 0
0.13868764 -0.017008135 0.15119819 0.86602408 0.50000232 0 0
0.12696259 0.003300112 0.15101728 0.86602408 0.50000232 0 0
0.12464392 0.0073161339 0.15115711 0.86602408 0.50000232 0 0
0.12436035 0.0078073088 0.1511606 0.86602408 0.50000232 0 0
0.066750839 0.0083651794 0.15113102 -0.35354972 0.61237645 0.70710516 0
0.069614746 0.010082082 0.15107608 -0.35354972 0.61237645 0.70710516 0
0.12023494 0.014952675 0.15121363 0.86602414 0.50000232 0 0
0.079381809 0.015571911 0.15120521 -0.35354972 0.61237645 0.70710516 0
0.085912637 0.01935301 0.15119602 -0.35354972 0.61237645 0.70710516 0
0.11674784 0.02099246 0.15104476 0.86602414 0.50000232 0 0
0.092687532 0.023261048 0.15119895 -0.35354975 0.61237639 0.70710516 0
0.093814321 0.023890242 0.15121743 -0.35354975 0.61237639 0.70710516 0
0.10044646 0.027731854 0.15120652 -0.35354975 0.61237639 0.70710516 0
0.11217815 0.028907361 0.15114565 0.86602414 0.50000232 0 0
0.11035027 0.032073315 0.15117513 0.86602414 0.50000232 0 0
0.10993151 0.032798618 0.1511364 0.86602414 0.50000232 0 0
0.14657889 -0.030676121 0.15130377 0.86602408 0.50000232 0 0
0.14629006 -0.030175826 0.15136434 0.86602408 0.50000232 0 0
0.14531244 -0.028482564 0.15134326 0.86602408 0.50000232 0 0
0.14472285 -0.027461354 0.15144415 0.86602408 0.50000232 0 0
0.14454946 -0.027161038 0.15129723 0.86602408 0.50000232 0 0
0.13732399 -0.014646232 0.15136807 0.86602408 0.50000232 0 0
0.1336187 -0.0082285162 0.15146077 0.86602408 0.50000232 0 0
0.12547496 0.0058767451 0.1514163 0.86602408 0.50000232 0 0
0.1226593 0.010753582 0.15132698 0.86602414 0.50000232 0 0
0.082707085 0.017170876 0.15148306 -0.35354972 0.61237645 0.70710516 0
0.11852133 0.017920703 0.15135157 0.86602414 0.50000232 0 0
0.090481438 0.021816052 0.15134734 -0.35354975 0.61237639 0.70710516 0
0.091776095 0.022606624 0.15131 -0.35354975 0.61237639 0.70710516 0
0.11520506 0.023664625 0.15128267 0.86602414 0.50000232 0 0
0.099054322 0.026787475 0.15132833 -0.35354975 0.61237639 0.70710516 0
0.10947452 0.032748118 0.15137628 -0.35354975 0.61237639 0.70710516 0
0.1449253 -0.027812019 0.15150847 0.86602408 0.50000232 0 0
0.14382546 -0.025907055 0.1515619 0.86602408 0.50000232 0 0
0.14254056 -0.023681533 0.15157057 0.86602408 0.50000232 0 0
0.14169958 -0.022224953 0.15173164 0.86602408 0.50000232 0 0
0.13673148 -0.013619981 0.1516654 0.86602408 0.50000232 0 0
0.13569526 -0.011825235 0.15153362 0.86602408 0.50000232 0 0
0.13215898 -0.0057002492 0.15152915 0.86602408 0.50000232 0 0
0.1260111 0.0049481248 0.15172043 0.86602408 0.50000232 0 0
0.12564978 0.0055739563 0.15154439 0.86602408 0.50000232 0 0
0.067437887 0.0080753416 0.15172556 -0.35354972 0.61237645 0.70710516 0
0.073593736 0.011601247 0.15174991 -0.35354972 0.61237645 0.70710516 0
0.1184769 0.017997671 0.1517259 0.86602414 0.50000232 0 0
0.095383644 0.024421198 0.15154226 -0.35354975 0.61237639 0.70710516 0
0.095527299 0.024335554 0.15168828 -0.35354975 0.61237639 0.70710516 0
