# .PCD v0.7 - Point Cloud Data file format
VERSION 0.7
FIELDS x y z normal_x normal_y normal_z curvature
SIZE 4 4 4 4 4 4 4
TYPE F F F F F F F
COUNT 1 1 1 1 1 1 1
WIDTH 1106
HEIGHT 1
VIEWPOINT 0 0 0 1 0 0 0
POINTS 1106
DATA ascii
0.0013784863 -0.050000001 0.090621836 0 -1 0 0
0.0018697218 -0.050000001 0.090504184 0 -1 0 0
0.0035342651 -0.050000004 0.090549268 0 -1 0 0
0.0039250869 -0.050000004 0.090535693 0 -1 0 0
0.0066726906 -0.050000001 0.09062437 0 -1 0 0
0.01289718 -0.050000004 0.090650417 0 -1 0 0
0.022751238 -0.049999997 0.09070415 0 -1 0 0
0.025 -0.049241494 0.090617888 1 0 0 0
-0.025 -0.048646227 0.090701334 -1 0 0 0
0.025 -0.04731698 0.090730712 1 0 0 0
-0.025000002 -0.045668289 0.090622105 -1 0 0 0
0.025000002 -0.045113295 0.090704806 1 0 0 0
0.025 -0.043519001 0.090717152 1 0 0 0
0.025000002 -0.043454863 0.090587124 1 0 0 0
-0.024999999 -0.04285999 0.090594783 -1 0 0 0
0.025 -0.042704906 0.09061309 1 0 0 0
0.024999999 -0.038654298 0.09051352 1 0 0 0
0.024999999 -0.038037471 0.090560026 1 0 0 0
-0.025 -0.036254033 0.090530351 -1 0 0 0
-0.025000002 -0.034822062 0.090521827 -1 0 0 0
0.025 -0.034510966 0.09068086 1 0 0 0
-0.025 -0.033852533 0.090690926 -1 0 0 0
-0.025000002 -0.033129185 0.090652779 -1 0 0 0
-0.025 -0.032840408 0.090648219 -1 0 0 0
-0.025 -0.03137701 0.090748116 -1 0 0 0
-0.025000002 -0.030599959 0.09057086 -1 0 0 0
-0.025000002 -0.029793371 0.090697028 -1 0 0 0
-0.025 -0.029439427 0.09074977 -1 0 0 0
-0.024999999 -0.029021204 0.090642318 -1 0 0 0
-0.025000002 -0.025978815 0.090640336 -1 0 0 0
0.025 -0.024558004 0.090729252 1 0 0 0
0.025 -0.023020502 0.090501815 1 0 0 0
-0.025000002 -0.022291211 0.090641156 -1 0 0 0
0.025 -0.021121945 0.090629987 1 0 0 0
0.025 -0.020924095 0.090654455 1 0 0 0
0.025000002 -0.020540746 0.090587825 1 0 0 0
0.025 -0.019537751 0.090633765 1 0 0 0
0.025 -0.019352864 0.090507403 1 0 0 0
-0.025000002 -0.018261777 0.090723112 -1 0 0 0
0.025000002 -0.018499667 0.090745486 1 0 0 0
-0.025 -0.017836209 0.090516537 -1 0 0 0
0.025000002 -0.017497474 0.090662479 1 0 0 0
0.025 -0.01195439 0.090515599 1 0 0 0
0.025 -0.011514317 0.090631887 1 0 0 0
0.025 -0.0090858582 0.090697363 1 0 0 0
-0.024999999 -0.0068342546 0.090743385 -1 0 0 0
0.025 -0.0066264756 0.090748534 1 0 0 0
-0.025 -0.0048845569 0.090719625 -1 0 0 0
-0.025 -0.0041602207 0.090718821 -1 0 0 0
0.025 -0.0026604701 0.090747908 1 0 0 0
-0.025 -0.0023860633 0.090690896 -1 0 0 0
0.025 -0.0019045714 0.090576619 1 0 0 0
-0.025 -0.0014032875 0.090502098 -1 0 0 0
0.025 -0.0013468085 0.090610944 1 0 0 0
0.025000002 -0.00051628426 0.090577655 1 0 0 0
0.025 7.6442957e-06 0.090739913 1 0 0 0
0.025 0.0012529995 0.090511099 1 0 0 0
0.025 0.0049696052 0.090580322 1 0 0 0
-0.025 0.0083789434 0.09053614 -1 0 0 0
0.025000002 0.0083226738 0.09064243 1 0 0 0
0.024999999 0.0088189282 0.090691611 1 0 0 0
0.025000002 0.010467053 0.090664193 1 0 0 0
-0.024999999 0.0106242 0.090552971 -1 0 0 0
-0.025000002 0.011479581 0.090745285 -1 0 0 0
-0.025 0.014109004 0.09064962 -1 0 0 0
-0.024999999 0.01553086 0.090724975 -1 0 0 0
0.025000002 0.022670742 0.090691827 1 0 0 0
-0.025 0.023990091 0.090739667 -1 0 0 0
-0.024999999 0.024365937 0.090507895 -1 0 0 0
0.025 0.024336975 0.090606712 1 0 0 0
-0.024999999 0.025865085 0.090595834 -1 0 0 0
-0.025 0.026085295 0.090596303 -1 0 0 0
-0.025 0.026372854 0.090602249 -1 0 0 0
0.025 0.026788484 0.09059035 1 0 0 0
-0.025 0.027897662 0.090617031 -1 0 0 0
0.025 0.028976878 0.090602577 1 0 0 0
-0.025 0.029237352 0.090739958 -1 0 0 0
0.025 0.029989999 0.090658948 1 0 0 0
0.024999999 0.031179225 0.090560205 1 0 0 0
-0.025000002 0.032000426 0.090711832 -1 0 0 0
0.025000002 0.032477435 0.090626881 1 0 0 0
-0.025 0.034976099 0.090616755 -1 0 0 0
0.025000002 0.03618329 0.090552785 1 0 0 0
-0.024999999 0.036938943 0.090515867 -1 0 0 0
0.025 0.037727669 0.090732463 1 0 0 0
0.025 0.038084324 0.090654276 1 0 0 0
0.025 0.039672136 0.090648308 1 0 0 0
-0.025 0.040258236 0.090668395 -1 0 0 0
0.025 0.040256109 0.090561725 1 0 0 0
0.025000002 0.040445015 0.090520546 1 0 0 0
0.025 0.04326234 0.090641178 1 0 0 0
-0.025 0.0439234 0.090520211 -1 0 0 0
-0.025000002 0.044017684 0.090584405 -1 0 0 0
0.025 0.044547401 0.090606973 1 0 0 0
0.025000002 0.046042182 0.090574421 1 0 0 0
0.025 0.046597615 0.090606086 1 0 0 0
0.024999999 0.049620427 0.09073443 1 0 0 0
-0.024483003 0.049999997 0.090666905 0 1 0 0
-0.018252641 0.050000001 0.090554327 0 1 0 0
-0.017077483 0.050000001 0.090610787 0 1 0 0
-0.012606917 0.049999997 0.090532519 0 1 0 0
-0.01088001 0.050000001 0.090567194 0 1 0 0
-0.010538053 0.050000001 0.090652294 0 1 0 0
-0.0092511373 0.050000001 0.09060853 0 1 0 0
-0.0072989683 0.050000001 0.09061271 0 1 0 0
-0.0054993876 0.050000001 0.090503022 0 1 0 0
-0.0026995121 0.050000001 0.090560973 0 1 0 0
-0.00058932998 0.049999997 0.090625539 0 1 0 0
0.0036307559 0.050000001 0.090545356 0 1 0 0
0.0050827297 0.049999997 0.090685986 0 1 0 0
0.0084576625 0.050000001 0.090551414 0 1 0 0
0.011053777 0.050000001 0.090512171 0 1 0 0
0.016701624 0.050000001 0.090749338 0 1 0 0
0.01997773 0.050000001 0.09054596 0 1 0 0
0.022566319 0.050000001 0.090648241 0 1 0 0
0.024644239 0.049999997 0.090719879 0 1 0 0
-0.015777064 0.050000004 0.09062162 0 1 0 0
-0.014246147 0.050000004 0.090732679 0 1 0 0
-0.010602408 0.050000004 0.090739653 0 1 0 0
0.00058793998 0.050000004 0.090643287 0 1 0 0
0.0054798564 0.050000004 0.090610996 0 1 0 0
0.0074034249 0.050000004 0.090592489 0 1 0 0
0.0090541858 0.050000004 0.090599477 0 1 0 0
0.011943793 0.050000004 0.090626836 0 1 0 0
0.012109527 0.050000004 0.090606779 0 1 0 0
0.019501226 0.050000004 0.090666711 0 1 0 0
0.023713281 0.050000004 0.090502739 0 1 0 0
0.02399455 0.050000004 0.090513363 0 1 0 0
-0.023864498 -0.050000001 0.090989843 0 -1 0 0
-0.023288434 -0.050000001 0.090962194 0 -1 0 0
-0.021713264 -0.050000004 0.090844676 0 -1 0 0
-0.020908795 -0.049999997 0.090798378 0 -1 0 0
-0.019419687 -0.050000001 0.090785354 0 -1 0 0
-0.018426703 -0.050000001 0.090875149 0 -1 0 0
-0.014936518 -0.050000004 0.090890929 0 -1 0 0
-0.014139045 -0.050000004 0.090962619 0 -1 0 0
-0.011619346 -0.050000001 0.090907544 0 -1 0 0
-0.0092675099 -0.050000004 0.090995133 0 -1 0 0
-0.0082304152 -0.050000004 0.09083046 0 -1 0 0
-0.0078105154 -0.050000004 0.090845555 0 -1 0 0
-0.0077104811 -0.050000001 0.090904251 0 -1 0 0
-0.007043791 -0.050000004 0.090820245 0 -1 0 0
-0.0045782337 -0.050000001 0.090868764 0 -1 0 0
-0.0027954089 -0.049999997 0.090957195 0 -1 0 0
-0.00019619404 -0.050000001 0.090948626 0 -1 0 0
0.00015237578 -0.050000001 0.090860434 0 -1 0 0
0.0018440261 -0.050000001 0.090790957 0 -1 0 0
0.0046545356 -0.049999997 0.090999767 0 -1 0 0
0.0091547072 -0.050000001 0.090790443 0 -1 0 0
0.010053806 -0.050000004 0.090806447 0 -1 0 0
0.01173496 -0.050000004 0.090832002 0 -1 0 0
0.018345889 -0.050000001 0.090795629 0 -1 0 0
0.019366115 -0.050000001 0.090805009 0 -1 0 0
0.022715468 -0.050000001 0.090909287 0 -1 0 0
0.024054471 -0.050000001 0.090817265 0 -1 0 0
0.024999999 -0.047551431 0.090801269 1 0 0 0
-0.025000002 -0.045750625 0.090855747 -1 0 0 0
-0.025 -0.044638909 0.090897366 -1 0 0 0
0.025000002 -0.04438407 0.090812199 1 0 0 0
-0.025 -0.042872116 0.090969868 -1 0 0 0
0.025 -0.041262213 0.090985112 1 0 0 0
-0.025000002 -0.039507963 0.090874285 -1 0 0 0
0.025 -0.039365906 0.090885013 1 0 0 0
0.025000002 -0.038516752 0.090788402 1 0 0 0
0.025 -0.0377228 0.090797007 1 0 0 0
0.025000002 -0.037095174 0.090937674 1 0 0 0
0.025 -0.036704857 0.090915509 1 0 0 0
0.025000002 -0.035061926 0.090959147 1 0 0 0
0.025 -0.034075756 0.090766728 1 0 0 0
0.025000002 -0.032726586 0.090779655 1 0 0 0
0.025 -0.03011604 0.090771288 1 0 0 0
-0.024999999 -0.028031141 0.090821378 -1 0 0 0
0.025 -0.025216963 0.090924121 1 0 0 0
-0.025 -0.023071816 0.09092591 -1 0 0 0
0.025000002 -0.019978644 0.090930626 1 0 0 0
0.025 -0.019641172 0.09092804 1 0 0 0
0.025 -0.018627834 0.090997286 1 0 0 0
-0.025 -0.014609233 0.090942629 -1 0 0 0
-0.025 -0.014353107 0.090869375 -1 0 0 0
0.025000002 -0.014386946 0.090959296 1 0 0 0
0.025000002 -0.013107242 0.090870179 1 0 0 0
-0.025 -0.011317702 0.090949342 -1 0 0 0
0.025 -0.010884129 0.090974569 1 0 0 0
-0.025 -0.010540513 0.090969026 -1 0 0 0
-0.025 -0.0096611613 0.090770915 -1 0 0 0
-0.025 -0.0077569513 0.090886638 -1 0 0 0
0.025 -0.0077348519 0.090750873 1 0 0 0
-0.024999999 -0.0063821608 0.090972558 -1 0 0 0
-0.025000002 -0.0055725444 0.090777263 -1 0 0 0
-0.025 -0.0032440871 0.090929598 -1 0 0 0
-0.025000002 -0.0024915799 0.090798944 -1 0 0 0
-0.025 -0.002067646 0.090993971 -1 0 0 0
-0.025 -0.0015755827 0.090923861 -1 0 0 0
-0.025 0.00018516555 0.090755783 -1 0 0 0
0.025 0.00055236369 0.090915419 1 0 0 0
-0.025000002 0.0015412234 0.090933658 -1 0 0 0
-0.025 0.0020682011 0.090871982 -1 0 0 0
0.025 0.0033673104 0.09090098 1 0 0 0
-0.024999999 0.0040028868 0.090796717 -1 0 0 0
-0.025 0.0044454411 0.09094315 -1 0 0 0
-0.025 0.0076630428 0.090850815 -1 0 0 0
-0.025 0.0078050839 0.09094806 -1 0 0 0
-0.025 0.0083643086 0.090788461 -1 0 0 0
0.025 0.0086390348 0.090936296 1 0 0 0
-0.025000002 0.0092817089 0.090940341 -1 0 0 0
0.025 0.010683659 0.090948105 1 0 0 0
-0.024999999 0.013332987 0.090964884 -1 0 0 0
-0.024999999 0.014470382 0.09090066 -1 0 0 0
-0.025 0.014939978 0.090876855 -1 0 0 0
-0.025 0.016474564 0.09076222 -1 0 0 0
0.025 0.017683707 0.090833738 1 0 0 0
-0.025 0.018011615 0.090794154 -1 0 0 0
0.025 0.018097522 0.090975769 1 0 0 0
-0.024999999 0.019164898 0.090876639 -1 0 0 0
0.025 0.02028873 0.090867758 1 0 0 0
0.025 0.021338131 0.090799049 1 0 0 0
-0.025 0.022537958 0.090852663 -1 0 0 0
-0.025 0.022920266 0.090906203 -1 0 0 0
0.025000002 0.022767212 0.090782881 1 0 0 0
0.025 0.023115441 0.090957478 1 0 0 0
0.025000002 0.024130097 0.090764478 1 0 0 0
-0.025000002 0.025663465 0.090877324 -1 0 0 0
0.025 0.026334923 0.090807773 1 0 0 0
-0.025 0.027655315 0.090831771 -1 0 0 0
-0.025 0.027993008 0.090822183 -1 0 0 0
0.024999999 0.028599821 0.090993397 1 0 0 0
-0.024999999 0.029065784 0.090933844 -1 0 0 0
0.025 0.030742588 0.090987787 1 0 0 0
0.024999999 0.032116786 0.090775758 1 0 0 0
-0.025 0.032291934 0.090947777 -1 0 0 0
0.025 0.037159063 0.090887457 1 0 0 0
-0.025 0.038063694 0.090807855 -1 0 0 0
0.025 0.039992549 0.090873554 1 0 0 0
-0.025 0.040353145 0.090982988 -1 0 0 0
0.025 0.043612301 0.09094052 1 0 0 0
-0.025000002 0.044397108 0.090894133 -1 0 0 0
0.024999999 0.044362798 0.09095946 1 0 0 0
-0.024999999 0.045878638 0.09085077 -1 0 0 0
0.025 0.04767504 0.090875275 1 0 0 0
0.025 0.048934925 0.09093906 1 0 0 0
0.025000002 0.048937667 0.090806045 1 0 0 0
-0.022440528 0.050000001 0.090942234 0 1 0 0
-0.018302135 0.050000001 0.09087114 0 1 0 0
-0.013541822 0.050000001 0.09093295 0 1 0 0
-0.012996757 0.050000001 0.090980262 0 1 0 0
-0.011826316 0.050000001 0.090807661 0 1 0 0
-0.011575425 0.050000001 0.09098094 0 1 0 0
-0.0098297801 0.050000001 0.090877101 0 1 0 0
-0.0094157327 0.050000001 0.090926148 0 1 0 0
-0.0089581413 0.050000001 0.090878524 0 1 0 0
-0.0086480509 0.050000001 0.090799898 0 1 0 0
0.0064304434 0.050000001 0.090796702 0 1 0 0
0.010788534 0.050000001 0.090758331 0 1 0 0
0.012042582 0.049999997 0.090921521 0 1 0 0
-0.022423204 0.050000004 0.090910234 0 1 0 0
-0.011545764 0.050000004 0.09076418 0 1 0 0
-0.0034189792 0.050000004 0.090983994 0 1 0 0
0.010101634 0.050000004 0.090770781 0 1 0 0
0.015948806 0.050000004 0.090971 0 1 0 0
-0.020387352 -0.049999997 0.09110976 0 -1 0 0
-0.016213208 -0.050000004 0.091163136 0 -1 0 0
-0.014966197 -0.050000004 0.091121599 0 -1 0 0
-0.01286468 -0.050000004 0.091143109 0 -1 0 0
-0.012630662 -0.050000001 0.091158867 0 -1 0 0
-0.010242196 -0.050000001 0.091029748 0 -1 0 0
-0.0095524881 -0.050000001 0.091043778 0 -1 0 0
-0.0084483549 -0.049999997 0.091109574 0 -1 0 0
-0.0043159081 -0.050000004 0.091239884 0 -1 0 0
-0.003411158 -0.050000001 0.091124676 0 -1 0 0
-0.0020796743 -0.050000001 0.091118447 0 -1 0 0
-0.0018131151 -0.050000001 0.091168284 0 -1 0 0
-0.0016232019 -0.049999997 0.091185823 0 -1 0 0
0.00039916183 -0.050000001 0.091075547 0 -1 0 0
0.0018012682 -0.050000001 0.091125384 0 -1 0 0
0.0035155367 -0.050000004 0.091204569 0 -1 0 0
0.0039055427 -0.050000001 0.091180816 0 -1 0 0
0.0054478492 -0.050000004 0.09104389 0 -1 0 0
0.0059339199 -0.050000001 0.091146842 0 -1 0 0
0.0082304114 -0.050000001 0.09100277 0 -1 0 0
0.0089969635 -0.050000001 0.091248706 0 -1 0 0
0.0092153372 -0.050000001 0.091129437 0 -1 0 0
0.015639609 -0.050000004 0.091158807 0 -1 0 0
0.020249285 -0.050000004 0.091118485 0 -1 0 0
0.020419104 -0.050000004 0.091024682 0 -1 0 0
0.022981262 -0.050000001 0.091246158 0 -1 0 0
0.024999999 -0.049125381 0.091165863 1 0 0 0
0.025000002 -0.048011906 0.091032565 1 0 0 0
0.025 -0.047160689 0.091139086 1 0 0 0
0.024999999 -0.046197884 0.091154225 1 0 0 0
0.025 -0.045997757 0.091153845 1 0 0 0
-0.025 -0.045145132 0.09123569 -1 0 0 0
-0.025 -0.044785753 0.091219746 -1 0 0 0
-0.024999999 -0.041961525 0.091091141 -1 0 0 0
-0.024999999 -0.041712657 0.091072366 -1 0 0 0
0.025000002 -0.040026627 0.091136836 1 0 0 0
0.025 -0.036527637 0.091165833 1 0 0 0
0.025000002 -0.036096074 0.091013931 1 0 0 0
-0.025 -0.034696717 0.091012895 -1 0 0 0
-0.025 -0.034424268 0.091193937 -1 0 0 0
0.025000002 -0.034330994 0.09105169 1 0 0 0
0.025 -0.03233226 0.091040865 1 0 0 0
-0.025 -0.031223806 0.09120895 -1 0 0 0
0.025000002 -0.028178604 0.091064498 1 0 0 0
-0.025 -0.026955407 0.091100425 -1 0 0 0
-0.025 -0.026230309 0.091166168 -1 0 0 0
0.025 -0.022852775 0.091179214 1 0 0 0
0.025 -0.02219994 0.091137148 1 0 0 0
0.025000002 -0.021733247 0.091010556 1 0 0 0
-0.025 -0.018297115 0.091037333 -1 0 0 0
0.025 -0.013590474 0.091132998 1 0 0 0
0.025 -0.013232987 0.091230392 1 0 0 0
0.025 -0.011455882 0.091144249 1 0 0 0
-0.025 -0.010717275 0.091074698 -1 0 0 0
-0.025000002 -0.01027397 0.091165334 -1 0 0 0
0.025 -0.0099585634 0.091239922 1 0 0 0
-0.025 -0.0091071781 0.091062993 -1 0 0 0
-0.025 -0.0067474544 0.09117613 -1 0 0 0
-0.025000002 -0.0063760374 0.091118485 -1 0 0 0
0.025 -0.0061545502 0.091117188 1 0 0 0
-0.025000002 -0.0058744671 0.091058306 -1 0 0 0
0.025 -0.0059258249 0.091110863 1 0 0 0
-0.024999999 -0.0036196816 0.091049649 -1 0 0 0
-0.024999999 -0.0024663429 0.091194414 -1 0 0 0
0.025 -0.0011050496 0.091014683 1 0 0 0
-0.024999999 -0.0001766514 0.091079265 -1 0 0 0
-0.025 0.0051872972 0.091151632 -1 0 0 0
0.025000002 0.0052882927 0.091132991 1 0 0 0
-0.025 0.0058238693 0.091240093 -1 0 0 0
0.025 0.0077358782 0.091129407 1 0 0 0
0.025 0.0086061154 0.091102116 1 0 0 0
-0.025 0.010059175 0.091030583 -1 0 0 0
0.025000002 0.010172124 0.091169797 1 0 0 0
-0.024999999 0.010391032 0.091226809 -1 0 0 0
0.025 0.011389354 0.091184705 1 0 0 0
0.025 0.012354555 0.091186814 1 0 0 0
-0.025 0.013049114 0.091005579 -1 0 0 0
-0.025 0.01655858 0.091089025 -1 0 0 0
0.025 0.01689397 0.091146559 1 0 0 0
0.025 0.017232275 0.091060519 1 0 0 0
0.025 0.017443804 0.091199592 1 0 0 0
0.025 0.0182193 0.09116663 1 0 0 0
0.025 0.018959105 0.091045745 1 0 0 0
-0.025000002 0.022897966 0.091033354 -1 0 0 0
-0.025 0.024364889 0.091143414 -1 0 0 0
-0.025 0.025586314 0.091050781 -1 0 0 0
-0.025 0.026306584 0.0912394 -1 0 0 0
-0.024999999 0.026933219 0.091117635 -1 0 0 0
-0.024999999 0.028119868 0.09121263 -1 0 0 0
-0.025000002 0.028504085 0.091241032 -1 0 0 0
0.024999999 0.028507689 0.091247447 1 0 0 0
-0.025 0.028937019 0.091204934 -1 0 0 0
0.025 0.031765502 0.091233552 1 0 0 0
-0.024999999 0.033171322 0.091130823 -1 0 0 0
-0.025 0.034231808 0.09116739 -1 0 0 0
0.025000002 0.035330661 0.091132149 1 0 0 0
-0.025000002 0.036062047 0.091109298 -1 0 0 0
0.025 0.038174145 0.091044977 1 0 0 0
-0.025000002 0.042933561 0.09105406 -1 0 0 0
-0.025 0.044148032 0.091140606 -1 0 0 0
-0.025000002 0.046995614 0.091155678 -1 0 0 0
-0.024999999 0.047095582 0.091249824 -1 0 0 0
0.025 0.048545644 0.091029838 1 0 0 0
-0.025 0.04925102 0.0911697 -1 0 0 0
-0.024999999 0.049519166 0.091035984 -1 0 0 0
-0.023743032 0.049999997 0.091024689 0 1 0 0
-0.019444833 0.050000001 0.091032274 0 1 0 0
-0.017991817 0.050000001 0.09115766 0 1 0 0
-0.010798273 0.049999997 0.091066062 0 1 0 0
-0.0082318392 0.050000001 0.091151528 0 1 0 0
-0.007704373 0.050000001 0.091107227 0 1 0 0
-0.0041000238 0.050000001 0.09121526 0 1 0 0
-0.0018807546 0.050000001 0.091085568 0 1 0 0
-0.0011045546 0.050000001 0.091035388 0 1 0 0
0.00050449488 0.050000001 0.091051735 0 1 0 0
0.0026165643 0.050000001 0.091194302 0 1 0 0
0.0076472051 0.050000001 0.091119803 0 1 0 0
0.0082426481 0.049999997 0.091056421 0 1 0 0
0.013428371 0.049999997 0.091084123 0 1 0 0
0.014081962 0.050000001 0.091040827 0 1 0 0
0.015301647 0.049999997 0.091139942 0 1 0 0
0.016969841 0.050000001 0.091080345 0 1 0 0
0.022634827 0.050000001 0.091104537 0 1 0 0
0.024550013 0.050000001 0.091062725 0 1 0 0
-0.013128568 0.050000004 0.091120988 0 1 0 0
-0.0060531744 0.050000004 0.091017932 0 1 0 0
-0.0053232173 0.050000004 0.091115221 0 1 0 0
0.0030197003 0.050000004 0.091112368 0 1 0 0
0.012161212 0.050000004 0.091242373 0 1 0 0
0.017791165 0.050000004 0.09122631 0 1 0 0
0.024521343 0.050000004 0.091139212 0 1 0 0
-0.023498645 -0.050000001 0.09141659 0 -1 0 0
-0.021928392 -0.050000004 0.091276594 0 -1 0 0
-0.018459428 -0.050000004 0.09143652 0 -1 0 0
-0.014142083 -0.050000001 0.091359548 0 -1 0 0
-0.012416391 -0.050000001 0.091401011 0 -1 0 0
-0.007813314 -0.050000001 0.091287345 0 -1 0 0
-0.0069771763 -0.050000001 0.091257505 0 -1 0 0
-0.0065286187 -0.049999997 0.091414399 0 -1 0 0
-0.0044720797 -0.050000001 0.091393851 0 -1 0 0
-0.0041433875 -0.050000001 0.091303505 0 -1 0 0
-0.0020216152 -0.050000001 0.091314122 0 -1 0 0
0.0060652918 -0.050000001 0.091449335 0 -1 0 0
0.0078511713 -0.050000004 0.091376491 0 -1 0 0
0.0083534447 -0.050000001 0.091494977 0 -1 0 0
0.010155031 -0.050000004 0.091335915 0 -1 0 0
0.013231456 -0.050000001 0.09130381 0 -1 0 0
0.014072424 -0.050000004 0.091302179 0 -1 0 0
0.019696182 -0.050000001 0.091462374 0 -1 0 0
0.019920109 -0.050000004 0.091273122 0 -1 0 0
0.024714069 -0.050000001 0.091343112 0 -1 0 0
0.025 -0.047610518 0.091407828 1 0 0 0
-0.025 -0.043420263 0.091296405 -1 0 0 0
-0.025 -0.042812549 0.091459952 -1 0 0 0
-0.025 -0.038295258 0.091397032 -1 0 0 0
0.025 -0.037660751 0.091426156 1 0 0 0
0.025 -0.037301872 0.091443054 1 0 0 0
-0.025 -0.036784519 0.091285482 -1 0 0 0
0.025 -0.036565375 0.091256022 1 0 0 0
-0.025 -0.035415478 0.091323905 -1 0 0 0
-0.025 -0.03517532 0.091338947 -1 0 0 0
0.025 -0.034790222 0.091356553 1 0 0 0
0.025000002 -0.034239411 0.091289185 1 0 0 0
0.025 -0.03376938 0.091399774 1 0 0 0
-0.025 -0.032997634 0.091485411 -1 0 0 0
0.025000002 -0.030865822 0.091473654 1 0 0 0
-0.025000002 -0.02836246 0.09143737 -1 0 0 0
-0.025000002 -0.026556324 0.09139891 -1 0 0 0
-0.025 -0.025044236 0.091281727 -1 0 0 0
0.024999999 -0.024019346 0.091433041 1 0 0 0
-0.025 -0.023700589 0.091475844 -1 0 0 0
0.024999999 -0.023133961 0.091338404 1 0 0 0
-0.024999999 -0.022970531 0.091320276 -1 0 0 0
-0.025 -0.022338819 0.091265939 -1 0 0 0
-0.024999999 -0.021581199 0.091340758 -1 0 0 0
0.024999999 -0.021447329 0.09137623 1 0 0 0
0.025 -0.018580031 0.091379784 1 0 0 0
0.024999999 -0.016705252 0.091258869 1 0 0 0
0.025000002 -0.016122632 0.091405503 1 0 0 0
0.025 -0.015976239 0.091420211 1 0 0 0
0.025 -0.011636712 0.091432981 1 0 0 0
-0.025000002 -0.010983242 0.091487691 -1 0 0 0
0.025 -0.010043232 0.091272175 1 0 0 0
0.025 -0.0071313214 0.091306858 1 0 0 0
-0.025000002 -0.006522316 0.091447577 -1 0 0 0
0.025 -0.0059736557 0.091261372 1 0 0 0
0.025 -0.0052063558 0.091418423 1 0 0 0
0.025 -0.0042280201 0.091377936 1 0 0 0
-0.025 -0.0025660642 0.091431722 -1 0 0 0
0.025 -0.0026924983 0.091425307 1 0 0 0
0.025 -0.0020124335 0.091447882 1 0 0 0
-0.024999999 -0.00080666272 0.091388419 -1 0 0 0
0.025 -0.00036138855 0.091379032 1 0 0 0
0.025 0.0034721252 0.091412313 1 0 0 0
-0.025 0.0038676693 0.091373667 -1 0 0 0
-0.025 0.0046703289 0.09133891 -1 0 0 0
0.025000002 0.0051262807 0.091297828 1 0 0 0
0.025000002 0.0077837696 0.091252707 1 0 0 0
0.024999999 0.010250637 0.091279708 1 0 0 0
0.025 0.010729619 0.091456532 1 0 0 0
-0.024999999 0.011206727 0.091460824 -1 0 0 0
-0.024999999 0.011786219 0.091403663 -1 0 0 0
0.025 0.012640892 0.091301844 1 0 0 0
0.025 0.012912908 0.091381922 1 0 0 0
-0.024999999 0.014056864 0.091360338 -1 0 0 0
-0.025 0.014338925 0.091389053 -1 0 0 0
-0.025 0.018743157 0.091447704 -1 0 0 0
-0.025 0.018842863 0.091394335 -1 0 0 0
0.025 0.018762201 0.091453068 1 0 0 0
0.025 0.021073364 0.091466025 1 0 0 0
0.025 0.023579819 0.09128654 1 0 0 0
0.024999999 0.027910545 0.091302834 1 0 0 0
0.025000002 0.028451931 0.091423154 1 0 0 0
-0.024999999 0.029565886 0.091292292 -1 0 0 0.86602539
0.025 0.035165552 0.091363125 1 0 0 0
-0.025 0.035375535 0.091323338 -1 0 0 0
0.025 0.035628095 0.091471106 1 0 0 0
-0.025000002 0.036762681 0.091390818 -1 0 0 0
0.025 0.037337571 0.09127032 1 0 0 0
0.025 0.039303102 0.091314018 1 0 0 0
-0.024999999 0.041417971 0.091457665 -1 0 0 0
0.024999999 0.041259896 0.091463663 1 0 0 0
-0.025 0.041583676 0.091299377 -1 0 0 0
0.025 0.046806015 0.091487765 1 0 0 0
-0.025 0.047056366 0.091370948 -1 0 0 0
-0.021650726 0.050000001 0.09148404 0 1 0 0
-0.01810962 0.050000001 0.091290154 0 1 0 0
-0.016244743 0.050000001 0.091255598 0 1 0 0
-0.015731581 0.050000001 0.091469854 0 1 0 0
-0.01528229 0.050000001 0.091263987 0 1 0 0
-0.0064505101 0.050000001 0.091354623 0 1 0 0
-0.0017761276 0.049999997 0.091487572 0 1 0 0
-0.0011578694 0.050000001 0.091426812 0 1 0 0
-0.00092338282 0.049999997 0.091489762 0 1 0 0
0.0028907391 0.050000001 0.091339804 0 1 0 0
0.0033946387 0.050000001 0.091470666 0 1 0 0
0.0069488687 0.050000001 0.09142714 0 1 0 0
0.0079418179 0.050000001 0.091300197 0 1 0 0
0.010203222 0.050000001 0.091499969 0 1 0 0
0.013444248 0.050000001 0.091391392 0 1 0 0
0.014007532 0.050000001 0.091323622 0 1 0 0
0.015471255 0.049999997 0.09139134 0 1 0 0
0.020305723 0.050000001 0.09136688 0 1 0 0
0.020658743 0.050000001 0.091268264 0 1 0 0
0.021875251 0.049999997 0.0913326 0 1 0 0
0.024704527 0.050000001 0.09129265 0 1 0 0
-0.013086307 0.050000004 0.091273487 0 1 0 0
-0.0043509146 0.050000004 0.091251247 0 1 0 0
0.00027896464 0.050000004 0.091433182 0 1 0 0
0.0029537203 0.050000004 0.091345817 0 1 0 0
0.0050552823 0.050000004 0.091297828 0 1 0 0
0.015699521 0.050000004 0.091397472 0 1 0 0
0.018932484 0.050000004 0.091448829 0 1 0 0
-0.025 -0.049874898 0.091518521 -1 0 0 0
-0.023121962 -0.050000001 0.091717027 0 -1 0 0
-0.021809176 -0.050000004 0.091710232 0 -1 0 0
-0.021433171 -0.050000004 0.091746956 0 -1 0 0
-0.020386197 -0.050000004 0.091668442 0 -1 0 0
-0.019957807 -0.050000004 0.091502361 0 -1 0 0
-0.019679055 -0.049999997 0.091718167 0 -1 0 0
-0.018859984 -0.050000001 0.091653749 0 -1 0 0
-0.018637998 -0.050000001 0.091640599 0 -1 0 0
-0.018377913 -0.050000001 0.091617085 0 -1 0 0
-0.016876787 -0.050000004 0.091656089 0 -1 0 0
-0.014544496 -0.050000001 0.091743484 0 -1 0 0
-0.01140501 -0.050000004 0.091739789 0 -1 0 0
-0.0051327208 -0.049999997 0.09165971 0 -1 0 0
-0.0042246217 -0.050000001 0.091522545 0 -1 0 0
-0.0033978182 -0.050000001 0.091673523 0 -1 0 0
-0.00010036502 -0.050000004 0.091719188 0 -1 0 0
0.00056460523 -0.050000001 0.091699332 0 -1 0 0
0.0015115193 -0.050000001 0.091665074 0 -1 0 0
0.0024647072 -0.050000004 0.091578938 0 -1 0 0
0.0045194095 -0.050000004 0.091626078 0 -1 0 0
0.0067639044 -0.050000001 0.091718972 0 -1 0 0
0.011686215 -0.050000001 0.091626421 0 -1 0 0
0.018880919 -0.050000001 0.091715418 0 -1 0 0
0.025000002 -0.049297057 0.09150327 1 0 0 0
-0.025000002 -0.048743568 0.091503665 -1 0 0 0
0.024999999 -0.048423931 0.091612265 1 0 0 0
0.025000002 -0.047178037 0.091521822 1 0 0 0
-0.025 -0.040915236 0.091554299 -1 0 0 0
-0.025 -0.038749669 0.091658063 -1 0 0 0
0.025 -0.036761429 0.091574244 1 0 0 0
-0.025 -0.035303317 0.091692582 -1 0 0 0
0.025 -0.03425264 0.091624446 1 0 0 0
0.025 -0.033438984 0.091669463 1 0 0 0
-0.025 -0.033117566 0.091669179 -1 0 0 0
0.025 -0.029833902 0.091534719 1 0 0 0
-0.024999999 -0.028590966 0.09153986 -1 0 0 0
0.024999999 -0.028604554 0.091654934 1 0 0 0
-0.025 -0.024265354 0.091572434 -1 0 0 0
0.025 -0.022808935 0.091698863 1 0 0 0
0.025 -0.022705246 0.091657236 1 0 0 0
-0.025000002 -0.020439766 0.091595769 -1 0 0 0
0.025 -0.019422498 0.09155906 1 0 0 0
0.025000002 -0.017350996 0.091690183 1 0 0 0
0.025000002 -0.017011674 0.091717713 1 0 0 0
0.024999999 -0.015563956 0.09165296 1 0 0 0
-0.025000002 -0.013693091 0.09153349 -1 0 0 0
-0.025 -0.013042881 0.091579944 -1 0 0 0
0.024999999 -0.011329757 0.091592483 1 0 0 0
-0.025000002 -0.0089841979 0.091733813 -1 0 0 0
-0.025 -0.0086657014 0.091591068 -1 0 0 0
-0.025000002 -0.0065130126 0.091708653 -1 0 0 0
-0.025 -0.0048558218 0.09161412 -1 0 0 0
-0.024999999 -0.0012753769 0.091610812 -1 0 0 0
0.025 -0.0010777507 0.091706403 1 0 0 0
-0.025 -0.00075158896 0.091701128 -1 0 0 0
-0.025000002 -0.0006994633 0.091643706 -1 0 0 0
0.025 -5.4849312e-05 0.091645516 1 0 0 0
-0.025 2.8916635e-05 0.091546282 -1 0 0 0
-0.025 0.0025164899 0.091666758 -1 0 0 0
0.025000002 0.0029930566 0.091524281 1 0 0 0
-0.025 0.0034371379 0.091558032 -1 0 0 0
0.025000002 0.003938199 0.091558941 1 0 0 0
0.025000002 0.0040046116 0.091558404 1 0 0 0
0.025 0.0044232337 0.091640562 1 0 0 0
-0.025 0.0047629084 0.091673121 -1 0 0 0
0.025 0.0052442644 0.091535091 1 0 0 0
0.025000002 0.0069763949 0.091642044 1 0 0 0
-0.024999999 0.0071683163 0.091685839 -1 0 0 0
-0.024999999 0.0096611409 0.091568202 -1 0 0 0
0.025000002 0.0095198611 0.091515541 1 0 0 0
0.025000002 0.0099251717 0.091630623 1 0 0 0
0.025 0.014030255 0.091541424 1 0 0 0
-0.025 0.014660582 0.091614552 -1 0 0 0
-0.024999999 0.016815066 0.091711342 -1 0 0 0
0.025 0.019179069 0.091684408 1 0 0 0
0.025 0.024601713 0.091503732 1 0 0 0
-0.025 0.025992107 0.091509044 -1 0 0 0
0.025 0.026466269 0.091653019 1 0 0 0
-0.025 0.027378211 0.091673434 -1 0 0 0
-0.025 0.029495375 0.091503821 -1 0 0 0
0.025 0.030889284 0.091658503 1 0 0 0
0.025000002 0.030826006 0.091531612 1 0 0 0
0.025 0.03714243 0.091556929 1 0 0 0
0.024999999 0.037453301 0.091725312 1 0 0 0
-0.025 0.039141037 0.091608033 -1 0 0 0
0.025 0.039221801 0.091557898 1 0 0 0
0.025000002 0.039451744 0.091532826 1 0 0 0
-0.025000002 0.040244825 0.091616772 -1 0 0 0
-0.025 0.041254997 0.091567189 -1 0 0 0
-0.025 0.044077802 0.091733798 -1 0 0 0
0.025 0.045007631 0.091562629 1 0 0 0
0.025 0.045863081 0.091571882 1 0 0 0
-0.025000002 0.046294108 0.091659382 -1 0 0 0
-0.025 0.047936153 0.091620654 -1 0 0 0
0.025 0.048111495 0.091712542 1 0 0 0
0.025 0.048579115 0.091608196 1 0 0 0
-0.025000002 0.049344297 0.091702908 -1 0 0 0
-0.02270985 0.049999997 0.091516018 0 1 0 0
-0.020300757 0.050000001 0.091613457 0 1 0 0
-0.017341217 0.050000001 0.091698632 0 1 0 0
-0.013214582 0.049999997 0.091596074 0 1 0 0
-0.0072366819 0.050000001 0.091707677 0 1 0 0
-0.0047819512 0.050000001 0.091590695 0 1 0 0
-0.0035142945 0.050000001 0.091596872 0 1 0 0
-0.003338512 0.050000001 0.091673747 0 1 0 0
-0.0023575667 0.050000001 0.091531046 0 1 0 0
-0.0021509833 0.049999997 0.091581322 0 1 0 0
0.0038896413 0.050000001 0.091560468 0 1 0 0
0.0066530332 0.049999997 0.09169513 0 1 0 0
0.0081237443 0.049999997 0.09154582 0 1 0 0
0.017462365 0.049999997 0.091565229 0 1 0 0
0.018954774 0.050000001 0.091691695 0 1 0 0
0.01947511 0.050000001 0.091514319 0 1 0 0
0.019698242 0.050000001 0.091698974 0 1 0 0
0.024639308 0.050000001 0.091638602 0 1 0 0
-0.024975875 0.050000004 0.091530941 0 1 0 0
-0.019444901 0.050000004 0.091544569 0 1 0 0
-0.013339288 0.050000004 0.09159115 0 1 0 0
-0.0032569245 0.050000004 0.091623552 0 1 0 0
0.0047066063 0.050000004 0.09152092 0 1 0 0
0.013962096 0.050000004 0.091525592 0 1 0 0
-0.02296976 -0.049999997 0.091926754 0 -1 0 0
-0.020971585 -0.050000004 0.091829643 0 -1 0 0
-0.020548688 -0.050000001 0.091866329 0 -1 0 0
-0.018647751 -0.050000001 0.091980562 0 -1 0 0
-0.017931519 -0.050000001 0.091927581 0 -1 0 0
-0.017150704 -0.049999997 0.091830656 0 -1 0 0
-0.016680948 -0.049999997 0.091970295 0 -1 0 0
-0.015355753 -0.050000001 0.091992341 0 -1 0 0
-0.01441304 -0.050000004 0.091970712 0 -1 0 0
-0.014049986 -0.050000001 0.091884173 0 -1 0 0
-0.01210966 -0.050000004 0.091795377 0 -1 0 0
-0.011381299 -0.050000004 0.091765031 0 -1 0 0
-0.0081803314 -0.050000004 0.091981158 0 -1 0 0
-0.0050694356 -0.050000001 0.091922544 0 -1 0 0
-0.0044367262 -0.050000004 0.091799989 0 -1 0 0
-0.0042074411 -0.050000001 0.091950119 0 -1 0 0
-0.00090822531 -0.050000001 0.091934159 0 -1 0 0
0.0013589892 -0.050000004 0.091811679 0 -1 0 0
0.002913232 -0.050000004 0.091925681 0 -1 0 0
0.0063217473 -0.050000001 0.091865115 0 -1 0 0
0.007606667 -0.050000001 0.091890767 0 -1 0 0
0.011635637 -0.050000004 0.091925472 0 -1 0 0
0.019230166 -0.050000004 0.091928281 0 -1 0 0
0.022630114 -0.050000001 0.091945641 0 -1 0 0
0.02418028 -0.050000001 0.091923788 0 -1 0 0
0.024608675 -0.050000001 0.091938391 0 -1 0 0
0.025 -0.048864041 0.091997191 1 0 0 0
0.025 -0.04800408 0.091980137 1 0 0 0
0.024999999 -0.04713475 0.091820113 1 0 0 0
-0.024999999 -0.046208534 0.091938786 -1 0 0 0
-0.025 -0.043092936 0.091757357 -1 0 0 0
-0.025000002 -0.042690828 0.091884702 -1 0 0 0
0.024999999 -0.041767478 0.091844521 1 0 0 0
-0.025 -0.036614873 0.091898017 -1 0 0 0
0.025 -0.036006216 0.091915466 1 0 0 0
0.025 -0.035897914 0.091793165 1 0 0 0
0.025 -0.035429347 0.091859765 1 0 0 0
0.025 -0.035047803 0.091998838 1 0 0 0
-0.025000002 -0.034702756 0.091921911 -1 0 0 0
-0.025 -0.034075044 0.091804221 -1 0 0 0
-0.025 -0.033488162 0.091954634 -1 0 0 0
-0.025 -0.033205137 0.091797367 -1 0 0 0
0.025000002 -0.032802932 0.091905981 1 0 0 0
0.025000002 -0.032527395 0.091851912 1 0 0 0
-0.025000002 -0.031244557 0.091790468 -1 0 0 0
0.025 -0.029925693 0.091806456 1 0 0 0
-0.025000002 -0.029053211 0.091826566 -1 0 0 0
-0.024999999 -0.028786359 0.091777109 -1 0 0 0
-0.025000002 -0.028250439 0.091806322 -1 0 0 0
-0.025000002 -0.027772106 0.091806054 -1 0 0 0
0.025 -0.0256407 0.091940634 1 0 0 0
-0.025 -0.022771886 0.09190125 -1 0 0 0
0.025 -0.022020694 0.091981947 1 0 0 0
-0.025 -0.01977266 0.091752753 -1 0 0 0
-0.025 -0.019689824 0.091935828 -1 0 0 0
0.025 -0.019031111 0.091951877 1 0 0 0
0.024999999 -0.015013345 0.091948919 1 0 0 0
0.025000002 -0.015071355 0.091902949 1 0 0 0
0.025 -0.011998463 0.09198191 1 0 0 0
0.025 -0.011385305 0.091880597 1 0 0 0
0.025 -0.010836983 0.091789521 1 0 0 0
-0.025 -0.01036912 0.091853589 -1 0 0 0
-0.025000002 -0.010099583 0.091816701 -1 0 0 0
0.025 -0.0085528996 0.091790751 1 0 0 0
-0.025 -0.0070379302 0.091874629 -1 0 0 0
-0.025 -0.0021534143 0.091884956 -1 0 0 0
0.025 -0.0016826671 0.091900527 1 0 0 0
-0.025 0.00016829115 0.091863379 -1 0 0 0
0.025 0.0016476177 0.091754615 1 0 0 0
-0.025 0.0026607211 0.091762677 -1 0 0 0
-0.025000002 0.0037268223 0.091855392 -1 0 0 0
-0.025000002 0.0058316942 0.091828108 -1 0 0 0
0.024999999 0.0079406165 0.091890067 1 0 0 0
-0.024999999 0.011887172 0.09190087 -1 0 0 0
0.025 0.012821296 0.091965236 1 0 0 0
-0.025 0.013402268 0.091986664 -1 0 0 0
-0.025 0.013995718 0.091995299 -1 0 0 0
0.025 0.013875332 0.091946252 1 0 0 0
0.025 0.014093127 0.09194947 1 0 0 0
0.025 0.014650153 0.091760293 1 0 0 0
-0.024999999 0.015903439 0.091786467 -1 0 0 0
-0.025 0.016756799 0.091750577 -1 0 0 0
0.025 0.018128175 0.091829538 1 0 0 0
0.025 0.018346924 0.091982752 1 0 0 0
-0.025 0.018796643 0.091821596 -1 0 0 0
0.025 0.019066133 0.091856405 1 0 0 0
0.025 0.022071499 0.091975734 1 0 0 0
-0.025000002 0.022374753 0.091848478 -1 0 0 0
0.025 0.024492942 0.091766633 1 0 0 0
-0.025 0.025804788 0.091878511 -1 0 0 0
0.024999999 0.026656222 0.091971688 1 0 0 0
0.025 0.027078757 0.09185563 1 0 0 0
-0.025 0.027554452 0.091978014 -1 0 0 0
0.025000002 0.027955282 0.091989465 1 0 0 0
0.025000002 0.028632082 0.091839656 1 0 0 0
0.025 0.029197052 0.091924623 1 0 0 0
-0.024999999 0.031455513 0.091975026 -1 0 0 0
-0.025000002 0.031962752 0.091819629 -1 0 0 0
0.025000002 0.033350043 0.09184444 1 0 0 0
-0.025 0.033592768 0.091973186 -1 0 0 0
0.025 0.03421187 0.091782168 1 0 0 0
-0.025000002 0.039888918 0.091912866 -1 0 0 0
-0.025000002 0.040900819 0.091936238 -1 0 0 0
-0.025 0.044606574 0.091880947 -1 0 0 0
0.025 0.045231577 0.091988161 1 0 0 0
-0.025000002 0.045683466 0.091934308 -1 0 0 0
-0.025000002 0.046588086 0.091754586 -1 0 0 0
-0.025 0.04962888 0.091899246 -1 0 0 0
-0.020397926 0.050000001 0.091791086 0 1 0 0
-0.018435784 0.050000001 0.091988258 0 1 0 0
-0.013840491 0.050000001 0.09184581 0 1 0 0
-0.013449068 0.050000001 0.091997191 0 1 0 0
-0.0055228081 0.050000001 0.091775656 0 1 0 0
-0.0047172992 0.049999997 0.091772817 0 1 0 0
-0.0034675135 0.050000001 0.091955774 0 1 0 0
0.0042599416 0.050000001 0.09198568 0 1 0 0
0.0047660363 0.050000001 0.091949381 0 1 0 0
0.013975792 0.049999997 0.091965616 0 1 0 0
0.016173489 0.050000001 0.091992281 0 1 0 0
0.019397918 0.049999997 0.091971338 0 1 0 0
0.019581787 0.049999997 0.091998003 0 1 0 0
0.021302786 0.049999997 0.09194883 0 1 0 0
-0.014253537 0.050000004 0.091848135 0 1 0 0
0.012038684 0.050000004 0.091994658 0 1 0 0
-0.024730241 -0.050000001 0.092204675 0 -1 0 0
-0.023100371 -0.050000001 0.092089005 0 -1 0 0
-0.018029423 -0.050000001 0.092061974 0 -1 0 0
-0.012674667 -0.050000001 0.092111632 0 -1 0 0
-0.0092256293 -0.049999997 0.092042804 0 -1 0 0
-0.0081984811 -0.050000004 0.092222475 0 -1 0 0
-0.0066166976 -0.050000004 0.092208162 0 -1 0 0
-0.005755309 -0.050000001 0.092247456 0 -1 0 0
0.0047761248 -0.049999997 0.092245594 0 -1 0 0
0.0064194784 -0.050000001 0.092190996 0 -1 0 0
0.0082547013 -0.050000001 0.092036068 0 -1 0 0
0.009645341 -0.050000001 0.09208113 0 -1 0 0
0.022658531 -0.050000001 0.092084974 0 -1 0 0
0.024800451 -0.050000004 0.092221268 0 -1 0 0
-0.025000002 -0.049713179 0.09212511 -1 0 0 0
-0.025000002 -0.048876829 0.092244215 -1 0 0 0
0.025 -0.048377592 0.092182741 1 0 0 0
0.025 -0.047626827 0.092160307 1 0 0 0
-0.025000002 -0.046339568 0.092105031 -1 0 0 0
0.025 -0.044308227 0.092101209 1 0 0 0
-0.025000002 -0.043333173 0.092074215 -1 0 0 1
0.025000002 -0.043425135 0.092008963 1 0 0 0
-0.025 -0.042203814 0.092065737 -1 0 0 0
0.025000002 -0.040543266 0.092213847 1 0 0 0
-0.025 -0.040028777 0.092019394 -1 0 0 0
-0.025 -0.039119445 0.092213973 -1 0 0 0
-0.025 -0.037875853 0.092222869 -1 0 0 0
0.025000002 -0.03777983 0.09222573 1 0 0 0
0.025 -0.035480943 0.092134744 1 0 0 0
0.025 -0.034935955 0.092130937 1 0 0 0
-0.025000002 -0.033144854 0.092083335 -1 0 0 0
0.024999999 -0.033100411 0.092063472 1 0 0 0
-0.025 -0.032903612 0.092187583 -1 0 0 0
-0.025 -0.03261257 0.092143975 -1 0 0 0
0.025 -0.032611292 0.092015386 1 0 0 0
0.025 -0.02953412 0.092162818 1 0 0 0
0.025000002 -0.028499158 0.092140883 1 0 0 0
-0.025000002 -0.027290469 0.092012927 -1 0 0 0
0.025000002 -0.027284548 0.092122957 1 0 0 0
-0.025 -0.026266595 0.092092834 -1 0 0 0
0.025 -0.02646653 0.092205524 1 0 0 0
-0.025 -0.025485428 0.092059039 -1 0 0 0
-0.025 -0.02393185 0.092090435 -1 0 0 0
0.025 -0.022774804 0.092111655 1 0 0 0
-0.025 -0.020936368 0.092124209 -1 0 0 0
0.024999999 -0.018417155 0.092104957 1 0 0 0
0.024999999 -0.015964612 0.092081822 1 0 0 0
-0.025 -0.013727423 0.092067182 -1 0 0 0
-0.025000002 -0.01238084 0.092069916 -1 0 0 0
0.025 -0.012034737 0.092034891 1 0 0 0
-0.025 -0.011915215 0.092101149 -1 0 0 0
0.025 -0.011368226 0.09201432 1 0 0 0
-0.025000002 -0.010532726 0.092177838 -1 0 0 0
0.025 -0.010356171 0.092155538 1 0 0 0
-0.025 -0.0076054223 0.092027813 -1 0 0 0
0.025 -0.0075096283 0.092120901 1 0 0 0
0.025 -0.0067114905 0.09224841 1 0 0 0
0.025 -0.0063581597 0.092034906 1 0 0 0
0.025 -0.0061253272 0.092245281 1 0 0 0
0.025 -0.0057063252 0.092117503 1 0 0 0
-0.025 -0.0046957135 0.092202216 -1 0 0 0
0.025 -0.0047384594 0.09217789 1 0 0 0
0.025 -0.0044846833 0.092005938 1 0 0 0
-0.025 -0.003851539 0.09220051 -1 0 0 0
0.025 -0.0039276853 0.092019871 1 0 0 0
0.025 -0.0035285186 0.092063621 1 0 0 0
-0.025000002 -0.0022616326 0.09204267 -1 0 0 0
0.025 -0.0022753719 0.09214808 1 0 0 0
0.025 -0.001302721 0.092133246 1 0 0 0
0.025 4.0611252e-05 0.092044383 1 0 0 0
0.025 0.0015119426 0.092248157 1 0 0 0
0.025 0.0024714451 0.092091769 1 0 0 0
-0.025 0.0027531036 0.092078902 -1 0 0 0
0.025 0.0065547926 0.092213213 1 0 0 0
-0.024999999 0.007054959 0.092037953 -1 0 0 0
0.025 0.0074390201 0.09201593 1 0 0 0
-0.025 0.0083552673 0.092113726 -1 0 0 0
-0.024999999 0.010010392 0.092128664 -1 0 0 0
-0.025 0.010503973 0.092167214 -1 0 0 0
-0.025 0.01103237 0.092156969 -1 0 0 0
0.025 0.012375125 0.092170119 1 0 0 0
-0.025 0.013083611 0.092178755 -1 0 0 0
-0.025 0.01363834 0.092227951 -1 0 0 0
-0.024999999 0.015397116 0.092236683 -1 0 0 0
0.025 0.017985024 0.092118785 1 0 0 0
0.025 0.019245908 0.092136763 1 0 0 0
-0.024999999 0.019330436 0.092102557 -1 0 0 0
-0.025 0.020048801 0.092079468 -1 0 0 0
0.024999999 0.020667853 0.092054978 1 0 0 0
-0.025000002 0.021617351 0.092109509 -1 0 0 0
0.025 0.021653537 0.092212498 1 0 0 0
-0.025 0.022524986 0.092120089 -1 0 0 0
0.024999999 0.024036089 0.092163764 1 0 0 0
0.024999999 0.024513116 0.092057392 1 0 0 0
-0.025 0.025111843 0.092153728 -1 0 0 0
-0.025 0.027213549 0.092045859 -1 0 0 0
-0.025000002 0.028762795 0.092187688 -1 0 0 0
0.025 0.028928429 0.092104182 1 0 0 0
0.025000002 0.030822497 0.092001855 1 0 0 0
-0.025000002 0.033243973 0.092145383 -1 0 0 0
0.025 0.033174068 0.092059523 1 0 0 0
0.025 0.039764762 0.092038549 1 0 0 0
-0.025 0.041385356 0.092210881 -1 0 0 0
0.025 0.041506775 0.092085108 1 0 0 0
0.025 0.042322274 0.092129178 1 0 0 0
-0.024999999 0.043969225 0.092238396 -1 0 0 0
0.025 0.048386112 0.092166714 1 0 0 0
-0.024783891 0.050000001 0.092131846 0 1 0 0
-0.021456473 0.050000001 0.092037126 0 1 0 0
-0.020784227 0.049999997 0.092019804 0 1 0 0
-0.019883351 0.050000001 0.092190832 0 1 0 0
-0.012201468 0.050000001 0.092075676 0 1 0 0
0.00067461189 0.050000001 0.092008613 0 1 0 0
0.010978115 0.050000001 0.09209694 0 1 0 0
0.012345225 0.050000001 0.092160366 0 1 0 0
0.013725508 0.050000001 0.092222258 0 1 0 0
0.01382799 0.049999997 0.092176139 0 1 0 0
0.016787063 0.050000001 0.092082798 0 1 0 0
0.019740826 0.050000001 0.092081234 0 1 0 0
0.020611245 0.049999997 0.092067525 0 1 0 0
0.02295614 0.050000001 0.092192829 0 1 0 0
0.023335055 0.050000001 0.092210293 0 1 0 0
0.023698933 0.050000001 0.092020094 0 1 0 0
0.024624635 0.050000001 0.092086047 0 1 0 0
-0.024796121 0.050000004 0.092216648 0 1 0 0
-0.019746825 0.050000004 0.092079729 0 1 0 0
-0.017288722 0.050000004 0.092151187 0 1 0 0
-0.013508818 0.050000004 0.092239186 0 1 0 0
-0.011915158 0.050000004 0.092173979 0 1 0 0
-0.0016724938 0.050000004 0.092197441 0 1 0 0
7.198099e-05 0.050000004 0.092022501 0 1 0 0
0.0084831435 0.050000004 0.092124462 0 1 0 0
0.016275749 0.050000004 0.092130773 0 1 0 0
0.017614895 0.050000004 0.092222616 0 1 0 0
0.022176594 0.050000004 0.092238024 0 1 0 0
-0.020402774 -0.050000004 0.092328578 0 -1 0 0
-0.01059876 -0.050000004 0.09247344 0 -1 0 0
-0.010047374 -0.050000001 0.092393085 0 -1 0 0
-0.0088509861 -0.050000001 0.092282675 0 -1 0 0
-0.0073086051 -0.049999997 0.092427537 0 -1 0 0
-0.0070181349 -0.050000004 0.092486486 0 -1 0 0
-0.0066584107 -0.050000001 0.092433423 0 -1 0 0
-0.0040864758 -0.049999997 0.092492945 0 -1 0 0
-0.0025366801 -0.050000001 0.092462279 0 -1 0 0
-0.0016159059 -0.049999997 0.092376247 0 -1 0 0
-0.0014515051 -0.050000001 0.092373259 0 -1 0 0
0.0014450115 -0.049999997 0.092424773 0 -1 0 0
0.0035152868 -0.050000001 0.092385471 0 -1 0 0
0.0066857245 -0.050000001 0.092394248 0 -1 0 0
0.00681677 -0.050000001 0.092395484 0 -1 0 0
0.0096764062 -0.050000001 0.092254326 0 -1 0 0
0.010205451 -0.050000004 0.092462189 0 -1 0 0
0.010453989 -0.050000001 0.09229371 0 -1 0 0
0.018028278 -0.050000001 0.092251055 0 -1 0 0
0.019164326 -0.050000001 0.092446573 0 -1 0 0
-0.025 -0.048697501 0.092456609 -1 0 0 0
-0.025 -0.047971524 0.092365578 -1 0 0 0
-0.025000002 -0.046771951 0.092316665 -1 0 0 0
0.024999999 -0.046578258 0.092260472 1 0 0 0
0.025 -0.045177501 0.092392042 1 0 0 0
0.025000002 -0.04348433 0.092476167 1 0 0 0
0.025 -0.041665863 0.092281662 1 0 0 0
0.025000002 -0.04042612 0.092324473 1 0 0 0
-0.025 -0.040170535 0.092254624 -1 0 0 0
-0.025000002 -0.039066702 0.092368461 -1 0 0 0
0.025 -0.038856659 0.092293382 1 0 0 0
0.025 -0.037154492 0.09240517 1 0 0 0
0.025 -0.035389889 0.09245348 1 0 0 0
-0.025 -0.033678371 0.09226492 -1 0 0 0
0.025 -0.033281658 0.092450552 1 0 0 0
-0.025000002 -0.03053291 0.092446163 -1 0 0 0
-0.025 -0.028876636 0.092305541 -1 0 0 0
-0.025000002 -0.027611744 0.092267022 -1 0 0 0
-0.024999999 -0.027049959 0.09229514 -1 0 0 0
-0.025 -0.026181929 0.092329621 -1 0 0 0
-0.024999999 -0.025941361 0.092295237 -1 0 0 0
0.025 -0.024669047 0.092417225 1 0 0 0
-0.025000002 -0.02428937 0.09249939 -1 0 0 0
0.025 -0.022906568 0.092403501 1 0 0 0
0.025 -0.021885287 0.092376269 1 0 0 0
0.025 -0.021569371 0.092324048 1 0 0 0
-0.024999999 -0.021117717 0.092400625 -1 0 0 0
-0.025 -0.020604126 0.092430592 -1 0 0 0
0.025000002 -0.020579681 0.092481695 1 0 0 0
0.025 -0.020004641 0.09242335 1 0 0 0
-0.025000002 -0.017662888 0.092470095 -1 0 0 0
0.024999999 -0.017603755 0.092326775 1 0 0 0
0.025 -0.01721568 0.092335075 1 0 0 0
-0.025 -0.015436514 0.092353031 -1 0 0 0
0.024999999 -0.015221125 0.092435643 1 0 0 0
-0.025 -0.014393283 0.092269652 -1 0 0 0
0.025 -0.013790537 0.092291243 1 0 0 0
0.025 -0.013653595 0.092485771 1 0 0 0
0.025 -0.011892259 0.092441238 1 0 0 0
0.025 -0.010917202 0.092332959 1 0 0 0
0.025 -0.0094157904 0.092250258 1 0 0 0
-0.025 -0.0092330258 0.092420273 -1 0 0 0
0.025 -0.0084714014 0.092484832 1 0 0 0
0.025 -0.00634191 0.092472196 1 0 0 0
0.025 -0.0053369431 0.092480831 1 0 0 0
-0.025 -0.0024667 0.0924659 -1 0 0 0
-0.025 -0.0020740158 0.092374623 -1 0 0 0
-0.024999999 -0.00033829873 0.092496149 -1 0 0 0
-0.024999999 0.00052843057 0.092480093 -1 0 0 0
0.025 0.0020126589 0.092284366 1 0 0 0
0.025000002 0.002110295 0.092265084 1 0 0 0
-0.025 0.0046473108 0.092318669 -1 0 0 0
0.025000002 0.0054289326 0.09231405 1 0 0 0
-0.025 0.0070224898 0.092341185 -1 0 0 0
0.025 0.0071659833 0.092289582 1 0 0 0
-0.025000002 0.0074869245 0.09230715 -1 0 0 0
-0.025000002 0.0081175026 0.092442639 -1 0 0 0
-0.025 0.0098462226 0.092478119 -1 0 0 0
-0.025000002 0.010204244 0.092288397 -1 0 0 0
-0.025 0.01094363 0.092283219 -1 0 0 0
0.025 0.012251141 0.092278294 1 0 0 0
-0.025 0.012888147 0.09248694 -1 0 0 0
-0.025 0.013768895 0.092286423 -1 0 0 0
0.025 0.013943752 0.092349708 1 0 0 0
-0.025 0.01422379 0.092453063 -1 0 0 0
-0.025000002 0.01465378 0.092417248 -1 0 0 0
-0.024999999 0.015058691 0.092486702 -1 0 0 0
0.025 0.016253386 0.092438601 1 0 0 0
0.025 0.022153625 0.092398643 1 0 0 0
0.025000002 0.023411179 0.092459254 1 0 0 0
0.025 0.024420317 0.09232448 1 0 0 0
0.025 0.02572887 0.09239319 1 0 0 0
0.025 0.026554618 0.092286289 1 0 0 0
-0.025000002 0.02834343 0.092497356 -1 0 0 0
-0.025 0.028943866 0.092282273 -1 0 0 0
-0.025 0.029497959 0.092438824 -1 0 0 0
-0.024999999 0.032441381 0.092280596 -1 0 0 0
0.025000002 0.032823466 0.092377551 1 0 0 0
-0.024999999 0.033422101 0.092342913 -1 0 0 0
-0.024999999 0.034673199 0.092440389 -1 0 0 0
0.025 0.036086712 0.092316225 1 0 0 0
-0.024999999 0.036501911 0.092436239 -1 0 0 0
-0.025 0.037016772 0.092464224 -1 0 0 0
-0.025000002 0.038049899 0.092262611 -1 0 0 0
0.025 0.045087069 0.092441238 1 0 0 0
0.025 0.045818068 0.092434376 1 0 0 0
-0.025 0.04645931 0.092461631 -1 0 0 0
0.025000002 0.046912313 0.092352465 1 0 0 0
-0.025 0.047029935 0.092469193 -1 0 0 0
-0.023265388 0.050000001 0.092407882 0 1 0 0
-0.022692131 0.050000001 0.092442155 0 1 0 0
-0.021959102 0.050000001 0.092474781 0 1 0 0
-0.02159182 0.050000001 0.092358634 0 1 0 0
-0.021144256 0.049999997 0.092447653 0 1 0 0
-0.019504968 0.050000001 0.092251375 0 1 0 0
-0.017670151 0.050000001 0.092427164 0 1 0 0
-0.017052837 0.050000001 0.092495896 0 1 0 0
-0.0076470878 0.050000001 0.092417218 0 1 0 0
-0.003716137 0.050000001 0.092393398 0 1 0 0
-0.0034156609 0.050000001 0.092323989 0 1 0 0
-0.0023728418 0.050000001 0.0924014 0 1 0 0
-0.0021727521 0.050000001 0.092438139 0 1 0 0
0.0052463631 0.050000001 0.092464834 0 1 0 0
0.0075397911 0.049999997 0.092291683 0 1 0 0
0.012470597 0.049999997 0.092413411 0 1 0 0
0.012983761 0.050000001 0.092284247 0 1 0 0
0.014402779 0.050000001 0.092395298 0 1 0 0
0.016269648 0.050000001 0.092283972 0 1 0 0
0.022528006 0.050000001 0.092303038 0 1 0 0
-0.024220759 0.050000004 0.092284121 0 1 0 0
-0.019901412 0.050000004 0.092437744 0 1 0 0
0.016796755 0.050000004 0.092360944 0 1 0 0
0.024158653 0.050000004 0.092405349 0 1 0 0
-0.024805464 -0.050000004 0.092532218 0 -1 0 0
-0.024416672 -0.050000001 0.09263242 0 -1 0 0
-0.021910116 -0.050000004 0.092535421 0 -1 0 0
-0.016465129 -0.050000001 0.092515446 0 -1 0 0
-0.014168812 -0.050000001 0.092521235 0 -1 0 0
-0.011590768 -0.049999997 0.092532411 0 -1 0 0
-0.0065800296 -0.050000004 0.092726141 0 -1 0 0
-0.0045659225 -0.050000001 0.092553675 0 -1 0 0
-0.0044868919 -0.049999997 0.092579134 0 -1 0 0
-0.0023362632 -0.049999997 0.092585362 0 -1 0 0
-0.0020647971 -0.050000004 0.092702903 0 -1 0 0
-0.0019301889 -0.050000001 0.092742085 0 -1 0 0
-0.0012195073 -0.050000001 0.09265352 0 -1 0 0
-0.00080740056 -0.050000001 0.092638776 0 -1 0 0
0.0069398843 -0.050000001 0.092618003 0 -1 0 0
0.0085401973 -0.050000001 0.092521533 0 -1 0 0
0.0092405546 -0.050000001 0.092502534 0 -1 0 0
0.016852221 -0.050000001 0.092651278 0 -1 0 0
0.017952187 -0.050000001 0.092652172 0 -1 0 0
0.020163577 -0.049999997 0.092645884 0 -1 0 0
0.021009782 -0.050000001 0.09256804 0 -1 0 0
0.024583045 -0.049999997 0.092534408 0 -1 0 0
-0.025000002 -0.049403213 0.092545643 -1 0 0 0
0.025000002 -0.048231944 0.092737429 1 0 0 0
-0.025 -0.047860622 0.092595592 -1 0 0 0
-0.025000002 -0.047465779 0.092667341 -1 0 0 0
0.025000002 -0.045780845 0.092611775 1 0 0 0
-0.025 -0.045389727 0.092602447 -1 0 0 0
0.025000002 -0.044176847 0.092710085 1 0 0 0
-0.025 -0.043443561 0.092667937 -1 0 0 0
0.025000002 -0.042151839 0.092624113 1 0 0 0
0.025 -0.040420529 0.092637189 1 0 0 0
-0.025000002 -0.039473221 0.092558585 -1 0 0 0
0.025000002 -0.039268635 0.092572801 1 0 0 0
-0.025 -0.038088758 0.092671059 -1 0 0 0
0.025000002 -0.03395956 0.092593059 1 0 0 0
0.025 -0.033327963 0.092510432 1 0 0 0
-0.025 -0.032777559 0.09253706 -1 0 0 0
0.025 -0.029403564 0.092633478 1 0 0 0
0.024999999 -0.025468923 0.092650346 1 0 0 0
0.025000002 -0.025291152 0.092501462 1 0 0 0
0.025 -0.021284353 0.09272334 1 0 0 0
-0.025 -0.018826198 0.092589006 -1 0 0 0
0.025000002 -0.018743308 0.092646457 1 0 0 0
0.024999999 -0.018079704 0.092538975 1 0 0 0
-0.025000002 -0.017428011 0.092542127 -1 0 0 0
-0.025 -0.016210891 0.092630103 -1 0 0 0
-0.025000002 -0.01425869 0.092686012 -1 0 0 0
-0.025 -0.013906446 0.092649549 -1 0 0 0
-0.025 -0.012319563 0.092564575 -1 0 0 0
-0.025 -0.011899309 0.092626825 -1 0 0 0
0.025 -0.011205822 0.09267801 1 0 0 0
-0.025 -0.0095290188 0.092575461 -1 0 0 0
0.025 -0.0090151858 0.092559256 1 0 0 0
-0.024999999 -0.0080853999 0.092606626 -1 0 0 0
-0.025000002 -0.0073195947 0.092630312 -1 0 0 0
0.025 -0.0071373954 0.092546083 1 0 0 0
0.025 -0.0060982145 0.092614949 1 0 0 0
-0.025000002 -0.0059086708 0.092703186 -1 0 0 0
0.025 -0.0056472793 0.09273614 1 0 0 0
0.025 -0.0043840185 0.092568591 1 0 0 0
-0.025000002 -0.0039223703 0.092700623 -1 0 0 0
-0.025 -0.0023589516 0.092709243 -1 0 0 0
0.025000002 -0.0014785174 0.092657067 1 0 0 0
0.025 -0.00034981966 0.092561573 1 0 0 0
0.025 0.00045093335 0.092644028 1 0 0 0
-0.025 0.002011307 0.092613056 -1 0 0 0
0.025000002 0.0024391953 0.092702255 1 0 0 0
-0.025000002 0.0036329185 0.092675507 -1 0 0 0
-0.025000002 0.0043030959 0.092696153 -1 0 0 0
0.025 0.0057736002 0.092617437 1 0 0 0
-0.025 0.006274248 0.092644706 -1 0 0 0
-0.025 0.0068480591 0.092733122 -1 0 0 0
0.025 0.0070140772 0.092702053 1 0 0 0
0.025 0.0092373332 0.092702508 1 0 0 0
0.024999999 0.0094117541 0.092536785 1 0 0 0
-0.025 0.010481246 0.092701241 -1 0 0 0
-0.024999999 0.010797093 0.092639081 -1 0 0 0
-0.025000002 0.013723979 0.092504688 -1 0 0 0
0.025 0.014302027 0.092538148 1 0 0 0
