# .PCD v0.7 - Point Cloud Data file format
VERSION 0.7
FIELDS x y z normal_x normal_y normal_z curvature
SIZE 4 4 4 4 4 4 4
TYPE F F F F F F F
COUNT 1 1 1 1 1 1 1
WIDTH 999
HEIGHT 1
VIEWPOINT 0 0 0 1 0 0 0
POINTS 999
DATA ascii
0.025000002 0.040779963 3.6642236e-05 1 0 0 0
0.025 0.041388262 0.00017237627 1 0 0 0
-0.020494176 0.050000001 0.00021921397 0 1 0 0
0.00070980564 0.050000001 0.00010632873 0 1 0 0
0.025 -0.018757276 0.00033406555 1 0 0 0
0.024999999 -0.012212904 0.00066125888 1 0 0 0
-0.0012234324 0.050000001 0.00067006348 0 1 0 0
0.025 0.03797996 0.00088367105 1 0 0 0
0.025 -0.0012328885 0.0013209394 1 0 0 0
0.025000002 0.031473503 0.0014952552 1 0 0 0
0.025 0.041955885 0.0013776952 1 0 0 0
0.025 -0.0029575974 0.0016902303 1 0 0 0
0.025000002 0.030632727 0.0016959817 1 0 0 0
0.025 0.044239525 0.0015938057 1 0 0 0
0.025 -0.044786043 0.0017911948 1 0 0 0
0.025000002 -0.013851115 0.0021197707 1 0 0 0
-0.023632027 0.050000001 0.0020826936 0 1 0 0
-0.012110298 0.050000004 0.0020736575 0 1 0 0
0.025 -0.024273686 0.0023090278 1 0 0 0
0.025 0.035165906 0.002472017 1 0 0 0
0.024999999 0.016116343 0.0025248032 1 0 0 0
0.018706199 0.050000001 0.0027150989 0 1 0 0
0.025 0.0017382409 0.0029127812 1 0 0 0
0.025 -0.047562797 0.0032406957 1 0 0 0
0.025 -0.040960956 0.0030772176 1 0 0 0
0.025 0.010948757 0.0030359242 1 0 0 0
0.024999999 0.011269173 0.0030818542 1 0 0 0
0.016506508 0.050000001 0.0032348633 0 1 0 0
0.025 -0.018229164 0.0034228349 1 0 0 0
0.025 0.049980849 0.0033356638 1 0 0 0
0.025 -0.037086461 0.0035655496 1 0 0 0
0.025 0.040518865 0.0037312086 1 0 0 0
0.025000002 0.043950014 0.0036814704 1 0 0 0
0.025 0.048039142 0.0037237327 1 0 0 0
0.025 -0.0031104274 0.0038814114 1 0 0 0
0.025 0.01265475 0.0038381305 1 0 0 0
-0.0036864886 0.050000001 0.003796512 0 1 0 0
0.025 -0.0057141986 0.0041385638 1 0 0 0
0.025 0.032065831 0.0040884721 1 0 0 0
-0.01188631 0.050000001 0.0040784837 0 1 0 0
0.025000002 -0.02269041 0.0042862031 1 0 0 0
0.025 0.033604555 0.0044321846 1 0 0 0
0.025000002 0.014980935 0.004638481 1 0 0 0
0.0042461632 0.050000001 0.0046316683 0 1 0 0
0.013308988 0.050000001 0.0045197727 0 1 0 0
0.010309242 0.049999997 0.0048799934 0 1 0 0
0.0072130975 0.050000004 0.0051282407 0 1 0 0
0.025 -0.02637253 0.0053694593 1 0 0 0
-0.0082279742 0.050000001 0.0053889751 0 1 0 0
0.025 0.039730866 0.0055111656 1 0 0 0
0.018512353 0.050000001 0.0057159248 0 1 0 0
0.025 -0.030158941 0.0058038072 1 0 0 0
0.025 0.043555994 0.0059996219 1 0 0 0
-0.01253737 0.050000001 0.0058333217 0 1 0 0
0.025 -0.028506014 0.0061253565 1 0 0 0
0.025 0.00097617321 0.006138253 1 0 0 0
0.025 0.012318801 0.006192002 1 0 0 0
0.025000002 0.024245817 0.0062580872 1 0 0 0
0.025000002 0.027361354 0.0063759419 1 0 0 0
0.025 -0.039852567 0.0066790413 1 0 0 0
0.025 -0.033631079 0.0066766753 1 0 0 0
-0.0045343866 0.050000001 0.0065707029 0 1 0 0
0.0073549785 0.050000001 0.0065740347 0 1 0 0
0.025 -0.024112627 0.0067502134 1 0 0 0
0.025000002 -0.023704821 0.0068274834 1 0 0 0
0.025000002 0.0173559 0.0067515685 1 0 0 0
-0.019094862 0.050000001 0.0069900276 0 1 0 0
-0.0070393328 0.050000001 0.0071690381 0 1 0 0
0.025 0.045409102 0.0074835946 1 0 0 0
0.025 -0.033452697 0.0076279631 1 0 0 0
0.025 -0.03997248 0.0079375235 1 0 0 0
0.025 -0.02634763 0.0078316759 1 0 0 0
-0.00061158731 0.050000004 0.0079118256 0 1 0 0
0.025 0.010740126 0.0082260082 1 0 0 0
0.025 -0.022156883 0.0087318877 1 0 0 0
0.025000002 0.024560086 0.0085327066 1 0 0 0
0.0021116221 0.050000001 0.0087277889 0 1 0 0
0.025 -0.044689935 0.0088069215 1 0 0 0
0.025 0.00083787739 0.0088336607 1 0 0 0
0.025 0.018000934 0.0088466266 1 0 0 0
-0.024062596 0.050000001 0.008838743 0 1 0 0
0.025 0.020766607 0.0092473766 1 0 0 0
-0.02023576 0.050000001 0.0092443405 0 1 0 0
0.025000002 -0.0063292384 0.0098947603 1 0 0 0
0.025 -0.048982423 0.010248717 1 0 0 0
-0.023333617 0.050000001 0.010027612 0 1 0 0
0.025 -0.0078067984 0.010285942 1 0 0 0
-0.011498019 0.050000001 0.01037131 0 1 0 0
0.025000002 0.015771203 0.010511331 1 0 0 0
0.0078642266 0.050000001 0.01084227 0 1 0 0
0.017880758 0.050000001 0.010988123 0 1 0 0
0.025 -0.023013756 0.011014024 1 0 0 0
0.024999999 -0.0041817017 0.011102249 1 0 0 0
0.025 0.044080157 0.011007881 1 0 0 0
0.025 -0.047195513 0.011430051 1 0 0 0
0.023706028 0.050000001 0.012418173 0 1 0 0
0.025 -0.038212899 0.012640911 1 0 0 0
0.025000002 -0.015654532 0.012517931 1 0 0 0
0.024999999 0.025579525 0.012587107 1 0 0 0
0.025 -0.020221334 0.012848928 1 0 0 0
0.025 0.030694352 0.012848704 1 0 0 0
-0.00096101779 0.050000001 0.012763041 0 1 0 0
0.025 -0.022915699 0.013259857 1 0 0 0
0.0051281843 0.050000001 0.013415379 0 1 0 0
0.012483778 0.050000001 0.013814044 0 1 0 0
0.024999999 0.029650163 0.014162665 1 0 0 0
0.025 0.0021032654 0.014317987 1 0 0 0
0.025 -0.012118727 0.014714497 1 0 0 0
0.025 0.0092480956 0.014511829 1 0 0 0
0.025000002 -0.0098037049 0.014938837 1 0 0 0
0.025 0.020333804 0.015160903 1 0 0 0
-0.018944014 0.050000001 0.015216089 0 1 0 0
0.015368789 0.050000001 0.015087939 0 1 0 0
0.025 -0.019105684 0.015583559 1 0 0 0
0.025 -0.048520762 0.01593104 1 0 0 0
0.025000002 0.0010127835 0.015837017 1 0 0 0
0.025 -0.047635753 0.016106863 1 0 0 0
0.025 -0.027034916 0.016084725 1 0 0 0
0.024999999 0.024873517 0.016082773 1 0 0 0
-0.011484787 0.050000004 0.01613009 0 1 0 0
0.011740931 0.050000004 0.016389269 0 1 0 0
0.025 0.0067391023 0.016918361 1 0 0 0
0.018577235 0.050000001 0.016834406 0 1 0 0
0.0050759278 0.050000004 0.016903568 0 1 0 0
0.025000002 -0.028323868 0.017228566 1 0 0 0
0.025 0.025979513 0.017069312 1 0 0 0
0.025000002 0.033560477 0.017123541 1 0 0 0
0.012533953 0.050000001 0.017167343 0 1 0 0
0.024999999 0.0028387755 0.017487606 1 0 0 0
-0.021285839 0.050000001 0.0172548 0 1 0 0
0.022861073 0.050000001 0.017495442 0 1 0 0
0.0026681339 0.050000004 0.017328775 0 1 0 0
0.024784867 0.050000004 0.017281076 0 1 0 0
0.025000002 -0.006607987 0.017664006 1 0 0 0
0.025000002 0.01231785 0.017740622 1 0 0 0
-0.021154774 0.050000001 0.017742574 0 1 0 0
0.0098715965 0.050000001 0.017670644 0 1 0 0
0.025 -0.045127939 0.017765284 1 0 0 0
-0.0028464743 0.050000004 0.017850775 0 1 0 0
0.025 -0.024644764 0.018123055 1 0 0 0
0.025 -0.023583211 0.018090639 1 0 0 0
-0.0054311715 0.050000001 0.01848693 0 1 0 0
0.0176879 0.050000001 0.018328564 0 1 0 0
0.025000002 0.0024308693 0.018703585 1 0 0 0
0.025000002 0.010788219 0.018513137 1 0 0 0
0.025 0.03846382 0.018682063 1 0 0 0
0.025 -0.013942395 0.019228835 1 0 0 0
0.025 -0.01765999 0.019361949 1 0 0 0
-0.012399063 0.050000001 0.019346995 0 1 0 0
-0.0022589637 0.050000001 0.019932492 0 1 0 0
0.0043454566 0.049999997 0.019993847 0 1 0 0
0.00048922794 0.050000001 0.020082099 0 1 0 0
0.025000002 -0.005656926 0.020648394 1 0 0 0
0.01720552 0.050000001 0.020542968 0 1 0 0
0.025 0.018715493 0.020887256 1 0 0 0
0.025 -0.039873499 0.021042559 1 0 0 0
0.025000002 -0.0060049146 0.021117015 1 0 0 0
0.011552921 0.050000004 0.021082873 0 1 0 0
-0.01802652 0.050000001 0.021256214 0 1 0 0
0.025 0.01015183 0.021691289 1 0 0 0
0.025 0.042288076 0.021892741 1 0 0 0
0.025 -0.017967632 0.02224898 1 0 0 0
0.025 -0.0099996412 0.02234523 1 0 0 0
0.024999999 0.02245426 0.022293504 1 0 0 0
0.025 0.017736215 0.022743499 1 0 0 0
0.025 0.049192436 0.022731902 1 0 0 0
0.025000002 -0.018415429 0.023285104 1 0 0 0
0.021077966 0.050000001 0.023375865 0 1 0 0
0.025 -0.014786201 0.023702815 1 0 0 0
0.025 -0.049050931 0.023937851 1 0 0 0
0.025 -0.03385229 0.023914849 1 0 0 0
0.025 0.017882507 0.023922062 1 0 0 0
0.025000002 -0.02044677 0.024213439 1 0 0 0
0.025 -0.040978301 0.024310902 1 0 0 0
0.024999999 0.0066986512 0.024318147 1 0 0 0
-0.01574656 0.050000004 0.024282193 0 1 0 0
0.025 0.046811882 0.024764471 1 0 0 0
-0.022739341 0.050000001 0.024905741 0 1 0 0
-0.0077730529 0.050000001 0.024858117 0 1 0 0
0.025 -0.046947334 0.025225982 1 0 0 0
0.025 -0.024744662 0.025107848 1 0 0 0
0.024999999 0.029179806 0.025176052 1 0 0 0
0.025 0.013436334 0.025407402 1 0 0 0
0.025 0.0065488396 0.025642766 1 0 0 0
0.024999999 0.033984911 0.025582455 1 0 0 0
0.025 -0.033369038 0.026148207 1 0 0 0
-0.0050993143 0.050000001 0.026122779 0 1 0 0
-0.0020457497 0.050000001 0.026205426 0 1 0 0
0.022564983 0.050000001 0.026047844 0 1 0 0
0.025 -0.010729451 0.026461294 1 0 0 0
0.024999999 0.041439898 0.026482467 1 0 0 0
0.025000002 0.025813987 0.026585869 1 0 0 0
-0.0098149655 0.050000001 0.026944429 0 1 0 0
0.025 -0.01115655 0.027210204 1 0 0 0
0.019711455 0.050000001 0.027197346 0 1 0 0
-0.016650498 0.050000004 0.027422804 0 1 0 0
0.017607776 0.050000001 0.027579058 0 1 0 0
-0.023588441 0.050000001 0.027855575 0 1 0 0
0.025 0.0033880295 0.028122474 1 0 0 0
-0.023988936 0.050000001 0.028247034 0 1 0 0
0.025 -0.04193056 0.028421327 1 0 0 0
0.025 0.0047478164 0.028389009 1 0 0 0
0.025000002 -0.030007036 0.028669037 1 0 0 0
0.025000002 -0.011760602 0.028503839 1 0 0 0
0.022530569 0.050000001 0.02868207 0 1 0 0
0.025 -0.020310273 0.029010775 1 0 0 0
0.025 0.048511472 0.02918274 1 0 0 0
0.025 -0.030343417 0.029419225 1 0 0 0
0.025000002 -0.013118601 0.029281862 1 0 0 0
0.025 0.0066841673 0.029478349 1 0 0 0
0.025 0.038876563 0.029423423 1 0 0 0
-0.010044228 0.050000004 0.029420692 0 1 0 0
-0.0015801801 0.050000001 0.02956745 0 1 0 0
-0.024126858 0.050000004 0.029542197 0 1 0 0
0.025 -0.048902344 0.029775418 1 0 0 0
0.024999999 0.041905668 0.029885435 1 0 0 0
0.025 -0.034817446 0.030244758 1 0 0 0
0.024999999 0.016134374 0.030041665 1 0 0 0
0.025 0.045186229 0.030008461 1 0 0 0
0.025 -0.033552159 0.030295249 1 0 0 0
0.025 0.01911371 0.030660374 1 0 0 0
0.025000002 -0.046091832 0.030836448 1 0 0 0
0.025 0.0023656618 0.030785579 1 0 0 0
0.025000002 0.0098025678 0.030862825 1 0 0 0
0.025 0.033610083 0.030804293 1 0 0 0
0.010357639 0.050000001 0.030986553 0 1 0 0
-0.0085870512 0.050000001 0.031221701 0 1 0 0
0.025 -0.031358104 0.031330608 1 0 0 0
0.025 0.0069313529 0.031260695 1 0 0 0
0.025 0.00057794061 0.031746361 1 0 0 0
0.025000002 0.014064346 0.031569187 1 0 0 0
0.025 -0.024000879 0.031903133 1 0 0 0
0.025 0.0030961609 0.031767976 1 0 0 0
-0.023090668 0.050000004 0.031976487 0 1 0 0
0.025 -0.0069841174 0.032191627 1 0 0 0
0.025 0.0024215244 0.032123856 1 0 0 0
0.025 0.0099158706 0.032153983 1 0 0 0
0.025 -0.038170878 0.032423913 1 0 0 0
0.025 -0.025353622 0.03245962 1 0 0 0
0.024999999 0.019834733 0.0325322 1 0 0 0
0.025 0.025345227 0.032733522 1 0 0 0
0.025 0.047632143 0.032655571 1 0 0 0
0.016412146 0.050000004 0.032930106 0 1 0 0
-0.0025381097 0.050000001 0.033168525 0 1 0 0
0.025 0.0084798448 0.033365391 1 0 0 0
0.025000002 0.033885337 0.033314783 1 0 0 0
0.025 0.040574446 0.03344645 1 0 0 0
0.012979308 0.050000001 0.033337671 0 1 0 0
0.025000002 -0.017539801 0.033640396 1 0 0 0
-0.022479625 0.049999997 0.033700686 0 1 0 0
0.014436514 0.050000004 0.033996865 0 1 0 0
0.025000002 0.0088062501 0.034222029 1 0 0 0
0.025 0.027765477 0.034346841 1 0 0 0
0.017592927 0.050000001 0.034290437 0 1 0 0
0.025 -0.034046311 0.034501061 1 0 0 0
0.025000002 0.02058642 0.034537811 1 0 0 0
0.025000002 0.038364716 0.034526821 1 0 0 0
0.024999999 0.04349649 0.035117172 1 0 0 0
0.025 -0.0061196913 0.035483379 1 0 0 0
-0.023100633 0.050000001 0.035286397 0 1 0 0
0.025 -0.024112146 0.03552001 1 0 0 0
0.024999999 0.048815105 0.035631478 1 0 0 0
0.025 -0.032204043 0.035968535 1 0 0 0
0.025 0.014344249 0.035964176 1 0 0 0
0.01939215 0.050000001 0.03593858 0 1 0 0
0.025 -0.019105081 0.036096424 1 0 0 0
0.025 -0.047119621 0.03664805 1 0 0 0
0.025 0.021905234 0.036686372 1 0 0 0
0.025 -0.019341622 0.036955923 1 0 0 0
-0.01026958 0.049999997 0.036828618 0 1 0 0
-0.023317553 0.050000001 0.037072428 0 1 0 0
-0.018189326 0.050000004 0.03720009 0 1 0 0
0.025 -0.023637395 0.037309323 1 0 0 0
0.025000002 -0.015260579 0.037573617 1 0 0 0
0.025 -0.0025367164 0.037626863 1 0 0 0
-0.0098789539 0.050000001 0.037576716 0 1 0 0
0.025 -0.046835627 0.03789999 1 0 0 0
0.025000002 -0.02788082 0.037839405 1 0 0 0
0.024999999 -0.018076574 0.037923399 1 0 0 0
0.025000002 0.022711478 0.037809599 1 0 0 0
-0.017135866 0.050000001 0.037764758 0 1 0 0
0.001715255 0.050000001 0.037847072 0 1 0 0
0.025 -0.040293608 0.03833979 1 0 0 0
0.025 -0.019544836 0.038447879 1 0 0 0
0.025 -0.002388312 0.038299385 1 0 0 0
0.025 0.00367771 0.038306281 1 0 0 0
-0.016798552 0.050000001 0.038492631 0 1 0 0
0.025 -0.03415833 0.038545962 1 0 0 0
0.025000002 -0.01708624 0.038778014 1 0 0 0
0.025 -0.0026072101 0.039008878 1 0 0 0
-0.0084559554 0.049999997 0.03910134 0 1 0 0
0.025000002 -0.038386591 0.039471172 1 0 0 0
-0.021957785 0.050000001 0.039499756 0 1 0 0
0.025 0.0037211697 0.039732449 1 0 0 0
0.024999999 0.019239161 0.039697018 1 0 0 0
0.024999999 -0.017438626 0.039921232 1 0 0 0
0.025 0.0093385167 0.040152665 1 0 0 0
0.025000002 0.027249349 0.040158369 1 0 0 0
0.025 -0.0064133098 0.040255953 1 0 0 0
-0.0094891507 0.050000001 0.040320694 0 1 0 0
0.025 0.00032697758 0.040640529 1 0 0 0
-0.014897926 0.050000001 0.040682949 0 1 0 0
-0.01822754 0.050000004 0.040933818 0 1 0 0
0.025 0.04254315 0.041161563 1 0 0 0
0.025 -0.026160907 0.041672893 1 0 0 0
0.025 0.037402932 0.041639488 1 0 0 0
0.025 0.037864294 0.041941252 1 0 0 0
0.024999999 0.042466134 0.041904252 1 0 0 0
0.025 -0.031062935 0.042150006 1 0 0 0
0.025 0.048483931 0.042154197 1 0 0 0
-0.011622177 0.050000001 0.04224455 0 1 0 0
-0.023923285 0.050000001 0.042364765 0 1 0 0
-0.0016306555 0.050000001 0.042425781 0 1 0 0
0.025 -0.0073854104 0.04267991 1 0 0 0
0.025 0.0053108907 0.042503133 1 0 0 0
0.025 0.0064959386 0.04258484 1 0 0 0
0.025 0.015293637 0.042707507 1 0 0 0
-0.0028424854 0.050000004 0.042525034 0 1 0 0
0.025000002 0.019346721 0.042800691 1 0 0 0
0.025 0.027568076 0.042868271 1 0 0 0
-0.024597792 0.050000001 0.042761374 0 1 0 0
0.0091988025 0.049999997 0.042864207 0 1 0 0
0.014865765 0.050000001 0.042808816 0 1 0 0
-0.0074355877 0.050000004 0.043193776 0 1 0 0
0.025 0.013896494 0.043749887 1 0 0 0
0.014092178 0.050000004 0.043840177 0 1 0 0
0.025000002 -0.02912654 0.044203795 1 0 0 0
0.025 -0.023004096 0.044088759 1 0 0 0
0.025 0.040266391 0.044215746 1 0 0 0
0.025000002 -0.032134354 0.044691272 1 0 0 0
0.025 0.00067807897 0.044646364 1 0 0 0
0.025 -0.0028349203 0.04493716 1 0 0 0
0.024999999 0.0089945924 0.044986844 1 0 0 0
0.025000002 -0.018839957 0.045081425 1 0 0 0
0.0033359975 0.050000001 0.045067396 0 1 0 0
0.025000002 -0.016340377 0.045593411 1 0 0 0
0.025 -0.016177159 0.045675524 1 0 0 0
-0.010812032 0.050000001 0.045517869 0 1 0 0
0.025 -0.014724385 0.045808643 1 0 0 0
-0.0010110075 0.049999997 0.045807928 0 1 0 0
-0.0059884861 0.049999997 0.046074182 0 1 0 0
0.025 0.042881012 0.04636693 1 0 0 0
-0.0070005669 0.050000004 0.046299037 0 1 0 0
-0.0064845369 0.050000004 0.046675164 0 1 0 0
0.025 -0.010050833 0.046813726 1 0 0 0
0.025 -0.020954985 0.047249511 1 0 0 0
0.025000002 -0.012790138 0.047202028 1 0 0 0
0.024999999 0.0093229767 0.047106616 1 0 0 0
0.025000002 0.024473358 0.047083583 1 0 0 0
0.025 -0.037847761 0.047392212 1 0 0 0
0.025000002 -0.02511669 0.047331043 1 0 0 0
0.025000002 -0.022280551 0.047296297 1 0 0 0
0.025 -0.010013688 0.04742248 1 0 0 0
0.025 -0.031163212 0.047839105 1 0 0 0
0.025 0.0053879749 0.047876831 1 0 0 0
0.025 -0.022530075 0.048054941 1 0 0 0
0.025 -0.0066367462 0.048150279 1 0 0 0
0.025 0.043737061 0.048390374 1 0 0 0
0.025 0.049068511 0.048325576 1 0 0 0
-0.013116685 0.050000001 0.048360314 0 1 0 0
0.025 -0.043456536 0.048701968 1 0 0 0
0.0098881517 0.050000001 0.048638254 0 1 0 0
0.025 -0.045407627 0.049027249 1 0 0 0
-0.012001774 0.050000004 0.049181022 0 1 0 0
-0.010246735 0.049999997 0.049345937 0 1 0 0
0.025 -0.0062719211 0.049551021 1 0 0 0
0.024999999 0.040093154 0.049502607 1 0 0 0
0.013361447 0.050000004 0.049569733 0 1 0 0
0.014498726 0.050000004 0.049614936 0 1 0 0
0.025000002 0.025185827 0.049768668 1 0 0 0
0.025000002 0.025510583 0.049882047 1 0 0 0
0.025000002 -0.032931685 0.05005471 1 0 0 0
0.0034842677 0.050000001 0.050191876 0 1 0 0
0.012473721 0.050000004 0.050420914 0 1 0 0
0.025000002 0.032393578 0.05052641 1 0 0 0
0.0022231676 0.050000001 0.050556816 0 1 0 0
0.025 -0.044515509 0.050826468 1 0 0 0
0.025 0.026731603 0.05082196 1 0 0 0
0.025 -0.0097656325 0.051146582 1 0 0 0
0.025000002 0.032775696 0.051133156 1 0 0 0
0.025000002 0.033508509 0.051122904 1 0 0 0
0.025 -0.029790748 0.051306695 1 0 0 0
0.0065336023 0.050000001 0.051351171 0 1 0 0
-0.015635362 0.049999997 0.051518321 0 1 0 0
-0.01713445 0.050000004 0.051745664 0 1 0 0
0.025000002 -0.024277957 0.051913507 1 0 0 0
0.010329789 0.050000001 0.052366342 0 1 0 0
0.025 0.017895244 0.05263599 1 0 0 0
0.025000002 0.012521738 0.052798085 1 0 0 0
0.025 0.031299844 0.05295812 1 0 0 0
0.025000002 0.030590119 0.053120248 1 0 0 0
0.024999999 0.03860886 0.053476978 1 0 0 0
0.019733643 0.050000001 0.053272165 0 1 0 0
0.025000002 -0.041034117 0.054140158 1 0 0 0
0.025000002 -0.03657119 0.054075539 1 0 0 0
0.025 -0.02606659 0.054003082 1 0 0 0
0.025 -0.0070711374 0.054105695 1 0 0 0
-0.01359949 0.050000001 0.054086335 0 1 0 0
0.025000002 -0.039622918 0.054396257 1 0 0 0
0.025 -0.039357398 0.05460418 1 0 0 0
0.025 -0.017678577 0.054632619 1 0 0 0
0.025000002 0.00236951 0.054675356 1 0 0 0
0.024999999 0.023798812 0.054670852 1 0 0 0
0.024881175 0.050000001 0.054867133 0 1 0 0
0.024999999 0.0089239581 0.055054292 1 0 0 0
0.024999999 0.015745893 0.055201966 1 0 0 0
0.025000002 0.026004968 0.055399626 1 0 0 0
0.025 -0.040272299 0.055882208 1 0 0 0
0.025 -0.0058213584 0.055957347 1 0 0 0
0.025 0.043975372 0.055772431 1 0 0 0
0.011022488 0.050000001 0.055818126 0 1 0 0
0.025 -0.040286344 0.056228347 1 0 0 0
0.025 0.0022976026 0.056095332 1 0 0 0
-0.023279086 0.050000001 0.056208234 0 1 0 0
0.025000002 -0.02070755 0.05637221 1 0 0 0
0.025 -0.041226361 0.056609862 1 0 0 0
0.025000002 -0.02867391 0.056693818 1 0 0 0
0.025000002 0.00059668906 0.05708899 1 0 0 0
0.024999999 0.042631056 0.057092372 1 0 0 0
0.025000002 -0.0096143577 0.057351924 1 0 0 0
0.025000002 0.034308199 0.057476524 1 0 0 0
-0.010983024 0.050000004 0.057436969 0 1 0 0
0.024893302 0.049999997 0.057694297 0 1 0 0
0.024999999 -0.04448393 0.05789452 1 0 0 0
0.025 -0.00066293404 0.057821985 1 0 0 0
0.025 0.027377158 0.058038544 1 0 0 0
0.025 -0.0023365244 0.058294676 1 0 0 0
0.014096385 0.050000001 0.058477081 0 1 0 0
0.025 -0.012071054 0.058614649 1 0 0 0
-0.001689801 0.050000001 0.058659405 0 1 0 0
0.025 -0.036621999 0.058844604 1 0 0 0
0.025 0.022990728 0.058899011 1 0 0 0
0.025 -0.0086057596 0.059125654 1 0 0 0
0.0045956159 0.049999997 0.059355162 0 1 0 0
0.018383797 0.050000004 0.059350397 0 1 0 0
0.025 -0.041924153 0.059700955 1 0 0 0
0.025 -0.02496272 0.059660822 1 0 0 0
0.015872499 0.050000001 0.060137972 0 1 0 0
0.025 0.010275055 0.060275439 1 0 0 0
0.024999999 0.023519434 0.060542066 1 0 0 0
0.00032234751 0.050000001 0.061048083 0 1 0 0
0.010157036 0.050000001 0.061146662 0 1 0 0
0.0076689301 0.049999997 0.061401457 0 1 0 0
0.025 0.03870574 0.061702039 1 0 0 0
-0.022117946 0.050000001 0.061651316 0 1 0 0
0.025000002 -0.024346324 0.061869062 1 0 0 0
0.025000002 -0.013287926 0.061800428 1 0 0 0
0.024999999 0.0005966071 0.061792985 1 0 0 0
0.024999999 -0.024626091 0.062087543 1 0 0 0
-0.023224868 0.050000001 0.062492132 0 1 0 0
-0.022263324 0.050000001 0.062344141 0 1 0 0
0.025 -0.0056759901 0.062663108 1 0 0 0
0.025000002 0.045852106 0.062681869 1 0 0 0
-0.019509457 0.050000001 0.062738098 0 1 0 0
-0.021586325 0.049999997 0.062759757 0 1 0 0
-0.0014561173 0.050000001 0.062836275 0 1 0 0
0.025 0.042274978 0.063090213 1 0 0 0
0.025000002 0.044649366 0.063021213 1 0 0 0
0.025000002 0.049095701 0.06300322 1 0 0 0
-0.0037811222 0.049999997 0.063379705 0 1 0 0
0.025000002 0.0088184346 0.06392277 1 0 0 0
0.024999999 0.013808919 0.063827828 1 0 0 0
0.025 0.017022891 0.063923016 1 0 0 0
-0.010216662 0.050000004 0.06398093 0 1 0 0
0.025000002 0.037320659 0.064463481 1 0 0 0
-0.010172844 0.049999997 0.064390279 0 1 0 0
0.019850435 0.050000001 0.064479344 0 1 0 0
0.025 0.046697184 0.06460198 1 0 0 0
0.025 -0.043844726 0.064932629 1 0 0 0
0.025 0.024542131 0.064910881 1 0 0 0
0.024999999 -0.024900422 0.065037996 1 0 0 0
0.025 0.001079578 0.065040775 1 0 0 0
0.020756254 0.050000001 0.065445185 0 1 0 0
0.025 0.0010038391 0.065864518 1 0 0 0
0.017187258 0.050000001 0.065805763 0 1 0 0
0.025 -0.018424015 0.066138506 1 0 0 0
0.025 -0.00074139237 0.066135906 1 0 0 0
0.025 -0.0040562153 0.066277295 1 0 0 0
-0.022668548 0.050000004 0.066389844 0 1 0 0
0.018519264 0.049999997 0.066530272 0 1 0 0
-0.0004330026 0.050000004 0.066818826 0 1 0 0
0.025 -0.035192188 0.067118026 1 0 0 0
0.024999999 0.013455814 0.067402579 1 0 0 0
-0.018403605 0.050000004 0.067305706 0 1 0 0
0.025 0.023249187 0.067670025 1 0 0 0
0.025 0.02562473 0.067695618 1 0 0 0
0.025 0.0092649683 0.067863032 1 0 0 0
0.025 -0.028085601 0.068105511 1 0 0 0
0.025000002 -0.016770991 0.068032026 1 0 0 0
-0.012668097 0.049999997 0.068160318 0 1 0 0
-0.018322619 0.050000004 0.068265244 0 1 0 0
0.0079056928 0.050000004 0.06835255 0 1 0 0
0.025 -0.046258811 0.068507545 1 0 0 0
0.024999999 0.012991598 0.068685852 1 0 0 0
0.025 0.026958901 0.069045827 1 0 0 0
0.024999999 0.016353702 0.069426224 1 0 0 0
0.025000002 0.019190431 0.069276303 1 0 0 0
-0.010366901 0.050000004 0.069375232 0 1 0 0
0.025 -0.049709383 0.069671214 1 0 0 0
0.025 -0.049210083 0.069611572 1 0 0 0
0.025 0.0013698116 0.069604158 1 0 0 0
0.025 0.037196536 0.069645815 1 0 0 0
-0.0075124456 0.049999997 0.069722779 0 1 0 0
0.025 0.021149255 0.069778621 1 0 0 0
0.025 0.03220601 0.069776699 1 0 0 0
0.025000002 0.039334692 0.07013265 1 0 0 0
0.025 -0.041176911 0.070471786 1 0 0 0
-0.015471719 0.050000001 0.070568725 0 1 0 0
0.019453868 0.050000004 0.07063999 0 1 0 0
0.025 -0.049455237 0.070853852 1 0 0 0
0.024999999 0.022398228 0.070961185 1 0 0 0
0.025000002 0.049239628 0.0708571 1 0 0 0
0.025 0.037902653 0.071118496 1 0 0 0
-0.0089342315 0.050000001 0.071052819 0 1 0 0
0.025 -0.039087418 0.07130824 1 0 0 0
0.025 -0.027380567 0.07126803 1 0 0 0
-0.0084747607 0.050000004 0.071276173 0 1 0 0
0.025 -0.047433417 0.071842425 1 0 0 0
0.025000002 0.042875439 0.072113246 1 0 0 0
0.025 -0.047139112 0.072423905 1 0 0 0
0.025 -0.028412949 0.072480686 1 0 0 0
0.025 -0.029339176 0.072543688 1 0 0 0
0.024999999 0.011285389 0.072532646 1 0 0 0
0.025000002 0.017507495 0.07294514 1 0 0 0
0.025 -0.042013165 0.073009029 1 0 0 0
0.025000002 -0.0056741368 0.073238522 1 0 0 0
0.0062966254 0.050000001 0.07321012 0 1 0 0
0.024999999 -0.0045547355 0.07334087 1 0 0 0
0.025000002 0.0088162515 0.073459029 1 0 0 0
0.025000002 0.015630478 0.073469162 1 0 0 0
0.025 0.038257588 0.073425315 1 0 0 0
0.025 -0.030601423 0.073524483 1 0 0 0
0.025000002 0.0098312553 0.073614299 1 0 0 0
0.025 -0.033825528 0.073989376 1 0 0 0
0.024999999 -0.0036410596 0.073905528 1 0 0 0
0.025000002 0.01295522 0.073836565 1 0 0 0
0.024999999 -0.0067032557 0.074157968 1 0 0 0
0.025000002 -0.015310111 0.074382238 1 0 0 0
0.025000002 0.041738965 0.074647792 1 0 0 0
0.025 -0.03624313 0.07497856 1 0 0 0
-0.013073221 0.050000001 0.074965239 0 1 0 0
0.025 0.040392708 0.075202413 1 0 0 0
0.025 0.042916246 0.075236045 1 0 0 0
0.025 -0.021166783 0.075332977 1 0 0 0
0.025 -0.012289334 0.075440124 1 0 0 0
0.025000002 -0.0011439528 0.075294808 1 0 0 0
0.025 0.0088771172 0.075358048 1 0 0 0
0.025 0.012278743 0.075344943 1 0 0 0
-0.01002878 0.050000004 0.075419486 0 1 0 0
0.0083571048 0.050000004 0.075418808 0 1 0 0
0.025000002 -0.019129338 0.075500533 1 0 0 0
0.025000002 0.0013655405 0.075744405 1 0 0 0
-0.015285062 0.050000004 0.07570114 0 1 0 0
0.025 -0.031751182 0.076020159 1 0 0 0
-0.0076194135 0.049999997 0.076064296 0 1 0 0
-0.0014459379 0.050000001 0.076120205 0 1 0 0
0.021719819 0.050000001 0.076181643 0 1 0 0
0.025000002 -0.0035900604 0.076351956 1 0 0 0
-0.021782348 0.050000004 0.076465659 0 1 0 0
0.025 -0.038466427 0.076851681 1 0 0 0
0.025 -0.0013976507 0.076851666 1 0 0 0
0.025 -0.029846873 0.077129409 1 0 0 0
-0.015637681 0.049999997 0.077194229 0 1 0 0
0.025 0.022295598 0.077282026 1 0 0 0
0.024999999 -0.014321988 0.077825531 1 0 0 0
0.025 0.0064797327 0.077982962 1 0 0 0
0.025 -0.047131795 0.078218684 1 0 0 0
0.025 -0.010133259 0.078049213 1 0 0 0
0.024999999 0.019288458 0.078070968 1 0 0 0
-0.00059585925 0.049999997 0.078030579 0 1 0 0
0.025000002 0.0061578024 0.078305118 1 0 0 0
0.0040044086 0.049999997 0.078280739 0 1 0 0
0.020937812 0.049999997 0.078369252 0 1 0 0
0.025 -0.029645715 0.078532659 1 0 0 0
0.025000002 -0.027490349 0.078988113 1 0 0 0
0.025 -0.048109692 0.07912758 1 0 0 0
0.025 -0.019456882 0.079379588 1 0 0 0
0.025 0.014809433 0.079558469 1 0 0 0
0.025000002 0.019978391 0.079683371 1 0 0 0
-0.013374859 0.050000004 0.079759702 0 1 0 0
0.025 0.016510215 0.080210432 1 0 0 0
0.025 0.028850656 0.080128618 1 0 0 0
0.010188655 0.050000004 0.080094859 0 1 0 0
0.025 0.033528835 0.080292195 1 0 0 0
0.025 -0.0039618537 0.08059445 1 0 0 0
0.025000002 -0.036570393 0.080934331 1 0 0 0
0.025000002 0.026238523 0.080806047 1 0 0 0
0.025 0.0055004954 0.081369705 1 0 0 0
0.025 0.02722526 0.081423819 1 0 0 0
-0.0041994797 0.050000004 0.081363507 0 1 0 0
0.025 -0.026072498 0.081685781 1 0 0 0
0.025 -0.00050509721 0.081574261 1 0 0 0
0.024164733 0.049999997 0.081654452 0 1 0 0
0.025000002 -0.02771643 0.08188349 1 0 0 0
0.025 0.016933832 0.081925653 1 0 0 0
0.025000002 0.0070322845 0.082226031 1 0 0 0
0.025000002 0.025148332 0.082149476 1 0 0 0
0.025000002 -0.030470349 0.082433037 1 0 0 0
0.025 -0.0025580339 0.082410634 1 0 0 0
0.0092436112 0.049999997 0.082400903 0 1 0 0
0.016197041 0.050000004 0.082279831 0 1 0 0
0.025 0.044170063 0.082702957 1 0 0 0
0.0042242352 0.050000001 0.08260043 0 1 0 0
0.025 0.031066511 0.083151415 1 0 0 0
-0.021545518 0.050000001 0.083132118 0 1 0 0
0.025 0.039880387 0.083808124 1 0 0 0
0.025000002 0.017210186 0.084133975 1 0 0 0
0.025 -0.043964263 0.0843485 1 0 0 0
0.025 -0.0033928454 0.084251538 1 0 0 0
0.025000002 -0.03321439 0.08462438 1 0 0 0
0.021569012 0.050000001 0.084530324 0 1 0 0
-0.0028901575 0.050000004 0.084964179 0 1 0 0
0.025 -0.011283278 0.085106209 1 0 0 0
0.025 0.0026034527 0.085183151 1 0 0 0
0.009730773 0.050000001 0.085008465 0 1 0 0
0.024999999 0.02564887 0.085736156 1 0 0 0
0.025 0.043814026 0.085509397 1 0 0 0
0.025 -0.044949915 0.085919052 1 0 0 0
-0.0040924661 0.050000001 0.085962169 0 1 0 0
0.022961659 0.050000001 0.085835963 0 1 0 0
0.025000002 0.010211086 0.086116135 1 0 0 0
0.025 0.024788771 0.086673781 1 0 0 0
0.025 0.0404489 0.08664763 1 0 0 0
0.020912392 0.050000001 0.086732939 0 1 0 0
0.025000002 0.0046442728 0.087121561 1 0 0 0
0.025 0.022749234 0.087433323 1 0 0 0
0.025 0.028680038 0.08788003 1 0 0 0
-0.013540369 0.050000004 0.088046156 0 1 0 0
-0.0052936319 0.050000001 0.088456437 0 1 0 0
0.025 0.041321885 0.088978559 1 0 0 0
0.010885933 0.050000001 0.089061007 0 1 0 0
0.024999999 -0.020063646 0.089692853 1 0 0 0
-0.01490595 0.050000001 0.089676082 0 1 0 0
0.024999999 -0.038560405 0.089814052 1 0 0 0
0.016026497 0.050000004 0.09017995 0 1 0 0
0.025 -0.0027261451 0.090897664 1 0 0 0
0.002220015 0.050000004 0.090790018 0 1 0 0
0.025 0.0047611818 0.091308236 1 0 0 0
0.025 0.01449291 0.091365881 1 0 0 0
0.025000002 -0.0055199824 0.091636613 1 0 0 0
0.024999999 0.040474541 0.091564834 1 0 0 0
0.01956027 0.050000004 0.091516227 0 1 0 0
0.025 -0.024426114 0.092162125 1 0 0 0
0.025 0.047086518 0.092193745 1 0 0 0
-0.0041352119 0.050000001 0.092167646 0 1 0 0
0.025 0.042617317 0.092305526 1 0 0 0
0.025000002 -0.03978578 0.092709444 1 0 0 0
0.025 0.022937912 0.092650659 1 0 0 0
0.0004576603 0.050000004 0.092658013 0 1 0 0
-0.024583722 0.050000001 0.092972957 0 1 0 0
-0.010921599 0.050000001 0.093742862 0 1 0 0
0.025 -0.035422567 0.093929194 1 0 0 0
0.025000002 0.016397739 0.09398447 1 0 0 0
0.025000002 0.024634361 0.093833312 1 0 0 0
0.025 0.044102844 0.0937787 1 0 0 0
0.025 -0.0027136579 0.094121948 1 0 0 0
0.025 0.0095454864 0.094151475 1 0 0 0
0.025 0.043548945 0.094293371 1 0 0 0
0.017945444 0.050000001 0.09436734 0 1 0 0
0.025000002 0.030438602 0.094671406 1 0 0 0
0.025 0.045541625 0.094636515 1 0 0 0
0.0050465725 0.050000001 0.094724916 0 1 0 0
0.023618454 0.050000001 0.094552577 0 1 0 0
0.025000002 0.037470341 0.094815619 1 0 0 0
-0.0241993 0.050000001 0.09487889 0 1 0 0
0.011334511 0.050000001 0.094921276 0 1 0 0
0.025000002 0.0026356485 0.095060073 1 0 0 0
0.024999999 0.012836343 0.095298976 1 0 0 0
-0.0074148532 0.050000001 0.095384091 0 1 0 0
0.00088839792 0.050000001 0.095321029 0 1 0 0
0.014904843 0.050000004 0.095461309 0 1 0 0
0.0066972431 0.050000001 0.095959708 0 1 0 0
0.025000002 0.018333549 0.096039832 1 0 0 0
0.0045335796 0.050000001 0.096209586 0 1 0 0
0.022421541 0.050000001 0.096233115 0 1 0 0
0.024999999 -0.030449197 0.096347816 1 0 0 0
0.025 0.046436977 0.096335419 1 0 0 0
0.025000002 -0.016603092 0.096856996 1 0 0 0
0.025 0.035555657 0.096834056 1 0 0 0
0.024999999 0.01799462 0.09741047 1 0 0 0
-0.016278451 0.050000001 0.097428761 0 1 0 0
0.025000002 0.018446984 0.097654231 1 0 0 0
0.025 -0.0364425 0.097895674 1 0 0 0
0.024999999 0.020313276 0.097848199 1 0 0 0
-0.0038329065 0.050000001 0.097985394 0 1 0 0
0.0029504299 0.050000001 0.098014444 0 1 0 0
0.024999999 0.0076931845 0.098321319 1 0 0 0
0.025000002 0.0075575281 0.098350264 1 0 0 0
0.025000002 0.042875253 0.098355033 1 0 0 0
0.025000002 0.045403212 0.098390207 1 0 0 0
0.0095637869 0.050000001 0.098460324 0 1 0 0
0.025000002 -0.026845142 0.098544255 1 0 0 0
0.0087432088 0.050000004 0.099061608 0 1 0 0
0.025 0.031458069 0.099371903 1 0 0 0
0.010665072 0.050000001 0.099662855 0 1 0 0
0.025 -0.0070242994 0.099941626 1 0 0 0
0.025 0.04931533 0.10018323 1 0 0 0
0.025000002 -0.024437698 0.10032348 1 0 0 0
0.025 0.016502928 0.10046412 1 0 0 0
0.025 -0.0018882826 0.10088348 1 0 0 0
0.025 0.019252095 0.10079524 1 0 0 0
0.024999999 -0.015761053 0.10121198 1 0 0 0
0.025 -0.047513347 0.10140105 1 0 0 0
0.025 0.02846742 0.10159609 1 0 0 0
0.025000002 0.032208644 0.10176802 1 0 0 0
0.024999999 0.04431577 0.10182425 1 0 0 0
0.025 -0.045369212 0.10220437 1 0 0 0
0.025000002 -0.033703044 0.10206741 1 0 0 0
0.025000002 0.01795578 0.10213304 1 0 0 0
0.024999999 0.037831642 0.10220286 1 0 0 0
0.025 -0.010156583 0.10233139 1 0 0 0
0.024999999 0.025473347 0.10241806 1 0 0 0
0.025 -0.039588157 0.10270731 1 0 0 0
0.024999999 0.012840619 0.10267372 1 0 0 0
0.025 0.036763769 0.10256414 1 0 0 0
0.025 0.038527656 0.10324186 1 0 0 0
0.025 -0.025942151 0.10366397 1 0 0 0
0.025000002 -0.049428694 0.10384806 1 0 0 0
0.025000002 0.02094643 0.10385577 1 0 0 0
0.025 0.04511397 0.10384393 1 0 0 0
0.024999999 0.0087243225 0.10402328 1 0 0 0
0.025000002 0.0033845995 0.10432583 1 0 0 0
0.025000002 -0.044809401 0.10503123 1 0 0 0
0.024999999 0.010342075 0.10530532 1 0 0 0
0.025 -0.039499942 0.1056756 1 0 0 0
0.025000002 0.012287265 0.10567856 1 0 0 0
0.025000002 -0.042034268 0.10619369 1 0 0 0
0.025 -0.029594105 0.10620252 1 0 0 0
0.025 0.035679262 0.10602029 1 0 0 0
0.025000002 -0.044909008 0.10634681 1 0 0 0
0.024999999 -0.019265942 0.10654697 1 0 0 0
0.025000002 0.038931742 0.10670778 1 0 0 0
0.024999999 0.036532044 0.10700794 1 0 0 0
0.025 -0.037648711 0.10730447 1 0 0 0
0.025000002 -0.036413565 0.10727426 1 0 0 0
0.024999999 -0.015555417 0.10826647 1 0 0 0
0.025000002 -0.014271135 0.10831998 1 0 0 0
0.025 0.0349264 0.10858432 1 0 0 0
0.025 -0.013969731 0.10946325 1 0 0 0
0.025000002 0.0015733093 0.10942543 1 0 0 0
0.025 0.01458345 0.10928229 1 0 0 0
0.025 0.027304564 0.10952906 1 0 0 0
0.025 -0.048137251 0.11012495 1 0 0 0
0.025000002 -0.015879327 0.11011288 1 0 0 0
0.025000002 0.010177013 0.11007371 1 0 0 0
0.025000002 -0.044795416 0.11029691 1 0 0 0
0.025 0.00020418316 0.11043989 1 0 0 0
0.025000002 -0.016860569 0.11075386 1 0 0 0
0.025000002 -0.0018347632 0.11101772 1 0 0 0
0.025 -0.047878612 0.11175384 1 0 0 0
0.024999999 -0.0041453112 0.11208165 1 0 0 0
0.025 0.012155037 0.11213399 1 0 0 0
0.025000002 -0.03230077 0.11226976 1 0 0 0
0.024999999 -0.011119215 0.11231527 1 0 0 0
0.024999999 0.0098970793 0.11283357 1 0 0 0
0.025000002 -0.0031303857 0.11324285 1 0 0 0
0.024999999 -0.00092593767 0.11312666 1 0 0 0
0.025 -0.045941625 0.11329693 1 0 0 0
0.025 -0.020793613 0.11330789 1 0 0 0
0.025 0.0058471374 0.11361612 1 0 0 0
0.025 -0.0081743896 0.11413188 1 0 0 0
0.025 -0.021847267 0.11427817 1 0 0 0
0.025 0.021548219 0.11436731 1 0 0 0
0.025000002 -0.010595391 0.11476795 1 0 0 0
0.025 -0.025132153 0.1151166 1 0 0 0
0.025 -0.022086035 0.11520293 1 0 0 0
0.025000002 -0.0018226299 0.11514211 1 0 0 0
0.025 0.011111699 0.11521243 1 0 0 0
0.024999999 -0.03042639 0.11532768 1 0 0 0
0.025000002 0.0051595327 0.11600755 1 0 0 0
0.025 0.0061153397 0.11644053 1 0 0 0
0.025000002 0.02117076 0.11652912 1 0 0 0
0.025000002 -0.049946219 0.11725219 1 0 0 0
0.025 -0.02338719 0.11737485 1 0 0 0
0.025 -0.029128071 0.11864589 1 0 0 0
0.025000002 0.0018930417 0.11870199 1 0 0 0
0.025000002 0.0029712189 0.11866008 1 0 0 0
0.025 -0.034385268 0.1190851 1 0 0 0
0.025000002 -0.02719862 0.11939055 1 0 0 0
0.025000002 -0.013320172 0.11933257 1 0 0 0
0.025 -0.0063513629 0.11959556 1 0 0 0
0.025 -0.0031551532 0.12056565 1 0 0 0
0.025000002 -0.044075198 0.12075327 1 0 0 0
0.025 -0.028867643 0.12094994 1 0 0 0
0.025000002 -0.0075661205 0.12091246 1 0 0 0
0.025 0.022678768 0.12171905 1 0 0 0
0.025000002 0.010218965 0.12182324 1 0 0 0
0.025 -0.044145856 0.12211953 1 0 0 0
0.025 -0.023699719 0.12221308 1 0 0 0
0.025 0.02140482 0.12209845 1 0 0 0
0.025 -0.03907359 0.12254231 1 0 0 0
0.024999999 0.018416382 0.12340699 1 0 0 0
0.025 0.026360856 0.12348822 1 0 0 0
0.025 -0.04611076 0.12359768 1 0 0 0
0.024999999 0.0062666088 0.12401444 1 0 0 0
0.025 -0.03632332 0.12441339 1 0 0 0
0.024999999 -0.013646578 0.12438266 1 0 0 0
0.025000002 -0.045047022 0.12469304 1 0 0 0
0.024999999 -0.041541569 0.12452713 1 0 0 0
0.025 0.009422671 0.12490202 1 0 0 0
0.024999999 -0.030609338 0.12504268 1 0 0 0
0.025 0.0070671923 0.12519649 1 0 0 0
0.025000002 -0.025823893 0.12624526 1 0 0 0
0.024999999 -0.009995183 0.12604554 1 0 0 0
0.025 0.022538383 0.1262842 1 0 0 0
0.025 0.0041990764 0.12702143 1 0 0 0
0.025 -0.017653655 0.12742385 1 0 0 0
0.025 -0.022125591 0.12759899 1 0 0 0
0.025 0.0040364694 0.12792626 1 0 0 0
0.025000002 -0.044739664 0.12803234 1 0 0 0
0.025 -0.01729821 0.12823355 1 0 0 0
0.025 -0.01530109 0.12804037 1 0 0 0
0.025 0.011666901 0.12845398 1 0 0 0
0.025 -0.0040708967 0.12861888 1 0 0 0
0.025 0.00029889308 0.12851343 1 0 0 0
0.025 0.014962927 0.1288484 1 0 0 0
0.024999999 -0.044337451 0.12941417 1 0 0 0
0.025 -0.0062750019 0.12962721 1 0 0 0
0.025000002 -0.028372617 0.13089171 1 0 0 0
0.025 -0.0049618203 0.13097709 1 0 0 0
0.025000002 -0.0041573402 0.13095111 1 0 0 0
0.025 -0.027167622 0.1311077 1 0 0 0
0.024999999 -0.026485153 0.13130628 1 0 0 0
0.024999999 0.0034217043 0.13141821 1 0 0 0
0.025 -0.026754063 0.13169341 1 0 0 0
0.025 -0.0017645769 0.13211241 1 0 0 0
0.024999999 0.014652718 0.13216729 1 0 0 0
0.025 -0.026883718 0.13227895 1 0 0 0
0.025 -0.049795385 0.13294141 1 0 0 0
0.025000002 0.0088041052 0.13332032 1 0 0 0
0.025 -0.036317524 0.13350894 1 0 0 0
0.025 -0.012401052 0.13412605 1 0 0 0
0.025 -0.030074228 0.13441023 1 0 0 0
0.025 -0.026093464 0.13428429 1 0 0 0
0.025 -0.049637768 0.13458131 1 0 0 0
0.025000002 -0.0014932863 0.13474731 1 0 0 0
0.025000002 -0.032758266 0.13500077 1 0 0 0
0.024999999 -0.032918364 0.13539721 1 0 0 0
0.025 0.008960492 0.13525829 1 0 0 0
0.025000002 -0.0060649347 0.13551053 1 0 0 0
0.025000002 0.00052939262 0.13566726 1 0 0 0
0.025000002 -0.041093819 0.13596974 1 0 0 0
0.025 -0.024632599 0.13593918 1 0 0 0
0.025000002 -0.01595806 0.13599135 1 0 0 0
0.025 -0.0062892139 0.1359632 1 0 0 0
0.025 0.012112336 0.13645567 1 0 0 0
0.025000002 -0.03534025 0.13671602 1 0 0 0
0.025000002 -0.027908208 0.13704918 1 0 0 0
0.025 -0.039099861 0.13730423 1 0 0 0
0.025 -0.024788681 0.13734885 1 0 0 0
0.025 -0.016297027 0.13733695 1 0 0 0
0.025000002 -0.02727312 0.13772318 1 0 0 0
0.025 -0.0026641842 0.13772261 1 0 0 0
0.025 -0.036526207 0.13852634 1 0 0 0
0.025000002 0.0070815738 0.13895905 1 0 0 0
0.025000002 -0.027960567 0.13917293 1 0 0 0
0.025000002 -0.029678585 0.14014076 1 0 0 0
0.024999999 -0.0074394941 0.14023213 1 0 0 0
0.025000002 -0.00080388691 0.14040825 1 0 0 0
0.025000002 -0.017219916 0.14104682 1 0 0 0
0.025 0.001421127 0.14264828 1 0 0 0
0.025 -0.048711587 0.14292751 1 0 0 0
0.025 -8.4158964e-05 0.1454713 1 0 0 0
0.025 -0.0095050689 0.14663832 1 0 0 0
0.025000002 -0.027503219 0.14687775 1 0 0 0
0.024999999 -0.0014761281 0.1470498 1 0 0 0
0.024999999 -0.012422902 0.14754438 1 0 0 0
0.025 -0.0066301264 0.14754392 1 0 0 0
0.025 -0.038763691 0.14812391 1 0 0 0
0.024999999 -0.029759757 0.14839302 1 0 0 0
0.025 -0.049215082 0.14907497 1 0 0 0
0.025 -0.02400052 0.14977674 1 0 0 0
-0.010461034 -0.003629924 0.14999999 0 0 1 0
-0.015533967 -0.049809489 0.15000001 0 0 1 0
0.0062206676 -0.049766995 0.15000001 0 0 1 0
0.0057496605 -0.048563518 0.15000001 0 0 1 0
-0.0033221059 -0.04789903 0.15000001 0 0 1 0
0.022968799 -0.047214158 0.15000001 0 0 1 0
-0.017387094 -0.046801452 0.15000001 0 0 1 0
0.0023168987 -0.046817273 0.15000001 0 0 1 0
0.0088619888 -0.046865825 0.15000001 0 0 1 0
0.024220424 -0.046743218 0.15000001 0 0 1 0
0.021087857 -0.0462832 0.15000001 0 0 1 0
0.021775071 -0.046392396 0.15000001 0 0 1 0
-0.018894358 -0.045048587 0.15000001 0 0 1 0
0.012869408 -0.044673115 0.15000001 0 0 1 0
-0.010086386 -0.044320695 0.15000001 0 0 1 0
-0.001507517 -0.044327449 0.15000001 0 0 1 0
0.014892539 -0.044076864 0.15000001 0 0 1 0
-0.0094487723 -0.043754987 0.15000001 0 0 1 0
0.0019898964 -0.042594451 0.15000001 0 0 1 0
-0.0057155155 -0.042257912 0.15000001 0 0 1 0
0.021594115 -0.042235065 0.15000001 0 0 1 0
-0.012730081 -0.041851126 0.15000001 0 0 1 0
0.0013538366 -0.041750614 0.15000001 0 0 1 0
0.0062863734 -0.041718874 0.15000001 0 0 1 0
-0.020622214 -0.041468501 0.15000001 0 0 1 0
-0.010205369 -0.041490495 0.15000001 0 0 1 0
0.0097868461 -0.041377638 0.15000001 0 0 1 0
0.015644008 -0.040998898 0.15000001 0 0 1 0
-0.0047509931 -0.040713567 0.15000001 0 0 1 0
-0.0033494961 -0.04058684 0.15000001 0 0 1 0
-0.01493028 -0.040389724 0.15000001 0 0 1 0
-0.018696791 -0.040143423 0.15000001 0 0 1 0
-0.0061050989 -0.040165588 0.15000001 0 0 1 0
0.024394423 -0.039352342 0.15000001 0 0 1 0
0.023679441 -0.039193749 0.15000001 0 0 1 0
0.0031466438 -0.038591694 0.15000001 0 0 1 0
-0.0052951518 -0.038351245 0.15000001 0 0 1 0
-0.013493244 -0.037549514 0.15000001 0 0 1 0
-0.023049785 -0.037408002 0.15000001 0 0 1 0
0.01670992 -0.037196584 0.15000001 0 0 1 0
0.014606926 -0.036976241 0.15000001 0 0 1 0
-0.0020441916 -0.03544227 0.15000001 0 0 1 0
-0.010440135 -0.035073061 0.15000001 0 0 1 0
-0.0046264213 -0.034756027 0.15000001 0 0 1 0
0.0063585946 -0.03404187 0.15000001 0 0 1 0
0.0036691036 -0.033863768 0.15000001 0 0 1 0
0.0069739092 -0.033438802 0.15000001 0 0 1 0
-0.015956908 -0.032276675 0.15000001 0 0 1 0
0.0037648724 -0.032228991 0.15000001 0 0 1 0
0.0014096228 -0.031594504 0.15000001 0 0 1 0
-0.015174666 -0.031461664 0.15000001 0 0 1 0
0.01352274 -0.031177642 0.15000001 0 0 1 0
-0.018385919 -0.030956203 0.15000001 0 0 1 0
-0.016843149 -0.030727606 0.15000001 0 0 1 0
-0.015084052 -0.030700125 0.15000001 0 0 1 0
-0.020703735 -0.030042401 0.15000001 0 0 1 0
-0.01664409 -0.030015763 0.15000001 0 0 1 0
0.014136733 -0.030059572 0.15000001 0 0 1 0
-0.021162527 -0.029609403 0.15000001 0 0 1 0
0.015578903 -0.027260121 0.15000001 0 0 1 0
0.017784368 -0.026857559 0.15000001 0 0 1 0
-0.019147888 -0.026144046 0.15000001 0 0 1 0
0.02121182 -0.025813563 0.15000001 0 0 1 0
-0.0082918499 -0.025664402 0.15000001 0 0 1 0
-0.001217171 -0.023610292 0.15000001 0 0 1 0
-0.013337032 -0.022984255 0.15000001 0 0 1 0
-0.012784395 -0.022464782 0.15000001 0 0 1 0
-0.0042182468 -0.022247571 0.15000001 0 0 1 0
0.019797416 -0.022089045 0.15000001 0 0 1 0
-0.010976197 -0.021501224 0.15000001 0 0 1 0
0.013245309 -0.021608261 0.15000001 0 0 1 0
-0.017741356 -0.021293815 0.15000001 0 0 1 0
-0.0092988433 -0.021427508 0.15000001 0 0 1 0
-0.0035834052 -0.021438539 0.15000001 0 0 1 0
-0.015821459 -0.020966873 0.15000001 0 0 1 0
0.0084606297 -0.020986049 0.15000001 0 0 1 0
0.0057181995 -0.020568039 0.15000001 0 0 1 0
0.013940118 -0.020559873 0.15000001 0 0 1 0
0.023221835 -0.020705873 0.15000001 0 0 1 0
0.0021309848 -0.020335015 0.15000001 0 0 1 0
0.018029433 -0.01968902 0.15000001 0 0 1 0
0.0076550413 -0.01907455 0.15000001 0 0 1 0
-0.020719355 -0.018369364 0.15000001 0 0 1 0
0.0094381459 -0.018352283 0.15000001 0 0 1 0
-0.019596454 -0.018183876 0.15000001 0 0 1 0
0.015199201 -0.017857267 0.15000001 0 0 1 0
0.016962038 -0.017364383 0.15000001 0 0 1 0
0.018983938 -0.016882185 0.15000001 0 0 1 0
7.5581949e-05 -0.016708219 0.15000001 0 0 1 0
0.0039990516 -0.016511237 0.15000001 0 0 1 0
-0.0077924337 -0.016286707 0.15000001 0 0 1 0
0.023803322 -0.015564229 0.15000001 0 0 1 0
-0.020641077 -0.015033992 0.15000001 0 0 1 0
0.017851174 -0.014300257 0.15000001 0 0 1 0
0.02134211 -0.014053326 0.15000001 0 0 1 0
-0.0018724892 -0.01377741 0.15000001 0 0 1 0
0.0038927952 -0.013072101 0.15000001 0 0 1 0
-0.019035937 -0.012684382 0.15000001 0 0 1 0
0.0041089044 -0.012533297 0.15000001 0 0 1 0
0.020257147 -0.011854072 0.15000001 0 0 1 0
0.005007016 -0.011581352 0.15000001 0 0 1 0
0.02491306 -0.011280242 0.15000001 0 0 1 0
-0.018581385 -0.010492625 0.15000001 0 0 1 0
-0.024585711 -0.010190692 0.15000001 0 0 1 0
-0.0030792998 -0.010235091 0.15000001 0 0 1 0
-7.4190553e-05 -0.0094151441 0.15000001 0 0 1 0
-0.0060346327 -0.0089296373 0.15000001 0 0 1 0
0.011598358 -0.0089787273 0.15000001 0 0 1 0
0.0075856154 -0.008449072 0.15000001 0 0 1 0
0.015965894 -0.008465114 0.15000001 0 0 1 0
0.024415258 -0.0079315109 0.15000001 0 0 1 0
-0.0075899763 -0.0064406446 0.15000001 0 0 1 0
0.018544553 -0.0062898379 0.15000001 0 0 1 0
-0.017838899 -0.0061767641 0.15000001 0 0 1 0
0.013842817 -0.0057407757 0.15000001 0 0 1 0
-0.01839547 -0.0046298378 0.15000001 0 0 1 0
0.0085777808 -0.0046850969 0.15000001 0 0 1 0
-0.018981021 -0.004319502 0.15000001 0 0 1 0
0.0077531375 -0.0044759158 0.15000001 0 0 1 0
-0.0027063629 -0.0039680107 0.15000001 0 0 1 0
-0.0090335952 -0.0023684446 0.15000001 0 0 1 0
-0.005534119 -0.0020511388 0.15000001 0 0 1 0
-0.021790219 -0.0017719789 0.15000001 0 0 1 0
0.024447547 -0.0017976623 0.15000001 0 0 1 0
-0.013247415 -0.001404507 0.15000002 0 0 1 0
-0.0021893019 -0.0013631439 0.15000001 0 0 1 0
0.01715002 -0.00074610108 0.15000001 0 0 1 0
