# .PCD v0.7 - Point Cloud Data file format
VERSION 0.7
FIELDS x y z normal_x normal_y normal_z curvature
SIZE 4 4 4 4 4 4 4
TYPE F F F F F F F
COUNT 1 1 1 1 1 1 1
WIDTH 1000
HEIGHT 1
VIEWPOINT 0 0 0 1 0 0 0
POINTS 1000
DATA ascii
0.0095952153 -0.050000004 8.5871601e-05 0 -1 0 0
0.023167709 -0.049898442 0 0 0 -1 0
0.022318257 -0.049094889 0 0 0 -1 0
0.0069615068 -0.046900127 0 0 0 -1 0
0.015146098 -0.046763364 0 0 0 -1 0
-0.024104405 -0.046577234 0 0 0 -1 0
0.018323814 -0.046198729 0 0 0 -1 0
-0.016385717 -0.04555244 0 0 0 -1 0
0.010030773 -0.044795416 0 0 0 -1 0
0.024245357 -0.044428311 0 0 0 -1 0
0.022522794 -0.043486435 0 0 0 -1 0
-0.009615167 -0.040272299 0 0 0 -1 0
0.0074554384 -0.040368747 0 0 0 -1 0
-0.021361314 -0.039873499 0 0 0 -1 0
0.0098883482 -0.037570689 0 0 0 -1 0
-0.003748433 -0.037192244 0 0 0 -1 0
-0.005133776 -0.036011282 0 0 0 -1 0
-0.0037075798 -0.036088903 0 0 0 -1 0
-0.0058468599 -0.034628574 0 0 0 -1 0
0.020640953 -0.034470133 0 0 0 -1 0
-0.021624893 -0.030862842 0 0 0 -1 0
-0.0031250571 -0.029853392 0 0 0 -1 0
0.0026998119 -0.029394658 0 0 0 -1 0
0.014957921 -0.028704686 0 0 0 -1 0
0.015514309 -0.028387498 0 0 0 -1 0
-0.017642751 -0.026833225 0 0 0 -1 0
-0.023845486 -0.026582714 0 0 0 -1 0
-0.017530581 -0.024742546 0 0 0 -1 0
-0.010938764 -0.024734441 0 0 0 -1 0
-0.0093696536 -0.024329338 0 0 0 -1 0
-7.9607591e-05 -0.024437698 0 0 0 -1 0
0.020486662 -0.024393165 0 0 0 -1 0
0.00041097915 -0.024090353 0 0 0 -1 0
0.022369316 -0.023952482 0 0 0 -1 0
0.0058510196 -0.022996303 0 0 0 -1 0
-0.01813833 -0.022530075 0 0 0 -1 0
-0.023288582 -0.021652002 0 0 0 -1 0
-0.017081492 -0.014824236 0 0 0 -1 0
0.017654901 -0.012355281 0 0 0 -1 0
0.0028862152 -0.011797059 0 0 0 -1 0
0.015922839 -0.010119142 0 0 0 -1 0
-0.022930719 -0.0098527595 0 0 0 -1 0
0.0036802385 -0.009995183 0 0 0 -1 0
-0.00024869572 -0.0094094556 0 0 0 -1 0
-0.023059294 -0.0069918409 0 0 0 -1 0
-0.017744085 -0.0052637346 0 0 0 -1 0
-0.021930873 -0.0051620789 0 0 0 -1 0
0.011681216 -0.0045202402 0 0 0 -1 0
-0.0041802558 -0.0042365566 0 0 0 -1 0
0.0090731904 -0.0037151128 0 0 0 -1 0
-0.00042640045 -0.0031551532 0 0 0 -1 0
0.0046017431 -0.0016271248 0 0 0 -1 0
0.024827464 0.002779417 0 0 0 -1 0
-0.014174239 0.0046442728 0 0 0 -1 0
0.0022916291 0.0058219098 0 0 0 -1 0
0.0083629536 0.0067834789 0 0 0 -1 0
-0.016602088 0.0070322845 0 0 0 -1 0
0.012525419 0.0080279037 0 0 0 -1 0
-0.0025159623 0.0085882563 0 0 0 -1 0
0.0066197561 0.0088802529 0 0 0 -1 0
0.01484984 0.0088639241 0 0 0 -1 0
0.018204032 0.00932997 0 0 0 -1 0
0.001659587 0.01062196 0 0 0 -1 0
0.011419507 0.011850903 0 0 0 -1 0
-0.018706445 0.012992419 0 0 0 -1 0
0.0089141373 0.013295434 0 0 0 -1 0
0.0026580654 0.014285468 0 0 0 -1 0
0.00040234532 0.015271232 0 0 0 -1 0
0.016632637 0.016583562 0 0 0 -1 0
0.012512187 0.016977524 0 0 0 -1 0
-0.0082390923 0.018871542 0 0 0 -1 0
-0.010408631 0.019328732 0 0 0 -1 0
-0.0035509169 0.021399489 0 0 0 -1 0
-0.0072887838 0.021893352 0 0 0 -1 0
0.0156499 0.02244518 0 0 0 -1 0
0.0091793062 0.0238558 0 0 0 -1 0
0.0084243938 0.024933409 0 0 0 -1 0
-0.02163757 0.02564887 0 0 0 -1 0
-0.0084030749 0.026291858 0 0 0 -1 0
0.0065743355 0.026837297 0 0 0 -1 0
-0.013632817 0.027439516 0 0 0 -1 0
0.013314391 0.029529819 0 0 0 -1 0
0.0094893333 0.031169713 0 0 0 -1 0
-0.0026196307 0.032042544 0 0 0 -1 0
0.014964269 0.032140724 0 0 0 -1 0
-0.023763992 0.032693889 0 0 0 -1 0
0.00086345617 0.033101857 0 0 0 -1 0
-0.016483746 0.034136981 0 0 0 -1 0
-0.012254716 0.037420329 0 0 0 -1 0
0.024015663 0.037646472 0 0 0 -1 0
-0.0081020417 0.038518451 0 0 0 -1 0
-0.024636567 0.040474541 0 0 0 -1 0
-0.0038926844 0.040629808 0 0 0 -1 0
0.023025306 0.04074033 0 0 0 -1 0
-0.0032772226 0.041048169 0 0 0 -1 0
0.0066743735 0.042063981 0 0 0 -1 0
0.014090957 0.042740155 0 0 0 -1 0
0.011402042 0.045263112 0 0 0 -1 0
0.0075852582 0.045897722 0 0 0 -1 0
-0.022649884 0.046404678 0 0 0 -1 0
0.023562199 0.046456043 0 0 0 -1 0
0.014651923 0.047190987 0 0 0 -1 0
-0.016403919 0.048507798 0 0 0 -1 0
0.0023147406 0.050000001 0.00023764969 0 1 0 0
-0.025 -0.003455651 0.00029062034 -1 0 0 0
0.025000002 0.012907354 0.00046601967 1 0 0 0
-0.025 0.039841615 0.00036223533 -1 0 0 0
-0.025 -0.0025825184 0.00054476265 -1 0 0 0
-0.025000002 0.019422475 0.00057131052 -1 0 0 0
0.025 0.021831039 0.00056563981 1 0 0 0
-0.023781398 -0.050000001 0.00080349145 0 -1 0 0
0.025000002 -0.027575282 0.00077056926 1 0 0 0
-0.025 -0.0033289827 0.00078991655 -1 0 0 0
-0.025 0.049644951 0.00078492163 -1 0 0 0
0.025000002 -0.029075654 0.0012058581 1 0 0 0
0.024999999 0.037079986 0.0010958806 1 0 0 0
-0.025 -0.038886227 0.0014792383 -1 0 0 0
0.014991962 0.049999997 0.0016705334 0 1 0 0
-0.025 0.024037542 0.0018627465 -1 0 0 0
0.001184755 -0.050000004 0.0023058446 0 -1 0 0
-0.025 -0.041445136 0.0028044879 -1 0 0 0
-0.025 -0.00076376123 0.0028608919 -1 0 0 0
0.025000002 0.014372291 0.0028729718 1 0 0 0
-0.025 -0.023678549 0.003164375 -1 0 0 0
-0.025 -0.0030812365 0.0037411929 -1 0 0 0
0.025 -0.0024422649 0.0042019491 1 0 0 0
0.025 0.037021443 0.0041900841 1 0 0 0
0.01587964 0.050000001 0.0040766834 0 1 0 0
-0.018391205 0.050000001 0.0042778552 0 1 0 0
-0.025 -0.015784375 0.0045923712 -1 0 0 0
0.025000002 0.041279022 0.0046945596 1 0 0 0
0.011147799 -0.050000001 0.0049864305 0 -1 0 0
-0.025000002 0.021751016 0.0051906048 -1 0 0 0
0.0087537477 -0.050000004 0.0054376442 0 -1 0 0
-0.025 -0.042358696 0.0053100646 -1 0 0 0
-0.024999999 0.038163625 0.0056625428 -1 0 0 0
0.025 0.047915801 0.0056036683 1 0 0 0
-0.01200044 -0.050000001 0.0059040077 0 -1 0 0
-0.0031359605 -0.050000001 0.0058229421 0 -1 0 0
0.025 -0.0032955892 0.0059588258 1 0 0 0
-0.0096708108 -0.050000001 0.0062975474 0 -1 0 0
0.00029834453 -0.050000004 0.0064922972 0 -1 0 0
0.025 -0.028377088 0.0063971025 1 0 0 0
0.025 -0.00090402924 0.0063337339 1 0 0 0
0.024999999 0.010999247 0.0063654501 1 0 0 0
0.0098106377 0.050000001 0.0065603615 0 1 0 0
0.01873517 -0.050000004 0.0073452741 0 -1 0 0
0.025000002 0.014084405 0.0077308784 1 0 0 0
-0.0172341 0.050000001 0.0078440672 0 1 0 0
0.014278863 0.050000001 0.0081752185 0 1 0 0
0.025000002 0.025399745 0.0084579717 1 0 0 0
-0.024999999 0.035837557 0.0084584299 -1 0 0 0
0.0034788474 0.050000001 0.0084874928 0 1 0 0
0.024999999 0.010562101 0.0085909842 1 0 0 0
-0.025000002 0.043615218 0.0089061856 -1 0 0 0
-0.024491211 -0.050000001 0.0092311408 0 -1 0 0
-0.016684519 -0.050000001 0.0095172459 0 -1 0 0
-0.012056073 -0.050000001 0.009632159 0 -1 0 0
-0.025 -0.02120468 0.0097063901 -1 0 0 0
-0.025000002 -0.010276802 0.010377086 -1 0 0 0
0.025 -0.04403818 0.010577651 1 0 0 0
-0.025 0.023950417 0.010500061 -1 0 0 0
-0.016689871 0.050000001 0.010577089 0 1 0 0
-0.0036302754 0.050000001 0.010532713 0 1 0 0
-0.0048828162 -0.050000001 0.010912213 0 -1 0 0
-0.025 0.0011763475 0.010912579 -1 0 0 0
-0.025 0.045169532 0.01090014 -1 0 0 0
-0.012638561 0.050000001 0.011215699 0 1 0 0
0.0047738585 0.050000004 0.01109227 0 1 0 0
0.025 0.0083300704 0.011345106 1 0 0 0
-0.025000002 -0.019814752 0.011613411 -1 0 0 0
0.025 -0.0065500159 0.01170207 1 0 0 0
-0.0080885794 -0.050000001 0.011852682 0 -1 0 0
-0.025 -0.024441013 0.011829126 -1 0 0 0
0.025 0.041631352 0.011846273 1 0 0 0
-0.025 -0.014354445 0.012152237 -1 0 0 0
0.025000002 -0.0099334372 0.012049246 1 0 0 0
0.025000002 0.016235635 0.012032124 1 0 0 0
0.023706028 0.050000001 0.012418173 0 1 0 0
-0.02256397 -0.050000001 0.012893223 0 -1 0 0
-0.025 0.04684215 0.013473797 -1 0 0 0
0.00053978898 -0.050000001 0.013961198 0 -1 0 0
0.025 0.0020305291 0.013984698 1 0 0 0
0.025 -0.040652011 0.014696312 1 0 0 0
0.025 0.007624629 0.014651473 1 0 0 0
-0.025 0.017478606 0.014577431 -1 0 0 0
0.025 -0.031279564 0.014968262 1 0 0 0
-0.025 -0.00031870883 0.014807815 -1 0 0 0
0.025 0.014527352 0.014920317 1 0 0 0
0.025000002 0.018790893 0.014811099 1 0 0 0
0.021031236 -0.050000001 0.01504128 0 -1 0 0
0.021660481 -0.050000001 0.015221154 0 -1 0 0
-0.020489151 -0.050000001 0.015289202 0 -1 0 0
0.025000002 0.0035875272 0.015489736 1 0 0 0
0.025 0.004053141 0.015484174 1 0 0 0
0.025 0.012441016 0.016483879 1 0 0 0
0.024999999 0.019206448 0.016498774 1 0 0 0
-0.025000002 0.02347726 0.016296959 -1 0 0 0
-0.025 -0.034199618 0.01674946 -1 0 0 0
0.025 0.029135 0.016562253 1 0 0 0
0.025 -0.0079201572 0.016753741 1 0 0 0
0.018577235 0.050000001 0.016834406 0 1 0 0
0.025 -0.024181433 0.017062996 1 0 0 0
0.025000002 -0.0033917278 0.017019009 1 0 0 0
0.025 0.036818419 0.017244726 1 0 0 0
-0.017122801 0.050000004 0.01717571 0 1 0 0
-0.025 -0.045419127 0.017288988 -1 0 0 0
0.024784867 0.050000004 0.017281076 0 1 0 0
-0.025000002 0.030746244 0.01769923 -1 0 0 0
0.015729034 -0.050000001 0.017913831 0 -1 0 0
-0.016102022 -0.050000001 0.018172577 0 -1 0 0
-0.025 -0.04353724 0.018249862 -1 0 0 0
-0.025 0.006763042 0.018248821 -1 0 0 0
0.025 0.049290217 0.018002205 1 0 0 0
0.025 0.018649373 0.018453404 1 0 0 0
-0.0040585161 0.050000001 0.018255001 0 1 0 0
-0.025 -0.022898961 0.018641895 -1 0 0 0
0.025 0.0090708826 0.018572869 1 0 0 0
-0.025 -0.011828334 0.018836791 -1 0 0 0
-0.025 0.0054825135 0.019398576 -1 0 0 0
0.016104322 -0.050000004 0.019559376 0 -1 0 0
0.025 -0.040307757 0.019707259 1 0 0 0
0.025 -0.031067934 0.019503605 1 0 0 0
0.025 -0.017680421 0.019713158 1 0 0 0
0.025 0.00745863 0.019668827 1 0 0 0
-0.024999999 0.033409651 0.019573605 -1 0 0 0
0.025 0.013925465 0.019777993 1 0 0 0
0.012635493 0.050000004 0.020190317 0 1 0 0
0.025 -0.041080657 0.020361286 1 0 0 0
-0.025 0.0091398666 0.020354284 -1 0 0 0
-0.013729827 0.050000001 0.02026847 0 1 0 0
0.01720552 0.050000001 0.020542968 0 1 0 0
-0.025 0.036054567 0.020871932 -1 0 0 0
-0.025 0.037677415 0.021132356 -1 0 0 0
-0.018565055 0.050000004 0.021126974 0 1 0 0
-0.025000002 -0.0050954241 0.021326095 -1 0 0 0
0.0032398663 -0.050000001 0.021503232 0 -1 0 0
-0.025000002 -0.017400669 0.022119183 -1 0 0 0
-0.025000002 0.01201685 0.022283573 -1 0 0 0
-0.017079165 -0.050000001 0.022704294 0 -1 0 0
0.025 -0.035962749 0.022742962 1 0 0 0
-0.025000002 0.049391083 0.022726882 -1 0 0 0
0.024999999 0.029109901 0.022816613 1 0 0 0
-0.015531467 -0.050000001 0.023212941 0 -1 0 0
-0.025 0.045891382 0.023116285 -1 0 0 0
0.025 0.012707211 0.023297515 1 0 0 0
-0.025 0.012433019 0.023927504 -1 0 0 0
-0.025 0.027128588 0.024057848 -1 0 0 0
-0.025000002 0.042222209 0.02417611 -1 0 0 0
0.025 -0.034631368 0.02455667 1 0 0 0
0.025000002 -0.0020855116 0.024900975 1 0 0 0
0.025 0.010695655 0.024920464 1 0 0 0
-0.025 0.035033677 0.024867846 -1 0 0 0
0.025 -0.020915572 0.025183996 1 0 0 0
-0.024999999 -0.00015033595 0.025373906 -1 0 0 0
-0.025 0.01996604 0.025573885 -1 0 0 0
0.022564983 0.050000001 0.026047844 0 1 0 0
-0.00057197642 -0.050000004 0.026438756 0 -1 0 0
0.025 -0.031741988 0.026312198 1 0 0 0
-0.025 0.040242139 0.026300281 -1 0 0 0
-0.025 -0.042608894 0.026752315 -1 0 0 0
-0.010353775 -0.050000004 0.027079755 0 -1 0 0
0.025 -0.037788715 0.02706553 1 0 0 0
0.025 -0.034179304 0.02756821 1 0 0 0
-0.0022773677 -0.049999997 0.027895609 0 -1 0 0
-0.025 0.036106601 0.027913963 -1 0 0 0
0.0054164361 0.050000001 0.028228134 0 1 0 0
0.022530569 0.050000001 0.02868207 0 1 0 0
0.025 0.02502708 0.029115463 1 0 0 0
-0.025 0.035274055 0.02920639 -1 0 0 0
-0.025 -0.036748052 0.029399658 -1 0 0 0
0.025000002 -0.026976617 0.029452691 1 0 0 0
-0.024149084 0.050000001 0.029284721 0 1 0 0
-0.01348704 0.050000001 0.029340422 0 1 0 0
0.025000002 -0.002346199 0.029747436 1 0 0 0
-0.0092696324 0.050000001 0.029685928 0 1 0 0
0.025 0.0089736115 0.029853882 1 0 0 0
0.025000002 0.0088911969 0.029912265 1 0 0 0
-0.01579272 0.050000001 0.030223697 0 1 0 0
-0.025 -0.040440746 0.030324247 -1 0 0 0
-0.025 -0.014216362 0.030455166 -1 0 0 0
0.024999999 0.033646747 0.03046073 1 0 0 0
0.0022350051 0.050000001 0.030538453 0 1 0 0
-0.025 -0.015637413 0.030894918 -1 0 0 0
-0.014895374 -0.050000001 0.03109744 0 -1 0 0
-0.025000002 -0.0095590372 0.031160045 -1 0 0 0
0.025 0.037006527 0.031203412 1 0 0 0
0.025 0.009347965 0.031274356 1 0 0 0
-0.019369092 0.049999997 0.031602394 0 1 0 0
0.00044406299 0.049999997 0.031512775 0 1 0 0
0.025 -0.03088877 0.032209061 1 0 0 0
0.025 0.038795639 0.032233741 1 0 0 0
-0.025 -0.043216038 0.032456048 -1 0 0 0
-0.025 -0.0028044488 0.032321423 -1 0 0 0
0.025 0.039610673 0.032272466 1 0 0 0
0.025000002 -0.011250933 0.03250457 1 0 0 0
0.024999999 0.019679828 0.032516249 1 0 0 0
-0.016465843 -0.050000004 0.032986395 0 -1 0 0
-0.025000002 -0.04102391 0.032790534 -1 0 0 0
-0.025 -0.032367252 0.0328153 -1 0 0 0
0.012979308 0.050000001 0.033337671 0 1 0 0
-0.023559811 -0.050000001 0.033767674 0 -1 0 0
0.008251464 -0.050000001 0.033961188 0 -1 0 0
0.00897789 -0.050000004 0.034177255 0 -1 0 0
0.024999999 -0.012733487 0.03405254 1 0 0 0
-0.0079180347 0.050000004 0.034188617 0 1 0 0
0.016957639 -0.050000001 0.034447629 0 -1 0 0
0.025 -0.042767819 0.034416765 1 0 0 0
-0.025 0.046926558 0.034698911 -1 0 0 0
-0.01163034 0.049999997 0.034662139 0 1 0 0
0.025 -0.04167385 0.035462111 1 0 0 0
0.025000002 0.0035328297 0.035446648 1 0 0 0
-0.025000002 -0.03421947 0.035773497 -1 0 0 0
-0.025 -0.03366328 0.0359933 -1 0 0 0
-0.012173162 -0.050000004 0.036215384 0 -1 0 0
0.025 -0.033070263 0.036203131 1 0 0 0
0.025000002 0.01650805 0.036002673 1 0 0 0
-0.025 0.034985587 0.03603027 -1 0 0 0
-0.024999999 0.045039572 0.03635342 -1 0 0 0
0.025000002 -0.015970888 0.037208769 1 0 0 0
0.025 0.030241765 0.037149731 1 0 0 0
-0.0070983144 0.050000001 0.03740675 0 1 0 0
0.025 -0.049852509 0.037809264 1 0 0 0
-0.025 0.0017194133 0.037928946 -1 0 0 0
0.024999999 -0.012874162 0.038117725 1 0 0 0
0.025 0.0013157558 0.038087595 1 0 0 0
-0.025 -0.017029772 0.038454719 -1 0 0 0
-0.025 -0.045384198 0.038519174 -1 0 0 0
0.025 0.0048584905 0.038544789 1 0 0 0
0.025 0.0084316451 0.038599748 1 0 0 0
0.021586262 -0.050000004 0.039442778 0 -1 0 0
-0.012450211 -0.049999997 0.03993842 0 -1 0 0
0.0064203097 -0.049999997 0.03983311 0 -1 0 0
-0.025 -0.0050562415 0.039986312 -1 0 0 0
0.025000002 0.0066802949 0.039968476 1 0 0 0
0.019492989 -0.050000001 0.040479369 0 -1 0 0
-0.018285595 -0.050000004 0.040646724 0 -1 0 0
0.018370071 -0.050000001 0.040626451 0 -1 0 0
0.003778764 -0.050000004 0.040792733 0 -1 0 0
0.025 -0.0015438551 0.040781196 1 0 0 0
-0.021728268 -0.050000001 0.042158503 0 -1 0 0
0.025 -0.037021939 0.042020984 1 0 0 0
-0.025 -0.043817546 0.042477906 -1 0 0 0
-0.025 0.030952984 0.042975701 -1 0 0 0
-0.024999999 -0.012322997 0.043193068 -1 0 0 0
-0.021419793 0.050000001 0.043031465 0 1 0 0
-0.025 -0.0034453962 0.043363255 -1 0 0 0
-0.024999999 0.013870892 0.043296743 -1 0 0 0
-0.024130305 0.050000001 0.043328006 0 1 0 0
-0.025000002 -0.015400878 0.043565013 -1 0 0 0
0.025000002 0.022393299 0.043727811 1 0 0 0
-0.025 0.044279918 0.043648638 -1 0 0 0
0.014092178 0.050000004 0.043840177 0 1 0 0
-0.025 0.0020311121 0.044178642 -1 0 0 0
0.012893282 -0.050000004 0.044329856 0 -1 0 0
0.0072917249 -0.050000001 0.044698842 0 -1 0 0
0.010494611 -0.050000001 0.04453459 0 -1 0 0
-0.025000002 -0.02318343 0.04468222 -1 0 0 0
-0.025 -0.047395587 0.04478281 -1 0 0 0
0.025 0.037622653 0.045319457 1 0 0 0
0.025 0.020116843 0.045562055 1 0 0 0
0.024999999 0.015585272 0.046049532 1 0 0 0
-0.0056416392 -0.050000001 0.046389487 0 -1 0 0
0.017208222 -0.050000001 0.046341479 0 -1 0 0
-0.024999999 0.014723331 0.046358939 -1 0 0 0
-0.025000002 0.016371284 0.046409942 -1 0 0 0
-0.020143172 -0.050000001 0.04651469 0 -1 0 0
0.025 0.049698148 0.046674583 1 0 0 0
-0.001356829 -0.050000001 0.046835605 0 -1 0 0
0.024832968 -0.050000001 0.046864085 0 -1 0 0
-0.025 -0.029520886 0.046841722 -1 0 0 0
0.025 -0.020172771 0.046865158 1 0 0 0
-0.025000002 0.041118443 0.046869617 -1 0 0 0
0.025 -0.038489018 0.04706521 1 0 0 0
0.013357449 -0.050000004 0.047376864 0 -1 0 0
0.025 -0.01809274 0.047336172 1 0 0 0
-0.025 0.020754412 0.047441967 -1 0 0 0
-0.025 0.026356393 0.047273856 -1 0 0 0
0.024999999 0.0094161248 0.047711905 1 0 0 0
-0.02061318 -0.050000001 0.047836218 0 -1 0 0
0.025 -0.0046478286 0.047887519 1 0 0 0
0.01387551 -0.050000001 0.048048548 0 -1 0 0
-0.025 -0.0077374615 0.048417818 -1 0 0 0
-0.025 0.017435227 0.04860235 -1 0 0 0
0.025 0.032087497 0.048671197 1 0 0 0
0.025 -0.02986056 0.048970267 1 0 0 0
0.025000002 -0.025460161 0.048986468 1 0 0 0
-0.024999999 0.041775793 0.049074061 -1 0 0 0
-0.025000002 -0.032983106 0.0494771 -1 0 0 0
0.025 -0.0025538281 0.049427584 1 0 0 0
-0.025 0.020881139 0.049494904 -1 0 0 0
0.013361447 0.050000004 0.049569733 0 1 0 0
0.014498726 0.050000004 0.049614936 0 1 0 0
0.025 -0.018897545 0.049837496 1 0 0 0
0.025 0.047645152 0.050213538 1 0 0 0
-0.025 -0.012999931 0.050378069 -1 0 0 0
0.012473721 0.050000004 0.050420914 0 1 0 0
0.0022231676 0.050000001 0.050556816 0 1 0 0
-0.014206475 -0.050000001 0.050893635 0 -1 0 0
0.025000002 0.034248836 0.050889466 1 0 0 0
0.025 -0.032344874 0.051172979 1 0 0 0
0.025 0.0015524534 0.05110595 1 0 0 0
-0.025 0.01091096 0.05100384 -1 0 0 0
0.024999999 -0.015283948 0.051369425 1 0 0 0
-0.025000002 0.017618116 0.051365543 -1 0 0 0
0.018741034 -0.050000004 0.051518206 0 -1 0 0
-0.025000002 0.040141392 0.051573314 -1 0 0 0
-0.024999999 -0.030038303 0.051885121 -1 0 0 0
0.025000002 -0.024271997 0.052224014 1 0 0 0
-0.025000002 -0.022593191 0.052290123 -1 0 0 0
0.025 -0.037190739 0.052501198 1 0 0 0
-0.025 0.024323251 0.052603453 -1 0 0 0
-0.020037979 0.050000001 0.052912235 0 1 0 0
-0.013385838 0.050000001 0.052891877 0 1 0 0
-0.025000002 -0.029633617 0.053280149 -1 0 0 0
-0.025 -0.044055402 0.053592443 -1 0 0 0
-0.024999999 -0.028812742 0.053748634 -1 0 0 0
-0.025000002 -0.030740827 0.053998601 -1 0 0 0
0.015385583 -0.050000001 0.05408641 0 -1 0 0
-0.025000002 -0.042223226 0.054640528 -1 0 0 0
0.025000002 -0.027121933 0.054553594 1 0 0 0
0.025000002 -0.02630532 0.054667275 1 0 0 0
-0.025000002 -0.023089046 0.054630406 -1 0 0 0
0.025000002 0.02950165 0.055070441 1 0 0 0
0.01035907 -0.050000004 0.055322103 0 -1 0 0
-0.025 -0.0026584521 0.055328388 -1 0 0 0
-0.025 -0.023341162 0.055703856 -1 0 0 0
-0.025 0.022746634 0.055500496 -1 0 0 0
0.025 0.047068365 0.055504862 1 0 0 0
-0.025 0.044359792 0.055847138 -1 0 0 0
0.011022488 0.050000001 0.055818126 0 1 0 0
-0.025 0.046332132 0.05611534 -1 0 0 0
-0.014923437 -0.050000001 0.056976277 0 -1 0 0
0.025 0.035045154 0.056997549 1 0 0 0
0.010748082 -0.050000004 0.057359099 0 -1 0 0
0.025000002 0.021929663 0.057412375 1 0 0 0
-0.025 -0.044302382 0.057586715 -1 0 0 0
-0.024999999 0.034778606 0.057693183 -1 0 0 0
0.024893302 0.049999997 0.057694297 0 1 0 0
-0.016912764 -0.050000001 0.057814907 0 -1 0 0
0.024999999 0.043640036 0.057974633 1 0 0 0
0.011394898 -0.050000001 0.058265179 0 -1 0 0
-0.025000002 -0.025214333 0.058445297 -1 0 0 0
-0.013517729 0.050000004 0.058398962 0 1 0 0
-0.024999999 0.038923629 0.058724321 -1 0 0 0
-0.025 0.019864403 0.058877118 -1 0 0 0
0.025 0.038437542 0.058954101 1 0 0 0
0.025 -0.039175745 0.059111699 1 0 0 0
-0.025 -0.035346143 0.059925482 -1 0 0 0
-0.025 -0.025340177 0.059935439 -1 0 0 0
0.00010209158 -0.050000001 0.060235705 0 -1 0 0
-0.025000002 0.027481118 0.060211089 -1 0 0 0
0.025000002 0.02920871 0.060025197 1 0 0 0
-0.025000002 0.043441474 0.060177017 -1 0 0 0
0.0025797663 -0.050000004 0.060848016 0 -1 0 0
-0.025 -0.00068780483 0.06084577 -1 0 0 0
-0.018121565 -0.050000001 0.061221693 0 -1 0 0
-0.025 0.04717885 0.0611117 -1 0 0 0
0.00032234751 0.050000001 0.061048083 0 1 0 0
-0.024999999 0.018783562 0.061285388 -1 0 0 0
0.025 -0.04160307 0.061622005 1 0 0 0
0.024999999 -0.014648831 0.061582576 1 0 0 0
0.025000002 -0.016272718 0.061782666 1 0 0 0
-0.0050782915 -0.050000001 0.062487971 0 -1 0 0
-0.025000002 -0.024733625 0.06247624 -1 0 0 0
0.025 0.0079128332 0.062466718 1 0 0 0
-0.025000002 0.041214794 0.062287267 -1 0 0 0
0.024999999 0.0081873182 0.062810101 1 0 0 0
-0.024999999 0.016787767 0.062991597 -1 0 0 0
-0.025000002 0.02020945 0.062955223 -1 0 0 0
0.025 0.021822564 0.063261278 1 0 0 0
-0.0037811222 0.049999997 0.063379705 0 1 0 0
-0.025 -0.032791629 0.063738883 -1 0 0 0
0.025000002 0.024439346 0.06363225 1 0 0 0
-0.025 -0.028649159 0.06396544 -1 0 0 0
-0.025 -0.025449047 0.064500123 -1 0 0 0
-0.025000002 -0.041269515 0.064774536 -1 0 0 0
0.025 0.0025141165 0.064853132 1 0 0 0
-0.025 0.024642123 0.064809434 -1 0 0 0
-0.025000002 0.0017179485 0.065147564 -1 0 0 0
-0.022651054 0.049999997 0.06502489 0 1 0 0
-0.019587265 0.049999997 0.065238826 0 1 0 0
0.0048720236 -0.050000001 0.065380037 0 -1 0 0
0.025 0.0061267987 0.065414801 1 0 0 0
0.024999999 0.020242952 0.065331705 1 0 0 0
0.020052621 -0.050000004 0.065506153 0 -1 0 0
-0.025 -0.0050810147 0.065579809 -1 0 0 0
-0.025 -0.039976776 0.065969788 -1 0 0 0
0.025 -0.04016358 0.066276714 1 0 0 0
-0.025000002 0.034788892 0.066397741 -1 0 0 0
0.00094652083 -0.050000004 0.066808954 0 -1 0 0
-0.025 0.026928376 0.066933833 -1 0 0 0
-0.025000002 0.028492711 0.06721019 -1 0 0 0
0.025000002 0.010342455 0.067300178 1 0 0 0
0.025 0.024266478 0.067543089 1 0 0 0
-0.016607195 -0.050000004 0.067838766 0 -1 0 0
0.025 -0.028419916 0.067758456 1 0 0 0
-0.023407824 0.050000001 0.067868464 0 1 0 0
0.025 -0.04140747 0.068465337 1 0 0 0
0.025 -0.029702332 0.06848345 1 0 0 0
0.025 -0.028671812 0.06898015 1 0 0 0
0.025 -0.023641195 0.068942323 1 0 0 0
0.024999999 -0.017619496 0.068857729 1 0 0 0
0.025 -0.019093927 0.069370225 1 0 0 0
-0.024999999 0.0079694381 0.069409028 -1 0 0 0
0.025 -0.047772083 0.069633655 1 0 0 0
-0.025 0.017186256 0.069672905 -1 0 0 0
0.025000002 0.042081207 0.06999927 1 0 0 0
0.025000002 -0.0077249203 0.070044786 1 0 0 0
0.025 0.04713602 0.070047364 1 0 0 0
-0.022319041 0.050000004 0.070057563 0 1 0 0
-0.025 -0.011170329 0.070405662 -1 0 0 0
-0.024999999 0.038669892 0.070313275 -1 0 0 0
0.025 -0.040299628 0.070717826 1 0 0 0
0.025000002 0.010604331 0.070731685 1 0 0 0
0.0054955613 -0.050000001 0.071089186 0 -1 0 0
0.025000002 0.0052598696 0.071026869 1 0 0 0
0.0058503067 -0.050000001 0.07141754 0 -1 0 0
0.025 -0.022794183 0.071423344 1 0 0 0
-0.025000002 -0.0010928679 0.071416788 -1 0 0 0
-0.0084747607 0.050000004 0.071276173 0 1 0 0
0.025000002 -0.0066989921 0.071540497 1 0 0 0
-0.025 -0.021084348 0.071844518 -1 0 0 0
-0.025000002 -0.014918399 0.071793675 -1 0 0 0
-0.025 -0.038458824 0.072179466 -1 0 0 0
0.025 0.0091543086 0.072424248 1 0 0 0
-0.025 0.036079746 0.072937913 -1 0 0 0
0.025 -0.043968286 0.073001266 1 0 0 0
-0.025 -0.026908055 0.073125713 -1 0 0 0
0.025 0.038138811 0.073435374 1 0 0 0
-0.025 -0.01748194 0.0739123 -1 0 0 0
0.025 0.036559362 0.074631236 1 0 0 0
-0.025 -0.029450435 0.074883327 -1 0 0 0
0.025000002 -0.02106026 0.075233981 1 0 0 0
0.0046986234 -0.050000001 0.075412922 0 -1 0 0
0.025 -0.030349333 0.075265683 1 0 0 0
0.025 0.011519231 0.075390294 1 0 0 0
-0.024999999 0.043436486 0.075473346 -1 0 0 0
0.0083571048 0.050000004 0.075418808 0 1 0 0
-0.0079396637 -0.050000004 0.075992204 0 -1 0 0
0.0091268197 -0.050000001 0.075866915 0 -1 0 0
0.025 -0.011971068 0.076140031 1 0 0 0
0.02058317 -0.050000001 0.076256819 0 -1 0 0
-0.025 0.024148995 0.076270387 -1 0 0 0
-0.025 0.013004197 0.076561697 -1 0 0 0
0.025 0.031827606 0.076915458 1 0 0 0
-0.025 0.01673623 0.07714808 -1 0 0 0
0.025000002 0.017723978 0.077126518 1 0 0 0
-0.019517293 0.050000004 0.077080742 0 1 0 0
0.025000002 0.01798773 0.077374861 1 0 0 0
-0.0084302844 -0.050000004 0.077614427 0 -1 0 0
0.023543611 -0.050000001 0.077607363 0 -1 0 0
-0.025000002 -0.044344574 0.077544749 -1 0 0 0
0.025 0.0051729009 0.077914253 1 0 0 0
0.017841008 -0.050000001 0.078154907 0 -1 0 0
-0.025000002 0.028159156 0.078212947 -1 0 0 0
-0.00059585925 0.049999997 0.078030579 0 1 0 0
-0.021982132 -0.050000001 0.078312762 0 -1 0 0
-0.0037830602 -0.050000004 0.078478582 0 -1 0 0
-0.025000002 -0.006193493 0.078496404 -1 0 0 0
0.0040044086 0.049999997 0.078280739 0 1 0 0
-0.025 -0.019080799 0.078582682 -1 0 0 0
-0.025 -0.015611927 0.078712083 -1 0 0 0
-0.025 0.024854895 0.078913279 -1 0 0 0
-0.025 0.02970263 0.078850657 -1 0 0 0
-0.025 -0.034602962 0.079062715 -1 0 0 0
0.025 0.041851982 0.079014748 1 0 0 0
0.025 -0.030814145 0.079414852 1 0 0 0
-0.025 -0.024883175 0.079652786 -1 0 0 0
-0.025 -0.019674856 0.079662219 -1 0 0 0
-0.013374859 0.050000004 0.079759702 0 1 0 0
-0.025 -0.024254246 0.080072731 -1 0 0 0
0.010188655 0.050000004 0.080094859 0 1 0 0
-0.024999999 0.010973408 0.080524206 -1 0 0 0
-0.025 -0.02131938 0.08097823 -1 0 0 0
0.024999999 -0.013907289 0.081155211 1 0 0 0
0.025000002 0.028936744 0.081480719 1 0 0 0
-0.025 -0.0059916954 0.081718974 -1 0 0 0
0.025 0.040774278 0.08171688 1 0 0 0
0.025000002 0.029978247 0.082221135 1 0 0 0
-0.025 -0.01347243 0.082471356 -1 0 0 0
0.016197041 0.050000004 0.082279831 0 1 0 0
-0.025 -0.033783801 0.08257775 -1 0 0 0
-0.017564071 0.050000001 0.082556903 0 1 0 0
0.0042242352 0.050000001 0.08260043 0 1 0 0
0.024999999 0.0087907445 0.082914904 1 0 0 0
-0.025000002 0.019251766 0.082838207 -1 0 0 0
0.0010615851 -0.050000001 0.083081968 0 -1 0 0
0.025 0.027977359 0.084110066 1 0 0 0
0.025 -0.011546664 0.084443897 1 0 0 0
-0.025000002 -0.038398996 0.084646538 -1 0 0 0
0.025 0.0089102015 0.084514171 1 0 0 0
0.021569012 0.050000001 0.084530324 0 1 0 0
-0.025000002 0.011837021 0.084991887 -1 0 0 0
-0.0028901575 0.050000004 0.084964179 0 1 0 0
0.01654082 -0.050000001 0.085108653 0 -1 0 0
0.024999999 0.041147359 0.085246973 1 0 0 0
-0.025 -0.00461165 0.085255094 -1 0 0 0
-0.025 0.031750239 0.085639477 -1 0 0 0
0.025 0.029172372 0.085820653 1 0 0 0
-0.010923633 -0.050000001 0.086125441 0 -1 0 0
0.024999999 -0.012697466 0.086100839 1 0 0 0
0.024999999 -0.046130329 0.086451106 1 0 0 0
0.025000002 -0.0092528425 0.086479098 1 0 0 0
-0.024999999 -0.046267875 0.087091289 -1 0 0 0
-0.025000002 0.032303184 0.087256163 -1 0 0 0
0.0083173038 -0.050000001 0.087719768 0 -1 0 0
0.024999999 0.041360997 0.087962039 1 0 0 0
0.0078889867 -0.050000004 0.088209376 0 -1 0 0
0.0025065774 -0.049999997 0.088491887 0 -1 0 0
-0.025 -0.023043677 0.088444099 -1 0 0 0
0.025 0.037096288 0.088421792 1 0 0 0
-0.0052936319 0.050000001 0.088456437 0 1 0 0
0.0014466915 -0.049999997 0.08898446 0 -1 0 0
-0.025 -0.012158863 0.08921095 -1 0 0 0
-0.025 -0.034500081 0.08974959 -1 0 0 0
0.008923009 -0.050000001 0.089873806 0 -1 0 0
0.014154356 -0.050000001 0.090227753 0 -1 0 0
-0.025 -0.049999874 0.090412967 -1 0 0 0
-0.025 -0.044374235 0.090765215 -1 0 0 0
-0.025000002 -0.035123378 0.090935864 -1 0 0 0
0.002220015 0.050000004 0.090790018 0 1 0 0
0.025 0.041215885 0.091474451 1 0 0 0
-0.025000002 -0.017187895 0.091630548 -1 0 0 0
0.025 -0.0073882937 0.091711991 1 0 0 0
0.025 0.025738817 0.091719471 1 0 0 0
-0.025000002 -0.029032208 0.092197865 -1 0 0 0
-0.025 -0.0039433949 0.092094749 -1 0 0 0
0.025000002 0.016436936 0.092122249 1 0 0 0
-0.0041352119 0.050000001 0.092167646 0 1 0 0
0.025 0.034219701 0.092486449 1 0 0 0
0.016129689 -0.050000004 0.09347678 0 -1 0 0
0.024999999 -0.039456069 0.093346886 1 0 0 0
-0.0013990402 -0.050000004 0.093782611 0 -1 0 0
0.023080934 -0.050000001 0.09398213 0 -1 0 0
-0.024999999 0.04932142 0.094315767 -1 0 0 0
0.017945444 0.050000001 0.09436734 0 1 0 0
-0.025 -0.033721179 0.094651148 -1 0 0 0
-0.025 -0.014635475 0.094629496 -1 0 0 0
0.0050465725 0.050000001 0.094724916 0 1 0 0
-0.018824356 -0.050000001 0.094953179 0 -1 0 0
0.025 -0.0065813661 0.094938897 1 0 0 0
0.011334511 0.050000001 0.094921276 0 1 0 0
-0.025 -0.0016001676 0.095006987 -1 0 0 0
-0.025000002 -0.040362448 0.095401458 -1 0 0 0
-0.0074148532 0.050000001 0.095384091 0 1 0 0
-0.024999999 -0.049993694 0.095732294 -1 0 0 0
-0.024999999 -0.035950825 0.095664546 -1 0 0 0
0.0092154071 -0.050000004 0.096096523 0 -1 0 0
-0.025 0.045070268 0.096358687 -1 0 0 0
0.0070179114 -0.050000001 0.096516378 0 -1 0 0
-0.024999999 0.015908966 0.096643023 -1 0 0 0
0.025 0.037556369 0.096555799 1 0 0 0
0.025000002 -0.012909019 0.097328536 1 0 0 0
-0.022684606 -0.050000001 0.097573578 0 -1 0 0
0.0036462471 -0.050000001 0.09794046 0 -1 0 0
-0.025000002 -0.022501595 0.097816557 -1 0 0 0
-0.024999999 -0.015640916 0.097814895 -1 0 0 0
-0.025000002 -0.010830022 0.097986236 -1 0 0 0
0.025 0.019781757 0.097804852 1 0 0 0
-0.0038329065 0.050000001 0.097985394 0 1 0 0
-0.021017134 -0.050000004 0.098227955 0 -1 0 0
0.025000002 -0.022610225 0.098015159 1 0 0 0
-0.025000002 0.0036777325 0.098157756 -1 0 0 0
0.0095637869 0.050000001 0.098460324 0 1 0 0
-0.025000002 0.025793467 0.098594844 -1 0 0 0
-0.025000002 -0.010895677 0.098935582 -1 0 0 0
0.023737598 -0.049999997 0.099174522 0 -1 0 0
0.025 -0.015300196 0.099002212 1 0 0 0
-0.025000002 -0.0071562268 0.099001586 -1 0 0 0
0.025 0.0028057918 0.099012233 1 0 0 0
0.025 0.037925508 0.099150904 1 0 0 0
0.0087432088 0.050000004 0.099061608 0 1 0 0
0.025 0.033072274 0.099584095 1 0 0 0
0.010665072 0.050000001 0.099662855 0 1 0 0
0.025000002 -0.024582841 0.10007016 1 0 0 0
0.025000002 -0.024371468 0.1004516 1 0 0 0
-0.025 0.023814429 0.10042724 -1 0 0 0
-0.025 0.036725532 0.10040802 -1 0 0 0
-0.024999999 0.016436884 0.10088146 -1 0 0 0
-0.0019576503 0.049007222 0.10099278 0 0.70710683 0.70710683 0
0.01362825 -0.050000001 0.10160433 0 -1 0 0
0.025 0.046645183 0.10164868 1 0 0 0
-0.0013179949 -0.050000001 0.10184287 0 -1 0 0
0.013038971 -0.050000001 0.10182376 0 -1 0 0
-0.025000002 0.016258506 0.10198738 -1 0 0 0
-0.020538097 0.048116557 0.10188344 0 0.70710683 0.70710683 0
-0.0026383707 0.048104793 0.10189521 0 0.70710683 0.70710683 0
-0.025 -0.010149828 0.10212892 -1 0 0 0
-0.0046770945 0.047979854 0.10202015 0 0.70710683 0.70710683 0
0.025 -0.035908286 0.10244023 1 0 0 0
0.001451089 0.047660515 0.10233949 0 0.70710683 0.70710683 0
0.015285062 0.047565509 0.1024345 0 0.70710683 0.70710683 0
-0.024999999 -0.048975825 0.10260308 -1 0 0 0
-0.020894742 0.047276288 0.10272372 0 0.70710683 0.70710683 0
0.014556373 -0.050000001 0.10307325 0 -1 0 0
0.025 0.020395335 0.10323445 1 0 0 0
0.014050169 0.046871431 0.10312857 0 0.70710683 0.70710683 0
-0.017192634 -0.050000001 0.10347037 0 -1 0 0
0.025 0.042175714 0.10332611 1 0 0 0
-0.025000002 -0.011958974 0.10367151 -1 0 0 0
0.0032133348 0.046329007 0.103671 0 0.70710683 0.70710683 0
0.0051514907 -0.049999997 0.10385875 0 -1 0 0
0.024999999 -0.037022628 0.10379047 1 0 0 0
-0.012533953 0.046117626 0.10388238 0 0.70710683 0.70710683 0
0.0035996551 -0.050000004 0.10402008 0 -1 0 0
-0.015318377 0.045758113 0.1042419 0 0.70710683 0.70710683 0
0.025000002 -0.026674064 0.10437319 1 0 0 0
-0.025000002 0.037126884 0.10436862 -1 0 0 0
-0.024999999 0.037417863 0.1044995 -1 0 0 0
-0.024999999 -0.030081164 0.10466103 -1 0 0 0
0.024999999 0.014957434 0.10468113 1 0 0 0
-0.011116468 0.045089975 0.10491003 0 0.70710683 0.70710683 0
0.015471719 0.044812642 0.10518736 0 0.70710683 0.70710683 0
0.02006791 0.044838041 0.10516196 0 0.70710683 0.70710683 0
0.025 -0.031642918 0.10545647 1 0 0 0
-0.025000002 0.033656571 0.10528396 -1 0 0 0
0.025000002 0.0038378928 0.10562813 1 0 0 0
0.0077310945 -0.050000004 0.10587963 0 -1 0 0
0.025 -0.048629362 0.10603856 1 0 0 0
-0.025 0.036285851 0.10621163 -1 0 0 0
0.024999999 0.012020232 0.10684839 1 0 0 0
0.025000002 -0.022530131 0.10715024 1 0 0 0
-0.025000002 0.0046007726 0.10723643 -1 0 0 0
-0.024999999 0.033618372 0.10713321 -1 0 0 0
-0.025 0.033921283 0.10716721 -1 0 0 0
0.011111382 0.042981084 0.10701892 0 0.70710683 0.70710683 0
-0.024999999 0.018396717 0.1072775 -1 0 0 0
0.025000002 -0.01813283 0.10765679 1 0 0 0
0.0066568153 -0.050000001 0.10785785 0 -1 0 0
0.024999999 -0.048562959 0.10787883 1 0 0 0
0.025 -0.021658275 0.10777891 1 0 0 0
0.025000002 0.0028192457 0.10803574 1 0 0 0
0.025000002 -0.018357458 0.10834228 1 0 0 0
-0.025 0.030420257 0.10829467 -1 0 0 0
0.013853247 -0.049999997 0.1086814 0 -1 0 0
0.021782348 0.041450482 0.10854954 0 0.70710683 0.70710683 0
-0.025000002 -0.016248062 0.10889231 -1 0 0 0
0.025 -0.0040769577 0.10883492 1 0 0 0
0.0060952026 -0.050000004 0.10906722 0 -1 0 0
-0.025 0.035538435 0.10944498 -1 0 0 0
-0.01745603 0.040368788 0.10963121 -4.9065393e-17 0.70710683 0.70710683 0
-0.0088350121 -0.050000001 0.10987379 0 -1 0 0
-0.025000002 0.037684157 0.10977595 -1 0 0 0
0.025 0.015177768 0.11019046 1 0 0 0
-0.025000002 0.023441732 0.11012156 -1 0 0 0
-0.01816166 -0.050000001 0.11073671 0 -1 0 0
-0.0023354269 -0.049999997 0.11069822 0 -1 0 0
0.025000002 0.012717189 0.11059159 1 0 0 0
0.025 0.026460532 0.11055839 1 0 0 0
-0.0043454566 0.039342381 0.11065762 0 0.70710683 0.70710683 0
0.025000002 0.0075297449 0.11084278 1 0 0 0
-0.010122439 0.039184626 0.11081537 0 0.70710683 0.70710683 0
0.024999999 0.0083793197 0.11105508 1 0 0 0
0.025 -0.042086925 0.11148182 1 0 0 0
-0.025000002 -0.0085408194 0.11143758 -1 0 0 0
-0.019536795 -0.050000001 0.1116159 0 -1 0 0
0.020733647 -0.050000004 0.11184014 0 -1 0 0
-0.025 0.036398221 0.11176563 -1 0 0 0
0.025 -0.0039493553 0.11237427 1 0 0 0
-0.025 0.0028434019 0.11238889 -1 0 0 0
-0.024999999 -0.047072493 0.1127152 -1 0 0 0
-0.025 0.030038737 0.11274053 -1 0 0 0
-0.025 0.037364006 0.11257532 -1 0 0 0
-0.024999999 0.017078653 0.11293334 -1 0 0 0
0.025000002 -0.023168327 0.11304647 1 0 0 0
-0.0088478066 -0.050000001 0.11343709 0 -1 0 0
-0.025 -0.045433261 0.11346554 -1 0 0 0
0.024999999 0.00056188367 0.11341826 1 0 0 0
0.011707067 -0.050000004 0.11372098 0 -1 0 0
0.024999999 -0.041282155 0.11361587 1 0 0 0
-0.025000002 -0.02884664 0.11355545 -1 0 0 0
0.025 0.013947818 0.11363142 1 0 0 0
0.025 0.014976572 0.11395992 1 0 0 0
-0.025000002 0.010653118 0.11403772 -1 0 0 0
-0.025 0.00016176872 0.11465469 -1 0 0 0
-0.022037599 -0.050000004 0.11482846 0 -1 0 0
0.024999999 -0.014868116 0.11534736 1 0 0 0
-0.004019272 -0.050000001 0.11606574 0 -1 0 0
0.021812029 -0.050000004 0.11604204 0 -1 0 0
-0.025 -0.021401122 0.11640546 -1 0 0 0
0.01713445 0.033738382 0.11626162 0 0.70710683 0.70710683 0
0.024999999 0.013183629 0.11663085 1 0 0 0
-0.0017844001 0.033265136 0.11673486 0 0.70710683 0.70710683 0
0.017023591 0.033409413 0.11659059 0 0.70710683 0.70710683 0
0.025000002 -0.018597687 0.11711979 1 0 0 0
-9.0139918e-05 0.032902882 0.11709712 0 0.70710683 0.70710683 0
-0.025000002 -0.0088357236 0.11740281 -1 0 0 0
0.0022589637 0.032707281 0.11729272 0 0.70710683 0.70710683 0
0.024999999 0.029217435 0.11780486 1 0 0 0
-0.0020901065 0.032239672 0.11776033 0 0.70710683 0.70710683 0
0.025000002 0.028764267 0.11800955 1 0 0 0
-0.024999999 -0.027675658 0.11833145 -1 0 0 0
-0.025 -0.03781765 0.11868884 -1 0 0 0
0.024999999 0.016173434 0.11862012 1 0 0 0
0.025 0.018228641 0.11863096 1 0 0 0
0.012411973 -0.049999997 0.11876971 0 -1 0 0
0.0028464743 0.031078914 0.11892109 0 0.70710683 0.70710683 0
0.017918667 -0.049999997 0.11947525 0 -1 0 0
-0.025000002 -0.047666289 0.11972364 -1 0 0 0
0.025000002 -0.027142825 0.1195524 1 0 0 0
0.025 0.0063297339 0.11956103 1 0 0 0
-0.025 -0.04860048 0.12003645 -1 0 0 0
0.023279086 0.02982503 0.12017497 0 0.70710683 0.70710683 0
0.025 -0.049171422 0.12025651 1 0 0 0
-0.024999999 0.010146536 0.12048861 -1 0 0 0
0.0019410073 0.029675199 0.12032481 0 0.70710683 0.70710683 0
0.010044228 0.029666118 0.12033388 0 0.70710683 0.70710683 0
0.015726801 0.029677581 0.12032241 0 0.70710683 0.70710683 0
0.022360099 0.029329702 0.1206703 0 0.70710683 0.70710683 0
-0.025000002 0.002637625 0.12097118 -1 0 0 0
-0.022684166 0.029246163 0.12075383 -4.9065393e-17 0.70710683 0.70710683 0
0.0066650757 0.029238541 0.12076147 0 0.70710683 0.70710683 0
0.018575648 -0.050000001 0.12104154 0 -1 0 0
0.024999999 -0.014461314 0.12117724 1 0 0 0
0.025 -0.032449279 0.12201945 1 0 0 0
-0.025000002 0.0036949862 0.12214197 -1 0 0 0
-0.016335614 0.027668135 0.12233187 -4.9065393e-17 0.70710683 0.70710683 0
-0.022369832 -0.050000004 0.122772 0 -1 0 0
-0.025 -0.0080768075 0.12298971 -1 0 0 0
0.025 0.00074293464 0.12323131 1 0 0 0
-0.025000002 0.020278174 0.1232494 -1 0 0 0
-0.025 -0.045105305 0.12380794 -1 0 0 0
0.025 -0.020815235 0.12382009 1 0 0 0
-0.025 -0.04603833 0.12406817 -1 0 0 0
0.024999999 0.01088296 0.12424084 1 0 0 0
0.025000002 -0.03079796 0.12440102 1 0 0 0
-0.024946837 0.025709806 0.12429019 -4.9065393e-17 0.70710683 0.70710683 0
0.017790813 0.025675585 0.12432442 0 0.70710683 0.70710683 0
0.025 -0.035167728 0.12497025 1 0 0 0
-0.025 -0.032409411 0.12493935 -1 0 0 0
-0.025 0.0056548077 0.1249069 -1 0 0 0
-0.025 -0.011244873 0.1250466 -1 0 0 0
-0.00056145061 -0.050000004 0.12526277 0 -1 0 0
-0.02104409 0.024388414 0.12561159 -4.9065393e-17 0.70710683 0.70710683 0
0.0083426107 -0.050000004 0.12582801 0 -1 0 0
0.012208773 -0.049999997 0.12597737 0 -1 0 0
0.0012234324 0.024111601 0.12588841 0 0.70710683 0.70710683 0
0.025000002 -0.018371845 0.12615998 1 0 0 0
-0.024999999 -0.03917912 0.12671715 -1 0 0 0
-0.025 0.014396825 0.12655187 -1 0 0 0
-0.025 -0.046933334 0.12722006 -1 0 0 0
0.025000002 -0.016829761 0.12719305 1 0 0 0
0.021957785 0.022792093 0.12720791 0 0.70710683 0.70710683 0
0.025 -0.034809705 0.12799393 1 0 0 0
0.025 -0.0071668103 0.12851758 1 0 0 0
0.025 -0.017904799 0.12899818 1 0 0 0
0.025 0.00078502297 0.12965852 1 0 0 0
0.023317553 0.020218661 0.12978134 0 0.70710683 0.70710683 0
-0.025000002 -0.0002921682 0.13014644 -1 0 0 0
-0.011938611 0.019900685 0.13009933 -4.9065393e-17 0.70710683 0.70710683 0
0.025 -0.032319795 0.13053428 1 0 0 0
0.025000002 -0.013907516 0.13059731 1 0 0 0
-0.0019629085 0.019011512 0.13098848 -4.9065393e-17 0.70710683 0.70710683 0
-0.025000002 -0.043600354 0.1311505 -1 0 0 0
0.025 -0.0043711085 0.13111763 1 0 0 0
0.025 0.0026977621 0.13121164 1 0 0 0
0.025 0.014562327 0.13107647 1 0 0 0
-0.024999999 -0.040194713 0.13140778 -1 0 0 0
-0.0016624192 0.018515464 0.13148454 -4.9065393e-17 0.70710683 0.70710683 0
-0.01055925 -0.050000001 0.13185398 0 -1 0 0
-0.0034031132 0.017564412 0.13243559 -4.9065393e-17 0.70710683 0.70710683 0
0.01802652 0.017601587 0.13239841 0 0.70710683 0.70710683 0
-0.024897693 -0.050000001 0.13273679 0 -1 0 0
0.015261856 0.017145218 0.13285479 0 0.70710683 0.70710683 0
-0.025 0.0046528233 0.13312025 -1 0 0 0
0.010288289 -0.050000001 0.13331485 0 -1 0 0
0.025 0.005630414 0.13341574 1 0 0 0
-0.0054493295 0.016544044 0.13345596 -4.9065393e-17 0.70710683 0.70710683 0
-0.025000002 -0.024878886 0.13447027 -1 0 0 0
-0.024999999 -0.014782662 0.13473801 -1 0 0 0
-0.016904064 -0.050000001 0.1348206 0 -1 0 0
-0.011527786 0.015185035 0.13481496 -4.9065393e-17 0.70710683 0.70710683 0
0.023988936 0.015134582 0.13486542 0 0.70710683 0.70710683 0
-0.025000002 -0.029049175 0.13510033 -1 0 0 0
-0.025 -0.025897913 0.13504469 -1 0 0 0
0.025000002 -0.019584661 0.1352289 1 0 0 0
-0.00032703113 0.014753265 0.13524674 -4.9065393e-17 0.70710683 0.70710683 0
-0.0065856902 0.014730419 0.13526958 -4.9065393e-17 0.70710683 0.70710683 0
0.025 -0.038532894 0.13552155 1 0 0 0
0.0082767736 -0.050000001 0.13586168 0 -1 0 0
0.023134395 -0.050000001 0.13577831 0 -1 0 0
-0.0022410657 0.014187968 0.13581204 -4.9065393e-17 0.70710683 0.70710683 0
0.0037184833 0.014016978 0.13598303 -4.9065393e-17 0.70710683 0.70710683 0
0.024981681 -0.050000004 0.13616996 0 -1 0 0
0.018602697 0.013789529 0.13621049 0 0.70710683 0.70710683 0
0.018944014 0.013664033 0.13633597 0 0.70710683 0.70710683 0
0.025 -0.041695368 0.13656873 1 0 0 0
-0.019489279 -0.050000001 0.13698283 0 -1 0 0
-0.025 0.010135276 0.13743985 -1 0 0 0
-0.012323895 -0.050000004 0.13760844 0 -1 0 0
0.025 -0.0079149362 0.13757095 1 0 0 0
0.024311153 -0.050000001 0.13793382 0 -1 0 0
-0.00081984326 0.011883316 0.13811669 -4.9065393e-17 0.70710683 0.70710683 0
0.012482619 0.01192678 0.13807324 -4.9065393e-17 0.70710683 0.70710683 0
0.0044192197 -0.050000001 0.13881472 0 -1 0 0
0.025 -0.049688209 0.13877009 1 0 0 0
-0.025000002 -0.027678421 0.1392308 -1 0 0 0
-0.011056622 -0.050000004 0.13931316 0 -1 0 0
0.0018165344 -0.050000001 0.13932152 0 -1 0 0
-0.025000002 -0.03903022 0.139329 -1 0 0 0
-0.025 -0.046240538 0.13961188 -1 0 0 0
0.00080481358 -0.050000001 0.1406056 0 -1 0 0
0.023159266 -0.050000004 0.14092502 0 -1 0 0
0.025 -0.049675856 0.14099219 1 0 0 0
0.025 -0.011944241 0.14075653 1 0 0 0
0.02314782 0.0091642821 0.14083573 0 0.70710683 0.70710683 0
-0.025 -0.049751855 0.14106786 -1 0 0 0
0.025 -0.028412201 0.14112872 1 0 0 0
0.025 0.0025422391 0.14116468 1 0 0 0
0.024203097 -0.050000001 0.1413593 0 -1 0 0
0.025 -0.029031038 0.14137261 1 0 0 0
-0.024999999 0.0034966376 0.14132829 -1 0 0 0
0.025000002 -0.0030205054 0.14154822 1 0 0 0
0.025000002 -0.020354697 0.14193496 1 0 0 0
-0.025 0.0064003197 0.14207958 -1 0 0 0
-0.025 -0.013908223 0.1425239 -1 0 0 0
-0.025 0.0040732985 0.14260095 -1 0 0 0
-0.024999999 -0.0323545 0.14278212 -1 0 0 0
-0.0063999565 0.0068106744 0.14318934 -4.9065393e-17 0.70710683 0.70710683 0
0.025 -0.0064564389 0.14329232 1 0 0 0
-0.025 -0.018307505 0.14359702 -1 0 0 0
-0.025000002 -0.0093145799 0.1440459 -1 0 0 0
0.024062596 0.0053567765 0.14464322 0 0.70710683 0.70710683 0
-0.025000002 -0.048173409 0.14479268 -1 0 0 0
0.012617765 -0.050000001 0.14521784 0 -1 0 0
-0.025000002 -0.00030707059 0.14509615 -1 0 0 0
-0.020377832 0.0047642374 0.14523578 -4.9065393e-17 0.70710683 0.70710683 0
-0.024890395 0.0045058234 0.14549419 -4.9065393e-17 0.70710683 0.70710683 0
-0.021096872 -0.050000001 0.14562978 0 -1 0 0
-0.025 -0.044733208 0.14594603 -1 0 0 0
0.025 -0.024870295 0.14641549 1 0 0 0
0.025 -0.037104834 0.146505 1 0 0 0
0.025 -0.022963684 0.14671464 1 0 0 0
0.023138134 -0.050000001 0.14705871 0 -1 0 0
0.0058256574 0.0028820541 0.14711796 -4.9065393e-17 0.70710683 0.70710683 0
0.025000002 -0.012658664 0.14743587 1 0 0 0
-0.0081496565 0.002520375 0.14747962 -4.9065393e-17 0.70710683 0.70710683 0
0.0061720703 0.0027366765 0.14726332 -4.9065393e-17 0.70710683 0.70710683 0
0.025 -0.0071712392 0.14774013 1 0 0 0
-0.01254713 0.0022606587 0.14773935 -4.9065393e-17 0.70710683 0.70710683 0
-0.0090117576 0.001909333 0.14809068 -4.9065393e-17 0.70710683 0.70710683 0
-0.007356802 0.0018993682 0.14810064 -4.9065393e-17 0.70710683 0.70710683 0
0.025 -0.0035787025 0.14864245 1 0 0 0
-0.023958655 0.0013679736 0.14863205 -4.9065393e-17 0.70710683 0.70710683 0
-0.011072213 0.0014115607 0.14858845 -4.9065393e-17 0.70710683 0.70710683 0
-0.010428549 -0.050000004 0.14885944 0 -1 0 0
-0.0038176179 0.0010767159 0.14892331 -4.9065393e-17 0.70710683 0.70710683 0
0.022439444 0.00080070156 0.14919931 -4.9065393e-17 0.70710683 0.70710683 0
-0.025 0.00023626229 0.1495516 -1 0 0 0
-0.0036193132 0.00040220734 0.14959779 -4.9065393e-17 0.70710683 0.70710683 0
0.021486478 0.00041627872 0.14958373 -4.9065393e-17 0.70710683 0.70710683 0
-0.019986195 -0.048333615 0.15000001 0 0 1 0
0.0062460657 -0.048224866 0.15000001 0 0 1 0
0.0081949206 -0.047668546 0.15000001 0 0 1 0
-0.024617327 -0.046775069 0.15000001 0 0 1 0
0.016566059 -0.046545517 0.15000001 0 0 1 0
0.0091326209 -0.043322619 0.15000001 0 0 1 0
-0.0045330925 -0.043227538 0.15000001 0 0 1 0
-0.011288599 -0.041650496 0.15000001 0 0 1 0
0.0075007798 -0.040965896 0.15000001 0 0 1 0
0.013597115 -0.040637679 0.15000001 0 0 1 0
0.0090801595 -0.037668098 0.15000001 0 0 1 0
-0.022960758 -0.036886312 0.15000001 0 0 1 0
-0.0038777255 -0.036622178 0.15000001 0 0 1 0
-0.019814344 -0.036498021 0.15000001 0 0 1 0
0.012110298 -0.036073469 0.15000001 0 0 1 0
0.0096876146 -0.0353669 0.15000001 0 0 1 0
0.01253737 -0.03462071 0.15000001 0 0 1 0
-0.001850483 -0.032000568 0.15000001 0 0 1 0
0.0082279742 -0.030533487 0.15000001 0 0 1 0
-0.023101745 -0.028686488 0.15000001 0 0 1 0
0.01574656 -0.028605463 0.15000001 0 0 1 0
0.012399063 -0.027725564 0.15000001 0 0 1 0
-0.0020960355 -0.026011007 0.15000001 0 0 1 0
-0.020636106 -0.022888379 0.15000001 0 0 1 0
-0.0035524461 -0.022810698 0.15000001 0 0 1 0
0.016798552 -0.022552235 0.15000001 0 0 1 0
0.00096101779 -0.019579498 0.15000001 0 0 1 0
0.0085870512 -0.017976202 0.15000001 0 0 1 0
-0.021712983 -0.01764502 0.15000001 0 0 1 0
-0.014030621 -0.017410025 0.15000001 0 0 1 0
-0.02407914 -0.017207569 0.15000001 0 0 1 0
-0.019578865 -0.017135773 0.15000001 0 0 1 0
-0.02256 -0.014690759 0.15000001 0 0 1 0
-0.00048922794 -0.014469723 0.15000001 0 0 1 0
0.0094891507 -0.014328804 0.15000001 0 0 1 0
0.0020457497 -0.013943037 0.15000001 0 0 1 0
-0.016805366 -0.013259069 0.15000001 0 0 1 0
-0.014458567 -0.013447081 0.15000001 0 0 1 0
0.012001774 -0.012411265 0.15000001 0 0 1 0
0.0015801801 -0.011796455 0.15000001 0 0 1 0
0.01359949 -0.011556323 0.15000001 0 0 1 0
0.018403605 -0.0097507527 0.15000001 0 0 1 0
-0.023382569 -0.0084934933 0.15000001 0 0 1 0
-0.019505939 -0.0071192421 0.15000001 0 0 1 0
0.0028424854 -0.0065799686 0.15000001 0 0 1 0
-0.012483778 -0.0056092003 0.15000001 0 0 1 0
0.0016306555 -0.0054177642 0.15000001 0 0 1 0
-0.018512353 -0.0036296861 0.15000001 0 0 1 0
