# .PCD v0.7 - Point Cloud Data file format
VERSION 0.7
FIELDS x y z normal_x normal_y normal_z curvature
SIZE 4 4 4 4 4 4 4
TYPE F F F F F F F
COUNT 1 1 1 1 1 1 1
WIDTH 777
HEIGHT 1
VIEWPOINT 0 0 0 1 0 0 0
POINTS 777
DATA ascii
0.13543829 0.038619101 0.00077056926 0.86602545 0.50000006 0 0
0.05352689 0.080493785 0.00078492163 -0.86602545 -0.5 0 0
0.13618848 0.037319742 0.0012058581 0.86602545 0.50000006 0 0
0.10311064 0.094612211 0.0010958806 0.86602545 0.50000006 0 0
0.097792476 0.0038235404 0.0014792383 -0.86602545 -0.5 0 0
0.087983422 0.10079725 0.0016705334 -0.5 0.86602545 0 0
0.066330597 0.058317121 0.0018627465 -0.86602545 -0.5 0 0
0.12602603 0.0072911084 0.0023058446 0.49999994 -0.86602545 0 0
0.099071927 0.0016074611 0.0028044879 -0.86602545 -0.5 0 0
0.078731246 0.036838561 0.0028608919 -0.86602545 -0.5 0 0
0.11446449 0.074946769 0.0028729718 0.86602545 0.50000006 0 0
0.090188637 0.016993778 0.003164375 -0.86602545 -0.5 0 0
0.07988999 0.034831572 0.0037411929 -0.86602545 -0.5 0 0
0.12287177 0.060384937 0.0042019491 0.86602545 0.50000006 0 0
0.10313992 0.09456151 0.0041900841 0.86602545 0.50000006 0 0
0.088752165 0.10124109 0.0040766834 -0.5 0.86602545 0 0
0.059072752 0.08410567 0.0042778552 -0.5 0.86602545 0 0
0.086241558 0.02383033 0.0045923712 -0.86602545 -0.5 0 0
0.10101113 0.098248683 0.0046945596 0.86602545 0.50000006 0 0
0.13465428 0.012272631 0.0049864305 0.49999994 -0.86602545 0 0
0.067473866 0.056336936 0.0051906048 -0.86602545 -0.5 0 0
0.099528715 0.00081629376 0.0053100646 -0.86602545 -0.5 0 0
0.13258097 0.011075605 0.0054376442 0.49999994 -0.86602545 0 0
0.059267554 0.070550673 0.0056625428 -0.86602545 -0.5 0 0
0.097692735 0.1039963 0.0056036683 0.86602545 0.50000006 0 0
0.11460732 0.00069851242 0.0059040077 0.49999994 -0.86602545 0 0
0.12228418 0.0051307511 0.0058229421 0.49999994 -0.86602545 0 0
0.12329844 0.059645936 0.0059588258 0.86602545 0.50000006 0 0
0.11662483 0.0018633259 0.0062975474 0.49999994 -0.86602545 0 0
0.12525839 0.0068479041 0.0064922972 0.49999994 -0.86602545 0 0
0.13583918 0.037924722 0.0063971025 0.86602545 0.50000006 0 0
0.12210265 0.061717089 0.0063337339 0.86602545 0.50000006 0 0
0.11615101 0.072025627 0.0063654501 0.86602545 0.50000006 0 0
0.083496265 0.098206587 0.0065603615 -0.5 0.86602545 0 0
0.14122513 0.016066317 0.0073452741 0.49999994 -0.86602545 0 0
0.11460844 0.07469745 0.0077308784 0.86602545 0.50000006 0 0
0.060074832 0.084684215 0.0078440672 -0.5 0.86602545 0 0
0.087365858 0.1004407 0.0081752185 -0.5 0.86602545 0 0
0.06043059 0.068536237 0.0084584299 -0.86602545 -0.5 0 0
0.10895076 0.084496826 0.0084579717 0.86602545 0.50000006 0 0
0.078012772 0.095040686 0.0084874928 -0.5 0.86602545 0 0
0.11636959 0.071647041 0.0085909842 0.86602545 0.50000006 0 0
0.056541763 0.07527189 0.0089061856 -0.86602545 -0.5 0 0
0.10378999 -0.0055468739 0.0092311408 0.49999994 -0.86602545 0 0
0.11055078 -0.0016435285 0.0095172459 0.49999994 -0.86602545 0 0
0.11455914 0.00067069521 0.009632159 0.49999994 -0.86602545 0 0
0.088951707 0.019136213 0.0097063901 -0.86602545 -0.5 0 0
0.083487771 0.02860003 0.010377086 -0.86602545 -0.5 0 0
0.14366974 0.024361823 0.010577651 0.86602539 0.50000006 0 0
0.06637416 0.058241673 0.010500061 -0.86602545 -0.5 0 0
0.060546149 0.084956333 0.010577089 -0.5 0.86602545 0 0
0.071856104 0.091486134 0.010532713 -0.5 0.86602545 0 0
0.12077136 0.0042573237 0.010912213 0.49999994 -0.86602545 0 0
0.077761196 0.038518745 0.010912579 -0.86602545 -0.5 0 0
0.055764597 0.076617964 0.01090014 -0.86602545 -0.5 0 0
0.064054683 0.086981989 0.011215699 -0.5 0.86602545 0 0
0.079134285 0.095688194 0.01109227 -0.5 0.86602545 0 0
0.11748561 0.069714054 0.011345106 0.86602545 0.50000006 0 0
0.088256739 0.020339925 0.011613411 -0.86602545 -0.5 0 0
0.12492565 0.056827519 0.01170207 0.86602545 0.50000006 0 0
0.11799509 0.0026544416 0.011852682 0.49999994 -0.86602545 0 0
0.090569869 0.016333461 0.011829126 -0.86602545 -0.5 0 0
0.10083497 0.098553807 0.011846273 0.86602545 0.50000006 0 0
0.085526586 0.025068685 0.012152237 -0.86602545 -0.5 0 0
0.12661736 0.053897392 0.012049246 0.86602545 0.50000006 0 0
0.11353283 0.076560467 0.012032124 0.86602545 0.50000006 0 0
0.095530026 0.10515428 0.012418173 -0.5 0.86602545 0 0
0.10545903 -0.0045832531 0.012893223 0.49999994 -0.86602545 0 0
0.054928295 0.078066491 0.013473797 -0.86602545 -0.5 0 0
0.12546748 0.0069686254 0.013961198 0.49999994 -0.86602545 0 0
0.12063537 0.064258486 0.013984698 0.86602545 0.50000006 0 0
0.14197664 0.027294327 0.014696312 0.86602539 0.50000006 0 0
0.069610067 0.052636914 0.014577431 -0.86602545 -0.5 0 0
0.11783832 0.069103122 0.014651473 0.86602545 0.50000006 0 0
0.13729042 0.035411105 0.014968262 0.86602545 0.50000006 0 0
0.07850872 0.037223991 0.014807815 -0.86602545 -0.5 0 0
0.11438696 0.07508105 0.014920317 0.86602545 0.50000006 0 0
0.11225519 0.078773394 0.014811099 0.86602545 0.50000006 0 0
0.1432136 0.017214349 0.01504128 0.49999994 -0.86602545 0 0
0.14375854 0.017528972 0.015221154 0.49999994 -0.86602545 0 0
0.10725588 -0.0035458431 0.015289202 0.49999994 -0.86602545 0 0
0.11985687 0.065606892 0.015489736 0.86602545 0.50000006 0 0
0.11962407 0.066010125 0.015484174 0.86602545 0.50000006 0 0
0.066610739 0.057831906 0.016296959 -0.86602545 -0.5 0 0
0.11543013 0.07327424 0.016483879 0.86602545 0.50000006 0 0
0.11204742 0.079133272 0.016498774 0.86602545 0.50000006 0 0
0.095449172 0.0078822691 0.01674946 -0.86602545 -0.49999994 0 0
0.10708314 0.087731652 0.016562253 0.86602545 0.50000006 0 0
0.12561071 0.055640943 0.016753741 0.86602545 0.50000006 0 0
0.091088362 0.10258989 0.016834406 -0.5 0.86602545 0 0
0.13374136 0.041558262 0.017062996 0.86602545 0.50000006 0 0
0.1233465 0.059562683 0.017019009 0.86602545 0.50000006 0 0
0.060171224 0.084739871 0.01717571 -0.5 0.86602545 0 0
0.10324143 0.094385684 0.017244726 0.86602545 0.50000006 0 0
0.10105893 -0.0018341169 0.017288988 -0.86602539 -0.49999997 0 0
0.096464328 0.1056937 0.017281076 -0.5 0.86602545 0 0
0.062976249 0.064127028 0.01769923 -0.86602545 -0.5 0 0
0.13862175 0.014563248 0.017913831 0.49999994 -0.86602545 0 0
0.11105525 -0.0013522792 0.018172577 0.49999994 -0.86602545 0 0
0.10011799 -0.00020435639 0.018249862 -0.86602545 -0.49999994 0 0
0.074967846 0.043356966 0.018248821 -0.86602545 -0.5 0 0
0.097005531 0.10518658 0.018002205 0.86602545 0.50000006 0 0
0.11232595 0.078650832 0.018453404 0.86602545 0.50000006 0 0
0.071485229 0.091272011 0.018255001 -0.5 0.86602545 0 0
0.089798845 0.017668918 0.018641895 -0.86602545 -0.5 0 0
0.11711519 0.070355609 0.018572869 0.86602545 0.50000006 0 0
0.084263533 0.027256366 0.018836791 -0.86602545 -0.5 0 0
0.075608112 0.042248003 0.019398576 -0.86602545 -0.5 0 0
0.13894676 0.014750891 0.019559376 0.49999994 -0.86602545 0 0
0.14180452 0.027592462 0.019707259 0.86602539 0.50000006 0 0
0.13718461 0.035594381 0.019503605 0.86602539 0.50000006 0 0
0.13049085 0.047188304 0.019713158 0.86602545 0.50000006 0 0
0.061644536 0.066433609 0.019573605 -0.86602545 -0.5 0 0
0.11792133 0.068959363 0.019668827 0.86602545 0.50000006 0 0
0.1146879 0.074559808 0.019777993 0.86602545 0.50000006 0 0
0.085942663 0.099619016 0.020190317 -0.5 0.86602545 0 0
0.14219098 0.026923105 0.020361286 0.86602539 0.50000006 0 0
0.073779434 0.04541536 0.020354284 -0.86602545 -0.5 0 0
0.063109621 0.086436354 0.02026847 -0.5 0.86602545 0 0
0.089900419 0.10190403 0.020542968 -0.5 0.86602545 0 0
0.060322091 0.06872417 0.020871932 -0.86602545 -0.5 0 0
0.059510656 0.070129588 0.021132356 -0.86602545 -0.5 0 0
0.058922194 0.084018737 0.021126974 -0.5 0.86602545 0 0
0.080897078 0.033087235 0.021326095 -0.86602545 -0.5 0 0
0.12780581 0.0083186654 0.021503232 0.49999994 -0.86602545 0 0
0.087049708 0.02243058 0.022119183 -0.86602545 -0.5 0 0
0.072340943 0.047906898 0.022283573 -0.86602545 -0.5 0 0
0.11020901 -0.001840851 0.022704294 0.49999994 -0.86602545 0 0
0.13963202 0.031355347 0.022742962 0.86602539 0.50000006 0 0
0.053653825 0.080273934 0.022726882 -0.86602545 -0.5 0 0
0.10709569 0.087709911 0.022816613 0.86602545 0.50000006 0 0
0.11154936 -0.0010670023 0.023212941 0.49999994 -0.86602545 0 0
0.05540368 0.077243105 0.023116285 -0.86602545 -0.5 0 0
0.11529703 0.073504768 0.023297515 0.86602545 0.50000006 0 0
0.072132856 0.048267312 0.023927504 -0.86602545 -0.5 0 0
0.064785078 0.060994051 0.024057848 -0.86602545 -0.5 0 0
0.057238266 0.074065506 0.02417611 -0.86602545 -0.5 0 0
0.13896632 0.032508358 0.02455667 0.86602539 0.50000006 0 0
0.1226934 0.060693894 0.024900975 0.86602545 0.50000006 0 0
0.060832534 0.067840055 0.024867846 -0.86602545 -0.5 0 0
0.1163028 0.071762711 0.024920464 0.86602545 0.50000006 0 0
0.13210844 0.044386581 0.025183996 0.86602545 0.50000006 0 0
0.078424536 0.03736981 0.025373906 -0.86602545 -0.5 0 0
0.068366349 0.0547911 0.025573885 -0.86602545 -0.5 0 0
0.094541848 0.10458376 0.026047844 -0.5 0.86602545 0 0
0.12450466 0.0064127441 0.026438756 0.49999994 -0.86602545 0 0
0.13752162 0.035010632 0.026312198 0.86602539 0.50000006 0 0
0.058228299 0.072350718 0.026300281 -0.86602545 -0.5 0 0
0.099653818 0.00059961778 0.026752315 -0.86602539 -0.49999997 0 0
0.11603338 0.0015218444 0.027079755 0.49999994 -0.86602545 0 0
0.140545 0.029774014 0.02706553 0.86602539 0.50000006 0 0
0.13874029 0.032899853 0.02756821 0.86602539 0.50000006 0 0
0.12302774 0.0055600475 0.027895609 0.49999994 -0.86602545 0 0
0.060296066 0.068769231 0.027913963 -0.86602545 -0.5 0 0
0.079690777 0.096009493 0.028228134 -0.5 0.86602545 0 0
0.094512045 0.10456655 0.02868207 -0.5 0.86602545 0 0
0.060712341 0.068048231 0.02920639 -0.86602545 -0.5 0 0
0.1091371 0.084174082 0.029115463 0.86602545 0.50000006 0 0
0.096723393 0.0056752549 0.029399658 -0.86602545 -0.49999994 0 0
0.13513894 0.039137565 0.029452691 0.86602539 0.50000006 0 0
0.054086283 0.081226729 0.029284721 -0.5 0.86602545 0 0
0.063319884 0.086557753 0.029340422 -0.5 0.86602545 0 0
0.12282374 0.060468134 0.029747436 0.86602545 0.50000006 0 0
0.066972263 0.088666454 0.029685928 -0.5 0.86602545 0 0
0.11720504 0.070200004 0.029912265 0.86602545 0.50000006 0 0
0.11716383 0.070271373 0.029853882 0.86602545 0.50000006 0 0
0.061323106 0.08540491 0.030223697 -0.5 0.86602545 0 0
0.098569728 0.0024772882 0.030324247 -0.86602539 -0.49999997 0 0
0.085457548 0.025188273 0.030455166 -0.86602545 -0.5 0 0
0.10482727 0.091638938 0.03046073 0.86602545 0.50000006 0 0
0.076935574 0.094418779 0.030538453 -0.5 0.86602545 0 0
0.086168073 0.023957605 0.030894918 -0.86602545 -0.5 0 0
0.11210023 -0.00074895471 0.03109744 0.49999994 -0.86602545 0 0
0.083128884 0.029221633 0.031160045 -0.86602545 -0.5 0 0
0.10314738 0.09454859 0.031203412 0.86602545 0.50000006 0 0
0.11697666 0.070595577 0.031274356 0.86602545 0.50000006 0 0
0.058225878 0.083616726 0.031602394 -0.5 0.86602545 0 0
0.075384572 0.093523309 0.031512775 -0.5 0.86602545 0 0
0.13709503 0.03574954 0.032209061 0.86602539 0.50000006 0 0
0.10225282 0.096098013 0.032233741 0.86602545 0.50000006 0 0
0.099957384 7.3816103e-05 0.032456048 -0.86602539 -0.49999997 0 0
0.079751588 0.03507128 0.032321423 -0.86602545 -0.5 0 0
0.1018453 0.096803851 0.032272466 0.86602545 0.50000006 0 0
0.12727611 0.052756403 0.03250457 0.86602545 0.50000006 0 0
0.11181071 0.079543233 0.032516249 0.86602545 0.50000006 0 0
0.11074016 -0.0015341898 0.032986395 0.49999994 -0.86602545 0 0
0.098861314 0.0019722544 0.032790534 -0.86602539 -0.49999997 0 0
0.094532989 0.0094691375 0.0328153 -0.86602545 -0.49999994 0 0
0.086240418 0.099790923 0.033337671 -0.5 0.86602545 0 0
0.10459661 -0.005081174 0.033767674 0.49999994 -0.86602545 0 0
0.13214599 0.010824463 0.033961188 0.49999994 -0.86602545 0 0
0.13277508 0.011187676 0.034177255 0.49999994 -0.86602545 0 0
0.1280174 0.051472474 0.03405254 0.86602545 0.50000006 0 0
0.068142787 0.089342251 0.034188617 -0.5 0.86602545 0 0
0.13968576 0.01517755 0.034447629 0.49999994 -0.86602545 0 0
0.14303455 0.025461987 0.034416765 0.86602539 0.50000006 0 0
0.054886092 0.078139588 0.034698911 -0.86602545 -0.5 0 0
0.064927831 0.087486103 0.034662139 -0.5 0.86602545 0 0
0.14248757 0.026409388 0.035462111 0.86602539 0.50000006 0 0
0.11988423 0.065559521 0.035446648 0.86602545 0.50000006 0 0
0.095459104 0.0078650722 0.035773497 -0.86602545 -0.49999994 0 0
0.095181003 0.0083467448 0.0359933 -0.86602545 -0.49999994 0 0
0.11445773 0.00061215134 0.036215384 0.49999994 -0.86602545 0 0
0.13818577 0.033860315 0.036203131 0.86602539 0.50000006 0 0
0.060856577 0.067798406 0.03603027 -0.86602545 -0.5 0 0
0.11339661 0.07679639 0.036002673 0.86602545 0.50000006 0 0
0.055829585 0.076505415 0.03635342 -0.86602545 -0.5 0 0
0.12963608 0.048668809 0.037208769 0.86602539 0.50000006 0 0
0.10652976 0.088690132 0.037149731 0.86602545 0.50000006 0 0
0.068852678 0.089752108 0.03740675 -0.5 0.86602545 0 0
0.1465769 0.019326463 0.037809264 0.86602539 0.50000006 0 0
0.077489659 0.038989056 0.037928946 -0.86602545 -0.5 0 0
0.12808771 0.051350646 0.038117725 0.86602539 0.50000006 0 0
0.12099276 0.063639477 0.038087595 0.86602545 0.50000006 0 0
0.086864255 0.022751788 0.038454719 -0.86602545 -0.49999994 0 0
0.10104146 -0.0018038657 0.038519174 -0.86602539 -0.49999997 0 0
0.1192214 0.066707581 0.038544789 0.86602545 0.50000006 0 0
0.11743482 0.069802023 0.038599748 0.86602545 0.50000006 0 0
0.14369425 0.01749186 0.039442778 0.49999994 -0.86602545 0 0
0.1142178 0.00047362549 0.03993842 0.49999994 -0.86602545 0 0
0.13056014 0.0099088848 0.03983311 0.49999994 -0.86602545 0 0
0.080877483 0.033121169 0.039986312 -0.86602545 -0.5 0 0
0.1183105 0.068285301 0.039968476 0.86602545 0.50000006 0 0
0.14188142 0.016445225 0.040479369 0.49999994 -0.86602545 0 0
0.10916422 -0.0024440647 0.040646724 0.49999994 -0.86602545 0 0
0.14090894 0.015883766 0.040626451 0.49999994 -0.86602545 0 0
0.1282725 0.0085881129 0.040792733 0.49999994 -0.86602545 0 0
0.12242257 0.061162982 0.040781196 0.86602545 0.50000006 0 0
0.10618277 -0.0041654021 0.042158503 0.49999994 -0.86602545 0 0
0.14016162 0.030438058 0.042020984 0.86602539 0.50000006 0 0
0.10025814 -0.00044710346 0.042477906 -0.86602539 -0.49999997 0 0
0.062872879 0.064306073 0.042975701 -0.86602545 -0.5 0 0
0.084510863 0.026827972 0.043193068 -0.86602545 -0.49999994 0 0
0.05644992 0.08259137 0.043031465 -0.5 0.86602545 0 0
0.080072068 0.0345162 0.043363255 -0.86602545 -0.5 0 0
0.071413919 0.049512543 0.043296743 -0.86602545 -0.5 0 0
0.054102547 0.081236117 0.043328006 -0.5 0.86602545 0 0
0.086049803 0.024162451 0.043565013 -0.86602545 -0.49999994 0 0
0.056209411 0.075847536 0.043648638 -0.86602545 -0.5 0 0
0.11045399 0.081893161 0.043727811 0.86602545 0.50000006 0 0
0.087204181 0.10034736 0.043840177 -0.5 0.86602545 0 0
0.077333808 0.039258998 0.044178642 -0.86602545 -0.5 0 0
0.1361659 0.013145371 0.044329856 0.49999994 -0.86602545 0 0
0.13131481 0.010344593 0.044698842 0.49999994 -0.86602545 0 0
0.13408861 0.011946037 0.04453459 0.49999994 -0.86602545 0 0
0.089941084 0.017422564 0.04468222 -0.86602545 -0.49999994 0 0
0.10204716 -0.0035457793 0.04478281 -0.86602539 -0.49999997 0 0
0.10283932 0.095082179 0.045319457 0.86602545 0.50000006 0 0
0.11159222 0.079921693 0.045562055 0.86602545 0.50000006 0 0
0.11385801 0.075997241 0.046049532 0.86602545 0.50000006 0 0
0.1201142 0.0038779119 0.046389487 0.49999994 -0.86602545 0 0
0.13990276 0.015302841 0.046341479 0.49999994 -0.86602545 0 0
0.070987701 0.050250776 0.046358939 -0.86602545 -0.5 0 0
0.070163727 0.05167795 0.046409942 -0.86602545 -0.5 0 0
0.10755551 -0.0033728541 0.04651469 0.49999994 -0.86602545 0 0
0.096801564 0.10553986 0.046674583 0.86602545 0.50000006 0 0
0.12382496 0.0060203173 0.046835605 0.49999994 -0.86602545 0 0
0.093109801 0.011934165 0.046841722 -0.86602545 -0.49999994 0 0
0.146506 0.019115213 0.046864085 0.49999994 -0.86602545 0 0
0.13173702 0.045029871 0.046865158 0.86602539 0.50000006 0 0
0.057790145 0.073109612 0.046869617 -0.86602545 -0.5 0 0
0.14089516 0.029167537 0.04706521 0.86602539 0.50000006 0 0
0.13656789 0.013377456 0.047376864 0.49999994 -0.86602545 0 0
0.13069701 0.046831228 0.047336172 0.86602539 0.50000006 0 0
0.067972161 0.055473845 0.047441967 -0.86602545 -0.5 0 0
0.065171175 0.060325302 0.047273856 -0.86602545 -0.5 0 0
0.11694257 0.070654601 0.047711905 0.86602545 0.50000006 0 0
0.10714846 -0.003607857 0.047836218 0.49999994 -0.86602545 0 0
0.12397455 0.058474861 0.047887519 0.86602539 0.50000006 0 0
0.13701655 0.013636486 0.048048548 0.49999994 -0.86602545 0 0
0.082218096 0.030799164 0.048417818 -0.86602545 -0.49999994 0 0
0.069631755 0.052599348 0.04860235 -0.86602545 -0.5 0 0
0.10560689 0.090288579 0.048671197 0.86602545 0.50000006 0 0
0.13658091 0.036639996 0.048970267 0.86602539 0.50000006 0 0
0.13438073 0.040450856 0.048986468 0.86602539 0.50000006 0 0
0.05746147 0.073678896 0.049074061 -0.86602545 -0.5 0 0
0.094840921 0.008935797 0.0494771 -0.86602545 -0.49999994 0 0
0.067908794 0.0555836 0.049494904 -0.86602545 -0.5 0 0
0.12292756 0.060288325 0.049427584 0.86602539 0.50000006 0 0
0.086571358 0.099981993 0.049569733 -0.5 0.86602545 0 0
0.087556258 0.10055063 0.049614936 -0.5 0.86602545 0 0
0.13109942 0.046134248 0.049837496 0.86602539 0.50000006 0 0
0.097828068 0.10376191 0.050213538 0.86602545 0.50000006 0 0
0.084849328 0.026241731 0.050378069 -0.86602545 -0.49999994 0 0
0.085802563 0.099538133 0.050420914 -0.5 0.86602545 0 0
0.076925322 0.094412856 0.050556816 -0.5 0.86602545 0 0
0.11269683 -0.00040450599 0.050893635 0.49999994 -0.86602545 0 0
0.10452622 0.092160359 0.050889466 0.86602545 0.50000006 0 0
0.13782308 0.034488522 0.051172979 0.86602539 0.50000006 0 0
0.072893888 0.046949171 0.05100384 -0.86602545 -0.5 0 0
0.12087442 0.063844465 0.05110595 0.86602545 0.50000006 0 0
0.12929261 0.049263716 0.051369425 0.86602539 0.50000006 0 0
0.069540314 0.052757736 0.051365543 -0.86602545 -0.5 0 0
0.14123023 0.016069248 0.051518206 0.49999994 -0.86602545 0 0
0.058278676 0.072263464 0.051573314 -0.86602545 -0.5 0 0
0.093368515 0.011486068 0.051885121 -0.86602545 -0.49999994 0 0
0.13378663 0.041479837 0.052224014 0.86602539 0.50000006 0 0
0.089645967 0.017933724 0.052290123 -0.86602545 -0.49999994 0 0
0.140246 0.030291874 0.052501198 0.86602539 0.50000006 0 0
0.066187739 0.058564555 0.052603453 -0.86602545 -0.5 0 0
0.057646602 0.083282284 0.052912235 -0.5 0.86602545 0 0
0.063407525 0.08660835 0.052891877 -0.5 0.86602545 0 0
0.093166173 0.011836536 0.053280149 -0.86602545 -0.49999994 0 0
0.10037707 -0.00065309292 0.053592443 -0.86602539 -0.49999997 0 0
0.092755735 0.012547436 0.053748634 -0.86602545 -0.49999994 0 0
0.09371978 0.010877667 0.053998601 -0.86602545 -0.49999994 0 0
0.13832431 0.014391522 0.05408641 0.49999994 -0.86602545 0 0
0.099460982 0.00093361794 0.054640528 -0.86602539 -0.49999997 0 0
0.089893892 0.017504301 0.054630406 -0.86602545 -0.49999994 0 0
0.1352116 0.039011721 0.054553594 0.86602539 0.50000006 0 0
0.1348033 0.039718926 0.054667275 0.86602539 0.50000006 0 0
0.10689981 0.088049173 0.055070441 0.86602545 0.50000006 0 0
0.13397121 0.011878265 0.055322103 0.49999994 -0.86602545 0 0
0.079678595 0.035197709 0.055328388 -0.86602545 -0.49999994 0 0
0.090019941 0.017285962 0.055703856 -0.86602545 -0.49999994 0 0
0.066976048 0.057199161 0.055500496 -0.86602545 -0.5 0 0
0.098116457 0.10326239 0.055504862 0.86602545 0.50000006 0 0
0.056169473 0.075916708 0.055847138 -0.86602545 -0.5 0 0
0.084545754 0.098812513 0.055818126 -0.5 0.86602545 0 0
0.055183299 0.077624805 0.05611534 -0.86602545 -0.5 0 0
0.11207593 -0.00076298579 0.056976277 0.49999994 -0.86602545 0 0
0.10412806 0.092849985 0.056997549 0.86602545 0.50000006 0 0
0.13430811 0.012072772 0.057359099 0.49999994 -0.86602545 0 0
0.1106858 0.081491649 0.057412375 0.86602545 0.50000006 0 0
0.10050055 -0.00086698565 0.057586715 -0.86602539 -0.49999997 0 0
0.060960062 0.06761916 0.057693183 -0.86602545 -0.5 0 0
0.096558228 0.10574792 0.057694297 -0.5 0.86602545 0 0
0.11035312 -0.0017576504 0.057814907 0.49999994 -0.86602545 0 0
0.09983062 0.10029337 0.057974633 0.86602545 0.50000006 0 0
0.13486828 0.012396179 0.058265179 0.49999994 -0.86602545 0 0
0.090956531 0.01566375 0.058445297 -0.86602545 -0.49999994 0 0
0.063293308 0.086542413 0.058398962 -0.5 0.86602545 0 0
0.058887552 0.07120885 0.058724321 -0.86602545 -0.5 0 0
0.068417162 0.054703075 0.058877118 -0.86602545 -0.5 0 0
0.10243187 0.09578789 0.058954101 0.86602545 0.50000006 0 0
0.14123851 0.028572813 0.059111699 0.86602539 0.50000006 0 0
0.096022442 0.0068893442 0.059925482 -0.86602539 -0.49999997 0 0
0.091019452 0.015554767 0.059935439 -0.86602545 -0.49999994 0 0
0.12508842 0.0067497771 0.060235705 0.49999994 -0.86602545 0 0
0.064608812 0.061299346 0.060211089 -0.86602545 -0.5 0 0
0.056628633 0.075121418 0.060177017 -0.86602545 -0.5 0 0
0.1070463 0.087795481 0.060025197 0.86602545 0.50000006 0 0
0.12723415 0.007988615 0.060848016 0.49999994 -0.86602545 0 0
0.078693271 0.036904346 0.06084577 -0.86602545 -0.49999994 0 0
0.10930627 -0.0023620501 0.061221693 0.49999994 -0.86602545 0 0
0.054759942 0.078358084 0.0611117 -0.86602545 -0.5 0 0
0.075279161 0.093462445 0.061048083 -0.5 0.86602545 0 0
0.068957582 0.05376704 0.061285388 -0.86602545 -0.5 0 0
0.14245217 0.026470684 0.061622005 0.86602539 0.50000006 0 0
0.12897505 0.04981374 0.061582576 0.86602539 0.50000006 0 0
0.129787 0.048407413 0.061782666 0.86602539 0.50000006 0 0
0.12060208 0.0041595856 0.062487971 0.49999994 -0.86602545 0 0
0.090716176 0.016080054 0.06247624 -0.86602545 -0.49999994 0 0
0.11769423 0.069352716 0.062466718 0.86602539 0.50000006 0 0
0.05774197 0.073193058 0.062287267 -0.86602545 -0.5 0 0
0.069955483 0.052038632 0.062991597 -0.86602545 -0.5 0 0
0.068244644 0.055001896 0.062955223 -0.86602545 -0.5 0 0
0.11755697 0.069590427 0.062810101 0.86602539 0.50000006 0 0
0.11073936 0.081398897 0.063261278 0.86602545 0.50000006 0 0
0.07172545 0.091410704 0.063379705 -0.5 0.86602545 0 0
0.094745182 0.0091016162 0.063738883 -0.86602539 -0.49999997 0 0
0.10943098 0.083665095 0.06363225 0.86602545 0.50000006 0 0
0.092673942 0.012689103 0.06396544 -0.86602545 -0.49999994 0 0
0.091073886 0.015460483 0.064500123 -0.86602545 -0.49999994 0 0
0.098984115 0.001759556 0.064774536 -0.86602539 -0.49999997 0 0
0.066028304 0.058840699 0.064809434 -0.86602545 -0.5 0 0
0.12039357 0.064677291 0.064853132 0.86602539 0.50000006 0 0
0.077490397 0.038987786 0.065147564 -0.86602545 -0.49999994 0 0
0.055383615 0.081975743 0.06502489 -0.5 0.86602545 0 0
0.058036931 0.083507635 0.065238826 -0.5 0.86602545 0 0
0.12921929 0.0091347434 0.065380037 0.49999994 -0.86602545 0 0
0.11858724 0.067805961 0.065414801 0.86602539 0.50000006 0 0
0.11152916 0.080030911 0.065331705 0.86602545 0.50000006 0 0
0.14236608 0.016725041 0.065506153 0.49999994 -0.86602545 0 0
0.080889873 0.033099715 0.065579809 -0.86602545 -0.49999994 0 0
0.098337755 0.0028790981 0.065969788 -0.86602539 -0.49999997 0 0
0.14173244 0.027717322 0.066276714 0.86602539 0.50000006 0 0
0.060954921 0.067628063 0.066397741 -0.86602545 -0.5 0 0
0.12581971 0.0071719922 0.066808954 0.49999994 -0.86602545 0 0
0.064885184 0.060820661 0.066933833 -0.86602545 -0.5 0 0
0.064103015 0.062175415 0.06721019 -0.86602545 -0.5 0 0
0.11647941 0.071456835 0.067300178 0.86602539 0.50000006 0 0
0.1095174 0.083515391 0.067543089 0.86602545 0.50000006 0 0
0.11061775 -0.0016048655 0.067838766 0.49999994 -0.86602545 0 0
0.13586059 0.037887629 0.067758456 0.86602539 0.50000006 0 0
0.054728232 0.081597358 0.067868464 -0.5 0.86602545 0 0
0.14235437 0.02664008 0.068465337 0.86602539 0.50000006 0 0
0.1365018 0.036777027 0.06848345 0.86602539 0.50000006 0 0
0.13598655 0.037669484 0.06898015 0.86602539 0.50000006 0 0
0.13347124 0.042026125 0.068942323 0.86602539 0.50000006 0 0
0.13046038 0.047241069 0.068857729 0.86602539 0.50000006 0 0
0.074364647 0.044401735 0.069409028 -0.86602545 -0.49999994 0 0
0.1311976 0.045964174 0.069370225 0.86602539 0.50000006 0 0
0.14553668 0.021128166 0.069633655 0.86602539 0.50000006 0 0
0.06975624 0.052383736 0.069672905 -0.86602545 -0.49999994 0 0
0.10061003 0.098943397 0.06999927 0.86602545 0.50000006 0 0
0.12551309 0.055810027 0.070044786 0.86602539 0.50000006 0 0
0.055671148 0.082141757 0.070057563 -0.5 0.86602545 0 0
0.098082624 0.10332099 0.070047364 0.86602545 0.50000006 0 0
0.083934531 0.027826212 0.070405662 -0.86602545 -0.49999994 0 0
0.059014417 0.07098911 0.070313275 -0.86602545 -0.5 0 0
0.14180046 0.027599502 0.070717826 0.86602539 0.50000006 0 0
0.11634848 0.071683623 0.070731685 0.86602539 0.50000006 0 0
0.12975931 0.009446512 0.071089186 0.49999994 -0.86602545 0 0
0.11902071 0.067055181 0.071026869 0.86602539 0.50000006 0 0
0.13006651 0.0096238852 0.07141754 0.49999994 -0.86602545 0 0
0.078895807 0.036553547 0.071416788 -0.86602545 -0.49999994 0 0
0.13304773 0.042759661 0.071423344 0.86602539 0.50000006 0 0
0.067660645 0.089063898 0.071276173 -0.5 0.86602545 0 0
0.12500013 0.056698501 0.071540497 0.86602539 0.50000006 0 0
0.088891536 0.01924042 0.071844518 -0.86602545 -0.49999994 0 0
0.085808568 0.024580289 0.071793675 -0.86602545 -0.49999994 0 0
0.097578779 0.0041936859 0.072179466 -0.86602539 -0.49999997 0 0
0.11707349 0.070427865 0.072424248 0.86602539 0.50000006 0 0
0.060309496 0.068745978 0.072937913 -0.86602545 -0.5 0 0
0.091803402 0.014196943 0.073125713 -0.86602539 -0.49999997 0 0
0.14363478 0.024422351 0.073001266 0.86602539 0.50000006 0 0
0.10258123 0.095529184 0.073435374 0.86602545 0.50000006 0 0
0.087090336 0.022360198 0.0739123 -0.86602545 -0.49999994 0 0
0.10337096 0.094161339 0.074631236 0.86602545 0.50000006 0 0
0.093074583 0.011995175 0.074883327 -0.86602539 -0.49999997 0 0
0.13218077 0.04426128 0.075233981 0.86602539 0.50000006 0 0
0.12906912 0.0090480428 0.075412922 0.49999994 -0.86602545 0 0
0.13682531 0.036216706 0.075265683 0.86602539 0.50000006 0 0
0.11589102 0.07247594 0.075390294 0.86602539 0.50000006 0 0
0.056631122 0.075117104 0.075473346 -0.86602545 -0.5 0 0
0.082237467 0.097479828 0.075418808 -0.5 0.86602545 0 0
0.11812405 0.0027288999 0.075992204 0.49999994 -0.86602545 0 0
0.13290407 0.01126214 0.075866915 0.49999994 -0.86602545 0 0
0.12763616 0.052132748 0.076140031 0.86602539 0.50000006 0 0
0.14282556 0.016990315 0.076256819 0.49999994 -0.86602545 0 0
0.066274874 0.058413647 0.076270387 -0.86602545 -0.49999994 0 0
0.071847267 0.048761968 0.076561697 -0.86602545 -0.49999994 0 0
0.10573684 0.090063505 0.076915458 0.86602545 0.50000006 0 0
0.069981247 0.051994003 0.07714808 -0.86602545 -0.49999994 0 0
0.11278865 0.077849418 0.077126518 0.86602539 0.50000006 0 0
0.058097534 0.083542623 0.077080742 -0.5 0.86602545 0 0
0.11265677 0.078077823 0.077374861 0.86602539 0.50000006 0 0
0.10052165 -0.00090352574 0.077544749 -0.86602539 -0.49999997 0 0
0.11769916 0.0024835898 0.077614427 0.49999994 -0.86602545 0 0
0.14538938 0.018470535 0.077607363 0.49999994 -0.86602545 0 0
0.11906419 0.066979863 0.077914253 0.86602539 0.50000006 0 0
0.14045076 0.015619234 0.078154907 0.49999994 -0.86602545 0 0
0.064269789 0.061886545 0.078212947 -0.86602545 -0.49999994 0 0
0.074483968 0.093003348 0.078030579 -0.5 0.86602545 0 0
0.10596292 -0.0042923335 0.078312762 0.49999994 -0.86602545 0 0
0.12172377 0.0048072012 0.078478582 0.49999994 -0.86602545 0 0
0.081446111 0.03213628 0.078496404 -0.86602545 -0.49999994 0 0
0.07846792 0.095303476 0.078280739 -0.5 0.86602545 0 0
0.087889761 0.020975547 0.078582682 -0.86602545 -0.49999994 0 0
0.086155333 0.023979675 0.078712083 -0.86602545 -0.49999994 0 0
0.065921925 0.059024967 0.078913279 -0.86602545 -0.49999994 0 0
0.06349805 0.063223235 0.078850657 -0.86602545 -0.5 0 0
0.095650844 0.0075329579 0.079062715 -0.86602539 -0.49999997 0 0
0.10072464 0.098744877 0.079014748 0.86602545 0.50000006 0 0
0.13705771 0.035814166 0.079414852 0.86602539 0.50000006 0 0
0.09079095 0.01595054 0.079652786 -0.86602539 -0.49999997 0 0
0.088186793 0.020461079 0.079662219 -0.86602545 -0.49999994 0 0
0.06341704 0.086613841 0.079759702 -0.5 0.86602545 0 0
0.090476498 0.016495209 0.080072731 -0.86602539 -0.49999997 0 0
0.083823636 0.098395593 0.080094859 -0.5 0.86602545 0 0
0.07286267 0.047003251 0.080524206 -0.86602545 -0.49999994 0 0
0.089009061 0.01903688 0.08097823 -0.86602545 -0.49999994 0 0
0.12860429 0.050455935 0.081155211 0.86602539 0.50000006 0 0
0.10718226 0.087559953 0.081480719 0.86602539 0.50000006 0 0
0.081345215 0.032311041 0.081718974 -0.86602545 -0.49999994 0 0
0.10126349 0.097811565 0.08171688 0.86602545 0.50000006 0 0
0.10666151 0.088461928 0.082221135 0.86602539 0.50000006 0 0
0.085085586 0.025832534 0.082471356 -0.86602545 -0.49999994 0 0
0.089027055 0.10139979 0.082279831 -0.5 0.86602545 0 0
0.095241271 0.0082423724 0.08257775 -0.86602539 -0.49999997 0 0
0.059789069 0.084519237 0.082556903 -0.5 0.86602545 0 0
0.078658298 0.095413387 0.08260043 -0.5 0.86602545 0 0
0.068723485 0.05417252 0.082838207 -0.86602545 -0.49999994 0 0
0.11725526 0.070113003 0.082914904 0.86602539 0.50000006 0 0
0.12591937 0.0072295237 0.083081968 0.49999994 -0.86602545 0 0
0.10766196 0.086729109 0.084110066 0.86602539 0.50000006 0 0
0.12742397 0.052500293 0.084443897 0.86602539 0.50000006 0 0
0.097548857 0.0042454964 0.084646538 -0.86602539 -0.49999997 0 0
0.11719555 0.070216462 0.084514171 0.86602539 0.50000006 0 0
0.093679309 0.10408577 0.084530324 -0.5 0.86602545 0 0
0.072430864 0.047751166 0.084991887 -0.86602545 -0.49999994 0 0
0.072497055 0.091856197 0.084964179 -0.5 0.86602545 0 0
0.13932477 0.01496914 0.085108653 0.49999994 -0.86602545 0 0
0.10107695 0.098134644 0.085246973 0.86602545 0.50000006 0 0
0.080655187 0.033506196 0.085255094 -0.86602545 -0.49999994 0 0
0.062474251 0.064996518 0.085639477 -0.86602545 -0.49999994 0 0
0.10706446 0.08776401 0.085820653 0.86602539 0.50000006 0 0
0.11553985 0.0012369151 0.086125441 0.49999994 -0.86602545 0 0
0.12799938 0.051503666 0.086100839 0.86602539 0.50000006 0 0
0.14471582 0.022549957 0.086451106 0.86602539 0.50000006 0 0
0.12627706 0.054486804 0.086479098 0.86602539 0.50000006 0 0
0.1014833 -0.0025691525 0.087091289 -0.86602539 -0.49999997 0 0
0.062197775 0.065475382 0.087256163 -0.86602545 -0.49999994 0 0
0.132203 0.010857383 0.087719768 0.49999994 -0.86602545 0 0
0.10097014 0.098319665 0.087962039 0.86602545 0.50000006 0 0
0.13183206 0.010643224 0.088209376 0.49999994 -0.86602545 0 0
0.12717076 0.0079520196 0.088491887 0.49999994 -0.86602545 0 0
0.089871213 0.01754359 0.088444099 -0.86602539 -0.49999997 0 0
0.070415586 0.090654455 0.088456437 -0.5 0.86602545 0 0
0.1031025 0.094626322 0.088421792 0.86602539 0.50000006 0 0
0.12625287 0.007422077 0.08898446 0.49999994 -0.86602545 0 0
0.084428795 0.026970116 0.08921095 -0.86602545 -0.49999994 0 0
0.095599413 0.0076220552 0.08974959 -0.86602539 -0.49999997 0 0
0.13272755 0.011160236 0.089873806 0.49999994 -0.86602545 0 0
0.13725804 0.013775909 0.090227753 0.49999994 -0.86602545 0 0
0.10334931 -0.0058011571 0.090412967 -0.86602539 -0.49999997 0 0
0.10053648 -0.0009292115 0.090765215 -0.86602539 -0.49999997 0 0
0.095911056 0.0070822635 0.090935864 -0.86602539 -0.49999997 0 0
0.076922596 0.094411276 0.090790018 -0.5 0.86602545 0 0
0.10104269 0.098194003 0.091474451 0.86602539 0.50000006 0 0
0.086943313 0.02261485 0.091630548 -0.86602545 -0.49999994 0 0
0.12534478 0.056101553 0.091711991 0.86602539 0.50000006 0 0
0.10878123 0.084790476 0.091719471 0.86602539 0.50000006 0 0
0.092865467 0.012357375 0.092197865 -0.86602539 -0.49999997 0 0
0.080321059 0.034084924 0.092094749 -0.86602545 -0.49999994 0 0
0.11343217 0.076734796 0.092122249 0.86602539 0.50000006 0 0
0.071418807 0.091233663 0.092167646 -0.5 0.86602545 0 0
0.10454079 0.092135124 0.092486449 0.86602539 0.50000006 0 0
0.13896874 0.014763575 0.09347678 0.49999994 -0.86602545 0 0
0.14137869 0.028330036 0.093346886 0.86602539 0.50000006 0 0
0.1237884 0.0059992112 0.093782611 0.49999994 -0.86602545 0 0
0.14498869 0.018239198 0.09398213 0.49999994 -0.86602545 0 0
0.053688657 0.080213606 0.094315767 -0.86602545 -0.5 0 0
0.090541206 0.10227399 0.09436734 -0.5 0.86602545 0 0
0.095209956 0.0082966052 0.094651148 -0.86602539 -0.49999997 0 0
0.085667104 0.024825308 0.094629496 -0.86602545 -0.49999994 0 0
0.079370461 0.095824555 0.094724916 -0.5 0.86602545 0 0
0.10869763 -0.0027134449 0.094953179 0.49999994 -0.86602545 0 0
0.12494132 0.056800373 0.094938897 0.86602539 0.50000006 0 0
0.084815979 0.098968521 0.094921276 -0.5 0.86602545 0 0
0.079149447 0.036114216 0.095006987 -0.86602545 -0.49999994 0 0
0.098530591 0.0025450969 0.095401458 -0.86602539 -0.49999997 0 0
0.068578556 0.089593843 0.095384091 -0.5 0.86602545 0 0
0.10334621 -0.005795809 0.095732294 -0.86602539 -0.49999997 0 0
0.096324779 0.0063656745 0.095664546 -0.86602539 -0.49999997 0 0
0.13298078 0.011306435 0.096096523 0.49999994 -0.86602545 0 0
0.055814236 0.076531999 0.096358687 -0.86602545 -0.49999994 0 0
0.13107769 0.010207688 0.096516378 0.49999994 -0.86602545 0 0
0.070394881 0.05127757 0.096643023 -0.86602545 -0.49999994 0 0
0.10287245 0.095024772 0.096555799 0.86602539 0.50000006 0 0
0.12810515 0.051320463 0.097328536 0.86602539 0.50000006 0 0
0.10535455 -0.0046435716 0.097573578 0.49999994 -0.86602545 0 0
0.12815775 0.0085218549 0.09794046 0.49999994 -0.86602545 0 0
0.089600168 0.018013051 0.097816557 -0.86602539 -0.49999997 0 0
0.086169824 0.02395457 0.097814895 -0.86602545 -0.49999994 0 0
0.083764382 0.028120928 0.097986236 -0.86602545 -0.49999994 0 0
0.11175976 0.079631507 0.097804852 0.86602539 0.50000006 0 0
0.071680605 0.091384821 0.097985394 -0.5 0.86602545 0 0
0.10679863 -0.0038098339 0.098227955 0.49999994 -0.86602545 0 0
0.076510504 0.040685013 0.098157756 -0.86602545 -0.49999994 0 0
0.13295574 0.042918973 0.098015159 0.86602539 0.50000006 0 0
0.083282486 0.098083168 0.098460324 -0.5 0.86602545 0 0
0.065452635 0.0598378 0.098594844 -0.86602545 -0.49999994 0 0
0.083797202 0.028064068 0.098935582 -0.86602545 -0.49999994 0 0
0.14555737 0.018567529 0.099174522 0.49999994 -0.86602545 0 0
0.081927486 0.03130253 0.099001586 -0.86602545 -0.49999994 0 0
0.12930074 0.049249642 0.099002212 0.86602539 0.50000006 0 0
0.12024775 0.064929888 0.099012233 0.86602539 0.50000006 0 0
0.10268789 0.095344454 0.099150904 0.86602539 0.50000006 0 0
0.082571849 0.097672872 0.099061608 -0.5 0.86602545 0 0
0.1051145 0.091141425 0.099584095 0.86602539 0.50000006 0 0
0.08423622 0.098633796 0.099662855 -0.5 0.86602545 0 0
0.13394207 0.041210636 0.10007016 0.86602539 0.50000006 0 0
0.13383637 0.041393694 0.1004516 0.86602539 0.50000006 0 0
0.066442154 0.058123901 0.10042724 -0.86602545 -0.49999994 0 0
0.059986599 0.069305249 0.10040802 -0.86602545 -0.49999994 0 0
0.070130929 0.05173476 0.10088146 -0.86602545 -0.49999994 0 0
0.073801018 0.091462672 0.10099278 -0.35355341 0.61237246 0.70710671 0
0.13680241 0.013512855 0.10160433 0.49999994 -0.86602545 0 0
0.098328039 0.10289591 0.10164868 0.86602539 0.50000006 0 0
0.12385859 0.006039734 0.10184287 0.49999994 -0.86602545 0 0
0.13629209 0.013218216 0.10182376 0.49999994 -0.86602545 0 0
0.070220113 0.05158028 0.10198738 -0.86602545 -0.49999994 0 0
0.058155209 0.08140111 0.10188344 -0.35355341 0.61237246 0.70710671 0
0.073662713 0.090340786 0.10189521 -0.35355341 0.61237246 0.70710671 0
0.083424285 0.028709993 0.10212892 -0.86602545 -0.49999994 0 0
0.0719596 0.089213222 0.10202015 -0.35355341 0.61237246 0.70710671 0
0.13960478 0.031402517 0.10244023 0.86602539 0.50000006 0 0
0.077426426 0.09200076 0.10233949 -0.35355341 0.61237246 0.70710671 0
0.089454502 0.098835468 0.1024345 -0.35355341 0.61237246 0.70710671 0
0.10283728 -0.004914307 0.10260308 -0.86602539 -0.49999997 0 0
0.058266483 0.080495097 0.10272372 -0.35355341 0.61237246 0.70710671 0
0.1376062 0.013976918 0.10307325 0.49999994 -0.86602545 0 0
0.11145297 0.080162875 0.10323445 0.86602539 0.50000006 0 0
0.088732094 0.097616926 0.10312857 -0.35355341 0.61237246 0.70710671 0
0.11011074 -0.0018975839 0.10347037 0.49999994 -0.86602545 0 0
0.10056278 0.099025235 0.10332611 0.86602539 0.50000006 0 0
0.08432886 0.027143225 0.10367151 -0.86602545 -0.49999994 0 0
0.079618335 0.091728762 0.103671 -0.35355341 0.61237246 0.70710671 0
0.12946132 0.0092744762 0.10385875 0.49999994 -0.86602545 0 0
0.14016196 0.030437462 0.10379047 0.86602539 0.50000006 0 0
0.066086471 0.083672054 0.10388238 -0.35355341 0.61237246 0.70710671 0
0.1281174 0.0084985588 0.10402008 0.49999994 -0.86602545 0 0
0.063854843 0.081968501 0.1042419 -0.35355341 0.61237246 0.70710671 0
0.13498768 0.039399587 0.10437319 0.86602539 0.50000006 0 0
0.059785925 0.069652826 0.10436862 -0.86602545 -0.49999994 0 0
0.059640437 0.069904819 0.1044995 -0.86602545 -0.49999994 0 0
0.093389943 0.011448949 0.10466103 -0.86602539 -0.49999997 0 0
0.11417192 0.075453512 0.10468113 0.86602539 0.50000006 0 0
0.067827873 0.083490834 0.10491003 -0.35355341 0.61237246 0.70710671 0
0.090992585 0.096544743 0.10518736 -0.35355341 0.61237246 0.70710671 0
0.094960302 0.098864838 0.10516196 -0.35355341 0.61237246 0.70710671 0
0.13747211 0.035096429 0.10545647 0.86602539 0.50000006 0 0
0.061521079 0.066647448 0.10528396 -0.86602545 -0.49999994 0 0
0.11973169 0.065823711 0.10562813 0.86602539 0.50000006 0 0
0.13169533 0.010564279 0.10587963 0.49999994 -0.86602545 0 0
0.14596532 0.020385738 0.10603856 0.86602539 0.50000006 0 0
0.060206443 0.068924472 0.10621163 -0.86602545 -0.49999994 0 0
0.11564052 0.072909825 0.10684839 0.86602539 0.50000006 0 0
0.076048985 0.041484386 0.10723643 -0.86602545 -0.49999994 0 0
0.13291571 0.042988338 0.10715024 0.86602539 0.50000006 0 0
0.061540179 0.06661436 0.10713321 -0.86602545 -0.49999994 0 0
0.061388727 0.066876695 0.10716721 -0.86602545 -0.49999994 0 0
0.088132203 0.0927784 0.10701892 -0.35355341 0.61237246 0.70710671 0
0.069151014 0.053432029 0.1072775 -0.86602545 -0.49999994 0 0
0.13071705 0.046796508 0.10765679 0.86602539 0.50000006 0 0
0.13076498 0.010027139 0.10785785 0.49999994 -0.86602545 0 0
0.14593212 0.020443242 0.10787883 0.86602539 0.50000006 0 0
0.13247979 0.043743383 0.10777891 0.86602539 0.50000006 0 0
0.12024102 0.06494154 0.10803574 0.86602539 0.50000006 0 0
0.13082936 0.046601981 0.10834228 0.86602539 0.50000006 0 0
0.063139237 0.063844711 0.10829467 -0.86602545 -0.49999994 0 0
0.13699725 0.013625355 0.1086814 0.49999994 -0.86602545 0 0
0.098138832 0.096788339 0.10854954 -0.35355341 0.61237246 0.70710671 0
0.086473405 0.023428766 0.10889231 -0.86602539 -0.49999997 0 0
0.12368912 0.058969252 0.10883492 0.86602539 0.50000006 0 0
0.13027862 0.0097463327 0.10906722 0.49999994 -0.86602545 0 0
0.060580149 0.068277188 0.10944498 -0.86602545 -0.49999994 0 0
0.064698242 0.076232381 0.10963121 -0.35355341 0.61237246 0.70710677 0
0.11734866 0.0022812258 0.10987379 0.49999994 -0.86602545 0 0
0.059507295 0.070135437 0.10977595 -0.86602545 -0.49999994 0 0
0.066628501 0.057801142 0.11012156 -0.86602545 -0.49999994 0 0
0.11406175 0.075644337 0.11019046 0.86602539 0.50000006 0 0
0.10927154 -0.0023820985 0.11073671 0.49999994 -0.86602545 0 0
0.12297747 0.0055310181 0.11069822 0.49999994 -0.86602545 0 0
0.11529204 0.073513404 0.11059159 0.86602539 0.50000006 0 0
0.076565534 0.081898779 0.11065762 -0.35355341 0.61237246 0.70710671 0
0.10842037 0.08541549 0.11055839 0.86602539 0.50000006 0 0
0.11788577 0.069020949 0.11084278 0.86602539 0.50000006 0 0
0.0716414 0.078873657 0.11081537 -0.35355341 0.61237246 0.70710671 0
0.11746098 0.069756702 0.11105508 0.86602539 0.50000006 0 0
0.1426941 0.026051655 0.11148182 0.86602539 0.50000006 0 0
0.082619779 0.030103438 0.11143758 -0.86602545 -0.49999994 0 0
0.10808065 -0.0030696646 0.1116159 0.49999994 -0.86602545 0 0
0.14295587 0.017065555 0.11184014 0.49999994 -0.86602545 0 0
0.060150258 0.069021784 0.11176563 -0.86602545 -0.49999994 0 0
0.076927669 0.039962459 0.11238889 -0.86602545 -0.49999994 0 0
0.12362532 0.059079759 0.11237427 0.86602539 0.50000006 0 0
0.10188561 -0.003265975 0.1127152 -0.86602539 -0.49999997 0 0
0.063329995 0.063514307 0.11274053 -0.86602545 -0.49999994 0 0
0.059667364 0.069858178 0.11257532 -0.86602545 -0.49999994 0 0
0.06981004 0.052290548 0.11293334 -0.86602545 -0.49999994 0 0
0.1332348 0.042435642 0.11304647 0.86602539 0.50000006 0 0
0.10106599 -0.0018463563 0.11346554 -0.86602539 -0.49999997 0 0
0.11733757 0.0022748285 0.11343709 0.49999994 -0.86602545 0 0
0.1213697 0.062986605 0.11341826 0.86602539 0.50000006 0 0
0.092772692 0.012518078 0.11355545 -0.86602539 -0.49999997 0 0
0.13513863 0.012552264 0.11372098 0.49999994 -0.86602545 0 0
0.14229172 0.026748601 0.11361587 0.86602539 0.50000006 0 0
0.11467673 0.074579164 0.11363142 0.86602539 0.50000006 0 0
0.11416236 0.07547009 0.11395992 0.86602539 0.50000006 0 0
0.073022813 0.046725869 0.11403772 -0.86602545 -0.49999994 0 0
0.078268483 0.037640098 0.11465469 -0.86602545 -0.49999994 0 0
0.10591489 -0.0043200669 0.11482846 0.49999994 -0.86602545 0 0
0.12908471 0.049623832 0.11534736 0.86602539 0.50000006 0 0
0.12151922 0.0046890951 0.11606574 0.49999994 -0.86602545 0 0
0.14388978 0.017604746 0.11604204 0.49999994 -0.86602545 0 0
0.08904992 0.018966084 0.11640546 -0.86602539 -0.49999997 0 0
0.097969681 0.087785527 0.11626162 -0.35355341 0.61237246 0.70710671 0
0.11505882 0.073917359 0.11663085 0.86602539 0.50000006 0 0
0.081822097 0.07791625 0.11673486 -0.35355341 0.61237246 0.70710671 0
0.098038159 0.087445199 0.11659059 -0.35355341 0.61237246 0.70710671 0
0.13094948 0.046393931 0.11711979 0.86602539 0.50000006 0 0
0.083470494 0.078449659 0.11709712 -0.35355341 0.61237246 0.70710671 0
0.082767233 0.029848041 0.11740281 -0.86602545 -0.49999994 0 0
0.085602678 0.079454817 0.11729272 -0.35355341 0.61237246 0.70710671 0
0.082070082 0.076875329 0.11776033 -0.35355341 0.61237246 0.70710671 0
0.10704192 0.087803036 0.11780486 0.86602533 0.50000012 9.3132243e-08 0
0.10726851 0.087410584 0.11800955 0.86602533 0.50000012 9.3132243e-08 0
0.092187196 0.013532179 0.11833145 -0.86602539 -0.49999997 0 0
0.097258195 0.0047489572 0.11868884 -0.86602539 -0.49999997 0 0
0.11356393 0.0765066 0.11862012 0.86602533 0.50000012 9.3132243e-08 0
0.11253632 0.078286462 0.11863096 0.86602533 0.50000012 9.3132243e-08 0
0.13574909 0.012904718 0.11876971 0.49999994 -0.86602545 0 0
0.086925663 0.07833837 0.11892109 -0.35355341 0.61237246 0.70710671 0
0.14051802 0.015658066 0.11947525 0.49999994 -0.86602545 0 0
0.10218251 -0.0037802123 0.11972364 -0.86602539 -0.49999997 0 0
0.13522205 0.038993627 0.1195524 0.86602539 0.50000006 0 0
0.11848577 0.067981713 0.11956103 0.86602539 0.50000006 0 0
0.10264961 -0.004589248 0.12003645 -0.86602539 -0.49999997 0 0
0.10524777 0.087468773 0.12017497 -0.35355341 0.61237246 0.70710671 0
0.14623636 0.019916303 0.12025651 0.86602539 0.50000006 0 0
0.073276095 0.046287157 0.12048861 -0.86602545 -0.49999994 0 0
0.086843371 0.076669984 0.12032481 -0.35355341 0.61237246 0.70710671 0
0.093865499 0.080713727 0.12033388 -0.35355341 0.61237246 0.70710671 0
0.098781019 0.083564937 0.12032241 -0.35355341 0.61237246 0.70710671 0
0.10469957 0.086580314 0.1206703 -0.35355341 0.61237246 0.70710671 0
0.077030554 0.039784253 0.12097118 -0.86602545 -0.49999994 0 0
0.065731861 0.063985839 0.12075383 -0.35355341 0.61237246 0.70710677 0
0.091152862 0.078653857 0.12076147 -0.35355341 0.61237246 0.70710671 0
0.141087 0.015986554 0.12104154 0.49999994 -0.86602545 0 0
0.12888129 0.049976133 0.12117724 0.86602539 0.50000006 0 0
0.13787529 0.034398098 0.12201945 0.86602539 0.50000006 0 0
0.076501876 0.040699951 0.12214197 -0.86602545 -0.49999994 0 0
0.072018877 0.065793499 0.12233187 -0.35355341 0.61237246 0.70710677 0
0.10562716 -0.0044861827 0.122772 0.49999994 -0.86602545 0 0
0.082387768 0.030505281 0.12298971 -0.86602545 -0.49999994 0 0
0.068210281 0.055061419 0.1232494 -0.86602545 -0.49999994 0 0
0.12127917 0.063143402 0.12323131 0.86602539 0.50000006 0 0
0.10090202 -0.0015623367 0.12380794 -0.86602539 -0.49999997 0 0
0.13205826 0.044473477 0.12382009 0.86602539 0.50000006 0 0
0.10136853 -0.0023703615 0.12406817 -0.86602539 -0.49999997 0 0
0.11620915 0.071924917 0.12424084 0.86602533 0.50000012 9.3132243e-08 0
0.13704962 0.035828184 0.12440102 0.86602539 0.50000006 0 0
0.065540507 0.05979193 0.12429019 -0.35355341 0.61237246 0.70710677 0
0.10256951 0.081131116 0.12432442 -0.35355341 0.61237246 0.70710671 0
0.094554067 0.0094326288 0.12493935 -0.86602539 -0.49999997 0 0
0.13923451 0.032043852 0.12497025 0.86602539 0.50000006 0 0
0.075521961 0.042397209 0.1249069 -0.86602545 -0.49999994 0 0
0.083971806 0.027761655 0.1250466 -0.86602539 -0.49999997 0 0
0.12451378 0.006418006 0.12526277 0.49999994 -0.86602545 0 0
0.069581084 0.060598947 0.12561159 -0.35355341 0.61237246 0.70710677 0
0.13222492 0.010870037 0.12582801 0.49999994 -0.86602545 0 0
0.1355731 0.012803116 0.12597737 0.49999994 -0.86602545 0 0
0.089003719 0.071492977 0.12588841 -0.35355341 0.61237246 0.70710671 0
0.13083656 0.046589516 0.12615998 0.86602539 0.50000006 0 0
0.097938925 0.0035698875 0.12671715 -0.86602539 -0.49999997 0 0
0.071150959 0.049968015 0.12655187 -0.86602545 -0.49999994 0 0
0.10181604 -0.0031454584 0.12722006 -0.86602539 -0.49999997 0 0
0.13006552 0.047925003 0.12719305 0.86602539 0.50000006 0 0
0.10761996 0.080717422 0.12720791 -0.35355341 0.61237246 0.70710671 0
0.13905549 0.032353915 0.12799393 0.86602539 0.50000006 0 0
0.12523404 0.056293361 0.12851758 0.86602539 0.50000006 0 0
0.13060305 0.046993986 0.12899818 0.86602539 0.50000006 0 0
0.12125812 0.063179851 0.12965852 0.86602533 0.50000012 9.3132243e-08 0
0.11008426 0.079168648 0.12978134 -0.35355341 0.61237246 0.70710671 0
0.07849545 0.037246976 0.13014644 -0.86602545 -0.49999994 0 0
0.079710513 0.061265197 0.13009933 -0.35355341 0.61237246 0.70710677 0
0.13781054 0.034510236 0.13053428 0.86602539 0.50000006 0 0
0.12860441 0.050455742 0.13059731 0.86602539 0.50000006 0 0
0.088794321 0.065482996 0.13098848 -0.35355341 0.61237246 0.70710677 0
0.10014954 -0.00025900872 0.1311505 -0.86602539 -0.49999997 0 0
0.1238362 0.058714509 0.13111763 0.86602533 0.50000012 9.3132243e-08 0
0.12030176 0.064836331 0.13121164 0.86602533 0.50000012 9.3132243e-08 0
0.11436947 0.075111344 0.13107647 0.86602533 0.50000012 9.3132243e-08 0
0.098446719 0.0026903572 0.13140778 -0.86602539 -0.49999997 0 0
0.08930257 0.065203652 0.13148454 -0.35355341 0.61237246 0.70710677 0
0.11585543 0.001419107 0.13185398 0.49999994 -0.86602545 0 0
0.08827062 0.063509673 0.13243559 -0.35355341 0.61237246 0.70710677 0
0.10681063 0.074256681 0.13239841 -0.35355341 0.61237246 0.70710671 0
0.10343797 -0.0057501141 0.13273679 0.49999994 -0.86602545 0 0
0.10464455 0.072479121 0.13285479 -0.35355341 0.61237246 0.70710671 0
0.07602296 0.041529465 0.13312025 -0.86602545 -0.49999994 0 0
0.13390993 0.011842876 0.13331485 0.49999994 -0.86602545 0 0
0.087008722 0.061602898 0.13345596 -0.35355341 0.61237246 0.70710677 0
0.11883543 0.067376077 0.13341574 0.86602533 0.50000012 9.3132243e-08 0
0.090788811 0.015954256 0.13447027 -0.86602539 -0.49999997 0 0
0.085740693 0.024697842 0.13473801 -0.86602539 -0.49999997 0 0
0.11036066 -0.0017532991 0.1348206 0.49999994 -0.86602545 0 0
0.082424134 0.057386734 0.13481496 -0.35355341 0.61237246 0.70710677 0
0.11320774 0.075101405 0.13486542 -0.35355341 0.61237246 0.70710671 0
0.092873961 0.012342678 0.13510033 -0.86602539 -0.49999997 0 0
0.091298327 0.015071752 0.13504469 -0.86602539 -0.49999997 0 0
0.13144298 0.045539182 0.1352289 0.86602533 0.50000012 9.3132243e-08 0
0.092340149 0.062613189 0.13524674 -0.35355341 0.61237246 0.70710677 0
0.086931415 0.059464071 0.13526958 -0.35355341 0.61237246 0.70710677 0
0.14091709 0.029129537 0.13552155 0.86602539 0.50000006 0 0
0.13216791 0.010837118 0.13586168 0.49999994 -0.86602545 0 0
0.14503497 0.018265929 0.13577831 0.49999994 -0.86602545 0 0
0.090965196 0.061166611 0.13581204 -0.35355341 0.61237246 0.70710677 0
0.096211821 0.063998297 0.13598303 -0.35355341 0.61237246 0.70710677 0
0.14663479 0.01918957 0.13616996 0.49999994 -0.86602545 0 0
0.10921565 0.071243428 0.13621049 -0.35355341 0.61237246 0.70710671 0
0.10957399 0.071305409 0.13633597 -0.35355341 0.61237246 0.70710671 0
0.14249833 0.026390754 0.13656873 0.86602539 0.50000006 0 0
0.1081218 -0.0030459063 0.13698283 0.49999994 -0.86602545 0 0
