# .PCD v0.7 - Point Cloud Data file format
VERSION 0.7
FIELDS x y z normal_x normal_y normal_z curvature
SIZE 4 4 4 4 4 4 4
TYPE F F F F F F F
COUNT 1 1 1 1 1 1 1
WIDTH 805
HEIGHT 1
VIEWPOINT 0 0 0 1 0 0 0
POINTS 805
DATA ascii
0.13176131 0.044987813 0.012848928 0.86602545 0.50000006 0 0
0.10630347 0.089082092 0.012848704 0.86602545 0.50000006 0 0
0.074167736 0.092820756 0.012763041 -0.5 0.86602545 0 0
0.1331085 0.042654425 0.013259857 0.86602545 0.50000006 0 0
0.079441138 0.095865369 0.013415379 -0.5 0.86602545 0 0
0.085811272 0.099543154 0.013814044 -0.5 0.86602545 0 0
0.10682556 0.0881778 0.014162665 0.86602545 0.50000006 0 0
0.12059901 0.064321481 0.014317987 0.86602545 0.50000006 0 0
0.12771001 0.052004874 0.014714497 0.86602545 0.50000006 0 0
0.11702659 0.070509084 0.014511829 0.86602545 0.50000006 0 0
0.12655249 0.054009739 0.014938837 0.86602545 0.50000006 0 0
0.11148374 0.080109589 0.015160903 0.86602545 0.50000006 0 0
0.058594007 0.083829269 0.015216089 -0.5 0.86602545 0 0
0.088309757 0.10098566 0.015087939 -0.5 0.86602545 0 0
0.13120347 0.045953993 0.015583559 0.86602545 0.50000006 0 0
0.14591102 0.020479787 0.01593104 0.86602539 0.50000006 0 0
0.12114425 0.063377097 0.015837017 0.86602545 0.50000006 0 0
0.14546852 0.021246228 0.016106863 0.86602539 0.50000006 0 0
0.13516809 0.039087076 0.016084725 0.86602545 0.50000006 0 0
0.10921387 0.084041089 0.016082773 0.86602545 0.50000006 0 0
0.065053888 0.087558873 0.01613009 -0.5 0.86602545 0 0
0.085167944 0.099171735 0.016389269 -0.5 0.86602545 0 0
0.11828109 0.068336233 0.016918361 0.86602545 0.50000006 0 0
0.079395883 0.095839232 0.016903568 -0.5 0.86602545 0 0
0.091088362 0.10258989 0.016834406 -0.5 0.86602545 0 0
0.13581257 0.037970811 0.017228566 0.86602545 0.50000006 0 0
0.10866088 0.084998921 0.017069312 0.86602545 0.50000006 0 0
0.10487039 0.091564223 0.017123541 0.86602545 0.50000006 0 0
0.085854732 0.099568248 0.017167343 -0.5 0.86602545 0 0
0.12023126 0.064958453 0.017487606 0.86602545 0.50000006 0 0
0.056565925 0.082658358 0.0172548 -0.5 0.86602545 0 0
0.077310674 0.09463533 0.017328775 -0.5 0.86602545 0 0
0.094798267 0.10473181 0.017495442 -0.5 0.86602545 0 0
0.096464328 0.1056937 0.017281076 -0.5 0.86602545 0 0
0.12495464 0.056777313 0.017664006 0.86602545 0.50000006 0 0
0.11549171 0.073167577 0.017740622 0.86602545 0.50000006 0 0
0.056679435 0.082723886 0.017742574 -0.5 0.86602545 0 0
0.083549052 0.098237067 0.017670644 -0.5 0.86602545 0 0
0.1442146 0.023418058 0.017765284 0.86602539 0.50000006 0 0
0.072534882 0.091878034 0.017850775 -0.5 0.86602545 0 0
0.13397303 0.041157011 0.018123055 0.86602545 0.50000006 0 0
0.13344225 0.042076338 0.018090639 0.86602545 0.50000006 0 0
0.070296474 0.090585686 0.01848693 -0.5 0.86602545 0 0
0.090318173 0.10214522 0.018328564 -0.5 0.86602545 0 0
0.12043521 0.064605191 0.018703585 0.86602545 0.50000006 0 0
0.11625652 0.071842879 0.018513137 0.86602545 0.50000006 0 0
0.10241873 0.095810652 0.018682063 0.86602545 0.50000006 0 0
0.12862185 0.050425529 0.019228835 0.86602545 0.50000006 0 0
0.13048065 0.047205996 0.019361949 0.86602545 0.50000006 0 0
0.0642621 0.087101735 0.019346995 -0.5 0.86602545 0 0
0.073043682 0.092171788 0.019932492 -0.5 0.86602545 0 0
0.078763284 0.095474005 0.019993847 -0.5 0.86602545 0 0
0.075423688 0.093545884 0.020082099 -0.5 0.86602545 0 0
0.1244791 0.05760096 0.020648394 0.86602545 0.50000006 0 0
0.089900419 0.10190403 0.020542968 -0.5 0.86602545 0 0
0.1122929 0.07870809 0.020887256 0.86602545 0.50000006 0 0
0.14158738 0.027968537 0.021042559 0.86602539 0.50000006 0 0
0.1246531 0.057299592 0.021117015 0.86602545 0.50000006 0 0
0.085005119 0.099077739 0.021082873 -0.5 0.86602545 0 0
0.059388578 0.084288016 0.021256214 -0.5 0.86602545 0 0
0.11657472 0.071291745 0.021691289 0.86602545 0.50000006 0 0
0.1005066 0.099122547 0.021892741 0.86602545 0.50000006 0 0
0.13063447 0.046939574 0.02224898 0.86602545 0.50000006 0 0
0.12665047 0.05384006 0.02234523 0.86602545 0.50000006 0 0
0.11042351 0.081945956 0.022293504 0.86602545 0.50000006 0 0
0.11278253 0.077860013 0.022743499 0.86602545 0.50000006 0 0
0.097054422 0.1051019 0.022731902 0.86602545 0.50000006 0 0
0.13085835 0.046551775 0.023285104 0.86602545 0.50000006 0 0
0.09325406 0.10384025 0.023375865 -0.5 0.86602545 0 0
0.12904374 0.049694777 0.023702815 0.86602545 0.50000006 0 0
0.1461761 0.020020653 0.023937851 0.86602539 0.50000006 0 0
0.13857679 0.033183057 0.023914849 0.86602539 0.50000006 0 0
0.11270937 0.077986702 0.023922062 0.86602545 0.50000006 0 0
0.13187401 0.044792581 0.024213439 0.86602545 0.50000006 0 0
0.14213979 0.027011752 0.024310902 0.86602539 0.50000006 0 0
0.11830131 0.068301201 0.024318147 0.86602545 0.50000006 0 0
0.061363086 0.085427992 0.024282193 -0.5 0.86602545 0 0
0.055307157 0.081931598 0.024905741 -0.5 0.86602545 0 0
0.068268344 0.089414746 0.024858117 -0.5 0.86602545 0 0
0.098244697 0.10304028 0.024764471 0.86602545 0.50000006 0 0
0.1451243 0.021842416 0.025225982 0.86602539 0.50000006 0 0
0.13402297 0.041070495 0.025107848 0.86602545 0.50000006 0 0
0.10706073 0.087770447 0.025176052 0.86602545 0.50000006 0 0
0.11493247 0.074136205 0.025407402 0.86602545 0.50000006 0 0
0.11837622 0.068171464 0.025642766 0.86602545 0.50000006 0 0
0.10465818 0.09193179 0.025582455 0.86602545 0.50000006 0 0
0.13833517 0.033601563 0.026148207 0.86602539 0.50000006 0 0
0.070583865 0.090751611 0.026122779 -0.5 0.86602545 0 0
0.073228329 0.092278399 0.026205426 -0.5 0.86602545 0 0
0.094541848 0.10458376 0.026047844 -0.5 0.86602545 0 0
0.12701537 0.053208023 0.026461294 0.86602545 0.50000006 0 0
0.10093068 0.098388001 0.026482467 0.86602545 0.50000006 0 0
0.10874365 0.084855571 0.026585869 0.86602545 0.50000006 0 0
0.066499993 0.088393785 0.026944429 -0.5 0.86602545 0 0
0.12722892 0.052838147 0.027210204 0.86602545 0.50000006 0 0
0.092070624 0.10315699 0.027197346 -0.5 0.86602545 0 0
0.06058025 0.084976025 0.027422804 -0.5 0.86602545 0 0
0.090248778 0.10210516 0.027579058 -0.5 0.86602545 0 0
0.054571815 0.08150705 0.027855575 -0.5 0.86602545 0 0
0.11995663 0.065434121 0.028122474 0.86602545 0.50000006 0 0
0.054224979 0.081306808 0.028247034 -0.5 0.86602545 0 0
0.14261593 0.02618707 0.028421327 0.86602539 0.50000006 0 0
0.11927674 0.066611722 0.028389009 0.86602545 0.50000006 0 0
0.13665415 0.036513146 0.028669037 0.86602539 0.50000006 0 0
0.12753095 0.052315019 0.028503839 0.86602545 0.50000006 0 0
0.094512045 0.10456655 0.02868207 -0.5 0.86602545 0 0
0.13180579 0.044910785 0.029010775 0.86602545 0.50000006 0 0
0.097394906 0.10451216 0.02918274 0.86602545 0.50000006 0 0
0.13682234 0.036221828 0.029419225 0.86602539 0.50000006 0 0
0.12820993 0.05113896 0.029281862 0.86602545 0.50000006 0 0
0.11830855 0.068288654 0.029478349 0.86602545 0.50000006 0 0
0.06630145 0.08827915 0.029420692 -0.5 0.86602545 0 0
0.10221235 0.096168086 0.029423423 0.86602545 0.50000006 0 0
0.054105528 0.081237845 0.029542197 -0.5 0.86602545 0 0
0.073631532 0.092511185 0.02956745 -0.5 0.86602545 0 0
0.14610182 0.020149328 0.029775418 0.86602539 0.50000006 0 0
0.1006978 0.098791376 0.029885435 0.86602545 0.50000006 0 0
0.13905936 0.03234721 0.030244758 0.86602539 0.50000006 0 0
0.11358345 0.076472774 0.030041665 0.86602545 0.50000006 0 0
0.099057525 0.10163242 0.030008461 0.86602545 0.50000006 0 0
0.13842672 0.033442978 0.030295249 0.86602539 0.50000006 0 0
0.11209378 0.079052955 0.030660374 0.86602545 0.50000006 0 0
0.14469656 0.02258331 0.030836448 0.86602539 0.50000006 0 0
0.12046781 0.064548723 0.030785579 0.86602545 0.50000006 0 0
0.11674936 0.070989273 0.030862825 0.86602545 0.50000006 0 0
0.1048456 0.091607191 0.030804293 0.86602545 0.50000006 0 0
0.08396998 0.09848009 0.030986553 -0.5 0.86602545 0 0
0.0675634 0.089007743 0.031221701 -0.5 0.86602545 0 0
0.1373297 0.035343084 0.031330608 0.86602539 0.50000006 0 0
0.11818496 0.068502724 0.031260695 0.86602545 0.50000006 0 0
0.12136168 0.063000515 0.031746361 0.86602545 0.50000006 0 0
0.11461847 0.074680075 0.031569187 0.86602545 0.50000006 0 0
0.13365108 0.041714631 0.031903133 0.86602539 0.50000006 0 0
0.12010256 0.06518136 0.031767976 0.86602545 0.50000006 0 0
0.055002898 0.081755944 0.031976487 -0.5 0.86602545 0 0
0.12514271 0.056451574 0.032191627 0.86602545 0.50000006 0 0
0.12043988 0.0645971 0.032123856 0.86602545 0.50000006 0 0
0.11669271 0.071087398 0.032153983 0.86602545 0.50000006 0 0
0.14073609 0.029443055 0.032423913 0.86602539 0.50000006 0 0
0.13432746 0.04054312 0.03245962 0.86602539 0.50000006 0 0
0.11173327 0.079677381 0.0325322 0.86602545 0.50000006 0 0
0.10897803 0.084449612 0.032733522 0.86602545 0.50000006 0 0
0.097834572 0.10375065 0.032655571 0.86602545 0.50000006 0 0
0.089213334 0.10150734 0.032930106 -0.5 0.86602545 0 0
0.072801933 0.092032209 0.033168525 -0.5 0.86602545 0 0
0.11741071 0.069843762 0.033365391 0.86602545 0.50000006 0 0
0.10470797 0.091845572 0.033314783 0.86602545 0.50000006 0 0
0.10136341 0.097638503 0.03344645 0.86602545 0.50000006 0 0
0.086240418 0.099790923 0.033337671 -0.5 0.86602545 0 0
0.13042054 0.047310092 0.033640396 0.86602539 0.50000006 0 0
0.055532075 0.082061455 0.033700686 -0.5 0.86602545 0 0
0.08750239 0.10051952 0.033996865 -0.5 0.86602545 0 0
0.11724751 0.070126437 0.034222029 0.86602545 0.50000006 0 0
0.10776789 0.086545601 0.034346841 0.86602545 0.50000006 0 0
0.090235926 0.10209773 0.034290437 -0.5 0.86602545 0 0
0.1386738 0.033015031 0.034501061 0.86602539 0.50000006 0 0
0.11135742 0.08032836 0.034537811 0.86602545 0.50000006 0 0
0.10246828 0.095724821 0.034526821 0.86602545 0.50000006 0 0
0.099902391 0.10016906 0.035117172 0.86602545 0.50000006 0 0
0.12471049 0.057200193 0.035483379 0.86602545 0.50000006 0 0
0.05499427 0.081750959 0.035286397 -0.5 0.86602545 0 0
0.13370672 0.041618269 0.03552001 0.86602539 0.50000006 0 0
0.097243086 0.10477512 0.035631478 0.86602545 0.50000006 0 0
0.13775267 0.03461048 0.035968535 0.86602539 0.50000006 0 0
0.11447851 0.074922487 0.035964176 0.86602545 0.50000006 0 0
0.091794096 0.10299734 0.03593858 -0.5 0.86602545 0 0
0.13120319 0.045954511 0.036096424 0.86602539 0.50000006 0 0
0.14521046 0.021693211 0.03664805 0.86602539 0.50000006 0 0
0.11069802 0.08147049 0.036686372 0.86602545 0.50000006 0 0
0.13132145 0.045749664 0.036955923 0.86602539 0.50000006 0 0
0.06610629 0.088166483 0.036828618 -0.5 0.86602545 0 0
0.054806408 0.081642501 0.037072428 -0.5 0.86602545 0 0
0.059247583 0.084206611 0.03720009 -0.5 0.86602545 0 0
0.13346934 0.042029414 0.037309323 0.86602539 0.50000006 0 0
0.12928092 0.049283952 0.037573617 0.86602539 0.50000006 0 0
0.12291899 0.06030314 0.037626863 0.86602545 0.50000006 0 0
0.066444576 0.088361792 0.037576716 -0.5 0.86602545 0 0
0.14506845 0.021939158 0.03789999 0.86602539 0.50000006 0 0
0.13559106 0.038354505 0.037839405 0.86602539 0.50000006 0 0
0.13068892 0.046845227 0.037923399 0.86602539 0.50000006 0 0
0.1102949 0.082168713 0.037809599 0.86602545 0.50000006 0 0
0.060159907 0.084733337 0.037764758 -0.5 0.86602545 0 0
0.076485455 0.094158895 0.037847072 -0.5 0.86602545 0 0
0.14179745 0.02760471 0.03833979 0.86602539 0.50000006 0 0
0.13142306 0.045573674 0.038447879 0.86602539 0.50000006 0 0
0.12284479 0.060431659 0.038299385 0.86602545 0.50000006 0 0
0.11981179 0.065684989 0.038306281 0.86602545 0.50000006 0 0
0.060452029 0.084901996 0.038492631 -0.5 0.86602545 0 0
0.13872981 0.032918017 0.038545962 0.86602539 0.50000006 0 0
0.13019376 0.047702886 0.038778014 0.86602539 0.50000006 0 0
0.12295424 0.060242087 0.039008878 0.86602545 0.50000006 0 0
0.067676924 0.089073285 0.03910134 -0.5 0.86602545 0 0
0.14084393 0.02925624 0.039471172 0.86602539 0.50000006 0 0
0.055984005 0.082322374 0.039499756 -0.5 0.86602545 0 0
0.11979005 0.065722629 0.039732449 0.86602545 0.50000006 0 0
0.11203106 0.079161599 0.039697018 0.86602545 0.50000006 0 0
0.13036996 0.04739771 0.039921232 0.86602539 0.50000006 0 0
0.11698138 0.070587397 0.040152665 0.86602545 0.50000006 0 0
0.10802596 0.086098626 0.040158369 0.86602545 0.50000006 0 0
0.1248573 0.056945913 0.040255953 0.86602545 0.50000006 0 0
0.066782162 0.088556692 0.040320694 -0.5 0.86602545 0 0
0.121513 0.062738389 0.040602755 0.86602545 0.50000006 0 0
0.1214613 0.062827945 0.040678304 0.86602545 0.50000006 0 0
0.062098023 0.08585231 0.040682949 -0.5 0.86602545 0 0
0.059214495 0.084187508 0.040933818 -0.5 0.86602545 0 0
0.10037906 0.099343449 0.041161563 0.86602545 0.50000006 0 0
0.1347311 0.039843991 0.041672893 0.86602539 0.50000006 0 0
0.10294917 0.094891891 0.041639488 0.86602545 0.50000006 0 0
0.10271849 0.095291436 0.041941252 0.86602545 0.50000006 0 0
0.10041757 0.099276751 0.041904252 0.86602545 0.50000006 0 0
0.13718212 0.035598706 0.042150006 0.86602539 0.50000006 0 0
0.064934902 0.087490186 0.04224455 -0.5 0.86602545 0 0
0.097408667 0.10448831 0.042154197 0.86602545 0.50000006 0 0
0.054281831 0.081339628 0.042364765 -0.5 0.86602545 0 0
0.073587812 0.092485934 0.042425781 -0.5 0.86602545 0 0
0.12534335 0.056104049 0.04267991 0.86602539 0.50000006 0 0
0.11899519 0.067099363 0.042503133 0.86602545 0.50000006 0 0
0.11840266 0.068125643 0.04258484 0.86602545 0.50000006 0 0
0.11400383 0.075744681 0.042707507 0.86602545 0.50000006 0 0
0.072538339 0.091880023 0.042525034 -0.5 0.86602545 0 0
0.11197728 0.079254754 0.042800691 0.86602545 0.50000006 0 0
0.05369769 0.08100237 0.042761374 -0.5 0.86602545 0 0
0.1078666 0.086374655 0.042868271 0.86602545 0.50000006 0 0
0.082966402 0.097900674 0.042864207 -0.5 0.86602545 0 0
0.087874129 0.10073415 0.042808816 -0.5 0.86602545 0 0
0.0685606 0.089583471 0.043193776 -0.5 0.86602545 0 0
0.11470239 0.074534714 0.043749887 0.86602545 0.50000006 0 0
0.087204181 0.10034736 0.043840177 -0.5 0.86602545 0 0
0.13621391 0.037275679 0.044203795 0.86602539 0.50000006 0 0
0.13315269 0.042577866 0.044088759 0.86602539 0.50000006 0 0
0.10151744 0.097371712 0.044215746 0.86602545 0.50000006 0 0
0.13771781 0.034670833 0.044691272 0.86602539 0.50000006 0 0
0.1213116 0.06308724 0.044646364 0.86602545 0.50000006 0 0
0.1230681 0.060044885 0.04493716 0.86602545 0.50000006 0 0
0.11715334 0.070289545 0.044986844 0.86602545 0.50000006 0 0
0.13107061 0.046184123 0.045081425 0.86602539 0.50000006 0 0
0.077889055 0.094969273 0.045067396 -0.5 0.86602545 0 0
0.12973922 0.048490167 0.045675524 0.86602539 0.50000006 0 0
0.12982082 0.048348822 0.045593411 0.86602539 0.50000006 0 0
0.065636508 0.087895252 0.045517869 -0.5 0.86602545 0 0
0.12901284 0.049748309 0.045808643 0.86602539 0.50000006 0 0
0.074124441 0.092795767 0.045807928 -0.5 0.86602545 0 0
0.069813818 0.090307027 0.046074182 -0.5 0.86602545 0 0
0.068937331 0.089800984 0.046299037 -0.5 0.86602545 0 0
0.10021013 0.099636048 0.04636693 0.86602545 0.50000006 0 0
0.069384232 0.090058997 0.046675164 -0.5 0.86602545 0 0
0.12667605 0.053795725 0.046813726 0.86602539 0.50000006 0 0
0.13212813 0.044352453 0.047249511 0.86602539 0.50000006 0 0
0.12804571 0.051423416 0.047202028 0.86602539 0.50000006 0 0
0.11698914 0.070573933 0.047106616 0.86602545 0.50000006 0 0
0.10941397 0.083694547 0.047083583 0.86602545 0.50000006 0 0
0.14057453 0.029722877 0.047392212 0.86602539 0.50000006 0 0
0.13420899 0.040748309 0.047331043 0.86602539 0.50000006 0 0
0.13279092 0.043204479 0.047296297 0.86602539 0.50000006 0 0
0.12665749 0.053827889 0.04742248 0.86602539 0.50000006 0 0
0.13723224 0.03551187 0.047839105 0.86602539 0.50000006 0 0
0.11895666 0.06716612 0.047876831 0.86602545 0.50000006 0 0
0.13291568 0.042988386 0.048054941 0.86602539 0.50000006 0 0
0.12496901 0.056752414 0.048150279 0.86602539 0.50000006 0 0
0.063640624 0.08674293 0.048360314 -0.5 0.86602545 0 0
0.099782109 0.10037741 0.048390374 0.86602545 0.50000006 0 0
0.097116381 0.10499457 0.048325576 0.86602545 0.50000006 0 0
0.14337891 0.024865538 0.048701968 0.86602539 0.50000006 0 0
0.083563387 0.098245345 0.048638254 -0.5 0.86602545 0 0
0.14435445 0.023175839 0.049027249 0.86602539 0.50000006 0 0
0.06460616 0.087300383 0.049181022 -0.5 0.86602545 0 0
0.066126071 0.088177904 0.049345937 -0.5 0.86602545 0 0
0.1247866 0.057068355 0.049551021 0.86602539 0.50000006 0 0
0.10160406 0.097221687 0.049502607 0.86602545 0.50000006 0 0
0.086571358 0.099981993 0.049569733 -0.5 0.86602545 0 0
0.087556258 0.10055063 0.049614936 -0.5 0.86602545 0 0
0.10905772 0.084311567 0.049768668 0.86602545 0.50000006 0 0
0.10889535 0.084592812 0.049882047 0.86602545 0.50000006 0 0
0.13811648 0.033980325 0.05005471 0.86602539 0.50000006 0 0
0.078017466 0.095043406 0.050191876 -0.5 0.86602545 0 0
0.085802563 0.099538133 0.050420914 -0.5 0.86602545 0 0
0.10545386 0.090553664 0.05052641 0.86602545 0.50000006 0 0
0.076925322 0.094412856 0.050556816 -0.5 0.86602545 0 0
0.1439084 0.023948438 0.050826468 0.86602539 0.50000006 0 0
0.10828483 0.085650243 0.05082196 0.86602545 0.50000006 0 0
0.12653345 0.054042719 0.051146582 0.86602539 0.50000006 0 0
0.10526279 0.090884581 0.051133156 0.86602545 0.50000006 0 0
0.10489638 0.091519222 0.051122904 0.86602545 0.50000006 0 0
0.13654602 0.036700457 0.051306695 0.86602539 0.50000006 0 0
0.080658272 0.09656807 0.051351171 -0.5 0.86602545 0 0
0.060161136 0.084734045 0.051745664 -0.5 0.86602545 0 0
0.061459377 0.085483588 0.051518321 -0.5 0.86602545 0 0
0.13378961 0.041474674 0.051913507 0.86602539 0.50000006 0 0
0.08394587 0.098466165 0.052366342 -0.5 0.86602545 0 0
0.11270302 0.077997744 0.05263599 0.86602545 0.50000006 0 0
0.11538977 0.073344141 0.052798085 0.86602545 0.50000006 0 0
0.10600071 0.089606456 0.05295812 0.86602545 0.50000006 0 0
0.10635558 0.088991821 0.053120248 0.86602545 0.50000006 0 0
0.10234621 0.095936254 0.053476978 0.86602545 0.50000006 0 0
0.092089839 0.10316809 0.053272165 -0.5 0.86602545 0 0
0.1421677 0.026963416 0.054140158 0.86602539 0.50000006 0 0
0.13993624 0.030828424 0.054075539 0.86602539 0.50000006 0 0
0.13468394 0.039925672 0.054003082 0.86602539 0.50000006 0 0
0.1251862 0.056376219 0.054105695 0.86602539 0.50000006 0 0
0.063222498 0.086501524 0.054086335 -0.5 0.86602545 0 0
0.1414621 0.02818555 0.054396257 0.86602539 0.50000006 0 0
0.14132935 0.028415497 0.05460418 0.86602539 0.50000006 0 0
0.13048993 0.047189906 0.054632619 0.86602539 0.50000006 0 0
0.12046589 0.064552054 0.054675356 0.86602539 0.50000006 0 0
0.10975123 0.083110377 0.054670852 0.86602545 0.50000006 0 0
0.096547738 0.10574186 0.054867133 -0.5 0.86602545 0 0
0.11718865 0.070228375 0.055054292 0.86602545 0.50000006 0 0
0.11377769 0.076136343 0.055201966 0.86602545 0.50000006 0 0
0.10864816 0.085020959 0.055399626 0.86602545 0.50000006 0 0
0.14178678 0.027623169 0.055882208 0.86602539 0.50000006 0 0
0.12456132 0.057458557 0.055957347 0.86602539 0.50000006 0 0
0.084545754 0.098812513 0.055818126 -0.5 0.86602545 0 0
0.099662952 0.10058379 0.055772431 0.86602545 0.50000006 0 0
0.14179382 0.027611002 0.056228347 0.86602539 0.50000006 0 0
0.12050185 0.064489782 0.056095332 0.86602539 0.50000006 0 0
0.054839723 0.081661731 0.056208234 -0.5 0.86602545 0 0
0.13200441 0.044566739 0.05637221 0.86602539 0.50000006 0 0
0.14226383 0.02679693 0.056609862 0.86602539 0.50000006 0 0
0.13598759 0.037667669 0.056693818 0.86602539 0.50000006 0 0
0.1213523 0.06301675 0.05708899 0.86602539 0.50000006 0 0
0.10033511 0.099419579 0.057092372 0.86602545 0.50000006 0 0
0.12645783 0.054173723 0.057351924 0.86602539 0.50000006 0 0
0.065488428 0.087809756 0.057436969 -0.5 0.86602545 0 0
0.10449654 0.092211775 0.057476524 0.86602545 0.50000006 0 0
0.096558228 0.10574792 0.057694297 -0.5 0.86602545 0 0
0.1438926 0.023975782 0.05789452 0.86602539 0.50000006 0 0
0.12198211 0.061925881 0.057821985 0.86602539 0.50000006 0 0
0.10796206 0.08620932 0.058038544 0.86602545 0.50000006 0 0
0.1228189 0.060476512 0.058294676 0.86602539 0.50000006 0 0
0.087207831 0.10034946 0.058477081 -0.5 0.86602545 0 0
0.12768617 0.052046157 0.058614649 0.86602539 0.50000006 0 0
0.07353659 0.092456371 0.058659405 -0.5 0.86602545 0 0
0.13996163 0.030784417 0.058844604 0.86602539 0.50000006 0 0
0.11015528 0.082410544 0.058899011 0.86602545 0.50000006 0 0
0.12595353 0.055047192 0.059125654 0.86602539 0.50000006 0 0
0.078979924 0.09559907 0.059355162 -0.5 0.86602545 0 0
0.090920843 0.10249317 0.059350397 -0.5 0.86602545 0 0
0.14261273 0.026192617 0.059700955 0.86602539 0.50000006 0 0
0.134132 0.040881652 0.059660822 0.86602539 0.50000006 0 0
0.088745989 0.10123752 0.060137972 -0.5 0.86602545 0 0
0.11651311 0.071398452 0.060275439 0.86602539 0.50000006 0 0
0.10989092 0.082868427 0.060542066 0.86602545 0.50000006 0 0
0.075279161 0.093462445 0.061048083 -0.5 0.86602545 0 0
0.083796255 0.098379791 0.061146662 -0.5 0.86602545 0 0
0.081641495 0.09713573 0.061401457 -0.5 0.86602545 0 0
0.055845298 0.082242295 0.061651316 -0.5 0.86602545 0 0
0.10229778 0.096020155 0.061702039 0.86602545 0.50000006 0 0
0.13382381 0.041415468 0.061869062 0.86602539 0.50000006 0 0
0.1282946 0.050992317 0.061800428 0.86602539 0.50000006 0 0
0.12135233 0.063016675 0.061792985 0.86602539 0.50000006 0 0
0.13396369 0.041173179 0.062087543 0.86602539 0.50000006 0 0
0.054886676 0.081688836 0.062492132 -0.5 0.86602545 0 0
0.055719398 0.082169607 0.062344141 -0.5 0.86602545 0 0
0.12448864 0.05758445 0.062663108 0.86602539 0.50000006 0 0
0.058104314 0.083546542 0.062738098 -0.5 0.86602545 0 0
0.098724589 0.10220909 0.062681869 0.86602545 0.50000006 0 0
0.056305695 0.082508102 0.062759757 -0.5 0.86602545 0 0
0.073738962 0.092573211 0.062836275 -0.5 0.86602545 0 0
0.10051315 0.099111199 0.063090213 0.86602545 0.50000006 0 0
0.099325955 0.10116749 0.063021213 0.86602545 0.50000006 0 0
0.097102791 0.10501812 0.06300322 0.86602545 0.50000006 0 0
0.07172545 0.091410704 0.063379705 -0.5 0.86602545 0 0
0.11724143 0.070136987 0.06392277 0.86602539 0.50000006 0 0
0.11474618 0.074458867 0.063827828 0.86602539 0.50000006 0 0
0.11313919 0.077242255 0.063923016 0.86602545 0.50000006 0 0
0.066152118 0.08819294 0.06398093 -0.5 0.86602545 0 0
0.066190064 0.088214844 0.064390279 -0.5 0.86602545 0 0
0.10299031 0.094820634 0.064463481 0.86602545 0.50000006 0 0
0.092190981 0.10322648 0.064479344 -0.5 0.86602545 0 0
0.098302051 0.10294095 0.06460198 0.86602545 0.50000006 0 0
0.143573 0.024529357 0.064932629 0.86602539 0.50000006 0 0
0.10937957 0.083754115 0.064910881 0.86602545 0.50000006 0 0
0.13410085 0.040935602 0.065037996 0.86602539 0.50000006 0 0
0.12111086 0.063434944 0.065040775 0.86602539 0.50000006 0 0
0.092975445 0.1036794 0.065445185 -0.5 0.86602545 0 0
0.12114872 0.063369349 0.065864518 0.86602539 0.50000006 0 0
0.089884609 0.1018949 0.065805763 -0.5 0.86602545 0 0
0.13086265 0.046544336 0.066138506 0.86602539 0.50000006 0 0
0.12202133 0.061857939 0.066135906 0.86602539 0.50000006 0 0
0.12367875 0.058987215 0.066277295 0.86602539 0.50000006 0 0
0.055368461 0.081966996 0.066389844 -0.5 0.86602545 0 0
0.091038153 0.1025609 0.066530272 -0.5 0.86602545 0 0
0.074625015 0.093084767 0.066818826 -0.5 0.86602545 0 0
0.13924673 0.032022674 0.067118026 0.86602539 0.50000006 0 0
0.11492273 0.074153073 0.067402579 0.86602539 0.50000006 0 0
0.059062019 0.084099472 0.067305706 -0.5 0.86602545 0 0
0.11002605 0.082634389 0.067670025 0.86602545 0.50000006 0 0
0.10883828 0.084691674 0.067695618 0.86602545 0.50000006 0 0
0.11701815 0.070523694 0.067863032 0.86602539 0.50000006 0 0
0.13569343 0.038177155 0.068105511 0.86602539 0.50000006 0 0
0.13003613 0.047975898 0.068032026 0.86602539 0.50000006 0 0
0.064029105 0.086967222 0.068160318 -0.5 0.86602545 0 0
0.059132151 0.084139958 0.068265244 -0.5 0.86602545 0 0
0.081846535 0.09725412 0.06835255 -0.5 0.86602545 0 0
0.14478004 0.022438698 0.068507545 0.86602539 0.50000006 0 0
0.11515483 0.073751047 0.068685852 0.86602539 0.50000006 0 0
0.10817118 0.085847087 0.069045827 0.86602545 0.50000006 0 0
0.11347379 0.076662719 0.069426224 0.86602539 0.50000006 0 0
0.11205543 0.079119399 0.069276303 0.86602539 0.50000006 0 0
0.066022009 0.088117823 0.069375232 -0.5 0.86602545 0 0
0.14650533 0.019450415 0.069671214 0.86602539 0.50000006 0 0
0.14625569 0.019882817 0.069611572 0.86602539 0.50000006 0 0
0.12096573 0.063686289 0.069604158 0.86602539 0.50000006 0 0
0.068494037 0.089545041 0.069722779 -0.5 0.86602545 0 0
0.10305238 0.094713137 0.069645815 0.86602545 0.50000006 0 0
0.111076 0.080815785 0.069778621 0.86602545 0.50000006 0 0
0.10554763 0.090391219 0.069776699 0.86602545 0.50000006 0 0
0.10198329 0.096564837 0.07013265 0.86602545 0.50000006 0 0
0.14223909 0.026839752 0.070471786 0.86602539 0.50000006 0 0
0.061601099 0.085565411 0.070568725 -0.5 0.86602545 0 0
0.091847546 0.10302821 0.07063999 -0.5 0.86602545 0 0
0.14637826 0.019670509 0.070853852 0.86602539 0.50000006 0 0
0.11045151 0.08189743 0.070961185 0.86602545 0.50000006 0 0
0.097030818 0.10514276 0.0708571 0.86602545 0.50000006 0 0
0.067262731 0.088834152 0.071052819 -0.5 0.86602545 0 0
0.10269932 0.095324658 0.071118496 0.86602545 0.50000006 0 0
0.14119434 0.0286493 0.07130824 0.86602539 0.50000006 0 0
0.13534093 0.038787734 0.07126803 0.86602539 0.50000006 0 0
0.067660645 0.089063898 0.071276173 -0.5 0.86602545 0 0
0.14536734 0.021421455 0.071842425 0.86602539 0.50000006 0 0
0.10021292 0.099631213 0.072113246 0.86602545 0.50000006 0 0
0.14522021 0.021676335 0.072423905 0.86602539 0.50000006 0 0
0.13585712 0.037893664 0.072480686 0.86602539 0.50000006 0 0
0.13632023 0.037091527 0.072543688 0.86602539 0.50000006 0 0
0.11600794 0.072273433 0.072532646 0.86602539 0.50000006 0 0
0.11289689 0.077661932 0.07294514 0.86602539 0.50000006 0 0
0.14265722 0.026115533 0.073009029 0.86602539 0.50000006 0 0
0.12448771 0.057586052 0.073238522 0.86602539 0.50000006 0 0
0.080453038 0.096449584 0.07321012 -0.5 0.86602545 0 0
0.12392801 0.058555484 0.07334087 0.86602539 0.50000006 0 0
0.11724252 0.070135102 0.073459029 0.86602539 0.50000006 0 0
0.1138354 0.076036386 0.073469162 0.86602539 0.50000006 0 0
0.10252184 0.095632046 0.073425315 0.86602545 0.50000006 0 0
0.13695136 0.035998389 0.073524483 0.86602539 0.50000006 0 0
0.11673501 0.071014114 0.073614299 0.86602539 0.50000006 0 0
0.13856341 0.033206232 0.073989376 0.86602539 0.50000006 0 0
0.12347117 0.05934675 0.073905528 0.86602539 0.50000006 0 0
0.11517303 0.073719554 0.073836565 0.86602539 0.50000006 0 0
0.12500226 0.056694806 0.074157968 0.86602539 0.50000006 0 0
0.12930569 0.049241059 0.074382238 0.86602539 0.50000006 0 0
0.10078116 0.098647006 0.074647792 0.86602545 0.50000006 0 0
0.13977221 0.031112529 0.07497856 0.86602539 0.50000006 0 0
0.063678265 0.086764663 0.074965239 -0.5 0.86602545 0 0
0.10145428 0.097481109 0.075202413 0.86602545 0.50000006 0 0
0.10019252 0.099666566 0.075236045 0.86602545 0.50000006 0 0
0.13223404 0.044169027 0.075332977 0.86602539 0.50000006 0 0
0.12779531 0.051857129 0.075440124 0.86602539 0.50000006 0 0
0.12222262 0.061509311 0.075294808 0.86602539 0.50000006 0 0
0.11721209 0.070187807 0.075358048 0.86602539 0.50000006 0 0
0.11551127 0.0731337 0.075344943 0.86602539 0.50000006 0 0
0.066314831 0.088286884 0.075419486 -0.5 0.86602545 0 0
0.082237467 0.097479828 0.075418808 -0.5 0.86602545 0 0
0.1312153 0.045933507 0.075500533 0.86602539 0.50000006 0 0
0.12096787 0.063682593 0.075744405 0.86602539 0.50000006 0 0
0.06176275 0.085658744 0.07570114 -0.5 0.86602545 0 0
0.13752623 0.035002671 0.076020159 0.86602539 0.50000006 0 0
0.068401396 0.089491561 0.076064296 -0.5 0.86602545 0 0
0.073747784 0.092578299 0.076120205 -0.5 0.86602545 0 0
0.093809925 0.10416118 0.076181643 -0.5 0.86602545 0 0
0.12344567 0.059390917 0.076351956 0.86602539 0.50000006 0 0
0.056135941 0.082410097 0.076465659 -0.5 0.86602545 0 0
0.14088385 0.029187102 0.076851681 0.86602539 0.50000006 0 0
0.12234946 0.061289601 0.076851666 0.86602539 0.50000006 0 0
0.13657407 0.036651853 0.077129409 0.86602539 0.50000006 0 0
0.061457373 0.085482426 0.077194229 -0.5 0.86602545 0 0
0.11050284 0.08180856 0.077282026 0.86602539 0.50000006 0 0
0.12881164 0.050096795 0.077825531 0.86602539 0.50000006 0 0
0.11841077 0.068111613 0.077982962 0.86602539 0.50000006 0 0
0.14521654 0.021682668 0.078218684 0.86602539 0.50000006 0 0
0.12671727 0.053724341 0.078049213 0.86602539 0.50000006 0 0
0.1120064 0.079204291 0.078070968 0.86602539 0.50000006 0 0
0.074483968 0.093003348 0.078030579 -0.5 0.86602545 0 0
0.11857174 0.067832813 0.078305118 0.86602539 0.50000006 0 0
0.07846792 0.095303476 0.078280739 -0.5 0.86602545 0 0
0.093132675 0.10377018 0.078369252 -0.5 0.86602545 0 0
0.13647351 0.036826055 0.078532659 0.86602539 0.50000006 0 0
0.13539581 0.038692661 0.078988113 0.86602539 0.50000006 0 0
0.14570549 0.020835783 0.07912758 0.86602539 0.50000006 0 0
0.13137908 0.045649849 0.079379588 0.86602539 0.50000006 0 0
0.11424592 0.07532534 0.079558469 0.86602539 0.50000006 0 0
0.11166145 0.079801798 0.079683371 0.86602539 0.50000006 0 0
0.06341704 0.086613841 0.079759702 -0.5 0.86602545 0 0
0.11339553 0.07679826 0.080210432 0.86602539 0.50000006 0 0
0.10722531 0.087485395 0.080128618 0.86602539 0.50000006 0 0
0.083823636 0.098395593 0.080094859 -0.5 0.86602545 0 0
0.10488622 0.09153682 0.080292195 0.86602545 0.50000006 0 0
0.12363157 0.059068933 0.08059445 0.86602539 0.50000006 0 0
0.13993584 0.030829117 0.080934331 0.86602539 0.50000006 0 0
0.10853139 0.085223228 0.080806047 0.86602539 0.50000006 0 0
0.11890039 0.067263566 0.081369705 0.86602539 0.50000006 0 0
0.10803801 0.086077772 0.081423819 0.86602539 0.50000006 0 0
0.071363151 0.091201529 0.081363507 -0.5 0.86602545 0 0
0.13468689 0.039920557 0.081685781 0.86602539 0.50000006 0 0
0.1219032 0.062062576 0.081574261 0.86602539 0.50000006 0 0
0.095927276 0.10538363 0.081654452 -0.5 0.86602545 0 0
0.13550887 0.038496871 0.08188349 0.86602539 0.50000006 0 0
0.11318372 0.077165127 0.081925653 0.86602539 0.50000006 0 0
0.1181345 0.068590142 0.082226031 0.86602539 0.50000006 0 0
0.10907648 0.08427909 0.082149476 0.86602539 0.50000006 0 0
0.13688582 0.036111906 0.082433037 0.86602539 0.50000006 0 0
0.12292966 0.060284674 0.082410634 0.86602539 0.50000006 0 0
0.083005197 0.09792307 0.082400903 -0.5 0.86602545 0 0
0.089027055 0.10139979 0.082279831 -0.5 0.86602545 0 0
0.078658298 0.095413387 0.08260043 -0.5 0.86602545 0 0
0.09956561 0.10075238 0.082702957 0.86602545 0.50000006 0 0
0.056341037 0.082528509 0.083132118 -0.5 0.86602545 0 0
0.10611738 0.089404389 0.083151415 0.86602539 0.50000006 0 0
0.10171045 0.09703742 0.083808124 0.86602545 0.50000006 0 0
0.11304555 0.077404454 0.084133975 0.86602539 0.50000006 0 0
0.14363277 0.024425834 0.0843485 0.86602539 0.50000006 0 0
0.12334707 0.059561707 0.084251538 0.86602539 0.50000006 0 0
0.13825783 0.033735495 0.08462438 0.86602539 0.50000006 0 0
0.093679309 0.10408577 0.084530324 -0.5 0.86602545 0 0
0.072497055 0.091856197 0.084964179 -0.5 0.86602545 0 0
0.12729228 0.052728392 0.085106209 0.86602539 0.50000006 0 0
0.12034892 0.064754657 0.085183151 0.86602539 0.50000006 0 0
0.083427101 0.098166659 0.085008465 -0.5 0.86602545 0 0
0.1088262 0.084712565 0.085736156 0.86602539 0.50000006 0 0
0.099743627 0.10044405 0.085509397 0.86602545 0.50000006 0 0
0.1441256 0.023572233 0.085919052 0.86602539 0.50000006 0 0
0.071455821 0.091255039 0.085962169 -0.5 0.86602545 0 0
0.094885372 0.1047821 0.085835963 -0.5 0.86602545 0 0
0.1165451 0.071343064 0.086116135 0.86602539 0.50000006 0 0
0.10925625 0.083967701 0.086673781 0.86602539 0.50000006 0 0
0.10142618 0.097529769 0.08664763 0.86602545 0.50000006 0 0
0.093110666 0.10375746 0.086732939 -0.5 0.86602545 0 0
0.11932851 0.066522062 0.087121561 0.86602539 0.50000006 0 0
0.11027602 0.082201406 0.087433323 0.86602539 0.50000006 0 0
0.10731062 0.087337643 0.08788003 0.86602539 0.50000006 0 0
0.063273698 0.086531088 0.088046156 -0.5 0.86602545 0 0
0.070415586 0.090654455 0.088456437 -0.5 0.86602545 0 0
0.10098971 0.098285794 0.088978559 0.86602545 0.50000006 0 0
0.084427498 0.098744236 0.089061007 -0.5 0.86602545 0 0
0.13168247 0.045124367 0.089692853 0.86602539 0.50000006 0 0
0.062091067 0.085848294 0.089676082 -0.5 0.86602545 0 0
0.14093085 0.029105708 0.089814052 0.86602539 0.50000006 0 0
0.088879362 0.10131451 0.09017995 -0.5 0.86602545 0 0
0.12301371 0.06013909 0.090897664 0.86602539 0.50000006 0 0
0.076922596 0.094411276 0.090790018 -0.5 0.86602545 0 0
0.11927005 0.066623308 0.091308236 0.86602539 0.50000006 0 0
0.11440419 0.075051226 0.091365881 0.86602539 0.50000006 0 0
0.12441063 0.057719558 0.091636613 0.86602539 0.50000006 0 0
0.10141337 0.097551979 0.091564834 0.86602539 0.50000006 0 0
0.091939695 0.10308141 0.091516227 -0.5 0.86602545 0 0
0.13386369 0.041346364 0.092162125 0.86602539 0.50000006 0 0
0.071418807 0.091233663 0.092167646 -0.5 0.86602545 0 0
0.098107383 0.10327812 0.092193745 0.86602545 0.50000006 0 0
0.10034198 0.099407688 0.092305526 0.86602545 0.50000006 0 0
0.14154352 0.028044507 0.092709444 0.86602539 0.50000006 0 0
0.11018168 0.08236482 0.092650659 0.86602539 0.50000006 0 0
0.075396344 0.093530104 0.092658013 -0.5 0.86602545 0 0
0.053709876 0.081009403 0.092972957 -0.5 0.86602545 0 0
0.065541618 0.087840468 0.093742862 -0.5 0.86602545 0 0
0.13936193 0.031823155 0.093929194 0.86602539 0.50000006 0 0
0.11345178 0.076700851 0.09398447 0.86602539 0.50000006 0 0
0.10933346 0.083833978 0.093833312 0.86602539 0.50000006 0 0
0.099599212 0.10069419 0.0937787 0.86602545 0.50000006 0 0
0.12300747 0.060149908 0.094121948 0.86602539 0.50000006 0 0
0.1168779 0.070766635 0.094151475 0.86602539 0.50000006 0 0
0.099876165 0.10021449 0.094293371 0.86602539 0.50000006 0 0
0.090541206 0.10227399 0.09436734 -0.5 0.86602545 0 0
0.10643134 0.088860601 0.094671406 0.86602539 0.50000006 0 0
0.079370461 0.095824555 0.094724916 -0.5 0.86602545 0 0
0.098879822 0.10194019 0.094636515 0.86602545 0.50000006 0 0
0.095454186 0.1051105 0.094552577 -0.5 0.86602545 0 0
0.054042798 0.08120162 0.09487889 -0.5 0.86602545 0 0
0.10291547 0.094950274 0.094815619 0.86602539 0.50000006 0 0
0.084815979 0.098968521 0.094921276 -0.5 0.86602545 0 0
0.12033282 0.064782545 0.095060073 0.86602539 0.50000006 0 0
0.11523247 0.073616602 0.095298976 0.86602539 0.50000006 0 0
0.068578556 0.089593843 0.095384091 -0.5 0.86602545 0 0
0.07576938 0.09374547 0.095321029 -0.5 0.86602545 0 0
0.087907977 0.10075369 0.095461309 -0.5 0.86602545 0 0
0.080799989 0.096649893 0.095959708 -0.5 0.86602545 0 0
0.11248386 0.078377314 0.096039832 0.86602539 0.50000006 0 0
0.078926198 0.095568061 0.096209586 -0.5 0.86602545 0 0
0.094417624 0.10451204 0.096233115 -0.5 0.86602545 0 0
0.13687524 0.03613022 0.096347816 0.86602539 0.50000006 0 0
0.098432146 0.1027156 0.096335419 0.86602545 0.50000006 0 0
0.12995219 0.048121303 0.096856996 0.86602539 0.50000006 0 0
0.10387281 0.093292095 0.096834056 0.86602539 0.50000006 0 0
0.11265333 0.078083798 0.09741047 0.86602539 0.50000006 0 0
0.06090245 0.085162044 0.097428761 -0.5 0.86602545 0 0
0.11242715 0.07847555 0.097654231 0.86602539 0.50000006 0 0
0.1398719 0.03093987 0.097895674 0.86602539 0.50000006 0 0
0.111494 0.080091812 0.097848199 0.86602539 0.50000006 0 0
0.071680605 0.091384821 0.097985394 -0.5 0.86602545 0 0
0.07755515 0.094776481 0.098014444 -0.5 0.86602545 0 0
0.11783797 0.069103755 0.098335788 0.86602539 0.50000006 0 0
0.083282486 0.098083168 0.098460324 -0.5 0.86602545 0 0
0.10021301 0.099631056 0.098355033 0.86602539 0.50000006 0 0
0.098949037 0.10182033 0.098390207 0.86602539 0.50000006 0 0
0.13507321 0.039251428 0.098544255 0.86602539 0.50000006 0 0
0.082571849 0.097672872 0.099061608 -0.5 0.86602545 0 0
0.1059216 0.08974348 0.099371903 0.86602539 0.50000006 0 0
0.08423622 0.098633796 0.099662855 -0.5 0.86602545 0 0
0.12516278 0.05641678 0.099941626 0.86602539 0.50000006 0 0
0.096992977 0.10520833 0.10018323 0.86602539 0.50000006 0 0
0.13386948 0.041336335 0.10032348 0.86602539 0.50000006 0 0
0.11339917 0.076791957 0.10046412 0.86602539 0.50000006 0 0
0.12259479 0.060864702 0.10088348 0.86602539 0.50000006 0 0
0.11202459 0.079172798 0.10079524 0.86602539 0.50000006 0 0
0.12953116 0.048850529 0.10121198 0.86602539 0.50000006 0 0
0.14540732 0.021352235 0.10140105 0.86602539 0.50000006 0 0
0.10741693 0.087153517 0.10159609 0.86602539 0.50000006 0 0
0.10554632 0.090393499 0.10176802 0.86602539 0.50000006 0 0
0.099492744 0.10087858 0.10182425 0.86602539 0.50000006 0 0
0.14433524 0.02320911 0.10220437 0.86602539 0.50000006 0 0
0.13850217 0.03331231 0.10206741 0.86602539 0.50000006 0 0
0.11267275 0.078050166 0.10213304 0.86602539 0.50000006 0 0
0.10273482 0.095263161 0.10220286 0.86602539 0.50000006 0 0
0.12672892 0.053704143 0.10233139 0.86602539 0.50000006 0 0
0.10891397 0.084560558 0.10241806 0.86602539 0.50000006 0 0
0.14144471 0.028215654 0.10270731 0.86602539 0.50000006 0 0
0.11523033 0.073620304 0.10267372 0.86602539 0.50000006 0 0
0.10326876 0.094338365 0.10256414 0.86602539 0.50000006 0 0
0.1023868 0.095865928 0.10324186 0.86602539 0.50000006 0 0
0.13462171 0.040033437 0.10366397 0.86602539 0.50000006 0 0
0.14636499 0.019693501 0.10384806 0.86602539 0.50000006 0 0
0.11117743 0.080640137 0.10385577 0.86602539 0.50000006 0 0
0.099093646 0.10156985 0.10384393 0.86602533 0.50000012 9.3132243e-08 0
0.11728848 0.070055485 0.10402328 0.86602539 0.50000006 0 0
0.11995834 0.065431148 0.10432583 0.86602539 0.50000006 0 0
0.14405535 0.023693927 0.10503123 0.86602539 0.50000006 0 0
0.1164796 0.071456492 0.10530532 0.86602539 0.50000006 0 0
0.14140061 0.028292049 0.1056756 0.86602539 0.50000006 0 0
0.11550701 0.073141083 0.10567856 0.86602539 0.50000006 0 0
0.14266777 0.02609726 0.10619369 0.86602539 0.50000006 0 0
0.1364477 0.036870752 0.10620252 0.86602539 0.50000006 0 0
0.103811 0.093399145 0.10602029 0.86602539 0.50000006 0 0
0.14410514 0.023607664 0.10634681 0.86602539 0.50000006 0 0
0.13128361 0.045815207 0.10654697 0.86602539 0.50000006 0 0
0.10218477 0.096215874 0.10670778 0.86602533 0.50000012 9.3132243e-08 0
0.10338461 0.094137676 0.10700794 0.86602533 0.50000012 9.3132243e-08 0
0.14047499 0.029895265 0.10730447 0.86602539 0.50000006 0 0
0.13985743 0.03096493 0.10727426 0.86602539 0.50000006 0 0
0.12942836 0.049028613 0.10826647 0.86602539 0.50000006 0 0
0.12878621 0.050140835 0.10831998 0.86602539 0.50000006 0 0
0.10418744 0.092747152 0.10858432 0.86602533 0.50000012 9.3132243e-08 0
0.1286355 0.050401859 0.10946325 0.86602539 0.50000006 0 0
0.12086399 0.063862525 0.10942543 0.86602539 0.50000006 0 0
0.11435892 0.075129636 0.10928229 0.86602539 0.50000006 0 0
0.10799836 0.086146444 0.10952906 0.86602539 0.50000006 0 0
0.14571927 0.020811915 0.11012495 0.86602539 0.50000006 0 0
0.1295903 0.048748098 0.11011288 0.86602539 0.50000006 0 0
0.11656214 0.07131356 0.11007371 0.86602539 0.50000006 0 0
0.14404835 0.023706038 0.11029691 0.86602539 0.50000006 0 0
0.12154855 0.062676825 0.11043989 0.86602539 0.50000006 0 0
0.13008092 0.047898322 0.11075386 0.86602539 0.50000006 0 0
0.12256802 0.060911052 0.11101772 0.86602539 0.50000006 0 0
0.14558995 0.021035906 0.11175384 0.86602539 0.50000006 0 0
0.1237233 0.058910057 0.11208165 0.86602539 0.50000006 0 0
0.11557312 0.073026575 0.11213399 0.86602539 0.50000006 0 0
0.13780102 0.034526713 0.11226976 0.86602539 0.50000006 0 0
0.12721024 0.052870475 0.11231527 0.86602539 0.50000006 0 0
0.11670209 0.071071118 0.11283357 0.86602539 0.50000006 0 0
0.12321583 0.059789009 0.11324285 0.86602539 0.50000006 0 0
0.12211362 0.061698109 0.11312666 0.86602539 0.50000006 0 0
0.14462145 0.022713389 0.11329693 0.86602539 0.50000006 0 0
0.13204744 0.044492204 0.11330789 0.86602539 0.50000006 0 0
0.11872707 0.067563772 0.11361612 0.86602539 0.50000006 0 0
0.12573785 0.055420771 0.11413188 0.86602539 0.50000006 0 0
0.13257428 0.043579713 0.11427817 0.86602539 0.50000006 0 0
0.11087653 0.081161305 0.11436731 0.86602533 0.50000012 9.3132243e-08 0
0.12694833 0.053324126 0.11476795 0.86602539 0.50000006 0 0
0.13421671 0.040734917 0.1151166 0.86602539 0.50000006 0 0
0.13269366 0.043372933 0.11520293 0.86602539 0.50000006 0 0
0.12256195 0.060921557 0.11514211 0.86602539 0.50000006 0 0
0.11609478 0.072123021 0.11521243 0.86602539 0.50000006 0 0
0.13686384 0.036149971 0.11532768 0.86602539 0.50000006 0 0
0.11907088 0.066968285 0.11600755 0.86602539 0.50000006 0 0
0.11859296 0.067796044 0.11644053 0.86602539 0.50000006 0 0
0.11106525 0.080834419 0.11652912 0.86602533 0.50000012 9.3132243e-08 0
0.14662375 0.019245312 0.11725219 0.86602539 0.50000006 0 0
0.13334423 0.042246103 0.11737485 0.86602539 0.50000006 0 0
0.13621467 0.037274353 0.11864589 0.86602539 0.50000006 0 0
0.12070413 0.064139426 0.11870199 0.86602539 0.50000006 0 0
0.12016503 0.065073155 0.11866008 0.86602539 0.50000006 0 0
0.13884327 0.03272149 0.1190851 0.86602539 0.50000006 0 0
0.13524996 0.038945306 0.11939055 0.86602539 0.50000006 0 0
0.12831073 0.050964393 0.11933257 0.86602539 0.50000006 0 0
0.12482632 0.056999557 0.11959556 0.86602539 0.50000006 0 0
0.12322822 0.059767559 0.12056565 0.86602539 0.50000006 0 0
0.14368823 0.024329759 0.12075327 0.86602539 0.50000006 0 0
0.13608447 0.037499886 0.12094994 0.86602539 0.50000006 0 0
0.1254337 0.05594755 0.12091246 0.86602539 0.50000006 0 0
0.11031125 0.082140386 0.12171905 0.86602533 0.50000012 9.3132243e-08 0
0.11654116 0.071349882 0.12182324 0.86602533 0.50000012 9.3132243e-08 0
0.14372356 0.024268568 0.12211953 0.86602539 0.50000006 0 0
0.1335005 0.041975442 0.12221308 0.86602539 0.50000006 0 0
0.11094823 0.081037119 0.12209845 0.86602533 0.50000012 9.3132243e-08 0
0.14118744 0.028661281 0.12254231 0.86602539 0.50000006 0 0
0.11244245 0.078449056 0.12340699 0.86602533 0.50000012 9.3132243e-08 0
0.10847022 0.085329175 0.12348822 0.86602533 0.50000012 9.3132243e-08 0
0.14470601 0.022566911 0.12359768 0.86602539 0.50000006 0 0
0.11851733 0.06792704 0.12401444 0.86602533 0.50000012 9.3132243e-08 0
0.13981231 0.031043082 0.12441339 0.86602539 0.50000006 0 0
0.12847394 0.050681718 0.12438266 0.86602539 0.50000006 0 0
0.14417416 0.023488138 0.12469304 0.86602539 0.50000006 0 0
0.14242142 0.026523944 0.12452713 0.86602539 0.50000006 0 0
0.1169393 0.070660271 0.12490202 0.86602533 0.50000012 9.3132243e-08 0
0.13695532 0.035991535 0.12504268 0.86602539 0.50000006 0 0
0.11811704 0.068620369 0.12519649 0.86602533 0.50000012 9.3132243e-08 0
0.13456258 0.040135853 0.12624526 0.86602539 0.50000006 0 0
0.12664823 0.053843915 0.12604554 0.86602539 0.50000006 0 0
0.11038145 0.082018808 0.1262842 0.86602533 0.50000012 9.3132243e-08 0
0.1195511 0.066136509 0.12702143 0.86602533 0.50000012 9.3132243e-08 0
0.13047747 0.047211483 0.12742385 0.86602539 0.50000006 0 0
0.13271344 0.043338679 0.12759899 0.86602539 0.50000006 0 0
0.11963241 0.065995686 0.12792626 0.86602533 0.50000012 9.3132243e-08 0
0.14402047 0.023754321 0.12803234 0.86602539 0.50000006 0 0
0.13029975 0.047519311 0.12823355 0.86602539 0.50000006 0 0
0.12930119 0.049248867 0.12804037 0.86602539 0.50000006 0 0
0.11581719 0.072603829 0.12845398 0.86602533 0.50000012 9.3132243e-08 0
0.12368609 0.058974501 0.12861888 0.86602533 0.50000012 9.3132243e-08 0
0.1215012 0.062758848 0.12851343 0.86602533 0.50000012 9.3132243e-08 0
0.11416918 0.075458273 0.1288484 0.86602533 0.50000012 9.3132243e-08 0
0.14381938 0.024102636 0.12941417 0.86602539 0.50000006 0 0
0.12478814 0.057065688 0.12962721 0.86602533 0.50000012 9.3132243e-08 0
0.13583694 0.037928596 0.13089171 0.86602539 0.50000006 0 0
0.12413155 0.058202937 0.13097709 0.86602533 0.50000012 9.3132243e-08 0
0.12372931 0.058899641 0.13095111 0.86602533 0.50000012 9.3132243e-08 0
0.13523445 0.038972147 0.1311077 0.86602539 0.50000006 0 0
0.13489322 0.039563183 0.13130628 0.86602539 0.50000006 0 0
0.11993977 0.065463282 0.13141821 0.86602533 0.50000012 9.3132243e-08 0
0.13502768 0.039330304 0.13169341 0.86602539 0.50000006 0 0
0.12253293 0.060971834 0.13211241 0.86602533 0.50000012 9.3132243e-08 0
0.11432428 0.07518962 0.13216729 0.86602533 0.50000012 9.3132243e-08 0
0.1350925 0.03921802 0.13227895 0.86602539 0.50000006 0 0
0.14654835 0.019375935 0.13294141 0.86602539 0.50000006 0 0
0.11724859 0.070124581 0.13332032 0.86602533 0.50000012 9.3132243e-08 0
0.1398094 0.031048104 0.13350894 0.86602539 0.50000006 0 0
0.12785116 0.051760375 0.13412605 0.86602533 0.50000012 9.3132243e-08 0
0.13668776 0.036454957 0.13441023 0.86602539 0.50000006 0 0
0.13469738 0.039902397 0.13428429 0.86602539 0.50000006 0 0
0.14646952 0.019512437 0.13458131 0.86602539 0.50000006 0 0
0.12239727 0.061206777 0.13474731 0.86602533 0.50000012 9.3132243e-08 0
0.13802977 0.03413051 0.13500077 0.86602539 0.50000006 0 0
0.13810983 0.033991862 0.13539721 0.86602539 0.50000006 0 0
0.11717039 0.070260018 0.13525829 0.86602533 0.50000012 9.3132243e-08 0
0.12468311 0.057247609 0.13551053 0.86602533 0.50000012 9.3132243e-08 0
0.12138594 0.062958471 0.13566726 0.86602533 0.50000012 9.3132243e-08 0
0.14219755 0.026911715 0.13596974 0.86602539 0.50000006 0 0
0.13396694 0.041167546 0.13593918 0.86602539 0.50000006 0 0
0.12962967 0.048679918 0.13599135 0.86602533 0.50000012 9.3132243e-08 0
0.12479525 0.05705338 0.1359632 0.86602533 0.50000012 9.3132243e-08 0
0.11559447 0.07298959 0.13645567 0.86602533 0.50000012 9.3132243e-08 0
0.13932078 0.031894453 0.13671602 0.86602539 0.50000006 0 0
0.13560474 0.038330786 0.13704918 0.86602539 0.50000006 0 0
0.14120057 0.028638527 0.13730423 0.86602539 0.50000006 0 0
0.13404498 0.04103237 0.13734885 0.86602539 0.50000006 0 0
0.12979916 0.048386361 0.13733695 0.86602533 0.50000012 9.3132243e-08 0
0.1352872 0.038880788 0.13772318 0.86602539 0.50000006 0 0
0.12298273 0.060192749 0.13772261 0.86602533 0.50000012 9.3132243e-08 0
0.13991374 0.030867379 0.13852634 0.86602539 0.50000006 0 0
0.11810985 0.068632826 0.13895905 0.86602533 0.50000012 9.3132243e-08 0
0.13563092 0.038285438 0.13917293 0.86602533 0.50000012 9.3132243e-08 0
0.13648994 0.036797591 0.14014076 0.86602533 0.50000012 9.3132243e-08 0
0.12537038 0.056057207 0.14023213 0.86602533 0.50000012 9.3132243e-08 0
0.12205259 0.06180381 0.14040825 0.86602533 0.50000012 9.3132243e-08 0
0.13026059 0.047587115 0.14104682 0.86602533 0.50000012 9.3132243e-08 0
0.12094007 0.063730732 0.14264828 0.86602533 0.50000012 9.3132243e-08 0
0.14600644 0.02031453 0.14292751 0.86602539 0.50000006 0 0
0.12169271 0.062427115 0.1454713 0.86602533 0.50000012 9.3132243e-08 0
0.12640317 0.054268368 0.14663832 0.86602533 0.50000012 9.3132243e-08 0
0.13540225 0.038681518 0.14687775 0.86602533 0.50000012 9.3132243e-08 0
0.1223887 0.061221637 0.1470498 0.86602533 0.50000012 9.3132243e-08 0
0.1278621 0.051741451 0.14754438 0.86602533 0.50000012 9.3132243e-08 0
0.1249657 0.056758147 0.14754392 0.86602533 0.50000012 9.3132243e-08 0
0.14103249 0.028929658 0.14812391 0.86602533 0.50000012 9.3132243e-08 0
0.13653052 0.036727294 0.14839302 0.86602533 0.50000012 9.3132243e-08 0
0.14625818 0.01987849 0.14907497 0.86602539 0.50000006 0 0
0.092755437 0.041625876 0.14999999 0 0 1 0
0.13365091 0.04171494 0.14977674 0.86602533 0.50000012 9.3132243e-08 0
0.11145194 -0.00090326276 0.15000001 0 0 1 0
0.10834306 0.00077521056 0.15000001 0 0 1 0
0.1061613 0.0015396039 0.15000001 0 0 1 0
0.10287488 0.0037761177 0.15000001 0 0 1 0
0.10387982 0.0058863843 0.15000001 0 0 1 0
0.098742299 0.0060788291 0.15000001 0 0 1 0
0.11342528 0.0065739639 0.15000001 0 0 1 0
0.12107249 0.0068571754 0.15000001 0 0 1 0
0.10990099 0.0073908246 0.15000001 0 0 1 0
0.11369462 0.0073826858 0.15000001 0 0 1 0
0.10726486 0.0075563341 0.15000001 0 0 1 0
0.11190714 0.0089654941 0.15000001 0 0 1 0
0.13027076 0.010010857 0.15000001 0 0 1 0
0.10708927 0.010734548 0.15000001 0 0 1 0
0.11617918 0.010545817 0.15000001 0 0 1 0
0.12541513 0.010613501 0.15000001 0 0 1 0
0.12085818 0.010857548 0.15000001 0 0 1 0
0.12926112 0.010817594 0.15000001 0 0 1 0
0.11479563 0.012163034 0.15000001 0 0 1 0
0.1162423 0.012365522 0.15000001 0 0 1 0
0.11739267 0.01317602 0.15000001 0 0 1 0
0.097091235 0.013630653 0.15000001 0 0 1 0
0.096477419 0.013776245 0.15000001 0 0 1 0
0.099555425 0.013998184 0.15000001 0 0 1 0
0.13110763 0.013844005 0.15000001 0 0 1 0
0.10231926 0.014069125 0.15000001 0 0 1 0
0.11458988 0.014139276 0.15000001 0 0 1 0
0.12302053 0.014107074 0.15000001 0 0 1 0
0.10849511 0.014405774 0.15000001 0 0 1 0
0.12204777 0.014519829 0.15000001 0 0 1 0
0.10077721 0.014967541 0.15000001 0 0 1 0
