# .PCD v0.7 - Point Cloud Data file format
VERSION 0.7
FIELDS x y z normal_x normal_y normal_z curvature
SIZE 4 4 4 4 4 4 4
TYPE F F F F F F F
COUNT 1 1 1 1 1 1 1
WIDTH 1118
HEIGHT 1
VIEWPOINT 0 0 0 1 0 0 0
POINTS 1118
DATA ascii
-0.025000002 -0.013176735 0.049370646 -1 0 0 0
-0.024999999 -0.010287425 0.049435947 -1 0 0 0
-0.025 0.012521287 0.049254086 -1 0 0 0
-0.009574852 0.050000001 0.049380027 0 1 0 0
-0.017122801 0.050000004 0.049395163 0 1 0 0
0.019298272 -0.050000001 0.049947068 0 -1 0 0
-0.025000002 -0.049213208 0.049870498 -1 0 0 0
0.025 -0.0085098334 0.049990684 1 0 0 0
0.025000002 0.026291858 0.049790777 1 0 0 0
0.024999999 0.027333265 0.04984409 1 0 0 0
0.012709402 0.050000004 0.049928688 0 1 0 0
0.010487461 -0.050000001 0.050038312 0 -1 0 0
0.024999999 0.034600053 0.050072994 1 0 0 0
0.015947051 0.050000004 0.050129522 0 1 0 0
-0.025 -0.042702187 0.050490625 -1 0 0 0
-0.025000002 -0.0083845202 0.050489441 -1 0 0 0
-0.025000002 0.018873481 0.050409403 -1 0 0 0
0.025 0.018871542 0.050282728 1 0 0 0
0.025000002 0.021052748 0.05041524 1 0 0 0
-0.0088363383 -0.050000001 0.050668392 0 -1 0 0
-0.025000002 -0.046198394 0.050569624 -1 0 0 0
-0.014206475 -0.050000001 0.050893635 0 -1 0 0
-0.018565055 0.050000004 0.050995298 0 1 0 0
0.02473788 0.049999997 0.051198158 0 1 0 0
0.0070979204 0.050000004 0.05108843 0 1 0 0
-0.015261856 0.050000001 0.051435657 0 1 0 0
0.018741034 -0.050000004 0.051518206 0 -1 0 0
0.025 -0.0065813661 0.051520262 1 0 0 0
0.025 0.033477373 0.051705841 1 0 0 0
-0.024999999 0.033659175 0.051666874 -1 0 0 0
0.025000002 -0.013951393 0.051806722 1 0 0 0
0.025000002 0.0038378928 0.051790234 1 0 0 0
0.0057007289 0.049999997 0.05199321 0 1 0 0
0.014430507 0.050000004 0.05186376 0 1 0 0
-0.0087992223 -0.050000004 0.052133657 0 -1 0 0
-0.025000002 -0.013371116 0.052109137 -1 0 0 0
-0.025000002 0.011151453 0.05203484 -1 0 0 0
0.025 0.035388619 0.052004989 1 0 0 0
-0.025 0.046926558 0.052048367 -1 0 0 0
-0.025 0.0094998162 0.052329231 -1 0 0 0
0.025000002 0.033069775 0.052497663 1 0 0 0
0.024999999 0.0083793197 0.052675761 1 0 0 0
0.024999999 -0.0078914929 0.052780699 1 0 0 0
-0.01802652 0.050000001 0.052804768 0 1 0 0
0.025 -0.04160307 0.053225074 1 0 0 0
0.025000002 0.021893352 0.053133655 1 0 0 0
-0.025 0.034601346 0.053130772 -1 0 0 0
-0.0066800322 0.050000001 0.053182084 0 1 0 0
0.019548006 0.050000004 0.053184487 0 1 0 0
0.024999999 0.013183629 0.05344722 1 0 0 0
0.024999999 0.044044591 0.053414579 1 0 0 0
-0.020526709 -0.050000001 0.053599875 0 -1 0 0
0.018572325 -0.050000001 0.053570639 0 -1 0 0
-0.025 -0.0381108 0.053592443 -1 0 0 0
-0.025000002 -0.032116253 0.053624094 -1 0 0 0
-0.025000002 0.03412294 0.0535933 -1 0 0 0
-0.024999999 -0.046000015 0.053885113 -1 0 0 0
0.024999999 0.015070468 0.053975251 1 0 0 0
-0.024999999 0.029426053 0.053967219 -1 0 0 0
-0.024999999 -0.019658931 0.054057539 -1 0 0 0
-0.025 0.034985587 0.054045405 -1 0 0 0
0.025000002 0.043547608 0.054028619 1 0 0 0
0.024999999 0.031815238 0.054426096 1 0 0 0
-0.025000002 -0.034446448 0.054640528 -1 0 0 0
0.025 -0.024106193 0.054556455 1 0 0 0
-0.025000002 0.034116838 0.054720983 -1 0 0 0
-0.024999999 0.045039572 0.054530133 -1 0 0 0
-0.016892578 0.050000004 0.054805912 0 1 0 0
0.024999999 -0.018709486 0.055226035 1 0 0 0
-0.025000002 0.041781649 0.055019744 -1 0 0 0
0.01035907 -0.050000004 0.055322103 0 -1 0 0
0.025 -0.016607869 0.055904817 1 0 0 0
0.024999999 0.019587107 0.055860363 1 0 0 0
0.025 0.023719184 0.055892859 1 0 0 0
-0.024999999 -0.045093428 0.05620192 -1 0 0 0
0.011605061 0.050000001 0.056110125 0 1 0 0
-0.0067028878 -0.049999997 0.056324515 0 -1 0 0
0.025 -0.04016358 0.05644029 1 0 0 0
0.025 0.016042395 0.056261804 1 0 0 0
-0.025 0.031288765 0.056338489 -1 0 0 0
-0.025 -0.008209059 0.056647863 -1 0 0 0
-0.014923437 -0.050000001 0.056976277 0 -1 0 0
-0.025 0.0017194133 0.056893419 -1 0 0 0
0.0006421851 -0.050000004 0.057048239 0 -1 0 0
-0.025 0.0061468789 0.057197761 -1 0 0 0
0.025000002 0.020607829 0.057044983 1 0 0 0
-0.0061018034 0.050000001 0.05720954 0 1 0 0
0.010748082 -0.050000004 0.057359099 0 -1 0 0
-0.025 -0.038604762 0.057586715 -1 0 0 0
0.025 0.017415423 0.057523031 1 0 0 0
-0.016912764 -0.050000001 0.057814907 0 -1 0 0
-0.025 -0.039573766 0.057848442 -1 0 0 0
-0.01423835 0.050000001 0.057922624 0 1 0 0
-0.011660705 0.050000001 0.057981595 0 1 0 0
0.025 -0.041616086 0.058513317 1 0 0 0
-0.025000002 -0.019883821 0.058623098 -1 0 0 0
-0.023100633 0.050000001 0.058627702 0 1 0 0
-0.021236317 -0.050000001 0.059110753 0 -1 0 0
-0.025 -0.027202629 0.059324551 -1 0 0 0
0.024999999 -0.022353701 0.059341714 1 0 0 0
-0.013671543 -0.049999997 0.059513465 0 -1 0 0
0.025000002 0.028616117 0.059664227 1 0 0 0
0.024999999 0.049253851 0.059614275 1 0 0 0
-0.025 -0.020692289 0.059925482 -1 0 0 0
-0.025 -0.0050562415 0.059979472 -1 0 0 0
-0.025 0.049942523 0.059883617 -1 0 0 0
-0.00043443777 0.050000001 0.059989545 0 1 0 0
0.022362456 0.050000001 0.059860282 0 1 0 0
0.00010209158 -0.050000001 0.060235705 0 -1 0 0
0.0030984404 -0.049999997 0.06023366 0 -1 0 0
0.025 -0.030814145 0.060229 1 0 0 0
0.025000002 -0.012909019 0.060237553 1 0 0 0
-0.017043306 -0.050000001 0.060485005 0 -1 0 0
-0.024999999 -0.015081029 0.060652554 -1 0 0 0
-0.023317553 0.050000001 0.060655985 0 1 0 0
0.0025797663 -0.050000004 0.060848016 0 -1 0 0
-0.016844347 0.050000004 0.060933188 0 1 0 0
-0.018121565 -0.050000001 0.061221693 0 -1 0 0
-0.010211835 -0.050000001 0.061223302 0 -1 0 0
0.025 -0.040299628 0.061017454 1 0 0 0
0.025 -0.025548991 0.061220158 1 0 0 0
-0.025 -0.0096580004 0.061231274 -1 0 0 0
0.004664985 -0.050000001 0.061453056 0 -1 0 0
0.0041760555 0.050000001 0.061473686 0 1 0 0
-0.014026884 -0.049999997 0.061616994 0 -1 0 0
-0.025 -0.039779212 0.061699927 -1 0 0 0
0.025 0.010426058 0.061697703 1 0 0 0
0.016234605 0.050000001 0.061831009 0 1 0 0
0.025000002 -0.029199095 0.062243145 1 0 0 0
-0.024999999 0.030397631 0.062011719 -1 0 0 0
0.025000002 0.036468647 0.06201686 1 0 0 0
0.024999999 0.03743545 0.062230464 1 0 0 0
0.0038003642 0.050000001 0.062181074 0 1 0 0
-0.0050782915 -0.050000001 0.062487971 0 -1 0 0
0.016300213 0.050000001 0.062327299 0 1 0 0
0.025000002 0.042773999 0.062545061 1 0 0 0
0.00034278166 0.050000001 0.062700674 0 1 0 0
0.013531238 -0.050000001 0.06278567 0 -1 0 0
0.025000002 -0.02915635 0.06299895 1 0 0 0
0.025 -0.0040769577 0.062911876 1 0 0 0
0.024999999 0.00056188367 0.062856376 1 0 0 0
0.014140369 0.049999997 0.062986776 0 1 0 0
0.025 0.0063297339 0.063231297 1 0 0 0
-0.025 -0.042977985 0.063446447 -1 0 0 0
0.024999999 0.027838338 0.06334085 1 0 0 0
-0.025 -0.01558326 0.063738883 -1 0 0 0
-0.025 -0.0073418636 0.063921891 -1 0 0 0
0.025000002 0.035470922 0.063844554 1 0 0 0
0.025 0.016754331 0.064133823 1 0 0 0
-0.013729827 0.050000001 0.064213224 0 1 0 0
0.025 -0.015300196 0.064302407 1 0 0 0
0.025 0.021399489 0.06434726 1 0 0 0
-0.025 0.030952984 0.064463556 -1 0 0 0
-0.019369092 0.049999997 0.064296313 0 1 0 0
-0.025 -0.030482756 0.064734265 -1 0 0 0
-0.025 0.0031514242 0.064503409 -1 0 0 0
9.5938332e-05 0.050000001 0.064547203 0 1 0 0
-0.025000002 -0.032539025 0.064774536 -1 0 0 0
-0.024999999 0.013870892 0.064945117 -1 0 0 0
-0.025 0.014854129 0.064917624 -1 0 0 0
-0.0024663024 0.050000001 0.064992011 0 1 0 0
-0.025 -0.0034453962 0.065044887 -1 0 0 0
0.024999999 0.041048169 0.065168336 1 0 0 0
0.0048720236 -0.050000001 0.065380037 0 -1 0 0
0.025 0.0083565786 0.06526994 1 0 0 0
-0.024999999 0.013227875 0.065408118 -1 0 0 0
-0.025 0.044279918 0.06547296 -1 0 0 0
-0.024597792 0.050000001 0.065348685 0 1 0 0
-0.019919766 -0.050000001 0.065646917 0 -1 0 0
-0.025 0.025112269 0.065661475 -1 0 0 0
0.021721732 -0.049999997 0.065780208 0 -1 0 0
-0.025000002 -0.04333856 0.065806963 -1 0 0 0
-0.025 -0.029953552 0.065969788 -1 0 0 0
-0.015953973 -0.050000004 0.066187158 0 -1 0 0
-0.020419972 0.050000001 0.066125341 0 1 0 0
0.025 -0.0039493553 0.066323623 1 0 0 0
-0.025 0.0020311121 0.066267967 -1 0 0 0
-0.025000002 0.0061943363 0.066372216 -1 0 0 0
-0.020552386 0.050000004 0.0664116 0 1 0 0
-0.025000002 0.025917744 0.066720031 -1 0 0 0
0.024999999 0.038222563 0.06652946 1 0 0 0
0.00094652083 -0.050000004 0.066808954 0 -1 0 0
-0.025 -0.045423631 0.066788308 -1 0 0 0
0.025 -0.043968286 0.066969551 1 0 0 0
-0.0053605456 -0.049999997 0.067249626 0 -1 0 0
-0.025 0.037649702 0.067245007 -1 0 0 0
0.025 -0.047772083 0.067405738 1 0 0 0
0.024999999 -0.016533062 0.067405507 1 0 0 0
0.025 0.0085882563 0.067452118 1 0 0 0
-0.025 0.026262192 0.067317605 -1 0 0 0
-0.025 -0.0108151 0.068010271 -1 0 0 0
0.025000002 -0.0049198885 0.068057805 1 0 0 0
-0.021957785 0.050000001 0.06837628 0 1 0 0
0.00027840864 0.050000001 0.068330504 0 1 0 0
0.020395007 0.050000004 0.068339959 0 1 0 0
-0.025 0.015252734 0.068724945 -1 0 0 0
-0.024999999 -0.025045589 0.068908989 -1 0 0 0
0.025 0.012963469 0.068889096 1 0 0 0
0.025 0.026887355 0.0688705 1 0 0 0
-0.025 0.020450283 0.06907694 -1 0 0 0
-0.0077078091 0.050000001 0.069176748 0 1 0 0
0.024999999 -0.037657097 0.069659591 1 0 0 0
-0.025000002 -0.02436424 0.069620281 -1 0 0 0
0.025 -0.003485918 0.069550395 1 0 0 0
-0.025 -0.0018585343 0.069516197 -1 0 0 0
-0.024999999 0.014723331 0.069538407 -1 0 0 0
-0.025000002 0.016371284 0.069614917 -1 0 0 0
-0.025 0.020028422 0.069646448 -1 0 0 0
-0.0029975197 0.050000001 0.069744103 0 1 0 0
0.025 -0.046300154 0.069893844 1 0 0 0
-0.025000002 0.042594813 0.069845736 -1 0 0 0
0.025 0.045465726 0.069774151 1 0 0 0
-0.025 0.04726202 0.069797724 -1 0 0 0
0.025000002 0.010770431 0.070120364 1 0 0 0
-0.025 -0.046706993 0.07046511 -1 0 0 0
-0.025000002 0.041118443 0.070304431 -1 0 0 0
-0.02033449 -0.050000004 0.070605002 0 -1 0 0
0.025000002 -0.022610225 0.07062538 1 0 0 0
0.018119784 0.049999997 0.070590593 0 1 0 0
0.0034711463 -0.050000001 0.070968285 0 -1 0 0
-0.025 0.026356393 0.070910789 -1 0 0 0
0.024999999 -0.022859499 0.071061946 1 0 0 0
-0.025 0.020754412 0.071162954 -1 0 0 0
-0.024999999 0.044800892 0.071154706 -1 0 0 0
0.0058503067 -0.050000001 0.07141754 0 -1 0 0
-0.025 -0.0080114668 0.071370944 -1 0 0 0
-0.025 0.0047509391 0.071495213 -1 0 0 0
0.025 -0.042488854 0.071815252 1 0 0 0
-0.025 -0.026917644 0.072179466 -1 0 0 0
0.025000002 0.040168338 0.072116829 1 0 0 0
-0.025 0.044977285 0.072101668 -1 0 0 0
-0.025 -0.034461219 0.072275296 -1 0 0 0
0.025 0.00074293464 0.072488368 1 0 0 0
-0.025 0.02971502 0.072277419 -1 0 0 0
-0.0012234324 0.050000001 0.072334804 0 1 0 0
-0.025000002 -0.036378667 0.072549015 -1 0 0 0
-0.024999999 -0.02472654 0.072634205 -1 0 0 0
0.024999999 0.020247597 0.072722517 1 0 0 0
-0.025 0.017435227 0.072903529 -1 0 0 0
-0.01845959 -0.050000001 0.073060505 0 -1 0 0
-0.025 -0.0038161092 0.073125713 -1 0 0 0
0.025 0.039195318 0.073443666 1 0 0 0
0.024999999 -0.025325231 0.073605388 1 0 0 0
-0.024999999 0.041775793 0.073611096 -1 0 0 0
0.025 -0.033017714 0.073995434 1 0 0 0
-0.025 -0.0017623166 0.073956586 -1 0 0 0
-0.020772001 -0.050000001 0.074188329 0 -1 0 0
-0.025 -0.017974403 0.074096099 -1 0 0 0
-0.025 0.020881139 0.074242361 -1 0 0 0
0.0055240421 0.050000001 0.074032962 0 1 0 0
-0.008374122 -0.050000004 0.074271157 0 -1 0 0
-0.025 -0.030933093 0.074384965 -1 0 0 0
0.025000002 -0.024582841 0.074653 1 0 0 0
-0.025 0.043029815 0.074706435 -1 0 0 0
0.024021231 -0.050000001 0.074963935 0 -1 0 0
0.025000002 -0.024371468 0.074823067 1 0 0 0
-0.025 -0.0089008715 0.074883327 -1 0 0 0
0.0046986234 -0.050000001 0.075412922 0 -1 0 0
-0.024999999 0.0075887535 0.075273246 -1 0 0 0
-0.025 -0.042548779 0.075570129 -1 0 0 0
0.025000002 -0.035298653 0.075529411 1 0 0 0
-0.025 -0.033824049 0.075523496 -1 0 0 0
-0.0079396637 -0.050000004 0.075992204 0 -1 0 0
0.0091268197 -0.050000001 0.075866915 0 -1 0 0
0.025000002 -0.01813283 0.075789616 1 0 0 0
0.024999999 0.028852466 0.075981103 1 0 0 0
0.0084223151 -0.050000001 0.076009236 0 -1 0 0
-0.025 -0.013466138 0.076081775 -1 0 0 0
0.024999999 0.015271232 0.076207042 1 0 0 0
0.025000002 0.025177473 0.07622847 1 0 0 0
0.02058317 -0.050000001 0.076256819 0 -1 0 0
0.013377704 0.050000001 0.076440662 0 1 0 0
0.025000002 -0.018357458 0.076699726 1 0 0 0
0.025000002 -0.017614396 0.076684356 1 0 0 0
-0.025 0.01091096 0.076505758 -1 0 0 0
0.025000002 0.024683267 0.076697111 1 0 0 0
0.010844395 -0.050000001 0.076933116 0 -1 0 0
0.01401529 0.049999997 0.076787576 0 1 0 0
-0.025 -0.01387831 0.077238955 -1 0 0 0
-0.025 -0.0066518709 0.077002451 -1 0 0 0
-0.025 -0.0050153742 0.077239133 -1 0 0 0
-0.025 0.013526043 0.077054717 -1 0 0 0
-0.025000002 0.017618116 0.077048317 -1 0 0 0
-0.025000002 0.046584822 0.077078924 -1 0 0 0
-0.017790813 0.050000001 0.077026762 0 1 0 0
0.025 0.022126945 0.077459536 1 0 0 0
0.025 0.029184556 0.077390984 1 0 0 0
-0.025000002 0.040141392 0.077359974 -1 0 0 0
0.00070980564 0.050000001 0.077288918 0 1 0 0
-0.0084302844 -0.050000004 0.077614427 0 -1 0 0
0.023543611 -0.050000001 0.077607363 0 -1 0 0
-0.025000002 -0.038689151 0.077544749 -1 0 0 0
0.024999999 0.033101857 0.077590376 1 0 0 0
0.023217939 0.050000004 0.077508368 0 1 0 0
-0.025 -0.048386261 0.077990234 -1 0 0 0
-0.025 -0.0098103527 0.077789806 -1 0 0 0
0.017841008 -0.050000001 0.078154907 0 -1 0 0
-0.025000002 -0.036271304 0.078137293 -1 0 0 0
0.025000002 0.027242098 0.078028306 1 0 0 0
-0.021982132 -0.050000001 0.078312762 0 -1 0 0
-0.0037830602 -0.050000004 0.078478582 0 -1 0 0
0.00083540904 -0.050000001 0.078423098 0 -1 0 0
-0.025 -0.0059332894 0.0784408 -1 0 0 0
-0.012456254 -0.050000004 0.078553118 0 -1 0 0
0.00023952115 -0.050000001 0.078558125 0 -1 0 0
0.025 0.010687155 0.078554541 1 0 0 0
-0.024999999 0.032525882 0.078730971 -1 0 0 0
-0.01348704 0.050000001 0.078549519 0 1 0 0
-0.016864322 0.050000004 0.078724653 0 1 0 0
0.025 -0.03474075 0.078953981 1 0 0 0
0.025 0.0073011238 0.078981146 1 0 0 0
-0.025 0.024323251 0.07890518 -1 0 0 0
-0.025 -0.019205924 0.079062715 -1 0 0 0
-0.025000002 0.040534649 0.079060115 -1 0 0 0
0.025 -0.021658275 0.079437181 1 0 0 0
0.0130601 0.050000001 0.079337813 0 1 0 0
-0.025000002 -0.033251826 0.079733185 -1 0 0 0
0.025000002 -0.022530131 0.079680368 1 0 0 0
-0.025 0.00023365137 0.079652786 -1 0 0 0
-0.025 0.019568751 0.079636186 -1 0 0 0
-0.019939393 -0.050000004 0.079827264 0 -1 0 0
-0.025 -0.038179062 0.079822779 -1 0 0 0
-0.025 -0.0091795074 0.07977619 -1 0 0 0
0.025 0.031045644 0.079784073 1 0 0 0
0.025000002 0.033706091 0.079987258 1 0 0 0
-0.0036302754 0.050000001 0.079908244 0 1 0 0
0.010938764 -0.050000001 0.080082044 0 -1 0 0
-0.025 -0.04853984 0.080167755 -1 0 0 0
-0.025000002 -0.033274438 0.08015646 -1 0 0 0
0.024999999 -0.014868116 0.080215469 1 0 0 0
-0.025 0.0014915119 0.080072731 -1 0 0 0
0.025 -0.011365451 0.080445804 1 0 0 0
0.025 -0.00053501129 0.08027067 1 0 0 0
0.025 0.039419785 0.080494277 1 0 0 0
0.025 0.044363808 0.080466442 1 0 0 0
-0.024999999 0.047340076 0.080455437 -1 0 0 0
-0.024820752 -0.049999997 0.08072266 0 -1 0 0
0.0058468599 -0.050000001 0.080516569 0 -1 0 0
0.025000002 0.032297902 0.080551453 1 0 0 0
-0.01419508 0.050000001 0.080515578 0 1 0 0
0.025 -0.030837808 0.08115378 1 0 0 0
-0.025000002 -0.029160084 0.081490561 -1 0 0 0
0.024999999 0.043785915 0.081288114 1 0 0 0
-0.025 -0.02695832 0.081926495 -1 0 0 0
0.025 0.0058219098 0.081874892 1 0 0 0
-0.025 -0.047468182 0.082244143 -1 0 0 0
0.025 0.042176709 0.082008004 1 0 0 0
-0.024999999 0.047653764 0.082014374 -1 0 0 0
-0.025 -0.04434339 0.082490526 -1 0 0 0
0.025 0.031746693 0.082391806 1 0 0 0
0.024999999 -0.046130329 0.082581438 1 0 0 0
-0.025 -0.017567599 0.08257775 -1 0 0 0
0.025 0.0099441428 0.082513511 1 0 0 0
0.025 0.036554407 0.082513765 1 0 0 0
0.013727866 -0.049999997 0.082824118 0 -1 0 0
0.024999999 -0.039456069 0.082802959 1 0 0 0
0.025000002 0.030692544 0.082977213 1 0 0 0
0.025000002 -0.04108125 0.083064765 1 0 0 0
0.025 0.0083703604 0.083115771 1 0 0 0
-0.025 0.01667542 0.083097227 -1 0 0 0
-0.025 0.044182349 0.083240211 -1 0 0 0
0.025 -0.040204745 0.083451472 1 0 0 0
-0.025 0.022746634 0.083250746 -1 0 0 0
0.017482087 0.050000004 0.083670475 0 1 0 0
-0.025 0.014537601 0.083986558 -1 0 0 0
-0.025 0.044359792 0.083770707 -1 0 0 0
-0.025 0.046332132 0.084173016 -1 0 0 0
0.025 -0.00025687739 0.084452167 1 0 0 0
0.024999999 0.013258875 0.084427692 1 0 0 0
-0.025000002 -0.026797991 0.084646538 -1 0 0 0
-0.025 -0.012122443 0.084670715 -1 0 0 0
-0.025 -0.037773933 0.084825113 -1 0 0 0
0.01654082 -0.050000001 0.085108653 0 -1 0 0
0.024999999 0.014370095 0.085104428 1 0 0 0
0.025000002 0.0283226 0.08520934 1 0 0 0
0.025000002 -0.029252037 0.085580371 1 0 0 0
0.024999999 -0.014461314 0.08563856 1 0 0 0
-0.025 0.043290697 0.085608192 -1 0 0 0
0.025 0.04727371 0.085657343 1 0 0 0
-0.0098149655 0.050000001 0.08597175 0 1 0 0
-0.010923633 -0.050000001 0.086125441 0 -1 0 0
0.025000002 -0.023168327 0.086214788 1 0 0 0
0.025000002 0.036840063 0.086212449 1 0 0 0
0.025 -0.0054818057 0.086452857 1 0 0 0
0.025 0.022555262 0.086259902 1 0 0 0
0.025 0.039164469 0.086361334 1 0 0 0
0.0066898526 0.049999997 0.08634337 0 1 0 0
0.023992697 0.050000001 0.086498722 0 1 0 0
0.025 0.0025991667 0.08662308 1 0 0 0
0.025 0.019000195 0.086633183 1 0 0 0
-0.024999999 0.034778606 0.086539775 -1 0 0 0
-0.024999999 -0.042535752 0.087091289 -1 0 0 0
-0.025000002 -0.02543211 0.087043732 -1 0 0 0
-0.025000002 0.031754445 0.087421119 -1 0 0 0
0.0012444268 0.050000001 0.087392293 0 1 0 0
0.021083822 0.050000001 0.087405637 0 1 0 0
0.0083173038 -0.050000001 0.087719768 0 -1 0 0
0.025 -0.0099534094 0.087521411 1 0 0 0
-0.025000002 -0.0049968576 0.087649137 -1 0 0 0
-0.0066650757 0.050000001 0.087715626 0 1 0 0
0.015681751 0.050000004 0.087598443 0 1 0 0
0.0055492185 -0.050000001 0.087955631 0 -1 0 0
-0.022360099 0.050000001 0.087989114 0 1 0 0
0.0078889867 -0.050000004 0.088209376 0 -1 0 0
-0.024999999 0.038923629 0.088086486 -1 0 0 0
0.010367286 0.050000001 0.088035628 0 1 0 0
0.0025065774 -0.049999997 0.088491887 0 -1 0 0
0.012429025 -0.050000004 0.088448726 0 -1 0 0
0.025 -0.035908286 0.088348515 1 0 0 0
-0.025 0.0039126445 0.088444099 -1 0 0 0
0.025000002 0.0077083297 0.088470459 1 0 0 0
-0.025 0.019864403 0.088315681 -1 0 0 0
0.025 0.021352561 0.088400774 1 0 0 0
0.0021247719 0.050000001 0.088311888 0 1 0 0
-0.025000002 -0.045213506 0.088549562 -1 0 0 0
0.025000002 0.0044787396 0.08859928 1 0 0 0
0.0083154831 0.050000004 0.088600732 0 1 0 0
0.0014466915 -0.049999997 0.08898446 0 -1 0 0
0.025 0.010887097 0.088975579 1 0 0 0
-0.010044228 0.050000004 0.088998362 0 1 0 0
0.024999999 -0.048122391 0.089124613 1 0 0 0
-0.025 -0.036444321 0.089249194 -1 0 0 0
-0.015726801 0.049999997 0.089032747 0 1 0 0
-0.0019410073 0.050000004 0.089025602 0 1 0 0
-0.025 0.032616146 0.089318231 -1 0 0 0
-0.023279086 0.050000001 0.089475095 0 1 0 0
-0.025 -0.019000161 0.08974959 -1 0 0 0
0.025 0.0055488311 0.089723818 1 0 0 0
0.025 0.021342393 0.089518964 1 0 0 0
0.008923009 -0.050000001 0.089873806 0 -1 0 0
-0.015277956 -0.049999997 0.090229012 0 -1 0 0
0.014154356 -0.050000001 0.090227753 0 -1 0 0
-0.025000002 -0.012347694 0.090242937 -1 0 0 0
-0.0040585161 0.050000001 0.090206951 0 1 0 0
-0.025 -0.049999747 0.090412967 -1 0 0 0
0.015680844 -0.049999997 0.090407781 0 -1 0 0
0.024771828 -0.049999997 0.090397626 0 -1 0 0
0.025 -0.048755076 0.090404838 1 0 0 0
-0.025000002 0.027481118 0.090316631 -1 0 0 0
-0.025000002 0.043441474 0.090265527 -1 0 0 0
-0.0080841091 -0.050000001 0.090514392 0 -1 0 0
-0.0030026892 0.050000001 0.090684012 0 1 0 0
-0.025 -0.038748469 0.090765215 -1 0 0 0
0.024999999 -0.037022628 0.0908131 1 0 0 0
-0.025000002 -0.020246759 0.090935864 -1 0 0 0
0.01922822 0.050000001 0.090880901 0 1 0 0
0.025 0.019168105 0.091002561 1 0 0 0
0.024999999 -0.042113096 0.091446921 1 0 0 0
0.024999999 0.022189429 0.091347992 1 0 0 0
-0.016440475 -0.050000001 0.091738582 0 -1 0 0
0.025 -0.035881046 0.091678947 1 0 0 0
-0.025 0.04717885 0.091667555 -1 0 0 0
0.012869403 0.050000004 0.091587156 0 1 0 0
-0.024999999 0.018783562 0.091928087 -1 0 0 0
-0.025 0.046158008 0.091895364 -1 0 0 0
0.025 -0.049644973 0.092220411 1 0 0 0
-0.025000002 -0.0080644153 0.092197865 -1 0 0 0
-0.025 -0.0075673377 0.092031866 -1 0 0 0
0.025000002 0.0075341137 0.092211016 1 0 0 0
-0.025 0.028052296 0.092135616 -1 0 0 0
0.025 0.042562917 0.092001952 1 0 0 0
-0.021015672 -0.050000001 0.092348896 0 -1 0 0
0.025000002 -0.019001128 0.09227328 1 0 0 0
0.025 0.0048955288 0.092261054 1 0 0 0
0.025 0.041200913 0.092736997 1 0 0 0
-0.021578381 -0.050000001 0.092981353 0 -1 0 0
0.0032062787 -0.050000001 0.093216769 0 -1 0 0
-0.025 0.022595538 0.093062356 -1 0 0 0
-0.025000002 0.027781224 0.093153894 -1 0 0 0
0.025 0.04127758 0.093229398 1 0 0 0
0.019626416 0.050000001 0.093115054 0 1 0 0
-0.0028464743 0.050000004 0.093236744 0 1 0 0
0.016129689 -0.050000004 0.09347678 0 -1 0 0
-0.025000002 -0.046597116 0.093331993 -1 0 0 0
0.025 0.0034930268 0.093352869 1 0 0 0
-0.025000002 0.041214794 0.093430899 -1 0 0 0
-0.025 -0.035273951 0.093581848 -1 0 0 0
0.025 0.017818809 0.093634926 1 0 0 0
-0.0013990402 -0.050000004 0.093782611 0 -1 0 0
0.023080934 -0.050000001 0.09398213 0 -1 0 0
0.024999999 -0.0079824012 0.093936317 1 0 0 0
0.025000002 -0.016829761 0.09402281 1 0 0 0
0.025000002 0.00082143769 0.094199874 1 0 0 0
-0.025 0.046393037 0.094087765 -1 0 0 0
-0.025000002 0.049856041 0.094031461 -1 0 0 0
-0.025000002 -0.032606248 0.094398841 -1 0 0 0
-0.025 -0.024847029 0.094295464 -1 0 0 0
-0.024999999 0.016787767 0.094487399 -1 0 0 0
-0.025000002 0.02020945 0.094432831 -1 0 0 0
0.025 0.047277384 0.094486199 1 0 0 0
-0.020037979 0.050000001 0.094254419 0 1 0 0
-0.011709021 0.050000001 0.094378114 0 1 0 0
0.025 -0.020815235 0.094635323 1 0 0 0
0.025000002 -0.018371845 0.094531827 1 0 0 0
-0.025 -0.017442357 0.094651148 -1 0 0 0
0.025000002 -0.013907516 0.094504826 1 0 0 0
0.024999999 0.026837297 0.094723009 1 0 0 0
-0.018824356 -0.050000001 0.094953179 0 -1 0 0
0.023196336 0.050000004 0.094934575 0 1 0 0
-0.025000002 -0.041589484 0.095216103 -1 0 0 0
0.025 0.018985279 0.095054723 1 0 0 0
0.025 0.042063981 0.095023125 1 0 0 0
-0.025000002 -0.030724896 0.095401458 -1 0 0 0
0.025 0.045440331 0.095470928 1 0 0 0
-0.024999999 -0.049987391 0.095732294 -1 0 0 0
0.025000002 -0.039341949 0.095674969 1 0 0 0
-0.024999999 -0.02190165 0.095664546 -1 0 0 0
0.025000002 -0.031321466 0.095828608 1 0 0 0
0.024999999 0.046323467 0.095914945 1 0 0 0
0.0092154071 -0.050000004 0.096096523 0 -1 0 0
0.0070179114 -0.050000001 0.096516378 0 -1 0 0
-0.025 -0.046247397 0.09658958 -1 0 0 0
0.025000002 -0.027142825 0.096695229 1 0 0 0
0.024999999 0.01611077 0.096646644 1 0 0 0
0.0020901065 0.050000001 0.096719027 0 1 0 0
0.025 -0.017904799 0.096902974 1 0 0 0
0.0098473178 -0.050000001 0.097190082 0 -1 0 0
0.025000002 -0.036322929 0.097214796 1 0 0 0
-0.025 0.024642123 0.097214147 -1 0 0 0
0.022692047 0.050000001 0.097244568 0 1 0 0
0.011462985 -0.050000001 0.097442418 0 -1 0 0
-0.025 -0.04426796 0.097495519 -1 0 0 0
-0.022684606 -0.050000001 0.097573578 0 -1 0 0
0.01477316 -0.050000001 0.097650066 0 -1 0 0
0.009861391 0.049999997 0.097537339 0 1 0 0
0.0036462471 -0.050000001 0.09794046 0 -1 0 0
-0.025 -0.024545021 0.097982585 -1 0 0 0
0.024999999 -0.0055359565 0.097841434 1 0 0 0
-0.025000002 0.0049968115 0.097816557 -1 0 0 0
0.025000002 0.045897722 0.097755775 1 0 0 0
0.017901631 0.050000001 0.097753741 0 1 0 0
-0.021017134 -0.050000004 0.098227955 0 -1 0 0
0.025 -0.026129719 0.098203532 1 0 0 0
-0.025000002 0.016642043 0.098223463 -1 0 0 0
-0.024999999 0.041102324 0.09804631 -1 0 0 0
-0.0022589637 0.050000001 0.098121852 0 1 0 0
0.0034788474 0.050000001 0.098167785 0 1 0 0
-0.025000002 0.0080502834 0.098412797 -1 0 0 0
0.024999999 0.027713664 0.098437257 1 0 0 0
0.025 -0.0058095008 0.09863364 1 0 0 0
9.0139918e-05 0.050000001 0.098708645 0 1 0 0
0.018620048 0.050000004 0.098958388 0 1 0 0
-0.015138419 -0.050000001 0.099245869 0 -1 0 0
-0.024999999 -0.047368824 0.099130489 -1 0 0 0
-0.025 -0.045177866 0.099145509 -1 0 0 0
0.024999999 -0.011258565 0.099448971 1 0 0 0
-0.01026958 0.049999997 0.099434182 0 1 0 0
0.025000002 -0.027817251 0.09968482 1 0 0 0
-0.025000002 0.034788892 0.099596612 -1 0 0 0
0.0017844001 0.049999997 0.099795409 0 1 0 0
0.0015687668 -0.050000001 0.10024293 0 -1 0 0
0.025000002 0.0067834789 0.10008886 1 0 0 0
0.025 0.028092306 0.10024722 1 0 0 0
-0.017023591 0.050000004 0.10022824 0 1 0 0
-0.025000002 -0.016401779 0.10040801 -1 0 0 0
-0.025000002 -0.015558465 0.10041053 -1 0 0 0
0.025000002 0.024933409 0.10027318 1 0 0 0
-0.025 0.026928376 0.10040075 -1 0 0 0
0.010638086 0.050000004 0.10042429 0 1 0 0
-0.01221983 0.050000001 0.1006054 0 1 0 0
-0.025 -0.029306512 0.1007911 -1 0 0 0
0.025 -0.011126859 0.10083296 1 0 0 0
-0.025000002 0.028492711 0.10081528 -1 0 0 0
0.016574351 -0.049999997 0.10103618 0 -1 0 0
-0.025 -0.046060737 0.10113809 -1 0 0 0
-0.025000002 0.017705785 0.10100106 -1 0 0 0
-0.01713445 0.050000004 0.10121515 0 1 0 0
0.025 -0.037857171 0.10135711 1 0 0 0
-0.022263324 0.050000001 0.10172625 0 1 0 0
0.013038971 -0.050000001 0.10182376 0 -1 0 0
0.022952996 -0.050000001 0.10179961 0 -1 0 0
0.025000002 -0.014204849 0.10203528 1 0 0 0
0.025000002 0.0085942186 0.10200868 1 0 0 0
0.024999999 0.039802179 0.10206408 1 0 0 0
-0.025 -0.019650273 0.10232408 -1 0 0 0
-0.024999999 -0.047951654 0.10260308 -1 0 0 0
0.025 -0.030157413 0.10260458 1 0 0 0
-0.025 0.015942929 0.10264438 -1 0 0 0
-0.025000002 0.0368044 0.10250033 -1 0 0 0
-0.0079180347 0.050000004 0.10252883 0 1 0 0
-0.022492541 -0.050000001 0.10292388 0 -1 0 0
-0.025000002 -0.040238149 0.10286716 -1 0 0 0
0.014556373 -0.050000001 0.10307325 0 -1 0 0
0.025 0.014047598 0.10316745 1 0 0 0
-0.017192634 -0.050000001 0.10347037 0 -1 0 0
0.025 -0.0095696496 0.10344916 1 0 0 0
0.025 0.031169713 0.10346801 1 0 0 0
0.025 -0.042086925 0.10356874 1 0 0 0
-0.025000002 -0.040811308 0.10352993 -1 0 0 0
-0.025 -0.026962468 0.10361353 -1 0 0 0
-0.025000002 -0.010847509 0.10359117 -1 0 0 0
0.0051514907 -0.049999997 0.10385875 0 -1 0 0
-0.025 0.040280856 0.10387814 -1 0 0 0
0.0068848003 0.049999997 0.10395236 0 1 0 0
0.0078230062 0.050000001 0.10380864 0 1 0 0
-0.0039935578 -0.050000001 0.10412052 0 -1 0 0
0.0035996551 -0.050000004 0.10402008 0 -1 0 0
0.025 -0.039403025 0.10430922 1 0 0 0
0.024999999 -0.036147729 0.10447428 1 0 0 0
0.025 -0.032449279 0.10446873 1 0 0 0
-0.025 0.024834113 0.1043406 -1 0 0 0
0.025000002 0.043075778 0.10442428 1 0 0 0
-0.012796582 -0.050000004 0.104736 0 -1 0 0
0.025 -0.048629362 0.10466792 1 0 0 0
-0.025 -0.03117799 0.10470954 -1 0 0 0
0.025000002 -0.017627476 0.10458651 1 0 0 0
-0.024999999 -0.010162329 0.10466103 -1 0 0 0
-0.025 0.040580213 0.10453627 -1 0 0 0
0.025 -0.013340998 0.10487603 1 0 0 0
-0.025000002 0.026448376 0.10496759 -1 0 0 0
-0.011094854 -0.050000004 0.10524357 0 -1 0 0
0.025000002 -0.03079796 0.10519898 1 0 0 0
0.025 -0.0033332417 0.10507213 1 0 0 0
-0.024999999 0.038669892 0.10546992 -1 0 0 0
0.0066412054 -0.050000001 0.10565253 0 -1 0 0
-0.025 -0.029376592 0.10557145 -1 0 0 0
0.025000002 -0.01871152 0.10568671 1 0 0 0
0.025 0.026407089 0.10564883 1 0 0 0
0.025 -0.032433163 0.10577492 1 0 0 0
-0.024999999 0.0011980077 0.10612322 -1 0 0 0
-0.018709712 0.050000001 0.10602285 0 1 0 0
0.024999999 -0.048562959 0.10644179 1 0 0 0
-0.025000002 -0.04808645 0.10627479 -1 0 0 0
-0.025000002 -0.044774216 0.1062844 -1 0 0 0
-0.025 -0.041289199 0.10648432 -1 0 0 0
-0.025000002 -0.035235129 0.10638402 -1 0 0 0
0.025000002 -0.021617474 0.10628565 1 0 0 0
0.025 -0.042665098 0.10665566 1 0 0 0
-0.023407824 0.050000001 0.10657922 0 1 0 0
-0.025 0.015969533 0.10696538 -1 0 0 0
0.025 -0.0056742476 0.10723045 1 0 0 0
-0.025 0.04038522 0.10723615 -1 0 0 0
-0.024576265 0.050000001 0.10709076 0 1 0 0
0.025 -0.01812695 0.10726571 1 0 0 0
0.025000002 0.0061979992 0.10733046 1 0 0 0
-0.017365986 -0.050000001 0.10766252 0 -1 0 0
-0.025 -0.024903744 0.10755512 -1 0 0 0
-0.025000002 -0.0090114623 0.10763389 -1 0 0 0
-0.025000002 0.042738009 0.10766863 -1 0 0 0
-0.022682736 -0.050000001 0.10792562 0 -1 0 0
0.0066568153 -0.050000001 0.10785785 0 -1 0 0
0.025 -0.019321308 0.10821664 1 0 0 0
0.025000002 -0.0058781896 0.1088658 1 0 0 0
-0.025000002 0.0087041734 0.10876814 -1 0 0 0
-0.025000002 0.017503876 0.10889231 -1 0 0 0
0.0060952026 -0.050000004 0.10906722 0 -1 0 0
0.025 -0.037396308 0.10920196 1 0 0 0
-0.025 0.033697058 0.10902493 -1 0 0 0
0.025000002 0.045263112 0.10920613 1 0 0 0
0.025 0.011850903 0.10925853 1 0 0 0
0.025 0.022087177 0.10937461 1 0 0 0
-0.025 0.036079746 0.10940687 -1 0 0 0
-0.025 -0.028171806 0.10953054 -1 0 0 0
0.025 -0.010531188 0.10952725 1 0 0 0
0.025 -0.0091411369 0.10964317 1 0 0 0
-0.0088350121 -0.050000001 0.10987379 0 -1 0 0
0.025 -0.035167728 0.11013798 1 0 0 0
0.025 -0.0045202402 0.11004365 1 0 0 0
-0.025000002 0.00025959127 0.11012168 -1 0 0 0
-0.025 -0.036645357 0.11044592 -1 0 0 0
-0.0023354269 -0.049999997 0.11069822 0 -1 0 0
0.025 0.017467694 0.11071936 1 0 0 0
0.025 0.022113927 0.11069187 1 0 0 0
0.025 0.023439139 0.11069801 1 0 0 0
0.021484507 0.050000004 0.11067571 0 1 0 0
0.025 -0.038326267 0.1108217 1 0 0 0
0.025 -0.03432193 0.11094493 1 0 0 0
0.025 0.01592415 0.11081584 1 0 0 0
-0.025 0.030101363 0.11087628 -1 0 0 0
-0.010812032 0.050000001 0.11084072 0 1 0 0
-0.025 -0.015157774 0.11123201 -1 0 0 0
0.025 0.037978619 0.1112323 1 0 0 0
0.0046251202 -0.050000001 0.1114224 0 -1 0 0
-0.019536795 -0.050000001 0.1116159 0 -1 0 0
0.025 -0.037963334 0.11163308 1 0 0 0
-0.011230228 0.050000001 0.11155029 0 1 0 0
0.020733647 -0.050000004 0.11184014 0 -1 0 0
0.025 0.036791455 0.11181778 1 0 0 0
0.025 0.049258549 0.11179973 1 0 0 0
-0.015856586 0.050000004 0.11199313 0 1 0 0
0.02440007 -0.050000001 0.1123587 0 -1 0 0
0.025 -0.039751958 0.11228739 1 0 0 0
-0.0096707698 -0.050000001 0.11256123 0 -1 0 0
-0.024999999 -0.044144988 0.1127152 -1 0 0 0
0.025 -0.020572942 0.11264139 1 0 0 0
0.025 0.0093120113 0.11271283 1 0 0 0
-0.025 0.014582084 0.11266929 -1 0 0 0
-0.025000002 0.015672205 0.11250045 -1 0 0 0
0.025 0.016977524 0.11253656 1 0 0 0
0.025 -0.034809705 0.11280363 1 0 0 0
0.025 -0.032319795 0.11285407 1 0 0 0
-0.025 0.022807501 0.11282829 -1 0 0 0
-0.025 0.023088301 0.11281454 -1 0 0 0
0.011061494 0.050000001 0.11280875 0 1 0 0
0.025 0.036641102 0.11322831 1 0 0 0
-0.024999999 0.043436486 0.11321002 -1 0 0 0
0.018547434 0.050000001 0.1130025 0 1 0 0
-0.022319041 0.050000004 0.11312923 0 1 0 0
-0.0088478066 -0.050000001 0.11343709 0 -1 0 0
-0.025 -0.040866524 0.11346554 -1 0 0 0
-0.0062040845 0.049999997 0.11325374 0 1 0 0
-0.0014320863 0.050000001 0.11337169 0 1 0 0
0.025000002 -0.04077673 0.11364767 1 0 0 0
0.025 -0.026570443 0.11363342 1 0 0 0
-0.025000002 -0.0076932795 0.11355545 -1 0 0 0
0.025000002 -0.0072109262 0.11357672 1 0 0 0
0.022223655 0.050000001 0.11373191 0 1 0 0
-0.024198191 -0.050000001 0.11395008 0 -1 0 0
0.025 0.0033928184 0.11420492 1 0 0 0
-0.025000002 0.012458546 0.11406747 -1 0 0 0
-0.025000002 0.020476531 0.11422724 -1 0 0 0
-0.019587265 0.049999997 0.11409645 0 1 0 0
0.025000002 -0.044739112 0.11446942 1 0 0 0
0.025 -0.035625789 0.11446165 1 0 0 0
0.025 -0.030043069 0.11430373 1 0 0 0
0.025000002 0.012507734 0.11427286 1 0 0 0
-0.0029156846 0.049999997 0.11466689 0 1 0 0
-0.022037599 -0.050000004 0.11482846 0 -1 0 0
0.014879852 0.050000004 0.11512458 0 1 0 0
0.025 -0.0084646139 0.11534524 1 0 0 0
-0.025 0.022825705 0.11532613 -1 0 0 0
0.025 -0.027783815 0.11568764 1 0 0 0
0.025 0.028749865 0.11553308 1 0 0 0
0.019023078 0.050000004 0.11562111 0 1 0 0
0.025 -0.049829658 0.11576139 1 0 0 0
-0.004019272 -0.050000001 0.11606574 0 -1 0 0
-0.025 0.0045452919 0.11608991 -1 0 0 0
-0.025 0.029641055 0.11605332 -1 0 0 0
0.021269072 -0.049999997 0.11628299 0 -1 0 0
-0.025 -0.049622342 0.11641116 -1 0 0 0
0.024999999 -0.047842637 0.11639956 1 0 0 0
-0.025 0.0071977535 0.11640546 -1 0 0 0
0.025 0.011249254 0.11675237 1 0 0 0
0.025000002 -0.011129629 0.11707562 1 0 0 0
0.025000002 0.037118711 0.11709186 1 0 0 0
-0.025000002 0.028132264 0.11727908 -1 0 0 0
-0.018585531 0.050000001 0.1177336 0 1 0 0
-0.01162315 0.050000001 0.11762175 0 1 0 0
0.010122439 0.049999997 0.11755388 0 1 0 0
0.024604339 -0.050000004 0.11820451 0 -1 0 0
0.0043454566 0.049999997 0.11802714 0 1 0 0
0.024999999 -0.046873942 0.11845265 1 0 0 0
0.025000002 -0.023630055 0.11840677 1 0 0 0
-0.024999999 -0.0053513153 0.11833145 -1 0 0 0
-0.025 0.02970263 0.11827599 -1 0 0 0
0.025000002 0.044188712 0.1183757 1 0 0 0
0.025 0.044457391 0.11849713 1 0 0 0
-0.025 -0.0256353 0.11868884 -1 0 0 0
0.016288007 0.050000004 0.11854374 0 1 0 0
0.012411973 -0.049999997 0.11876971 0 -1 0 0
-0.025000002 -0.046954989 0.11892531 -1 0 0 0
0.025000002 -0.0034546154 0.11895404 1 0 0 0
0.025 0.047190987 0.11895578 1 0 0 0
0.025 -0.038152877 0.11910589 1 0 0 0
-0.025000002 -0.010425105 0.11911352 -1 0 0 0
0.017918667 -0.049999997 0.11947525 0 -1 0 0
0.025 -0.030499559 0.11942027 1 0 0 0
-0.025000002 -0.045332577 0.11972364 -1 0 0 0
0.025 -0.036913428 0.1196963 1 0 0 0
-0.0032405378 0.050000001 0.11955728 0 1 0 0
0.025000002 -0.028704686 0.11987376 1 0 0 0
0.025 0.021060556 0.11987685 1 0 0 0
-0.025 -0.047200963 0.12003645 -1 0 0 0
0.025000002 0.029470831 0.12003989 1 0 0 0
-0.00046045147 -0.050000001 0.12028921 0 -1 0 0
0.015922388 -0.050000004 0.1203358 0 -1 0 0
-0.025000002 -0.024335761 0.12033086 -1 0 0 0
-0.025 -0.038049754 0.12062077 -1 0 0 0
0.025 0.036087062 0.12051112 1 0 0 0
0.025 -0.0054511288 0.12097951 1 0 0 0
0.018575648 -0.050000001 0.12104154 0 -1 0 0
0.012675625 0.050000004 0.12113366 0 1 0 0
-0.025000002 -0.021717053 0.1213779 -1 0 0 0
-0.010296708 0.049999997 0.12131216 0 1 0 0
0.016126655 -0.049999997 0.12161479 0 -1 0 0
0.025 -0.028387498 0.12154293 1 0 0 0
-0.025 -0.021919938 0.12151625 -1 0 0 0
0.025 -0.021191843 0.12153703 1 0 0 0
-0.025 0.017938714 0.1215691 -1 0 0 0
-0.025 0.03245645 0.12159977 -1 0 0 0
-0.015495721 -0.050000001 0.12199788 0 -1 0 0
-0.0074549951 -0.049999997 0.12187281 0 -1 0 0
-0.025000002 -0.036933932 0.12175515 -1 0 0 0
-0.024999999 0.00054193754 0.121914 -1 0 0 0
-0.025 0.017457193 0.12196818 -1 0 0 0
0.025 -0.019001465 0.12225168 1 0 0 0
0.025 0.0055464022 0.12248809 1 0 0 0
0.025 0.0076245875 0.12226961 1 0 0 0
0.025 0.009525313 0.12239064 1 0 0 0
0.014991962 0.049999997 0.12248169 0 1 0 0
-0.022369832 -0.050000004 0.122772 0 -1 0 0
0.025 -0.010119142 0.12276852 1 0 0 0
-0.025000002 0.0084670419 0.12296139 -1 0 0 0
0.0058082123 0.050000001 0.12293877 0 1 0 0
0.0067809196 0.050000004 0.12299046 0 1 0 0
0.019930026 0.050000001 0.12302606 0 1 0 0
0.022117604 0.050000001 0.12315119 0 1 0 0
0.025 -0.024566974 0.12338614 1 0 0 0
-0.025 0.0052764928 0.12336868 -1 0 0 0
-0.025 0.010981788 0.12328151 -1 0 0 0
0.025 0.037413836 0.12349404 1 0 0 0
0.025 0.044645216 0.123497 1 0 0 0
-0.00049302494 0.049999997 0.12334964 0 1 0 0
-0.025 -0.032084689 0.12361234 -1 0 0 0
-0.025 -0.021008156 0.1235617 -1 0 0 0
0.00044406299 0.049999997 0.12360136 0 1 0 0
-0.025 -0.040210608 0.12380794 -1 0 0 0
-0.025 -0.0079067321 0.12395407 -1 0 0 0
0.02371438 0.050000001 0.12383536 0 1 0 0
-0.025 -0.042076662 0.12406817 -1 0 0 0
0.025 -0.039232906 0.12416115 1 0 0 0
0.025 -0.038532894 0.12405444 1 0 0 0
0.025 -0.025316879 0.12411781 1 0 0 0
-0.025 -0.01873276 0.1242149 -1 0 0 0
0.025 -0.015229676 0.12412447 1 0 0 0
0.025000002 0.022665042 0.12400685 1 0 0 0
-0.021782348 0.050000004 0.12435145 0 1 0 0
-0.025000002 -0.0090827709 0.12473959 -1 0 0 0
0.025000002 0.027055424 0.12464465 1 0 0 0
-0.025 -0.014818821 0.12493935 -1 0 0 0
0.025 0.016583562 0.12489792 1 0 0 0
0.024999999 0.036416668 0.12498145 1 0 0 0
-0.025000002 -0.02973507 0.12516433 -1 0 0 0
-0.025 0.027510254 0.1250466 -1 0 0 0
0.025000002 0.039871134 0.1254161 1 0 0 0
0.025 -0.04392774 0.1257122 1 0 0 0
-0.025000002 -0.01576959 0.1255689 -1 0 0 0
-0.025 0.029805619 0.1255423 -1 0 0 0
0.0083426107 -0.050000004 0.12582801 0 -1 0 0
0.012208773 -0.049999997 0.12597737 0 -1 0 0
0.025000002 -0.006839483 0.12580487 1 0 0 0
-0.025 0.043589387 0.12588167 -1 0 0 0
-0.025000002 0.045145933 0.12576568 -1 0 0 0
-0.0059884861 0.049999997 0.12614581 0 1 0 0
0.025000002 -0.024297556 0.12635371 1 0 0 0
0.0088827312 0.050000004 0.12628891 0 1 0 0
-0.024999999 -0.041923918 0.12662427 -1 0 0 0
-0.024999999 -0.028358243 0.12671715 -1 0 0 0
-0.025 -0.043866672 0.12722006 -1 0 0 0
-0.025 -0.0049610026 0.12712251 -1 0 0 0
-0.025000002 -0.008641813 0.1273798 -1 0 0 0
-0.012278242 -0.049999997 0.12753633 0 -1 0 0
0.0063259741 -0.050000004 0.12768336 0 -1 0 0
0.025 0.015698994 0.12761073 1 0 0 0
0.0022350051 0.050000001 0.12751269 0 1 0 0
0.023154611 -0.050000004 0.12786686 0 -1 0 0
0.025 -0.012355281 0.12796471 1 0 0 0
-0.024999999 -0.022897793 0.12809148 -1 0 0 0
0.025 -0.041695368 0.1282641 1 0 0 0
-0.025 0.0076605966 0.12826923 -1 0 0 0
-0.0040283599 0.050000001 0.12841778 0 1 0 0
0.025 0.0048048487 0.12866533 1 0 0 0
-0.025 0.033911083 0.12873237 -1 0 0 0
-0.011111382 0.050000001 0.12894326 0 1 0 0
0.018540202 -0.050000001 0.12906025 0 -1 0 0
-0.0073081357 0.050000001 0.12901787 0 1 0 0
0.025 0.038781602 0.12927894 1 0 0 0
-0.0036383518 0.050000001 0.12938538 0 1 0 0
0.02449698 -0.050000001 0.12967226 0 -1 0 0
0.011562409 0.050000001 0.12970348 0 1 0 0
-0.025 -0.013195338 0.12996228 -1 0 0 0
0.025 0.023671746 0.12987694 1 0 0 0
-0.025000002 -0.04992009 0.13009626 -1 0 0 0
0.025 -0.021987606 0.13006929 1 0 0 0
0.014278863 0.050000001 0.13009942 0 1 0 0
-0.017104527 0.050000004 0.13026564 0 1 0 0
-0.018560754 -0.050000001 0.13070998 0 -1 0 0
-0.024999999 0.0061584162 0.1307452 -1 0 0 0
-0.025 0.010508022 0.13068126 -1 0 0 0
-0.025 0.017783772 0.13057621 -1 0 0 0
0.025 0.010841005 0.13085544 1 0 0 0
-0.025000002 -0.037200704 0.1311505 -1 0 0 0
-0.024999999 -0.035456832 0.13108876 -1 0 0 0
-0.025000002 -0.016039183 0.13101813 -1 0 0 0
-0.024999999 -0.030389428 0.13140778 -1 0 0 0
0.024999999 0.006371337 0.1313196 1 0 0 0
-0.025 0.020625945 0.13136481 -1 0 0 0
0.025000002 -0.016554004 0.1315902 1 0 0 0
0.025000002 -0.010042962 0.13160232 1 0 0 0
0.025 0.0086676497 0.13151598 1 0 0 0
-0.01055925 -0.050000001 0.13185398 0 -1 0 0
-0.025000002 -0.030528506 0.13187772 -1 0 0 0
-0.024999999 -0.0010436755 0.13175566 -1 0 0 0
0.024999999 0.015623124 0.13199699 1 0 0 0
0.025 0.036091246 0.13187495 1 0 0 0
0.018654788 0.050000001 0.13207853 0 1 0 0
-0.024897693 -0.050000001 0.13273679 0 -1 0 0
0.008441071 -0.050000001 0.1330353 0 -1 0 0
0.024999999 0.015276937 0.13314803 1 0 0 0
-0.016012628 -0.050000001 0.13342288 0 -1 0 0
0.010288289 -0.050000001 0.13331485 0 -1 0 0
-0.025000002 0.011644304 0.13331045 -1 0 0 0
0.01067368 -0.050000001 0.1336914 0 -1 0 0
0.025 0.026570724 0.1337366 1 0 0 0
0.025 0.04674964 0.13351782 1 0 0 0
0.0054164361 0.050000001 0.13359152 0 1 0 0
0.0086835427 0.050000004 0.13380446 0 1 0 0
0.025 -0.012624729 0.13444304 1 0 0 0
-0.025000002 0.00024222955 0.13447027 -1 0 0 0
-0.015471719 0.050000001 0.13443793 0 1 0 0
-0.011285948 -0.050000001 0.13472208 0 -1 0 0
-0.024999999 0.020434678 0.13473801 -1 0 0 0
-0.024999999 0.03653165 0.13452955 -1 0 0 0
-0.02006791 0.050000001 0.13451412 0 1 0 0
-0.025000002 -0.04051147 0.13489071 -1 0 0 0
0.025 -0.036639623 0.1349586 1 0 0 0
0.025 -0.031264346 0.13498144 1 0 0 0
0.011695379 0.050000001 0.1348806 0 1 0 0
-0.025000002 -0.008098349 0.13510033 -1 0 0 0
-0.024999999 -0.0058486909 0.13500899 -1 0 0 0
-0.025 -0.0017958265 0.13504469 -1 0 0 0
-0.024999999 0.027613731 0.13516887 -1 0 0 0
0.024999999 0.043619365 0.13516705 1 0 0 0
-0.025000002 -0.031019069 0.13532914 -1 0 0 0
-0.024999999 -0.020024501 0.13547635 -1 0 0 0
0.011116468 0.050000004 0.13526991 0 1 0 0
-0.025 -0.027929096 0.13559067 -1 0 0 0
-0.025 -0.015511869 0.13563146 -1 0 0 0
-0.025 0.045436382 0.13570854 -1 0 0 0
0.0082767736 -0.050000001 0.13586168 0 -1 0 0
0.023134395 -0.050000001 0.13577831 0 -1 0 0
0.024981681 -0.050000004 0.13616996 0 -1 0 0
0.025 -0.031227181 0.13613349 1 0 0 0
0.025 -0.027080225 0.13639122 1 0 0 0
0.025 -0.024393165 0.13645999 1 0 0 0
0.0072545907 0.050000001 0.13626625 0 1 0 0
0.025 0.043801099 0.1365187 1 0 0 0
-0.019489279 -0.050000001 0.13698283 0 -1 0 0
0.01598 -0.049999997 0.13675648 0 -1 0 0
0.025 -0.034470133 0.13692287 1 0 0 0
-0.024999999 -0.024767995 0.13681458 -1 0 0 0
0.025 0.012951033 0.13690832 1 0 0 0
-0.012323452 0.050000001 0.13706489 0 1 0 0
-0.025 -0.03472586 0.13729057 -1 0 0 0
-0.025 0.011023749 0.13727936 -1 0 0 0
0.015318377 0.050000004 0.13727434 0 1 0 0
-0.012323895 -0.050000004 0.13760844 0 -1 0 0
0.024311153 -0.050000001 0.13793382 0 -1 0 0
-0.025 -0.0094744749 0.13783948 -1 0 0 0
0.025 -0.0045987624 0.13790666 1 0 0 0
0.025000002 0.0066886507 0.13813227 1 0 0 0
0.0091510955 -0.050000004 0.13844737 0 -1 0 0
0.025 -0.049688209 0.1384583 1 0 0 0
0.012533953 0.050000001 0.13835287 0 1 0 0
-0.025 -0.036535762 0.13852489 -1 0 0 0
0.025 0.014050557 0.13855341 1 0 0 0
0.0044192197 -0.050000001 0.13881472 0 -1 0 0
-0.0032133348 0.050000004 0.13898703 0 1 0 0
-0.025 -0.045548968 0.13900384 -1 0 0 0
-0.025 -0.011886675 0.13909036 -1 0 0 0
0.025 -0.0069096275 0.13924645 1 0 0 0
-0.025000002 -0.0053568408 0.1392308 -1 0 0 0
-0.025 0.0057411585 0.13921358 -1 0 0 0
-0.025 0.040320184 0.13910092 -1 0 0 0
-0.011056622 -0.050000004 0.13931316 0 -1 0 0
0.0075117992 -0.050000001 0.13946837 0 -1 0 0
-0.025000002 -0.02806044 0.139329 -1 0 0 0
0.025 0.020251015 0.13935004 1 0 0 0
0.019147821 0.050000001 0.13928629 0 1 0 0
-0.025 -0.042481072 0.13961188 -1 0 0 0
0.025 -0.031199696 0.13951497 1 0 0 0
-0.024999999 0.010291871 0.13968551 -1 0 0 0
0.025 -0.023812911 0.14006633 1 0 0 0
0.025 -0.00249807 0.14014395 1 0 0 0
0.025 0.021283992 0.14013895 1 0 0 0
-0.025 0.041524075 0.14019464 -1 0 0 0
0.00080481358 -0.050000001 0.1406056 0 -1 0 0
0.025 -0.049675856 0.14066805 1 0 0 0
0.025 -0.019774465 0.14060399 1 0 0 0
-0.014050169 0.050000001 0.1406143 0 1 0 0
0.023159266 -0.050000004 0.14092502 0 -1 0 0
-0.025 -0.034580886 0.1408298 -1 0 0 0
0.0069730026 0.050000001 0.14099419 0 1 0 0
0.021541988 0.050000001 0.14093652 0 1 0 0
-0.025 -0.049503714 0.14106786 -1 0 0 0
-0.025000002 0.048242066 0.14117189 -1 0 0 0
0.024203097 -0.050000001 0.1413593 0 -1 0 0
0.025 -0.019241421 0.14125003 1 0 0 0
-0.025000002 0.023342961 0.14137942 -1 0 0 0
0.025 0.042740628 0.14142612 1 0 0 0
-0.024999999 0.04932142 0.14147365 -1 0 0 0
-0.0049581602 -0.049999997 0.14171839 0 -1 0 0
0.025 -0.0035589261 0.1416001 1 0 0 0
-0.025 0.016483052 0.14153619 -1 0 0 0
-0.025000002 0.022842878 0.14170539 -1 0 0 0
0.025 -0.011066972 0.14191654 1 0 0 0
0.020894742 0.050000001 0.14182886 0 1 0 0
0.025 -0.023952482 0.14210795 1 0 0 0
-0.025000002 0.020728797 0.14213462 -1 0 0 0
-0.025 0.045785129 0.14204071 -1 0 0 0
0.025000002 0.019554436 0.14230764 1 0 0 0
0.0020582508 0.050000001 0.14236155 0 1 0 0
0.025 -0.043486435 0.14256838 1 0 0 0
-0.025 0.022183552 0.1425239 -1 0 0 0
0.024999999 0.025498476 0.14268002 1 0 0 0
0.025000002 0.027867297 0.14267893 1 0 0 0
-0.015285062 0.050000004 0.14269653 0 1 0 0
-0.024999999 -0.014709 0.14278212 -1 0 0 0
-0.025 -0.0046076011 0.14275622 -1 0 0 0
-0.025 0.021200165 0.14275546 -1 0 0 0
-0.025 0.049682681 0.14292677 -1 0 0 0
-0.001451089 0.050000001 0.14298154 0 1 0 0
-0.025 -0.016680695 0.14321151 -1 0 0 0
0.025 0.013123995 0.1430525 1 0 0 0
-0.024999999 0.02186095 0.14306369 -1 0 0 0
0.025 0.031137748 0.14322035 1 0 0 0
0.012635493 0.050000004 0.14319196 0 1 0 0
-0.025 0.022298314 0.14331637 -1 0 0 0
0.025 0.038747516 0.14344214 1 0 0 0
-0.016700955 0.050000004 0.14340641 0 1 0 0
0.025 -0.031676017 0.14359911 1 0 0 0
0.025000002 0.012136642 0.14359142 1 0 0 0
-0.025 0.013384992 0.14359702 -1 0 0 0
0.025000002 0.017596722 0.1437168 1 0 0 0
0.015368789 0.050000001 0.14373828 0 1 0 0
0.025 -0.019694135 0.14388227 1 0 0 0
-0.024999999 0.028877044 0.14393802 -1 0 0 0
0.025 0.036838301 0.14379916 1 0 0 0
0.0046770945 0.050000001 0.14393955 0 1 0 0
-0.025000002 0.031370841 0.1440459 -1 0 0 0
0.025 0.04074033 0.14407593 1 0 0 0
-0.024999999 -0.0047276635 0.14433253 -1 0 0 0
0.025 -0.003576465 0.14430524 1 0 0 0
-0.025000002 0.010560624 0.14444518 -1 0 0 0
-0.025 0.043222446 0.14432026 -1 0 0 0
0.0026383707 0.050000001 0.14431438 0 1 0 0
0.020538097 0.050000001 0.14434968 0 1 0 0
0.025 0.028028268 0.14473435 1 0 0 0
0.020610174 0.050000001 0.14471544 0 1 0 0
-0.025000002 -0.046346817 0.14479268 -1 0 0 0
0.025 -0.034250069 0.14478227 1 0 0 0
-0.00033199694 0.050000001 0.1447697 0 1 0 0
0.012617765 -0.050000001 0.14521784 0 -1 0 0
-0.025000002 -0.0062074363 0.14514568 -1 0 0 0
0.025 0.027726665 0.14520645 1 0 0 0
0.025 0.036247879 0.14514771 1 0 0 0
-0.021096872 -0.050000001 0.14562978 0 -1 0 0
0.025 -0.042297844 0.14559959 1 0 0 0
-0.025 -0.039466418 0.14594603 -1 0 0 0
-0.025 -0.013335297 0.14581123 -1 0 0 0
0.025 0.040127493 0.14592735 1 0 0 0
-0.005796426 -0.050000004 0.14619845 0 -1 0 0
0.010730399 -0.050000004 0.14605954 0 -1 0 0
-0.025000002 -0.04800868 0.1460918 -1 0 0 0
-0.024999999 -0.040419184 0.1461187 -1 0 0 0
0.025 -0.045181364 0.14687596 1 0 0 0
0.025000002 -0.022146938 0.14688952 1 0 0 0
-0.025000002 -0.01235898 0.14699148 -1 0 0 0
0.023138134 -0.050000001 0.14705871 0 -1 0 0
0.025000002 0.017426591 0.14723742 1 0 0 0
-0.025000002 0.032736555 0.14713106 -1 0 0 0
0.025 0.037646472 0.147047 1 0 0 0
0.0019576503 0.050000001 0.14702167 0 1 0 0
0.025 -0.041385308 0.14725988 1 0 0 0
0.025 -0.044428311 0.14773607 1 0 0 0
0.025 -0.040740713 0.14765202 1 0 0 0
-0.025 -0.040190529 0.1475057 -1 0 0 0
-0.025 0.0049748477 0.14763914 -1 0 0 0
-0.0092759244 -0.050000001 0.14780015 0 -1 0 0
0.025 -0.034194887 0.14810014 1 0 0 0
-0.025 -0.028517006 0.14818135 -1 0 0 0
-0.025 0.037637025 0.14812213 -1 0 0 0
-0.013073221 0.050000001 0.1482282 0 1 0 0
0.0089878738 -0.049999997 0.14848854 0 -1 0 0
0.017598441 0.050000001 0.14833903 0 1 0 0
-0.025 -0.020331498 0.14866902 -1 0 0 0
-0.025 0.02371452 0.14862289 -1 0 0 0
0.025 -0.042784795 0.14885199 1 0 0 0
-0.025 -0.036439311 0.14885992 -1 0 0 0
0.0029644547 -0.049999997 0.14921144 0 -1 0 0
0.023417676 -0.050000001 0.14928541 0 -1 0 0
-0.025 -0.031260435 0.14944291 -1 0 0 0
-0.024999999 -0.0011303071 0.14936613 -1 0 0 0
0.024999999 0.0012610455 0.14947887 1 0 0 0
-0.012694415 -0.050000001 0.14962193 0 -1 0 0
0.025 -0.040769141 0.14967118 1 0 0 0
0.025 -0.033857893 0.14964518 1 0 0 0
-0.025 -0.049421404 0.14984091 -1 0 0 0
0.021820018 0.0079746358 0.14999999 0 0 1 0
-0.025 0.015057717 0.14993982 -1 0 0 0
0.020573679 0.035246976 0.14999999 0 0 1 0
-0.014090957 0.042740155 0.14999999 0 0 1 0
-0.013787641 -0.049229428 0.15000001 0 0 1 0
-0.014537827 -0.048794143 0.15000001 0 0 1 0
0.018539993 -0.048904117 0.15000001 0 0 1 0
0.0049297251 -0.047809523 0.15000001 0 0 1 0
-0.014358026 -0.047081962 0.15000001 0 0 1 0
0.0071861455 -0.047127031 0.15000001 0 0 1 0
-0.0039161136 -0.046158627 0.15000001 0 0 1 0
-0.00133844 -0.046176091 0.15000001 0 0 1 0
0.018510722 -0.045809917 0.15000001 0 0 1 0
0.0098679923 -0.045686901 0.15000001 0 0 1 0
-0.017302759 -0.045236439 0.15000001 0 0 1 0
0.023957901 -0.044396333 0.15000001 0 0 1 0
-0.0016477946 -0.044041175 0.15000001 0 0 1 0
0.0054996237 -0.043634549 0.15000001 0 0 1 0
-0.011677794 -0.04275766 0.15000001 0 0 1 0
0.0077441931 -0.042021036 0.15000001 0 0 1 0
-0.024570523 -0.0419401 0.15000001 0 0 1 0
-0.0081189759 -0.041958254 0.15000001 0 0 1 0
0.012699872 -0.041542031 0.15000001 0 0 1 0
0.0052810507 -0.041409016 0.15000001 0 0 1 0
-0.014460935 -0.040706616 0.15000001 0 0 1 0
0.017952969 -0.040157329 0.15000001 0 0 1 0
0.0075862026 -0.039190166 0.15000001 0 0 1 0
-0.0032750079 -0.038297929 0.15000001 0 0 1 0
-0.024190953 -0.035353083 0.15000001 0 0 1 0
-0.016767185 -0.035374977 0.15000001 0 0 1 0
0.0038123145 -0.035348527 0.15000001 0 0 1 0
-0.015639782 -0.035031743 0.15000001 0 0 1 0
0.019716697 -0.035014573 0.15000001 0 0 1 0
0.0020265705 -0.034515828 0.15000001 0 0 1 0
-0.014955912 -0.032944232 0.15000001 0 0 1 0
-0.0016958639 -0.032980993 0.15000001 0 0 1 0
0.018409209 -0.032755274 0.15000001 0 0 1 0
0.0093246866 -0.031546596 0.15000001 0 0 1 0
0.0045354413 -0.03142713 0.15000001 0 0 1 0
0.0054798564 -0.031113485 0.15000001 0 0 1 0
