# .PCD v0.7 - Point Cloud Data file format
VERSION 0.7
FIELDS x y z
SIZE 4 4 4
TYPE F F F
COUNT 1 1 1
WIDTH 1391
HEIGHT 1
VIEWPOINT 0 0 0 1 0 0 0
POINTS 1391
DATA ascii
0.18478733 -0.60809392 0.087581165
0.18585213 -0.60808825 0.087552592
0.19054952 -0.60883892 0.087003134
0.19406307 -0.60806233 0.087519191
0.1962931 -0.60883397 0.087000228
0.098478913 -0.60240448 0.087135442
0.10134231 -0.60239249 0.087109566
0.14657016 -0.60240412 0.087132871
0.14990917 -0.60240066 0.087116174
0.15151578 -0.60239112 0.087097414
0.15281548 -0.60242718 0.087185323
0.15599929 -0.6023894 0.087115772
0.15632971 -0.60238588 0.087102629
0.15810031 -0.60238642 0.087097295
0.16275123 -0.60238391 0.0870957
0.09737815 -0.6016494 0.087683447
0.12176739 -0.60165709 0.087676615
0.12898642 -0.60168487 0.087730065
0.13652594 -0.60168648 0.08774326
0.1404423 -0.60168362 0.087738678
0.14154153 -0.60167277 0.087732919
0.14403427 -0.60167986 0.087738328
0.14867322 -0.60167408 0.087723821
0.15280788 -0.60168797 0.087756135
0.15561679 -0.60167009 0.087712891
0.10415156 -0.59602767 0.087491147
0.10982136 -0.59600288 0.08745417
0.14360654 -0.59604234 0.087517887
0.23843321 -0.71572042 0.088305406
0.23578775 -0.61950213 0.088893518
0.23767416 -0.61951894 0.088922106
0.23871601 -0.61948258 0.0888815
0.20030911 -0.61306012 0.088753253
0.20281048 -0.61306465 0.088724256
0.20464709 -0.61342645 0.088424206
0.205351 -0.61305964 0.088721901
0.20640036 -0.61306322 0.088728085
0.20788948 -0.61378759 0.08814612
0.20925 -0.61305362 0.088703044
0.21153054 -0.61378008 0.088143289
0.21250272 -0.61355442 0.088354878
0.21331665 -0.61380118 0.08815182
0.21558923 -0.61303782 0.088689789
0.21648636 -0.61378115 0.08813864
0.22147936 -0.61339927 0.08837232
0.16359101 -0.60737145 0.088155381
0.17041126 -0.60736054 0.088146985
0.17509682 -0.60734564 0.088121861
0.18065606 -0.6073519 0.088133872
0.1822499 -0.60735095 0.088126034
0.18334642 -0.60735339 0.088125378
0.1578408 -0.60662895 0.088728629
0.16064614 -0.60659796 0.088681355
0.16242105 -0.60661846 0.088703662
0.16321902 -0.60663521 0.088735402
0.16436866 -0.60663056 0.088744715
0.16673313 -0.60661507 0.088697411
0.16745675 -0.60659552 0.088669859
0.1775898 -0.60661972 0.088728987
0.17868663 -0.60662305 0.088723466
0.12278881 -0.60021144 0.088873476
0.12422047 -0.60019124 0.088854469
0.1274931 -0.60023594 0.088947177
0.12858021 -0.60096043 0.08832933
0.13048272 -0.60023063 0.088928506
0.13109574 -0.6002208 0.088915832
0.13368329 -0.60094875 0.088321246
0.13542359 -0.60023558 0.088931099
0.13628544 -0.60071731 0.088527821
0.13794892 -0.6009624 0.088339522
0.13937877 -0.60094589 0.088315956
0.14621156 -0.60023177 0.088916674
0.14942108 -0.60094798 0.088323765
0.22544223 -0.61875451 0.089470163
0.23083223 -0.61876744 0.089468308
0.23258147 -0.61876553 0.089459717
0.2336607 -0.61838424 0.089725412
0.23656183 -0.61875916 0.08946418
0.21752651 -0.61798698 0.089988925
0.1890846 -0.61233228 0.089312196
0.19554728 -0.61232126 0.089306518
0.19731849 -0.61229277 0.089268312
0.19946522 -0.61233258 0.089298911
0.20139405 -0.61232597 0.089312702
0.2035087 -0.61232436 0.089282379
0.20432177 -0.6123125 0.089290671
0.181477 -0.61158198 0.089846812
0.185469 -0.61156631 0.089857511
0.18693238 -0.61158216 0.089870013
0.18767515 -0.61159164 0.089887246
0.18872553 -0.61159986 0.089902289
0.1904874 -0.61157072 0.08982674
0.19246304 -0.61156154 0.089849308
0.19306307 -0.61157143 0.089886002
0.19467342 -0.61159408 0.089898258
0.1987761 -0.61158371 0.089863978
0.19948143 -0.61158669 0.089862064
0.14010979 -0.60515958 0.089900754
0.14116572 -0.60516238 0.089895919
0.14587989 -0.60514563 0.089892454
0.14953752 -0.60514498 0.08984898
0.15065669 -0.60516781 0.08991459
0.15238518 -0.60589737 0.089309193
0.15313067 -0.6051591 0.089881651
0.15478317 -0.60538501 0.089663886
0.15573215 -0.60562909 0.089465357
0.15709239 -0.60515791 0.089886621
0.1585906 -0.60590005 0.089326046
0.16027033 -0.60551423 0.089564636
0.16154647 -0.60585731 0.089263402
0.16209282 -0.60586751 0.089259095
0.16315295 -0.60589093 0.089301787
0.16538545 -0.60553777 0.089618035
0.16644683 -0.60516828 0.089917235
0.16854008 -0.60587084 0.089270242
0.11674367 -0.59947699 0.089488126
0.11739296 -0.59948361 0.089476064
0.12032373 -0.59952313 0.089540876
0.12157494 -0.59950817 0.089512408
0.12247419 -0.59948742 0.089489967
0.12891132 -0.59951335 0.089522406
0.13320203 -0.59948605 0.089479089
0.22190388 -0.61801463 0.09003558
0.2290244 -0.61801422 0.090003289
0.23079972 -0.61801046 0.090020604
0.23151703 -0.61802036 0.090009928
0.23544425 -0.61801082 0.090007015
0.21429794 -0.61727524 0.090595394
0.21576957 -0.61729932 0.090616502
0.21858558 -0.6172483 0.090542421
0.22174256 -0.61727858 0.090601489
0.22578606 -0.61727446 0.090585917
0.16636024 -0.61009443 0.090989076
0.17345232 -0.61009258 0.090993419
0.17648897 -0.61084455 0.090425007
0.17939942 -0.61082387 0.090425961
0.18008207 -0.61083537 0.090425983
0.18117851 -0.61083782 0.090425335
0.18473367 -0.61082613 0.090414621
0.18541978 -0.6100859 0.090985045
0.19159034 -0.61081493 0.090388604
0.19224499 -0.61081505 0.090404212
0.14078324 -0.60442895 0.090480007
0.14353628 -0.60442489 0.090470195
0.14437298 -0.60443044 0.090467595
0.14727545 -0.60441899 0.090468042
0.1524308 -0.60445106 0.090520836
0.095091477 -0.59804797 0.090697646
0.097266592 -0.59876102 0.090095408
0.1016546 -0.59806389 0.090727642
0.1030347 -0.5980556 0.090702355
0.10415389 -0.59805071 0.090699896
0.1137832 -0.59805912 0.090714112
0.11437124 -0.59875989 0.090095371
0.11664231 -0.59804028 0.090693347
0.11919215 -0.59876472 0.090067148
0.12100862 -0.59879559 0.090132095
0.12634155 -0.59802586 0.090679422
0.13318768 -0.59804082 0.090682603
0.22372712 -0.70918566 0.09149766
0.22551917 -0.70918 0.091500416
0.22244197 -0.70835638 0.09192843
0.22991119 -0.70836818 0.091894791
0.23244604 -0.70835209 0.091901064
0.23562305 -0.70835888 0.091894545
0.23891653 -0.70835161 0.091904901
0.24100763 -0.708354 0.091888733
0.24017689 -0.62302268 0.091534488
0.23828039 -0.62299359 0.091499269
0.20097019 -0.61655003 0.091154166
0.20742324 -0.61653137 0.091143861
0.20929562 -0.61652625 0.091149502
0.21272057 -0.61652344 0.091132298
0.21321762 -0.61652762 0.091128513
0.21432056 -0.61651665 0.091137476
0.21575062 -0.61655164 0.091171399
0.21968588 -0.61652297 0.091104291
0.22022319 -0.61653507 0.091136016
0.19443125 -0.61576813 0.091701277
0.19624333 -0.61580139 0.091721296
0.19803318 -0.61580718 0.091731966
0.20172091 -0.61579579 0.091718622
0.20386009 -0.61579388 0.091719404
0.20528932 -0.61580658 0.091727458
0.20854059 -0.61578751 0.091705784
0.21046484 -0.61579162 0.091729529
0.21217664 -0.61578828 0.091698743
0.21436954 -0.615771 0.091696315
0.21716399 -0.61578685 0.091712043
0.17905806 -0.61009306 0.091002256
0.18118162 -0.61009526 0.091004618
0.18299183 -0.61009949 0.091017403
0.18405516 -0.61010981 0.091027424
0.16027343 -0.60934287 0.091544978
0.16256295 -0.60936707 0.091601402
0.16607119 -0.60933143 0.091531374
0.16782156 -0.60936028 0.091578551
0.16856493 -0.60936415 0.091586821
0.17039277 -0.60935831 0.091584168
0.17148893 -0.60933554 0.091549955
0.17257524 -0.60934091 0.091557071
0.1034606 -0.60366189 0.091002047
0.12717822 -0.60370356 0.091061041
0.13071905 -0.60367203 0.09101034
0.13148522 -0.60367495 0.091025136
0.13328399 -0.60369819 0.091061369
0.13649002 -0.60370153 0.091070153
0.13723315 -0.60368752 0.091051355
0.13969211 -0.6036945 0.091059729
0.1429832 -0.60369617 0.091070175
0.14439732 -0.60369962 0.091051936
0.14545375 -0.60370332 0.091063149
0.14616242 -0.60369354 0.091065213
0.1479917 -0.60368294 0.091050543
0.14914912 -0.60368425 0.091037966
0.12319314 -0.60291767 0.091582619
0.12423116 -0.60294133 0.091616251
0.12788503 -0.60296988 0.091643579
0.12884143 -0.60295945 0.091640867
0.12947389 -0.60295343 0.09163262
0.13068621 -0.60293961 0.091595538
0.1327081 -0.60296881 0.091651917
0.13397099 -0.60296935 0.09164308
0.13582177 -0.60297316 0.091662578
0.13723665 -0.60296994 0.091649197
0.13896087 -0.60296774 0.091637872
0.13972393 -0.6029669 0.091649488
0.14039372 -0.60296392 0.091650523
0.083249353 -0.59730268 0.091260679
0.094383173 -0.59732276 0.091300853
0.10049347 -0.59733623 0.091311708
0.10158249 -0.59734416 0.091340125
0.078940041 -0.59661859 0.091931969
0.09942966 -0.59658247 0.091867574
0.24043423 -0.70673335 0.092708662
0.23543483 -0.62225837 0.092067391
0.2365106 -0.62222546 0.092036478
0.23721068 -0.62222129 0.092012353
0.23902151 -0.62223864 0.092043921
0.22605173 -0.62147975 0.092563719
0.23041904 -0.62149543 0.092596024
0.23366177 -0.62148541 0.092581116
0.23508589 -0.62149763 0.092605963
0.23789367 -0.62147075 0.092549898
0.23867264 -0.62147552 0.092568733
0.18402779 -0.61503059 0.092263401
0.18763293 -0.61504829 0.092283994
0.19050767 -0.61503172 0.092270933
0.19161572 -0.61505359 0.092304029
0.19229826 -0.61506456 0.092313334
0.19409822 -0.61504275 0.092269018
0.19519219 -0.61501062 0.092246994
0.1995547 -0.61505306 0.092300773
0.20044723 -0.61505008 0.092272788
0.20283356 -0.61504072 0.092268176
0.20642275 -0.61504531 0.09227071
0.2088919 -0.61503351 0.092257984
0.17653726 -0.61429471 0.092830941
0.18080361 -0.614308 0.092865661
0.1818687 -0.6143024 0.092837125
0.18256845 -0.61428779 0.0928142
0.18369235 -0.6142869 0.092823416
0.18660192 -0.61432129 0.092867322
0.18836164 -0.61429572 0.092811182
0.18942498 -0.61427659 0.092788205
0.19007966 -0.61427665 0.092803814
0.19479339 -0.61428159 0.092815131
0.19663022 -0.61430591 0.092854649
0.16395497 -0.60863554 0.09217789
0.16493168 -0.60861051 0.092137262
0.16674027 -0.60859913 0.092112787
0.14630759 -0.60787696 0.09270183
0.14808579 -0.60787076 0.092689149
0.14921367 -0.60790336 0.092771038
0.15309009 -0.60786396 0.09269201
0.15492816 -0.60787386 0.092701286
0.15639837 -0.60789186 0.092736967
0.15774749 -0.6078757 0.09269762
0.15915036 -0.60786045 0.092681438
0.1134663 -0.60219342 0.092174694
0.11417162 -0.60220927 0.092196763
0.11776991 -0.60222811 0.09221264
0.12640254 -0.60223061 0.092246108
0.12859157 -0.6022402 0.092237502
0.13036801 -0.60221756 0.092196859
0.13177411 -0.60221332 0.092185184
0.10838244 -0.60146141 0.092754185
0.11096554 -0.6014986 0.092802964
0.11204197 -0.60148704 0.092791259
0.11452863 -0.60147309 0.09277162
0.11774193 -0.60148656 0.092774808
0.12277301 -0.60146147 0.092746191
0.088960737 -0.59589529 0.092510276
0.24196179 -0.70509452 0.093517758
0.2142849 -0.62000817 0.093704045
0.2163845 -0.62072176 0.093097627
0.22074327 -0.62072825 0.093112297
0.22139099 -0.62071997 0.093096875
0.22252879 -0.62074363 0.093126379
0.22469997 -0.62074822 0.093162253
0.22502218 -0.62074852 0.093150422
0.22685008 -0.62072712 0.093112126
0.23005843 -0.6207391 0.093134873
0.23153733 -0.62073493 0.093132973
0.23251978 -0.62072432 0.093105368
0.23328742 -0.62072605 0.093117774
0.23432663 -0.62073129 0.093114235
0.20963636 -0.61999679 0.093684644
0.21462297 -0.619995 0.093697853
0.21750748 -0.61998367 0.093646862
0.21856545 -0.61999863 0.093686379
0.22361909 -0.61999673 0.093692623
0.22477892 -0.61998212 0.093697667
0.22645395 -0.61997098 0.093663625
0.22832291 -0.61997694 0.093666427
0.22904116 -0.61996663 0.093682684
0.23331116 -0.61995882 0.09364114
0.17863736 -0.61354399 0.093377642
0.18065508 -0.61355472 0.093400136
0.18189545 -0.61356324 0.093412556
0.18261911 -0.61354649 0.09338741
0.18326059 -0.61353964 0.093370341
0.18936476 -0.6135388 0.093338914
0.19196011 -0.61355001 0.093411781
0.19377287 -0.61356503 0.093420759
0.16718213 -0.61280996 0.09396717
0.1682397 -0.61280417 0.093954891
0.16933556 -0.61278147 0.093920559
0.1725457 -0.61280209 0.09393847
0.17435987 -0.61278909 0.09394455
0.17578317 -0.61281145 0.093933307
0.17683373 -0.61280578 0.093948938
0.17938419 -0.61280102 0.09394636
0.18190698 -0.61282063 0.093975015
0.18550621 -0.61280322 0.09395428
0.13755356 -0.60713738 0.093288764
0.13938376 -0.60714531 0.093300521
0.14121197 -0.60713321 0.093291774
0.14297791 -0.60713905 0.093288377
0.14508328 -0.60713327 0.093281269
0.14719176 -0.60712206 0.093261495
0.14991403 -0.60716653 0.093343019
0.15081187 -0.60715723 0.093327165
0.15218319 -0.60712624 0.093267031
0.15600003 -0.60714674 0.093295872
0.13665289 -0.60640025 0.093849368
0.13759162 -0.60640174 0.093864344
0.14045247 -0.60640347 0.093870111
0.14809677 -0.60637122 0.093817867
0.15065888 -0.60642922 0.09391769
0.06928017 -0.60002035 0.093948036
0.084364489 -0.60002017 0.09394677
0.089782782 -0.60004699 0.093992598
0.095138311 -0.60000634 0.0939551
0.10093496 -0.60075915 0.093380272
0.10436928 -0.60025108 0.093733899
0.10589825 -0.6007424 0.093337521
0.10823086 -0.60072088 0.093329877
0.10948472 -0.60037196 0.093639255
0.11066071 -0.60075808 0.093380496
0.11169481 -0.60076392 0.093384057
0.11374756 -0.60072917 0.093336143
0.1159763 -0.60074073 0.093359508
0.11667906 -0.60074538 0.093338557
0.11703902 -0.60074008 0.093328185
0.12243981 -0.60073751 0.093333177
0.10767567 -0.59999335 0.09392564
0.08172597 -0.59445286 0.093714826
0.22919798 -0.70348287 0.094353013
0.23563251 -0.70346278 0.094347581
0.23887075 -0.70347214 0.094316579
0.23350039 -0.70266604 0.094745688
0.24070932 -0.62645495 0.09416914
0.24035989 -0.62568593 0.094694547
0.19954866 -0.61924857 0.094246857
0.20352188 -0.61925805 0.094253436
0.20601924 -0.61924028 0.094237134
0.20863977 -0.61924833 0.094260812
0.2096785 -0.61925209 0.094249502
0.21107507 -0.61922675 0.09421289
0.21573016 -0.61922085 0.094231009
0.21824183 -0.61923647 0.09421704
0.22112347 -0.61922497 0.09422221
0.19584772 -0.61850983 0.094805516
0.19668235 -0.61849481 0.094822489
0.20172468 -0.61849463 0.094791025
0.20260897 -0.61849219 0.094793633
0.20461698 -0.61848712 0.094784029
0.20562285 -0.61848819 0.094771922
0.20672457 -0.61847842 0.094771363
0.20826074 -0.61847568 0.094783247
0.21235858 -0.61846888 0.094764389
0.21398737 -0.61850142 0.094803713
0.21663418 -0.61844528 0.094743423
0.15704875 -0.61203194 0.094465323
0.16278426 -0.61204821 0.094493762
0.16569731 -0.61205959 0.094504043
0.16791925 -0.61206448 0.094526455
0.17114337 -0.61203671 0.094485611
0.1737873 -0.61205244 0.094506286
0.17508869 -0.61205703 0.094507433
0.17684393 -0.61206001 0.094501399
0.18042442 -0.61205739 0.094485596
0.08516714 -0.60566491 0.094426557
0.12360288 -0.60565966 0.094441742
0.12646601 -0.60566694 0.094438188
0.12721333 -0.60565215 0.094423629
0.13255765 -0.60566133 0.094424911
0.13332781 -0.60566014 0.094432354
0.14547609 -0.60565186 0.094429605
0.07115481 -0.60489327 0.094937526
0.11384151 -0.60489392 0.094949305
0.11600066 -0.60491514 0.094984517
0.11892139 -0.60489738 0.094962813
0.11958052 -0.60489839 0.094945423
0.1206535 -0.60488027 0.09493266
0.12316938 -0.60490042 0.09497875
0.12535775 -0.60492271 0.09499535
0.12894735 -0.60489708 0.094957508
0.088288538 -0.5993039 0.094557151
0.089038119 -0.59932041 0.094583787
0.091536105 -0.59930575 0.094557486
0.093340889 -0.59929049 0.094544858
0.094793834 -0.5992825 0.094536908
0.096193321 -0.59928322 0.09454608
0.10622653 -0.59927624 0.094513156
0.24045323 -0.70184547 0.095126085
0.23162773 -0.70021945 0.095974661
0.21957967 -0.62416363 0.095762029
0.22034122 -0.6241889 0.095785081
0.22107236 -0.62419319 0.095807612
0.222232 -0.62417859 0.095812663
0.22482818 -0.62455654 0.095511958
0.22577699 -0.6241737 0.095781505
0.22681995 -0.62494475 0.095268108
0.22750667 -0.62494344 0.095264614
0.22860283 -0.62418127 0.095790647
0.2298279 -0.6245513 0.095507957
0.23147711 -0.6249339 0.095252901
0.23214778 -0.62417221 0.095771387
0.23436238 -0.6249311 0.095270775
0.23643431 -0.62416381 0.095764004
0.23759758 -0.62494594 0.095276967
0.23830801 -0.62419146 0.095801316
0.23938297 -0.62492919 0.095268749
0.19090717 -0.61775208 0.095366701
0.19548526 -0.6177485 0.095330998
0.1973888 -0.61774427 0.095366478
0.19915123 -0.61773574 0.09532547
0.17686675 -0.61697811 0.095874429
0.18332979 -0.61698556 0.09588179
0.18425444 -0.61699438 0.095901087
0.18688527 -0.61697441 0.095838375
0.18864514 -0.61696416 0.095853418
0.19161747 -0.61699438 0.095905416
0.1944222 -0.61697167 0.095865965
0.19624139 -0.61699653 0.095882051
0.15315737 -0.61130786 0.095057122
0.15779005 -0.6112718 0.095015682
0.15850706 -0.61128539 0.095014669
0.16032124 -0.61132622 0.09508267
0.16282369 -0.61131239 0.095073707
0.16349743 -0.61130124 0.0950379
0.16953662 -0.61129969 0.095054649
0.17058274 -0.6112842 0.095026299
0.17471787 -0.61129564 0.095066659
0.14487579 -0.61054915 0.095594823
0.15094812 -0.61054397 0.095586956
0.15172035 -0.6105389 0.095579982
0.15566258 -0.610569 0.095620021
0.15630494 -0.61055428 0.095581248
0.15737092 -0.6105423 0.09558019
0.15849386 -0.61053103 0.095578693
0.15992965 -0.61056095 0.095614031
0.16182451 -0.61057299 0.095643528
0.16606019 -0.61055708 0.095610537
0.10595331 -0.6041311 0.095504776
0.10777484 -0.60415095 0.095530309
0.11133145 -0.60414219 0.095519423
0.11354796 -0.60414755 0.095532313
0.11492576 -0.60415065 0.095500708
0.1167714 -0.60493284 0.095014237
0.11763962 -0.60418761 0.09557388
0.11869813 -0.60417211 0.095546722
0.11960267 -0.60415816 0.095517702
0.12067921 -0.60414106 0.095501289
0.12177396 -0.60413867 0.095504224
0.12245764 -0.60414231 0.095525183
0.12358958 -0.60491592 0.095004052
0.12538245 -0.60417998 0.095581755
0.13473487 -0.60492986 0.095020235
0.080835477 -0.59856385 0.095126942
0.085808657 -0.5985691 0.095138259
0.086878337 -0.59857363 0.095142491
0.06568516 -0.59785509 0.095735893
0.076086864 -0.59783733 0.095710568
0.082181327 -0.59781408 0.095686391
0.23839977 -0.69939619 0.09636277
0.21757214 -0.62342834 0.096341647
0.22179587 -0.6234203 0.096327305
0.22717281 -0.62340927 0.096318759
0.2303675 -0.62340724 0.096295379
0.23147807 -0.62340105 0.09629447
0.20751077 -0.6226778 0.096877165
0.20923947 -0.62265843 0.096840888
0.21002916 -0.62264973 0.096851952
0.21392573 -0.62263107 0.09684369
0.21528603 -0.62263876 0.09680853
0.22689936 -0.62263584 0.096841715
0.22826323 -0.62265581 0.096835598
0.2343722 -0.62266475 0.096863396
0.17399193 -0.61623275 0.096416019
0.17563774 -0.61620998 0.096407704
0.18404703 -0.61623526 0.096441001
0.18757737 -0.61621249 0.096365631
0.18831594 -0.61620522 0.096382804
0.19086179 -0.61623973 0.096438266
0.19588293 -0.61622757 0.096407361
0.16970576 -0.6154626 0.096946239
0.17184736 -0.61546677 0.096968539
0.1725779 -0.61545503 0.0969567
0.17360835 -0.6154772 0.096947841
0.17505205 -0.61547166 0.096961081
0.17654197 -0.61546552 0.09695372
0.17795517 -0.61546975 0.096950114
0.17828052 -0.61547118 0.09694121
0.12793651 -0.60904473 0.096695267
0.13120401 -0.60906589 0.096731529
0.137583 -0.60906619 0.096735068
0.13868445 -0.60906923 0.096740127
0.13923363 -0.60906547 0.096738495
0.14049895 -0.60906506 0.096727639
0.14154166 -0.60982001 0.096176587
0.14264038 -0.60943103 0.096455589
0.14482565 -0.60906214 0.096741185
0.14578319 -0.60978794 0.096135817
0.14741527 -0.60944486 0.096465521
0.14852889 -0.60984272 0.096231163
0.15097897 -0.60979933 0.096156426
0.15442699 -0.60982358 0.096185565
0.15707232 -0.6098004 0.096139811
0.10062548 -0.60342747 0.096116453
0.10168268 -0.60341609 0.096096464
0.10450425 -0.60340804 0.096081711
0.10733356 -0.60340804 0.096086316
0.10850601 -0.60341632 0.096114852
0.11564732 -0.60341257 0.096071899
0.094091028 -0.60267687 0.096689932
0.098448187 -0.60269976 0.096717268
0.10056257 -0.60268998 0.096691757
0.10345895 -0.60266668 0.096656568
0.10559081 -0.60265863 0.096653156
0.10958432 -0.6026997 0.096705236
0.1120295 -0.60266107 0.096661739
0.10228899 -0.59710479 0.096306376
0.067483425 -0.59637779 0.096900232
0.071730696 -0.59635246 0.096863955
0.087194674 -0.59637463 0.096892029
0.23711881 -0.69695705 0.097580448
0.23321678 -0.62833357 0.097998202
0.18728139 -0.62114567 0.097953096
0.19699527 -0.62114626 0.097924158
0.19851011 -0.62190723 0.097394973
0.20102689 -0.62114453 0.097938709
0.20381749 -0.62189847 0.097383499
0.20549262 -0.62151647 0.097650938
0.20895499 -0.62151313 0.097644597
0.20999131 -0.62188786 0.097375564
0.21071556 -0.62188447 0.097377256
0.21145622 -0.62191141 0.09740492
0.21678858 -0.6219064 0.097379334
0.21791281 -0.62191194 0.097392894
0.15899567 -0.61472327 0.097526513
0.16068549 -0.61471826 0.097514711
0.16335416 -0.61471045 0.097490028
0.16425315 -0.61471593 0.09750355
0.16757201 -0.61470038 0.097488545
0.16823883 -0.61468679 0.097459726
0.16973096 -0.61470139 0.097483523
0.17331217 -0.61471498 0.097505011
0.16245286 -0.61393291 0.097993717
0.12251411 -0.60831469 0.09730237
0.12434693 -0.6083228 0.09728507
0.12546274 -0.60831034 0.097279161
0.1264804 -0.60830218 0.097253211
0.12933065 -0.60832381 0.097299673
0.13043264 -0.60832196 0.097284488
0.13154447 -0.60832274 0.097290955
0.13350046 -0.6083228 0.097293586
0.13685535 -0.60831612 0.097291902
0.11966246 -0.60752863 0.097774595
0.12105508 -0.60754651 0.097814232
0.12361432 -0.60757142 0.09784691
0.12751071 -0.60754496 0.097793527
0.12921613 -0.60756671 0.097838707
0.1300614 -0.60757327 0.097850859
0.13511458 -0.60755938 0.097824559
0.0696382 -0.60193545 0.097245246
0.079032369 -0.6019491 0.097249545
0.082590312 -0.60117501 0.097784288
0.083768718 -0.60120577 0.097829156
0.084794059 -0.6012221 0.097840749
0.087634489 -0.60197163 0.097293198
0.090136185 -0.60195595 0.097270012
0.091223083 -0.60194272 0.097260356
0.092283882 -0.60157394 0.09754169
0.094634205 -0.6015659 0.097539768
0.095906571 -0.60119385 0.097805507
0.096281596 -0.60193133 0.097237267
0.097334363 -0.6012094 0.09782964
0.098437756 -0.60196322 0.097289719
0.10199542 -0.60194576 0.097243801
0.10413526 -0.60192567 0.09722466
0.24074508 -0.62837678 0.09805806
0.24150996 -0.62836248 0.098054282
0.22609068 -0.62759477 0.098551385
0.23110227 -0.62759429 0.098562263
0.23469001 -0.62757277 0.098525211
0.23540671 -0.62758023 0.098542467
0.23632631 -0.62760723 0.098567009
0.23758647 -0.62758082 0.09855897
0.24041052 -0.6275965 0.098550096
0.18963307 -0.62039697 0.098485678
0.19051611 -0.62037933 0.098450594
0.19161037 -0.62034762 0.098428674
0.19227183 -0.62037468 0.09844996
0.19336487 -0.62038636 0.09844926
0.19481277 -0.6203953 0.098470204
0.19597244 -0.62038934 0.098482236
0.19670607 -0.62038589 0.098457232
0.19702339 -0.62038708 0.098451585
0.19925183 -0.6203776 0.098449849
0.20173001 -0.6203931 0.098473057
0.2060722 -0.62036365 0.098436534
0.20792463 -0.62039459 0.098473936
0.18012197 -0.61960828 0.098975942
0.18479128 -0.61961716 0.098963648
0.18617076 -0.61960042 0.098952055
0.1912231 -0.61960298 0.098967612
0.14640214 -0.61323291 0.098643191
0.14809428 -0.61394024 0.098014392
0.14954606 -0.61318827 0.098559201
0.15031089 -0.61318088 0.09855099
0.15138423 -0.61319846 0.098568603
0.15250109 -0.613217 0.098602921
0.15353003 -0.61396706 0.098046489
0.15439066 -0.61357331 0.098287329
0.15672924 -0.61317354 0.098547228
0.15778258 -0.61319929 0.098569475
0.15893596 -0.61397636 0.098064236
0.15969233 -0.61397123 0.098070055
0.16050835 -0.61372036 0.09824843
0.16206831 -0.61394405 0.098000363
0.16497159 -0.61396617 0.098055556
0.16537532 -0.61396676 0.098047853
0.16719969 -0.61321199 0.098604038
0.16937536 -0.61394167 0.098023854
0.17148621 -0.61395866 0.098032668
0.09638232 -0.60607427 0.098957002
0.10135894 -0.60604054 0.098898202
0.10349028 -0.60603219 0.09889473
0.1052304 -0.60603446 0.098895006
0.10679729 -0.60681087 0.098379761
0.10745226 -0.60681951 0.098387301
0.10835154 -0.60606861 0.098941728
0.10956698 -0.60678238 0.098346911
0.11063833 -0.6067875 0.098350137
0.11426442 -0.60605234 0.098896109
0.11540283 -0.6060822 0.098969325
0.11712434 -0.60680723 0.098366261
0.11857645 -0.60679007 0.098332435
0.11998125 -0.60603315 0.098881014
0.12110197 -0.6067881 0.098359033
0.12288902 -0.60682398 0.098417088
0.06892062 -0.60046285 0.098387651
0.072882891 -0.60045266 0.098358721
0.074353397 -0.60047501 0.098397218
0.075405985 -0.60048312 0.098422185
0.079055533 -0.60047364 0.098406933
0.086567096 -0.60047883 0.098414868
0.091605522 -0.60047096 0.098412149
0.0718081 -0.59971327 0.098961301
0.07216844 -0.59971404 0.098961413
0.074342884 -0.59973228 0.098958611
0.081851371 -0.59969574 0.098928399
0.08290676 -0.59969264 0.098926187
0.22574753 -0.70527405 0.099653624
0.24203958 -0.6936931 0.099182792
0.20892186 -0.62607145 0.099604957
0.21279109 -0.62603319 0.099536933
0.21354672 -0.62605077 0.099544317
0.21641654 -0.62681842 0.099064671
0.21779814 -0.62603158 0.099536285
0.2186029 -0.62604463 0.099553227
0.22038898 -0.62603873 0.099579662
0.22126707 -0.62605941 0.099595569
0.22230276 -0.62642658 0.09930487
0.22504371 -0.62642395 0.099320501
0.2268146 -0.62682188 0.099064842
0.22969501 -0.62603796 0.099557281
0.23071764 -0.626809 0.099047191
0.23148051 -0.62682295 0.099069722
0.2326038 -0.62682587 0.099075638
0.23364639 -0.62679017 0.099035054
0.23428993 -0.6267975 0.099018961
0.23865801 -0.62680024 0.099031262
0.18406062 -0.61963516 0.099005923
0.18840639 -0.61962682 0.099013008
0.17507839 -0.61884987 0.099501021
0.17647161 -0.61886191 0.0994974
0.17727245 -0.6188587 0.099526033
0.1793803 -0.61884874 0.099502183
0.18085006 -0.61884063 0.09950459
0.18356127 -0.61887908 0.09954986
0.13840255 -0.61244696 0.099114634
0.14049245 -0.61244512 0.099132732
0.14456752 -0.61243403 0.099086717
0.14526513 -0.6124506 0.099130273
0.14638124 -0.6124748 0.09918154
0.14776514 -0.61245424 0.099131845
0.14921968 -0.61243391 0.099110402
0.15098381 -0.61243373 0.099093616
0.15132378 -0.61243224 0.099092439
0.15359555 -0.61245871 0.099147424
0.13158379 -0.61169761 0.09967348
0.13368864 -0.61169636 0.099676646
0.13438748 -0.61168975 0.099669188
0.13944246 -0.61169416 0.099664234
0.14050607 -0.61169511 0.099671111
0.14191765 -0.61168563 0.099661671
0.14781557 -0.61170459 0.099699728
0.14852776 -0.61169213 0.099661373
0.093128547 -0.60529941 0.099472523
0.097091615 -0.60532176 0.099504091
0.10137547 -0.60529256 0.099448688
0.10525411 -0.60527784 0.099439509
0.11283715 -0.60529763 0.09947221
0.063589305 -0.59900767 0.09956453
0.089793555 -0.5997504 0.099002883
0.066397399 -0.59899497 0.099546842
0.068932705 -0.5989871 0.099539317
0.079377234 -0.59899396 0.099544421
0.24043494 -0.70282632 0.10087644
0.24040912 -0.63174242 0.10090282
0.24254335 -0.63175535 0.10090855
0.20856002 -0.62527406 0.10008986
0.21249045 -0.62524879 0.10005437
0.21575743 -0.62530142 0.10010549
0.21686774 -0.62527686 0.10010102
0.21752898 -0.62526929 0.10006421
0.22398828 -0.62527627 0.10006893
0.19524582 -0.6245364 0.10063212
0.20244707 -0.6245212 0.10061724
0.20432249 -0.62451303 0.10062153
0.20506854 -0.6245299 0.10064107
0.20681001 -0.62451565 0.100611
0.20750414 -0.62450844 0.10059318
0.20821482 -0.62450683 0.10060072
0.20927833 -0.6245141 0.1006169
0.21074773 -0.62453711 0.10063764
0.21141863 -0.62452042 0.10062015
0.21324949 -0.62448037 0.10056663
0.21467091 -0.6245181 0.1005974
0.21578169 -0.62452346 0.10061184
0.21690446 -0.6245144 0.10062423
0.21822205 -0.62449229 0.10056914
0.22254759 -0.62451059 0.10061446
0.17223535 -0.61810195 0.10002748
0.17509301 -0.61809182 0.10003269
0.17651461 -0.61809582 0.10002319
0.17835812 -0.61811042 0.10006902
0.18044922 -0.61808854 0.10003831
0.18447188 -0.61811483 0.10007082
0.1568085 -0.61734915 0.10058948
0.15861325 -0.61734104 0.10059603
0.16032571 -0.61730593 0.10051896
0.16105676 -0.61731249 0.10053435
0.16526511 -0.61732996 0.10057284
0.16724765 -0.61731464 0.10054885
0.16864833 -0.61732835 0.10055728
0.16919643 -0.61733419 0.10056128
0.17004597 -0.61732626 0.10056445
0.17187263 -0.61733764 0.10055906
0.17330754 -0.61733514 0.10056634
0.11735532 -0.61051905 0.10041371
0.11899859 -0.61014742 0.10071298
0.12043872 -0.61018002 0.10076348
0.12185945 -0.61018354 0.10074712
0.12370435 -0.61092931 0.10020442
0.12542592 -0.61053532 0.10043566
0.12614563 -0.61053723 0.10043527
0.12871508 -0.61018246 0.10075483
0.1305362 -0.61094517 0.10022914
0.13141119 -0.61018878 0.10076725
0.13229829 -0.61092836 0.10020282
0.13323027 -0.61067837 0.10037812
0.13532943 -0.61092943 0.10021571
0.13693002 -0.61093932 0.10021764
0.14196555 -0.61092824 0.10021021
0.14268912 -0.61092722 0.10020452
0.14305586 -0.61092305 0.10020228
0.089862354 -0.60456216 0.10004371
0.093818218 -0.60455155 0.10001838
0.096304625 -0.60458332 0.1000773
0.09867055 -0.6045692 0.10004547
0.099917814 -0.60456914 0.10003885
0.10099342 -0.60455096 0.10001716
0.10274874 -0.60454839 0.10001189
0.10382849 -0.60454386 0.10001229
0.10492388 -0.60452729 0.10000139
0.10675053 -0.6045472 0.10001923
0.078364804 -0.60380125 0.10057132
0.083412006 -0.60382909 0.10061306
0.085374691 -0.60383171 0.10061724
0.08952301 -0.60382056 0.10061089
0.09126763 -0.60380995 0.10059088
0.095622435 -0.60381645 0.10059493
0.096354648 -0.60383236 0.10062888
0.098122507 -0.60382324 0.10060644
0.067868859 -0.5982489 0.10011351
0.095163539 -0.59823221 0.1001084
0.22071975 -0.63018256 0.10188089
0.22140665 -0.6301958 0.10189366
0.22254321 -0.63017809 0.10190926
0.22324115 -0.63019568 0.10190701
0.22639027 -0.63017958 0.10187408
0.22749284 -0.63018686 0.10188957
0.22896972 -0.63018662 0.10190313
0.22967292 -0.63020492 0.10192012
0.23248297 -0.63017797 0.10187566
0.23325306 -0.63018191 0.10189426
0.23514886 -0.63021064 0.1019295
0.23646304 -0.63056153 0.10161792
0.23769142 -0.63056743 0.10162055
0.23859181 -0.63098609 0.1014182
0.24082246 -0.63017976 0.10190486
0.18977672 -0.62373412 0.10111789
0.19228689 -0.62377548 0.10115645
0.19312179 -0.6237607 0.10117352
0.19456013 -0.62376434 0.10114165
0.19816455 -0.62376088 0.10114194
0.20206192 -0.62375414 0.1011226
0.20354584 -0.62374163 0.10112074
0.20649308 -0.62300336 0.10167408
0.21074711 -0.6237672 0.10114875
0.2121343 -0.62374234 0.10113526
0.18838526 -0.62299198 0.10166842
0.18944646 -0.62296128 0.10163499
0.19887339 -0.62298667 0.10165293
0.20030302 -0.62299925 0.10166091
0.20125674 -0.62298262 0.10164852
0.20212112 -0.62298352 0.10164713
0.15147939 -0.6165778 0.10111703
0.15498182 -0.61654514 0.10105037
0.15566026 -0.61656433 0.10108002
0.15826318 -0.61658245 0.101111
0.15997221 -0.61656088 0.10107346
0.16111761 -0.61654204 0.10105119
0.16400361 -0.6165722 0.10110455
0.16762227 -0.61654866 0.10107336
0.17119244 -0.61655509 0.10110222
0.14564887 -0.61581188 0.10162769
0.14920764 -0.61579001 0.1015883
0.15035172 -0.6158132 0.10163024
0.15279195 -0.61579883 0.10158776
0.15569186 -0.61578953 0.10159206
0.15641639 -0.61580533 0.10162066
0.10428991 -0.60939711 0.10125325
0.1075437 -0.6093908 0.10125332
0.10814822 -0.6093846 0.10123175
0.11216713 -0.60940397 0.10123576
0.11541368 -0.6094135 0.10126685
0.11880855 -0.609384 0.10124073
0.12509169 -0.60941565 0.10128446
0.099284008 -0.60863656 0.10177352
0.10029531 -0.60864013 0.10178009
0.1013751 -0.60863554 0.10178045
0.1020927 -0.6086247 0.10177736
0.10503283 -0.60864669 0.10180885
0.11251784 -0.60864913 0.10178214
0.11511499 -0.60866672 0.10182367
0.11756181 -0.60863149 0.10176633
0.071570612 -0.60305655 0.10111842
0.073331855 -0.60308552 0.10117311
0.078358538 -0.60305971 0.10113218
0.07908009 -0.60304528 0.10111687
0.08016175 -0.60303658 0.10111419
0.081960745 -0.60306484 0.10114395
0.083040781 -0.60307711 0.10116398
0.084103912 -0.60308331 0.10116898
0.085189708 -0.60308057 0.10116724
0.087048523 -0.6030888 0.10119138
0.088258445 -0.6030888 0.10118024
0.089545488 -0.60307086 0.10116672
0.067938976 -0.60230726 0.10169236
0.068991639 -0.60230976 0.10169894
0.069356702 -0.60230702 0.10170171
0.070093304 -0.6023069 0.10170225
0.075501241 -0.60233319 0.10174821
0.076561026 -0.60233635 0.10172781
0.079772934 -0.60229462 0.10167068
0.080847844 -0.60228676 0.10166185
0.081948176 -0.60230035 0.10168287
0.084808618 -0.60233337 0.10172675
0.20850649 -0.62942696 0.10242179
0.21363108 -0.62942797 0.10242339
0.22033934 -0.62940395 0.10238766
0.2222098 -0.62941039 0.10239071
0.22394913 -0.62941879 0.1023901
0.22627315 -0.62940878 0.10238354
0.22719833 -0.62939274 0.10236567
0.20428304 -0.628645 0.10291025
0.20821986 -0.62866598 0.10293683
0.20999491 -0.62861598 0.10289529
0.21135609 -0.6286239 0.10286043
0.21325465 -0.62865281 0.10291115
0.21471985 -0.62863588 0.10291289
0.21569486 -0.62862158 0.10286841
0.21749988 -0.62865406 0.10290298
0.22002028 -0.62863976 0.1029137
0.22184026 -0.62863523 0.10288087
0.22617505 -0.62863481 0.10289675
0.23188478 -0.62861443 0.10288445
0.18367308 -0.6222046 0.10211577
0.18732922 -0.62223417 0.10220314
0.19163622 -0.62222362 0.10216749
0.19270307 -0.6222325 0.10217409
0.16795278 -0.62144345 0.10268898
0.17691621 -0.62144911 0.10268281
0.17761613 -0.62143505 0.10265997
0.18052113 -0.6214568 0.10270361
0.18530709 -0.62142688 0.10265388
0.13916534 -0.6150285 0.10215317
0.14096144 -0.61503875 0.10216164
0.14209734 -0.61502004 0.10211749
0.14355455 -0.61504251 0.10214892
0.14463796 -0.61506903 0.10220478
0.14570455 -0.61505461 0.10218082
0.15720426 -0.61505449 0.10216649
0.12771332 -0.61427987 0.10267967
0.13157092 -0.61428243 0.1026711
0.13630985 -0.61427325 0.10268085
0.13985968 -0.61427045 0.10267661
0.14076695 -0.61426747 0.10266986
0.14176071 -0.61427653 0.10266173
0.14466618 -0.61430269 0.10273099
0.14573945 -0.61430168 0.10272392
0.14710119 -0.61427152 0.10266286
0.15426657 -0.61427033 0.10264647
0.086686276 -0.60715407 0.10290661
0.087772638 -0.6071409 0.10289682
0.090633482 -0.60750759 0.10261905
0.092469908 -0.6075052 0.10259777
0.094971813 -0.60716164 0.10293606
0.095674574 -0.60790694 0.10236017
0.096769862 -0.60790449 0.10235665
0.097606331 -0.60765177 0.10253355
0.098907694 -0.60788709 0.10232747
0.099625878 -0.60712856 0.10286827
0.10068493 -0.60712421 0.10286099
0.10466475 -0.60788333 0.10232951
0.10612222 -0.60791397 0.10237046
0.10788389 -0.60789573 0.10235749
0.11181638 -0.60789043 0.10231828
0.065271959 -0.60157847 0.1022751
0.066523708 -0.60157073 0.10226684
0.067599893 -0.60156941 0.10225839
0.068715423 -0.60156381 0.1022523
0.073736563 -0.60158396 0.10227404
0.074817814 -0.60158914 0.10230418
0.075900368 -0.60158461 0.10230745
0.061172456 -0.6008175 0.10280918
0.062908374 -0.60085452 0.10285245
0.064042114 -0.60084152 0.10284281
0.066901602 -0.60082436 0.10282158
0.070470445 -0.60081285 0.10281939
0.071559906 -0.60081077 0.10279823
0.2328691 -0.69789797 0.10321222
0.19053058 -0.62711376 0.10393544
0.19635694 -0.6271016 0.10392232
0.19892226 -0.62709403 0.10391873
0.19960417 -0.62709826 0.10391636
0.20102626 -0.62708914 0.10390387
0.20215525 -0.62708652 0.10390873
0.20396392 -0.62788486 0.10342642
0.20467457 -0.62709653 0.10390153
0.20536184 -0.6278646 0.10339412
0.2087732 -0.62749803 0.10367683
0.21039996 -0.62707579 0.10390558
0.21286893 -0.62787694 0.10340142
0.21360436 -0.62709856 0.10390324
0.21514617 -0.62708855 0.10391868
0.22335424 -0.6278438 0.10339135
0.15747638 -0.62066931 0.10316976
0.1586224 -0.62065095 0.10314762
0.16435696 -0.62064976 0.10315045
0.16548516 -0.62065804 0.10317369
0.17009352 -0.62068373 0.10318089
0.17554262 -0.62068081 0.10319938
0.17660861 -0.62069219 0.10322011
0.17870037 -0.6206705 0.10318945
0.18020931 -0.62067574 0.10319954
0.18165678 -0.62068915 0.10322043
0.18485147 -0.62065339 0.10314663
0.18668045 -0.62067002 0.10321473
0.18771443 -0.62069052 0.10321353
0.19205654 -0.62068254 0.10321269
0.15392643 -0.61990654 0.10370226
0.16263889 -0.61991465 0.10372727
0.16406836 -0.61989248 0.10369172
0.16514735 -0.61988634 0.10367788
0.16796286 -0.61989611 0.10369109
0.16907544 -0.61989295 0.10371105
0.17340608 -0.61990184 0.10369937
0.17733794 -0.61991656 0.1037266
0.11799271 -0.6135121 0.10320772
0.11975954 -0.6135183 0.10319886
0.12167723 -0.61351401 0.10320435
0.12317612 -0.61349726 0.10316659
0.12678403 -0.61351866 0.10320493
0.12840796 -0.61352265 0.10321723
0.12913719 -0.61352557 0.10322376
0.13091022 -0.61350381 0.10318851
0.13270526 -0.61351758 0.10320967
0.13449705 -0.61351824 0.10321645
0.13591668 -0.61351615 0.10321238
0.10934824 -0.61272442 0.10366119
0.11758727 -0.61272967 0.10370388
0.12049092 -0.61275631 0.10373141
0.12590191 -0.61275405 0.10373338
0.12769014 -0.61275429 0.10372686
0.12985915 -0.61275852 0.10374167
0.078087114 -0.60635698 0.10339532
0.080329791 -0.60638827 0.10343689
0.081355095 -0.60640424 0.10344852
0.082029507 -0.60640359 0.10345048
0.083115339 -0.60640091 0.10344876
0.084208712 -0.60641623 0.10347753
0.086386777 -0.60640419 0.1034536
0.088853531 -0.60638523 0.10343486
0.089964837 -0.60637915 0.10343019
0.090300187 -0.60637361 0.10343208
0.091034204 -0.60637897 0.10343412
0.093895301 -0.60639191 0.10343716
0.074883007 -0.60564578 0.10398553
0.076652095 -0.60562468 0.10395555
0.080997705 -0.60564154 0.10398892
0.087075129 -0.60564637 0.10399327
0.23480299 -0.69544333 0.10435541
0.22495334 -0.63431126 0.10434843
0.23926295 -0.63430172 0.10433806
0.24334803 -0.63432342 0.10437107
0.22466426 -0.63351053 0.10480945
0.22717139 -0.63353634 0.10485795
0.22896637 -0.6335097 0.10483055
0.23365633 -0.63352317 0.10485455
0.23647942 -0.63353837 0.10484586
0.23719281 -0.63354796 0.1048663
0.18912546 -0.62633151 0.10442201
0.19019157 -0.62633997 0.10442861
0.19347137 -0.62632442 0.10441438
0.19460471 -0.62632602 0.10441977
0.19535471 -0.62631929 0.10441262
0.1960832 -0.6263265 0.10441446
0.19783163 -0.62633431 0.10443544
0.19857602 -0.62633526 0.10442569
0.20402659 -0.62633616 0.10443635
0.20867385 -0.62633473 0.10443391
0.18842809 -0.62552512 0.1048997
0.18985164 -0.62555027 0.10490957
0.19747332 -0.62554973 0.10491712
0.20004815 -0.62553912 0.10491165
0.20373061 -0.62554455 0.10492735
0.14145841 -0.61914486 0.10424262
0.14393252 -0.61913627 0.10420924
0.14460175 -0.61911708 0.10418838
0.14934421 -0.61914313 0.1042266
0.15035903 -0.61913669 0.10420107
0.15286912 -0.61910611 0.10417906
0.15358046 -0.61912018 0.10418613
0.1547195 -0.61914825 0.10423321
0.15788324 -0.61912757 0.10420736
0.16079459 -0.61913812 0.10421751
0.16168076 -0.61914319 0.10422559
0.16264309 -0.6191417 0.1042372
0.16479602 -0.6191135 0.10419025
0.16660607 -0.61912304 0.10419936
0.17410177 -0.61913276 0.10420886
0.1460651 -0.61835033 0.10470358
0.15543723 -0.61838275 0.10475234
0.16371824 -0.61837405 0.1047483
0.11192183 -0.61200249 0.10427308
0.095749289 -0.61121744 0.10475678
0.097176097 -0.6111967 0.10473378
0.098952264 -0.61119986 0.1047245
0.10075507 -0.61117554 0.10471914
0.10178568 -0.61118734 0.1047261
0.10371497 -0.61121619 0.10476761
0.10474779 -0.61122102 0.10477131
0.10684633 -0.61195028 0.104205
0.10937756 -0.61120099 0.10473623
0.11046032 -0.61119974 0.10471634
0.11195843 -0.61123466 0.10480098
0.11366858 -0.61197507 0.10422673
0.11475046 -0.61158681 0.10446806
0.11548422 -0.61157346 0.1044545
0.11653779 -0.61118639 0.1047123
0.11831963 -0.61197042 0.10423733
0.12161474 -0.61199659 0.10426424
0.059778705 -0.60565895 0.10400178
0.072387256 -0.60564947 0.10401461
0.073056035 -0.60564327 0.10401353
0.086009845 -0.60565633 0.10401101
0.063393086 -0.60488164 0.10452884
0.066976547 -0.60486931 0.10451027
0.067655787 -0.60486388 0.10451069
0.068753235 -0.60486478 0.10451127
0.069824204 -0.60486388 0.10447959
0.070927911 -0.60488331 0.10450864
0.071673818 -0.6048888 0.10452651
0.073086828 -0.60489172 0.1045552
0.075606056 -0.60488462 0.10452343
0.076684773 -0.60488063 0.10451201
0.078436263 -0.60484689 0.10447805
0.079490654 -0.60484326 0.10447568
0.083507359 -0.60488945 0.1045358
0.23965152 -0.69215465 0.10590038
0.24249718 -0.69297433 0.1055207
0.24367999 -0.6921609 0.10590598
0.21680596 -0.63275754 0.10535419
0.21852913 -0.63273466 0.10529825
0.22289477 -0.63275015 0.10533036
0.2267981 -0.63273716 0.10531285
0.22868422 -0.63275415 0.10534122
0.2297273 -0.63271886 0.10530064
0.23037079 -0.63272619 0.10528472
0.2326172 -0.63276064 0.10534665
0.23539542 -0.63272941 0.10528475
0.23611701 -0.63273501 0.10528689
0.23794794 -0.63275737 0.10534773
0.23870413 -0.63274932 0.10534669
0.24044117 -0.63272911 0.10529039
0.21223827 -0.63197005 0.10583445
0.2146944 -0.63195938 0.1057888
0.21648015 -0.63195294 0.10581507
0.21824804 -0.63196105 0.10581244
0.22255744 -0.63196528 0.10580977
0.22941285 -0.63195294 0.10581574
0.23153937 -0.63194638 0.10578596
0.23443304 -0.63195086 0.10581375
0.24010906 -0.63195431 0.10580043
0.18560463 -0.62478459 0.10544435
0.18772119 -0.62475246 0.10539808
0.18955648 -0.62477618 0.10543718
0.19247587 -0.62477696 0.10545006
0.19502439 -0.62399942 0.10591684
0.13597442 -0.61759454 0.10524177
0.1377589 -0.6175862 0.10524088
0.14037466 -0.61757576 0.10521039
0.14179556 -0.61759782 0.10524537
0.14329907 -0.61762398 0.10530015
0.14537492 -0.61758411 0.10522617
0.14865255 -0.61759454 0.10523932
0.14939879 -0.61760855 0.10525996
0.15250465 -0.61757636 0.10520586
0.12881583 -0.61681265 0.10573801
0.12949669 -0.61682278 0.10574094
0.13023011 -0.61682874 0.10576206
0.1320454 -0.61682367 0.10576556
0.13382235 -0.61682492 0.10576195
0.13422194 -0.61682457 0.10576509
0.13740163 -0.61682159 0.10576023
0.13922897 -0.6168108 0.10574575
0.1501307 -0.6168372 0.10577374
0.089695208 -0.61043686 0.10527439
0.092197306 -0.61046511 0.10531798
0.094524488 -0.61045349 0.10529214
0.10149343 -0.61041486 0.10524664
0.10251897 -0.61043167 0.10525746
0.10543931 -0.61045814 0.10530216
0.10868388 -0.61044139 0.10527795
0.11335222 -0.6104694 0.10531295
0.07928405 -0.6097014 0.10582702
0.08323174 -0.60970807 0.10584979
0.085739456 -0.60969025 0.10582729
0.086440355 -0.60968387 0.1058166
0.09166123 -0.60968304 0.10580488
0.10219427 -0.60965228 0.10576891
0.10619303 -0.60968626 0.10581869
0.062993057 -0.60412931 0.10506798
0.069669627 -0.60410935 0.10503553
0.070925333 -0.60412413 0.1050439
0.061980195 -0.60339242 0.1056297
0.063032188 -0.60337323 0.10561348
0.064476788 -0.60336781 0.10560592
0.23759113 -0.69133186 0.106285
0.23672254 -0.63840407 0.10692649
0.20079109 -0.63120079 0.10633373
0.20466165 -0.6311745 0.1062952
0.2054022 -0.63120115 0.10632284
0.20788085 -0.63117236 0.10630372
0.21002747 -0.63118058 0.10626236
0.21185941 -0.63120162 0.10631081
0.21363068 -0.63116962 0.10626951
0.21427909 -0.63116157 0.10625421
0.21540777 -0.63118947 0.10628533
0.21613784 -0.63119298 0.10630759
0.21729676 -0.63117856 0.10631271
0.22400981 -0.63117963 0.1062872
0.22721399 -0.63117224 0.10627162
0.22905847 -0.63118833 0.1063088
0.19606243 -0.63042504 0.10680875
0.20361646 -0.63039494 0.10676828
0.2053909 -0.63040048 0.10679207
0.20936184 -0.63036704 0.10674169
0.21078318 -0.63040441 0.10677258
0.21147543 -0.63041085 0.10678389
0.21503711 -0.63037992 0.10674471
0.21687768 -0.63039863 0.10678231
0.1655041 -0.62321472 0.10640106
0.17449768 -0.62322217 0.10644346
0.17808661 -0.62319845 0.10639831
0.18456553 -0.62319905 0.10640587
0.15295367 -0.62245506 0.10693193
0.15376657 -0.62244672 0.10693481
0.15442087 -0.62245178 0.10692467
0.15791893 -0.62243295 0.10689327
0.1601612 -0.62244165 0.10691802
0.16771598 -0.62242246 0.10690702
0.17061765 -0.62243229 0.10690641
0.17131597 -0.62242413 0.10690121
0.17920308 -0.62244153 0.10691635
0.18350431 -0.62241399 0.10686388
0.12025712 -0.61604691 0.10626038
0.12195476 -0.6160298 0.10621785
0.12269245 -0.61603475 0.1062225
0.1245035 -0.6160568 0.10627506
0.12708837 -0.61606252 0.10628507
0.1295574 -0.61604381 0.10624897
0.13098916 -0.61605555 0.1062717
0.13165979 -0.61605167 0.10627272
0.13242599 -0.61604774 0.10627152
0.13385098 -0.61605763 0.10627764
0.13531776 -0.61605006 0.10627067
0.13724798 -0.61605859 0.10626991
0.1033458 -0.61526555 0.10675776
0.11264794 -0.61526281 0.10672338
0.11718643 -0.61528444 0.10679416
0.11917345 -0.61529046 0.10678088
0.12388453 -0.61527675 0.10677084
0.12638618 -0.6152873 0.10677715
0.12848632 -0.61528879 0.10679
0.1292298 -0.61527544 0.10677121
0.06276235 -0.60815847 0.10686862
0.067075759 -0.60814571 0.10684311
0.071026675 -0.60817355 0.10690433
0.075638935 -0.60889709 0.10630088
0.077435523 -0.60889554 0.10630517
0.078747466 -0.60854363 0.10660563
0.079642504 -0.60816836 0.10687871
0.080001764 -0.60893553 0.10635696
0.082853243 -0.60894698 0.10637771
0.08364898 -0.60817939 0.1069061
0.084657177 -0.60818446 0.10690314
0.086147018 -0.60816216 0.10688143
0.088231221 -0.60815346 0.10686198
0.092553563 -0.60893303 0.10635573
0.097215295 -0.60892254 0.10632788
0.060608584 -0.60262275 0.10615893
0.23247106 -0.6376099 0.10737552
0.23901401 -0.63764453 0.10743172
0.2408623 -0.63762647 0.10744005
0.24150078 -0.63763303 0.10742412
0.22615418 -0.63684326 0.10789908
0.22719751 -0.63680822 0.10785852
0.23468457 -0.63685232 0.10789737
0.23541752 -0.63684618 0.10790556
0.23653214 -0.63682449 0.1078864
0.23755012 -0.63682306 0.10786209
0.23863395 -0.63683593 0.10787191
0.23975118 -0.63685334 0.1079042
0.24053295 -0.63683748 0.10791059
0.18924399 -0.62963229 0.10731878
0.19174764 -0.62963772 0.10728996
0.1942872 -0.62963283 0.10728708
0.1968195 -0.62962919 0.10728017
0.1975396 -0.62962198 0.10727956
0.20043749 -0.6296128 0.10727179
0.20190254 -0.62964153 0.10730189
0.20512716 -0.62960726 0.10726196
0.20654981 -0.62964016 0.1072994
0.20825672 -0.62961406 0.10728008
0.18879846 -0.6288622 0.10778401
0.18997268 -0.62885284 0.10780299
0.19248089 -0.6288529 0.10776009
0.19329403 -0.62884182 0.1077681
0.19576719 -0.62884337 0.10777654
0.19643663 -0.6288572 0.10777581
0.20262654 -0.62886137 0.1077888
0.14043291 -0.62168694 0.10746122
0.14360207 -0.62164295 0.10737701
0.15080665 -0.62162346 0.10736251
0.15871346 -0.62165546 0.10740074
0.15940674 -0.62166083 0.10740925
0.16016218 -0.62166768 0.1074114
0.16237952 -0.62165672 0.1074078
0.16522811 -0.6216529 0.10739379
0.17022245 -0.62166345 0.10740492
0.1785118 -0.62164259 0.10739782
0.18033011 -0.62167293 0.10743093
0.18137987 -0.62168062 0.1074457
0.13421802 -0.62088895 0.10790769
0.13827734 -0.62086082 0.10787129
0.14673182 -0.62088645 0.10790649
0.15041094 -0.62086397 0.10786799
0.15486364 -0.62089479 0.10793118
0.15762623 -0.62085706 0.1078551
0.16811791 -0.62086874 0.10791074
0.16953978 -0.62088877 0.10789303
0.17095952 -0.62088364 0.10790645
0.17244874 -0.62087774 0.10789914
0.10988075 -0.61452138 0.10730619
0.1134169 -0.61448216 0.10722522
0.11428043 -0.61447418 0.10722026
0.11807629 -0.6145097 0.10730823
0.1199095 -0.61451828 0.10729116
0.12166704 -0.61450338 0.1072813
0.092616431 -0.61373365 0.10777996
0.10162006 -0.6137203 0.10777608
0.10336703 -0.61373746 0.10779233
0.10478507 -0.61370331 0.10775237
0.10585729 -0.61370856 0.10775597
0.10661203 -0.61372077 0.10776825
0.10912195 -0.61372161 0.10774555
0.11128034 -0.61374879 0.10780321
0.11592707 -0.61370569 0.10775757
0.11884838 -0.61374164 0.10781381
0.065604314 -0.60738552 0.10738439
0.067782268 -0.6073854 0.10736926
0.068545647 -0.60738504 0.10736052
0.074310303 -0.6074037 0.10740405
0.077459782 -0.60736257 0.10734689
0.078199767 -0.60736525 0.1073522
0.081421681 -0.60740906 0.10741233
0.062788233 -0.60663092 0.1079232
0.065339938 -0.60662454 0.10790864
0.066732094 -0.60662079 0.10791899
0.072523564 -0.60664439 0.10796379
0.073173553 -0.60664904 0.10794591
0.075079046 -0.60663712 0.1079231
0.24042366 -0.68723935 0.10823602
0.21934532 -0.63604921 0.10835563
0.22109541 -0.63604659 0.10834734
0.2224953 -0.63603312 0.10832279
0.23158053 -0.63604867 0.10836728
0.23365417 -0.63602442 0.10830624
0.23432226 -0.63603997 0.10833022
0.23621216 -0.63604742 0.10837
0.23866469 -0.63603169 0.10832585
0.23938748 -0.63605607 0.10835557
0.20856622 -0.63527119 0.10882872
0.21111088 -0.6352455 0.10879679
0.21645373 -0.63524377 0.10880584
0.21721905 -0.63524503 0.1087968
0.21832514 -0.63525051 0.10880905
0.22080939 -0.63525939 0.10882172
0.22653896 -0.63526422 0.10883609
0.22864902 -0.63523436 0.10878637
0.22975236 -0.63524431 0.10881016
0.19073002 -0.62806654 0.10827521
0.20042522 -0.62805331 0.10823277
0.12776144 -0.62010849 0.10839523
0.13101469 -0.62010753 0.10840815
0.13677292 -0.6200949 0.1083948
0.14226767 -0.62011719 0.10843212
0.14549917 -0.62008297 0.10836767
0.14939076 -0.62010145 0.10838137
0.15045683 -0.62009627 0.10837056
0.15119597 -0.62007993 0.10836361
0.1677292 -0.62009889 0.10839807
0.17457144 -0.62010562 0.10838418
0.18531214 -0.62008101 0.10837206
0.1192031 -0.61931252 0.10886616
0.12102261 -0.61930799 0.10886522
0.12676817 -0.61931962 0.10889073
0.12747422 -0.61931729 0.10888109
0.13034263 -0.61932099 0.10890363
0.13288474 -0.61932176 0.10890248
0.1353429 -0.61933011 0.10890132
0.14552873 -0.61930567 0.10886282
0.14695704 -0.61932266 0.1088829
