# .PCD v0.7 - Point Cloud Data file format
VERSION 0.7
FIELDS x y z
SIZE 4 4 4
TYPE F F F
COUNT 1 1 1
WIDTH 1379
HEIGHT 1
VIEWPOINT 0 0 0 1 0 0 0
POINTS 1379
DATA ascii
-0.39539644 -0.63249969 0.10042278
-0.39214256 -0.6325112 0.10041263
-0.3914313 -0.63247037 0.10040917
-0.42189541 -0.63172501 0.10090992
-0.42076689 -0.63175493 0.10091999
-0.41827774 -0.63177365 0.10094842
-0.41648301 -0.63172239 0.10089546
-0.41328254 -0.63175124 0.10091674
-0.41005239 -0.63179606 0.1009616
-0.40616027 -0.63175672 0.1009324
-0.40432701 -0.63169038 0.10087974
-0.40357894 -0.63172764 0.10090574
-0.39854857 -0.63174957 0.10091878
-0.38238883 -0.68961149 0.10125353
-0.38432491 -0.65766877 0.10112711
-0.38653529 -0.65642166 0.101748
-0.39011452 -0.63902307 0.10148367
-0.38616151 -0.63980436 0.10100292
-0.38757387 -0.63824588 0.10196988
-0.40790215 -0.63012481 0.10186741
-0.38301983 -0.6994971 0.10237192
-0.38260934 -0.68801719 0.1020963
-0.3832998 -0.68722737 0.102505
-0.38486743 -0.6764313 0.10202812
-0.38302931 -0.67569172 0.10253917
-0.38527676 -0.66424167 0.10295308
-0.38635767 -0.64553022 0.10275075
-0.45860025 -0.63667035 0.10296015
-0.44850039 -0.63667029 0.10295139
-0.38245699 -0.69625664 0.10399881
-0.38393888 -0.68556052 0.10331214
-0.3846314 -0.67326474 0.10376683
-0.38614908 -0.66258401 0.10376921
-0.38739774 -0.6536485 0.10336052
-0.38663617 -0.65365803 0.10335749
-0.38552323 -0.65362281 0.10331597
-0.386612 -0.64476442 0.10323161
-0.38837439 -0.64397961 0.1037093
-0.4556886 -0.63589728 0.10338921
-0.45460027 -0.63509595 0.10391189
-0.45322672 -0.63581818 0.10337985
-0.45210266 -0.63502681 0.10384738
-0.45137757 -0.63587677 0.10341267
-0.44953564 -0.63512808 0.10391694
-0.44742253 -0.63588715 0.10341571
-0.44628426 -0.6351257 0.10391755
-0.44568175 -0.63546395 0.10366758
-0.44342041 -0.6351074 0.10389438
-0.44238487 -0.63508695 0.1038641
-0.43886474 -0.6358788 0.10343797
-0.43377367 -0.63510931 0.10392234
-0.42445168 -0.63506734 0.10388857
-0.42189944 -0.63508952 0.10387351
-0.38923156 -0.63506091 0.10386292
-0.38886717 -0.63586515 0.10339365
-0.38711497 -0.63512301 0.10392161
-0.3827621 -0.69543904 0.10438026
-0.38128594 -0.6953842 0.1043127
-0.38314527 -0.67241675 0.10416299
-0.38554308 -0.670766 0.10497288
-0.38514498 -0.66178989 0.10423069
-0.38581342 -0.64237362 0.10463281
-0.45599127 -0.63427156 0.10433321
-0.45281008 -0.63426208 0.10437356
-0.45059681 -0.63431597 0.10438432
-0.44769976 -0.63430047 0.10437872
-0.44123164 -0.6343227 0.10435928
-0.44053826 -0.63436824 0.10441717
-0.43945396 -0.63430989 0.10437973
-0.43767422 -0.63431716 0.10438835
-0.43699598 -0.63434255 0.104424
-0.43553576 -0.63426334 0.10433465
-0.43406549 -0.63431317 0.10439492
-0.431229 -0.63426733 0.10431851
-0.45811194 -0.63353986 0.10486246
-0.45164427 -0.6334638 0.10480931
-0.44661391 -0.63353449 0.10486957
-0.44414333 -0.63351613 0.10486377
-0.43259907 -0.63356245 0.1048876
-0.43013862 -0.63349444 0.10484179
-0.42759171 -0.63349473 0.10482026
-0.42648116 -0.63351023 0.10483506
-0.42470267 -0.63352638 0.1048679
-0.41613871 -0.63353086 0.10486131
-0.41541079 -0.6335535 0.10489476
-0.41214392 -0.63354576 0.10487939
-0.40247339 -0.63350147 0.10485335
-0.39815795 -0.6335538 0.10488457
-0.39494419 -0.63352466 0.10487814
-0.39137346 -0.63351381 0.1048671
-0.38881069 -0.63350451 0.10484792
-0.38215011 -0.69215101 0.10594985
-0.38253948 -0.68064135 0.10572081
-0.38372734 -0.67000747 0.10542341
-0.38498658 -0.65936488 0.10551376
-0.38681901 -0.65045679 0.10515185
-0.44086626 -0.63274008 0.10532437
-0.43294662 -0.63274252 0.10537414
-0.43149474 -0.63272262 0.10531338
-0.42036536 -0.63275254 0.10534044
-0.41856617 -0.6327402 0.10531562
-0.4103553 -0.63270932 0.10532181
-0.40637383 -0.63278115 0.10536344
-0.40391785 -0.63273692 0.10534331
-0.40135279 -0.63271868 0.10532271
-0.40061298 -0.63275683 0.10536104
-0.39709926 -0.63270545 0.10532285
-0.3952508 -0.63275868 0.10533158
-0.39348751 -0.63276136 0.10536303
-0.38989645 -0.63277572 0.10537776
-0.43395898 -0.63194627 0.10581107
-0.41921744 -0.63199228 0.10584619
-0.4174841 -0.63193679 0.105776
-0.4157446 -0.63193965 0.10583436
-0.4085103 -0.63193429 0.10578335
-0.40523449 -0.63193017 0.10579455
-0.40276563 -0.63197047 0.10582452
-0.3977237 -0.63196498 0.10583126
-0.39601091 -0.63191712 0.10579206
-0.38245174 -0.69132394 0.10633244
-0.38382989 -0.67906946 0.10655045
-0.38276055 -0.67984301 0.10612167
-0.38413668 -0.67822695 0.10694036
-0.38502395 -0.66750759 0.10660895
-0.3842428 -0.66752428 0.10662079
-0.3856011 -0.65700299 0.10687102
-0.38491791 -0.6570003 0.10687148
-0.38706157 -0.64723474 0.10694762
-0.38635892 -0.64724058 0.10697832
-0.46109483 -0.64000446 0.10603376
-0.38823652 -0.63995814 0.10600501
-0.38711074 -0.63836062 0.10692642
-0.41457757 -0.63117731 0.10631567
-0.41134697 -0.63116801 0.10630154
-0.40995306 -0.63117182 0.10631339
-0.40671763 -0.63116908 0.10629092
-0.40598261 -0.63119626 0.10633912
-0.40171114 -0.63116413 0.10631789
-0.39842772 -0.63117963 0.10629643
-0.39485201 -0.63118595 0.10630789
-0.39342913 -0.63118571 0.10633072
-0.39091623 -0.63115048 0.10631654
-0.39228114 -0.63043225 0.10683772
-0.38540852 -0.66556597 0.10775878
-0.38413149 -0.66511905 0.10790073
-0.38580561 -0.65537828 0.10773016
-0.38744062 -0.63760716 0.10741381
-0.45983502 -0.63686639 0.10790929
-0.45876992 -0.63686138 0.10793556
-0.38920242 -0.63683605 0.10791344
-0.38141432 -0.69873327 0.10879046
-0.38285646 -0.68725538 0.10830954
-0.38308549 -0.6864509 0.1086901
-0.3840045 -0.67575705 0.10814498
-0.38429448 -0.67490441 0.10848444
-0.38282567 -0.67496234 0.10856704
-0.38579273 -0.66352624 0.10879901
-0.38571256 -0.6529302 0.10899007
-0.45658925 -0.63604414 0.10831716
-0.44976684 -0.63600558 0.10834443
-0.43977991 -0.63602674 0.10839166
-0.45730788 -0.63523436 0.10881037
-0.44473341 -0.63524014 0.10881975
-0.43079171 -0.63523799 0.10883767
-0.41857782 -0.63522708 0.1088191
-0.38237879 -0.69791037 0.10916428
-0.38171929 -0.69791096 0.10917091
-0.38305226 -0.68480778 0.10948277
-0.38414985 -0.67248541 0.10973684
-0.38469866 -0.66272354 0.10921427
-0.38675439 -0.65217119 0.10947703
-0.38827044 -0.64329988 0.10924622
-0.38751307 -0.64328784 0.10925114
-0.4561162 -0.63445681 0.10925107
-0.45154709 -0.63443244 0.10928552
-0.44936734 -0.63446528 0.10930744
-0.44860464 -0.6344161 0.1092829
-0.44618562 -0.63445151 0.10931882
-0.44289282 -0.63445163 0.10927472
-0.44147226 -0.63449061 0.10932572
-0.43208456 -0.63442576 0.10923109
-0.42960188 -0.63448095 0.10933308
-0.42673582 -0.63445777 0.10928828
-0.42599386 -0.63445091 0.10929112
-0.42498392 -0.63444781 0.10931295
-0.42349368 -0.63445824 0.10929775
-0.41491258 -0.63443029 0.1092676
-0.39054173 -0.63449675 0.10934568
-0.45508063 -0.63368398 0.10974557
-0.45003536 -0.6336683 0.10977375
-0.44750291 -0.63367212 0.10978989
-0.44681451 -0.63367367 0.10977201
-0.44506922 -0.6336298 0.10977361
-0.43964353 -0.63364846 0.10976678
-0.4385832 -0.63366282 0.10978642
-0.42957112 -0.63367844 0.10978652
-0.42884555 -0.63369197 0.10978053
-0.42239991 -0.63365769 0.10975204
-0.38259014 -0.69463623 0.11072204
-0.38179186 -0.69461524 0.11067307
-0.38363326 -0.6831553 0.11027531
-0.38439202 -0.67169249 0.11014645
-0.443183 -0.63289088 0.11024171
-0.44031468 -0.63293219 0.11027556
-0.43708161 -0.63290507 0.11026093
-0.43635446 -0.63290745 0.11026403
-0.43565446 -0.63284683 0.11019871
-0.42773244 -0.632833 0.11017839
-0.4263128 -0.63287032 0.11022692
-0.42383853 -0.63284743 0.11022953
-0.42266566 -0.6320771 0.11068404
-0.42192051 -0.63209713 0.11069955
-0.41946107 -0.63289964 0.11025437
-0.41701955 -0.63285691 0.11023502
-0.41523671 -0.63289207 0.11025915
-0.41442788 -0.63284522 0.11019013
-0.41338277 -0.6320498 0.11067052
-0.41195264 -0.63291192 0.11026914
-0.4105784 -0.63280284 0.1101864
-0.40942743 -0.63202626 0.11066269
-0.40869597 -0.63208818 0.11067569
-0.40617791 -0.63208634 0.11069011
-0.40478471 -0.63287735 0.11023491
-0.40374494 -0.63208646 0.11072216
-0.40263271 -0.63246822 0.11045803
-0.40110567 -0.63209099 0.11071097
-0.40049344 -0.63287675 0.11024399
-0.39861745 -0.63208735 0.11068491
-0.39542082 -0.63289237 0.11025126
-0.39290133 -0.63283694 0.11018792
-0.39045346 -0.63210148 0.11072182
-0.3893292 -0.63288414 0.11024454
-0.38272825 -0.68067634 0.11142841
-0.3845785 -0.66922057 0.11132616
-0.46235469 -0.63930118 0.11150559
-0.42951506 -0.63126135 0.1111522
-0.41551498 -0.63129759 0.11117168
-0.40508512 -0.63124228 0.11112674
-0.38423342 -0.70450968 0.11231066
-0.38217336 -0.69049561 0.11257272
-0.38356906 -0.68967366 0.11294928
-0.38251084 -0.68967247 0.11293992
-0.38359237 -0.67824799 0.11259543
-0.38291138 -0.67821872 0.11257358
-0.38393387 -0.67741573 0.11298687
-0.384781 -0.66673863 0.11248153
-0.3861022 -0.65623832 0.11256514
-0.38821232 -0.64655209 0.1125197
-0.3875117 -0.64651281 0.11250608
-0.38648564 -0.64651215 0.11251605
-0.46011168 -0.63771158 0.11242454
-0.38718721 -0.63687128 0.11281961
-0.38647607 -0.63686293 0.11278952
-0.3853429 -0.66433805 0.1137792
-0.3862564 -0.65459919 0.11339828
-0.38735452 -0.6538052 0.11380064
-0.45537549 -0.63609886 0.11330906
-0.39032546 -0.63607758 0.11324727
-0.38965803 -0.63611561 0.11329868
-0.38860184 -0.63613045 0.11330734
-0.38750708 -0.63612294 0.11330226
-0.4581652 -0.63532102 0.1137602
-0.45392743 -0.63525218 0.1137168
-0.43240172 -0.63526428 0.11369947
-0.39032289 -0.635279 0.1137173
-0.38250849 -0.68557954 0.1148545
-0.38476631 -0.67405736 0.11444148
-0.38550937 -0.66189975 0.11498043
-0.38440228 -0.66192275 0.1149945
-0.38658562 -0.64333642 0.11427258
-0.38727993 -0.64253068 0.11471648
-0.45707178 -0.63447726 0.11415701
-0.45631433 -0.63452059 0.11415125
-0.45279366 -0.63444811 0.11415379
-0.45022646 -0.63454825 0.11422319
-0.44667649 -0.63452506 0.11422385
-0.44526267 -0.6345017 0.11418993
-0.44340599 -0.63451606 0.11418232
-0.44231272 -0.63452786 0.1141834
-0.43372807 -0.63451701 0.11419123
-0.42832965 -0.63447493 0.11414231
-0.39862019 -0.6344682 0.11418103
-0.38916937 -0.63450122 0.11418248
-0.45522964 -0.63370675 0.11465178
-0.45271492 -0.63365644 0.11460248
-0.4516176 -0.63372099 0.11465506
-0.44838044 -0.63370806 0.11465445
-0.4476845 -0.6337263 0.11466266
-0.4397977 -0.63371676 0.11466024
-0.43767649 -0.63374925 0.11469948
-0.43691996 -0.63369381 0.11462931
-0.4325802 -0.63369983 0.11458924
-0.42577341 -0.63371843 0.11466104
-0.42219105 -0.63371289 0.11463166
-0.42144874 -0.63372684 0.11465802
-0.41969508 -0.63370156 0.11461271
-0.41393781 -0.63372535 0.11464679
-0.39746413 -0.63369852 0.11465005
-0.38813269 -0.63372308 0.11466604
-0.3824839 -0.6961593 0.1158346
-0.38102582 -0.69618219 0.11584935
-0.38318929 -0.68477893 0.11523114
-0.38345838 -0.68309218 0.11597602
-0.38459924 -0.67165774 0.11567524
-0.38383564 -0.67162806 0.11563983
-0.38644004 -0.66023481 0.11576445
-0.38793647 -0.65137529 0.11508419
-0.38651702 -0.65137351 0.11508647
-0.38686851 -0.65055442 0.11551005
-0.38825876 -0.64174771 0.11516231
-0.38758975 -0.64172804 0.11516205
-0.44405314 -0.63291246 0.11509004
-0.44330522 -0.63295579 0.11511691
-0.43795556 -0.63292676 0.11511564
-0.43151084 -0.63287783 0.11504591
-0.43011132 -0.63291013 0.1151079
-0.42750862 -0.63205904 0.11549284
-0.42675248 -0.63210762 0.11553177
-0.42354831 -0.63210654 0.11554276
-0.42032981 -0.63295227 0.11512978
-0.41853625 -0.63290179 0.1150766
-0.41749775 -0.63210189 0.11554112
-0.41493377 -0.63213277 0.11554941
-0.41281405 -0.63294017 0.11512437
-0.41135991 -0.63213366 0.11556514
-0.40847486 -0.63211721 0.11551581
-0.40742314 -0.63214999 0.11557151
-0.40133038 -0.63292819 0.11510917
-0.40020153 -0.6321308 0.11555169
-0.39882892 -0.63294774 0.1151295
-0.39556289 -0.63213074 0.11556029
-0.39381048 -0.63291216 0.11509108
-0.39270011 -0.63207424 0.11553993
-0.39131069 -0.63211018 0.11555006
-0.39095688 -0.632954 0.11514031
-0.38946891 -0.63213164 0.11557224
-0.41382745 -0.63129884 0.11597422
-0.40992406 -0.63126439 0.1159569
-0.40588471 -0.63129896 0.11597791
-0.40161332 -0.63130289 0.11598873
-0.39666072 -0.63128591 0.11597569
-0.3843762 -0.6814 0.11667698
-0.38480604 -0.67085445 0.11604182
-0.38672757 -0.6578021 0.11698616
-0.38666084 -0.6481244 0.11675601
-0.46173862 -0.63931733 0.11645968
-0.38676369 -0.63931984 0.1164711
-0.41639435 -0.63130814 0.11601775
-0.41238621 -0.63132131 0.11600273
-0.39837408 -0.63133335 0.11601476
-0.39410639 -0.63134825 0.11602557
-0.40301648 -0.63054115 0.11645974
-0.40235102 -0.63051903 0.11647047
-0.39906809 -0.63053501 0.11644913
-0.39549151 -0.63054127 0.11646052
-0.39366892 -0.62974316 0.11693499
-0.3825255 -0.69205201 0.1176866
-0.38188499 -0.69287735 0.11733188
-0.38537708 -0.66831505 0.11716383
-0.38397017 -0.66836578 0.11719386
-0.38598219 -0.65783459 0.11702377
-0.46059459 -0.63770676 0.11735985
-0.45696843 -0.63689798 0.11778287
-0.38268283 -0.68954527 0.1187594
-0.3843503 -0.676489 0.11894214
-0.38362867 -0.676516 0.11895654
-0.38523981 -0.66583365 0.11828418
-0.38727382 -0.6456638 0.11800621
-0.4593733 -0.63612366 0.11823718
-0.45035964 -0.63525623 0.11861525
-0.44648269 -0.63527948 0.11864191
-0.44174039 -0.63528925 0.11863551
-0.43748465 -0.63524354 0.11859556
-0.43637842 -0.63529277 0.11864946
-0.43533233 -0.63530385 0.11866559
-0.38365477 -0.68872374 0.11912512
-0.38466409 -0.67565984 0.11932081
-0.38465708 -0.66262227 0.11994488
-0.38702458 -0.65289915 0.11938149
-0.38636252 -0.65287477 0.11938269
-0.45435345 -0.63443792 0.11907028
-0.45179886 -0.63449436 0.1190861
-0.43996841 -0.63447297 0.11909854
-0.43057954 -0.63450968 0.11910564
-0.42987961 -0.63448876 0.11905835
-0.42596194 -0.63447654 0.11908549
-0.41734391 -0.6345132 0.1191093
-0.45668945 -0.63368297 0.1194599
-0.4517366 -0.63368028 0.11951076
-0.44993976 -0.63369042 0.11951607
-0.44639799 -0.63366139 0.11952145
-0.44278401 -0.63368154 0.11949247
-0.44061139 -0.63366503 0.11950849
-0.43701744 -0.63365465 0.11947311
-0.42228383 -0.6336937 0.11950862
-0.42048547 -0.6336816 0.11948358
-0.40648913 -0.63366944 0.11949302
-0.40583688 -0.6336779 0.11951169
-0.39323673 -0.63367021 0.11953139
-0.38786495 -0.63370967 0.11953685
-0.45352715 -0.63284099 0.11993468
-0.44737691 -0.63288665 0.11995
-0.44491592 -0.63286525 0.11993523
-0.43881968 -0.63287729 0.11997166
-0.43586242 -0.63286841 0.11993313
-0.43165514 -0.63283074 0.11989674
-0.42366177 -0.63288009 0.1199427
-0.42112073 -0.63291401 0.11996815
-0.4193877 -0.63285959 0.11989795
-0.41687018 -0.63288397 0.11995549
-0.41041464 -0.63285685 0.11990519
-0.39464241 -0.63289469 0.1199705
-0.39385992 -0.63284117 0.11989871
-0.38213813 -0.69850218 0.12075954
-0.38261694 -0.68459475 0.12093147
-0.38447171 -0.6731258 0.12035829
-0.38629171 -0.66094321 0.12067279
-0.38554367 -0.66097504 0.12070375
-0.38654029 -0.65047842 0.12062535
-0.38694158 -0.64166194 0.12013729
-0.38825879 -0.64003998 0.12097809
-0.38726673 -0.64084655 0.12057365
-0.42936656 -0.63209426 0.1203974
-0.42757851 -0.63203532 0.12032407
-0.42439157 -0.63204783 0.12037627
-0.42001411 -0.63209963 0.12040087
-0.41578877 -0.6320923 0.12040582
-0.41250482 -0.63211221 0.12041601
-0.40860623 -0.63207215 0.12036666
-0.40138429 -0.63208342 0.12039599
-0.39786839 -0.63202828 0.12036246
-0.39280424 -0.63205284 0.12039224
-0.4257324 -0.63128519 0.12081111
-0.41893908 -0.63125545 0.12077869
-0.41392511 -0.63123828 0.12078654
-0.41072667 -0.63120019 0.1207694
-0.40493283 -0.63127398 0.12081784
-0.40164894 -0.63127857 0.12082683
-0.39916074 -0.63127524 0.12080084
-0.39415404 -0.63131464 0.12086697
-0.38321429 -0.68294746 0.12165153
-0.38241014 -0.68294936 0.12163605
-0.38453346 -0.66987133 0.12189222
-0.38650888 -0.65928841 0.12142472
-0.38464943 -0.65850914 0.12184764
-0.41777545 -0.63044947 0.12122699
-0.40883416 -0.63047266 0.12122773
-0.40238306 -0.63044322 0.12124813
-0.39984038 -0.6304757 0.12125025
-0.39554939 -0.63048524 0.12124456
-0.39699325 -0.62962848 0.1216718
-0.3825087 -0.69515073 0.12209077
-0.38377711 -0.68127453 0.12237941
-0.3840847 -0.68041372 0.12270627
-0.38574108 -0.66733378 0.1229242
-0.38782704 -0.6471774 0.12226284
-0.3863247 -0.64721686 0.12225341
-0.38816634 -0.63755703 0.12219715
-0.38666651 -0.63763702 0.12225011
-0.45953241 -0.63678539 0.12263292
-0.38848105 -0.63678443 0.12263793
-0.38554478 -0.70663565 0.12344623
-0.38327444 -0.69100577 0.12386486
-0.38150093 -0.6918323 0.1234781
-0.38386524 -0.67876929 0.12341481
-0.38464102 -0.66653073 0.12334542
-0.38666254 -0.65605384 0.123028
-0.38597882 -0.65605158 0.12302887
-0.38683912 -0.65439594 0.12379255
-0.38718504 -0.643924 0.12385101
-0.38655108 -0.64390469 0.12385185
-0.45621443 -0.63517261 0.12351184
-0.45372835 -0.63513434 0.12346617
-0.44469279 -0.63517487 0.1234712
-0.43609184 -0.63518029 0.12353019
-0.43535447 -0.63521552 0.12352563
-0.43463981 -0.635162 0.12346879
-0.39081123 -0.63514769 0.1234478
-0.38799295 -0.6351921 0.1235024
-0.45651519 -0.63438004 0.12391561
-0.4518193 -0.63437325 0.123924
-0.44964117 -0.63435316 0.12391991
-0.44286186 -0.63440371 0.12394293
-0.44069517 -0.63436437 0.12392879
-0.43853426 -0.63440174 0.12394638
-0.43347576 -0.63434017 0.12384816
-0.42738396 -0.63436466 0.12390833
-0.3893764 -0.63437986 0.12392191
-0.38833657 -0.63439566 0.12393193
-0.38227195 -0.68849957 0.12487543
-0.38516518 -0.66405344 0.12443259
-0.38486823 -0.66485548 0.12403528
-0.38670397 -0.65189785 0.12490998
-0.38747153 -0.64314777 0.12426924
-0.45325911 -0.63349444 0.12429174
-0.44744197 -0.63359052 0.12436152
-0.44684252 -0.63354939 0.12436156
-0.44495228 -0.63357711 0.12434503
-0.44354221 -0.63355362 0.12430841
-0.44243124 -0.63359547 0.12435009
-0.43419376 -0.63356251 0.12432895
-0.4295032 -0.63352001 0.12428138
-0.42808312 -0.6335566 0.12432997
-0.42377481 -0.63355297 0.12432225
-0.41305682 -0.63356018 0.12434522
-0.45394573 -0.63270324 0.12475546
-0.43881172 -0.63275737 0.12477048
-0.43737593 -0.63272738 0.12473578
-0.43520242 -0.63275319 0.12477719
-0.43452001 -0.63276517 0.12478688
-0.43303627 -0.632734 0.12469579
-0.43166569 -0.63272011 0.12474149
-0.42442149 -0.63274497 0.12474058
-0.42264718 -0.6327467 0.12473834
-0.42190462 -0.63276041 0.12476466
-0.41838011 -0.63273335 0.12475876
-0.41766423 -0.63275635 0.12476108
-0.41578841 -0.6327228 0.1247139
-0.41439328 -0.63275892 0.12475336
-0.40867701 -0.63277477 0.12479161
-0.40793219 -0.63275409 0.12474648
-0.40363538 -0.6327185 0.12471921
-0.39220855 -0.63276833 0.12477843
-0.39068934 -0.63275993 0.124768
-0.38858852 -0.63275617 0.12477246
-0.3833093 -0.68765962 0.12520789
-0.38260102 -0.68766671 0.12521015
-0.38357806 -0.68684006 0.12557092
-0.3850427 -0.67460686 0.12519744
-0.38358882 -0.67463452 0.1252216
-0.38385046 -0.67379606 0.12557101
-0.38524213 -0.67289907 0.1258349
-0.386114 -0.66243464 0.1252303
-0.38540354 -0.66242206 0.12523685
-0.38731977 -0.64069891 0.12549904
-0.45098144 -0.63194996 0.12519169
-0.44375083 -0.63197696 0.12519209
-0.43915153 -0.63192838 0.12520412
-0.43055704 -0.6319316 0.12518324
-0.42906287 -0.63194442 0.12516397
-0.42835492 -0.63187903 0.12511639
-0.42648765 -0.63113338 0.1255872
-0.42581981 -0.63194227 0.12518799
-0.4239848 -0.63111615 0.12558672
-0.42077592 -0.63197345 0.12520503
-0.41966403 -0.63113147 0.12557364
-0.41834402 -0.63192099 0.12516475
-0.41325963 -0.63196158 0.12519974
-0.41145214 -0.63110012 0.12557964
-0.40932161 -0.63193649 0.12513949
-0.40865815 -0.6319567 0.12518939
-0.40682524 -0.63189244 0.12513672
-0.40433732 -0.63195211 0.12519738
-0.40177709 -0.63194931 0.12518443
-0.39924291 -0.63155442 0.12540597
-0.39750987 -0.63192266 0.12517707
-0.39425659 -0.63193339 0.12516607
-0.39354661 -0.63189334 0.12516363
-0.39241508 -0.63111967 0.12562124
-0.39174747 -0.63111949 0.12559418
-0.39099318 -0.63116521 0.125636
-0.38956955 -0.63190806 0.12514763
-0.40631136 -0.63029665 0.1259906
-0.38246262 -0.69739985 0.12698843
-0.38261476 -0.68436491 0.12662585
-0.38293064 -0.68351984 0.126958
-0.38338509 -0.67213511 0.12628138
-0.38513368 -0.6712743 0.12659633
-0.38519463 -0.65995806 0.12635274
-0.3963176 -0.63033611 0.12602146
-0.39514241 -0.62952995 0.12645654
-0.3817333 -0.69742525 0.12701491
-0.38275409 -0.69656348 0.12731972
-0.38322845 -0.6827144 0.12730601
-0.38312858 -0.68100965 0.12798762
-0.38524681 -0.6696555 0.12730616
-0.38385728 -0.66960835 0.12729253
-0.38556617 -0.66879117 0.12763985
-0.38419297 -0.66880697 0.12768434
-0.38645685 -0.65744925 0.12745404
-0.3850067 -0.65744132 0.12744005
-0.38676554 -0.63744169 0.12712754
-0.46024573 -0.63662261 0.12752883
-0.38846901 -0.6365782 0.12749177
-0.4591369 -0.63576269 0.1278787
-0.44045302 -0.63582861 0.12794852
-0.38734329 -0.6357556 0.12786639
-0.38251638 -0.69402325 0.12826966
-0.38357356 -0.69323123 0.12867534
-0.38340035 -0.6801722 0.12832455
-0.38438126 -0.67929828 0.1286224
-0.38367146 -0.67932332 0.12866378
-0.38536379 -0.66625613 0.12868795
-0.38740739 -0.65582001 0.12819852
-0.38554636 -0.65500814 0.12859754
-0.38629153 -0.65497667 0.1285603
-0.3866027 -0.64536309 0.12806125
-0.45187709 -0.63501704 0.12834965
-0.4579657 -0.63499099 0.12827794
-0.45686603 -0.63415843 0.12873141
-0.45435181 -0.63410872 0.12868185
-0.45325345 -0.63417256 0.12873451
-0.45037252 -0.63414776 0.12872179
-0.44932124 -0.63417739 0.12874193
-0.44538692 -0.63499343 0.12832047
-0.44210953 -0.63416851 0.12872972
-0.44143426 -0.63416791 0.12873961
-0.43931273 -0.6341995 0.12877879
-0.43748242 -0.63414824 0.12871364
-0.43354893 -0.63412732 0.1286734
-0.4123649 -0.63411242 0.12869167
-0.40668064 -0.63417107 0.12875117
-0.390407 -0.63415533 0.1287137
-0.38285995 -0.68987149 0.129963
-0.38424683 -0.67765784 0.12932329
-0.38449678 -0.67685133 0.1296851
-0.3852002 -0.66374522 0.12971161
-0.38711092 -0.65332299 0.12930843
-0.38740647 -0.64209986 0.12962256
-0.3861154 -0.64287573 0.12924242
-0.4557513 -0.63334674 0.12915066
-0.45070338 -0.63336176 0.12914243
-0.44567546 -0.63334644 0.12912248
-0.4428089 -0.63338715 0.12916125
-0.43093875 -0.63337731 0.12916817
-0.42632133 -0.63334417 0.12914802
-0.42444313 -0.63336724 0.12913325
-0.40725315 -0.63334131 0.12911968
-0.38862935 -0.63338065 0.12916325
-0.44022813 -0.63253254 0.12955169
-0.43736756 -0.63251108 0.12950422
-0.43521479 -0.63253886 0.12957337
-0.43376297 -0.63252103 0.12951215
-0.42691678 -0.63253325 0.12953135
-0.42441642 -0.63254023 0.12953769
-0.42263362 -0.63255 0.12953979
-0.42187545 -0.63257384 0.12956315
-0.41728833 -0.6325655 0.12957646
-0.41583496 -0.63251311 0.12950763
-0.41439319 -0.63253534 0.12953648
-0.41155124 -0.63249779 0.12949525
-0.40362099 -0.63251686 0.12952235
-0.40288201 -0.63255322 0.12956004
-0.39682245 -0.63253695 0.12956001
-0.39146292 -0.63257664 0.12958507
-0.43765256 -0.6317544 0.12997361
-0.42761126 -0.63171941 0.1299371
-0.42330277 -0.63171583 0.12992938
-0.42075938 -0.63174778 0.12996405
-0.41721004 -0.63172895 0.12995529
-0.40357333 -0.63169098 0.12990595
-0.40106198 -0.63173085 0.12993547
-0.39498261 -0.63173884 0.12996984
-0.38430434 -0.67432976 0.13069262
-0.38358223 -0.6743564 0.13070685
-0.38500965 -0.66132253 0.13088632
-0.38594177 -0.6516785 0.13005863
-0.38850009 -0.65084863 0.13043575
-0.3877393 -0.65085822 0.13043241
-0.38695857 -0.65083629 0.13039082
-0.38880125 -0.64127785 0.13002862
-0.38759458 -0.63962746 0.13081123
-0.38685951 -0.6396336 0.13079545
-0.41217005 -0.63090765 0.13035685
-0.40704092 -0.63009602 0.13074234
-0.40566847 -0.63091087 0.13034979
-0.3981989 -0.6308617 0.13033046
-0.39523301 -0.63010561 0.1307788
-0.39173159 -0.6309253 0.13036966
-0.38243449 -0.70040065 0.13163482
-0.38361391 -0.68650401 0.13126539
-0.38521466 -0.66051072 0.13122734
-0.38680053 -0.65878463 0.13188118
-0.38639206 -0.6475572 0.13192378
-0.38565433 -0.64755833 0.13189855
-0.46065226 -0.63715243 0.13193424
-0.38815901 -0.6379894 0.13157271
-0.38188568 -0.6978994 0.13259764
-0.38395941 -0.67009449 0.13231917
-0.38597086 -0.65628833 0.1329505
-0.44800127 -0.63551402 0.13273971
-0.38840091 -0.63549191 0.13270652
-0.38273647 -0.69619286 0.1331725
-0.38163057 -0.69534189 0.13350056
-0.38274753 -0.68150568 0.13322404
-0.38515037 -0.66763085 0.13336116
-0.38660312 -0.6546731 0.1337122
-0.38797656 -0.6442098 0.13339005
-0.45859849 -0.63470572 0.13307413
-0.45440951 -0.63465941 0.13309303
-0.44537506 -0.63469934 0.13309774
-0.44469211 -0.63470358 0.13310674
-0.43817624 -0.63469404 0.13311148
-0.41486982 -0.63475716 0.13316286
-0.45322558 -0.63388181 0.133514
-0.45066744 -0.63384384 0.133495
-0.44993472 -0.63347131 0.13371915
-0.44885182 -0.63307101 0.1339058
-0.44752741 -0.633847 0.1335182
-0.44681063 -0.63386983 0.13350196
-0.44528377 -0.6338926 0.1335061
-0.44344243 -0.63307595 0.13388474
-0.44210136 -0.63386619 0.13351157
-0.4395166 -0.63309169 0.13392742
-0.4370037 -0.63306659 0.13390705
-0.43627563 -0.63306445 0.13391986
-0.43561751 -0.63391852 0.13354059
-0.43448335 -0.63305545 0.13386506
-0.43088475 -0.63308865 0.13391349
-0.42948028 -0.63344693 0.13366625
-0.42549521 -0.63305682 0.13388318
-0.42372054 -0.63305879 0.13388099
-0.4195419 -0.63386637 0.13352302
-0.41766822 -0.63307995 0.13392508
-0.40976542 -0.63350421 0.13373417
-0.4073272 -0.63387883 0.13351488
-0.40656599 -0.63389623 0.13351345
-0.40548006 -0.63305318 0.13391256
-0.40292689 -0.63306433 0.13390991
-0.3968344 -0.63308567 0.13392009
-0.3953369 -0.63302571 0.13385439
-0.39145237 -0.63385677 0.1334822
-0.39040732 -0.6338883 0.13351436
-0.3892729 -0.63307667 0.13390784
-0.3884235 -0.63349158 0.13371636
-0.38202322 -0.6928159 0.13440204
-0.38346794 -0.69199139 0.13476212
-0.38235518 -0.6919412 0.13469143
-0.38396016 -0.67810333 0.1345198
-0.38416073 -0.67728049 0.13483916
-0.38455325 -0.66510576 0.13436949
-0.38516986 -0.66423661 0.13465819
-0.38745371 -0.65212554 0.13472939
-0.38602483 -0.65217865 0.1347712
-0.38701895 -0.64174503 0.13450815
-0.38638458 -0.64172584 0.13450919
-0.42433116 -0.63225555 0.13428701
-0.42255878 -0.63225168 0.13429597
-0.41903448 -0.63222438 0.13429005
-0.41579095 -0.63221014 0.13425866
-0.41259411 -0.63217163 0.1342411
-0.4010278 -0.6322462 0.13427287
-0.39134347 -0.63225061 0.1342991
-0.39063358 -0.63220882 0.1342582
-0.43155134 -0.63140124 0.13467208
-0.43040743 -0.63144487 0.13471049
-0.41717121 -0.63144833 0.13471423
-0.41642329 -0.63143188 0.13467197
-0.41462809 -0.63142955 0.13467327
-0.41390401 -0.63144159 0.13469929
-0.41141903 -0.63136554 0.13463891
-0.41068682 -0.63142693 0.13465215
-0.40460929 -0.63141423 0.13468444
-0.403097 -0.6314286 0.13468748
-0.3981545 -0.63140279 0.13467656
-0.39560163 -0.63146359 0.13472737
-0.39490145 -0.63141322 0.13466522
-0.3847031 -0.66256505 0.1353315
-0.38499182 -0.66175282 0.13569605
-0.38651541 -0.64963818 0.1357891
-0.38571578 -0.64966679 0.13583256
-0.41208786 -0.6305691 0.13504714
-0.41063416 -0.63058007 0.13502687
-0.40735674 -0.63057548 0.13503772
-0.40234637 -0.63061529 0.13508642
-0.39813197 -0.63056248 0.13503605
-0.39341193 -0.63057053 0.13507038
-0.39942735 -0.62978846 0.13546352
-0.39444217 -0.62979549 0.1354802
-0.39196447 -0.62976778 0.13545062
-0.38313419 -0.68861139 0.13600236
-0.38341388 -0.68776095 0.13630347
-0.3821083 -0.68607956 0.13691437
-0.38384283 -0.67310071 0.13648263
-0.38447863 -0.67224354 0.13679078
-0.38592345 -0.66011447 0.13642889
-0.38617715 -0.65927178 0.136774
-0.4620277 -0.63767236 0.13643195
-0.38740873 -0.63765216 0.1364101
-0.46057412 -0.63678145 0.13672504
-0.38765663 -0.63684571 0.13678281
-0.38313791 -0.68523091 0.13721386
-0.38242954 -0.68523812 0.13721618
-0.38339931 -0.68440211 0.13754387
-0.38371634 -0.68357378 0.13787338
-0.38460791 -0.66966951 0.13767828
-0.38567582 -0.65759754 0.13743238
-0.38732311 -0.64635855 0.13726242
-0.38666359 -0.64634722 0.13726766
-0.38683048 -0.64468491 0.13796534
-0.45906872 -0.63601059 0.13711937
-0.45618227 -0.63510662 0.13748178
-0.45359951 -0.63516939 0.13752051
-0.44978109 -0.63598514 0.13715956
-0.44182315 -0.63516319 0.13753964
-0.435258 -0.63513696 0.13744424
-0.42239097 -0.63514805 0.13746612
-0.45752227 -0.63434106 0.13790427
-0.4550263 -0.63427502 0.13784009
-0.45245838 -0.63437277 0.13790922
-0.45172417 -0.63430727 0.13786453
-0.44920981 -0.63436931 0.13790978
-0.44860983 -0.63432783 0.13790967
-0.44385028 -0.63439584 0.137927
-0.43884951 -0.63429528 0.1378451
-0.43669641 -0.634354 0.13791488
-0.43271363 -0.63435251 0.13790542
-0.42737696 -0.63431281 0.13788065
-0.41548786 -0.63437742 0.13792105
-0.38154516 -0.69821954 0.13808109
-0.38187903 -0.69741386 0.13843244
-0.38428962 -0.68189967 0.13849495
-0.3855767 -0.66888827 0.13805589
-0.38491827 -0.66886568 0.13805038
-0.38664693 -0.65590715 0.13811739
-0.38536644 -0.6550554 0.13841857
-0.38688803 -0.65424162 0.13878652
-0.45743838 -0.63350409 0.13825919
-0.45569873 -0.63346666 0.1382557
-0.4549244 -0.63345486 0.13820954
-0.45314327 -0.63352287 0.13827172
-0.43912965 -0.63349086 0.13823605
-0.43412241 -0.63347322 0.13820104
-0.42869833 -0.63352841 0.138252
-0.42190588 -0.63349944 0.13821937
-0.41754231 -0.63348716 0.13821441
-0.39536518 -0.63349175 0.13826965
-0.39098018 -0.63350087 0.1382414
-0.3881866 -0.63349992 0.13824056
-0.4512665 -0.63269639 0.13863784
-0.44623899 -0.63268155 0.13861819
-0.4441109 -0.63268834 0.13861451
-0.44337231 -0.63272184 0.13865693
-0.44158348 -0.63268733 0.13863976
-0.44014236 -0.63269442 0.1386435
-0.43619281 -0.63268846 0.13866434
-0.43545547 -0.63272351 0.13865952
-0.42933944 -0.63267469 0.13860808
-0.4268851 -0.63267881 0.13864347
-0.42251557 -0.63272029 0.13865761
-0.42040408 -0.63266969 0.13861081
-0.41899368 -0.63269395 0.13863413
-0.40856498 -0.63264054 0.13858947
-0.40682945 -0.63269043 0.13865115
-0.40101543 -0.63271523 0.13865754
-0.39849597 -0.63270646 0.13862245
-0.38919318 -0.63271493 0.1386587
-0.43754724 -0.63184428 0.13897981
-0.43296483 -0.63181591 0.13895567
-0.43000114 -0.63182324 0.13894749
-0.42747146 -0.63185781 0.13899507
-0.42139086 -0.6318627 0.13897815
-0.41638941 -0.6318379 0.13897124
-0.41063905 -0.63185835 0.13896479
-0.40739319 -0.63185078 0.138988
-0.40417552 -0.63184142 0.13898607
-0.39992237 -0.63182724 0.13898578
-0.38299075 -0.69487423 0.13929282
-0.38167706 -0.69445974 0.13944401
-0.38482708 -0.68020004 0.13912429
-0.38300905 -0.68023312 0.1391142
-0.38333321 -0.67935526 0.13942301
-0.3835969 -0.67850929 0.13972723
-0.3845799 -0.66638911 0.13901867
-0.38509974 -0.66379422 0.13994619
-0.38571078 -0.65343702 0.13916355
-0.38840309 -0.64221233 0.13903721
-0.38721418 -0.6405372 0.13975118
-0.38653335 -0.64050007 0.13973622
-0.44151598 -0.63184571 0.13900328
-0.44078317 -0.63185644 0.1390153
-0.42815706 -0.63103336 0.13936858
-0.42351818 -0.63145208 0.13918212
-0.41895601 -0.63184601 0.13901468
-0.41775534 -0.63104284 0.13938703
-0.41312939 -0.63103658 0.13938367
-0.40968916 -0.63160467 0.13913412
-0.40488994 -0.63102746 0.13938811
-0.40309426 -0.63187033 0.13900959
-0.40233698 -0.63103855 0.13938546
-0.39802948 -0.63105071 0.13937822
-0.39726454 -0.63105369 0.13939309
-0.39624438 -0.63105989 0.13939574
-0.39474747 -0.63100022 0.13933022
-0.39159334 -0.63107431 0.13942091
-0.39082107 -0.63101554 0.13936539
-0.40873605 -0.63023466 0.13978225
-0.40799135 -0.63021451 0.13973719
-0.40292186 -0.63021827 0.13975839
-0.40043369 -0.63021547 0.13973254
-0.39873531 -0.63016504 0.13972989
-0.38263339 -0.69147611 0.14045055
-0.38333458 -0.69066113 0.14080657
-0.38385963 -0.67765206 0.14003357
-0.38412985 -0.6767838 0.14029944
-0.38453984 -0.67556238 0.14079177
-0.38633421 -0.66131383 0.14096074
-0.38821062 -0.6397168 0.14012234
-0.38743731 -0.63973147 0.14012119
-0.38303408 -0.68811691 0.14167124
-0.38242829 -0.68895918 0.14137387
-0.38444501 -0.67260778 0.14186516
-0.38372245 -0.67263412 0.14187925
-0.38608772 -0.65880781 0.14192969
-0.38532954 -0.65882415 0.1419328
-0.38742891 -0.64840478 0.14117624
-0.38598505 -0.64835942 0.1411366
-0.38617387 -0.64673746 0.14183229
-0.38727358 -0.63721633 0.14120623
-0.38653836 -0.63722271 0.14119062
-0.46036404 -0.6363883 0.14149359
-0.38901138 -0.63634282 0.14148736
-0.38824883 -0.63638896 0.14154701
-0.38760319 -0.63639754 0.14155796
-0.44779059 -0.6355719 0.14190693
-0.44638172 -0.63554871 0.1418702
-0.38235521 -0.68470901 0.14283217
-0.38430151 -0.67091674 0.14248544
-0.38586169 -0.65625018 0.14287053
-0.38822141 -0.64505082 0.14253305
-0.44849241 -0.63471371 0.14226064
-0.44375011 -0.63472372 0.14225452
-0.44238353 -0.63471025 0.14228141
-0.39140937 -0.63472903 0.14227
-0.38853025 -0.63467407 0.14221732
-0.45737681 -0.63388705 0.14262769
-0.45666885 -0.63387823 0.14262252
-0.45369843 -0.63306195 0.14297068
-0.45296431 -0.63306677 0.14297579
-0.45048374 -0.63348544 0.14280701
-0.4472838 -0.63304967 0.14295846
-0.44655269 -0.63392901 0.14262564
-0.44585744 -0.63388944 0.14258653
-0.44118804 -0.63306028 0.1429947
-0.44046706 -0.63350749 0.14282766
-0.43537635 -0.63304621 0.14294019
-0.43151212 -0.633865 0.14257333
-0.42970112 -0.63389575 0.14260027
-0.42862311 -0.63389474 0.14262159
-0.42719835 -0.63387811 0.1425996
-0.41600591 -0.63306051 0.14296517
-0.41354665 -0.63300335 0.14291865
-0.40780088 -0.63305855 0.14297156
-0.39843571 -0.63306123 0.14298855
-0.38343048 -0.68346435 0.14329559
-0.38385054 -0.68220252 0.14374241
-0.385501 -0.66838068 0.1433844
-0.38439876 -0.66834152 0.14333811
-0.38604331 -0.6545577 0.14349271
-0.3873257 -0.64252037 0.14356446
-0.46400645 -0.64168394 0.14385547
-0.45438674 -0.63216799 0.14327931
-0.45360938 -0.63223636 0.14332858
-0.43746847 -0.63223624 0.14333141
-0.43605694 -0.63224626 0.14335383
-0.43390694 -0.63219172 0.14326759
-0.42992419 -0.63219529 0.14326817
-0.42418537 -0.63222891 0.14330544
-0.42306128 -0.63226759 0.14334802
-0.42235968 -0.63225651 0.14334385
-0.4199183 -0.63221473 0.14332579
-0.4173266 -0.63220572 0.14328098
-0.40661213 -0.63224524 0.14332651
-0.39112094 -0.63220137 0.14327645
-0.42666495 -0.631392 0.1436937
-0.42301455 -0.63141155 0.14368813
-0.42229551 -0.63143337 0.14370787
-0.42126262 -0.63138717 0.14364232
-0.41877326 -0.63140726 0.14368443
-0.41624632 -0.63137048 0.14365093
-0.40585813 -0.63141131 0.14370008
-0.40474638 -0.63137001 0.14364269
-0.402235 -0.63140941 0.14367208
-0.39108956 -0.6313687 0.1436501
-0.41041496 -0.6305669 0.14399901
-0.38246664 -0.69687891 0.14427115
-0.38320491 -0.67882001 0.14490731
-0.38478661 -0.66499841 0.14457798
-0.38656506 -0.65208513 0.14451195
-0.46340623 -0.63922089 0.14493068
-0.38731638 -0.63922536 0.14490853
-0.41761786 -0.63059765 0.14407399
-0.41364083 -0.63062358 0.14407687
-0.41295403 -0.63053936 0.1440181
-0.40468308 -0.63054645 0.1440317
-0.40214068 -0.63057911 0.14403431
-0.39784795 -0.63058907 0.14402923
-0.39534849 -0.63056272 0.14402476
-0.39289042 -0.63058776 0.14405818
-0.41107294 -0.62972021 0.14435451
-0.40352336 -0.62971926 0.14437668
-0.39601547 -0.62976319 0.14441369
-0.39421162 -0.62969267 0.14437957
-0.39348945 -0.62972748 0.14441638
-0.38240722 -0.6934554 0.14532763
-0.38373464 -0.67711234 0.14550325
-0.38402623 -0.67623556 0.14576487
-0.3859956 -0.66239864 0.14542411
-0.38771281 -0.64953411 0.14543033
-0.46220484 -0.63752949 0.14557621
-0.39033505 -0.63667095 0.14591408
-0.38249713 -0.69088453 0.14614131
-0.38421959 -0.67540473 0.14605097
-0.38576767 -0.6599341 0.14645062
-0.3875314 -0.64703828 0.14644416
-0.38652247 -0.64783543 0.1460699
-0.45979497 -0.63504529 0.14657187
-0.45876914 -0.6350376 0.14663827
-0.45018181 -0.63503003 0.14663877
-0.45903698 -0.63422066 0.14693885
-0.45657352 -0.63414282 0.14692841
-0.45592156 -0.63499349 0.14658998
-0.45327348 -0.63423395 0.14698328
-0.45216778 -0.63416266 0.1469432
-0.45077029 -0.63420999 0.14696547
-0.44922665 -0.63417673 0.14697492
-0.44753399 -0.63421828 0.14696763
-0.44070759 -0.63423091 0.14698838
-0.38318413 -0.68665653 0.14758396
-0.38487321 -0.67031068 0.14779587
-0.38661459 -0.65824133 0.14704739
-0.38592848 -0.65824884 0.14704244
-0.3847788 -0.6573922 0.14735639
-0.38729671 -0.64451915 0.1474124
-0.38663653 -0.64450788 0.14741756
-0.45394927 -0.63337469 0.14731333
-0.45210746 -0.63333356 0.14727879
-0.44746941 -0.63335925 0.14728734
-0.44635209 -0.63337547 0.14729409
-0.44423333 -0.63342118 0.1473411
-0.44281369 -0.63336474 0.14730881
-0.43923295 -0.63332188 0.14725952
-0.43776304 -0.63336736 0.14731953
-0.43634444 -0.63336802 0.14729121
-0.43559688 -0.63335091 0.14723757
-0.43237242 -0.63339192 0.14731276
-0.4277606 -0.63333899 0.1472948
-0.41915447 -0.63338327 0.14732443
-0.41587076 -0.63340342 0.14733532
-0.39437354 -0.63339788 0.14733756
-0.3914763 -0.63337076 0.1473026
-0.39007774 -0.63339049 0.14731467
-0.44779974 -0.63252014 0.1476451
-0.44490889 -0.63253087 0.14762361
-0.44305778 -0.63253003 0.14763901
-0.44169101 -0.6325165 0.14766584
-0.44025943 -0.63256007 0.14768785
-0.43950474 -0.6325075 0.14761771
-0.43160108 -0.63253391 0.14762495
-0.42152292 -0.6325137 0.14761338
-0.41406932 -0.63246095 0.1475919
-0.41331339 -0.63247544 0.14760096
-0.41258049 -0.63253665 0.1476144
-0.40827388 -0.63253361 0.14764071
-0.39825231 -0.63254303 0.1476651
-0.39281777 -0.63253874 0.14764988
-0.39135569 -0.63251758 0.14762323
-0.43435508 -0.63166738 0.14791167
-0.42970636 -0.6316821 0.14795747
-0.42792654 -0.63169646 0.14798978
-0.42650151 -0.63168007 0.14796786
-0.42218131 -0.63169563 0.14795472
-0.4204509 -0.63167536 0.1479667
-0.4175314 -0.63168859 0.14796096
-0.41608885 -0.63170391 0.1479757
-0.41327766 -0.63163614 0.14793061
-0.41076386 -0.63171047 0.14799163
-0.40818295 -0.63168383 0.14796481
-0.40388471 -0.63170278 0.14798628
-0.40071237 -0.63165998 0.14796248
-0.39961556 -0.63167703 0.14797905
-0.38315871 -0.6832459 0.14866242
-0.38245031 -0.68325317 0.1486648
-0.38341334 -0.68240899 0.14895904
-0.38489932 -0.66691095 0.14893161
-0.38736156 -0.65402299 0.14857711
-0.38661176 -0.65399885 0.14856623
-0.38726187 -0.6415478 0.14853472
-0.43186864 -0.63171864 0.14801276
-0.3970632 -0.63173646 0.14802963
-0.42532897 -0.63086224 0.14831805
-0.42462939 -0.63085324 0.14830503
-0.42278826 -0.6308952 0.14834352
-0.42105567 -0.63084298 0.14827372
-0.41931352 -0.63084358 0.1483314
-0.41530469 -0.63085783 0.1483172
-0.40955338 -0.63089848 0.14834225
-0.40880528 -0.63083524 0.14829144
-0.40633529 -0.63044977 0.14850125
-0.40567133 -0.6308502 0.14833221
-0.40268639 -0.63002622 0.14866966
-0.40129495 -0.63086838 0.14832887
-0.39767438 -0.63044965 0.14850891
-0.3958776 -0.63003933 0.1486852
-0.39383286 -0.63084745 0.14831594
-0.39950818 -0.62997878 0.1486415
-0.3824541 -0.69789046 0.14947134
-0.38045952 -0.69616312 0.14996554
-0.38372219 -0.68157297 0.14925534
-0.38347766 -0.67988586 0.14979494
-0.38511476 -0.66608584 0.1492279
-0.3873015 -0.65063369 0.14979231
-0.3866491 -0.65064639 0.14979517
-0.38763392 -0.64028943 0.14901021
-0.46198279 -0.6377998 0.14995626
-0.39401233 -0.62916672 0.14901178
-0.38328362 -0.69534516 0.15028664
-0.38270396 -0.6790238 0.15008114
-0.38355809 -0.67646301 0.15090948
-0.38626227 -0.66348541 0.15001465
-0.38558432 -0.66350681 0.15006296
-0.38503531 -0.66179222 0.15062922
-0.38604897 -0.66096359 0.15090345
-0.38532764 -0.66094148 0.15087943
-0.38631743 -0.64721918 0.15098275
-0.3873449 -0.63781965 0.15000951
-0.38863343 -0.63614523 0.15066777
-0.45967168 -0.63526744 0.15097778
-0.38253269 -0.69193208 0.15130144
-0.38180634 -0.69192892 0.15129434
-0.38407609 -0.67472333 0.15141536
-0.38390914 -0.67305052 0.15198366
-0.38482368 -0.65923142 0.15145577
-0.38688156 -0.64557624 0.15163645
-0.45102051 -0.63530594 0.15100071
-0.45959547 -0.63445705 0.15127948
-0.45853379 -0.63443112 0.15131637
-0.45238632 -0.6344288 0.15130413
-0.44668421 -0.63443166 0.15127157
-0.4459208 -0.63445151 0.15128516
-0.43408778 -0.63444996 0.15132023
-0.39031672 -0.63444912 0.15130566
-0.38812369 -0.63444108 0.15130472
-0.38747743 -0.63444948 0.15131558
-0.45628601 -0.6335395 0.15157537
-0.45561171 -0.63355529 0.15159458
-0.45305067 -0.63360554 0.15163085
-0.447274 -0.63363314 0.15163772
-0.44657946 -0.63359398 0.15159865
-0.44192797 -0.63360339 0.15163676
-0.43443155 -0.6335777 0.15161842
-0.43188053 -0.63353842 0.15156186
-0.42679313 -0.63361132 0.15162179
-0.45625958 -0.63270009 0.15191644
-0.45367733 -0.63276231 0.1519555
-0.44255626 -0.63275141 0.15195976
-0.44190162 -0.63275492 0.15197404
-0.43969548 -0.63273126 0.15191188
-0.43894455 -0.63274872 0.15193638
-0.43754178 -0.63275766 0.15198123
-0.43680435 -0.63279253 0.15197614
-0.43473786 -0.63271189 0.15190016
-0.42998728 -0.63276064 0.1519362
-0.42496064 -0.63276994 0.15194771
-0.41634694 -0.63277853 0.15196964
-0.40236476 -0.63278437 0.1519746
-0.38294485 -0.68937361 0.15208411
-0.38283956 -0.68768299 0.15264773
-0.38459226 -0.67307878 0.15200543
-0.38514805 -0.6713571 0.15254879
-0.38445792 -0.6713649 0.15255579
-0.38363105 -0.67053568 0.15282859
-0.38650203 -0.65545666 0.15281162
-0.38734493 -0.64303452 0.15254667
-0.38634875 -0.64389038 0.15225223
-0.45509189 -0.63185489 0.15222619
-0.44756109 -0.63190526 0.15226161
-0.44678432 -0.6319356 0.15227936
-0.44354409 -0.63194549 0.15229154
-0.43995818 -0.6319477 0.15229982
-0.43847942 -0.63103503 0.15255503
-0.43744561 -0.63191968 0.15229112
-0.43205518 -0.6319443 0.15228429
-0.43133834 -0.63187999 0.15221542
-0.42991728 -0.63191515 0.15226392
-0.42878002 -0.63150364 0.15242612
-0.42744303 -0.63189161 0.15226644
-0.42622992 -0.63107353 0.15257819
-0.42489085 -0.63191545 0.15225233
-0.42338836 -0.63151562 0.15244633
-0.42196018 -0.63106471 0.15255632
-0.41951486 -0.63192463 0.15228282
-0.41840059 -0.63109607 0.15261962
-0.41759607 -0.63105291 0.15255165
-0.41694292 -0.63104832 0.15256521
-0.41122186 -0.63107693 0.15258129
-0.41048259 -0.63110203 0.15262887
-0.40973786 -0.6310823 0.15258364
-0.4080787 -0.63191402 0.15227489
-0.40544388 -0.63104749 0.15255687
-0.40472174 -0.63150907 0.15244821
-0.39978889 -0.6319322 0.15227358
-0.39361989 -0.63111043 0.15263279
-0.39253065 -0.63108611 0.15261211
-0.39139068 -0.63104832 0.15254717
-0.39000756 -0.63109237 0.15260285
-0.38976032 -0.63194275 0.15228622
-0.42076585 -0.63022226 0.15289241
-0.41110441 -0.63023537 0.15288053
-0.40860572 -0.63019228 0.15287793
-0.40785733 -0.63022774 0.15290371
-0.40537211 -0.63021439 0.15291284
-0.40355948 -0.63024634 0.15292509
-0.40282983 -0.63024712 0.15291566
-0.39766788 -0.63024414 0.15294151
-0.39673772 -0.63027966 0.15296827
-0.39135072 -0.63020629 0.15288778
-0.38273856 -0.68425244 0.15366463
-0.38464278 -0.66965497 0.15309453
-0.38562554 -0.66874075 0.15327881
-0.38572797 -0.65417588 0.15325575
-0.38664925 -0.65252268 0.1538763
-0.38716179 -0.64047611 0.15348729
-0.39925006 -0.62936187 0.15321274
-0.38321447 -0.6816889 0.15444797
-0.38343915 -0.68087184 0.15474212
-0.3853727 -0.66624558 0.15416752
-0.38555196 -0.66541314 0.15442012
-0.38585183 -0.66452932 0.15467149
-0.38695058 -0.65164554 0.15413044
-0.38773006 -0.6499477 0.15471442
-0.38639212 -0.64997035 0.15473153
-0.38766715 -0.63882065 0.15408641
-0.38936648 -0.63798726 0.15441813
-0.38865152 -0.6379869 0.15440847
-0.38782251 -0.63714123 0.15471481
-0.38184643 -0.69712889 0.15519337
-0.38216922 -0.6962713 0.15546018
-0.38249174 -0.69545394 0.15576094
-0.38401353 -0.67918235 0.1552566
-0.38432702 -0.67829365 0.15551554
-0.38351217 -0.67745221 0.15576598
-0.38503501 -0.66022849 0.1559874
-0.38796097 -0.64824367 0.15526022
-0.38652053 -0.64825916 0.15530086
-0.45264962 -0.63545495 0.15533593
-0.39055678 -0.63541067 0.15529943
-0.38984528 -0.63540488 0.15526943
-0.38767821 -0.63544679 0.15534467
-0.45324475 -0.63456476 0.1556156
-0.45209777 -0.63376462 0.1559619
-0.45140678 -0.6337679 0.1559452
-0.45038697 -0.63375223 0.15595843
-0.44567117 -0.63379234 0.1559657
-0.44423893 -0.63374227 0.15593927
-0.44207451 -0.63378686 0.15596667
-0.43704024 -0.63374293 0.15591083
-0.39006335 -0.6337446 0.15592137
-0.3825694 -0.69376391 0.1562493
-0.38152438 -0.69374692 0.15624228
-0.38227707 -0.69117039 0.15694471
-0.38483071 -0.67656904 0.15602635
-0.38357604 -0.67487562 0.15655191
-0.3865791 -0.65773517 0.15688467
-0.38556463 -0.6577242 0.15690094
-0.45713371 -0.63286805 0.15624371
-0.45526025 -0.63291955 0.15625046
-0.45271057 -0.63248098 0.15639295
-0.45022309 -0.63294363 0.15627052
-0.44962183 -0.63290197 0.15627021
-0.4476583 -0.632065 0.15654135
-0.44659752 -0.63249624 0.1563845
-0.44144118 -0.63251042 0.15643039
-0.43726808 -0.63208508 0.15658295
-0.43622595 -0.63290083 0.15618417
-0.43372613 -0.6329276 0.15626645
-0.43157619 -0.63287956 0.15619016
-0.42897967 -0.63207251 0.1565634
-0.4264279 -0.63208479 0.15655147
-0.42393488 -0.63210285 0.15658052
-0.42113039 -0.63205379 0.15655494
-0.41539448 -0.63207096 0.15656123
-0.41469076 -0.63200223 0.15650563
-0.40889502 -0.63207436 0.15655446
-0.4038752 -0.63207918 0.15654469
-0.44508952 -0.63122797 0.15684457
-0.43643486 -0.63126165 0.15688916
-0.43327522 -0.63121796 0.15686613
-0.43248153 -0.63125062 0.15689349
-0.43031979 -0.63121468 0.15683845
-0.42786482 -0.63121754 0.15687336
-0.42459118 -0.6312393 0.15686093
-0.42106405 -0.6312077 0.15684763
-0.41458169 -0.63119584 0.15684125
-0.41369283 -0.63117087 0.15681675
-0.40484047 -0.63124126 0.15688072
-0.40268427 -0.63123202 0.15684508
-0.40166044 -0.63122284 0.15686557
-0.40022829 -0.63120943 0.15685996
-0.39657545 -0.63119137 0.15681541
-0.39299875 -0.63123524 0.15687072
-0.39153728 -0.63121462 0.1568443
-0.39053547 -0.63124245 0.1568819
-0.38327798 -0.69029069 0.15717085
-0.3827315 -0.68856502 0.15764867
-0.38302496 -0.68775368 0.15796214
-0.38489988 -0.67060554 0.15781489
-0.38595015 -0.65516543 0.1577055
-0.3868373 -0.64316905 0.15704896
-0.38705432 -0.64233255 0.15733452
-0.3883712 -0.64059377 0.15789458
-0.42593399 -0.63038605 0.15716602
-0.41517934 -0.63042104 0.15720358
-0.41482764 -0.63043559 0.15720737
-0.41268906 -0.63036424 0.15712877
-0.40941039 -0.63035923 0.15713933
-0.40694478 -0.63039643 0.15717012
-0.4051384 -0.63036311 0.15715113
-0.40190014 -0.63039201 0.15717693
-0.39763007 -0.63040638 0.15718834
-0.39510506 -0.63037038 0.15719067
-0.41084465 -0.62953818 0.1574616
-0.40936029 -0.62954348 0.15746383
-0.40692812 -0.62954146 0.15749532
-0.3964746 -0.62955397 0.15750004
-0.39324239 -0.62957132 0.15751295
-0.39176786 -0.62951839 0.15746456
-0.38364094 -0.68690062 0.1582015
-0.38299757 -0.68431872 0.158932
-0.38465747 -0.66801918 0.15857741
-0.38558859 -0.66715127 0.15879098
-0.38491052 -0.66713136 0.15876997
-0.38685533 -0.65342009 0.15819752
-0.38710609 -0.65176135 0.15879512
-0.38635677 -0.65173703 0.15878387
-0.38760537 -0.63973922 0.15818711
-0.38682285 -0.63977528 0.15820448
-0.46059754 -0.63807285 0.15880162
-0.38805449 -0.63810128 0.15878046
-0.38779649 -0.63891077 0.15847628
-0.3837364 -0.70236021 0.15941571
-0.3832621 -0.68345422 0.15916619
-0.38364798 -0.68089586 0.15989871
-0.38294527 -0.68088204 0.15987611
-0.38510537 -0.6654467 0.15932223
-0.3843604 -0.66541201 0.15927427
-0.38531438 -0.66461468 0.15958527
-0.38559258 -0.66375548 0.15982056
-0.38681161 -0.6492061 0.15960617
-0.38748455 -0.63641661 0.15937616
-0.46050519 -0.63554114 0.15967283
-0.45997298 -0.63553923 0.15967916
-0.38852817 -0.63555449 0.15967777
-0.39025778 -0.63464832 0.15991497
-0.38217857 -0.69804716 0.16052157
-0.3839491 -0.68005317 0.16016148
-0.38414574 -0.67921078 0.16039361
-0.38539124 -0.66202682 0.16032302
-0.38724449 -0.64660496 0.16037673
-0.38644421 -0.64663255 0.16042005
-0.38750291 -0.64579731 0.16067562
-0.45727459 -0.63379228 0.16019543
-0.45438409 -0.63388246 0.16026758
-0.45180011 -0.63301051 0.16054577
-0.44752759 -0.63344097 0.16038188
-0.44647351 -0.63386422 0.16022919
-0.44391289 -0.63300091 0.16054367
-0.43959081 -0.63300616 0.16054159
-0.43788749 -0.63385206 0.1602353
-0.38758588 -0.6330142 0.16054998
-0.45723975 -0.6329447 0.16050331
-0.45494798 -0.63215423 0.16082807
-0.45283526 -0.63296443 0.16051838
-0.44925159 -0.63211834 0.16083179
-0.44853407 -0.63214135 0.16081543
-0.44352439 -0.63256264 0.16069297
-0.44103622 -0.63297933 0.16051231
-0.4402329 -0.63212788 0.16078943
-0.43603078 -0.63296258 0.1604775
-0.43527508 -0.63210875 0.16077797
-0.43488303 -0.63212436 0.16080903
-0.43268868 -0.63215798 0.16080993
-0.43198183 -0.63209617 0.16076329
-0.43052468 -0.63215739 0.16081384
-0.42978108 -0.63215059 0.16081731
-0.42051482 -0.63217056 0.16084534
-0.41940209 -0.63216549 0.16081893
-0.41869858 -0.6321311 0.16079317
-0.41760778 -0.63216341 0.16082101
