# .PCD v0.7 - Point Cloud Data file format
VERSION 0.7
FIELDS x y z
SIZE 4 4 4
TYPE F F F
COUNT 1 1 1
WIDTH 1341
HEIGHT 1
VIEWPOINT 0 0 0 1 0 0 0
POINTS 1341
DATA ascii
-0.15036123 -0.59940368 0.032948256
-0.14711647 -0.59999353 0.032192912
-0.14497223 -0.5993523 0.032903373
-0.14353997 -0.599567 0.032667402
-0.21330383 -0.59402347 0.032752004
-0.20390862 -0.59400177 0.032703321
-0.2024682 -0.59405118 0.032742102
-0.19384317 -0.59402382 0.032715447
-0.21473289 -0.59398699 0.032707676
-0.14522582 -0.59399205 0.032687105
-0.20813404 -0.58861887 0.032598753
-0.20670687 -0.58863729 0.032619737
-0.20485853 -0.58868909 0.032652874
-0.19524361 -0.58860123 0.032571111
-0.19159345 -0.58867598 0.032628141
-0.18523836 -0.58866745 0.032622792
-0.1597603 -0.58869886 0.032656122
-0.15800963 -0.58867943 0.032661792
-0.19328187 -0.5833419 0.032704711
-0.18976085 -0.58337748 0.032712992
-0.18791939 -0.5833872 0.032721899
-0.18154794 -0.58337486 0.03272019
-0.18009508 -0.58337933 0.032719146
-0.17869681 -0.5833497 0.032707669
-0.17719977 -0.5833534 0.032704562
-0.15755351 -0.58338112 0.03272799
-0.15607913 -0.58339989 0.032744534
-0.1542798 -0.5833497 0.032699615
-0.15151481 -0.58332914 0.032662153
-0.18970671 -0.57805681 0.03288357
-0.18782794 -0.57869744 0.032167252
-0.1842552 -0.57868642 0.032161079
-0.18107009 -0.57870018 0.032177307
-0.1793876 -0.57811487 0.03293046
-0.17788193 -0.578116 0.0329501
-0.17647895 -0.5781123 0.032947056
-0.17527381 -0.57868165 0.032143332
-0.17219391 -0.57809985 0.032925967
-0.17079042 -0.57810444 0.032938901
-0.1695427 -0.57868391 0.032155652
-0.16670883 -0.57866669 0.032149557
-0.16238934 -0.57870692 0.032176908
-0.15930502 -0.57807338 0.03290274
-0.15781626 -0.5786618 0.032148015
-0.15642892 -0.57809371 0.032928292
-0.15452808 -0.57871813 0.032185826
-0.17887831 -0.57345319 0.032517381
-0.17166968 -0.57345974 0.032525185
-0.16161631 -0.57347733 0.032531567
-0.16020119 -0.57346803 0.032522287
-0.15883064 -0.57349098 0.032552946
-0.15769917 -0.57349938 0.032543492
-0.17144471 -0.56886792 0.032256424
-0.16980258 -0.56884795 0.032225538
-0.16123696 -0.56883335 0.032231335
-0.18748945 -0.68480986 0.033327386
-0.095375299 -0.68402326 0.033855215
-0.20526868 -0.67531216 0.033637535
-0.10112123 -0.67534286 0.033678737
-0.11511356 -0.65885991 0.033550628
-0.11232223 -0.65887183 0.033545461
-0.10974623 -0.65887177 0.033541124
-0.10854217 -0.6588583 0.03353557
-0.13837695 -0.6510399 0.033531327
-0.13512516 -0.65105432 0.033529378
-0.13443536 -0.65105796 0.033542585
-0.11907938 -0.65108985 0.033589132
-0.11274074 -0.65105325 0.033539303
-0.14009629 -0.6440475 0.033202533
-0.14300889 -0.64331359 0.033795487
-0.12373667 -0.64332861 0.033813763
-0.11936781 -0.64397097 0.033113532
-0.11727315 -0.64399934 0.033155791
-0.2827135 -0.63704115 0.033055946
-0.14591847 -0.6370557 0.033060852
-0.13226515 -0.63701898 0.033022679
-0.1265599 -0.6370154 0.033011556
-0.28565076 -0.63634968 0.033677939
-0.27734575 -0.63635886 0.033702809
-0.14880289 -0.63633829 0.033691052
-0.14741337 -0.63635325 0.033691294
-0.14021152 -0.63632339 0.033660594
-0.12945673 -0.63630819 0.033652928
-0.28961176 -0.63008374 0.033093669
-0.15313075 -0.6300838 0.033091195
-0.12729676 -0.63005567 0.033067022
-0.28817153 -0.62944037 0.033799466
-0.28634858 -0.62934309 0.033693112
-0.28291464 -0.62942284 0.033793762
-0.2810533 -0.62934154 0.03370871
-0.27783149 -0.62943721 0.033787802
-0.27599165 -0.62938941 0.033736482
-0.27244198 -0.62941265 0.033782657
-0.15248629 -0.6294086 0.033761859
-0.14995657 -0.6293686 0.033701681
-0.13241339 -0.62941837 0.033771861
-0.12998669 -0.62941128 0.033779971
-0.12492131 -0.6293698 0.033717114
-0.2754218 -0.62317497 0.033368994
-0.26611111 -0.6231572 0.033345554
-0.25355202 -0.62312573 0.033307321
-0.22164631 -0.62313318 0.033320777
-0.15428008 -0.62321085 0.033412121
-0.13965082 -0.62321311 0.03338819
-0.13823992 -0.62321383 0.033398438
-0.13541816 -0.62314802 0.03332556
-0.25796407 -0.61701822 0.033190522
-0.25395888 -0.61701816 0.03317564
-0.21498391 -0.61704445 0.033202186
-0.13557516 -0.61702394 0.033184242
-0.13404813 -0.61704439 0.033206772
-0.13295741 -0.61700821 0.033164762
-0.26159266 -0.61633784 0.033847086
-0.25978053 -0.61636466 0.033875853
-0.2558327 -0.61632442 0.033837561
-0.25234061 -0.61637449 0.033892523
-0.25085694 -0.61696053 0.03313322
-0.24426579 -0.6169737 0.033128735
-0.24120554 -0.61635941 0.033877853
-0.2379289 -0.61630237 0.033800967
-0.236165 -0.61635983 0.033870071
-0.2117677 -0.61632127 0.03384649
-0.21041113 -0.61629474 0.033799313
-0.15747306 -0.61633444 0.033849999
-0.1555206 -0.61699551 0.033141516
-0.14446476 -0.61636221 0.033872429
-0.14265317 -0.61697274 0.033113074
-0.140861 -0.61635303 0.033860177
-0.13664997 -0.61635315 0.033862539
-0.13258605 -0.61699009 0.033136174
-0.25341731 -0.61086684 0.033146832
-0.25203723 -0.61083615 0.03312872
-0.25165778 -0.61085159 0.033142619
-0.24993767 -0.61021298 0.033839591
-0.24496987 -0.61021173 0.033850763
-0.2431248 -0.61025411 0.033886503
-0.24166809 -0.6108492 0.033133741
-0.24015428 -0.61080766 0.033096429
-0.23876779 -0.61089194 0.033161726
-0.23698178 -0.61025238 0.033884216
-0.23529242 -0.61021215 0.033839043
-0.23351064 -0.61019456 0.03383337
-0.22659814 -0.61086923 0.033127718
-0.19942114 -0.61086828 0.033144403
-0.1966231 -0.61023086 0.033859078
-0.16328408 -0.6102199 0.033867616
-0.1493848 -0.61020285 0.033837717
-0.14462528 -0.61088496 0.033161886
-0.14031568 -0.61084378 0.033115692
-0.13821088 -0.61021107 0.033838402
-0.13742661 -0.61087197 0.03315014
-0.13680935 -0.61022776 0.033869412
-0.13563076 -0.61087334 0.033154517
-0.23953626 -0.60481691 0.033352435
-0.23793028 -0.60474133 0.033288259
-0.22932899 -0.60480505 0.033337362
-0.22575352 -0.60477012 0.033301156
-0.22389354 -0.60479456 0.033311427
-0.21937025 -0.60480559 0.033359826
-0.16705772 -0.60479879 0.033341486
-0.16460818 -0.60409933 0.033976767
-0.14907685 -0.60477656 0.033300661
-0.14480664 -0.60480088 0.033345837
-0.14125048 -0.60479957 0.033328138
-0.21850964 -0.59875447 0.033644427
-0.21667862 -0.59876847 0.033683237
-0.20772016 -0.59869725 0.033615023
-0.1794011 -0.59875512 0.033664219
-0.17697977 -0.59873509 0.033667941
-0.17087454 -0.59871221 0.033621907
-0.15369092 -0.59872168 0.033642236
-0.14862049 -0.59874457 0.033637278
-0.14689122 -0.59874344 0.033648632
-0.1450437 -0.59873778 0.033635531
-0.21157865 -0.59333289 0.033384789
-0.21007609 -0.59336531 0.033435602
-0.19893636 -0.59336197 0.033438124
-0.19541493 -0.59339768 0.033446554
-0.15529446 -0.59339422 0.033459954
-0.15278506 -0.59339523 0.033437572
-0.14915372 -0.59337968 0.033447597
-0.14810906 -0.59342182 0.033484396
-0.20677339 -0.58804077 0.033382099
-0.20315671 -0.58806187 0.033369657
-0.19316615 -0.58806318 0.033385124
-0.18815795 -0.58801126 0.033327293
-0.15982434 -0.58809465 0.033413012
-0.19698967 -0.58279222 0.033479333
-0.19490199 -0.58280152 0.03350522
-0.17549632 -0.5827632 0.033463541
-0.16443154 -0.58278167 0.03348577
-0.1626808 -0.58276576 0.033456556
-0.16126037 -0.58272982 0.033436641
-0.15795894 -0.58279204 0.033497214
-0.18803392 -0.57750225 0.033675045
-0.18410143 -0.57754546 0.033714704
-0.17512958 -0.57751095 0.033699036
-0.16945426 -0.57752281 0.033716165
-0.16655116 -0.57749021 0.033690844
-0.17904994 -0.57286179 0.033285312
-0.17292631 -0.57288492 0.033312541
-0.16850249 -0.56828552 0.033028346
-0.16276623 -0.56831038 0.033046193
-0.16170391 -0.56827229 0.033015043
-0.15995219 -0.5682869 0.033050619
-0.1654318 -0.56774348 0.033845212
-0.1640137 -0.56773531 0.03384044
-0.1632475 -0.56774145 0.033834957
-0.16110976 -0.56770277 0.03381547
-0.11226766 -0.69203496 0.03490077
-0.09733884 -0.68329585 0.034458138
-0.095597275 -0.68328273 0.034441393
-0.10282422 -0.67461818 0.034260385
-0.10105446 -0.67461741 0.034259785
-0.20621189 -0.67391264 0.034898598
-0.10138247 -0.67389125 0.034850102
-0.10098571 -0.6738953 0.034845449
-0.10627063 -0.66600448 0.034387823
-0.11022832 -0.66526234 0.034959722
-0.10990985 -0.66525286 0.034956638
-0.107725 -0.66524369 0.034954488
-0.10629878 -0.66527259 0.034980338
-0.11508662 -0.65814501 0.034154993
-0.10903584 -0.65814614 0.034154627
-0.10871239 -0.65814924 0.034154229
-0.11198216 -0.65743804 0.034765724
-0.13448697 -0.65034688 0.034167178
-0.11911559 -0.65037894 0.034205168
-0.11621669 -0.65038222 0.034211572
-0.13698968 -0.64962602 0.034784097
-0.12591365 -0.64966053 0.034813363
-0.14451617 -0.64261675 0.034446105
-0.14235203 -0.64261699 0.034436438
-0.12865193 -0.64261568 0.034464072
-0.11948487 -0.64258289 0.034416303
-0.29709724 -0.63563097 0.034318145
-0.29204968 -0.63569593 0.034376327
-0.29061276 -0.63567144 0.034353297
-0.28390253 -0.63558823 0.034274269
-0.13202167 -0.63566542 0.034351725
-0.12348211 -0.63563818 0.034315243
-0.12271474 -0.63564253 0.034305632
-0.29504371 -0.63491535 0.034962658
-0.2885659 -0.63493717 0.034963384
-0.28214538 -0.63495564 0.034989756
-0.27851716 -0.63491881 0.034932293
-0.12649566 -0.63494778 0.034954041
-0.12422881 -0.63495803 0.034996539
-0.12365043 -0.63496292 0.034993283
-0.28113544 -0.62869805 0.034386311
-0.27968493 -0.62866241 0.034371901
-0.27427116 -0.62865961 0.034373179
-0.27252248 -0.6287334 0.034440678
-0.27037591 -0.62872517 0.034431212
-0.23167354 -0.62868917 0.034369055
-0.1363831 -0.62871033 0.034399729
-0.2736502 -0.62253678 0.034070615
-0.27182549 -0.62250137 0.034020483
-0.27008832 -0.62250644 0.034048069
-0.26400706 -0.62251568 0.034040783
-0.26219907 -0.62251765 0.034058303
-0.26039809 -0.62253237 0.034066699
-0.25651911 -0.62250888 0.034049056
-0.24999088 -0.62254357 0.034080725
-0.22385612 -0.62253636 0.034064211
-0.22241874 -0.6225127 0.034026261
-0.15366985 -0.6225422 0.034091935
-0.14075629 -0.62252486 0.034051958
-0.13218533 -0.62249911 0.034019399
-0.13042054 -0.62251264 0.034045171
-0.265856 -0.62181163 0.034693163
-0.26403859 -0.62184012 0.034701701
-0.25830653 -0.62181032 0.034705225
-0.25474671 -0.62187016 0.034747336
-0.2196181 -0.62184435 0.03472105
-0.15657349 -0.62182826 0.034700096
-0.13806114 -0.62186766 0.034742843
-0.13619861 -0.62184799 0.034744069
-0.1336852 -0.62182903 0.034695409
-0.25772434 -0.61569673 0.034571066
-0.25063452 -0.61567563 0.034542724
-0.24738164 -0.61569816 0.034556836
-0.24556205 -0.61571932 0.034592483
-0.23944688 -0.61571634 0.034587312
-0.20979494 -0.61564696 0.03451049
-0.15921819 -0.61570126 0.03454965
-0.14239803 -0.61566001 0.034494672
-0.13771544 -0.61568993 0.034561649
-0.13530818 -0.61570972 0.034567744
-0.13380422 -0.6157226 0.034574822
-0.24823657 -0.60962826 0.03458681
-0.24642974 -0.60950577 0.034484904
-0.24142876 -0.60957599 0.034567904
-0.23530471 -0.60957658 0.034554131
-0.23140067 -0.60959542 0.034593016
-0.22962697 -0.60959059 0.034573514
-0.22780804 -0.60953683 0.034521252
-0.22462977 -0.60957879 0.034538951
-0.22323343 -0.60956091 0.034555569
-0.14681856 -0.60960531 0.034600455
-0.1444269 -0.60958201 0.034569535
-0.14014567 -0.60956323 0.034542371
-0.13829172 -0.60954702 0.034523461
-0.23442657 -0.60416126 0.034051821
-0.2329662 -0.60417604 0.034069303
-0.22938642 -0.60416138 0.034044214
-0.22223878 -0.60415131 0.034019336
-0.21327409 -0.60418177 0.034056358
-0.18999247 -0.60412902 0.034012407
-0.188908 -0.60413402 0.034020469
-0.15242328 -0.60414982 0.034019973
-0.14704685 -0.60412848 0.034005892
-0.14264286 -0.60417515 0.034049422
-0.14040996 -0.6041559 0.034036789
-0.23621042 -0.60344791 0.034695949
-0.23591059 -0.60346514 0.034718197
-0.23464534 -0.603526 0.034758888
-0.22374323 -0.60350198 0.034729999
-0.22055967 -0.60350031 0.034735285
-0.21912353 -0.60353357 0.034778181
-0.21766202 -0.60348028 0.034695994
-0.21623699 -0.60348415 0.034729835
-0.18610311 -0.60350841 0.034735058
-0.16605406 -0.60349864 0.034732983
-0.14889507 -0.60349822 0.034737047
-0.14458306 -0.60351646 0.034749348
-0.2250043 -0.59814358 0.034426112
-0.22322929 -0.59813976 0.034407225
-0.21992952 -0.59812713 0.03436251
-0.21391025 -0.59807414 0.034337573
-0.20601036 -0.59812462 0.03437208
-0.20424193 -0.59815371 0.034422901
-0.20276223 -0.59816569 0.03443563
-0.17520522 -0.59812152 0.03438871
-0.17375953 -0.59813315 0.034381609
-0.16736336 -0.59812385 0.03440376
-0.15012069 -0.59816885 0.034424093
-0.21628152 -0.5927732 0.034170292
-0.21458249 -0.59215498 0.034922767
-0.21310695 -0.59248316 0.034583133
-0.21162406 -0.59274024 0.034137424
-0.20992804 -0.59212875 0.034910776
-0.20845395 -0.59245044 0.034551412
-0.2066807 -0.59218889 0.034952916
-0.20524646 -0.5921188 0.034875788
-0.2036532 -0.59276283 0.034175433
-0.2020209 -0.59219241 0.034952555
-0.20054267 -0.59279925 0.034216665
-0.19879599 -0.59216225 0.034943204
-0.19703491 -0.59210557 0.034872133
-0.19526558 -0.59215581 0.034926802
-0.19195572 -0.59275353 0.034165442
-0.15832409 -0.59211195 0.034875222
-0.1540467 -0.59216714 0.034946043
-0.1539266 -0.59277332 0.034201324
-0.15264465 -0.59215748 0.034923196
-0.15142055 -0.59276783 0.034174107
-0.14967228 -0.5927363 0.034155246
-0.20469123 -0.58748859 0.034157597
-0.20398439 -0.58748883 0.034163315
-0.19502974 -0.58740056 0.034078211
-0.19137374 -0.5874837 0.034146208
-0.18647292 -0.58745205 0.034132935
-0.1850509 -0.5874806 0.034151226
-0.18361732 -0.58745658 0.034139086
-0.15455279 -0.58741039 0.034077361
-0.15313759 -0.58744484 0.034110706
-0.15167251 -0.5874691 0.034148164
-0.2048251 -0.58686513 0.034917399
-0.20013863 -0.58684874 0.034885079
-0.19509448 -0.58681202 0.034862276
-0.19149315 -0.58687198 0.034896426
-0.18798831 -0.58680993 0.034841478
-0.15468265 -0.58680665 0.034826502
-0.1517949 -0.58685708 0.034901671
-0.19498786 -0.58221895 0.034277551
-0.19159782 -0.58212292 0.034180552
-0.18137869 -0.58219093 0.03425153
-0.17854825 -0.58215863 0.034241091
-0.17709558 -0.58215815 0.034219477
-0.1713293 -0.5821799 0.034233823
-0.16271681 -0.58220565 0.034249216
-0.15958595 -0.58215052 0.034211349
-0.18788263 -0.58159608 0.034995705
-0.16715927 -0.58157402 0.034995433
-0.16107208 -0.58154249 0.034952298
-0.18417612 -0.57695895 0.034492202
-0.17779791 -0.57694775 0.034491137
-0.17635807 -0.5769608 0.034498755
-0.17346142 -0.57693124 0.034472577
-0.17203334 -0.57693189 0.034473989
-0.1706253 -0.57694787 0.034494679
-0.16341758 -0.5769434 0.034488704
-0.17729591 -0.57234269 0.034113467
-0.16867004 -0.57232767 0.034091875
-0.16582996 -0.57233131 0.034097705
-0.16301344 -0.57231468 0.034090325
-0.16013269 -0.57231271 0.034088079
-0.16884713 -0.57174802 0.034871843
-0.16744193 -0.57175338 0.03488468
-0.16021115 -0.57175142 0.034877542
-0.16414565 -0.5671671 0.034626741
-0.16266054 -0.56718183 0.034626219
-0.20267224 -0.68181789 0.035583969
-0.098596454 -0.68182087 0.035596542
-0.09658777 -0.68182099 0.035595205
-0.20831627 -0.67318082 0.03546726
-0.21005243 -0.67238551 0.035997979
-0.11455625 -0.66456473 0.035581935
-0.11021481 -0.6645326 0.035555698
-0.10646475 -0.66453898 0.035573058
-0.11195966 -0.65673178 0.035389021
-0.11448372 -0.65599251 0.035974909
-0.14043641 -0.64896464 0.035461042
-0.12128889 -0.64891058 0.03539484
-0.11875092 -0.64897335 0.035457287
-0.11621439 -0.6489706 0.035460435
-0.1434857 -0.64122713 0.035721257
-0.13171288 -0.64120847 0.035704195
-0.12848228 -0.64122254 0.035732098
-0.12424073 -0.6412189 0.035715424
-0.12362982 -0.64157945 0.035407256
-0.120727 -0.64147091 0.035546277
-0.1199222 -0.6418975 0.035082746
-0.29324824 -0.63424784 0.035610259
-0.28858581 -0.63421857 0.035585623
-0.28537774 -0.63499045 0.035018992
-0.28359172 -0.63420761 0.035574742
-0.1495837 -0.63497144 0.035002049
-0.14746515 -0.634287 0.035646848
-0.14458372 -0.63499635 0.035016008
-0.13172311 -0.63430065 0.035666268
-0.12922798 -0.63424885 0.035612367
-0.28438345 -0.62801093 0.035070088
-0.28263429 -0.62806201 0.035127591
-0.2811687 -0.62805599 0.035085123
-0.27759036 -0.62807149 0.035130654
-0.27581513 -0.6280579 0.035116233
-0.27250522 -0.62808037 0.035112415
-0.14881165 -0.62801206 0.03504581
-0.1296604 -0.62805963 0.035103444
-0.12730423 -0.62803286 0.035079785
-0.27401894 -0.6273002 0.035710938
-0.14042702 -0.62739891 0.035782352
-0.13761568 -0.62733841 0.035715967
-0.13613915 -0.62735283 0.035736453
-0.13430779 -0.62735283 0.035726964
-0.132177 -0.62737674 0.03576538
-0.13006511 -0.62738371 0.035767633
-0.25619382 -0.62116706 0.035390995
-0.25297716 -0.62110746 0.03533173
-0.13622832 -0.62119192 0.035432599
-0.13481121 -0.62115204 0.035365064
-0.1322784 -0.62116826 0.035381332
-0.13193682 -0.62116492 0.035383284
-0.25777104 -0.61504549 0.035255507
-0.25557736 -0.61502028 0.035242472
-0.25336102 -0.61503941 0.035241127
-0.20804201 -0.61503077 0.03523884
-0.15644918 -0.61503083 0.035231635
-0.14637864 -0.61503923 0.035244439
-0.14428885 -0.61504447 0.035256021
-0.13639779 -0.61502683 0.035244986
-0.25352618 -0.61436445 0.035922993
-0.25178981 -0.61439091 0.035954431
-0.24886964 -0.61496186 0.035175145
-0.24718139 -0.6143747 0.035944995
-0.2406339 -0.61438262 0.035941534
-0.23917864 -0.61440766 0.035959456
-0.23383872 -0.6144101 0.035967816
-0.21082895 -0.6149928 0.035211086
-0.16044454 -0.61438918 0.03595987
-0.14650722 -0.61438018 0.035939179
-0.14213382 -0.61434948 0.035888374
-0.14037205 -0.6143682 0.035924613
-0.13898338 -0.61437571 0.035939898
-0.13749355 -0.61437041 0.035948228
-0.24304596 -0.60829407 0.035983916
-0.24122308 -0.60829133 0.035986051
-0.23964594 -0.60887122 0.035205383
-0.23828954 -0.60826439 0.035942581
-0.23510133 -0.60829479 0.035977617
-0.23325117 -0.60889035 0.035236381
-0.23143706 -0.6089462 0.035286069
-0.22944419 -0.608289 0.035997305
-0.22603405 -0.60893172 0.035232216
-0.19821744 -0.60893404 0.03527125
-0.19458492 -0.60894173 0.035266295
-0.19395827 -0.60829562 0.035974156
-0.16572146 -0.60823935 0.035910543
-0.16413039 -0.60893577 0.035273183
-0.15093677 -0.60827184 0.035941146
-0.14882106 -0.60825944 0.035936687
-0.1441569 -0.60829484 0.035973515
-0.14196095 -0.60829771 0.035971269
-0.1398728 -0.60829562 0.035982996
-0.23101544 -0.60283893 0.035429869
-0.22915505 -0.60288489 0.035473425
-0.22523069 -0.60286677 0.035457581
-0.21454461 -0.60286051 0.035457361
-0.18444642 -0.60287565 0.035467178
-0.15216914 -0.60288602 0.035464231
-0.14682196 -0.60285097 0.035441238
-0.14463957 -0.60286558 0.035453822
-0.1425065 -0.602898 0.03548865
-0.22335172 -0.59750676 0.035150629
-0.22154766 -0.59746575 0.035106365
-0.21824799 -0.59751993 0.035105743
-0.21220174 -0.59747797 0.03511361
-0.20898764 -0.59754181 0.03514529
-0.20751032 -0.5974499 0.03507394
-0.20104872 -0.59745932 0.035090405
-0.17457145 -0.59748983 0.035107184
-0.17315574 -0.5975098 0.035125956
-0.17178108 -0.59752387 0.035146907
-0.15494743 -0.59748721 0.035097938
-0.15345807 -0.59747398 0.035092708
-0.15160783 -0.59749031 0.035118349
-0.15022199 -0.59753406 0.035155501
-0.14848985 -0.59749341 0.035104766
-0.14666681 -0.59749854 0.035109311
-0.14484684 -0.59748799 0.035095163
-0.22015262 -0.5968616 0.035829615
-0.21050145 -0.59688592 0.035874903
-0.20266274 -0.59689796 0.035887688
-0.19902036 -0.59684348 0.035803992
-0.17575864 -0.59685928 0.035839707
-0.15174043 -0.59684658 0.035817787
-0.14681731 -0.59685963 0.035838716
-0.21143273 -0.59151471 0.035630804
-0.20354573 -0.59150553 0.035629597
-0.20208918 -0.59155852 0.035670493
-0.19885248 -0.59155595 0.035694379
-0.1566568 -0.59149337 0.035606235
-0.14987092 -0.59151012 0.035647888
-0.20170991 -0.58619052 0.035591692
-0.19861613 -0.58628803 0.035670307
-0.19349431 -0.58620638 0.035604917
-0.18488684 -0.58625352 0.035646014
-0.18165116 -0.58625966 0.035649892
-0.16299811 -0.58621025 0.035607848
-0.16157971 -0.58622438 0.035622414
-0.15479225 -0.58619672 0.035588436
-0.19324186 -0.58160174 0.035028864
-0.16997007 -0.58158958 0.035004962
-0.16264926 -0.58101809 0.035792802
-0.1577688 -0.58159715 0.03501429
-0.15612051 -0.58102572 0.035791278
-0.15429834 -0.58159977 0.035029013
-0.18445396 -0.58094263 0.03570614
-0.17548822 -0.58097982 0.03574641
-0.159771 -0.58095068 0.035730354
-0.15795453 -0.58099109 0.035778377
-0.18257587 -0.57633466 0.035229854
-0.17934389 -0.57637262 0.035268821
-0.17644501 -0.57637584 0.035269167
-0.17068624 -0.5763644 0.035263956
-0.16783702 -0.57636428 0.03525424
-0.15928625 -0.57635641 0.035243921
-0.16570632 -0.57117832 0.035659947
-0.16424039 -0.56662822 0.035435438
-0.20370442 -0.68109506 0.036184259
-0.098827265 -0.6810751 0.036166511
-0.1002089 -0.68035531 0.036753975
-0.20749334 -0.67243707 0.036045581
-0.10461409 -0.6724354 0.036052302
-0.10463785 -0.67170894 0.036636245
-0.1379168 -0.66381615 0.03614486
-0.11745574 -0.66310686 0.036798865
-0.11427258 -0.66310865 0.036780231
-0.11032242 -0.66343868 0.036449295
-0.11236146 -0.65601867 0.036018975
-0.11200381 -0.65531164 0.036639906
-0.13954739 -0.64826924 0.036091927
-0.12559207 -0.64824992 0.0360603
-0.12127749 -0.64819574 0.036003206
-0.11623581 -0.64826447 0.036093693
-0.12563951 -0.6475324 0.036671404
-0.12136996 -0.64748704 0.036631491
-0.11846328 -0.64755261 0.036707319
-0.12844664 -0.64053291 0.036369197
-0.12424359 -0.64052862 0.036357392
-0.131411 -0.63981289 0.036985099
-0.29148462 -0.63360405 0.036306351
-0.27821612 -0.63357639 0.036267713
-0.14859565 -0.63359022 0.036300242
-0.13425894 -0.63360822 0.036303077
-0.1317794 -0.63360614 0.036316324
-0.12924376 -0.6335699 0.036273923
-0.12638301 -0.63356161 0.036242764
-0.29293916 -0.63286179 0.036896564
-0.28659779 -0.6329 0.036953535
-0.15007345 -0.63290185 0.036949705
-0.13678755 -0.63289815 0.036936052
-0.13427189 -0.63292646 0.036965247
-0.12641531 -0.63287228 0.036898371
-0.2604337 -0.62667865 0.03641206
-0.23042586 -0.62663138 0.036354534
-0.15341611 -0.62669355 0.036428615
-0.15089916 -0.62670022 0.036437359
-0.13867167 -0.62669134 0.036420703
-0.13434835 -0.626674 0.036395695
-0.26564217 -0.62049884 0.036083516
-0.25447851 -0.62056196 0.036113981
-0.21864851 -0.62051052 0.036065105
-0.15564686 -0.62048823 0.036055274
-0.13883263 -0.62052751 0.036091961
-0.13345174 -0.62047613 0.036038138
-0.26346368 -0.61983615 0.036731578
-0.26170278 -0.61984926 0.036786672
-0.25090522 -0.61983556 0.036758348
-0.15503193 -0.61982042 0.036747623
-0.14278023 -0.61984318 0.036764227
-0.1413344 -0.61985224 0.036776353
-0.1399187 -0.61984408 0.036771651
-0.25187033 -0.61371189 0.036626302
-0.24859923 -0.61366069 0.036564134
-0.22997396 -0.6136927 0.03660119
-0.1486599 -0.61373997 0.036648747
-0.23939089 -0.60760248 0.036632881
-0.22943886 -0.60765356 0.0366956
-0.22271691 -0.60761672 0.036669023
-0.21983336 -0.60757858 0.036604177
-0.21691003 -0.60762191 0.03666234
-0.1631612 -0.60764843 0.036679257
-0.15289463 -0.60762155 0.036661357
-0.14884643 -0.60761631 0.036643729
-0.23107085 -0.60222566 0.03616653
-0.22531031 -0.60222816 0.036180083
-0.22353499 -0.60221368 0.036158048
-0.22032304 -0.60223567 0.036175009
-0.21276879 -0.60226011 0.03619761
-0.16730283 -0.60227293 0.03620496
-0.16513275 -0.60221952 0.03616425
-0.22900566 -0.60157031 0.036877133
-0.22180203 -0.60159725 0.03687568
-0.21576114 -0.60155225 0.036858741
-0.21433221 -0.60157156 0.036880266
-0.21104623 -0.60160017 0.036877744
-0.2092699 -0.60156608 0.036857687
-0.15023333 -0.60158801 0.036880784
-0.14487784 -0.60157943 0.036881059
-0.21808501 -0.59624767 0.036563352
-0.20879927 -0.59627515 0.036604114
-0.20737228 -0.59618944 0.036524545
-0.19915827 -0.5962044 0.036538012
-0.15326802 -0.59623176 0.036561832
-0.14842764 -0.59625101 0.036569484
-0.21009612 -0.59087408 0.036355749
-0.2036299 -0.59086972 0.036361184
-0.20042756 -0.59095347 0.036439948
-0.19148773 -0.59091425 0.036399677
-0.18536009 -0.5909279 0.036415298
-0.15811817 -0.59088022 0.036360975
-0.15498677 -0.59091336 0.036391944
-0.15241209 -0.59092742 0.036410842
-0.15122505 -0.59091544 0.036389939
-0.18785524 -0.58561057 0.036358036
-0.15626043 -0.58562768 0.03637905
-0.18953729 -0.58038467 0.036505014
-0.1876778 -0.58042574 0.036536273
-0.18277615 -0.58039439 0.036522511
-0.16409601 -0.58040553 0.036520176
-0.1776956 -0.57549989 0.036433913
-0.17626768 -0.57520843 0.036811594
-0.16911584 -0.57548463 0.036422241
-0.16627073 -0.57518274 0.036798187
-0.16369247 -0.57577062 0.036032211
-0.1607873 -0.57579041 0.036047302
-0.19568141 -0.68829048 0.037673082
-0.20448701 -0.67958719 0.037287507
-0.10055187 -0.6796127 0.037309758
-0.20584987 -0.67881495 0.03780726
-0.1074013 -0.67887568 0.037902214
-0.21040644 -0.67018437 0.037743021
-0.20858592 -0.67057031 0.037473947
-0.10820663 -0.67024326 0.037786521
-0.10466195 -0.67097437 0.037223995
-0.13758262 -0.66237134 0.037352525
-0.13756104 -0.66164988 0.037947331
-0.13606304 -0.6545639 0.037210174
-0.13537933 -0.6545729 0.037231736
-0.12355318 -0.6545558 0.037193723
-0.11814387 -0.65459764 0.037249062
-0.11776005 -0.65460008 0.037252292
-0.11420999 -0.65455943 0.037203316
-0.13461982 -0.65386552 0.037843727
-0.11814649 -0.65387917 0.037860245
-0.11421804 -0.65384489 0.037818871
-0.14140724 -0.64614761 0.037954837
-0.138546 -0.6468488 0.037336238
-0.12564987 -0.64683467 0.037310552
-0.11859857 -0.64610803 0.037926171
-0.14605966 -0.6398477 0.037023585
-0.14249438 -0.63983095 0.037002835
-0.12429981 -0.63948452 0.037315451
-0.28158775 -0.63217491 0.03757076
-0.276209 -0.63217306 0.037576739
-0.14759751 -0.63221055 0.037617207
-0.12646492 -0.63217592 0.037543349
-0.1501673 -0.62602496 0.037103012
-0.27342474 -0.62528944 0.03769879
-0.26987433 -0.62535644 0.037775982
-0.26016822 -0.62531251 0.037747402
-0.22861011 -0.62598759 0.037074015
-0.22759224 -0.62599701 0.037080847
-0.15236516 -0.62534052 0.037757937
-0.13589168 -0.62599605 0.037053585
-0.13198285 -0.62534595 0.037765797
-0.26535484 -0.61918038 0.03744965
-0.24926217 -0.61918682 0.037460603
-0.2152454 -0.61920124 0.037483916
-0.2501052 -0.61308271 0.03733661
-0.20491084 -0.61307943 0.037322227
-0.20356818 -0.6130386 0.037292115
-0.15945198 -0.61309046 0.037352227
-0.14872465 -0.61308622 0.037360121
-0.14406645 -0.61306691 0.037315823
-0.20180687 -0.61235964 0.037961956
-0.16316302 -0.61239266 0.037990652
-0.16130428 -0.61237156 0.037976269
-0.14425133 -0.60700423 0.037385385
-0.23305865 -0.60694242 0.037317656
-0.18936758 -0.60697681 0.037358683
-0.16473301 -0.60696977 0.037354134
-0.22330962 -0.60092318 0.037577461
-0.17076127 -0.60092741 0.037591498
-0.16881993 -0.60097456 0.037624478
-0.15675123 -0.60095531 0.037596602
-0.21641295 -0.59560716 0.037290998
-0.16190831 -0.59560508 0.037289087
-0.15879482 -0.59557801 0.037250143
-0.1573377 -0.59560668 0.037285153
-0.20192708 -0.59030789 0.037129514
-0.20049728 -0.59035045 0.037183031
-0.19867948 -0.5903486 0.037192583
-0.19511989 -0.59029436 0.03712428
-0.19155949 -0.59032303 0.03714535
-0.15969861 -0.59033287 0.037179213
-0.16336748 -0.58967352 0.037873346
-0.19151673 -0.58503592 0.037143361
-0.18793589 -0.5850181 0.037122075
-0.1846728 -0.58504695 0.037154652
-0.17604649 -0.58503228 0.037132271
-0.18618508 -0.58499527 0.037110835
-0.18109748 -0.57982963 0.037303925
-0.16460893 -0.57978576 0.037275087
-0.15957195 -0.57976866 0.037257571
-0.17171718 -0.57461351 0.037560895
-0.16634192 -0.57462019 0.037588447
-0.16353074 -0.57460475 0.037578795
-0.20105845 -0.68757468 0.038294595
-0.19715802 -0.68754292 0.038249146
-0.099359937 -0.68753821 0.038258642
-0.19860847 -0.6867941 0.038800422
-0.1945978 -0.68679214 0.038783066
-0.19059068 -0.68683559 0.038863413
-0.18886179 -0.68681967 0.038824037
-0.096876457 -0.6867789 0.038773745
-0.20483048 -0.6773271 0.038947426
-0.20306337 -0.6773681 0.038999349
-0.10819678 -0.66951346 0.038371488
-0.21112594 -0.66875851 0.03893394
-0.12357076 -0.65311694 0.038403437
-0.14392523 -0.64541799 0.038560208
-0.12145149 -0.64537305 0.038512297
-0.2890209 -0.6384725 0.038319353
-0.13152263 -0.63841242 0.038265806
-0.12825665 -0.63843811 0.0382847
-0.12434286 -0.63844347 0.038278896
-0.13650386 -0.63778085 0.038963072
-0.12470759 -0.63774723 0.038929962
-0.28627655 -0.63152158 0.03825267
-0.12905183 -0.63150799 0.038243469
-0.13622162 -0.63082832 0.038879707
-0.134084 -0.6308524 0.038911458
-0.15172599 -0.62466651 0.038436178
-0.14529899 -0.62465864 0.038437236
-0.14382848 -0.62465703 0.038425714
-0.25068107 -0.61846673 0.038095016
-0.15648679 -0.61849505 0.038093347
-0.14112344 -0.61850595 0.038131438
-0.2156634 -0.6178664 0.038833078
-0.21417831 -0.61788088 0.038845766
-0.16052015 -0.61784077 0.038788605
-0.14379457 -0.61174965 0.038696256
-0.22923166 -0.60636234 0.038101967
-0.1640473 -0.60632706 0.038048446
-0.17936917 -0.60029578 0.038308784
-0.17183979 -0.60028213 0.038277872
-0.20249954 -0.59502959 0.038069937
-0.18816982 -0.5890559 0.038611408
-0.16730241 -0.58381718 0.0386362
-0.16862765 -0.57919383 0.038039707
-0.1718677 -0.57402176 0.03834131
-0.18821102 -0.68605721 0.039374664
-0.20354378 -0.68529958 0.039909679
-0.20178685 -0.68527234 0.039891817
-0.10735592 -0.67739272 0.039042465
-0.206183 -0.67660177 0.039534334
-0.1368968 -0.65947902 0.039760128
-0.13938911 -0.65239614 0.039023042
-0.13862795 -0.65240407 0.039022062
-0.13794117 -0.65169293 0.039633807
-0.1178431 -0.65174234 0.039702959
-0.14297174 -0.64400709 0.039822981
-0.13965659 -0.64474338 0.039219059
-0.125756 -0.64470834 0.039183453
-0.1479947 -0.63708955 0.039605431
-0.14987449 -0.6301409 0.039546177
-0.22481968 -0.62401056 0.039111327
-0.15440267 -0.62400341 0.0391078
-0.22307506 -0.62326258 0.039696693
-0.22230808 -0.62392437 0.039037291
-0.15388657 -0.62399602 0.039098416
-0.15987927 -0.61716694 0.039465178
-0.15772909 -0.61716235 0.039465435
-0.1639386 -0.61108851 0.039392345
-0.16038598 -0.61105031 0.039357334
-0.18960673 -0.60502768 0.0394652
-0.15204296 -0.60503215 0.039464641
-0.18203901 -0.59904349 0.039760873
-0.17702118 -0.59903979 0.039755445
-0.17265853 -0.59907705 0.039770946
-0.1695305 -0.59902042 0.039732218
-0.16764425 -0.59906995 0.03978195
-0.20103967 -0.68453801 0.040452503
-0.18711486 -0.68456227 0.040490072
-0.18530205 -0.68456906 0.040499624
-0.20700017 -0.67517096 0.04075785
-0.20513995 -0.67512071 0.040670179
-0.21186985 -0.66731042 0.040141758
-0.21007207 -0.66728586 0.040090103
-0.21613044 -0.65802121 0.040966138
-0.13719915 -0.65096855 0.040228661
-0.13682979 -0.65097862 0.040237121
-0.14226471 -0.64331716 0.040463377
-0.14738904 -0.63637936 0.040243827
-0.22910304 -0.62876832 0.040860318
-0.15162382 -0.62877738 0.040867507
-0.22529705 -0.62263781 0.04044779
-0.22387528 -0.62265247 0.040447719
-0.1529696 -0.62262982 0.040424708
-0.21038401 -0.61647594 0.040113389
-0.20895316 -0.61651462 0.040155683
-0.20822589 -0.61585844 0.040842563
-0.15884574 -0.61582977 0.040811904
-0.15678661 -0.6158244 0.04082413
-0.20061934 -0.61038715 0.040048614
-0.1980985 -0.61042696 0.040068831
-0.19658683 -0.61043149 0.040089414
-0.16167617 -0.61041874 0.04006803
-0.19880988 -0.60978079 0.04078481
-0.16303416 -0.60977054 0.04076783
-0.1903843 -0.60438192 0.040161751
-0.18678924 -0.60439539 0.040188882
-0.18759418 -0.60373408 0.040875778
-0.16824095 -0.60377884 0.040924653
-0.16609171 -0.60370952 0.040848348
-0.16429502 -0.60370338 0.040830702
-0.20249419 -0.68379557 0.041024592
-0.19990999 -0.68305862 0.041596409
-0.18453138 -0.6838305 0.041045845
-0.20836279 -0.6737169 0.041903075
-0.20585008 -0.67367047 0.04185579
-0.21216829 -0.66510522 0.041863196
-0.21047099 -0.66513002 0.041910738
-0.13774098 -0.65729308 0.041561078
-0.13643092 -0.65731126 0.041562781
-0.14009491 -0.64957368 0.041506808
-0.14592229 -0.64185846 0.041658524
-0.14812368 -0.63496357 0.041509006
-0.1464082 -0.63498569 0.041523326
-0.23131274 -0.62803966 0.041463774
-0.22141875 -0.62156284 0.041371889
-0.15627828 -0.62192273 0.041066695
-0.15549175 -0.62160468 0.04141438
-0.16069856 -0.61520338 0.041552994
-0.18837842 -0.60308915 0.041576583
-0.17572215 -0.59714359 0.041907463
-0.17294253 -0.5971542 0.041928031
-0.20320255 -0.68231344 0.042136218
-0.20140466 -0.68229079 0.042124614
-0.18174091 -0.68232137 0.042168688
-0.20423718 -0.68156755 0.042720981
-0.21161191 -0.67216939 0.042981278
-0.20768146 -0.67297441 0.042469218
-0.21504676 -0.65658897 0.042172495
-0.14250034 -0.64817107 0.042755052
-0.13943671 -0.64884835 0.042113204
-0.13875325 -0.64812964 0.042728327
-0.14696407 -0.64117366 0.042301111
-0.14340352 -0.64117575 0.042303819
-0.14488004 -0.64046645 0.042927578
-0.15102392 -0.63427609 0.042161196
-0.14745311 -0.63427842 0.042149961
-0.15322386 -0.62742269 0.042179443
-0.23034266 -0.62666899 0.042786758
-0.21893878 -0.6206091 0.042420659
-0.15772289 -0.62056553 0.042385839
-0.20555259 -0.61384559 0.04287374
-0.20420107 -0.61380213 0.042837888
-0.15970755 -0.61387724 0.042907804
-0.16203932 -0.60846037 0.042145345
-0.19760446 -0.60780299 0.04285349
-0.19501957 -0.6078074 0.042848259
-0.19399385 -0.6077947 0.042853251
-0.1671342 -0.60775316 0.042783078
-0.16353828 -0.60780805 0.04286683
-0.18455587 -0.60243452 0.042291392
-0.16942438 -0.60247886 0.042321779
-0.1673055 -0.60248905 0.042342499
-0.1651208 -0.60241038 0.042253237
-0.19453956 -0.68945318 0.043788329
-0.20218748 -0.68079817 0.04323937
-0.20695725 -0.67223775 0.043044161
-0.20912622 -0.67146194 0.04360095
-0.21253365 -0.66291904 0.043633938
-0.21714196 -0.65515065 0.043336868
-0.21571915 -0.6551457 0.043354422
-0.14079523 -0.64673305 0.043983858
-0.15003297 -0.63288081 0.043431498
-0.22892204 -0.62601078 0.043473266
-0.15190053 -0.62603998 0.043479808
-0.21828906 -0.61994857 0.043109439
-0.21657136 -0.61927223 0.043789186
-0.21507718 -0.61925197 0.043776557
-0.21368116 -0.61918157 0.043686025
-0.1570645 -0.61989009 0.043060381
-0.16157459 -0.61314225 0.043523584
-0.15908694 -0.61319107 0.04356721
-0.16472328 -0.60712761 0.043523595
-0.18498652 -0.60179436 0.043000992
-0.17713551 -0.60114032 0.043692522
-0.1756856 -0.60116392 0.043717161
-0.172508 -0.60111475 0.04366884
-0.17068321 -0.60113579 0.043690078
-0.1685461 -0.60117149 0.043723702
-0.16668214 -0.60182935 0.043037012
-0.20196787 -0.6887579 0.044384379
-0.19980589 -0.68872005 0.044320509
-0.19808741 -0.68871188 0.044332877
-0.19587402 -0.68870395 0.044311233
-0.19187649 -0.68875957 0.044393811
-0.19914654 -0.68795723 0.044873402
-0.19738117 -0.68795562 0.04487564
-0.19516149 -0.6879496 0.044862255
-0.2057882 -0.67852229 0.044873651
-0.20388225 -0.67858279 0.044948574
-0.20832841 -0.67073756 0.044170134
-0.21024267 -0.6699385 0.044692248
-0.21546181 -0.6621635 0.044202685
-0.21372809 -0.66216624 0.044214584
-0.13840176 -0.65367705 0.044513036
-0.13987765 -0.6460191 0.044597112
-0.14742798 -0.63911182 0.044254415
-0.14564921 -0.63904607 0.044170722
-0.14386971 -0.63905883 0.044177085
-0.14933002 -0.63218105 0.044074263
-0.15076812 -0.63148266 0.044696059
-0.22795495 -0.62462914 0.044768859
-0.22646388 -0.62469018 0.044805087
-0.15415256 -0.62466848 0.044793934
-0.21730438 -0.61860263 0.044451099
-0.15609713 -0.61853766 0.04438971
-0.20462184 -0.61251158 0.044228207
-0.20319612 -0.61245763 0.044182062
-0.20570688 -0.6118412 0.044902571
-0.19277406 -0.60580045 0.044924758
-0.19132173 -0.60580027 0.044901371
-0.1655287 -0.60577607 0.044859994
-0.1793815 -0.60049927 0.044406943
-0.17643163 -0.60050619 0.044399895
-0.17180756 -0.60047561 0.044379901
-0.1767526 -0.59520894 0.044044852
-0.2006844 -0.68725193 0.045455687
-0.19261575 -0.68720603 0.045420274
-0.19083618 -0.68724632 0.045477718
-0.18820767 -0.6864624 0.045984142
-0.20642613 -0.67702919 0.045986693
-0.20501448 -0.67780232 0.045468885
-0.21617918 -0.66072029 0.045384798
-0.21440639 -0.66068923 0.045355238
-0.21547478 -0.65998966 0.045964886
-0.21762234 -0.65295261 0.045140289
-0.13753498 -0.65296501 0.045129962
-0.14316115 -0.64458734 0.04581733
-0.14640141 -0.63767493 0.04549323
-0.14467798 -0.6376279 0.045421351
-0.15261567 -0.63076234 0.04530865
-0.14971307 -0.63010126 0.045986362
-0.15352055 -0.62397319 0.045451399
-0.2156056 -0.61790687 0.045111835
-0.21381295 -0.61720997 0.045763087
-0.21274599 -0.61781669 0.045014709
-0.2112643 -0.61786658 0.045057327
-0.1597978 -0.6171909 0.045732949
-0.15760551 -0.61718976 0.045737624
-0.20115946 -0.61114269 0.045574017
-0.1986455 -0.61117202 0.045601692
-0.19350746 -0.605178 0.045620255
-0.18952249 -0.605165 0.045587532
-0.18851115 -0.60515392 0.045597177
-0.17843477 -0.59919828 0.045827143
-0.17414089 -0.59924144 0.045849904
-0.17334573 -0.59985554 0.045096863
-0.17270051 -0.59919912 0.045787528
-0.17091444 -0.59917361 0.045786418
-0.21058322 -0.66772395 0.046399448
-0.21804287 -0.65078408 0.046964463
-0.14021336 -0.65079123 0.046938684
-0.14241828 -0.64387399 0.046426371
-0.14540303 -0.6362527 0.046736144
-0.15441005 -0.62940598 0.046620879
-0.22411601 -0.62263793 0.046770509
-0.22263779 -0.62254858 0.046698153
-0.22150457 -0.6225884 0.046732817
-0.15604992 -0.62261009 0.046777181
-0.15560664 -0.62262625 0.046791017
-0.21174715 -0.61647445 0.046356402
-0.21030849 -0.61652762 0.046412062
-0.20877628 -0.61655504 0.04642095
-0.15690555 -0.61651725 0.046399634
-0.20050181 -0.61049169 0.046264496
-0.20161775 -0.60977912 0.046887551
-0.16298343 -0.6098153 0.04692623
-0.18714741 -0.60450584 0.046310388
-0.17664649 -0.59856421 0.046523705
-0.16916279 -0.59854913 0.046511099
-0.16880386 -0.59856659 0.046538834
-0.20116885 -0.68496066 0.047078598
-0.20050085 -0.68420452 0.04762679
-0.18692552 -0.68495339 0.04706236
-0.18540043 -0.68495923 0.047053307
-0.18471082 -0.68420362 0.047598124
-0.20707603 -0.67556697 0.047140986
-0.20532434 -0.6755408 0.047089554
-0.21168655 -0.66704822 0.047043633
-0.21302792 -0.6662972 0.047570691
-0.21628155 -0.65849936 0.047135595
-0.13954319 -0.650069 0.047540762
-0.14422531 -0.64242095 0.047615405
-0.14387307 -0.64242256 0.047612779
-0.1500372 -0.63554621 0.047356263
-0.14831628 -0.635562 0.047352895
-0.14937608 -0.63484162 0.047978941
-0.22828044 -0.62802821 0.047920566
-0.15310356 -0.62801671 0.047908012
-0.15495346 -0.62193733 0.047442541
-0.21434015 -0.61587393 0.047122505
-0.21080473 -0.61512917 0.047708184
-0.20935057 -0.61517018 0.047744915
-0.16022804 -0.6151827 0.047747336
-0.19738576 -0.60916609 0.047632936
-0.16437998 -0.60916102 0.047639895
-0.18719919 -0.60318941 0.047677368
-0.18471792 -0.60318172 0.047676515
-0.16949844 -0.60322511 0.04771392
-0.17924334 -0.59787989 0.04720322
-0.17717202 -0.59726024 0.047926418
-0.17490993 -0.597929 0.047220796
-0.20229647 -0.68340838 0.048119184
-0.18264906 -0.68341595 0.04811969
-0.20816481 -0.67411357 0.04830952
-0.20600218 -0.67405188 0.048222866
-0.21376447 -0.66480249 0.048722841
-0.21199776 -0.66481501 0.048729029
-0.21658398 -0.65632695 0.048901279
-0.14320317 -0.64170796 0.048226781
-0.14617145 -0.63487154 0.048001852
-0.22058214 -0.62122041 0.048046619
-0.15721901 -0.62051779 0.048678949
-0.16238403 -0.61448646 0.048412785
-0.16374218 -0.60848743 0.048320401
-0.19752416 -0.60782409 0.048971873
-0.19642507 -0.60782498 0.048985716
-0.19498469 -0.60783809 0.048993938
-0.1652877 -0.60781294 0.048966587
-0.17116232 -0.59658647 0.048597414
-0.19538367 -0.69053167 0.049886912
-0.2043806 -0.68154776 0.049500614
-0.20264043 -0.68116027 0.049746573
-0.20114291 -0.68189996 0.049191926
-0.18149334 -0.6818952 0.049185351
-0.18004547 -0.681898 0.049189456
-0.17930119 -0.68116117 0.049751904
-0.20955874 -0.67261404 0.049410831
-0.21455806 -0.66330409 0.049873538
-0.21094123 -0.66332471 0.049871024
-0.21764055 -0.65559 0.049470443
-0.21593289 -0.65559065 0.049489941
-0.13891165 -0.65558398 0.049466271
-0.14104973 -0.64793378 0.049380958
-0.14469045 -0.64027846 0.049462121
-0.1501313 -0.63343745 0.049236577
-0.14799987 -0.63273484 0.049854845
-0.15211339 -0.62662518 0.049198575
-0.2302039 -0.62588942 0.049803838
-0.22981183 -0.62589461 0.04980902
-0.21958598 -0.61984831 0.049339205
-0.15658411 -0.61982614 0.049329396
-0.20802164 -0.61314893 0.049743224
-0.2065419 -0.61314881 0.049754374
-0.205493 -0.61380374 0.0490699
-0.16361162 -0.61311477 0.049718924
-0.16142532 -0.61314774 0.049766142
-0.1592896 -0.61381716 0.049067851
-0.19570768 -0.60716051 0.049671222
-0.19361798 -0.60713798 0.049656875
-0.16624045 -0.6071279 0.049627166
-0.18310949 -0.60122013 0.049754318
-0.18255454 -0.60122585 0.04976562
-0.19996765 -0.68902349 0.050941393
-0.19851434 -0.68978232 0.050421972
-0.1977468 -0.68902814 0.050943777
-0.19638354 -0.68977451 0.050403461
-0.19382636 -0.68903995 0.050964918
-0.19202925 -0.6890592 0.050985232
-0.20504755 -0.6804347 0.050319508
-0.17753702 -0.68041861 0.050327051
-0.20297085 -0.67965788 0.050840396
-0.17820854 -0.67965752 0.050842963
-0.21111663 -0.67105401 0.050479136
-0.21234043 -0.66257912 0.050424147
-0.21523762 -0.66180253 0.050979935
-0.21166207 -0.66182989 0.0509887
-0.21839692 -0.65411824 0.050642829
-0.21662606 -0.65412116 0.050637476
-0.13817793 -0.65485841 0.050053343
-0.13763249 -0.65485525 0.050057191
-0.14393924 -0.64648324 0.050561324
-0.14583205 -0.6395489 0.050053414
-0.14911462 -0.63888198 0.050724875
-0.14685926 -0.63886583 0.050705496
-0.15091309 -0.63201827 0.050478015
-0.14911747 -0.63201952 0.050481595
-0.22846812 -0.62520766 0.050455749
-0.15432592 -0.62523204 0.05047562
-0.15398034 -0.62522608 0.050469644
-0.2178444 -0.61919886 0.05004736
-0.21460743 -0.61844856 0.050652929
-0.16062519 -0.61846316 0.05064394
-0.20452417 -0.61244166 0.050388005
-0.1918183 -0.60647428 0.050331615
-0.167827 -0.6064465 0.050288498
-0.16386929 -0.60650331 0.050353095
-0.2013218 -0.68828422 0.051489484
-0.19310498 -0.68828511 0.051523898
-0.20542806 -0.67813468 0.051901508
-0.1764645 -0.67890233 0.051400356
-0.20781669 -0.67036259 0.05107351
-0.21174519 -0.66955781 0.051560994
-0.21001308 -0.66956425 0.051582649
-0.2134538 -0.66183245 0.051001031
-0.13651095 -0.65337896 0.051232252
-0.14323394 -0.645769 0.051171433
-0.14248319 -0.64505023 0.05177277
-0.14478047 -0.63811225 0.051272988
-0.23444775 -0.63125741 0.051035021
-0.1530638 -0.63128936 0.051057503
-0.1527307 -0.63128495 0.051047221
-0.2274148 -0.62381715 0.051736254
-0.22489408 -0.6238268 0.051721524
-0.15614469 -0.62385464 0.051787555
-0.21394676 -0.61774892 0.051287211
-0.15967326 -0.6170873 0.051963147
-0.15774249 -0.61777872 0.051292967
-0.20243709 -0.6110661 0.051698789
-0.20027588 -0.61180544 0.051089827
-0.16266459 -0.61175364 0.051057354
-0.16193536 -0.61107731 0.051712912
-0.16049299 -0.61179793 0.051105082
-0.19259728 -0.60580152 0.051002625
-0.18762076 -0.60582143 0.05102497
-0.1693776 -0.60583252 0.051047716
-0.16863821 -0.60514081 0.05168606
-0.16472821 -0.60514247 0.051672291
-0.16680978 -0.59927571 0.051870774
-0.19070414 -0.68753171 0.052028731
-0.20026384 -0.68674523 0.052532095
-0.19853704 -0.68672818 0.052537914
-0.20475008 -0.67737985 0.052457444
-0.20610158 -0.67659277 0.052948534
-0.21240473 -0.66813254 0.052738443
-0.21069276 -0.66806233 0.052685626
-0.20923956 -0.66882664 0.052149449
-0.21593019 -0.66037893 0.052149657
-0.21419038 -0.66033196 0.052128378
-0.13900559 -0.66035503 0.052130938
-0.2170646 -0.65961695 0.052721079
-0.21883963 -0.65191966 0.052404691
-0.14039791 -0.65154171 0.052670602
-0.13964538 -0.65117937 0.052967411
-0.14147164 -0.64432746 0.052373342
-0.14079109 -0.64359641 0.052965958
-0.14728913 -0.63675243 0.052573144
-0.1513807 -0.62951922 0.0526255
-0.14959358 -0.62990427 0.052372791
-0.22314577 -0.62307876 0.052333452
-0.22390024 -0.62239808 0.052966543
-0.21506251 -0.61714041 0.052016161
-0.15892902 -0.61641204 0.052614596
-0.20324184 -0.61039788 0.052374132
-0.200739 -0.6104334 0.052420404
-0.16348149 -0.61042124 0.052393563
-0.1905659 -0.60447037 0.052359805
-0.18945189 -0.60447681 0.052365493
-0.18803953 -0.60448503 0.052379504
-0.1855403 -0.60448653 0.052373733
-0.17014976 -0.60452062 0.052404899
-0.16798069 -0.60446835 0.052363567
-0.17547783 -0.59859967 0.052538317
-0.17410049 -0.59861308 0.05255942
-0.17226881 -0.59854579 0.052480552
-0.17090538 -0.59855324 0.052510202
-0.16896568 -0.59859985 0.052543189
-0.20164469 -0.68600595 0.053107552
-0.19955365 -0.68597466 0.053056978
-0.18952005 -0.68598515 0.053074587
-0.18877503 -0.68522233 0.053604215
-0.18766361 -0.6859895 0.053073581
-0.18696094 -0.68522942 0.053613756
-0.18554288 -0.68522781 0.053602144
-0.21138921 -0.66660339 0.053819343
-0.20956025 -0.66657627 0.053806406
-0.21594298 -0.65813655 0.053849347
-0.21988368 -0.65122199 0.0530033
-0.14397117 -0.64285189 0.053540017
-0.14874338 -0.63603514 0.053179376
-0.14659879 -0.63604283 0.053200956
-0.14812481 -0.63530678 0.053790703
-0.15317652 -0.62850463 0.053623773
-0.15513128 -0.62245834 0.053047221
-0.15470017 -0.62246174 0.053040117
-0.22468676 -0.62176788 0.053691246
-0.22213708 -0.62170684 0.053623233
-0.15775163 -0.62171572 0.053647209
-0.15407489 -0.62175649 0.053674266
-0.21266384 -0.61567289 0.053213365
-0.21124159 -0.6156987 0.053232376
-0.16011167 -0.61503416 0.053916112
-0.2015202 -0.60971171 0.053042937
-0.198284 -0.60908294 0.053754125
-0.16634135 -0.6097579 0.053088278
-0.16454363 -0.60975468 0.053078011
-0.16067789 -0.60903919 0.05370931
-0.1885253 -0.6031366 0.053720374
-0.18712267 -0.60314834 0.053741619
-0.18637551 -0.60379916 0.053048883
-0.17064279 -0.60316372 0.053752221
-0.16629687 -0.60377002 0.053004123
-0.17597558 -0.59725511 0.053897727
-0.17335877 -0.59795612 0.053232405
-0.17023033 -0.59790027 0.053193945
-0.20054998 -0.68448436 0.054163232
-0.18482777 -0.68446529 0.054141033
-0.20409441 -0.68368632 0.054635376
-0.20233725 -0.68365908 0.054617472
-0.18259531 -0.68366981 0.05460266
-0.20896432 -0.67515737 0.054146904
-0.20676799 -0.67508751 0.054046847
-0.20826541 -0.67438996 0.054677933
-0.21067324 -0.66584617 0.054361992
-0.22064264 -0.64975017 0.054173894
-0.21884859 -0.64975893 0.054177687
-0.14181598 -0.64903772 0.054777607
-0.13826641 -0.64971727 0.054126441
-0.14579614 -0.64212376 0.054128289
-0.14333621 -0.64212871 0.054148827
-0.14511111 -0.64139712 0.054728955
-0.15535404 -0.62779278 0.054239139
-0.22036044 -0.62106073 0.054305755
-0.21897447 -0.62106752 0.054335706
-0.15707505 -0.6210196 0.05428407
-0.20875214 -0.61437398 0.05458869
-0.16187441 -0.61438245 0.054619513
-0.19907638 -0.60840279 0.054413546
-0.16361141 -0.60839742 0.054402642
-0.18427132 -0.60248393 0.054406449
-0.17712437 -0.59660357 0.054600298
-0.17422716 -0.5966211 0.054614011
-0.17246956 -0.5966078 0.054585498
-0.20302169 -0.68215132 0.055691775
-0.20157883 -0.68290937 0.055149127
-0.18366595 -0.68294072 0.055194385
-0.1815142 -0.68213975 0.055647254
-0.20996593 -0.67288959 0.055750906
-0.20719361 -0.67286742 0.055754285
-0.13755502 -0.65666682 0.055008039
-0.21954218 -0.65591162 0.055552043
-0.21777102 -0.65591663 0.055556171
-0.21639064 -0.65590841 0.055570185
-0.22139379 -0.64828593 0.055343352
-0.1411268 -0.64829689 0.05535388
-0.14057365 -0.64827216 0.05532781
-0.14989048 -0.63314241 0.055625591
-0.14883421 -0.63385528 0.055001792
-0.1543633 -0.62638491 0.055503983
-0.22073308 -0.61964184 0.055569764
-0.21937256 -0.61968446 0.055608083
-0.15884131 -0.61963809 0.055554595
-0.20701355 -0.61368626 0.055242635
-0.16121198 -0.61369842 0.055273071
-0.19700418 -0.60704774 0.055746876
-0.19515398 -0.60771686 0.055079401
-0.19339024 -0.60702777 0.055713028
-0.17038777 -0.60116595 0.055795643
-0.16641295 -0.60177708 0.055051051
-0.16572003 -0.60110545 0.055726778
-0.19711478 -0.69073963 0.056488123
-0.19642316 -0.68996263 0.056999005
-0.20548557 -0.68065268 0.056780796
-0.20370826 -0.68063861 0.056745056
-0.18042506 -0.6806109 0.05670514
-0.1789314 -0.68064755 0.056764968
-0.20890045 -0.67213762 0.056300059
-0.21423469 -0.66285902 0.056618161
-0.13715918 -0.65518898 0.05615453
-0.14361952 -0.64683855 0.056516513
-0.14727773 -0.63922513 0.056517251
-0.14552458 -0.63922334 0.056517225
-0.22996381 -0.6256485 0.056108393
-0.15362853 -0.62568599 0.056120854
-0.21764173 -0.61898899 0.05626145
-0.2161478 -0.61896926 0.056248836
-0.15816934 -0.61892891 0.056190684
-0.15529971 -0.61895788 0.056224588
-0.2017663 -0.61230195 0.056553625
-0.16449641 -0.61228716 0.05652795
-0.16407461 -0.60637522 0.056425259
-0.17833301 -0.60047162 0.056442156
-0.16971834 -0.60050476 0.056474175
-0.16743369 -0.60050821 0.056490064
-0.19852531 -0.68998206 0.05700127
-0.20435803 -0.67911375 0.05782811
-0.17721055 -0.6798684 0.057299349
-0.17609175 -0.67987072 0.0573048
-0.17432728 -0.67910475 0.057822607
-0.21036118 -0.6705727 0.057339687
-0.16272373 -0.67057961 0.057321023
-0.20962806 -0.66983563 0.057911471
