# .PCD v0.7 - Point Cloud Data file format
VERSION 0.7
FIELDS x y z
SIZE 4 4 4
TYPE F F F
COUNT 1 1 1
WIDTH 1308
HEIGHT 1
VIEWPOINT 0 0 0 1 0 0 0
POINTS 1308
DATA ascii
-0.31068754 -0.60540456 0.063058391
-0.30654293 -0.60539508 0.063041106
-0.35460538 -0.60471386 0.063697778
-0.35123736 -0.60477418 0.063766882
-0.34421712 -0.604738 0.063754618
-0.34090093 -0.6047284 0.0637189
-0.33669233 -0.6047616 0.063785203
-0.33321378 -0.60479516 0.063787095
-0.32613906 -0.60471249 0.063702747
-0.31679025 -0.60469782 0.063675568
-0.30995625 -0.60473639 0.063718051
-0.30529797 -0.60472286 0.063703388
-0.29742745 -0.60470253 0.063701011
-0.29667428 -0.60470235 0.063691206
-0.29347011 -0.60474622 0.063733578
-0.29071182 -0.60471642 0.063711882
-0.026743706 -0.076145567 0.063921742
-0.022560352 -0.07619404 0.063945927
0.022192929 -0.076240256 0.0639183
0.026162079 -0.07621251 0.06392771
0.035946745 -0.076224409 0.063928306
-0.025745103 -0.075373791 0.063557446
-0.021545196 -0.075389549 0.063563064
-0.029222475 -0.074610159 0.063178346
-0.028720668 -0.074604556 0.063179545
-0.055056334 -0.056618854 0.063606314
-0.054022562 -0.056581508 0.06359604
-0.053627308 -0.056589123 0.063597918
-0.057583787 -0.055786408 0.063259773
-0.053856689 -0.055802703 0.063243896
-0.06612891 -0.035325117 0.063353419
-0.065736867 -0.035322748 0.063352965
-0.066013217 -0.034498516 0.063008606
-0.072930798 -0.013760197 0.063892856
-0.074150622 -0.012124508 0.063240007
-0.071610622 -0.012121448 0.063240558
-0.35643604 -0.66075802 0.064373352
-0.35573056 -0.66075093 0.064397477
-0.28436098 -0.66077727 0.064407475
-0.28183079 -0.66000623 0.06493213
-0.35613614 -0.65165275 0.064991549
-0.2840406 -0.65164363 0.064948477
-0.28335091 -0.65164828 0.064963222
-0.28295606 -0.65164387 0.064962536
-0.28552821 -0.64483547 0.064137667
-0.28449354 -0.64485031 0.064161308
-0.28340867 -0.64411891 0.064744107
-0.35810399 -0.63660145 0.064731412
-0.35778314 -0.63662112 0.064764068
-0.35773534 -0.62913036 0.064960741
-0.28521481 -0.62913859 0.06496571
-0.28465289 -0.62912881 0.064928725
-0.28518373 -0.62310314 0.064138472
-0.35542637 -0.6165359 0.064298078
-0.28454286 -0.61650747 0.064259708
-0.28386554 -0.61650646 0.064278334
-0.35551736 -0.6157825 0.064880498
-0.35271543 -0.60405838 0.064400531
-0.34643197 -0.60407847 0.064421773
-0.33852267 -0.60409838 0.064445965
-0.3354722 -0.60409385 0.064457089
-0.32550809 -0.60403371 0.064365149
-0.32228768 -0.60403204 0.06436795
-0.31324854 -0.60404444 0.064376235
-0.30900142 -0.60403258 0.064387187
-0.3000347 -0.60403425 0.064372018
-0.28967774 -0.60407078 0.064391568
-0.29565224 -0.60330731 0.064999588
-0.024675515 -0.077782817 0.064695209
-0.020895489 -0.077775329 0.064684063
-0.017411962 -0.077806517 0.064689085
0.026057176 -0.077009037 0.064303689
-0.023626074 -0.076988213 0.064323083
-0.020407485 -0.076980561 0.06431058
0.023697807 -0.076952815 0.064284548
-0.051811248 -0.059021536 0.064679518
0.050473437 -0.059050139 0.064700805
0.051997598 -0.058182731 0.064328969
-0.065413289 -0.038488492 0.064711854
-0.074753165 -0.016203672 0.064871013
-0.071912266 -0.016185902 0.064864263
-0.071082622 -0.015377551 0.064538948
-0.071303479 -0.01457045 0.06421148
-0.072781682 0.0087145288 0.064911298
-0.35568693 -0.66842258 0.065181084
-0.35430026 -0.66840756 0.065201677
-0.35437971 -0.66766715 0.065715626
-0.35357064 -0.66765422 0.065734252
-0.28010899 -0.65925109 0.065488808
-0.35523826 -0.6516645 0.065011695
-0.35610217 -0.65092272 0.06556426
-0.35535237 -0.65092081 0.065568276
-0.28334111 -0.65089804 0.065502569
-0.35795683 -0.64338988 0.065354109
-0.35727844 -0.64265007 0.06594006
-0.35692844 -0.64266342 0.065939553
-0.35564137 -0.64267063 0.065938205
-0.35705152 -0.63588399 0.065355666
-0.28501967 -0.63587159 0.065310612
-0.28448012 -0.63587892 0.065317154
-0.28360191 -0.63513184 0.065907985
-0.35629532 -0.62842822 0.065559328
-0.35576501 -0.62843901 0.065569773
-0.28710943 -0.60919631 0.065169483
-0.28996265 -0.60852844 0.065832503
-0.33457494 -0.60341859 0.065120071
-0.32161665 -0.60332644 0.065002613
-0.31848606 -0.60336113 0.065025017
-0.31511661 -0.60332841 0.065001391
-0.31186181 -0.60333866 0.065012015
-0.30826193 -0.60335404 0.065034777
-0.29928908 -0.60336727 0.065038316
-0.29894137 -0.60334754 0.065030821
-0.29500374 -0.60332149 0.065002888
-0.29241803 -0.60338092 0.065057874
-0.34894016 -0.60266119 0.065671578
-0.34253734 -0.60269153 0.065709241
-0.3374992 -0.60273075 0.065757759
-0.33103842 -0.60273135 0.065760657
-0.32742518 -0.60269362 0.065702602
-0.32436657 -0.60266733 0.065671772
-0.32378304 -0.60266942 0.06567578
-0.3177093 -0.60265464 0.065690652
-0.31445307 -0.60265392 0.065677993
-0.31118006 -0.60266632 0.065664731
-0.30760744 -0.60268289 0.065705143
-0.30326328 -0.60266858 0.065683462
-0.30257449 -0.60268795 0.065696903
-0.29501414 -0.60262853 0.065655142
-0.016243529 -0.080176063 0.065808028
-0.015838556 -0.080185778 0.065805823
-0.011148434 -0.080185823 0.065813392
-0.010456952 -0.080179647 0.065808378
-0.0097231846 -0.080121696 0.065786496
-0.0024824357 -0.080219932 0.065808646
0.0079578375 -0.080208406 0.065817095
0.011179381 -0.080162965 0.065803751
0.018732747 -0.080205366 0.065786794
-0.014811773 -0.079377547 0.065430149
-0.0095875496 -0.079355821 0.065420568
-0.0089115053 -0.079325423 0.065410972
-0.0060088513 -0.079390787 0.065413229
-0.0049329186 -0.079368956 0.065409556
-0.001643665 -0.079409972 0.06542816
0.00084844022 -0.079349957 0.06541656
0.01201797 -0.079353958 0.065424018
0.014538862 -0.079379529 0.065437101
0.015223319 -0.079389669 0.065439209
0.017055798 -0.079327591 0.065428652
0.019545659 -0.079398282 0.065406919
0.021702252 -0.079382651 0.065413214
-0.018431569 -0.078612909 0.065062702
-0.013768282 -0.078567885 0.065055169
-0.00084717915 -0.078613311 0.065048762
0.015364683 -0.07859432 0.065066963
0.017869191 -0.078519449 0.06504298
0.018266981 -0.078546956 0.065041594
0.020390546 -0.078611463 0.065035976
-0.050394688 -0.061423853 0.065753832
0.04834142 -0.06146026 0.065774709
-0.052073985 -0.060619257 0.065395914
-0.051677193 -0.060589891 0.065394349
-0.050798785 -0.060594335 0.06539616
-0.049344271 -0.060657889 0.065398529
-0.053004835 -0.059818942 0.065037452
-0.051935129 -0.059821602 0.065037869
-0.050854508 -0.059782833 0.065036863
-0.049774338 -0.059803165 0.065037169
-0.048301101 -0.059861109 0.065038323
-0.047428325 -0.059850831 0.065044373
-0.065831117 -0.040105224 0.065392971
-0.063346125 -0.040119745 0.065388896
-0.071530625 -0.018596109 0.065838471
-0.074107513 0.0070914598 0.06552688
-0.063588247 0.033780776 0.065918446
-0.34858021 -0.6761294 0.06627351
-0.34389073 -0.67612952 0.066268988
-0.33018872 -0.67612678 0.066253744
-0.32553813 -0.67611015 0.066251867
-0.32195726 -0.67612189 0.06626571
-0.31153238 -0.67613828 0.066287629
-0.35163188 -0.67532825 0.066729397
-0.34730694 -0.67534232 0.066760987
-0.34243587 -0.6753633 0.066779822
-0.3384746 -0.67536104 0.066771589
-0.33491051 -0.67533308 0.066763632
-0.33201659 -0.67535353 0.06677293
-0.32947603 -0.67537963 0.066788137
-0.32693872 -0.67533076 0.066747747
-0.32446086 -0.67532879 0.066749491
-0.32117671 -0.67535132 0.06677819
-0.3207792 -0.67533779 0.066757903
-0.31792706 -0.67533714 0.066747084
-0.31543145 -0.67529702 0.066718079
-0.31331223 -0.67533678 0.066760682
-0.31078029 -0.67536938 0.066782489
-0.30827412 -0.67531872 0.066739932
-0.3021017 -0.67537975 0.066785857
-0.29895988 -0.67531818 0.066750064
-0.28192776 -0.66684908 0.066214614
-0.3561691 -0.64192891 0.066520736
-0.35672948 -0.62102991 0.066065408
-0.35713512 -0.62031269 0.06667608
-0.35570279 -0.62031883 0.066683859
-0.28928751 -0.614389 0.066134058
-0.28928244 -0.60779524 0.066444859
-0.3544389 -0.60200202 0.066357575
-0.33898917 -0.60201234 0.066368259
-0.32678783 -0.60201293 0.066373907
-0.34830967 -0.60197115 0.066330127
-0.34474701 -0.60195673 0.066313811
-0.34362009 -0.60127485 0.066941336
-0.32996902 -0.60199708 0.066376336
-0.32284957 -0.60128164 0.066988952
-0.31023991 -0.6012755 0.066953123
-0.30696541 -0.60199302 0.066355541
-0.0046104603 -0.082590625 0.066927381
-0.0021491186 -0.082576185 0.066920817
-0.0078001576 -0.081772104 0.066535369
-0.0032787828 -0.081019364 0.066183411
-0.0013371989 -0.081769235 0.066545695
0.0014438969 -0.081816591 0.066562913
0.0024282769 -0.081011221 0.066182919
0.0037259813 -0.081744455 0.066548482
0.0059353421 -0.081774391 0.066556573
0.0068100756 -0.081004918 0.066187747
0.0071465271 -0.081010863 0.066191368
0.0099194469 -0.081766255 0.066559859
-0.012021774 -0.080973856 0.066185221
-0.01128875 -0.080989212 0.066188984
-0.0066149854 -0.080991738 0.066163622
-0.00051765336 -0.080948211 0.066167086
0.0047509484 -0.080936946 0.066172495
0.0099724475 -0.080975093 0.066192739
-0.046245024 -0.063831784 0.066834204
-0.045518205 -0.063843459 0.066829957
0.047245767 -0.06386397 0.066848211
0.048924312 -0.06223302 0.06612619
-0.061287548 -0.043357588 0.066752948
-0.065495133 -0.042525169 0.066412911
-0.063263513 -0.042537775 0.066409416
-0.062931232 -0.042546913 0.066407025
-0.064997569 -0.041720167 0.066071965
-0.068316653 -0.021039164 0.066800542
-0.071770638 -0.020263143 0.066494338
-0.070384137 -0.020267943 0.06648168
-0.071649618 -0.019421756 0.066166304
-0.07357306 0.0037655041 0.066763334
-0.072953306 0.0054181363 0.066143751
-0.33248031 -0.68463343 0.067080893
-0.29643768 -0.68378818 0.067514494
-0.35037556 -0.67454892 0.067243524
-0.34621418 -0.67454213 0.067251265
-0.34568346 -0.67453694 0.067242026
-0.34135783 -0.67452431 0.067229241
-0.3409932 -0.67452115 0.067221791
-0.33774704 -0.67459434 0.067294143
-0.3341915 -0.67456025 0.067274228
-0.32857513 -0.67459035 0.06729655
-0.3235735 -0.674559 0.067259938
-0.32014975 -0.67453259 0.067239426
-0.31719741 -0.67458755 0.067278586
-0.31467983 -0.67452693 0.067214161
-0.31238267 -0.67459315 0.067286171
-0.30755502 -0.67455691 0.067263603
-0.30380836 -0.6745615 0.067240104
-0.30136222 -0.67459118 0.067296594
-0.29816401 -0.67454368 0.067256786
-0.29560202 -0.67458123 0.067296021
-0.34925213 -0.67378932 0.067772925
-0.34492454 -0.67378604 0.067751572
-0.34023693 -0.67377561 0.067745239
-0.33705002 -0.67381752 0.06780643
-0.33323279 -0.67381859 0.067806423
-0.3308793 -0.67380059 0.067766577
-0.32568163 -0.67375737 0.067754135
-0.31934318 -0.67377353 0.06776543
-0.31896222 -0.67378068 0.067744918
-0.31648633 -0.67381465 0.067808971
-0.30927047 -0.67376977 0.067744724
-0.30892777 -0.67374176 0.067722619
-0.30671763 -0.67383367 0.067814454
-0.30046314 -0.67382759 0.067823783
-0.29737413 -0.67380559 0.067780755
-0.29473513 -0.67380643 0.067807481
-0.35708794 -0.61960441 0.067279421
-0.28621727 -0.61958236 0.067271717
-0.28792381 -0.61295247 0.067379862
-0.35922384 -0.60713047 0.067115262
-0.35887253 -0.60712957 0.067113325
-0.3534627 -0.60712636 0.067114934
-0.33434254 -0.60717034 0.067177802
-0.33110881 -0.6071313 0.067134239
-0.30232602 -0.60710019 0.067079559
-0.33046877 -0.60643488 0.067778252
-0.28831235 -0.60637224 0.067711458
-0.28794715 -0.606372 0.067703538
-0.32929131 -0.60130745 0.067007817
-0.04427899 -0.066224195 0.06789352
-0.040965136 -0.066217452 0.067876637
0.045025107 -0.066231459 0.067909561
-0.040131338 -0.065459572 0.067524992
-0.042779159 -0.064622998 0.067177117
-0.063091472 -0.045754969 0.06777408
-0.060573112 -0.045742162 0.067778029
-0.063003033 -0.044946685 0.067431763
-0.060614735 -0.044915952 0.067436293
-0.071947336 -0.023525748 0.067783095
-0.070326351 -0.023469597 0.067777649
-0.067633741 -0.02350162 0.067772821
-0.068936773 -0.022669204 0.067450345
-0.072683409 0.0021598446 0.067388877
-0.069842018 0.0021995045 0.067394994
-0.072580919 0.0030096453 0.067076176
-0.35334331 -0.67303109 0.068286583
-0.31107703 -0.67306125 0.06834434
-0.30603844 -0.67306167 0.068332426
-0.29952732 -0.67304891 0.068326391
-0.31355968 -0.67299038 0.068239063
-0.30260754 -0.67297816 0.068260372
-0.28971177 -0.66307646 0.068881556
-0.28441584 -0.6464321 0.068884157
-0.28367564 -0.64643466 0.068888672
-0.28606263 -0.6247384 0.068513267
-0.28569263 -0.62476021 0.068514369
-0.3625268 -0.61227119 0.068027973
-0.35336411 -0.60573548 0.068394296
-0.3333517 -0.60578406 0.068453461
-0.30023262 -0.60572886 0.068395033
-0.29626536 -0.60571599 0.068379536
-0.2903164 -0.60574007 0.068397492
-0.28720796 -0.60569733 0.06836196
-0.3225992 -0.60497528 0.06898167
-0.29625612 -0.59994209 0.068311162
-0.040678445 -0.068675429 0.068943799
-0.037073001 -0.068674147 0.068917751
0.041240983 -0.068606138 0.068982914
-0.045112252 -0.067013584 0.068250962
-0.042377651 -0.067290388 0.068357162
-0.03965871 -0.067876711 0.068581149
0.039822955 -0.067848183 0.068622224
0.042612083 -0.067816831 0.068629749
-0.059827391 -0.048208252 0.068797737
-0.059730984 -0.047437064 0.068462186
-0.062063038 -0.046527404 0.068119563
-0.066502631 -0.02595323 0.068760954
-0.073027156 -0.0019401641 0.06894052
-0.072638661 -0.0019214116 0.068939731
-0.34251919 -0.68150592 0.069076873
-0.33308044 -0.68073177 0.069557153
-0.35416242 -0.6706863 0.069782585
-0.35634699 -0.66232389 0.06942647
-0.35547101 -0.6623106 0.069418915
-0.35636872 -0.65398377 0.069300495
-0.35568145 -0.65323508 0.069862388
-0.35490695 -0.65394479 0.069262303
-0.35536036 -0.64572716 0.069506556
-0.35782593 -0.63748366 0.069916099
-0.28453025 -0.63744462 0.069866046
-0.28380698 -0.63741738 0.069834851
-0.35709137 -0.63075352 0.069426693
-0.28542405 -0.63068843 0.06933552
-0.35604882 -0.62997919 0.069965549
-0.35558736 -0.62998712 0.069957718
-0.28496 -0.62404895 0.069122508
-0.35872087 -0.62336391 0.06975656
-0.28414288 -0.61744285 0.06911581
-0.35137203 -0.6050365 0.069042824
-0.33841199 -0.60509789 0.069089651
-0.3322697 -0.60504633 0.069055304
-0.32948771 -0.60504007 0.0690514
-0.30380958 -0.60505068 0.069041684
-0.2865245 -0.60501719 0.0690047
-0.34600344 -0.60430175 0.069622666
-0.34346929 -0.60435778 0.069677308
-0.33845931 -0.60440469 0.069737509
-0.32166994 -0.60427761 0.069599107
-0.31846201 -0.60432506 0.069669023
-0.30820113 -0.60433358 0.069670051
-0.28906241 -0.60433841 0.069679119
-0.03924191 -0.07106211 0.069986701
-0.03952121 -0.070235193 0.069633998
-0.034824606 -0.070273586 0.069664404
0.035058934 -0.070222028 0.069707274
0.037792154 -0.070244968 0.06969057
0.040828023 -0.070208468 0.069701038
-0.038647465 -0.069444738 0.069271341
-0.03794498 -0.069471508 0.069270484
-0.057961337 -0.049786009 0.069480926
-0.055705819 -0.049798567 0.069504388
0.060508534 -0.049810838 0.06949228
-0.058155417 -0.048947297 0.069136977
-0.05781937 -0.048958551 0.069138572
-0.068301834 -0.028394686 0.069738351
-0.070457891 -0.027579771 0.069398507
-0.06714575 -0.027570272 0.069409713
-0.33779055 -0.67912555 0.070518404
-0.32042861 -0.67915773 0.070533
-0.35452226 -0.66955984 0.070603013
-0.28342474 -0.65245986 0.070378736
-0.28255168 -0.65170383 0.070926599
-0.35789979 -0.64498007 0.070079423
-0.35641089 -0.64498311 0.070054866
-0.35551989 -0.64497995 0.070064455
-0.3565543 -0.63675678 0.07049723
-0.28405571 -0.62919366 0.07049533
-0.28369901 -0.6292066 0.070494317
-0.35942832 -0.62264746 0.070365965
-0.35769355 -0.6226368 0.070367068
-0.35661954 -0.6225934 0.070303366
-0.35318789 -0.60943121 0.070508935
-0.34927717 -0.60362387 0.070295125
-0.34279704 -0.60367268 0.070330478
-0.33997682 -0.60367954 0.070360191
-0.32775792 -0.60367274 0.070348524
-0.32411906 -0.60361731 0.070294358
-0.31758761 -0.60361701 0.070283741
-0.31467643 -0.60363352 0.070290767
-0.31151366 -0.60361123 0.070261598
-0.30266559 -0.60364544 0.070310637
-0.2949495 -0.6036247 0.070297003
-0.29241219 -0.6036393 0.070306741
-0.34835637 -0.60297126 0.070971444
-0.34211504 -0.60298169 0.070973597
-0.3302128 -0.60295659 0.070969172
-0.32013419 -0.60291553 0.070935361
-0.31400272 -0.60294741 0.070930004
-0.31062651 -0.60291505 0.070914775
-0.30665803 -0.60290515 0.070916623
-0.30434808 -0.60292143 0.070943974
-0.29854369 -0.60295051 0.070943303
-0.29317868 -0.60294962 0.070946746
-0.034114227 -0.072632112 0.070729077
-0.033541571 -0.072638549 0.07073158
-0.029770624 -0.072603203 0.07075955
0.030393604 -0.072620474 0.070776939
-0.036629301 -0.071871668 0.070370451
-0.035640825 -0.071074583 0.070019327
-0.032513011 -0.071871422 0.070382506
-0.031598546 -0.071088307 0.070032157
-0.028936507 -0.071806781 0.070405111
0.03338952 -0.071816653 0.070423633
0.036248025 -0.071827002 0.070403516
0.038790796 -0.071813323 0.070414253
-0.054150164 -0.053001154 0.070853874
-0.05752885 -0.05222024 0.070525497
-0.054340687 -0.052204445 0.070514843
-0.053995844 -0.052198865 0.070514962
-0.059973557 -0.05134853 0.070160806
-0.056327675 -0.051383059 0.070185103
-0.072857551 -0.006015819 0.070486277
-0.069682784 0.019709168 0.070885055
-0.069935441 0.020542605 0.070597626
-0.31542945 -0.67837942 0.071044423
-0.30710319 -0.67838842 0.071044043
-0.29431406 -0.67837328 0.071032763
-0.35713235 -0.67757887 0.071510769
-0.34489942 -0.67762882 0.07155779
-0.33734536 -0.67756748 0.071512498
-0.33442807 -0.67763352 0.07157591
-0.33187759 -0.67761779 0.071551546
-0.32331118 -0.67761648 0.071559541
-0.31755522 -0.6776166 0.071544558
-0.30383435 -0.67764485 0.071567148
-0.30997607 -0.67678326 0.071992829
-0.28689101 -0.67678696 0.071986854
-0.3566559 -0.66839093 0.071373001
-0.35665601 -0.66760975 0.0718529
-0.28468657 -0.66767561 0.071930766
-0.35700935 -0.65096688 0.07148397
-0.28466934 -0.6509304 0.071417488
-0.35824862 -0.64346474 0.071182512
-0.3582091 -0.64271677 0.071723789
-0.35801959 -0.63523692 0.071594149
-0.28678104 -0.62117714 0.071547352
-0.34468845 -0.61536187 0.071011119
-0.3605243 -0.61455226 0.071523219
-0.35977888 -0.61458033 0.071556255
-0.34573969 -0.60805964 0.071794182
-0.34321588 -0.60802472 0.071764223
-0.35291237 -0.60224825 0.071591526
-0.34715316 -0.60227197 0.071608
-0.34398386 -0.60221469 0.071564972
-0.33673555 -0.60227621 0.071641497
-0.32925525 -0.60224175 0.071594119
-0.32631317 -0.60221761 0.071561769
-0.32304603 -0.60224736 0.071576767
-0.32240877 -0.60224599 0.07159742
-0.31944105 -0.60223496 0.0715646
-0.31617466 -0.60220557 0.071528852
-0.3133626 -0.60222125 0.071551658
-0.31279582 -0.60223138 0.071571618
-0.30579805 -0.60220557 0.07154879
-0.30074215 -0.60220879 0.07153777
-0.29625928 -0.60220563 0.071551159
-0.29352468 -0.60225999 0.071591333
-0.024344437 -0.075012006 0.071860783
0.020701161 -0.075051248 0.071836889
0.03113135 -0.075006738 0.071854025
-0.027423097 -0.074227422 0.071492031
-0.026722284 -0.074166186 0.071476579
-0.020770714 -0.074995071 0.071850657
0.029065726 -0.074232064 0.071493082
-0.030757692 -0.073378772 0.071107723
-0.023732232 -0.07340239 0.071142748
0.029131699 -0.073430404 0.071131304
0.032742992 -0.07341978 0.07113751
0.03491278 -0.073434956 0.071122199
-0.051575758 -0.05542773 0.071879081
-0.050892372 -0.055418476 0.071876563
-0.056189589 -0.054628316 0.071540475
-0.051475201 -0.054649375 0.0715416
-0.068532027 -0.034014121 0.071995869
-0.063691109 -0.033232264 0.071681261
-0.067161717 -0.032400958 0.071348287
-0.066514626 -0.032415718 0.071349569
-0.066339329 -0.031602714 0.071024068
-0.074560463 -0.0076028416 0.07109838
-0.073479056 -0.0076548918 0.071102805
-0.071514696 0.017241746 0.071767904
-0.33170623 -0.68686026 0.072028272
-0.35310462 -0.67603588 0.072517514
-0.35023963 -0.67605305 0.072528951
-0.34992421 -0.6760419 0.072549097
-0.34571275 -0.6762982 0.0723617
-0.3405396 -0.67605871 0.072548226
-0.33843616 -0.67605036 0.072544612
-0.33768156 -0.67601699 0.072518751
-0.33689395 -0.67600566 0.07250604
-0.33445832 -0.67684639 0.072053835
-0.33151865 -0.67602086 0.07250499
-0.32894415 -0.67608601 0.072554655
-0.32647693 -0.67643774 0.072284013
-0.32428047 -0.67606515 0.072535716
-0.32321563 -0.67605186 0.072531722
-0.32005003 -0.67681295 0.072032988
-0.31250525 -0.6764704 0.072335452
-0.30649796 -0.6760757 0.072571874
-0.29729873 -0.67604804 0.072532982
-0.29407936 -0.67645264 0.072297752
-0.28686467 -0.67600042 0.07247103
-0.33152336 -0.67522341 0.072994508
-0.30995876 -0.6756044 0.072732911
-0.35955688 -0.66685522 0.072398171
-0.35623756 -0.6660496 0.072854027
-0.28522745 -0.66661566 0.072577029
-0.35985622 -0.65775812 0.07262373
-0.35654193 -0.65772378 0.072558641
-0.35701978 -0.65020025 0.072011441
-0.28752339 -0.65021908 0.072024748
-0.28754959 -0.64944851 0.072561778
-0.28679419 -0.64944857 0.07255464
-0.28426123 -0.64943546 0.072522908
-0.35788697 -0.64120954 0.072830997
-0.28470758 -0.64193618 0.072205901
-0.36015746 -0.6345129 0.072165497
-0.3576287 -0.63372535 0.072692148
-0.35788709 -0.62703997 0.072290674
-0.3594901 -0.61972213 0.072724238
-0.28502238 -0.6196683 0.072680213
-0.36201832 -0.61315334 0.072781481
-0.36126831 -0.61387795 0.072164796
-0.35549676 -0.61384386 0.072147608
-0.285353 -0.61312091 0.072742604
-0.35298613 -0.60733628 0.072425909
-0.29501548 -0.60734636 0.072428301
-0.32562822 -0.60149807 0.072178327
-0.30942807 -0.60152858 0.072204709
-0.29722214 -0.60155809 0.072232492
-0.2968882 -0.6015408 0.07222113
-0.29072741 -0.60148573 0.072186828
-0.020052005 -0.077412724 0.072924979
-0.019288428 -0.077407852 0.072923444
-0.016469607 -0.077404983 0.072924063
-0.01573598 -0.077408411 0.072924003
-0.011776646 -0.07741113 0.072920382
0.014198865 -0.077424772 0.072928697
0.0166444 -0.077421799 0.07293421
0.021339286 -0.077448376 0.072907045
0.023542469 -0.077393703 0.072903723
-0.022796663 -0.076598212 0.07256563
-0.015590598 -0.076605059 0.072565936
0.022178292 -0.076638952 0.072549097
0.02651025 -0.076640718 0.072554566
-0.02551139 -0.075798437 0.072211735
-0.021755084 -0.075801201 0.072208494
-0.018698104 -0.075799778 0.072206907
-0.017955238 -0.075828075 0.072210819
0.015531108 -0.075813554 0.072212085
0.024919305 -0.075818911 0.07219404
0.025250239 -0.075821899 0.072196797
0.027338378 -0.075830527 0.07219778
-0.053774707 -0.057077654 0.07256639
0.054645859 -0.057895567 0.072922185
-0.052752703 -0.056276172 0.072226636
-0.068033613 -0.035686605 0.072655901
-0.065479845 -0.035660852 0.072657503
-0.070934884 -0.011730769 0.072637156
-0.07309103 -0.010138967 0.072033189
-0.072556354 -0.010130787 0.072032414
-0.071356617 0.014035596 0.072920091
-0.35949364 -0.67528242 0.073027596
-0.35313243 -0.67526424 0.073031075
-0.35017473 -0.67528367 0.073028505
-0.34588194 -0.6752485 0.073001303
-0.34121317 -0.67524582 0.073003396
-0.34074372 -0.6752584 0.073024325
-0.33765066 -0.67524654 0.073013082
-0.33688954 -0.67524981 0.073001429
-0.33405629 -0.6752966 0.073068924
-0.33189517 -0.67521703 0.073003285
-0.32892576 -0.67528725 0.073060907
-0.3264221 -0.67525327 0.0730187
-0.32337117 -0.67527151 0.073026881
-0.32000399 -0.67525256 0.073007807
-0.31960672 -0.67526031 0.073005304
-0.31728071 -0.67529064 0.073061697
-0.31246537 -0.67529863 0.073080607
-0.30701354 -0.67530906 0.073070407
-0.30668551 -0.6752975 0.073082
-0.30016676 -0.67529553 0.073061883
-0.29838443 -0.67526269 0.073007695
-0.29730859 -0.67527461 0.073030919
-0.29426184 -0.6752823 0.073052742
-0.35600305 -0.67446285 0.073502421
-0.35412556 -0.67451423 0.073524497
-0.353439 -0.67448789 0.073519625
-0.31454319 -0.67446351 0.073493361
-0.30702889 -0.67453915 0.073578939
-0.30337363 -0.67445993 0.073510259
-0.30298495 -0.67450738 0.073535241
-0.3003546 -0.6745156 0.073551893
-0.29744658 -0.67449337 0.073512003
-0.29509234 -0.6745193 0.073559739
-0.29441339 -0.67450976 0.073544644
-0.2865063 -0.67445207 0.073483393
-0.35592845 -0.67368388 0.073978007
-0.3591603 -0.66531134 0.073425584
-0.28542888 -0.66533816 0.073424771
-0.3590759 -0.66455638 0.073931091
-0.3564263 -0.66451418 0.073903203
-0.35581502 -0.6645081 0.073871389
-0.28566429 -0.6645335 0.073919557
-0.35953102 -0.65621585 0.073658057
-0.35738781 -0.6562503 0.073691584
-0.35658982 -0.65619135 0.073620595
-0.28674659 -0.65621203 0.073628932
-0.28423426 -0.65622544 0.073644616
-0.36029786 -0.64873618 0.073174022
-0.35699064 -0.64869833 0.073115692
-0.28430125 -0.64864933 0.073053882
-0.36024943 -0.64797986 0.073716313
-0.2871365 -0.64793837 0.073634557
-0.28450644 -0.64790565 0.073607601
-0.36040008 -0.64047253 0.073393367
-0.35782424 -0.63972241 0.073946804
-0.35979295 -0.63302201 0.073293455
-0.35839379 -0.63300848 0.073310114
-0.35981911 -0.63227236 0.073870167
-0.28637215 -0.63218999 0.073779814
-0.36076888 -0.62562788 0.073510379
-0.35750833 -0.62558115 0.073451027
-0.28552327 -0.62562352 0.073490955
-0.35993657 -0.61903983 0.073371038
-0.36034989 -0.61828101 0.073935919
-0.3599728 -0.618303 0.073953725
-0.28722414 -0.61825705 0.073900647
-0.28507236 -0.618999 0.073321864
-0.36205673 -0.61241591 0.073391519
-0.28891358 -0.61243778 0.07337866
-0.35320401 -0.60666031 0.073069938
-0.35222507 -0.60662556 0.073031262
-0.34834248 -0.60661894 0.073022373
-0.34545895 -0.60663921 0.07305295
-0.33667773 -0.60667765 0.073109224
-0.31719291 -0.60660505 0.0730156
-0.31052959 -0.60663086 0.073048651
-0.3011902 -0.60662699 0.073044509
-0.28962094 -0.60664093 0.073041543
-0.3536264 -0.60592365 0.073672563
-0.34838566 -0.60594594 0.073697895
-0.34548241 -0.6059373 0.073677368
-0.32892746 -0.60591316 0.07366249
-0.32712853 -0.60591543 0.073653311
-0.3173894 -0.60588437 0.07362441
-0.3137714 -0.60590899 0.073634341
-0.30568099 -0.60591877 0.073662497
-0.30372792 -0.60586578 0.0736119
-0.30121371 -0.60590297 0.07365407
-0.29469019 -0.60593617 0.073681124
-0.29363564 -0.60590893 0.073633984
-0.2917991 -0.60592669 0.073657542
-0.28964648 -0.60593235 0.073665909
-0.018531717 -0.079407528 0.073818818
-0.014197687 -0.079826027 0.073997013
-0.013232589 -0.079012498 0.073635995
-0.0088442275 -0.079860143 0.073988184
-0.007808676 -0.079311103 0.073745243
-0.0049115494 -0.079758748 0.073975079
-0.001191354 -0.079032272 0.073627025
0.0012649501 -0.079836592 0.073999062
0.015608986 -0.07978674 0.07399898
0.016700421 -0.079775624 0.073978938
0.01756553 -0.079025082 0.073627561
0.019189233 -0.079849951 0.07397759
-0.020862313 -0.07821317 0.073283218
-0.017286021 -0.078199551 0.073281676
-0.011686482 -0.078216523 0.073282525
-0.0036588737 -0.078581423 0.07344614
0.0013346442 -0.078994386 0.07363382
0.0046653878 -0.07821545 0.07327763
0.0068413261 -0.078204006 0.073279753
0.010082487 -0.078205138 0.073291376
0.018399347 -0.078245111 0.073270909
0.022673119 -0.078160711 0.0732527
0.052814215 -0.060272165 0.073940553
-0.065491654 -0.038935319 0.073956087
-0.064950548 -0.038931921 0.073953085
-0.067192279 -0.037325148 0.073311694
-0.066805378 -0.03729796 0.073307201
-0.073261999 -0.014175743 0.073564693
-0.072238326 -0.013359156 0.073254049
-0.072189093 0.013201253 0.073212802
-0.29437119 -0.67373353 0.074051552
-0.35878125 -0.67293584 0.074519008
-0.35591471 -0.67211515 0.074981399
-0.28611019 -0.67289454 0.074493468
-0.35872871 -0.66300738 0.074939258
-0.28565255 -0.66373831 0.07441745
-0.28576231 -0.66298401 0.074930511
-0.28420395 -0.65546304 0.074180871
-0.35911283 -0.6547069 0.074728765
-0.28635255 -0.65468341 0.074666552
-0.28416809 -0.65470767 0.074713811
-0.3599166 -0.6464631 0.074789666
-0.286764 -0.64644408 0.074720562
-0.35820982 -0.63901412 0.074519098
-0.36005795 -0.6389823 0.074499726
-0.35981831 -0.63153607 0.074439026
-0.36112875 -0.6241312 0.074640952
-0.35826063 -0.62484086 0.074033737
-0.35745019 -0.62484807 0.074007913
-0.36038178 -0.61755204 0.074538507
-0.36177608 -0.61101454 0.074621573
-0.28903905 -0.61099273 0.074597172
-0.35774675 -0.60521919 0.074293956
-0.35416764 -0.60523224 0.074310787
-0.35383597 -0.60522944 0.074292593
-0.34552062 -0.60521346 0.074310534
-0.33542046 -0.60527742 0.074367546
-0.32713035 -0.60519707 0.074267998
-0.32211006 -0.60517699 0.074247278
-0.29743356 -0.60516179 0.074250266
-0.29222205 -0.6051712 0.074248135
-0.35650659 -0.60452199 0.074922055
-0.355593 -0.60450202 0.074894719
-0.35454538 -0.60449362 0.074909478
-0.34915602 -0.60452849 0.074943185
-0.34841269 -0.60453123 0.074945256
-0.33457375 -0.60456896 0.074982688
-0.33398014 -0.60455793 0.074958742
-0.33042201 -0.60451972 0.074942753
-0.32711154 -0.60448343 0.074885212
-0.31728944 -0.60446763 0.074869066
-0.3138836 -0.604491 0.074902825
-0.31060833 -0.60449964 0.074897826
-0.30596504 -0.60448259 0.074890874
-0.30270484 -0.6044488 0.074857384
-0.29227361 -0.60444963 0.074868128
-0.010522331 -0.081399925 0.074694134
-0.0066260365 -0.081387855 0.074689679
0.0017261564 -0.081438303 0.074707709
0.0044201957 -0.081400044 0.074707434
0.0070959413 -0.081413515 0.074717596
-0.0096539212 -0.080643333 0.074341208
-0.0057954635 -0.080572061 0.074332744
-0.0025500534 -0.080634959 0.074341469
-2.3693725e-05 -0.080563419 0.074339792
0.002885977 -0.080620468 0.074349917
0.0079499632 -0.080606788 0.074360132
0.011397126 -0.080627859 0.074359089
0.014049097 -0.080628999 0.074364655
0.0087715965 -0.079798587 0.074003577
0.0094502019 -0.079812303 0.074007712
0.012424447 -0.079839446 0.074003756
0.014872172 -0.079831965 0.07400848
-0.049445253 -0.062659524 0.074953511
0.050268147 -0.062645636 0.074968472
-0.048417248 -0.061834462 0.0746122
-0.047718018 -0.061855312 0.074614629
-0.046509221 -0.061074138 0.074276529
-0.045972906 -0.061074082 0.074275695
0.051747441 -0.061034143 0.074284822
-0.064086631 -0.040557049 0.074601896
-0.063707046 -0.040559649 0.074602708
-0.062881455 -0.039752617 0.074275695
-0.072672196 -0.017458886 0.074798316
-0.073302388 0.008242242 0.074963585
-0.072945669 0.0082440432 0.074965298
-0.072140187 0.0090663778 0.074671514
0.9072926 0.072606213 0.074363969
0.90875667 0.07259234 0.074396253
0.90869999 0.073437065 0.074103527
-0.35169539 -0.68059379 0.075911388
-0.35873911 -0.67216402 0.075012371
-0.28625649 -0.67217779 0.075044781
-0.2865738 -0.67142439 0.075554743
-0.35869282 -0.66224825 0.07547681
-0.28593746 -0.66223884 0.075470068
-0.28630912 -0.66148478 0.075994954
-0.28589681 -0.66148472 0.075998403
-0.2863169 -0.65391797 0.075196393
-0.28637484 -0.64491999 0.075791389
-0.36179215 -0.63748848 0.07558424
-0.36234531 -0.63006139 0.075599395
-0.3594766 -0.63003778 0.07558769
-0.36108184 -0.62266612 0.075800553
-0.36077008 -0.62266272 0.07580597
-0.28660613 -0.62262762 0.075756863
-0.36248767 -0.61613196 0.075717114
-0.36142713 -0.61645442 0.075418517
-0.36072093 -0.61684698 0.075147666
-0.28689051 -0.61608738 0.075687923
-0.36179015 -0.61030114 0.075236395
-0.35448274 -0.6102913 0.075222999
-0.34990916 -0.60954237 0.075808361
-0.34447363 -0.6095649 0.075821996
-0.29118606 -0.60955578 0.075818568
-0.28633064 -0.60956776 0.075837366
-0.30629444 -0.6037724 0.075502358
-0.2980682 -0.60376805 0.075510003
-0.29447514 -0.60381728 0.075561382
-0.046197444 -0.065084763 0.075970426
-0.045801796 -0.065068699 0.075966738
-0.045002967 -0.064260736 0.075625487
0.048559234 -0.064247027 0.075640395
-0.044194885 -0.06345778 0.075284131
0.049431451 -0.063450247 0.075303935
-0.063376635 -0.043003045 0.075574003
-0.063040249 -0.042996895 0.075573988
-0.072095163 -0.019937664 0.075726189
-0.071261063 -0.019125115 0.075413197
-0.070928723 -0.019115562 0.075410776
0.90671468 0.06841784 0.075697683
0.90831542 0.068411186 0.075673498
0.90840167 0.070072919 0.075196467
0.90980822 0.070073985 0.075156011
0.91035688 0.070081979 0.075144127
-0.35520837 -0.67979407 0.076349974
-0.35160375 -0.67941314 0.076628894
-0.34692007 -0.67941332 0.076623969
-0.34226626 -0.67900068 0.076858453
-0.33068702 -0.67903638 0.076869965
-0.32175124 -0.67978591 0.076353021
-0.31420749 -0.67982405 0.076393373
-0.31674024 -0.67899412 0.076843679
-0.31131324 -0.67898905 0.076833181
-0.30199903 -0.67898786 0.076843284
-0.28677362 -0.66983807 0.076548114
-0.35826761 -0.66069537 0.076490723
-0.36233053 -0.6524502 0.076355509
-0.35866064 -0.65164757 0.07684543
-0.28928736 -0.64417267 0.076366022
-0.36200121 -0.64344174 0.076932773
-0.2892952 -0.64340794 0.076909199
-0.36234346 -0.6293214 0.076166667
-0.36231676 -0.62858576 0.076729521
-0.28678933 -0.62857509 0.076736391
-0.3615239 -0.62195534 0.076423809
-0.36288175 -0.61539441 0.076335818
-0.3629269 -0.614663 0.076927878
-0.28690219 -0.61463165 0.076874748
-0.34992534 -0.60885561 0.076439813
-0.32186392 -0.60884684 0.076455936
-0.28906864 -0.6088503 0.076446846
-0.28528768 -0.60886198 0.076460451
-0.041908126 -0.067582496 0.076985091
-0.039063245 -0.067524098 0.076949172
-0.041059174 -0.066775352 0.076638877
-0.047018103 -0.065912195 0.076316327
-0.043486994 -0.065925151 0.076309167
-0.040213726 -0.065961063 0.076291382
-0.06057141 -0.046312582 0.076885685
-0.059758443 -0.045503613 0.076558478
0.065489322 -0.045403291 0.076560654
-0.06223122 -0.044610079 0.076227874
-0.072328873 -0.023209326 0.076950766
-0.071276665 -0.022353649 0.076637894
-0.073549606 0.0045627225 0.076280937
-0.32456413 -0.67823106 0.077355385
-0.31883213 -0.67824465 0.07736472
-0.30509818 -0.67825222 0.077347726
-0.30192164 -0.67821932 0.07733839
-0.31633332 -0.67740268 0.077807054
-0.36120367 -0.65994853 0.077062644
-0.28591317 -0.6595552 0.077286683
-0.28599739 -0.6425941 0.077385962
-0.36231011 -0.62710536 0.077867582
-0.29061094 -0.61391652 0.077497102
-0.36111984 -0.60815012 0.077070281
-0.32187724 -0.60812497 0.077064313
-0.31211066 -0.60813785 0.077061839
-0.31069678 -0.60813397 0.077043653
-0.29885304 -0.6081053 0.077029802
-0.29371786 -0.60814756 0.077064835
-0.34995931 -0.60745579 0.077712536
-0.32512838 -0.60739577 0.077642135
-0.32184571 -0.60743111 0.077665947
-0.32009792 -0.60738045 0.077631712
-0.31537279 -0.6074084 0.077651657
-0.31219336 -0.6074146 0.077680111
-0.30280009 -0.60743582 0.077678166
-0.29121688 -0.60745585 0.07768438
-0.038334239 -0.070000395 0.077975988
-0.037738606 -0.070028327 0.077986464
-0.040770546 -0.069173865 0.077642933
-0.036561891 -0.069207102 0.077647626
0.041337401 -0.069130458 0.077692844
-0.03988855 -0.068348274 0.077295914
0.042681966 -0.067514427 0.077005439
0.043044548 -0.067513682 0.077002779
-0.059570044 -0.048636038 0.077846862
-0.062231764 -0.047047943 0.07720352
-0.061663743 -0.047084223 0.077207722
0.063665241 -0.047814809 0.077530622
-0.071288727 -0.025621427 0.077869587
-0.070236593 -0.024834881 0.077561967
-0.074176982 -9.9709141e-06 0.077900752
-0.072828755 0.00081939803 0.077611536
-0.14290494 0.063433565 0.077227868
-0.35911804 -0.64190197 0.07800699
-0.36196941 -0.61903816 0.078751363
-0.28884035 -0.61973351 0.0781468
-0.28714722 -0.61318529 0.07809405
-0.35829994 -0.60600775 0.078910083
-0.33955958 -0.60673732 0.078332067
-0.3327359 -0.60673159 0.078316435
-0.32551748 -0.60671508 0.078295469
-0.32225248 -0.60670364 0.078274466
-0.32181197 -0.60671574 0.078276359
-0.3121554 -0.60600311 0.078889839
-0.29708689 -0.60672474 0.078302272
-0.3082341 -0.60598505 0.078864753
-0.30318305 -0.60597062 0.07886526
-0.30286583 -0.6059854 0.078877993
-0.031025674 -0.071496516 0.078689061
0.034869157 -0.071551844 0.078713648
0.037414491 -0.07153932 0.078714631
-0.034331977 -0.070738047 0.078334831
0.038266089 -0.070730776 0.078373976
-0.059266325 -0.051136285 0.078827299
-0.058870379 -0.051140785 0.078829937
0.061349627 -0.051053915 0.078825779
-0.058053639 -0.05031174 0.078506418
-0.057697147 -0.050310843 0.078511193
-0.060609225 -0.049466245 0.078173324
-0.070274338 -0.028088847 0.078805372
-0.069220126 -0.02726925 0.0785015
-0.068913445 -0.027275784 0.078500465
-0.29707187 -0.67509919 0.079289027
-0.35927114 -0.66595531 0.079008609
-0.29024485 -0.61139631 0.079603598
-0.03306102 -0.07323502 0.079380803
-0.029599346 -0.073957019 0.07974118
-0.028352732 -0.073209301 0.079414152
-0.025630245 -0.073941357 0.079745963
0.030237528 -0.073941365 0.079746403
0.031094976 -0.073136404 0.079407446
0.033139791 -0.073149599 0.079401284
0.035783816 -0.07318487 0.079395831
-0.036351979 -0.0723648 0.079021305
-0.035841513 -0.072339959 0.079015493
-0.032199092 -0.072379284 0.079033941
-0.0318578 -0.072332434 0.079029828
0.03402758 -0.072352357 0.079057284
0.036606584 -0.072361194 0.079054967
-0.057784654 -0.053519897 0.079817019
-0.056967374 -0.052724142 0.079495013
0.060023677 -0.052659437 0.079468846
-0.056113608 -0.051930342 0.079167552
-0.055778015 -0.051937051 0.079164825
-0.067681864 -0.030505545 0.079718068
-0.073650561 -0.0044664098 0.079508141
-0.13934632 0.055928405 0.079581797
-0.12365238 0.055152364 0.079827711
-0.32667691 -0.61026645 0.080471575
-0.024903188 -0.076362737 0.080782652
-0.021328531 -0.076359481 0.080770805
0.025128683 -0.076398246 0.080764517
0.027639303 -0.07635656 0.080765672
-0.028015811 -0.075509243 0.080413893
-0.027689399 -0.075520493 0.080420837
-0.02402875 -0.075563103 0.080442637
-0.023639569 -0.075550728 0.080433324
-0.020447778 -0.075561918 0.080430336
0.021246266 -0.075605288 0.080412045
0.025930058 -0.075599305 0.080421425
0.028514912 -0.075527035 0.080420338
0.031015761 -0.075577222 0.080432266
-0.031142354 -0.074752375 0.080075368
-0.030798595 -0.074755706 0.080078043
-0.026640847 -0.07473883 0.080085263
-0.022814533 -0.074740544 0.080087624
0.02939973 -0.074732341 0.080082335
0.031833943 -0.074769534 0.080087893
-0.055723518 -0.055170476 0.080455318
-0.054483872 -0.055143297 0.080447592
0.058207598 -0.055098023 0.080440454
-0.054551911 -0.054334648 0.080123529
-0.053620167 -0.054360032 0.080128528
-0.069446877 -0.031382822 0.080036439
-0.068708919 -0.031362992 0.08003141
-0.074077718 -0.0081949038 0.080816701
-0.073333964 -0.0082260752 0.080824785
-0.070658021 0.021678293 0.080262959
-0.13903497 0.053429924 0.080354847
-0.13603601 0.054282222 0.080081612
-0.13352728 0.054287169 0.080085516
-0.28849626 -0.61606175 0.081058435
-0.33355266 -0.60960829 0.081148162
-0.30937353 -0.60886019 0.081685126
-0.30442742 -0.60885799 0.081700981
-0.019527413 -0.078009322 0.081457898
-0.016456529 -0.078800648 0.081793875
-0.010364285 -0.078739002 0.08177419
-0.0064128898 -0.07879471 0.081774145
-0.0026127514 -0.078817867 0.081784926
-8.0365047e-05 -0.078751713 0.081778459
0.0075163697 -0.078805365 0.081803761
0.011125733 -0.078770161 0.081789173
0.013936084 -0.078800499 0.081801444
0.01610285 -0.078726381 0.0817791
0.018260352 -0.078809805 0.081769347
0.019108927 -0.078009956 0.0814308
0.020797081 -0.07876382 0.081771217
0.022643846 -0.078800626 0.081783526
-0.022348627 -0.07716018 0.081111103
-0.018528592 -0.077187791 0.08111532
-0.015250274 -0.077970445 0.081449956
-0.014677817 -0.077978626 0.081452236
-0.013825973 -0.077191338 0.081113249
0.0033161275 -0.077996574 0.081449449
0.022115935 -0.077118784 0.081082717
0.024298212 -0.077189408 0.081104703
-0.053162977 -0.058422711 0.081756145
-0.052445579 -0.058411419 0.081756555
0.055548858 -0.058384262 0.081742644
0.056848731 -0.056737274 0.081088908
-0.067538783 -0.034684811 0.081278414
-0.066818297 -0.034674555 0.08127746
-0.073462784 -0.011508199 0.081990786
-0.074188694 -0.0090275835 0.081112072
-0.095175497 0.016728951 0.081919566
-0.083810821 0.018378574 0.08135394
-0.1342963 0.049282059 0.081645988
-0.13122237 0.050048877 0.081391267
-0.0054299971 -0.08124426 0.082818352
-0.0026350126 -0.081216969 0.082810573
-4.1753581e-05 -0.081262 0.082828246
0.0024275796 -0.081192881 0.082813367
-0.013642339 -0.080408648 0.082480855
-0.012923021 -0.080415145 0.082484476
-0.0086142961 -0.080413878 0.082458958
-0.0044151945 -0.080451921 0.082480207
-0.0018120095 -0.080384448 0.082464457
0.0008145204 -0.080459289 0.082485721
0.0011335381 -0.080446318 0.082480215
0.0032736654 -0.08037369 0.082469694
0.0056833532 -0.080443807 0.082486831
0.0086772647 -0.080410637 0.082490027
0.0091038365 -0.080408193 0.082483426
0.0122857 -0.080403693 0.08248201
-0.017534006 -0.079599299 0.082137816
-0.012100504 -0.079618014 0.082144864
-0.011552976 -0.079588674 0.082131222
-0.0076014791 -0.079614587 0.082118303
-0.0034139522 -0.079627164 0.082131818
-0.00092218624 -0.079567954 0.082120173
0.0041218582 -0.079566777 0.082128674
0.0066665243 -0.079632334 0.082146853
0.0098890401 -0.079587348 0.082133606
0.010248005 -0.07957232 0.08212769
0.013114855 -0.079605617 0.082144327
0.015285036 -0.079546534 0.082132205
0.017443735 -0.079629049 0.082116731
0.01993308 -0.079600945 0.082116954
-0.051271848 -0.060047943 0.082407378
-0.049792558 -0.060088143 0.082410313
0.054218791 -0.060046714 0.082400084
-0.052210055 -0.059196535 0.082080781
-0.051492006 -0.059210315 0.082081981
-0.050218396 -0.059270356 0.082084775
-0.049655937 -0.059274133 0.082082301
-0.048783682 -0.059263233 0.082088262
-0.064463459 -0.03873159 0.082809418
-0.066357441 -0.037083473 0.082198113
-0.065809287 -0.037088003 0.082196452
-0.073598951 -0.012316697 0.082280383
-0.072416142 0.015047666 0.082457535
-0.15870911 0.082462877 0.082495674
-0.047443431 -0.063306995 0.083713718
-0.046686511 -0.063314989 0.083709225
0.047636915 -0.063231468 0.083709121
0.048477788 -0.062430833 0.083384335
-0.064222515 -0.041190241 0.08373142
-0.063722618 -0.041195855 0.083729565
-0.065657444 -0.039541423 0.08311788
-0.073081478 -0.015615235 0.083446562
-0.072939388 -0.014788833 0.083154857
-0.09332744 0.012632131 0.083286837
-0.13188215 0.041825749 0.083962768
-0.13255131 0.044275269 0.08319246
-0.12752679 0.044289265 0.08318615
-0.16029491 0.077809222 0.083830409
-0.15677381 0.079513296 0.083344311
-0.15870035 0.080322884 0.08310619
-0.043217313 -0.066519663 0.084981836
-0.040393859 -0.066594712 0.084971622
-0.042347755 -0.065724701 0.084659137
0.0451345 -0.065742046 0.084696949
-0.04517623 -0.064919285 0.08435107
-0.044338569 -0.064106591 0.084025495
-0.043970097 -0.0641068 0.084024601
-0.041510563 -0.064953975 0.084340133
0.045941249 -0.06489902 0.08436583
0.046771262 -0.064069793 0.084037863
-0.063090801 -0.042816725 0.08434739
-0.062559247 -0.042831309 0.084350839
-0.073054314 -0.018055087 0.084321827
-0.072506741 -0.018082926 0.084326155
-0.086204536 0.0076028411 0.084940806
-0.079381302 0.0076322714 0.084937267
-0.090021543 0.0084417351 0.084656388
-0.074541971 0.0084433276 0.084659338
-0.076224327 0.0092035308 0.084386259
-0.12078366 0.03842219 0.084994949
-0.11856132 0.039274577 0.084731422
-0.11459353 0.039323635 0.084731221
-0.13035986 0.04011796 0.084477089
-0.12725934 0.040924069 0.084227569
-0.125157 0.040961381 0.084220417
-0.11581843 0.040977396 0.084212109
-0.16189128 0.075294174 0.08455193
-0.16241561 0.076187588 0.084311604
-0.16202226 0.077029653 0.084068216
-0.039674036 -0.069013186 0.085922852
-0.042070273 -0.068216063 0.085628331
-0.040042479 -0.068996705 0.085923254
-0.038659729 -0.068212315 0.08559972
0.040737849 -0.068160124 0.085671887
-0.041215662 -0.067403704 0.085299931
0.043449011 -0.067396015 0.085353583
0.044273257 -0.066572055 0.085026987
-0.060465045 -0.046910446 0.085887149
-0.062555335 -0.045237344 0.085276648
-0.072511524 -0.02140316 0.085484177
-0.072398975 -0.020571109 0.085190952
-0.091883667 0.0059598624 0.085483432
-0.082137793 0.0059402143 0.085483544
-0.13318476 0.035942718 0.085771069
-0.16219532 0.071139529 0.085758433
-0.16502437 0.072032079 0.085518599
-0.1604524 0.073651575 0.085032366
-0.034647714 -0.071419179 0.086925328
-0.03331288 -0.07148084 0.086945191
0.035609648 -0.071445942 0.086961672
-0.037381496 -0.070648268 0.086601309
0.038589038 -0.070584297 0.086642139
0.040734608 -0.070611671 0.086641967
-0.040919133 -0.069799326 0.086253248
-0.036223639 -0.069837384 0.086283512
0.039428372 -0.069775157 0.086320162
0.042130183 -0.069016963 0.086002849
-0.060111515 -0.049325261 0.086812988
-0.059604645 -0.04934673 0.086815059
0.063919969 -0.048580136 0.086539783
-0.061486863 -0.047774032 0.086201116
0.064719051 -0.047746193 0.086227812
-0.070634261 -0.025493957 0.086933866
-0.072190426 -0.023819227 0.086355127
-0.07179711 -0.023823027 0.086352468
-0.07095997 -0.023005798 0.086060397
-0.076169819 0.0026169692 0.086587898
-0.12942261 0.034283157 0.086287782
-0.13101885 0.035099864 0.086042508
-0.12679 0.035107616 0.086030617
-0.11487553 0.035090227 0.086021803
-0.11270463 0.035171036 0.086020254
-0.16711184 0.066925727 0.086962774
-0.14554562 0.066943079 0.086977728
-0.14958787 0.068657741 0.086484104
-0.16579348 0.070294954 0.086007632
-0.031657964 -0.073013492 0.087604545
-0.029170597 -0.073887967 0.087956667
-0.028495332 -0.073823072 0.087939836
-0.024576204 -0.073828481 0.08795955
0.030845443 -0.073845997 0.08795096
0.0333887 -0.073853672 0.08793249
0.034267996 -0.073050052 0.087607764
0.035930339 -0.073840901 0.087942854
-0.035522431 -0.072233506 0.087250359
-0.03458463 -0.072260335 0.087258369
-0.032341748 -0.072986901 0.087593481
-0.05901245 -0.051826037 0.087761357
-0.058152247 -0.051005755 0.087455861
0.061625782 -0.051855553 0.08777032
-0.057628326 -0.05096443 0.087452278
-0.071522318 -0.026334077 0.087226272
-0.080738693 -0.0014806965 0.087963194
-0.07391049 -0.00145618 0.08797849
-0.082400151 -0.00072357117 0.087692611
-0.074893862 0.00096855359 0.087150082
-0.12555115 0.030921819 0.08732681
-0.12433555 0.030090226 0.087575726
-0.12202048 0.030989511 0.087318569
-0.15860054 0.063577637 0.087933198
-0.15320717 0.063661702 0.087930202
-0.16044341 0.064428121 0.087706551
-0.15951455 0.064436756 0.087719031
-0.15847096 0.064407818 0.087702282
-0.15759405 0.064411491 0.087682329
-0.15847197 0.06525059 0.087469712
-0.15137604 0.066172719 0.087209336
-0.027829643 -0.076263033 0.08892265
-0.024223041 -0.076260805 0.088923432
-0.023833487 -0.076263957 0.088923752
-0.020419883 -0.076266125 0.088923
-0.019863551 -0.076290756 0.088926174
0.025780978 -0.076292433 0.088919908
0.028576616 -0.076266527 0.088926136
-0.026767103 -0.075451247 0.0886041
-0.023007823 -0.07545168 0.088599116
0.0241413 -0.075471602 0.088588879
0.026679806 -0.075481892 0.088598885
-0.030066479 -0.074712135 0.088282317
-0.025606219 -0.074645758 0.08828336
-0.022190273 -0.074633852 0.088273816
0.027529923 -0.074659385 0.088272996
0.030044358 -0.074655719 0.088277258
-0.057680115 -0.054268152 0.08867795
-0.057529837 -0.05344972 0.088373631
-0.05662182 -0.053442895 0.088368043
-0.055634357 -0.052618507 0.088057101
-0.070173398 -0.028803769 0.088115573
-0.069518283 -0.028794598 0.08811307
-0.075742386 -0.0039717257 0.088806689
-0.11962175 0.027599456 0.088353485
-0.1174579 0.027666291 0.088347644
-0.11538916 0.027617985 0.088344857
-0.11237697 0.027590865 0.088381805
-0.15773767 0.060247991 0.088889457
-0.15646811 0.060233571 0.088884786
-0.15776108 0.061410189 0.088567503
-0.15451491 0.061960209 0.088406332
-0.14881566 0.061916359 0.088432632
-0.15803982 0.062761426 0.088162318
-0.14214887 0.062781326 0.08819557
-0.019542594 -0.078702182 0.089900069
-0.014669044 -0.078710213 0.089895785
-0.0090653095 -0.078740612 0.08988516
-0.0087579163 -0.078727044 0.089882895
-0.0051544248 -0.07869298 0.089888208
-0.002273523 -0.078729928 0.089891091
0.012168936 -0.078712411 0.089902267
0.014245076 -0.078719482 0.089909233
0.016482091 -0.078742705 0.089888386
0.02114341 -0.078692295 0.089878671
-0.021646146 -0.077086687 0.089250445
-0.018551528 -0.077887975 0.089574158
-0.017333597 -0.077080369 0.089248955
-0.013491782 -0.077898376 0.089571893
-0.012621296 -0.077904172 0.089578293
0.015137372 -0.077872381 0.089576289
0.017343316 -0.07793767 0.089560039
0.019605294 -0.077929042 0.08955723
0.022526417 -0.077093743 0.089234352
0.024947222 -0.077103928 0.08923839
0.054498982 -0.057553723 0.089907125
-0.055275001 -0.056751527 0.089605182
-0.054249633 -0.055938803 0.0892983
-0.053567421 -0.055903565 0.089292981
-0.052872114 -0.055887643 0.089289665
-0.06930545 -0.032036439 0.089268088
-0.068402953 -0.032053586 0.089270256
-0.067665592 -0.032080512 0.089277036
-0.075134553 -0.0072934991 0.089911178
-0.081408076 -0.0056454288 0.089338683
-0.073844612 -0.0056280154 0.089356773
-0.087044753 -0.0047767712 0.089065067
-0.078707777 -0.004806356 0.089073114
-0.11568736 0.022631463 0.089928135
-0.12242794 0.023449464 0.089648463
-0.12369057 0.025094634 0.089124344
-0.1524775 0.056897089 0.089884914
-0.14199209 0.056948882 0.089881659
-0.14284939 0.058552537 0.089389727
-0.15789917 0.05939278 0.089127339
-0.15063474 0.05940567 0.089157656
-0.14669704 0.05939867 0.089126527
0.003150051 -0.081136025 0.090869576
0.0060216254 -0.081140108 0.0908795
0.014291423 -0.081109963 0.090855956
-0.011096726 -0.080364339 0.090535678
-0.0072380672 -0.080293745 0.090527259
-0.0068359608 -0.080280691 0.090527192
-0.0039926106 -0.080355503 0.090535976
-0.0014671661 -0.080284961 0.090534203
0.0014428103 -0.080340989 0.090544358
