# .PCD v0.7 - Point Cloud Data file format
VERSION 0.7
FIELDS x y z
SIZE 4 4 4
TYPE F F F
COUNT 1 1 1
WIDTH 1357
HEIGHT 1
VIEWPOINT 0 0 0 1 0 0 0
POINTS 1357
DATA ascii
0.1857304 0.054660805 0.11118717
0.23935953 0.054660808 0.11116922
0.015964905 0.054660808 0.11139565
0.020832142 0.054660805 0.1113745
0.035682343 0.054567724 0.1114298
0.29320118 0.054660805 0.11133024
0.00092271954 0.054310936 -3.2371843e-09
0.065969393 0.054443859 -3.2451071e-09
0.13767834 0.054300521 -3.2365635e-09
0.1605998 0.054351643 -3.2396106e-09
0.028120955 0.054462548 0.1114298
0.090425655 0.054339826 0.1114298
0.091065563 0.054259371 0.1114298
0.11087107 0.054451782 0.1114298
-2.0793416e-18 0.054093849 0.042247582
0.042497486 0.054152675 0.1114298
0.25216565 0.054136578 0.1114298
-3.4664927e-19 0.053767011 0.013752613
-4.0803633e-18 0.053877972 0.075155355
0.075225838 0.053780552 0.1114298
0.087350577 0.053844906 0.1114298
0.11984736 0.053853102 0.1114298
0.019889472 0.053729359 -3.2025196e-09
0.10262052 0.05364931 -3.1977483e-09
0.073152252 0.053506617 0.1114298
0.18638398 0.053701151 0.1114298
0.0017296213 0.053423829 -3.1843086e-09
0.20032759 0.053266268 -3.1749172e-09
-5.7183252e-18 0.053403623 0.10325444
0.053501312 0.053256199 0.1114298
0.29902935 0.05326429 0.1114298
0.13430461 0.053197078 -3.1707932e-09
0.075731933 0.053109713 0.1114298
0.24261054 0.052979752 0.1114298
0.10702615 0.052717511 -3.1422087e-09
0.14714262 0.052688263 -3.1404654e-09
0.15654144 0.052590512 -3.134639e-09
0.27164197 0.052596375 -3.1349885e-09
0.28584456 0.052624553 -3.136668e-09
0.29040414 0.052615974 -3.1361567e-09
-9.3907023e-19 0.052607868 0.023495262
0.3175 0.052740354 0.026926562
0.3175 0.0525029 0.031782687
-4.6179831e-18 0.052666463 0.08399678
0.3175 0.052681457 0.10476686
0.06043924 0.052634392 0.1114298
0.10584711 0.052706718 0.1114298
0.15951246 0.05260602 0.1114298
0.18927714 0.052576408 0.1114298
0.22027224 0.052282225 -3.1162637e-09
0.27952847 0.052280936 -3.1161869e-09
0.301375 0.052439343 0.1114298
0.043294486 0.052069493 -3.1035838e-09
0.046552032 0.052222662 -3.1127134e-09
0.092547439 0.052031223 -3.1013028e-09
0.12429778 0.052109022 0.1114298
0.1300116 0.052118886 0.1114298
0.23343126 0.052027564 0.1114298
0.2725262 0.052122336 0.1114298
0.2944971 0.052004937 0.1114298
0.27888283 0.051860366 -3.0911189e-09
0.3175 0.0518579 0.037768558
0.3175 0.051788405 0.070427962
0.3175 0.051869087 0.088444196
0.26001376 0.051944453 0.1114298
0.28287983 0.051778913 0.1114298
0.0090833316 0.051575977 -3.074168e-09
0.3175 0.051681288 0.025481908
0.3175 0.05160249 0.057118386
-3.8103897e-18 0.051555581 0.070715517
-5.8918859e-18 0.051653702 0.11049495
0.05719417 0.051296663 -3.0575196e-09
0.11883425 0.051357158 -3.0611254e-09
-4.2543537e-18 0.051488001 0.079229116
-4.4565501e-18 0.051320113 0.083508156
0.18288231 0.051291421 0.1114298
0.18526796 0.051329747 0.1114298
0.042371709 0.051247306 -3.0545777e-09
0.077706166 0.051044267 -3.0424756e-09
0.3175 0.051238075 0.0081289541
-5.0488929e-18 0.051204495 0.095207922
0.011774708 0.05123296 0.1114298
0.1002846 0.05118626 0.1114298
0.24854133 0.051247757 0.1114298
0.080562152 0.05095274 -3.0370202e-09
0.1685984 0.050562609 -3.0137666e-09
0.23309089 0.050536256 -3.0121958e-09
0.28462869 0.050553892 -3.013247e-09
0.3175 0.050566014 0.018079849
0.3175 0.050615601 0.085777402
0.015885001 0.050551545 0.1114298
0.029013455 0.050667424 0.1114298
0.15695135 0.05058147 0.1114298
0.10849941 0.050445419 -3.0067815e-09
0.31162325 0.050420873 -3.0053184e-09
0.12248623 0.050387237 0.1114298
0.12876101 0.050290186 0.1114298
0.023039525 0.050122954 -2.9875611e-09
0.18561746 0.050162345 -2.989909e-09
0.19155912 0.050230492 -2.9939708e-09
0.25805128 0.050249387 -2.9950971e-09
0.3175 0.050165225 0.031784344
0.12946181 0.050184753 0.1114298
0.25193465 0.050169986 0.1114298
-3.7555381e-18 0.049946502 0.073017582
0.040470835 0.049886089 0.1114298
0.098673798 0.04983772 0.1114298
0.1091768 0.049943686 0.1114298
0.1401028 0.049789164 0.1114298
0.18250187 0.049971409 0.1114298
0.20893469 0.049961161 0.1114298
0.26243442 0.049927991 0.1114298
0.27510667 0.049761478 0.1114298
0.034647439 0.049604826 -2.9566782e-09
0.086161993 0.049610104 -2.9569929e-09
0.22462747 0.04958282 -2.9553666e-09
0.26636294 0.049717579 -2.9633989e-09
-7.0205067e-20 0.0497499 0.0092063528
-4.1868483e-18 0.049593791 0.082133248
0.018470431 0.049509302 0.1114298
0.03712457 0.049698815 0.1114298
0.047080141 0.049513284 0.1114298
0.21617001 0.049541041 0.1114298
0.30346474 0.049582064 0.1114298
0.00040055544 0.049301088 -2.9385741e-09
0.098550148 0.049301714 -2.9386114e-09
0.16948727 0.049284618 -2.9375924e-09
0.21784151 0.049488265 -2.9497307e-09
0.24650308 0.049391065 -2.9439371e-09
0.14255822 0.049475502 0.1114298
0.23148486 0.049475532 0.1114298
0.29777646 0.04935215 0.1114298
0.1204244 0.049053073 -2.9237912e-09
-1.7895122e-18 0.049202077 0.037481196
0.3175 0.049157888 0.04050323
0.3175 0.049133684 0.069204338
0.032079332 0.049142409 0.1114298
0.14963169 0.049121153 0.1114298
0.062520802 0.048793688 -2.9083307e-09
-3.3089214e-18 0.048928797 0.066650748
0.040385421 0.048909515 0.1114298
0.068550654 0.048702959 -2.9029228e-09
0.14026718 0.048736386 -2.9049152e-09
0.31503397 0.048501745 -2.8909295e-09
0.3175 0.048563067 0.049013775
0.27652621 0.048537571 0.1114298
0.29517663 0.048663657 0.1114298
0.15390423 0.048437253 0.1114298
0.25323707 0.048422586 0.1114298
0.28454396 0.048271324 0.1114298
0.014675589 0.048140101 -2.8693738e-09
0.125415 0.048176263 -2.8715292e-09
0.3175 0.048181627 0.02060481
-2.6122815e-18 0.048136372 0.054953493
-4.9086494e-18 0.048051279 0.099503919
0.08768601 0.048237372 0.1114298
0.20822468 0.048012108 0.1114298
0.051893897 0.047867212 -2.8531084e-09
0.097182095 0.047847521 -2.8519347e-09
0.3175 0.047859132 0.05361918
0.3175 0.047865931 0.084590502
0.13033023 0.047947038 0.1114298
0.18986538 0.04788005 0.1114298
0.27928987 0.047994941 0.1114298
0.042236909 0.047553834 -2.8344296e-09
0.1869465 0.047508623 0.1114298
0.23893204 0.047612991 0.1114298
0.2463266 0.047742721 0.1114298
0.27007771 0.047524575 0.1114298
0.1650524 0.047299702 -2.8192821e-09
0.24177364 0.047356207 -2.8226501e-09
0.31750003 0.04739967 0.027902482
0.13551401 0.047413949 0.1114298
0.065724395 0.047150955 -2.8104161e-09
0.3175 0.047029775 0.104488
0.038526766 0.047001366 0.1114298
0.085629538 0.046892986 -2.79504e-09
0.18720667 0.04682475 -2.7909728e-09
0.14212455 0.046822496 0.1114298
0.27594113 0.046866737 0.1114298
0.14579839 0.046614707 -2.7784532e-09
0.21971403 0.046532795 0.0081733977
0.036218058 0.046532795 0.0083115306
0.043688398 0.046532795 0.0086450372
0.04751664 0.046532795 0.0087263715
0.0018683154 0.046532795 0.0087794801
0.040804826 0.046532791 0.008980155
0.087901585 0.046532795 0.009212642
0.3022069 0.046532795 0.0090928553
0.2135226 0.046532795 0.0093820207
0.097340047 0.046532795 0.0097381864
0.11728248 0.046532795 0.0097634736
0.15483233 0.046532799 0.010157555
0.038789876 0.046532795 0.010298321
0.10304616 0.046532799 0.010263623
0.24762671 0.046532795 0.010338997
0.18472415 0.046532795 0.010590519
0.21196914 0.046532795 0.01062918
0.076231211 0.046532795 0.010995721
0.24614006 0.046532791 0.010851502
0.26214814 0.046532799 0.010756193
0.31733468 0.046532795 0.010841801
0.068525225 0.046532795 0.011009167
0.097954921 0.046532795 0.011080042
0.20033491 0.046532795 0.01124482
0.0015926668 0.046532795 0.011464019
0.13482471 0.046532795 0.011277634
0.027266985 0.046532799 0.011719137
0.22229575 0.046532795 0.01160294
0.26790014 0.046532795 0.011603745
0.19857877 0.046532791 0.011866778
0.28957179 0.046532799 0.011915989
0.12793393 0.046532795 0.012146947
0.27218959 0.046532795 0.012158779
0.054008432 0.046532795 0.012461443
0.14894831 0.046532791 0.012365915
0.31346241 0.046532795 0.012288939
0.072129108 0.046532795 0.012639341
0.21829785 0.046532791 0.012694723
0.21432018 0.046532795 0.013061306
0.10360061 0.046532795 0.013327111
0.26254308 0.046532791 0.0132525
0.2926074 0.046532795 0.013314671
0.040333457 0.046532791 0.013627484
0.19538958 0.046532795 0.013710292
0.19610943 0.046532795 0.013909969
0.049745794 0.046532795 0.014242928
0.097102366 0.046532795 0.014194593
0.14967369 0.046532795 0.014249923
0.23278147 0.046532795 0.014126014
0.24365759 0.046532795 0.014175323
0.15047081 0.046532795 0.014452603
0.11115383 0.046532795 0.014563368
0.15028894 0.046532795 0.014669174
0.2977522 0.046532791 0.014719649
0.24972506 0.046532795 0.014823362
0.2851668 0.046532795 0.01491384
0.028985851 0.046532795 0.015206529
0.21572398 0.046532791 0.015209508
0.221241 0.046532795 0.015434383
0.12474221 0.046532791 0.015629411
0.19318986 0.046532795 0.015622215
0.056243837 0.046532791 0.015776521
0.12579843 0.046532795 0.016220041
0.092414469 0.046532799 0.016374007
0.11440463 0.046532795 0.016317384
0.17986332 0.046532795 0.016432125
0.2625111 0.046532799 0.016416594
0.058725182 0.046532795 0.017060915
0.18024147 0.046532795 0.017048229
0.11593668 0.046532795 0.017358348
0.19722554 0.046532795 0.017573357
0.20974419 0.046532791 0.017563701
0.058595859 0.046532795 0.018218715
0.19912934 0.046532799 0.018032121
0.2458818 0.046532799 0.01814048
0.27066776 0.046532791 0.018224733
0.28166723 0.046532795 0.018150451
0.28629977 0.046532791 0.018158842
0.23033369 0.046532795 0.018369587
0.31473327 0.046532795 0.018617243
0.014171974 0.046532795 0.019311219
0.051351786 0.046532791 0.019379191
0.075447544 0.046532795 0.019331584
0.14099184 0.046532795 0.019314924
0.18953438 0.046532795 0.01926869
0.12233588 0.046532799 0.019588687
0.19374914 0.046532795 0.019515943
0.068886578 0.046532795 0.01997266
0.2292273 0.046532795 0.019755803
0.21200383 0.046532795 0.020097068
0.0287393 0.046532795 0.020782227
0.20231789 0.046532795 0.020941135
0.21039493 0.046532795 0.020772198
0.21106029 0.046532795 0.020946754
0.21412724 0.046532795 0.020784263
0.25877815 0.046532799 0.020789454
0.29939052 0.046532795 0.020995513
0.015947411 0.046532791 0.021182589
0.092641585 0.046532791 0.021216013
0.19607407 0.046532799 0.021120531
0.316091 0.046532795 0.021208223
0.18583496 0.046532791 0.021615451
0.19035453 0.046532795 0.02168656
0.22376549 0.046532795 0.021732297
0.23892324 0.046532795 0.021748547
0.26823685 0.046532795 0.021749549
0.23118848 0.046532795 0.021881185
0.071760297 0.046532795 0.022350565
0.086207435 0.046532791 0.022258591
0.24595365 0.046532795 0.022318747
0.28384459 0.046532795 0.022315215
0.29757547 0.046532799 0.022471804
0.074106865 0.046532795 0.022592034
0.22678035 0.046532799 0.022531157
0.060495563 0.046532795 0.022968505
0.13266329 0.046532795 0.022846501
0.17969903 0.046532795 0.02295508
0.15590294 0.046532791 0.023347983
0.2111015 0.046532799 0.023262663
0.019855238 0.046532795 0.023539664
0.039330754 0.046532795 0.023716334
0.24416301 0.046532799 0.023645038
0.01969959 0.046532795 0.023870142
0.24048185 0.046532795 0.023977965
0.11578546 0.046532795 0.024180792
0.14661504 0.046532799 0.024053363
0.18803805 0.046532799 0.024180086
0.020127239 0.046532795 0.024306372
0.15859674 0.046532795 0.02428326
0.1564665 0.046532791 0.024536498
0.044285722 0.046532795 0.025671829
0.31203333 0.046532795 0.025991786
0.23607352 0.046532795 0.026477879
0.29062971 0.046532799 0.026422368
0.30827618 0.046532795 0.026325364
0.20582932 0.046532795 0.026671128
0.060123745 0.046532791 0.026817854
0.099697322 0.046532795 0.026873097
0.12323945 0.046532791 0.026939219
0.27051291 0.046532795 0.026839349
0.0011189508 0.046532795 0.027233288
0.045713466 0.046532791 0.027222408
0.064724661 0.046532795 0.027237413
0.11477251 0.046532799 0.027139228
0.15319881 0.046532791 0.027015127
0.10351881 0.046532791 0.027617039
0.11642203 0.046532795 0.027547808
0.11822205 0.046532795 0.027684761
0.13570137 0.046532795 0.027692461
0.20046985 0.046532795 0.027741464
0.11161888 0.046532795 0.027798865
0.02186485 0.046532795 0.028118271
0.15249392 0.046532795 0.028182141
0.17594478 0.046532795 0.028030397
0.054245584 0.046532795 0.028498275
0.067921609 0.046532795 0.028382
0.14114971 0.046532791 0.028484134
0.053795829 0.046532795 0.028615838
0.19372982 0.046532795 0.028642118
0.045672402 0.046532791 0.02890921
0.24006891 0.046532795 0.028825147
0.25901854 0.046532791 0.028900616
0.2531043 0.046532799 0.029026728
0.14103851 0.046532795 0.029382126
0.29593143 0.046532795 0.029404357
0.077680521 0.046532799 0.029677806
0.038040966 0.046532795 0.029831367
0.14477138 0.046532795 0.029912379
0.014397119 0.046532795 0.030236227
0.25627601 0.046532791 0.030083336
0.27230579 0.046532799 0.030345209
0.039065633 0.046532795 0.030575581
0.040367067 0.046532795 0.03059355
0.20514216 0.046532795 0.030545719
0.26434523 0.046532799 0.0305741
0.26494932 0.046532791 0.030640848
0.044561896 0.046532795 0.030802576
0.081990786 0.046532799 0.030799204
0.11536278 0.046532795 0.030880008
0.22796926 0.046532795 0.030779615
0.22537947 0.046532795 0.031088591
0.15662956 0.046532799 0.031291042
0.3032957 0.046532799 0.031406328
0.070213608 0.046532802 0.031586889
0.090661742 0.046532795 0.031502716
0.096827552 0.046532802 0.031859685
0.29103115 0.046532799 0.031766169
0.053251535 0.046532799 0.032129105
0.094560459 0.046532799 0.032074489
0.099719875 0.046532799 0.032021493
0.20624021 0.046532799 0.032363687
0.013713595 0.046532799 0.032645676
0.22267923 0.046532799 0.032629594
0.22398263 0.046532799 0.032698151
0.096847303 0.046532799 0.032897525
0.020732492 0.046532799 0.033076216
0.025606107 0.046532799 0.033128284
0.037982859 0.046532799 0.033128373
0.066792957 0.046532799 0.033085205
0.2986185 0.046532799 0.033081904
0.29962587 0.046532795 0.033008128
0.037564419 0.046532799 0.033338413
0.078409009 0.046532799 0.033312026
0.15631519 0.046532795 0.033359282
0.060920466 0.046532799 0.033501863
0.11022417 0.046532799 0.033853061
0.19000809 0.046532799 0.033820659
0.19885059 0.046532795 0.033838239
0.23900631 0.046532802 0.034130182
0.29543343 0.046532799 0.034119431
0.016217886 0.046532799 0.034267955
0.11817423 0.046532802 0.034453429
0.20661011 0.046532795 0.034296907
0.25596651 0.046532799 0.034309715
0.14076778 0.046532799 0.034723025
0.31479743 0.046532795 0.034750711
0.074187346 0.046532799 0.035292827
0.081837654 0.046532799 0.03529169
0.18050563 0.046532799 0.035414726
0.23825134 0.046532799 0.035473786
0.053152069 0.046532795 0.036254115
0.18182376 0.046532799 0.036494631
0.27389911 0.046532802 0.036346827
0.27955565 0.046532799 0.036460888
0.075624637 0.046532795 0.036652397
0.059298977 0.046532795 0.036847606
0.080968723 0.046532799 0.037002455
0.24654955 0.046532802 0.037185699
0.26172236 0.046532799 0.03719794
0.035732687 0.046532799 0.037726421
0.20507532 0.046532799 0.037523475
0.038242128 0.046532799 0.037896104
0.098685257 0.046532799 0.037839402
0.15576893 0.046532799 0.037855405
0.1972079 0.046532799 0.037864745
0.25884986 0.046532795 0.037757371
0.075145222 0.046532799 0.038144566
0.28875804 0.046532799 0.038202345
0.031209517 0.046532799 0.03848739
0.2029127 0.046532799 0.038401145
0.14245112 0.046532799 0.038670272
0.31276846 0.046532799 0.038573336
0.31451586 0.046532799 0.038793363
0.031317495 0.046532799 0.039153025
0.063340105 0.046532802 0.039137486
0.17962265 0.046532799 0.039230991
0.2905637 0.046532799 0.039176933
0.29220527 0.046532799 0.039113954
0.066455118 0.046532802 0.039454665
0.25072843 0.046532799 0.039419569
0.097013354 0.046532799 0.0397145
0.012777301 0.046532799 0.039804645
0.021722363 0.046532799 0.039772898
0.21567667 0.046532795 0.039803617
0.23746997 0.046532795 0.039840348
0.030485319 0.046532799 0.040222753
0.021547893 0.046532799 0.0403511
0.14166325 0.046532795 0.040312406
0.15688066 0.046532799 0.040315323
0.051125508 0.046532802 0.040702201
0.17552866 0.046532799 0.040522754
0.29691792 0.046532799 0.040650085
0.039392315 0.046532799 0.040843409
0.13922222 0.046532799 0.040925607
0.22065482 0.046532795 0.041064717
0.10456237 0.046532799 0.041496754
0.14904359 0.046532799 0.041325241
0.21872029 0.046532799 0.0414287
0.29357111 0.046532795 0.041412309
0.054133266 0.046532802 0.041716699
0.12458643 0.046532799 0.041505322
0.14802901 0.046532799 0.041578095
0.19132721 0.046532802 0.041581318
0.15542606 0.046532799 0.042235967
0.28573722 0.046532802 0.042116221
0.21887411 0.046532799 0.042272303
0.25664204 0.046532799 0.042663619
0.06076391 0.046532799 0.042822912
0.090952478 0.046532795 0.042873103
0.19173184 0.046532799 0.042962052
0.048009515 0.046532799 0.043128829
0.12643364 0.046532795 0.043365881
0.1389026 0.046532799 0.043426417
0.17574303 0.046532799 0.043334965
0.040532585 0.046532802 0.043504126
0.081733704 0.046532802 0.043737911
0.088996194 0.046532802 0.043940015
0.30556118 0.046532795 0.043856435
0.16031967 0.046532799 0.0441975
0.20859236 0.046532795 0.044035003
0.25256014 0.046532799 0.044147648
0.25987172 0.046532799 0.044110812
0.042948402 0.046532799 0.044361364
0.045439083 0.046532799 0.044442661
0.12074867 0.046532795 0.044535432
0.2375266 0.046532799 0.044598829
0.23833498 0.046532799 0.044621773
0.14911443 0.046532799 0.044961214
0.24732393 0.046532799 0.044967897
0.11096963 0.046532799 0.045173813
0.24594381 0.046532799 0.045468945
0.061210595 0.046532802 0.045522477
0.15096557 0.046532799 0.045501933
0.26646245 0.046532802 0.046319358
0.27339175 0.046532799 0.04636142
0.29690707 0.046532799 0.046494823
0.31006116 0.046532799 0.04673066
0.077675201 0.046532799 0.046902321
0.29416111 0.046532799 0.046960481
0.074983597 0.046532799 0.047054216
0.24161802 0.046532799 0.047330398
0.28202131 0.046532799 0.047402292
0.31189406 0.046532799 0.04742384
0.084267959 0.046532799 0.047737058
0.19098499 0.046532799 0.047683317
0.19091202 0.046532795 0.047879077
0.2435486 0.046532802 0.047773689
0.10628801 0.046532799 0.048146974
0.12099034 0.046532799 0.048249185
0.036300946 0.046532799 0.048373464
0.22626287 0.046532799 0.048443805
0.23223281 0.046532802 0.048371483
0.082289033 0.046532795 0.048682485
0.12027088 0.046532799 0.048535462
0.19974026 0.046532799 0.048517443
0.31278837 0.046532799 0.04855901
0.1121192 0.046532799 0.048966728
0.18763784 0.046532795 0.048897456
0.22577843 0.046532799 0.048752263
0.31253427 0.046532799 0.048939724
0.10466957 0.046532795 0.049216211
0.019538013 0.046532799 0.049310558
0.18280594 0.046532795 0.049356129
0.28523076 0.046532799 0.049265396
0.066059887 0.046532802 0.049558558
0.28296596 0.046532799 0.049536064
0.066919193 0.046532799 0.04993229
0.11070292 0.046532802 0.049992468
0.099945992 0.046532799 0.050129015
0.31155947 0.046532799 0.050103083
0.056814231 0.046532799 0.050522242
0.1778104 0.046532795 0.050526548
0.073347569 0.046532802 0.050783541
0.22723827 0.046532795 0.051097821
0.30398214 0.046532799 0.051132649
0.01317039 0.046532799 0.051257577
0.23190311 0.046532799 0.051334605
0.11244649 0.046532795 0.051859744
0.10110089 0.046532799 0.052246138
0.15166451 0.046532799 0.052426722
0.28788131 0.046532799 0.052342087
0.064561099 0.046532799 0.052684955
0.11112327 0.046532799 0.052523177
0.18637833 0.046532799 0.052727148
0.12077472 0.046532799 0.052901909
0.31631288 0.046532799 0.052870408
0.040611204 0.046532802 0.053199273
0.10295241 0.046532799 0.053204596
0.11584041 0.046532799 0.053155053
0.12744898 0.046532799 0.053083383
0.13469733 0.046532799 0.053050555
0.055351779 0.046532795 0.053439021
0.19940156 0.046532802 0.053373717
0.2455181 0.046532802 0.053386431
0.0922646 0.046532799 0.053617917
0.22355938 0.046532795 0.053511251
0.30852097 0.046532799 0.053520642
0.017630015 0.046532799 0.053776085
0.054819312 0.046532799 0.053941529
0.1094824 0.046532799 0.053975623
0.18972361 0.046532799 0.053951837
0.19487128 0.046532795 0.053872228
0.23744178 0.046532799 0.054157443
0.24004008 0.046532799 0.054002643
0.046968438 0.046532802 0.054352947
0.1371344 0.046532802 0.054459892
0.13963276 0.046532795 0.054343641
0.157291 0.046532795 0.054451503
0.087678939 0.046532802 0.054711819
0.13317916 0.046532795 0.054719858
0.15242445 0.046532802 0.054710194
0.15841793 0.046532799 0.054915749
0.20749068 0.046532802 0.054774735
0.015283281 0.046532802 0.055249322
0.12292872 0.046532799 0.055003926
0.065453321 0.046532799 0.055374842
0.2080667 0.046532802 0.055381719
0.026984159 0.046532799 0.055849247
0.051504146 0.046532799 0.055961233
0.18942064 0.046532799 0.055859473
0.1140357 0.046532799 0.05651981
0.30327412 0.046532799 0.056607105
0.14888424 0.046532799 0.056930669
0.24944185 0.046532802 0.056861382
0.011502048 0.046532802 0.057164289
0.027529441 0.046532802 0.057040602
0.1312003 0.046532799 0.057180315
0.17749396 0.046532799 0.057128187
0.29622221 0.046532799 0.057215318
0.15637167 0.046532799 0.057280231
0.17962755 0.046532799 0.05734434
0.23118053 0.046532799 0.057396211
0.0016634585 0.046532799 0.057680547
0.25939155 0.046532799 0.057741214
0.28560948 0.046532799 0.057663444
0.31295621 0.046532799 0.057640422
0.29232624 0.046532802 0.057962045
0.29348773 0.046532799 0.057881415
0.18592635 0.046532799 0.05812018
0.15666239 0.046532799 0.05826686
0.28653252 0.046532799 0.058499731
0.14247663 0.046532799 0.058604315
0.19571441 0.046532799 0.058648113
0.25257537 0.046532795 0.058581971
0.26338485 0.046532795 0.058528781
0.31006536 0.046532799 0.058733478
0.26784846 0.046532799 0.059022084
0.27268168 0.046532799 0.059040684
0.097830355 0.046532799 0.059413046
0.13365938 0.046532799 0.05925028
0.020637633 0.046532795 0.059504952
0.084519759 0.046532795 0.059774153
0.23754409 0.046532799 0.05997039
0.28791207 0.046532799 0.059835047
0.057918914 0.046532795 0.060495231
0.2521143 0.046532799 0.060256284
0.20610392 0.046532802 0.060694464
0.26890412 0.046532795 0.060687117
0.024050178 0.046532799 0.060856834
0.063096501 0.046532799 0.060772128
0.23774764 0.046532795 0.060832445
0.19600327 0.046532802 0.06117839
0.27335835 0.046532799 0.061251312
0.22062355 0.046532795 0.061737373
0.033832703 0.046532795 0.061898701
0.044325687 0.046532802 0.061942413
0.051784236 0.046532799 0.061979432
0.11819993 0.046532799 0.062128562
0.14886603 0.046532799 0.062480085
0.23844638 0.046532795 0.062256925
0.24344695 0.046532799 0.06242973
0.14370216 0.046532795 0.062824383
0.14950261 0.046532802 0.062875725
0.26088768 0.046532802 0.062837981
0.28223321 0.046532799 0.062754981
0.021863829 0.046532802 0.063078523
0.25038028 0.046532799 0.063303389
0.016103812 0.046532799 0.063642979
0.080336571 0.046532799 0.063673459
0.20103884 0.046532799 0.063739873
0.2904647 0.046532799 0.063851692
0.18775791 0.046532799 0.064426996
0.22188064 0.046532799 0.064444937
0.29013032 0.046532799 0.064366721
0.034228511 0.046532799 0.064540952
0.097513773 0.046532795 0.064654268
0.13449499 0.046532799 0.064545117
0.17048185 0.046532799 0.064500503
0.29716301 0.046532799 0.064645037
0.076338455 0.046532802 0.064930134
0.15949099 0.046532799 0.064882904
0.1751065 0.046532799 0.064815454
0.24138309 0.046532799 0.065108627
0.079119697 0.046532795 0.065437697
0.25876349 0.046532799 0.065375537
0.029199455 0.046532799 0.06550844
0.10731226 0.046532799 0.065877683
0.20788416 0.046532802 0.065831475
0.22607696 0.046532795 0.065825768
0.22991951 0.046532802 0.065947488
0.27827194 0.046532799 0.065864734
0.033447199 0.046532799 0.066227712
0.13687985 0.046532799 0.066051044
0.21106522 0.046532799 0.066178165
0.29558575 0.046532799 0.066166751
0.17659602 0.046532799 0.066415235
0.10085176 0.046532799 0.066588722
0.30970839 0.046532799 0.067256428
0.051672168 0.046532799 0.067960136
0.088961951 0.046532795 0.068171166
0.28865814 0.046532799 0.068130918
0.29825428 0.046532799 0.068119474
0.037735291 0.046532795 0.068379715
0.10578515 0.046532802 0.068257309
0.091542967 0.046532799 0.068542324
0.27402344 0.046532799 0.068566158
0.030553751 0.046532802 0.068883196
0.09965492 0.046532799 0.068920381
0.13899386 0.046532799 0.068819955
0.31242076 0.046532799 0.068780541
0.030622967 0.046532799 0.069005713
0.076740973 0.046532795 0.06908977
0.12099293 0.046532799 0.069319062
0.2420105 0.046532799 0.06969355
0.14495406 0.046532799 0.069889717
0.21383683 0.046532795 0.069959357
0.29928553 0.046532802 0.070087582
0.30043763 0.046532802 0.07004834
0.27977961 0.046532799 0.070434414
0.069669344 0.046532799 0.070591621
0.024922904 0.046532795 0.070963494
0.12047188 0.046532799 0.070765227
0.067935795 0.046532795 0.071126662
0.20630115 0.046532802 0.071037382
0.1550439 0.046532799 0.071443766
0.17469981 0.046532802 0.071286626
0.041258488 0.046532799 0.071716554
0.050649598 0.046532799 0.071556844
0.1586588 0.046532802 0.072152309
0.14095707 0.046532799 0.07293807
0.20041099 0.046532802 0.072862834
0.29395777 0.046532799 0.072788052
0.031656303 0.046532799 0.07331156
0.034900118 0.046532799 0.073364489
0.13051948 0.046532795 0.073259264
0.1861416 0.046532799 0.073380284
0.23088747 0.046532799 0.073428601
0.24793977 0.046532802 0.073363505
0.24949801 0.046532799 0.073378168
0.3175 0.046629108 0.073369764
0.020219859 0.046532799 0.07368122
0.026220642 0.046532799 0.073689662
0.2466234 0.046532799 0.073558226
0.26867056 0.046532795 0.073678695
0.294285 0.046532802 0.073528528
0.14116751 0.046532795 0.074748814
0.17393279 0.046532799 0.074637838
0.20363788 0.046532799 0.074562289
0.037195425 0.046532799 0.07487274
0.2326394 0.046532799 0.074770093
0.31564486 0.046532802 0.074874528
0.092888162 0.046532802 0.075166352
0.25231859 0.046532799 0.075063311
0.097008407 0.046532799 0.075447954
0.18865377 0.046532799 0.075327381
0.31120044 0.046532799 0.075432636
0.12715907 0.046532802 0.075661741
0.26202422 0.046532795 0.075878501
0.28012228 0.046532799 0.075798698
0.15385324 0.046532799 0.076160356
0.20555368 0.046532802 0.076053075
0.20968513 0.046532802 0.076105028
0.26527119 0.046532799 0.076191045
0.26220495 0.046532795 0.076330885
0.089339487 0.046532799 0.076717339
0.2174958 0.046532799 0.076653913
0.27562451 0.046532799 0.07672251
0.30942273 0.046532799 0.07667122
0.052406203 0.046532799 0.076990664
0.10978846 0.046532802 0.076844104
0.19298354 0.046532799 0.076844163
0.24998839 0.046532795 0.076847777
0.10762168 0.046532799 0.077295914
0.11147231 0.046532799 0.077355646
0.011860684 0.046532799 0.077596731
0.072273657 0.046532795 0.07774505
0.10901535 0.046532799 0.077687733
0.20958678 0.046532799 0.077549264
0.29893431 0.046532799 0.077698983
0.070630364 0.046532799 0.07796929
0.097362801 0.046532799 0.077873059
0.29159176 0.046532802 0.07776729
0.013300909 0.046532795 0.078145146
0.059600838 0.046532802 0.07802958
0.02936307 0.046532795 0.078360617
0.053539064 0.046532795 0.078487836
0.13724743 0.046532799 0.078419097
0.015900377 0.046532799 0.078530334
0.08964698 0.046532802 0.078518502
0.13477635 0.046532795 0.07869412
0.13647071 0.046532799 0.078604326
0.25327736 0.046532799 0.078610443
0.31011873 0.046532802 0.078626327
0.054747686 0.046532795 0.079272687
0.26565897 0.046532799 0.079463892
0.24516815 0.046532799 0.079729252
0.15212944 0.046532799 0.079760261
0.22003794 0.046532799 0.079880618
0.1720217 0.046532802 0.080028519
0.089853473 0.046532799 0.080318153
0.2905134 0.046532802 0.08026132
0.10363802 0.046532795 0.080560066
0.19850112 0.046532802 0.080723487
0.1820426 0.046532799 0.080828495
0.036800385 0.046532802 0.081192039
0.22616857 0.046532795 0.081131116
0.19870801 0.046532799 0.08136794
0.1456258 0.046532799 0.081671871
0.21090296 0.046532802 0.081628203
0.27395603 0.046532795 0.081541114
0.31624934 0.046532799 0.081626773
0.19233724 0.046532799 0.081949316
0.019802978 0.046532799 0.082141601
0.020993281 0.046532799 0.082287423
0.077617221 0.046532799 0.082438208
0.13321844 0.046532802 0.082486607
0.26477611 0.046532799 0.082457706
0.070618898 0.046532799 0.082642309
0.23693846 0.046532799 0.082725763
0.26337788 0.046532799 0.082583167
0.18288249 0.046532799 0.082972713
0.18309522 0.046532799 0.082759842
0.20671931 0.046532799 0.082981728
0.17923206 0.046532799 0.08307106
0.051404968 0.046532799 0.083299242
0.18944162 0.046532799 0.083572671
0.17770976 0.046532799 0.083897583
0.060799554 0.046532799 0.084176809
0.12150626 0.046532799 0.084095947
0.21929035 0.046532799 0.084073283
0.090869404 0.046532799 0.084375821
0.00053990982 0.046532795 0.084618397
0.048663229 0.046532799 0.084614135
0.2287381 0.046532799 0.084558286
0.26138788 0.046532799 0.084646247
0.075578883 0.046532799 0.084982522
0.15010777 0.046532799 0.084795617
0.161148 0.046532799 0.08486557
0.22393355 0.046532799 0.084791414
0.19835234 0.046532799 0.085150927
0.22726606 0.046532799 0.085197859
0.1488717 0.046532799 0.08567217
0.0073188045 0.046532795 0.085795268
0.13923694 0.046532799 0.085923396
0.07701391 0.046532799 0.086221337
0.1410704 0.046532799 0.086178228
0.16174939 0.046532799 0.086749375
0.26111341 0.046532799 0.086611547
0.27135801 0.046532799 0.086634591
0.0028446498 0.046532799 0.086915225
0.0095677506 0.046532799 0.087108918
0.059981003 0.046532795 0.087294094
0.0021993048 0.046532799 0.087696075
0.011280093 0.046532799 0.087606959
0.14869885 0.046532802 0.087604553
0.14019527 0.046532799 0.087997235
0.22313233 0.046532799 0.08782763
0.27006045 0.046532802 0.087817438
0.12740104 0.046532799 0.088068426
0.018208362 0.046532795 0.088716887
0.048175164 0.046532799 0.088920765
0.14592032 0.046532799 0.088985749
0.174183 0.046532799 0.088805921
0.174438 0.046532799 0.088906176
0.2263359 0.046532799 0.08889538
0.27612919 0.046532799 0.088783734
0.11806819 0.046532799 0.089173414
0.095731445 0.046532799 0.089321256
0.27650803 0.046532799 0.089361407
0.035815567 0.046532802 0.089541472
0.16927619 0.046532799 0.089762159
0.17694484 0.046532799 0.089814782
0.27645493 0.046532799 0.089875214
0.015631983 0.046532795 0.090003647
0.065631919 0.046532799 0.090085499
0.067887105 0.046532799 0.090508446
0.15504503 0.046532795 0.090607248
0.24836348 0.046532799 0.090597786
0.078369901 0.046532799 0.090951778
0.11339701 0.046532799 0.090987273
0.31618536 0.046532799 0.090890832
0.083379187 0.046532799 0.091230191
0.15032913 0.046532799 0.091218226
0.22990865 0.046532799 0.091106661
-4.3308042e-18 0.046670645 0.091408297
0.22651006 0.046532799 0.091387935
0.15035844 0.046532799 0.09162499
0.20570976 0.046532799 0.091500394
0.11616445 0.046532799 0.0918433
0.2531971 0.046532802 0.091986366
0.053219371 0.046532795 0.092039011
0.074052922 0.046532799 0.092057578
0.30800316 0.046532799 0.092002526
0.13206974 0.046532799 0.092498958
0.16302405 0.046532799 0.092288099
0.2359259 0.046532799 0.092474185
0.0086552799 0.046532799 0.092602603
0.037697013 0.046532795 0.092695013
0.31319764 0.046532799 0.092598319
0.055465847 0.046532799 0.092833586
0.010194943 0.046532802 0.093174092
0.043062553 0.046532802 0.093067892
0.1606871 0.046532799 0.093406774
0.17322859 0.046532795 0.093469001
0.1486008 0.046532799 0.093571626
0.20820299 0.046532799 0.093619205
0.29419667 0.046532799 0.093533449
0.10176565 0.046532802 0.093880914
0.24799585 0.046532802 0.093780555
0.138365 0.046532802 0.09400291
0.29972529 0.046532802 0.094085246
0.0040141623 0.046532802 0.094296306
0.097508445 0.046532802 0.094260775
0.23793504 0.046532802 0.094710365
0.26384714 0.046532806 0.094719216
0.31108391 0.046532799 0.094763562
0.086597152 0.046532802 0.095463894
0.15499648 0.046532806 0.095710218
0.15876019 0.046532802 0.095563658
0.28937745 0.046532806 0.095520593
0.020241113 0.046532802 0.095914818
0.1593456 0.046532802 0.09615241
0.30565232 0.046532806 0.096113771
0.22567886 0.046532802 0.096486248
0.27846527 0.046532806 0.096280083
0.019942703 0.046532802 0.096987881
0.11873878 0.046532802 0.097135358
0.16309255 0.046532802 0.097068332
0.2640357 0.046532806 0.097115301
0.06607803 0.046532802 0.097430058
0.17834499 0.046532802 0.097457655
0.14750126 0.046532802 0.097723342
0.15479547 0.046532802 0.097711049
0.1039089 0.046532802 0.097844265
0.15906723 0.046532806 0.097942598
0.18745057 0.046532802 0.097838998
0.21651763 0.046532802 0.097880289
0.049141254 0.046532802 0.098001875
0.12860176 0.046532802 0.098128177
0.1672394 0.046532806 0.098195769
0.21181726 0.046532802 0.098014586
0.30294302 0.046532802 0.098073743
0.034107294 0.046532802 0.098353662
0.038306847 0.046532802 0.098370425
0.073803976 0.046532802 0.098355301
0.19017538 0.046532802 0.098424256
0.10725088 0.046532802 0.098589279
0.31358448 0.046532802 0.098976791
0.073148116 0.046532802 0.099152125
0.28518179 0.046532802 0.099003837
0.02553588 0.046532799 0.099708281
0.027453333 0.046532802 0.099637739
0.18606184 0.046532802 0.099532537
0.23150781 0.046532802 0.099721298
0.2488454 0.046532799 0.099599071
0.17143066 0.046532802 0.099903077
0.17737547 0.046532802 0.099992551
0.23964298 0.046532806 0.099995054
0.0078399787 0.046532806 0.10024117
0.021701435 0.046532802 0.1009347
0.040593203 0.046532802 0.10095561
0.18372285 0.046532802 0.10093382
0.28882653 0.046532802 0.10111075
0.010526554 0.046532802 0.10145769
0.032948393 0.046532802 0.10132027
0.10293015 0.046532802 0.10141909
0.29915008 0.046532806 0.10131514
0.010896325 0.046532802 0.10211062
0.046567846 0.046532806 0.10247412
0.047856033 0.046532802 0.10237134
0.24106248 0.046532806 0.10235228
0.30493045 0.046532802 0.10234986
0.30846795 0.046532802 0.10242714
0.16084519 0.046532802 0.10296261
0.19521087 0.046532802 0.10319984
0.25501898 0.046532802 0.10319337
0.26703101 0.046532806 0.10313104
0.08231172 0.046532802 0.10344287
0.18972419 0.046532802 0.10332318
0.23328412 0.046532799 0.1034686
0.28229836 0.046532806 0.10371971
0.07725051 0.046532799 0.10398277
0.16173767 0.046532802 0.10414203
0.21518809 0.046532802 0.10448537
0.13422507 0.046532802 0.10456628
0.14511088 0.046532806 0.10474287
0.15584636 0.046532802 0.10468199
0.059034042 0.046532799 0.10495039
0.10642891 0.046532806 0.10490286
0.20623514 0.046532802 0.10493367
0.19908395 0.046532802 0.10510648
0.22346981 0.046532802 0.10548303
0.046101682 0.046532802 0.10559141
0.21034658 0.046532802 0.10565516
0.028353656 0.046532806 0.10575384
0.069376439 0.046532799 0.1057955
0.039725982 0.046532802 0.10617022
0.043257553 0.046532802 0.10617476
0.31460828 0.046532802 0.10653741
0.31504014 0.046532802 0.10667332
0.13001162 0.046532802 0.10685952
0.04660029 0.046532802 0.10722152
0.035662729 0.046532802 0.10757671
0.14768991 0.046532802 0.10772801
0.17148861 0.046532802 0.10768648
0.0030914154 0.046532802 0.10792099
0.064508446 0.046532802 0.10799526
0.19852941 0.046532802 0.10781332
0.22992893 0.046532806 0.10795866
0.077013619 0.046532806 0.10805821
0.15129243 0.046532802 0.10802215
0.26390544 0.046532802 0.10817795
0.03174739 0.046532802 0.10838471
0.080089375 0.046532799 0.10829385
0.026552644 0.046532799 0.10864972
0.13047841 0.046532802 0.10860765
0.1768446 0.046532806 0.10868106
0.18227953 0.046532806 0.10858417
0.21433209 0.046532806 0.1085062
0.11340572 0.046532806 0.10886507
0.21305068 0.046532806 0.10875309
0.14500739 0.046532806 0.10914651
0.24174713 0.046532802 0.1090573
0.13793196 0.046532802 0.10939332
0.19757178 0.046532802 0.10929913
0.21223821 0.046532806 0.10999154
0.23170163 0.046532802 0.11001357
0.20673104 0.046532802 0.11044848
0.24196193 0.046532802 0.11049581
0.26624244 0.046532802 0.11073034
0.0023079433 0.046532799 0.11135652
0.11448724 0.046629217 0.1114298
0.2074661 0.046575412 0.1114298
0.22577521 0.046337534 -2.7619325e-09
0.01143 0.046345279 0.015019579
0.160401 0.046422724 0.02016779
0.01143 0.046269592 0.063352644
0.24572363 0.046181981 -2.7526608e-09
0.131273 0.046147231 0.0080517959
0.17944431 0.046176657 0.0080517959
0.01143 0.046031702 0.025694588
0.160401 0.046233371 0.045658331
0.01143 0.046022855 0.075092405
0.079974428 0.045996774 -2.7416216e-09
0.15133153 0.04597304 -2.740207e-09
0.16604489 0.045893304 -2.7354543e-09
0.160401 0.045830481 0.011146313
0.01143 0.045889545 0.064105809
0.021193348 0.045549516 -2.7149629e-09
0.036619104 0.04563975 -2.7203413e-09
0.18458362 0.045567717 -2.7160478e-09
0.20704505 0.045723237 -2.7253175e-09
0.31250283 0.045745548 -2.7266474e-09
0 0.045520507 0.0047076461
0.26671222 0.045675788 0.0080517959
0.29636413 0.045616716 0.0080517959
0.0019049998 0.045570277 0.067457117
0.065598115 0.045466606 -2.7100211e-09
0.068860695 0.045279663 -2.6988785e-09
0.12998289 0.045369763 -2.7042488e-09
0.15185727 0.045323063 -2.7014653e-09
0.169926 0.04541973 0.056481488
0.160401 0.045457587 0.073139854
0.081225052 0.044918004 -2.6773219e-09
0.13147897 0.044870578 -2.6744951e-09
0.29466873 0.044966977 -2.6802409e-09
0.0400283 0.044766188 0.0080517959
0.0019050001 0.044952039 0.038210481
0.12106859 0.04455477 -2.6556715e-09
0.14048783 0.04450655 -2.6527973e-09
0.27674401 0.044543047 -2.6549727e-09
0.05445132 0.04469749 0.0080517959
0.13039447 0.044567794 0.0080517959
0.160401 0.044530582 0.029089078
0.011430001 0.044525791 0.061739717
0.160401 0.044695038 0.074164435
0.097148828 0.044495467 -2.6521367e-09
0.012988319 0.04436392 0.0080517959
0.21530022 0.04429267 0.0080517959
0.27414051 0.044261996 0.0080517959
0.14072873 0.044145115 -2.6312541e-09
0.20060095 0.044084538 0.0080517959
0.26894784 0.0441765 0.0080517959
0.160401 0.044227365 0.0092394752
0.057940003 0.043928746 -2.6183575e-09
0.15818541 0.043941744 -2.6191322e-09
0.23534998 0.043935154 -2.6187394e-09
0.18550213 0.043830924 0.0080517959
0.23019691 0.043926988 0.0080517959
0.3110961 0.043934017 0.0080517959
0.01143 0.043911953 0.025615621
0.16040102 0.043808546 0.065333739
0.001905 0.04358574 0.036276408
0.069783397 0.043375362 -2.5853732e-09
0.079226688 0.043356389 -2.5842424e-09
0.17122956 0.043359734 -2.5844418e-09
0.24639156 0.043487076 -2.5920319e-09
0.046606567 0.043368131 0.0080517959
0.047235586 0.04338127 0.0080517959
0.001905 0.04331458 0.080387361
0.15932837 0.043089822 -2.5683538e-09
0.27150318 0.043016829 -2.564003e-09
0.067455694 0.043189794 0.0080517959
0.1087873 0.043044548 0.0080517959
0.12462644 0.04314483 0.0080517959
0.02682822 0.04291128 0.0080517959
0.156293 0.042959761 0.0080517959
0.29057565 0.042898897 0.0080517959
0.30637521 0.042802159 0.0080517959
0.31317076 0.042948764 0.0080517959
0.001905 0.042936657 0.0088355634
0.169926 0.042872787 0.041519865
0.011429999 0.042786356 0.07362245
0.169926 0.042834748 0.074958816
0.10313782 0.04265669 -2.5425371e-09
0.20830707 0.042620908 -2.5404043e-09
0.27919069 0.042698 -2.5449993e-09
0.046049763 0.042632475 0.0080517959
0.083692446 0.042534452 0.0080517959
0.1504814 0.042578418 0.0080517959
0.001905 0.042538635 0.015074573
0.001905 0.042599704 0.01806023
0.011429999 0.042535171 0.05467698
0.029233921 0.042267945 0.0080517959
0.038573124 0.042320341 0.0080517959
0.12859549 0.04247614 0.0080517959
0.1799784 0.042476021 0.0080517959
0.160401 0.042311095 0.018599885
0.160401 0.042345729 0.067540251
0.0019050001 0.042416979 0.081989825
0.082692012 0.042023491 0.0080517959
0.19613476 0.042139564 0.0080517959
0.31717649 0.042237416 0.0080517959
0.169926 0.042224187 0.0092441766
0.0019050001 0.042063486 0.029057387
0.09304449 0.041987028 -2.5026221e-09
0.095989041 0.041946854 -2.5002276e-09
0.15415892 0.041841254 -2.4939333e-09
0.23022591 0.041956555 -2.5008058e-09
0.3175 0.041987877 0.0010306122
0.18279929 0.041873753 0.0080517959
0.29349077 0.041931331 0.0080517959
0.30475345 0.041781779 0.0080517959
0.169926 0.0419573 0.029996293
0.169926 0.041933618 0.0768582
0.064624846 0.041513894 -2.4744211e-09
0.17762065 0.041688126 -2.4848061e-09
0.20977682 0.041706733 0.0080517959
0.16992599 0.041717641 0.048118994
0.085487135 0.041419841 0.0080517959
0.18763821 0.041387647 0.0080517959
0.011429999 0.041364558 0.035284996
0.01143 0.041324794 0.036452059
0.0096283369 0.041187257 -2.454952e-09
0.11035467 0.041225214 -2.4572144e-09
0.11076353 0.041148182 -2.452623e-09
0.30450785 0.041045506 -2.446503e-09
0.31018826 0.041051831 -2.44688e-09
0.01143 0.041070811 0.045136724
0.001905 0.041196834 0.071722642
0.160401 0.041086432 0.07878565
0.16274229 0.041121773 0.084226392
0.10790018 0.040967636 -2.4418616e-09
0.22931644 0.04080506 -2.4321714e-09
0.3047623 0.040784195 -2.4309277e-09
0.033462211 0.04083078 0.0080517959
0.04437362 0.040850542 0.0080517959
0.13678622 0.040766481 0.0080517959
0.21079206 0.04082549 0.0080517959
0.16992602 0.040936865 0.063853011
0.091324821 0.04058047 -2.4187847e-09
0.13041426 0.040548887 -2.4169022e-09
0.16992602 0.040612407 0.029801561
0.01143 0.04062935 0.030058023
0.16040099 0.040737789 0.041505948
0.011429999 0.040571332 0.059330322
0.11601967 0.040422779 0.0080517959
0.160401 0.040467944 0.065214604
0.169926 0.040393822 0.069371201
0.0050637545 0.040436715 0.085039191
0.29745927 0.040080007 -2.3889548e-09
0.30574226 0.0400704 -2.3883822e-09
0.011429999 0.040025327 0.048108742
0.13485958 0.039974183 -2.3826472e-09
0.15690412 0.039934784 -2.3802988e-09
0.11963903 0.039918091 0.0080517959
0.20686004 0.039781552 0.0080517959
0.169926 0.039812341 0.010461088
0.16040102 0.0399721 0.01837928
0.01143 0.039781004 0.084725775
0.093379013 0.039537396 -2.3566127e-09
0.16193718 0.039714463 -2.3671667e-09
0.19559455 0.03957139 -2.3586388e-09
0.26094586 0.039642498 -2.3628772e-09
0.29057464 0.039599869 -2.3603364e-09
0.24485347 0.039587222 0.0080517959
0.01143 0.039567646 0.022464175
0.160401 0.039697032 0.02553731
0.169926 0.039574679 0.053714
0.01143 0.039589956 0.057729717
0.11014041 0.039470121 -2.3526028e-09
0.01143 0.039324991 0.049307436
0.022308625 0.039148428 -2.3334283e-09
0.084958248 0.039226681 -2.3380926e-09
0.050143823 0.039088584 0.0080517959
0.1230223 0.039134536 0.0080517959
0.16992602 0.039178234 0.0090166088
0.16992602 0.039213993 0.048799887
0.01143 0.039101519 0.049657032
0.3175 0.038839635 0.0014698234
0.27836615 0.03890641 0.0080517968
0.28671169 0.038836498 0.0080517968
0.2921595 0.038839199 0.0080517968
0.16992602 0.038951296 0.032572571
0.169926 0.038767107 0.052010879
0.160401 0.038771577 0.061174151
0.070750341 0.038590878 -2.3001958e-09
0.19578092 0.038505722 0.0080517968
0.24348991 0.03874566 0.0080517968
0.01143 0.038703255 0.032814056
0.10042299 0.038322348 -2.2841902e-09
0.083313726 0.038329773 0.0080517968
0.169926 0.038347557 0.0083430344
0.169926 0.038372099 0.018853761
0.0019049998 0.038300153 0.059803855
0.160401 0.038311072 0.066688366
0.075969823 0.03816805 -2.2749933e-09
0.24144281 0.038142115 -2.2734474e-09
0.033824392 0.038088739 0.0080517968
0.16992602 0.038006131 0.011302372
0.160401 0.038085077 0.024601897
0.01143 0.038003959 0.065727569
0.12527861 0.037990734 0.0080517968
0.30385774 0.03779728 0.0080517968
0.01143 0.037864186 0.055872861
0.079258591 0.037548188 -2.2380466e-09
0.019848464 0.037508789 0.0080517968
0.040200908 0.037723172 0.0080517968
0.10437229 0.037616864 0.0080517968
0.14670639 0.037516672 0.0080517968
0.26746973 0.037502944 0.0080517968
0.001905 0.037639804 0.014774251
0.160401 0.037546031 0.036133286
0.011429999 0.037607282 0.0500728
0.13844718 0.037360478 -2.2268583e-09
0.2358633 0.037356947 -2.2266478e-09
0.095937289 0.03738879 0.0080517968
0.26795617 0.037384797 0.0080517968
0.011429999 0.037493661 0.042446874
0.0019049998 0.037299491 0.060713515
0.063750237 0.037039608 -2.2077329e-09
0.16309914 0.037057538 -2.2088016e-09
0.14648391 0.037142143 0.0080517968
0.0019049998 0.03716135 0.0228492
0.169926 0.037131242 0.054432295
0.0019049998 0.037218757 0.070915431
0.036320701 0.036891732 -2.1989188e-09
0.14861023 0.036755342 0.0080517968
0.28281248 0.036902294 0.0080517968
0.0019050001 0.036878191 0.051975857
0.160401 0.036941286 0.055826314
0.001905 0.036772493 0.062130623
0.16040102 0.036760017 0.064006209
0.088360891 0.036706265 -2.1878641e-09
0.13746716 0.03670717 -2.1879181e-09
0 0.036749449 0.0035511954
0.10038169 0.036609672 0.0080517968
0.001905 0.036616251 0.025081852
0.001905 0.036555108 0.07482522
0.020959826 0.03647105 0.0080517968
0.23696318 0.036470421 0.0080517968
0.26611468 0.036324076 0.0080517968
0.16578785 0.036282536 0.084226392
0.12959395 0.036027864 -2.1474282e-09
0.18448596 0.036175605 -2.1562343e-09
0.169926 0.036145084 0.010160262
0.0019050001 0.036210544 0.05921495
0.14718962 0.035841092 -2.1362958e-09
0.21484919 0.035829708 -2.1356172e-09
0.22040585 0.035934806 -2.1418816e-09
0.23848332 0.035984594 -2.1448492e-09
0.19712715 0.035782237 0.0080517968
0.16040099 0.035840515 0.050535824
0.12272705 0.035618946 -2.1230548e-09
0.043661397 0.035513505 0.0080517968
0.11415266 0.03567354 0.0080517968
0.12667015 0.035678584 0.0080517968
0.0043469896 0.035464153 -2.1138284e-09
0.083478428 0.035357699 -2.1074833e-09
0.12609623 0.035324216 -2.1054876e-09
0.1454678 0.03530322 -2.1042361e-09
0.016059831 0.035391055 0.0080517968
0.19783929 0.035468396 0.0080517968
0.072266169 0.035113722 0.0080517968
0.12004665 0.03508535 0.0080517968
0.001905 0.035025697 0.081544966
0.23812595 0.034877039 -2.0788338e-09
0.07621038 0.034952264 0.0080517968
0.169926 0.034934375 0.031482015
0.16992602 0.034805659 0.041986719
0.0072266702 0.034513608 -2.0571715e-09
0.20657851 0.034726311 -2.0698496e-09
0.21726392 0.034601983 -2.0624391e-09
0.22641003 0.034574948 -2.0608277e-09
0.036848914 0.034518693 0.0080517968
0.16992602 0.034520511 0.064941473
0.12070157 0.034293875 0.0080517968
0.20730874 0.034413062 0.0080517968
0.23084542 0.034347206 0.0080517968
0.16241817 0.034412008 0.084226392
0.060269192 0.034002304 -2.0266955e-09
0.14735156 0.034166772 -2.0364985e-09
0.018473532 0.034168929 0.0080517968
0.160401 0.034137592 0.02240476
0.001905 0.034150776 0.077279173
0.17588912 0.033857767 -2.0180804e-09
0.20790632 0.033891685 -2.0201021e-09
0.24681984 0.033862676 -2.018373e-09
0.25666258 0.0338271 -2.0162525e-09
0.12893242 0.033959635 0.0080517968
0.15493253 0.033989474 0.0080517968
0.27037546 0.033877771 0.0080517968
0.16040099 0.033974528 0.019378342
0.160401 0.033894032 0.034476697
0.160401 0.033930041 0.042333085
0.0019050001 0.033787567 0.044300221
0.001905 0.033760205 0.081880912
0.31525806 0.03365032 -2.0057156e-09
0.13063535 0.033682633 0.0080517968
0.169926 0.033571985 0.0096313972
0.169926 0.033512712 0.013830259
0.046283342 0.033041734 -1.9694411e-09
0.15431246 0.033085804 -1.9720678e-09
0.22077549 0.0330231 -1.9683304e-09
0.25816596 0.03306349 -1.9707378e-09
0.076155275 0.03301527 0.0080517968
0.15396781 0.033161785 0.0080517968
0.18399245 0.033069633 0.0080517968
0.11509039 0.032760881 -1.9527009e-09
0.16308559 0.032899991 -1.9609925e-09
0.19937252 0.032868888 -1.9591386e-09
0.21378557 0.032810919 -1.9556834e-09
0.04894685 0.032998998 0.0080517968
0.2807456 0.032839563 0.0080517968
0.01143 0.032921761 0.056429833
0.25732124 0.032574262 -1.9415776e-09
0.27638626 0.032731686 -1.9509607e-09
0.072784968 0.03265335 0.0080517968
0.078950696 0.032632485 0.0080517968
0.15524907 0.0327264 0.0080517968
0.01143 0.032603219 0.059577506
0.0079230908 0.032412373 -1.9319282e-09
0.029347224 0.032493662 -1.9367734e-09
0.063947953 0.032307144 -1.9256561e-09
0.17302042 0.032444682 0.0080517968
0.2763924 0.03225714 0.0080517968
0.30405095 0.03241111 0.0080517968
0.30825594 0.03246801 0.0080517968
0.160401 0.032358646 0.037031088
0.01143 0.032378256 0.054545708
0.01143 0.032371141 0.060613498
0.01896257 0.032114476 -1.9141722e-09
0.076370157 0.032059953 0.0080517968
0.088084728 0.032040678 0.0080517968
0.11515544 0.032233857 0.0080517968
0.24393198 0.032097701 0.0080517968
0.169926 0.032040194 0.055082753
0.001905 0.032083411 0.064221926
0.10697085 0.031946018 -1.9041313e-09
0.14333978 0.031920418 0.0080517968
0.001905 0.031808019 0.013251972
0.1066999 0.031624541 -1.8849697e-09
0.11573073 0.031604886 -1.8837982e-09
0.19458111 0.031715892 -1.8904147e-09
0 0.031508949 0.0063495939
0.01143 0.031619005 0.010246036
0.160401 0.031712323 0.029843204
0.160401 0.031662181 0.052114911
0.056048561 0.031373128 -1.8699844e-09
0.040796891 0.031493589 0.0080517968
0.0019050001 0.031347789 0.076726831
0.0018139109 0.031066762 -1.8517234e-09
0.0057690693 0.031142591 -1.8562432e-09
0.050625693 0.031216187 -1.8606299e-09
0.069443569 0.031147879 -1.8565584e-09
0.21424054 0.031100225 -1.853718e-09
0.21467605 0.031145288 -1.8564039e-09
0.30072558 0.031161651 -1.8573793e-09
0.3175 0.031146184 0.006194117
0.02868172 0.03124461 0.0080517968
0.12620981 0.031164523 0.0080517968
0.20461974 0.031049429 0.0080517968
0.0019049998 0.031009838 0.015883677
0.160401 0.03110661 0.039879214
0.001905 0.031097759 0.056308936
0.16856325 0.030918149 -1.8428654e-09
