# .PCD v0.7 - Point Cloud Data file format
VERSION 0.7
FIELDS x y z
SIZE 4 4 4
TYPE F F F
COUNT 1 1 1
WIDTH 1341
HEIGHT 1
VIEWPOINT 0 0 0 1 0 0 0
POINTS 1341
DATA ascii
-0.21023059 -0.6716544 0.036589805
-0.1038433 -0.67170572 0.036638379
-0.11602125 -0.66310781 0.036788199
-0.11456918 -0.6638326 0.0361747
-0.11098885 -0.66308713 0.036763187
-0.10986294 -0.66381145 0.036151823
-0.1228559 -0.65529525 0.036605302
-0.11801771 -0.65531069 0.036625236
-0.11626102 -0.65529394 0.036598876
-0.11282878 -0.65530062 0.036626402
-0.14072083 -0.6482479 0.036072984
-0.11966949 -0.64821786 0.036041345
-0.11664758 -0.64826107 0.036078889
-0.1400366 -0.64755166 0.036711849
-0.1285933 -0.64752984 0.036664344
-0.12635717 -0.64755815 0.036700863
-0.12463809 -0.64754587 0.036709674
-0.12102479 -0.64749891 0.036640827
-0.28866169 -0.64056784 0.036414128
-0.14438704 -0.64052099 0.036354963
-0.14212891 -0.64052945 0.036357038
-0.13141662 -0.64050758 0.036337636
-0.12928125 -0.64053559 0.036362521
-0.28083229 -0.63359267 0.036312621
-0.27973291 -0.63360745 0.036315642
-0.27610072 -0.63360959 0.036313694
-0.14947435 -0.63358259 0.036303565
-0.13433401 -0.63361067 0.036311373
-0.13040602 -0.63358629 0.03629129
-0.1286193 -0.63356209 0.036267649
-0.27726352 -0.63283747 0.036910694
-0.13623948 -0.63289386 0.036942162
-0.13225676 -0.63290685 0.03695412
-0.13043065 -0.63290918 0.036956318
-0.12652487 -0.63286024 0.036881555
-0.27659085 -0.62672037 0.036450006
-0.27304193 -0.6266489 0.036404293
-0.26662853 -0.62667972 0.036416039
-0.25656232 -0.62663364 0.036361638
-0.23002517 -0.62662071 0.036358513
-0.13841882 -0.6266886 0.036418077
-0.25658181 -0.62052214 0.036084093
-0.217933 -0.62053627 0.036104023
-0.14216542 -0.62050611 0.036092512
-0.25027826 -0.61984807 0.036772382
-0.15479971 -0.61982548 0.036743727
-0.14718951 -0.61985683 0.036780816
-0.14506349 -0.61980844 0.036705855
-0.13896136 -0.61985618 0.036772292
-0.13794155 -0.61987191 0.036787391
-0.24755472 -0.61368722 0.036602072
-0.24364379 -0.61369604 0.036618978
-0.20237671 -0.6136722 0.036583371
-0.24166746 -0.60767233 0.036713287
-0.2387619 -0.60756749 0.036618784
-0.23770902 -0.60761917 0.036652222
-0.22914164 -0.60763812 0.036695734
-0.19613717 -0.60764515 0.036676198
-0.19111988 -0.60761285 0.036651887
-0.16663228 -0.60758454 0.036608387
-0.16445528 -0.60762566 0.036647286
-0.14864267 -0.60761499 0.036643248
-0.23035233 -0.60217589 0.036111984
-0.21999927 -0.60222512 0.036168534
-0.21886797 -0.60224771 0.036193401
-0.21777783 -0.60223466 0.036170453
-0.1484662 -0.60222989 0.036174931
-0.14379275 -0.60224396 0.03618652
-0.2220972 -0.60161543 0.036894269
-0.21641602 -0.60155827 0.036843855
-0.16935468 -0.60161781 0.036916554
-0.16827908 -0.60162657 0.036925282
-0.16722721 -0.60163361 0.036921017
-0.16613783 -0.60162288 0.036922313
-0.1535448 -0.60160404 0.03691069
-0.1492639 -0.60160321 0.03689168
-0.20946406 -0.59627146 0.036590736
-0.15559308 -0.59624821 0.036591921
-0.14698891 -0.59623301 0.036553103
-0.20007809 -0.59096229 0.036444709
-0.19895878 -0.59094751 0.03644051
-0.15045366 -0.59091437 0.036401466
-0.19887017 -0.58565223 0.036396194
-0.18914425 -0.58566505 0.036399066
-0.1633056 -0.58559817 0.036339827
-0.18844172 -0.58041906 0.036539763
-0.17552011 -0.58038688 0.036514696
-0.16542923 -0.58039731 0.036517456
-0.17902002 -0.57579744 0.036047522
-0.17807671 -0.57521313 0.036819275
-0.17798544 -0.57579464 0.036047861
-0.16405317 -0.57519072 0.036806431
-0.16219115 -0.5751878 0.036801402
-0.15959394 -0.57580942 0.036063161
-0.19944246 -0.68829387 0.03767994
-0.20508625 -0.67882478 0.037841402
-0.20393068 -0.67885482 0.037859667
-0.20280707 -0.67887324 0.037889123
-0.10475861 -0.67886317 0.03787687
-0.10750442 -0.67097878 0.037225876
-0.10605965 -0.67097181 0.037221774
-0.10457488 -0.67097741 0.037222348
-0.1142294 -0.66238803 0.037378084
-0.11740316 -0.66165662 0.037980441
-0.11059624 -0.66165257 0.037967473
-0.11411766 -0.65456527 0.037209745
-0.12575063 -0.65381795 0.037777852
-0.12252571 -0.65386182 0.037828125
-0.11918496 -0.65388644 0.03785377
-0.14406028 -0.64610904 0.037925515
-0.14148176 -0.64615035 0.037963271
-0.13901457 -0.64614481 0.037965227
-0.13864616 -0.64614713 0.03796193
-0.13038152 -0.64683932 0.037325557
-0.11932793 -0.64680117 0.037280586
-0.11784326 -0.64684808 0.037328754
-0.29049534 -0.6398508 0.037030231
-0.28944954 -0.63986123 0.037058126
-0.28509694 -0.63983977 0.037030723
-0.14580785 -0.63984454 0.037020851
-0.13290246 -0.63913006 0.037649039
-0.12898882 -0.63913453 0.037632357
-0.12727298 -0.63913751 0.037661426
-0.12358984 -0.63983512 0.037005287
-0.28378189 -0.63222957 0.037598323
-0.28267336 -0.63215256 0.037535299
-0.13404992 -0.63223022 0.037607238
-0.27059773 -0.6260125 0.037094269
-0.22535375 -0.62604004 0.037098989
-0.22861789 -0.62598938 0.037085593
-0.22750279 -0.62599504 0.037076157
-0.22611518 -0.62535703 0.037774537
-0.15432048 -0.62534237 0.037760101
-0.25715223 -0.61912453 0.037422594
-0.25430039 -0.61920249 0.037462905
-0.25324693 -0.61919659 0.037462868
-0.2521328 -0.61911118 0.03737168
-0.25101379 -0.61914062 0.037407484
-0.24817315 -0.61921376 0.037486568
-0.15728231 -0.61916006 0.037413016
-0.13652703 -0.61921161 0.037472732
-0.13542847 -0.61918449 0.037462112
-0.24439254 -0.61309755 0.037348874
-0.23176999 -0.61305439 0.037313089
-0.16175485 -0.61302453 0.037287466
-0.1605663 -0.61305308 0.03729976
-0.14637247 -0.61307341 0.037328538
-0.19653898 -0.60700029 0.037383303
-0.22341597 -0.60699677 0.037364956
-0.22232865 -0.60698533 0.037378013
-0.1939635 -0.60699296 0.037367091
-0.16529647 -0.60694671 0.037319265
-0.15197569 -0.60698205 0.03736705
-0.20677429 -0.60101497 0.037645578
-0.21754943 -0.60098726 0.037635598
-0.18393902 -0.60095817 0.037616
-0.1712499 -0.6009165 0.037570909
-0.15616502 -0.60095286 0.037606064
-0.15433592 -0.60092968 0.037573736
-0.15039672 -0.60094631 0.037580226
-0.21844584 -0.59561956 0.037292615
-0.15637809 -0.59562624 0.037313893
-0.19656031 -0.59023851 0.037073202
-0.19436617 -0.59032595 0.0371571
-0.1570272 -0.59025908 0.037088957
-0.1537403 -0.5903244 0.037161283
-0.16322023 -0.58968931 0.037896801
-0.16034836 -0.58972204 0.037908453
-0.18428522 -0.58505094 0.037153944
-0.17604342 -0.58502966 0.037141282
-0.19329278 -0.58497626 0.037088253
-0.1908104 -0.58444744 0.037902784
-0.16102676 -0.58440608 0.037872076
-0.15980947 -0.57976013 0.037244353
-0.174942 -0.57460868 0.037593883
-0.2001493 -0.68756825 0.03827586
-0.19769502 -0.68754047 0.038250323
-0.19663213 -0.68753368 0.038248997
-0.19545439 -0.68753511 0.038225304
-0.19075382 -0.68757039 0.038287044
-0.20089519 -0.68681365 0.038842265
-0.18932508 -0.6868248 0.038838387
-0.10287465 -0.67811006 0.038436856
-0.21168371 -0.66879135 0.038984641
-0.20953459 -0.6687212 0.038906045
-0.20848741 -0.66871977 0.038913816
-0.10993223 -0.66874164 0.038933057
-0.11560013 -0.66167557 0.038000707
-0.11732465 -0.65317369 0.03846667
-0.14081784 -0.64544445 0.038588569
-0.12793109 -0.64541441 0.038544077
-0.29308426 -0.63845301 0.038334548
-0.28230068 -0.63845664 0.038315885
-0.14482428 -0.63843179 0.038267951
-0.27980807 -0.63770026 0.038908575
-0.14740218 -0.63777655 0.038966283
-0.1344474 -0.63777238 0.038962975
-0.28021175 -0.63153625 0.038266305
-0.27549812 -0.63153577 0.03826398
-0.14922909 -0.63153279 0.038267121
-0.14997971 -0.63082349 0.038884319
-0.25993887 -0.62462926 0.038410041
-0.22655255 -0.62464607 0.038419504
-0.15254539 -0.62465525 0.038420871
-0.137899 -0.62465388 0.038425606
-0.25787929 -0.61849618 0.038115326
-0.21660161 -0.61855841 0.038154576
-0.21267888 -0.61844361 0.038052309
-0.15814325 -0.61849838 0.038112115
-0.15630914 -0.61782712 0.038771257
-0.20421135 -0.61242515 0.038012344
-0.20070606 -0.61240369 0.038022529
-0.20464911 -0.61176127 0.038704701
-0.20291176 -0.61171365 0.038666494
-0.16407819 -0.61175257 0.03870143
-0.14715552 -0.61176497 0.038714685
-0.1435596 -0.61174697 0.038694732
-0.23497997 -0.60636896 0.038099643
-0.19447865 -0.60633415 0.038074918
-0.19158083 -0.60631955 0.038061764
-0.16170779 -0.60633999 0.038093943
-0.14699697 -0.60631418 0.038058121
-0.20863716 -0.60029995 0.03830348
-0.17929982 -0.60029018 0.03829639
-0.16992605 -0.60029972 0.038304392
-0.15476115 -0.60029149 0.038300965
-0.17139275 -0.59964573 0.038991436
-0.20424102 -0.59500283 0.038035132
-0.212568 -0.59432358 0.038708083
-0.17690645 -0.57859665 0.038800787
-0.16974604 -0.57862604 0.038824089
-0.16312771 -0.57863873 0.038818687
-0.18796544 -0.68605632 0.039378986
-0.10014983 -0.68605691 0.039370224
-0.20300989 -0.68529367 0.039911088
-0.20188051 -0.68527818 0.039884638
-0.20080553 -0.68530005 0.039921064
-0.19867551 -0.68531352 0.039932366
-0.20672676 -0.67662162 0.039545007
-0.20571084 -0.67658573 0.039511085
-0.2046389 -0.67659253 0.039514996
-0.21028189 -0.66800511 0.03950071
-0.1383082 -0.65240258 0.039014369
-0.13635096 -0.65242672 0.039034195
-0.13578336 -0.65243042 0.039049529
-0.12511364 -0.65166682 0.039609361
-0.14263396 -0.64471513 0.039203614
-0.12582041 -0.644723 0.039193425
-0.14560249 -0.63706768 0.039605789
-0.22485109 -0.62332678 0.039767765
-0.1530271 -0.62331051 0.039762702
-0.21388333 -0.61719531 0.039512031
-0.21276292 -0.61716211 0.039475154
-0.21100555 -0.61712539 0.039422955
-0.15860395 -0.61716479 0.039469711
-0.16047992 -0.61105543 0.039350972
-0.17716174 -0.59968287 0.03903608
-0.17529619 -0.59969628 0.039038051
-0.1724817 -0.59967792 0.039019559
-0.16924417 -0.59967148 0.039031785
-0.1681039 -0.59970331 0.039062876
-0.16654827 -0.57346976 0.039153621
-0.19939153 -0.68458748 0.040515859
-0.18693648 -0.68455052 0.040488962
-0.18464024 -0.6845687 0.040470913
-0.1362915 -0.65802854 0.040945549
-0.13942985 -0.65027511 0.040885117
-0.13728522 -0.65097088 0.040228061
-0.14781216 -0.63639134 0.040250205
-0.1485481 -0.63566589 0.040869787
-0.15190047 -0.62945938 0.040209625
-0.15036425 -0.62943304 0.040157519
-0.15257277 -0.62879276 0.040885024
-0.22344591 -0.62264878 0.040430594
-0.22237357 -0.62257606 0.040374205
-0.15515755 -0.62264329 0.040455587
-0.21145342 -0.61643416 0.040080033
-0.20970918 -0.61648703 0.040142562
-0.1607537 -0.61652482 0.040175337
-0.21005054 -0.61580235 0.040792309
-0.20826422 -0.61586082 0.04084992
-0.16154793 -0.61585468 0.040864874
-0.20055011 -0.61039162 0.040050797
-0.16493779 -0.60978687 0.040787399
-0.18854232 -0.604388 0.040175315
-0.16981839 -0.60443097 0.040222075
-0.16690658 -0.60438269 0.040175289
-0.16581993 -0.604352 0.040132038
-0.16475441 -0.60434407 0.040114883
-0.18640341 -0.60376447 0.040889904
-0.17809321 -0.59839863 0.040462259
-0.17548521 -0.59840286 0.040466145
-0.16977651 -0.59838158 0.040453665
-0.16546254 -0.59844321 0.040498588
-0.20373474 -0.68306631 0.041586004
-0.20261116 -0.68307084 0.04160231
-0.20154473 -0.68304414 0.041570157
-0.18540959 -0.68381602 0.0410433
-0.20923883 -0.67371863 0.041906845
-0.20821877 -0.67370957 0.041891836
-0.20715277 -0.67371058 0.04191564
-0.20608597 -0.67369175 0.041882057
-0.21313123 -0.66582918 0.041282292
-0.21148574 -0.66585624 0.041302338
-0.13644534 -0.65731919 0.041566245
-0.13875708 -0.64955401 0.041489471
-0.14342865 -0.64258158 0.041048214
-0.14525028 -0.64188069 0.041674357
-0.14926229 -0.63496786 0.041501783
-0.2319724 -0.62805241 0.041465875
-0.23090795 -0.6280483 0.0414862
-0.15190874 -0.62810177 0.041527528
-0.2209515 -0.62192142 0.041059416
-0.21959375 -0.62125754 0.041738592
-0.15777144 -0.62192708 0.041061081
-0.15567771 -0.6212427 0.041731726
-0.19883396 -0.60913295 0.041482836
-0.18866678 -0.60308969 0.041583087
-0.16595784 -0.60307682 0.04155916
-0.17374963 -0.59716296 0.041911133
-0.17206937 -0.59716636 0.041935869
-0.17101623 -0.59711277 0.041872337
-0.21005259 -0.672939 0.042455073
-0.21712594 -0.6558677 0.042758308
-0.13980755 -0.64817941 0.042764731
-0.13807184 -0.64883924 0.042097438
-0.14425977 -0.64047062 0.042929344
-0.15005921 -0.63427269 0.042152267
-0.14825435 -0.63357788 0.042784132
-0.22952266 -0.62739474 0.042170756
-0.15279783 -0.62741184 0.042165682
-0.22992706 -0.62668741 0.04280328
-0.1537759 -0.62672508 0.042830437
-0.22108424 -0.62053692 0.042362299
-0.21719895 -0.62062705 0.042455792
-0.15677261 -0.62056851 0.042394105
-0.20834073 -0.61451942 0.042204067
-0.16348158 -0.61382133 0.042859431
-0.16127563 -0.61382753 0.042869411
-0.16021559 -0.61386776 0.042906303
-0.1668952 -0.6084075 0.04208938
-0.1964929 -0.60780734 0.042858295
-0.19394663 -0.60778654 0.042856943
-0.18660861 -0.60244656 0.042284939
-0.1841189 -0.60244453 0.042297248
-0.17948671 -0.60179633 0.042999703
-0.19671166 -0.68947428 0.043772008
-0.19566646 -0.68946564 0.043777168
-0.19465968 -0.68945688 0.043785326
-0.2033748 -0.68081993 0.04328024
-0.21434762 -0.66289341 0.043619573
-0.21242388 -0.66291761 0.043632224
-0.13669161 -0.65441567 0.043955516
-0.14201921 -0.64745843 0.04337094
-0.14133012 -0.64674181 0.043977313
-0.14578032 -0.63974595 0.043545254
-0.21936283 -0.61922753 0.043742169
-0.21862343 -0.61992443 0.043087624
-0.21727514 -0.61926657 0.043785866
-0.1586816 -0.61922783 0.043744951
-0.20486352 -0.61318034 0.043560743
-0.19509885 -0.60714567 0.043550901
-0.16452917 -0.60713226 0.043524377
-0.18454728 -0.6018011 0.043018743
-0.1831983 -0.60115325 0.043707803
-0.16651776 -0.60182887 0.043038704
-0.19996266 -0.6887089 0.044312607
-0.19746114 -0.68871772 0.044342291
-0.19393228 -0.6887055 0.044325635
-0.19277963 -0.6887365 0.044355318
-0.1981823 -0.68796974 0.044885237
-0.1945622 -0.68794781 0.044862583
-0.19131696 -0.68799651 0.04492528
-0.20551834 -0.67931235 0.044350512
-0.2040578 -0.6785785 0.044934947
-0.20301129 -0.67858237 0.044949342
-0.20857565 -0.67074335 0.044179317
-0.20750201 -0.67075235 0.044189729
-0.20937312 -0.66995329 0.044701211
-0.13857159 -0.66217196 0.044197168
-0.21788794 -0.65368599 0.044546917
-0.13886334 -0.65366185 0.044498462
-0.13664402 -0.65370387 0.044556096
-0.1434797 -0.64601809 0.044577554
-0.14070155 -0.64601851 0.044597171
-0.14508066 -0.63903731 0.044172455
-0.14794786 -0.63840294 0.04487031
-0.14867432 -0.63218933 0.04408282
-0.15304673 -0.63145614 0.044666104
-0.1504907 -0.6314882 0.044702083
-0.15561013 -0.62536657 0.044157747
-0.15429094 -0.62534517 0.044139426
-0.22787035 -0.62463754 0.044776462
-0.22659393 -0.62468195 0.044807024
-0.21586384 -0.61859006 0.04446004
-0.16086984 -0.61854154 0.044383507
-0.15549217 -0.61853921 0.044389877
-0.2027659 -0.61245608 0.044186253
-0.1646702 -0.6125077 0.044226129
-0.20324558 -0.61179018 0.044863984
-0.1653703 -0.60645401 0.044200718
-0.16311117 -0.6064896 0.044242453
-0.17856345 -0.60049504 0.044404048
-0.17773722 -0.60051292 0.044409972
-0.17523547 -0.60051996 0.044429034
-0.17204483 -0.60046691 0.044366322
-0.16872945 -0.60054129 0.044443034
-0.19887324 -0.68720508 0.045416094
-0.19163547 -0.68723863 0.045469452
-0.18986638 -0.68724012 0.04544425
-0.19957794 -0.6864627 0.045961112
-0.19022831 -0.68648571 0.04599826
-0.18812792 -0.68647057 0.045984019
-0.20624629 -0.67702943 0.045980498
-0.20521794 -0.67703277 0.045987863
-0.21005033 -0.66919786 0.04525682
-0.21182007 -0.66851509 0.045873486
-0.21074334 -0.66847032 0.045822162
-0.21613346 -0.66072851 0.045400891
-0.21501295 -0.6607157 0.045379013
-0.21399282 -0.66067588 0.045345344
-0.21797998 -0.65997338 0.045970682
-0.21687792 -0.65998083 0.045975499
-0.21262076 -0.65996754 0.045976304
-0.1381477 -0.65295744 0.045119613
-0.14227152 -0.64458919 0.045806013
-0.14872798 -0.63768882 0.045490026
-0.14617886 -0.63767153 0.045486957
-0.23318864 -0.63005227 0.045927707
-0.15604253 -0.62398857 0.045467597
-0.2144272 -0.61788714 0.045099482
-0.2130779 -0.61715621 0.045702983
-0.21206467 -0.61714172 0.045688838
-0.15914142 -0.61788285 0.045077894
-0.20115505 -0.61114359 0.045571864
-0.16080178 -0.61113065 0.045550875
-0.19094598 -0.60515147 0.045597482
-0.18916132 -0.60515982 0.045605041
-0.16647968 -0.60511023 0.045544591
-0.16509335 -0.60512662 0.045561343
-0.17903332 -0.59984803 0.045116793
-0.17069177 -0.59982508 0.045080051
-0.16528006 -0.59987181 0.04512709
-0.20136048 -0.68570518 0.046528663
-0.18882209 -0.68571347 0.046519015
-0.18665239 -0.6857152 0.046521612
-0.1855378 -0.68570989 0.046509068
-0.20692097 -0.67629498 0.046548475
-0.2037117 -0.67632204 0.046579894
-0.13642415 -0.6592477 0.046532869
-0.2175848 -0.6515125 0.046339028
-0.13668349 -0.65079963 0.046919584
-0.14375886 -0.64313024 0.046998162
-0.1490815 -0.63626403 0.046727762
-0.14694497 -0.63698906 0.046125703
-0.15065534 -0.62935877 0.046575539
-0.22513676 -0.62330532 0.046099503
-0.22402871 -0.62328351 0.046064302
-0.15431283 -0.62330532 0.046107743
-0.15261535 -0.62261009 0.046758078
-0.21453547 -0.61657238 0.046453752
-0.16099307 -0.61653405 0.046418939
-0.15958019 -0.61651641 0.046399754
-0.16263898 -0.61050487 0.046275642
-0.16157882 -0.6104756 0.046244211
-0.16418222 -0.60983032 0.04696415
-0.18957154 -0.60449523 0.046286203
-0.18679395 -0.60384226 0.046993859
-0.16658442 -0.60381049 0.046949495
-0.20204695 -0.68492156 0.047015071
-0.20688951 -0.67482394 0.047700364
-0.21255213 -0.66628861 0.047575194
-0.21154532 -0.66630453 0.047623873
-0.21761762 -0.65778619 0.047727983
-0.21660994 -0.65777922 0.047734551
-0.13610891 -0.65778679 0.04770324
-0.1389211 -0.65006018 0.047534447
-0.14545968 -0.64242202 0.047615234
-0.14739002 -0.6355738 0.047370039
-0.14804997 -0.63485879 0.047987502
-0.23221509 -0.62863606 0.047199883
-0.15464246 -0.6280148 0.0479104
-0.15320964 -0.62801409 0.047905736
-0.15139924 -0.62866503 0.047206022
-0.22300044 -0.6218698 0.047342099
-0.15622562 -0.62189758 0.047382075
-0.21033134 -0.61582625 0.047046486
-0.20868218 -0.61552954 0.047414832
-0.16003685 -0.61517048 0.047735155
-0.15863292 -0.61515915 0.047725055
-0.15787002 -0.61584306 0.047074612
-0.19914852 -0.6091699 0.047640476
-0.19843702 -0.60917252 0.047648951
-0.16281642 -0.60916919 0.047616549
-0.16951276 -0.6032213 0.047705837
-0.1684435 -0.60322464 0.047728129
-0.18097459 -0.59793901 0.047250476
-0.17530333 -0.59725821 0.047908667
-0.1723386 -0.59728283 0.047935024
-0.20315382 -0.68342739 0.048132602
-0.18340209 -0.68344539 0.048147142
-0.20389661 -0.68268538 0.048666935
-0.20166324 -0.68264961 0.048652723
-0.18197048 -0.68264693 0.04863986
-0.20873633 -0.67411923 0.048303332
-0.20765378 -0.67410535 0.048302498
-0.2133566 -0.66553235 0.048126288
-0.21869797 -0.65631664 0.048879176
-0.14070657 -0.64937091 0.048169091
-0.1378926 -0.64933443 0.048124861
-0.15130098 -0.63413209 0.048595816
-0.14876422 -0.63413703 0.048596855
-0.22165094 -0.62117082 0.048003979
-0.15874743 -0.62119991 0.04802103
-0.22023284 -0.62053579 0.048695125
-0.21039228 -0.61444771 0.048357319
-0.20672898 -0.61450684 0.048410635
-0.19954105 -0.60849488 0.048321079
-0.19553176 -0.60850716 0.048304372
-0.16141224 -0.608482 0.048299238
-0.19668943 -0.60783339 0.048988737
-0.19348858 -0.60780603 0.048961893
-0.1858753 -0.60252935 0.048384905
-0.18327872 -0.60255182 0.048385326
-0.18186921 -0.60249317 0.048338886
-0.17140763 -0.60253149 0.048390716
-0.17565894 -0.59662515 0.048626732
-0.1688785 -0.59659976 0.048613507
-0.20385154 -0.68118024 0.049765281
-0.18047988 -0.68189526 0.049163893
-0.17908861 -0.68115574 0.049742486
-0.21445377 -0.66404879 0.049286094
-0.21328977 -0.66406906 0.049283709
-0.21216626 -0.66407639 0.049286909
-0.13868625 -0.66331697 0.04983779
-0.21723725 -0.65559483 0.049468514
-0.14150357 -0.6471979 0.049964257
-0.13927945 -0.64790159 0.049341492
-0.22870424 -0.62590218 0.049811188
-0.1533132 -0.6259321 0.049838524
-0.21887015 -0.61987329 0.049378049
-0.21782528 -0.61988795 0.049401406
-0.15916565 -0.6198504 0.049350716
-0.15747271 -0.61913818 0.049988739
-0.15608044 -0.61913979 0.049993388
-0.20877707 -0.61312175 0.049730204
-0.20514531 -0.61313146 0.04972674
-0.16155227 -0.61381894 0.049093518
-0.16047731 -0.61384076 0.049095884
-0.19460522 -0.60716307 0.049657602
-0.19387534 -0.60713649 0.049647402
-0.16473429 -0.60715938 0.049663652
-0.17646995 -0.60188669 0.049079262
-0.16607964 -0.60120583 0.049750779
-0.16252638 -0.60121304 0.049741164
-0.19824171 -0.68980062 0.050425369
-0.19718529 -0.68977761 0.05039981
-0.19540732 -0.68901324 0.050932933
-0.1947211 -0.68976814 0.050411373
-0.20248114 -0.68039519 0.050282169
-0.2038177 -0.67966104 0.050866075
-0.17728361 -0.67966622 0.05086419
-0.20901284 -0.67111349 0.050520927
-0.20799246 -0.67113197 0.050536305
-0.21840529 -0.65411192 0.050638217
-0.13690378 -0.65412283 0.050653756
-0.1455946 -0.63954663 0.05006098
-0.14702219 -0.63886052 0.050712321
-0.14660773 -0.63886255 0.050702725
-0.14486139 -0.6388433 0.050677013
-0.15102454 -0.63202488 0.050480921
-0.22949421 -0.62519991 0.050460499
-0.21781842 -0.61852396 0.050697792
-0.21497576 -0.61846989 0.050681196
-0.21389517 -0.61841148 0.050595485
-0.17877083 -0.60055602 0.050447449
-0.16404866 -0.60051322 0.050396305
-0.19866878 -0.68825775 0.051482588
-0.19935882 -0.6874947 0.051993974
-0.19322991 -0.68749571 0.051998191
-0.20449567 -0.67892504 0.051407237
-0.17719693 -0.67815185 0.051933572
-0.20980196 -0.67032868 0.05104322
-0.21054135 -0.66956431 0.051589165
-0.2166016 -0.66112691 0.051602721
-0.21552886 -0.66107583 0.051551748
-0.13826817 -0.65339029 0.051209182
-0.1357702 -0.65340894 0.051256906
-0.14048794 -0.65263581 0.051800746
-0.1424032 -0.64504445 0.051766925
-0.14046276 -0.64576077 0.051174678
-0.14737378 -0.6374656 0.051976595
-0.15398335 -0.63061827 0.051750328
-0.15149552 -0.63057864 0.051696945
-0.14896031 -0.63060653 0.051737603
-0.22986296 -0.6244809 0.051069178
-0.15658329 -0.62454528 0.051138625
-0.15224187 -0.62453324 0.051091902
-0.22632541 -0.62385404 0.051757686
-0.22558109 -0.62385756 0.0517537
-0.15485922 -0.62383717 0.05174863
-0.15339598 -0.62382764 0.051743198
-0.21651272 -0.61782312 0.051355563
-0.15787435 -0.61777264 0.051288527
-0.20317301 -0.61104572 0.051678523
-0.20272173 -0.61174059 0.051037285
-0.1620871 -0.61107248 0.051715687
-0.16121183 -0.61177832 0.051061887
-0.160298 -0.61180109 0.051105518
-0.19263841 -0.60512906 0.05168261
-0.1915222 -0.60580063 0.051004756
-0.1893533 -0.60514951 0.051684383
-0.18898769 -0.60581535 0.051018644
-0.18719171 -0.60581827 0.051021308
-0.16485825 -0.60581362 0.051000182
-0.16344187 -0.60517031 0.051714554
-0.17304261 -0.59986991 0.051102642
-0.20183025 -0.68752897 0.052031703
-0.19208625 -0.68752855 0.052045345
-0.20003761 -0.68674213 0.052522235
-0.19758911 -0.68672931 0.0525348
-0.19064607 -0.68676776 0.052567389
-0.18964852 -0.68674701 0.052551445
-0.20769571 -0.67735368 0.052410111
-0.20663583 -0.67734289 0.05239347
-0.20570488 -0.67735761 0.052440479
-0.21230455 -0.66884494 0.052144751
-0.21122016 -0.66881096 0.052114435
-0.20947519 -0.66806054 0.052686155
-0.21735792 -0.66035581 0.052146364
-0.21412107 -0.66032666 0.052115265
-0.22013883 -0.6519568 0.052411001
-0.13899599 -0.6511758 0.05294976
-0.13545555 -0.65193117 0.052414991
-0.14446227 -0.64428395 0.052333705
-0.14120626 -0.6436007 0.052969165
-0.14526124 -0.63670003 0.052508924
-0.1522015 -0.62986845 0.052297913
-0.14971095 -0.62990654 0.052368384
-0.22707701 -0.62312263 0.052381974
-0.15702665 -0.62313831 0.052390076
-0.21507257 -0.61712277 0.052003447
-0.21363442 -0.61640322 0.052619573
-0.1584025 -0.61640406 0.05261483
-0.20352894 -0.61040002 0.052377712
-0.20176326 -0.61039352 0.052378915
-0.16139583 -0.61039937 0.052370563
-0.19157924 -0.60447234 0.052367315
-0.18549259 -0.60449541 0.052388143
-0.17035893 -0.60451841 0.052404691
-0.16506015 -0.60445935 0.052348983
-0.17601058 -0.59859645 0.052524313
-0.17430989 -0.59861118 0.052568428
-0.17139412 -0.59854299 0.052489877
-0.16814032 -0.59861392 0.052560091
-0.2027404 -0.68598127 0.053052593
-0.20184276 -0.68599296 0.053098716
-0.20073409 -0.68600005 0.053088855
-0.19827817 -0.68597305 0.053063549
-0.18816185 -0.685978 0.053068999
-0.18709208 -0.6859988 0.053086471
-0.21300499 -0.66661137 0.053853124
-0.21194679 -0.66663516 0.053869832
-0.21089455 -0.66658187 0.053801093
-0.2170174 -0.65813506 0.053876936
-0.2163035 -0.65888166 0.053291295
-0.21515255 -0.65890604 0.053296287
-0.14151569 -0.65047455 0.053578489
-0.14568262 -0.64284784 0.053532507
-0.14342263 -0.64284718 0.053546023
-0.15133323 -0.63601184 0.053171519
-0.14782517 -0.63602591 0.053180158
-0.15267572 -0.62848336 0.053604327
-0.15011713 -0.62847418 0.053585749
-0.15525673 -0.62245637 0.053048193
-0.2220743 -0.62171501 0.05363695
-0.22102849 -0.6217283 0.05364991
-0.15352683 -0.62174827 0.053672384
-0.21231139 -0.61565739 0.053199057
-0.20836014 -0.61505526 0.053943038
-0.16129282 -0.61505884 0.053947154
-0.16054377 -0.61572343 0.053256731
-0.19893254 -0.60976201 0.053083193
-0.16547184 -0.60975713 0.05309001
-0.16438438 -0.60976106 0.053078759
-0.16306077 -0.60906017 0.053720258
-0.18948705 -0.60381055 0.053044971
-0.17289695 -0.59792054 0.053197429
-0.17150943 -0.59723133 0.053861152
-0.17076088 -0.59789842 0.053199008
-0.18527314 -0.68446285 0.054127458
-0.20243129 -0.68366504 0.054610297
-0.18555273 -0.68370324 0.054639999
-0.18385671 -0.68369818 0.054672189
-0.18276837 -0.68365294 0.054589104
-0.20731196 -0.67510706 0.054057479
-0.20629542 -0.67507195 0.054023795
-0.20918031 -0.67439657 0.054669708
-0.20809887 -0.67438984 0.054679137
-0.21763198 -0.65742385 0.054429941
-0.13795537 -0.6574136 0.054440204
-0.21912098 -0.65666121 0.054989785
-0.22098032 -0.64975309 0.05417756
-0.14008103 -0.64899617 0.054737087
-0.13759853 -0.64897853 0.054693032
-0.1447657 -0.64212251 0.054123938
-0.15180592 -0.63456911 0.054392498
-0.14997384 -0.63385987 0.054994553
-0.1533349 -0.62779802 0.054253191
-0.15719356 -0.62102491 0.054283224
-0.15421522 -0.62106419 0.054327283
-0.22252098 -0.62064463 0.054572426
-0.15824398 -0.62032801 0.054918401
-0.20879005 -0.61437613 0.054595895
-0.20693132 -0.6143766 0.054588012
-0.19642565 -0.60840344 0.054402459
-0.18781754 -0.60247636 0.054400507
-0.17157035 -0.6025002 0.054437101
-0.16835542 -0.60250431 0.05444286
-0.17406851 -0.59662449 0.05462173
-0.17302579 -0.5966413 0.054631934
-0.203187 -0.68291688 0.055164065
-0.18415448 -0.68293971 0.055198092
-0.18132302 -0.68288922 0.055128835
-0.2058852 -0.67282403 0.055672597
-0.21481252 -0.66436225 0.055501588
-0.21371038 -0.66435647 0.055497009
-0.21770822 -0.65592104 0.055558145
-0.13939568 -0.64825815 0.055313718
-0.14157705 -0.6475668 0.055941649
-0.13869774 -0.64752632 0.055893954
-0.14591987 -0.6406728 0.055318911
-0.14859596 -0.63314688 0.055615377
-0.16102123 -0.61301124 0.055921454
-0.15920775 -0.61364907 0.055203926
-0.20702948 -0.61299664 0.055894975
-0.20597419 -0.61299223 0.055896915
-0.19692059 -0.60771435 0.055072527
-0.1897001 -0.60705763 0.055737335
-0.16415067 -0.60771984 0.055091325
-0.19800252 -0.69073516 0.056491498
-0.19866019 -0.68997443 0.056996915
-0.20425181 -0.68140692 0.056224052
-0.20312786 -0.68141091 0.056240264
-0.18127541 -0.68136978 0.056171831
-0.17733587 -0.68063539 0.056769323
-0.21485218 -0.66285926 0.056617659
-0.21630701 -0.65517479 0.056141399
-0.1364976 -0.6551854 0.056131169
-0.22091959 -0.65442699 0.056700401
-0.21876241 -0.6544373 0.056701876
-0.21770549 -0.65444487 0.056706935
-0.14085793 -0.64683777 0.056523569
-0.14848718 -0.63924879 0.056569796
-0.22992706 -0.62565845 0.056112237
-0.22635818 -0.62498838 0.056752343
-0.15416782 -0.6249699 0.056745242
-0.21834596 -0.61898309 0.056258205
-0.21692061 -0.6182881 0.056906115
-0.15864383 -0.61894155 0.05619343
-0.15721896 -0.61893153 0.056198832
-0.15581219 -0.61892831 0.056202654
-0.20630276 -0.61230463 0.05654018
-0.20386139 -0.61224985 0.056496885
-0.2013818 -0.61230439 0.056552771
-0.1617626 -0.61228478 0.056537967
-0.17025816 -0.60049433 0.056471825
-0.19586293 -0.68918997 0.057522722
-0.20603277 -0.67910671 0.057798505
-0.20528311 -0.67988753 0.057300437
-0.20385748 -0.67911392 0.057830632
-0.17949317 -0.67984748 0.057255525
-0.17764689 -0.67987102 0.057287645
-0.17617606 -0.6791169 0.057835385
-0.17583375 -0.67987615 0.05728516
-0.21021035 -0.67058885 0.05736544
-0.2090416 -0.67062783 0.057387937
-0.20943396 -0.66985661 0.057918906
-0.21331699 -0.66212744 0.057176374
-0.21596374 -0.66133517 0.057712507
-0.2194913 -0.65369183 0.057274766
-0.13867587 -0.65370417 0.05726603
-0.13773787 -0.6529671 0.057848249
-0.22239408 -0.64531475 0.057631958
-0.15067796 -0.63854563 0.057173338
-0.14641243 -0.63848543 0.057107531
-0.14933503 -0.63100851 0.05746736
-0.15773705 -0.62427676 0.05740435
-0.21547164 -0.61756682 0.057519294
-0.1605922 -0.61755347 0.057492968
-0.20432794 -0.61156452 0.057148609
-0.16364898 -0.61159182 0.057181053
-0.20222349 -0.61089832 0.057830963
-0.20145108 -0.61093771 0.057866443
-0.19163044 -0.60567594 0.057058785
-0.19026692 -0.60500383 0.057729378
-0.16820155 -0.60564423 0.057015605
-0.16362077 -0.60501754 0.05775005
-0.19205251 -0.60499537 0.057721823
-0.17829497 -0.5991466 0.057808317
-0.17759897 -0.59913355 0.057800371
-0.17109354 -0.59979546 0.057119828
-0.19753613 -0.6884374 0.058022022
-0.19649094 -0.68842858 0.058027197
-0.19397181 -0.68845427 0.058063384
-0.20077519 -0.68765712 0.058533285
-0.19574322 -0.68765134 0.058540959
-0.19474499 -0.68765324 0.058546115
-0.19249892 -0.68769896 0.058603507
-0.17438805 -0.67835152 0.05834683
-0.20597738 -0.67757648 0.058842789
-0.2116268 -0.66903901 0.058390185
-0.15950355 -0.66906315 0.05840762
-0.20985192 -0.66829604 0.058954183
-0.21451715 -0.66060758 0.058277082
-0.22168243 -0.65223539 0.058442
-0.22057858 -0.65223509 0.058425158
-0.21953031 -0.65220284 0.058410991
-0.14445922 -0.64462262 0.058267329
-0.141921 -0.64464718 0.05828185
-0.22491826 -0.64390916 0.058861095
-0.14354581 -0.64390147 0.058846228
-0.14122 -0.64391351 0.058860552
-0.14855443 -0.637106 0.058377672
-0.14711732 -0.63708019 0.05836774
-0.14535658 -0.63703614 0.05830643
-0.15257984 -0.63025749 0.058004964
-0.15080033 -0.62957555 0.058672581
-0.22822312 -0.62282765 0.058611374
-0.22612673 -0.62286901 0.05862806
-0.22501937 -0.62284738 0.058592621
-0.21232665 -0.61683106 0.05809724
-0.1595346 -0.61616999 0.058777571
-0.15877572 -0.61685652 0.058137074
-0.16481179 -0.61023992 0.058496088
-0.18675072 -0.60432279 0.058401391
-0.17612754 -0.59850055 0.058491915
-0.17339127 -0.59845078 0.058453325
-0.17123529 -0.59843946 0.058453619
-0.20320483 -0.6861288 0.059585866
-0.20215328 -0.68616277 0.059623707
-0.20107271 -0.68614233 0.059597079
-0.19966339 -0.68612307 0.059577554
-0.1978945 -0.68689489 0.059075352
-0.19140185 -0.68692863 0.059098996
-0.19040191 -0.68690491 0.05908411
-0.18835512 -0.68614239 0.059596926
-0.2066903 -0.67677552 0.059323188
-0.2034591 -0.67683023 0.059412327
-0.17240158 -0.67646194 0.059683003
-0.21051686 -0.66752523 0.059481133
-0.15696554 -0.66758323 0.059522375
-0.21662883 -0.65914142 0.059416268
-0.2155087 -0.65912879 0.059394218
-0.21736151 -0.65837759 0.059962276
-0.13869523 -0.65071017 0.059504878
-0.22565104 -0.64317822 0.059439778
-0.22641699 -0.64240682 0.059982881
-0.14702219 -0.64241678 0.059989564
-0.14519818 -0.64241147 0.059987772
-0.14480928 -0.64241099 0.059988603
-0.23240334 -0.62811613 0.059876863
-0.15374869 -0.62815535 0.059907384
-0.15268104 -0.62811553 0.059862416
-0.15638372 -0.62215889 0.059275709
-0.22112471 -0.62144685 0.059877846
-0.15464117 -0.62145758 0.059889145
-0.2124451 -0.61541128 0.05936243
-0.21057655 -0.61548978 0.059430838
-0.20946369 -0.61549455 0.05941743
-0.16168557 -0.61547959 0.05942608
-0.19942805 -0.60955429 0.05917079
-0.19652414 -0.60953254 0.059163228
-0.1633773 -0.60955262 0.05916163
-0.16123387 -0.60951149 0.059116151
-0.19686654 -0.6088714 0.059806585
-0.16199829 -0.60883665 0.059783444
-0.1878738 -0.60364628 0.059067298
-0.16696244 -0.6036005 0.059001535
-0.19079494 -0.60295653 0.059720863
-0.18826051 -0.60297102 0.059734661
-0.186847 -0.6029712 0.05975103
-0.16881821 -0.6029985 0.059770867
-0.1676752 -0.60295397 0.059699524
-0.17885092 -0.59779942 0.059164178
-0.17455418 -0.59715331 0.059865087
-0.17199053 -0.59776628 0.059122976
-0.16983621 -0.59780574 0.059179142
-0.18890783 -0.68537295 0.060115822
-0.18668547 -0.68536854 0.060098957
-0.18463519 -0.6845783 0.060607996
-0.20667052 -0.67524815 0.060385223
-0.20844117 -0.67454171 0.0609884
-0.21435025 -0.66684306 0.060063135
-0.21340615 -0.6668207 0.060081169
-0.21227503 -0.66682559 0.060068525
-0.21119829 -0.66678184 0.06001744
-0.15842167 -0.66604108 0.060575478
-0.22243631 -0.65001625 0.060165856
-0.22129168 -0.65001756 0.060147449
-0.22017112 -0.6500181 0.060137205
-0.22309938 -0.64929056 0.060734753
-0.13976061 -0.64924312 0.060686991
-0.14411587 -0.64168102 0.06057103
-0.14930657 -0.63419151 0.060751978
-0.1486342 -0.63492817 0.06016802
-0.14574426 -0.63490003 0.060147956
-0.15444785 -0.62743622 0.060508613
-0.15994716 -0.614766 0.060046896
-0.19733724 -0.60817569 0.060471881
-0.18547654 -0.60229445 0.060402472
-0.17063981 -0.60233325 0.060436577
-0.16557616 -0.60224974 0.060329966
-0.17789988 -0.59645802 0.060518481
-0.17492504 -0.59648156 0.060524527
-0.17313202 -0.59648359 0.060529191
-0.20351262 -0.68303478 0.061615426
-0.20280367 -0.68379527 0.061088178
-0.20175156 -0.68382192 0.061143622
-0.20067471 -0.68384373 0.061145555
-0.18668258 -0.6838401 0.061145414
-0.18561038 -0.68383074 0.061131787
-0.18489549 -0.68382943 0.061135959
-0.18345267 -0.68301684 0.061598923
-0.20950823 -0.6745593 0.061022144
-0.21020035 -0.6737963 0.061526027
-0.16577601 -0.67373699 0.061473362
-0.20619342 -0.67296791 0.06196953
-0.16641586 -0.67298758 0.061997354
-0.21413285 -0.66453594 0.061664172
-0.21297409 -0.66455191 0.061683986
-0.21196556 -0.66456693 0.061732404
-0.21806489 -0.65613443 0.061629295
-0.21705781 -0.65612692 0.061635893
-0.2159363 -0.65612948 0.061628792
-0.13727951 -0.65687919 0.061052468
-0.13691695 -0.65688324 0.061048098
-0.22242495 -0.64853972 0.061301056
-0.22135156 -0.64853674 0.06129222
-0.22316043 -0.64777106 0.061839823
-0.14133416 -0.64780796 0.061872862
-0.22647646 -0.64017218 0.06171209
-0.14597489 -0.64095455 0.061161742
-0.15001383 -0.63345695 0.061340809
-0.14760241 -0.63348335 0.061366688
-0.22917491 -0.62602824 0.061760578
-0.15488853 -0.62601185 0.061745726
-0.15345538 -0.62601125 0.06174111
-0.15274134 -0.62672848 0.061146535
-0.15165797 -0.62668139 0.061068509
-0.22117111 -0.62002546 0.061117023
-0.22330278 -0.61998653 0.061070532
-0.22227083 -0.61997432 0.06107923
-0.21875082 -0.61935818 0.061796594
-0.21583214 -0.61927325 0.061707444
-0.15903591 -0.6192978 0.061722755
-0.15762275 -0.61930078 0.061727207
-0.20816696 -0.61339867 0.061354589
-0.20642285 -0.61337554 0.061322711
-0.16037777 -0.61338234 0.061329786
-0.15897377 -0.61337119 0.061319824
-0.20429699 -0.61264384 0.061941061
-0.19769274 -0.60749102 0.061118186
-0.19449168 -0.60746419 0.061091449
-0.16644958 -0.60747629 0.061098743
-0.16321006 -0.60749167 0.061103988
-0.19486536 -0.60677516 0.061751064
-0.16395213 -0.60679775 0.061783712
-0.18363182 -0.60161936 0.061058976
-0.17098801 -0.60165209 0.061099805
-0.18408653 -0.60096288 0.061757252
-0.20462133 -0.68151385 0.062651262
-0.20350975 -0.6815002 0.062659077
-0.17979732 -0.68152004 0.062672168
-0.20948851 -0.67303765 0.062063772
-0.21016085 -0.67227191 0.06259504
-0.16462849 -0.6722241 0.062531985
-0.16353621 -0.67223257 0.06253577
-0.21520707 -0.66302001 0.062766127
-0.22020307 -0.65462881 0.062726453
-0.21912198 -0.65463275 0.062723592
-0.21801163 -0.6546424 0.062727742
-0.13866362 -0.65463537 0.062734164
-0.22492352 -0.64701837 0.062392928
-0.22313063 -0.64626765 0.062957361
-0.1401214 -0.64630806 0.062994018
-0.1449046 -0.63949656 0.062344812
-0.22678675 -0.63872522 0.062896512
-0.2253532 -0.63872463 0.062886111
-0.15148976 -0.63200694 0.062537789
-0.14790626 -0.63202786 0.062555894
-0.22817416 -0.62459815 0.062984571
-0.15571576 -0.62457466 0.062970981
-0.21620661 -0.61860949 0.062396549
-0.21479498 -0.61784708 0.062937453
-0.21304731 -0.61788714 0.062971964
-0.15942793 -0.61791074 0.062998883
-0.16079372 -0.61201388 0.062637903
-0.16186889 -0.61199212 0.062635593
-0.18412861 -0.60027641 0.06241082
-0.17839432 -0.60025352 0.062377594
-0.17112178 -0.60028422 0.062422741
-0.18016829 -0.68072522 0.06315548
-0.17840089 -0.68072951 0.063187212
-0.20668116 -0.6799742 0.063691191
-0.20455356 -0.67997885 0.063690618
-0.2035497 -0.67994994 0.063665695
-0.16279063 -0.67147487 0.063076034
-0.16197115 -0.67070985 0.063590482
-0.15737596 -0.67073911 0.063633986
-0.15524407 -0.6707328 0.063636795
-0.21367578 -0.66228485 0.06330587
-0.2162609 -0.66148382 0.063814141
-0.21523802 -0.6615057 0.063859962
-0.1380159 -0.65388507 0.063299403
-0.22556525 -0.64633453 0.063001946
-0.14268401 -0.64632165 0.063017175
-0.22388154 -0.64552921 0.06352029
-0.22170016 -0.64557242 0.063586958
-0.1443627 -0.64558911 0.063577555
-0.14193861 -0.64557385 0.063575149
-0.22747409 -0.63804644 0.063546591
-0.1529886 -0.63052458 0.06368918
-0.22389038 -0.62385201 0.063569576
-0.15497634 -0.62387305 0.063589744
-0.21739909 -0.61723816 0.063670874
-0.21627745 -0.61722505 0.063665509
-0.2116022 -0.61722028 0.063639194
-0.15876062 -0.61718911 0.063603885
-0.20440955 -0.61123425 0.063196033
-0.2015496 -0.61060715 0.063914768
-0.165087 -0.60542405 0.063073702
-0.18783656 -0.60473102 0.063726351
-0.1830834 -0.59960645 0.063072503
-0.17195031 -0.59956449 0.063044488
-0.16901906 -0.59961808 0.063084684
-0.16834076 -0.5996176 0.063090101
-0.16401455 -0.59954518 0.06300237
-0.18175253 -0.59887362 0.063712165
-0.19462021 -0.68929726 0.064124398
-0.20041357 -0.68849617 0.064580031
-0.1989108 -0.68850237 0.064574823
-0.19785476 -0.68847996 0.064549506
-0.1964501 -0.68847841 0.064555198
-0.1953904 -0.68847007 0.064560965
-0.17648526 -0.67920804 0.064216733
-0.20934607 -0.66920775 0.064692199
-0.15805194 -0.66919708 0.064668201
-0.21518445 -0.65997469 0.064909071
-0.22092259 -0.6523878 0.064424798
-0.21879326 -0.6523791 0.064397104
-0.13950442 -0.65238643 0.064371228
-0.13689363 -0.65239227 0.064418621
-0.13846636 -0.65164524 0.064944685
-0.13614604 -0.65165907 0.064987168
-0.13509281 -0.65164214 0.064946137
-0.2252292 -0.64411008 0.064715296
-0.22453815 -0.64484155 0.06414602
-0.14333422 -0.6441071 0.064717159
-0.1489134 -0.63734019 0.064149268
-0.15157022 -0.62946802 0.064621732
-0.22642684 -0.62317526 0.06420099
-0.15822941 -0.62241971 0.064786695
-0.15676653 -0.62245136 0.064838484
-0.15536681 -0.6224404 0.064808808
-0.15390354 -0.62243092 0.064803377
-0.21306901 -0.61645281 0.064203322
-0.15992209 -0.61649179 0.064253144
-0.21174495 -0.61577576 0.064870574
-0.20442867 -0.60987258 0.064508639
-0.16518472 -0.60404009 0.06435851
-0.16808662 -0.60332215 0.064984404
-0.16704193 -0.60331327 0.064972758
-0.17341615 -0.59820187 0.06435585
-0.17236443 -0.59819031 0.064359963
-0.1691117 -0.59825993 0.064429961
-0.20215991 -0.68772346 0.06506931
-0.1997001 -0.68770802 0.065074958
-0.19310802 -0.68696386 0.065607838
-0.19204104 -0.68696642 0.06560237
-0.20743006 -0.67761344 0.065168612
-0.20628487 -0.67765009 0.065203942
-0.20411855 -0.67765898 0.065245025
-0.174651 -0.67766213 0.065229036
-0.17296357 -0.67768139 0.0652574
-0.17322752 -0.67690599 0.065761901
-0.17146794 -0.67692214 0.065777369
-0.1703674 -0.67689657 0.065766186
-0.21122423 -0.66839164 0.065174602
-0.21012367 -0.66840822 0.065185457
-0.1572575 -0.66844755 0.06520839
-0.21189143 -0.6676237 0.0656709
-0.15549386 -0.66768712 0.06574633
-0.21694066 -0.65927869 0.065509297
-0.13795654 -0.65925044 0.065457419
-0.13791935 -0.6584962 0.065999992
-0.22085354 -0.65092254 0.065527685
-0.14085239 -0.65087003 0.065502509
-0.22564198 -0.64263499 0.065864928
-0.14484967 -0.64259368 0.065832071
-0.22830364 -0.6351403 0.065906383
-0.14780243 -0.63587648 0.065328233
-0.22149131 -0.62174118 0.065436132
-0.21027471 -0.61511052 0.065524779
-0.19981951 -0.60921496 0.065187916
-0.19727294 -0.60921103 0.065174803
-0.16346985 -0.60919452 0.065174162
-0.19761102 -0.6085155 0.065814763
-0.19372062 -0.60849661 0.06580022
-0.16603367 -0.60851377 0.065834634
-0.18856412 -0.60337615 0.065029792
-0.18797465 -0.60335416 0.065036677
-0.16918878 -0.60336828 0.065042406
-0.1829489 -0.6026575 0.065671176
-0.16992594 -0.60270375 0.065724418
-0.1999945 -0.68615347 0.066054247
-0.19859779 -0.68615085 0.066067576
-0.18954541 -0.68616271 0.066074267
-0.200662 -0.68538642 0.066552505
-0.20905004 -0.67533565 0.066748627
-0.20690246 -0.67529809 0.066684246
-0.20597057 -0.67531192 0.066731118
-0.20481551 -0.67534149 0.066749446
-0.17148314 -0.67537022 0.066795275
-0.17036738 -0.6753785 0.066805609
-0.16926973 -0.67535704 0.066791497
-0.21260266 -0.66689384 0.066228479
-0.15476972 -0.66692215 0.066267475
-0.22165045 -0.65015179 0.066083759
-0.13953695 -0.64937937 0.066600308
-0.22642753 -0.64185381 0.066407964
-0.2248604 -0.64189494 0.066418588
-0.14414153 -0.64186299 0.066417068
-0.15066083 -0.63438469 0.066454537
-0.1467552 -0.63439029 0.066475995
-0.23240159 -0.6276508 0.066130795
-0.15231444 -0.62763894 0.066075549
-0.15555091 -0.62696278 0.066747665
-0.15310808 -0.62694043 0.066727638
-0.22074051 -0.62105066 0.066062354
-0.21896 -0.62104803 0.066068046
-0.15718338 -0.62100881 0.066036187
-0.15573913 -0.62102306 0.066054203
-0.22183539 -0.620992 0.06601616
-0.16007452 -0.62097991 0.066006325
-0.1586826 -0.62098086 0.066011027
-0.15798689 -0.62027055 0.066622406
-0.16072777 -0.61367327 0.066745035
-0.15933824 -0.61366856 0.06675601
-0.1646217 -0.6078217 0.066463247
-0.18839581 -0.60129315 0.066976421
-0.18006851 -0.60129994 0.066981621
-0.17791106 -0.59619695 0.06639076
-0.17500032 -0.59621155 0.066415161
-0.17214096 -0.59616196 0.066346467
-0.20416276 -0.68380022 0.067538261
-0.20252281 -0.68383849 0.067573667
-0.20096421 -0.68385124 0.067586757
-0.1852081 -0.68383884 0.067587785
-0.20979808 -0.67459261 0.0673071
-0.16750401 -0.6745429 0.067238264
-0.20792452 -0.6737873 0.067746863
-0.20690739 -0.6737529 0.06771341
-0.16817088 -0.67380464 0.067798488
-0.21466869 -0.6653868 0.067300484
-0.21327047 -0.66461354 0.067849256
-0.21221027 -0.66463697 0.067865811
-0.2182814 -0.65625256 0.067650355
-0.21730983 -0.6562236 0.067668125
-0.21660733 -0.65698647 0.067111559
-0.22165896 -0.64866966 0.067208715
-0.14145045 -0.6486463 0.067181177
-0.13862765 -0.64862776 0.067139111
-0.14330392 -0.64792562 0.067773759
-0.22777057 -0.64033043 0.067494318
-0.14776881 -0.64036202 0.067532599
-0.14546575 -0.64038277 0.067539319
-0.15218641 -0.63291204 0.067633145
-0.15103903 -0.63292593 0.067637816
-0.23240827 -0.6261825 0.067297645
-0.23059903 -0.62621087 0.067319669
-0.1534107 -0.62551415 0.067948215
-0.22047594 -0.61887008 0.067871444
-0.20815726 -0.61298877 0.067397103
-0.20432103 -0.6122303 0.067987114
-0.1614649 -0.61298925 0.067408696
-0.19449355 -0.60710204 0.067087874
-0.16328375 -0.60710251 0.067078806
-0.1949221 -0.60639507 0.067722119
-0.19238095 -0.60641229 0.067726545
-0.19163717 -0.60641593 0.067723937
-0.16758206 -0.60639769 0.067701727
-0.16970296 -0.60064393 0.067670397
-0.18549395 -0.68306619 0.068083972
-0.18373445 -0.68301785 0.068002537
-0.18296356 -0.683025 0.068005025
-0.18412717 -0.68226296 0.068554662
-0.18227786 -0.68223947 0.068512589
-0.18048495 -0.68228322 0.068576634
-0.20870005 -0.67305326 0.068338752
-0.16521879 -0.67302215 0.068273403
-0.21044621 -0.67229939 0.068852171
-0.20940164 -0.67228979 0.068842202
-0.16638261 -0.67299676 0.068263844
-0.16451056 -0.67225295 0.068788223
-0.1619599 -0.67224675 0.068781756
-0.21541567 -0.66308171 0.068882853
-0.21870129 -0.65547419 0.068178914
-0.2215658 -0.65470499 0.06871409
-0.21939038 -0.654719 0.068723567
-0.14258252 -0.64718205 0.068330705
-0.2234336 -0.64638364 0.068837889
-0.14468727 -0.64644051 0.068885483
-0.14701638 -0.63963348 0.068106703
-0.14444986 -0.63963425 0.068105824
-0.22959419 -0.638942 0.068752803
-0.22813711 -0.63890779 0.068724312
-0.14840734 -0.63891214 0.068703093
-0.14624563 -0.63889873 0.068676479
-0.14999257 -0.63145453 0.068792596
-0.2306527 -0.62476867 0.068527006
-0.15409875 -0.62478817 0.068518676
-0.15272188 -0.62478775 0.068537056
-0.21616024 -0.61813498 0.068475693
-0.20358104 -0.6122672 0.068033621
-0.16223429 -0.61228085 0.068045773
-0.20216505 -0.61157227 0.068654962
-0.1640024 -0.61152571 0.068616278
-0.19596471 -0.60573804 0.06837891
-0.18416435 -0.59994328 0.068319723
-0.1813487 -0.59990948 0.068298168
-0.17830682 -0.5999341 0.068292037
-0.17660598 -0.59994721 0.068336174
-0.20375746 -0.68148863 0.069045179
-0.18074971 -0.68150318 0.069059588
-0.17864266 -0.68071866 0.069565848
-0.1626178 -0.67148602 0.069300629
-0.16129218 -0.67147326 0.069306485
-0.16192992 -0.67070609 0.069809899
-0.16055903 -0.67071247 0.069833711
-0.21394122 -0.66231292 0.069405571
-0.2175896 -0.66152906 0.0699187
-0.21687891 -0.66151786 0.069900595
-0.21543296 -0.66154778 0.0699405
-0.22152182 -0.6531927 0.069805466
-0.22044945 -0.65319723 0.069808863
-0.13713217 -0.6532197 0.069828756
-0.22521219 -0.64566016 0.069404542
-0.22416911 -0.64561051 0.069358408
-0.22580506 -0.64493752 0.069978021
-0.14363065 -0.64494389 0.06999746
-0.22963862 -0.63820589 0.06931781
-0.22851512 -0.63819385 0.069311708
-0.14771837 -0.63815379 0.069241785
-0.22964221 -0.63746858 0.06989371
-0.23155437 -0.63001895 0.069979869
-0.1507636 -0.6307233 0.069388263
-0.15149428 -0.62999731 0.069977552
-0.22923873 -0.62404752 0.069128186
-0.22707269 -0.62408036 0.069139428
-0.22565502 -0.62328684 0.069682591
-0.22454324 -0.62330937 0.069702283
-0.22240333 -0.62338018 0.06976147
-0.15599738 -0.62334114 0.069737449
-0.15453745 -0.62333906 0.069731683
-0.21766342 -0.61746085 0.069137007
-0.16058892 -0.61742109 0.069084384
-0.15906191 -0.61741912 0.069064371
-0.21620253 -0.61672199 0.069723226
-0.21338226 -0.61668366 0.069661312
-0.15729925 -0.61669457 0.069682643
-0.20253921 -0.61087406 0.069288805
-0.19973288 -0.61014378 0.069895424
-0.16408785 -0.61013597 0.069882892
-0.16296086 -0.61011946 0.069858022
-0.18785761 -0.60432118 0.069656119
-0.17842966 -0.5985406 0.069593638
-0.1694572 -0.59858447 0.069637552
-0.20205019 -0.69929028 0.070955597
-0.19314879 -0.68922329 0.070593886
-0.1928037 -0.68921703 0.070597745
-0.2069122 -0.6799652 0.070070438
-0.20441684 -0.67917246 0.070543207
-0.20367691 -0.67995352 0.070061721
-0.17965221 -0.67995369 0.070061333
-0.1789428 -0.67993999 0.070054412
-0.17729537 -0.6795584 0.070312008
-0.21131614 -0.66955125 0.070602819
-0.15938592 -0.66917992 0.070870534
-0.15791905 -0.66920018 0.070873983
-0.21581075 -0.6607765 0.070457645
-0.14819287 -0.66077912 0.070458144
-0.13855751 -0.66078657 0.070454545
-0.21652123 -0.65999323 0.070976883
-0.22443476 -0.65246451 0.070371956
-0.22083266 -0.65243232 0.070345305
-0.13887793 -0.65245336 0.070352443
-0.13637504 -0.65245581 0.070349246
-0.22217363 -0.65171146 0.070900917
-0.13812412 -0.65170467 0.0708967
-0.22622637 -0.64419132 0.070551053
-0.14287892 -0.6441974 0.070556894
-0.14990662 -0.63671315 0.070442289
-0.23030744 -0.63596344 0.070995703
-0.15221308 -0.62924534 0.07052733
-0.22461598 -0.62255943 0.070279233
-0.21994802 -0.62263107 0.070359699
-0.22569589 -0.62188715 0.070897542
-0.15775082 -0.62190419 0.070962206
-0.2119441 -0.61601985 0.070327885
-0.20940019 -0.61602616 0.070323624
-0.21482675 -0.61595607 0.070273235
-0.21236701 -0.61526644 0.070897684
-0.21125342 -0.61530459 0.070938259
-0.15915468 -0.6152795 0.070926867
-0.2026483 -0.60942453 0.070506513
-0.20013322 -0.6094529 0.070533596
-0.19325145 -0.6036163 0.070277415
-0.16729371 -0.60358542 0.070225939
-0.16520937 -0.60362828 0.070284702
-0.18792763 -0.60293132 0.070953116
-0.1680356 -0.60289633 0.070882685
-0.1660234 -0.60291189 0.070909284
-0.17997308 -0.59785455 0.07025262
-0.20411804 -0.69851029 0.071411274
-0.19813871 -0.68840921 0.07104712
-0.19657663 -0.68840677 0.071052283
-0.1956203 -0.6884194 0.071054675
-0.19953477 -0.68763661 0.071550563
-0.19878559 -0.68763471 0.071522474
-0.19485517 -0.6876545 0.071563832
-0.19267955 -0.68766952 0.07156799
-0.21116704 -0.67837852 0.071032107
-0.17532335 -0.67838931 0.071057715
-0.17561528 -0.67761654 0.071547702
-0.17387863 -0.67763925 0.0715774
-0.2114822 -0.6683684 0.07133878
-0.15860198 -0.66842544 0.071378917
-0.21214737 -0.66760015 0.071843743
-0.21177319 -0.66759747 0.071850568
-0.15680842 -0.66766495 0.07191018
