# .PCD v0.7 - Point Cloud Data file format
VERSION 0.7
FIELDS x y z
SIZE 4 4 4
TYPE F F F
COUNT 1 1 1
WIDTH 1340
HEIGHT 1
VIEWPOINT 0 0 0 1 0 0 0
POINTS 1340
DATA ascii
-0.32337856 -0.60318208 0.028613759
-0.32294515 -0.60313743 0.028571086
-0.31790236 -0.60310322 0.028534394
-0.31662476 -0.60309124 0.028517863
-0.31029242 -0.603136 0.028555471
-0.30994254 -0.60314709 0.02855528
-0.30674353 -0.60310858 0.028532241
-0.30313331 -0.60312778 0.028548758
-0.30279806 -0.60310787 0.028543135
-0.29952043 -0.60314971 0.028580373
-0.29774243 -0.60308582 0.028520847
-0.30191159 -0.5976848 0.028275693
-0.27851847 -0.59705657 0.028990356
-0.24401556 -0.5869233 0.028114209
-0.24366803 -0.58692628 0.028130386
-0.38577318 -0.58161885 0.028308535
-0.38327289 -0.58162999 0.028331645
-0.36818486 -0.58162057 0.02830445
-0.36276147 -0.58163178 0.028311776
-0.36063048 -0.58158684 0.028293129
-0.35664696 -0.5816099 0.028306402
-0.35409909 -0.5816589 0.028345151
-0.34230986 -0.5815838 0.028296897
-0.33336705 -0.58159411 0.028287984
-0.32173321 -0.58168977 0.028371848
-0.31487322 -0.58162361 0.02833426
-0.31168833 -0.58163947 0.028331313
-0.30477288 -0.58154988 0.028243799
-0.30151916 -0.58160877 0.028310042
-0.29867473 -0.58159178 0.028280903
-0.29147139 -0.58161205 0.02831025
-0.28658688 -0.58163869 0.028323026
-0.28246677 -0.58162004 0.028301856
-0.27634636 -0.58162969 0.028324105
-0.27128518 -0.58162826 0.028312104
-0.25941586 -0.58155692 0.028261716
-0.28322211 -0.6638763 0.029264357
-0.28277031 -0.64821494 0.02936819
-0.28456286 -0.64117277 0.029134097
-0.28375673 -0.64049745 0.029802052
-0.28411698 -0.63416237 0.029109286
-0.28646836 -0.60798949 0.029743562
-0.35574067 -0.60254043 0.029309859
-0.34384283 -0.60254449 0.029317504
-0.33531576 -0.60256428 0.029352808
-0.31945959 -0.60249406 0.029287344
-0.3157984 -0.60248822 0.029288612
-0.31259328 -0.60246056 0.029253045
-0.30212098 -0.60247451 0.029268319
-0.29353261 -0.60251832 0.029299892
-0.30907372 -0.60186237 0.029992562
-0.29645473 -0.60184932 0.029978856
-0.29252374 -0.60185212 0.029995177
-0.36820439 -0.59712166 0.029029947
-0.33940446 -0.59711367 0.029046783
-0.29696065 -0.59706736 0.029012509
-0.31787741 -0.59645283 0.029732957
-0.31465325 -0.59645319 0.029737106
-0.34298289 -0.5910632 0.029616261
-0.38085982 -0.58101869 0.029072659
-0.37152863 -0.58103681 0.029079691
-0.36755139 -0.58103615 0.029092759
-0.35821068 -0.58103883 0.029102661
-0.3535341 -0.58108044 0.029115722
-0.34561437 -0.58104646 0.029101122
-0.34172827 -0.58100504 0.02908295
-0.31827018 -0.58109653 0.029155802
-0.31791002 -0.58109206 0.029137965
-0.31110719 -0.58107126 0.029120266
-0.3078219 -0.58100802 0.029070007
-0.30093005 -0.58100855 0.029059866
-0.29485556 -0.58100277 0.029037369
-0.28585127 -0.58101404 0.029071592
-0.27320626 -0.58106464 0.029095666
-0.27067852 -0.58100808 0.029059242
-0.26818091 -0.58101529 0.029062413
-0.3847611 -0.58044565 0.029844686
-0.38243121 -0.5804711 0.029884849
-0.38027942 -0.58044785 0.029856708
-0.37814623 -0.58047229 0.029888617
-0.37595379 -0.58044046 0.029839447
-0.37405521 -0.58099473 0.029064579
-0.37347117 -0.5803988 0.029822068
-0.37094694 -0.58046955 0.029870518
-0.36696473 -0.58047599 0.029880775
-0.35978737 -0.5804292 0.029848186
-0.34786746 -0.58043134 0.029842831
-0.34462461 -0.58044964 0.029871238
-0.34103549 -0.58045328 0.029856727
-0.33237633 -0.58043158 0.029841203
-0.3290258 -0.58099651 0.029037699
-0.32589838 -0.58048284 0.029875662
-0.32086539 -0.58052129 0.029911354
-0.31724465 -0.58052307 0.029926669
-0.31042612 -0.58044285 0.029852677
-0.29028043 -0.58041275 0.029826915
-0.28842723 -0.58043075 0.029825345
-0.2812964 -0.58045715 0.029859254
-0.28021121 -0.58040142 0.029826142
-0.27747619 -0.580459 0.029860877
-0.27551213 -0.58044851 0.029854663
-0.27260661 -0.58046246 0.029865036
-0.26933005 -0.5804159 0.029830234
-0.25644013 -0.58045858 0.029850643
-0.25504041 -0.58047503 0.029887788
-0.24768221 -0.58042306 0.029815642
-0.24491356 -0.58045578 0.029873436
-0.28416044 -0.67107946 0.03019001
-0.28383213 -0.67106587 0.030186869
-0.28233257 -0.63980055 0.030454848
-0.37271684 -0.63281423 0.030443506
-0.37483123 -0.60731983 0.030451767
-0.35931242 -0.60735214 0.030474091
-0.38110536 -0.6012693 0.030753965
-0.35230988 -0.60190094 0.03003395
-0.34909654 -0.60124028 0.030735934
-0.34327894 -0.6019119 0.030055285
-0.34258506 -0.60129178 0.030777441
-0.33941817 -0.60123122 0.030733543
-0.33750269 -0.60193211 0.030054329
-0.33438078 -0.60130477 0.03081543
-0.33244893 -0.60192758 0.030082854
-0.33145267 -0.60161042 0.030445863
-0.32921055 -0.60196358 0.030105457
-0.32887739 -0.60195941 0.030096672
-0.32559985 -0.60190785 0.030050006
-0.32202655 -0.60186124 0.030003404
-0.31875607 -0.60189021 0.030017311
-0.30838349 -0.60125512 0.030745972
-0.30546418 -0.60186702 0.030006047
-0.30085081 -0.60124135 0.030716101
-0.29580119 -0.60122597 0.030715801
-0.33599839 -0.5958569 0.030515291
-0.36681354 -0.590523 0.030416626
-0.36074057 -0.59048241 0.030409899
-0.3362166 -0.59051067 0.030416081
-0.32178363 -0.59054184 0.030427206
-0.38156515 -0.58516598 0.030448409
-0.36743236 -0.58513397 0.030414538
-0.356282 -0.58519989 0.03047175
-0.36959341 -0.57987869 0.030637585
-0.36636358 -0.57989651 0.030651454
-0.36415198 -0.57987046 0.030637385
-0.36382669 -0.57988042 0.030661091
-0.35735622 -0.57989436 0.030657962
-0.35270098 -0.57992935 0.030683467
-0.35008213 -0.57987034 0.030635929
-0.3469035 -0.57981497 0.030587424
-0.34402293 -0.57987696 0.030643705
-0.34367779 -0.57987916 0.030643642
-0.34044549 -0.57987821 0.030635277
-0.33106902 -0.57988673 0.030654054
-0.33065197 -0.57989317 0.030648064
-0.32529247 -0.57990688 0.030652232
-0.32243788 -0.57991749 0.030675348
-0.32023787 -0.57990259 0.030678341
-0.30623603 -0.57987952 0.030652309
-0.30294091 -0.57985175 0.030606819
-0.30010256 -0.5798108 0.030584075
-0.29934916 -0.5798192 0.030573081
-0.29362059 -0.57984239 0.030604638
-0.2894628 -0.57982355 0.030595034
-0.28424546 -0.57982361 0.030580085
-0.28071648 -0.57985723 0.030622737
-0.27488515 -0.5798527 0.030600222
-0.27201781 -0.57988113 0.030637871
-0.27158678 -0.57986939 0.030639803
-0.26735252 -0.57985425 0.030612284
-0.26334614 -0.57982558 0.030600637
-0.26295602 -0.57983303 0.030582342
-0.26031482 -0.57986921 0.030639745
-0.2597414 -0.57987487 0.030644007
-0.25776452 -0.57981396 0.030572701
-0.25582388 -0.57987654 0.030623533
-0.25056854 -0.57988644 0.030642904
-0.24713518 -0.57980692 0.030579481
-0.24641114 -0.5798195 0.03059887
-0.24324071 -0.57987225 0.030633228
-0.37597117 -0.63842678 0.03174033
-0.37929651 -0.63141662 0.031743847
-0.37396079 -0.63145077 0.031788543
-0.37241435 -0.62514615 0.031307764
-0.37329936 -0.61832261 0.031794634
-0.37271747 -0.61830062 0.031775579
-0.38151932 -0.61220884 0.031772133
-0.37936082 -0.61221117 0.031777769
-0.37419298 -0.61218029 0.031757593
-0.28624871 -0.61280847 0.031028394
-0.37706888 -0.60607839 0.031883098
-0.37345463 -0.60641325 0.031546153
-0.35839641 -0.60608029 0.031906538
-0.29174444 -0.60608011 0.031893816
-0.28918943 -0.60664046 0.031125249
-0.28852212 -0.60601896 0.031847276
-0.38124871 -0.60065013 0.031494915
-0.37764004 -0.60065269 0.031506106
-0.37367186 -0.60065567 0.031490628
-0.3729091 -0.60067528 0.031513743
-0.34848255 -0.600609 0.03146451
-0.32367703 -0.60065085 0.031514563
-0.31425855 -0.60061848 0.031466465
-0.31350878 -0.60063273 0.031470802
-0.37330234 -0.59522283 0.031212606
-0.37172952 -0.5952512 0.031241719
-0.33287597 -0.5952239 0.031227311
-0.3241933 -0.59529769 0.031303041
-0.37630844 -0.59460497 0.031961337
-0.34444359 -0.59461999 0.031980298
-0.38074166 -0.58927751 0.03188717
-0.37531772 -0.58931953 0.031923499
-0.37480229 -0.58988678 0.031136734
-0.36256796 -0.58991885 0.031167002
-0.3605383 -0.58924323 0.031883702
-0.35539219 -0.58989251 0.031154936
-0.35227162 -0.58922511 0.031849407
-0.34904402 -0.5892902 0.03190688
-0.33628187 -0.58990914 0.031159822
-0.33317098 -0.58924836 0.031860217
-0.32807618 -0.58992296 0.031196503
-0.32527691 -0.58930027 0.031925999
-0.32203209 -0.58934563 0.03195665
-0.32193571 -0.58995008 0.031201003
-0.31473899 -0.58953691 0.031475231
-0.3116039 -0.58928984 0.031915277
-0.308406 -0.58945757 0.031623561
-0.30503815 -0.58923244 0.031834684
-0.28923333 -0.58923918 0.031850867
-0.28018114 -0.58981597 0.031100312
-0.27721706 -0.58988518 0.031151248
-0.27486399 -0.58922166 0.03184801
-0.27184004 -0.58987665 0.03112454
-0.26788351 -0.58986175 0.031104134
-0.26295054 -0.58923179 0.031843394
-0.25823176 -0.58980608 0.031080659
-0.24350895 -0.58928877 0.031902645
-0.37669411 -0.58401328 0.031996302
-0.37044579 -0.58455944 0.031194653
-0.36069447 -0.58457911 0.031219419
-0.33661407 -0.58457923 0.031214789
-0.33157316 -0.58452749 0.031163989
-0.3204453 -0.58462602 0.031271882
-0.31029314 -0.58455116 0.031178234
-0.30703413 -0.58449858 0.031126013
-0.30060104 -0.58453959 0.031169841
-0.28080618 -0.58455157 0.031188734
-0.27571395 -0.58456749 0.031190131
-0.27067667 -0.58455724 0.031186072
-0.25631809 -0.58455503 0.031163217
-0.25054815 -0.58453846 0.031177308
-0.24765344 -0.58457053 0.031205244
-0.3806569 -0.58399284 0.031984262
-0.3743192 -0.58396375 0.031941574
-0.37073284 -0.5839318 0.031935807
-0.36770189 -0.58395803 0.03197334
-0.34820065 -0.58397806 0.031965494
-0.33205092 -0.58399653 0.031992853
-0.32879505 -0.5839811 0.031973254
-0.31367707 -0.58398616 0.031966031
-0.31079361 -0.58396137 0.031949192
-0.30721679 -0.5839088 0.031915128
-0.30426878 -0.5839625 0.031945363
-0.30396166 -0.58394349 0.031956464
-0.30105087 -0.58392835 0.031920709
-0.29994389 -0.58395839 0.031942818
-0.29370177 -0.58396995 0.031968795
-0.28951716 -0.58395642 0.031948719
-0.28883061 -0.58397609 0.031962115
-0.28452653 -0.58396792 0.031965513
-0.2783556 -0.5839833 0.031975124
-0.2762191 -0.58391887 0.031917028
-0.27580473 -0.58396554 0.031956777
-0.27295572 -0.58398193 0.031963944
-0.26358244 -0.58395034 0.031936675
-0.25099468 -0.58397436 0.031970043
-0.24776782 -0.58399177 0.031970263
-0.24475947 -0.5839501 0.031943172
-0.31314096 -0.57929951 0.031421043
-0.30956703 -0.57925415 0.031377286
-0.30306181 -0.57925385 0.031391334
-0.29942212 -0.57923925 0.031347033
-0.29640794 -0.5792647 0.03138008
-0.25268087 -0.57920903 0.031333167
-0.24402712 -0.57930446 0.031425919
-0.24365817 -0.5792917 0.031414956
-0.36815819 -0.56479871 0.031286001
-0.37899351 -0.63697398 0.032990679
-0.37393925 -0.63078952 0.032456569
-0.37264255 -0.62450099 0.032003984
-0.28550079 -0.62452608 0.032027259
-0.37955695 -0.62385082 0.032720305
-0.37327993 -0.61149204 0.032416604
-0.38132909 -0.60005355 0.032246225
-0.37774476 -0.60003954 0.032237049
-0.37520406 -0.60002571 0.032247189
-0.32726938 -0.60006559 0.032253906
-0.32694662 -0.60006678 0.032281727
-0.32413822 -0.60000789 0.032219168
-0.38142264 -0.59940672 0.032975178
-0.37815708 -0.5993886 0.032954406
-0.31325868 -0.59937727 0.032925006
-0.30751789 -0.59998667 0.032193046
-0.37373033 -0.59401631 0.032734446
-0.282269 -0.59394664 0.032667764
-0.38080928 -0.58866382 0.032627683
-0.37832794 -0.58862096 0.032609694
-0.37542522 -0.58869433 0.032675609
-0.37182125 -0.58869851 0.032669321
-0.36925596 -0.58867633 0.03265211
-0.36893004 -0.58868635 0.032675914
-0.36245936 -0.58870029 0.032672983
-0.35237673 -0.58864152 0.032628704
-0.35022163 -0.58868688 0.032663472
-0.34987 -0.58868992 0.032663271
-0.34589264 -0.58867556 0.032644983
-0.33649117 -0.58869898 0.032670975
-0.33319774 -0.58863991 0.032584421
-0.330396 -0.58871269 0.032667283
-0.32792965 -0.58871901 0.032693069
-0.3253417 -0.58870804 0.032694329
-0.3221015 -0.58874488 0.032716617
-0.31491929 -0.58864242 0.032617591
-0.31164917 -0.58867085 0.032631494
-0.30879489 -0.58862919 0.032600231
-0.30228171 -0.58867425 0.032626562
-0.29872516 -0.58864796 0.032618318
-0.2947357 -0.58862931 0.032611571
-0.28972134 -0.58860564 0.032584473
-0.28036731 -0.58867174 0.032642681
-0.26844987 -0.58863151 0.032614332
-0.26304942 -0.58861339 0.032577671
-0.26056299 -0.58869308 0.032668144
-0.24467982 -0.58865613 0.032626335
-0.32126561 -0.58400947 0.032023352
-0.38147342 -0.58337563 0.032730389
-0.37926358 -0.58335978 0.032697391
-0.37714508 -0.583395 0.032744698
-0.37676528 -0.58343422 0.032757636
-0.37248129 -0.58339614 0.032754052
-0.37116832 -0.58336246 0.032705117
-0.36780426 -0.58338106 0.032740135
-0.36541814 -0.5833959 0.032735739
-0.36491081 -0.5833959 0.032728173
-0.36308074 -0.58340937 0.032749359
-0.36278212 -0.58339608 0.032762781
-0.35909826 -0.58341026 0.032748189
-0.3576211 -0.58334082 0.032686651
-0.35662544 -0.58337516 0.032754976
-0.35409752 -0.58338481 0.032741223
-0.35261694 -0.58335257 0.032698959
-0.3514089 -0.58340311 0.032734975
-0.35083568 -0.58340454 0.032737032
-0.34866241 -0.58332121 0.032681346
-0.34692624 -0.58339179 0.032741845
-0.34508422 -0.58336616 0.032697137
-0.34075814 -0.58338445 0.032731697
-0.33948606 -0.5833478 0.032693323
-0.33841076 -0.58337164 0.03272561
-0.3373971 -0.58338356 0.032727446
-0.33386633 -0.58340716 0.03275178
-0.33230603 -0.58339727 0.032750398
-0.33025366 -0.58334172 0.032663587
-0.32641092 -0.58335602 0.032712858
-0.3173866 -0.58343589 0.032782868
-0.31593028 -0.58337814 0.032727223
-0.31449622 -0.5833863 0.032744441
-0.31087172 -0.58335274 0.03269903
-0.3091318 -0.58335 0.03270885
-0.30764514 -0.58335477 0.032703996
-0.30120638 -0.58333004 0.032686222
-0.29754248 -0.5833444 0.032694284
-0.29436526 -0.58335316 0.032721858
-0.29003432 -0.5833447 0.032696228
-0.28968424 -0.58335185 0.032718718
-0.2889151 -0.58337867 0.032729879
-0.28713572 -0.58331603 0.03267188
-0.28539535 -0.58335638 0.032706335
-0.28496858 -0.58337694 0.032719437
-0.28353149 -0.58338457 0.032725602
-0.28117269 -0.58331728 0.032682851
-0.2732214 -0.58338922 0.032724626
-0.27088323 -0.58335692 0.032699287
-0.26731658 -0.5833649 0.032729127
-0.26425236 -0.58335304 0.032697037
-0.26298085 -0.58337623 0.032715593
-0.25927547 -0.58334124 0.03269992
-0.25655732 -0.58339053 0.032742344
-0.2515122 -0.58338636 0.032749541
-0.2478531 -0.58338434 0.032720577
-0.24499097 -0.58338583 0.032732695
-0.24631488 -0.57864285 0.032139376
-0.28462631 -0.65885663 0.033519119
-0.28387961 -0.65885544 0.033535793
-0.37793985 -0.64329487 0.033808582
-0.28522375 -0.63631707 0.033646222
-0.37939486 -0.63005531 0.033083897
-0.37657461 -0.63009185 0.033095378
-0.37400097 -0.63009304 0.033105645
-0.37081078 -0.63006335 0.033088531
-0.28552678 -0.63003331 0.033074491
-0.37658378 -0.62943357 0.033781648
-0.37083194 -0.62939554 0.033739414
-0.28484535 -0.62937778 0.033741657
-0.37957871 -0.62315339 0.033368498
-0.37710819 -0.6232475 0.03343476
-0.37935939 -0.61703503 0.033187225
-0.37721279 -0.61702985 0.033192452
-0.37505457 -0.61703062 0.033202589
-0.37472048 -0.61702067 0.033194423
-0.38126764 -0.61637425 0.033908397
-0.37511212 -0.61635435 0.033900909
-0.28830323 -0.61699557 0.033154145
-0.2868017 -0.61698592 0.033154059
-0.3813861 -0.6102351 0.033870805
-0.37888989 -0.61025172 0.033864822
-0.37677601 -0.61020875 0.033854522
-0.3749139 -0.61057222 0.033536553
-0.28777176 -0.61024535 0.033865172
-0.38299474 -0.60476536 0.033292554
-0.37961844 -0.60478961 0.03333969
-0.3570762 -0.60478437 0.033297867
-0.35674328 -0.60477471 0.033312719
-0.35366744 -0.60478443 0.033324793
-0.34195605 -0.60476345 0.033291157
-0.31709188 -0.60477841 0.03329964
-0.3138237 -0.60474741 0.033264007
-0.3077738 -0.60476762 0.033297099
-0.30344859 -0.60474843 0.033284023
-0.29876861 -0.60472625 0.033262998
-0.29520059 -0.60479993 0.033327818
-0.29087102 -0.60480595 0.033341128
-0.38152206 -0.59877831 0.033686612
-0.3782621 -0.59876466 0.0336679
-0.3749758 -0.59876215 0.033679582
-0.37992555 -0.59336799 0.033422813
-0.34497768 -0.59336978 0.033434644
-0.33529884 -0.5933609 0.033432048
-0.3298665 -0.5934478 0.033502344
-0.32015085 -0.59340638 0.033479571
-0.30395338 -0.59336978 0.033435553
-0.28737482 -0.59335428 0.033412851
-0.38088688 -0.58804488 0.033363804
-0.37840009 -0.58802986 0.033377986
-0.37227994 -0.58807361 0.033392094
-0.371896 -0.58807141 0.033406634
-0.36472717 -0.58803928 0.033380568
-0.36255479 -0.58807421 0.033416767
-0.33761904 -0.58804846 0.033372477
-0.33336997 -0.58803201 0.033350728
-0.33049035 -0.58810109 0.033415899
-0.32798487 -0.58809125 0.033413727
-0.32545701 -0.58813894 0.0334526
-0.32225502 -0.588126 0.033453003
-0.31878975 -0.58807373 0.033411369
-0.31523517 -0.58808309 0.033413477
-0.31181234 -0.58804327 0.033381429
-0.30527475 -0.58804399 0.033372652
-0.29520774 -0.5880509 0.033371635
-0.29487294 -0.58803087 0.033366088
-0.28981671 -0.58800912 0.03334415
-0.28572315 -0.58806634 0.033393789
-0.2772004 -0.58807993 0.033404611
-0.27219498 -0.5880543 0.03337742
-0.26860902 -0.58801806 0.033353191
-0.26532599 -0.58806998 0.033404704
-0.26314393 -0.5880065 0.033332486
-0.26066431 -0.58807749 0.033389766
-0.25556117 -0.5880869 0.033406883
-0.25227439 -0.58804166 0.03335467
-0.38569593 -0.58277357 0.033476643
-0.38157976 -0.58276027 0.033478614
-0.37938347 -0.5827843 0.033479344
-0.37727919 -0.58278024 0.033480078
-0.3718552 -0.58282226 0.033516176
-0.36788538 -0.58279634 0.033504732
-0.36336011 -0.58280849 0.033499703
-0.36104399 -0.58277118 0.033479385
-0.35675195 -0.582775 0.033505473
-0.35166672 -0.58278996 0.033499114
-0.34917617 -0.58275002 0.033470657
-0.342002 -0.58279073 0.033489335
-0.34141934 -0.58277237 0.033486094
-0.34051901 -0.58278722 0.033485591
-0.33976635 -0.58280462 0.033476952
-0.33873114 -0.58275104 0.033463985
-0.33325887 -0.58280605 0.033500679
-0.32954818 -0.58274913 0.033457186
-0.32666838 -0.58280182 0.033514149
-0.32434967 -0.58282089 0.033539973
-0.32148448 -0.58280641 0.033530224
-0.31838936 -0.58284807 0.03354634
-0.31779471 -0.58283418 0.033522025
-0.31482631 -0.58278626 0.033496827
-0.31092879 -0.58275008 0.033452909
-0.30844963 -0.58277857 0.033473179
-0.30780983 -0.58278275 0.033495691
-0.30559555 -0.58273697 0.033442281
-0.30406237 -0.58277225 0.033468794
-0.29908252 -0.58278197 0.033468541
-0.29804254 -0.58275598 0.033465073
-0.29551849 -0.58275092 0.033454549
-0.29474419 -0.58277464 0.033469386
-0.29082015 -0.58275807 0.033445358
-0.28652182 -0.58271348 0.033426609
-0.28576994 -0.58274239 0.033444364
-0.27645487 -0.58271426 0.033445366
-0.27176529 -0.582726 0.033449952
-0.26891473 -0.58275807 0.033460788
-0.26567227 -0.58273119 0.03344373
-0.26020756 -0.58271927 0.033423286
-0.25736323 -0.58280098 0.033509344
-0.25450549 -0.58270437 0.03342583
-0.25158307 -0.58280408 0.03350151
-0.24793634 -0.5827772 0.033476911
-0.34787732 -0.6745863 0.034227319
-0.33935952 -0.67463946 0.034290243
-0.32875285 -0.67463928 0.034301646
-0.35072696 -0.67387235 0.034835722
-0.34717506 -0.67385513 0.034813877
-0.34372693 -0.67389119 0.034872305
-0.33078343 -0.67387164 0.034855589
-0.32806203 -0.67389292 0.034866296
-0.32551846 -0.67392069 0.034881331
-0.28285047 -0.65744168 0.034788609
-0.28371602 -0.6503824 0.034215041
-0.28250879 -0.64967066 0.034829244
-0.3779406 -0.64261734 0.034462672
-0.28502637 -0.64265984 0.034492396
-0.28469905 -0.64264852 0.034503859
-0.2839281 -0.64264101 0.034483258
-0.37872773 -0.63561988 0.034326281
-0.37582502 -0.63565528 0.034362022
-0.28405741 -0.63489467 0.034922156
-0.37668276 -0.62874746 0.034444507
-0.3737281 -0.62871176 0.034405712
-0.37956369 -0.62248617 0.034018189
-0.37714291 -0.6225661 0.034093224
-0.37455478 -0.62250012 0.034032047
-0.3815093 -0.62185937 0.034758396
-0.3812671 -0.61573201 0.03458697
-0.37911555 -0.61572713 0.034571853
-0.37694913 -0.61575377 0.034615055
-0.37519422 -0.61569083 0.034579948
-0.28655672 -0.61569047 0.034539718
-0.38144812 -0.60956144 0.034545731
-0.37895817 -0.60960084 0.034570251
-0.37683204 -0.60955352 0.034550834
-0.37496606 -0.60959995 0.03458976
-0.37478706 -0.60419118 0.034068391
-0.35285473 -0.60415691 0.034042232
-0.35154128 -0.60415387 0.034016594
-0.33880514 -0.60418272 0.034075674
-0.32695237 -0.60417026 0.034061778
-0.32010534 -0.60416704 0.034063112
-0.3067061 -0.60415035 0.034022734
-0.29382959 -0.60410768 0.034009501
-0.29022279 -0.60416108 0.034037724
-0.37684026 -0.60354006 0.03476996
-0.37523869 -0.60353887 0.034759231
-0.35218036 -0.6035285 0.034765825
-0.35182309 -0.60353106 0.034755047
-0.34999481 -0.60351986 0.034759223
-0.34390578 -0.60354125 0.034783587
-0.34068504 -0.60351688 0.034775253
-0.33817542 -0.6035319 0.034781326
-0.33563513 -0.60357118 0.03480361
-0.32988799 -0.60358477 0.034818802
-0.32303849 -0.60346252 0.03470559
-0.31949145 -0.60351801 0.034765743
-0.31293407 -0.60347044 0.034697056
-0.30610022 -0.60350561 0.034735888
-0.30578724 -0.60349703 0.034754921
-0.30211776 -0.60348284 0.034714226
-0.30110675 -0.60349548 0.034751762
-0.29713255 -0.60349584 0.034726571
-0.29314193 -0.60347843 0.03471192
-0.28629398 -0.6035496 0.034769733
-0.38157907 -0.59813613 0.034397256
-0.38252902 -0.59279937 0.034219246
-0.38007709 -0.59208429 0.034878068
-0.37686664 -0.59217441 0.034944884
-0.37358305 -0.59249222 0.034587458
-0.37095588 -0.59281301 0.034218311
-0.36852747 -0.59219903 0.034963395
-0.36641455 -0.59215295 0.034930669
-0.35079676 -0.59280038 0.034204554
-0.34643161 -0.59216487 0.034938533
-0.34559524 -0.59279692 0.034191526
-0.33217376 -0.59249139 0.034595959
-0.32712394 -0.59280455 0.034243412
-0.32033122 -0.59247613 0.034578819
-0.31345138 -0.59277958 0.034206405
-0.3066245 -0.59211504 0.034878626
-0.30372384 -0.59215289 0.034924813
-0.30032036 -0.59214771 0.034916572
-0.29619059 -0.59213972 0.034895424
-0.29580787 -0.59212774 0.034895528
-0.28741127 -0.59211916 0.034904327
-0.28429729 -0.59217548 0.034938861
-0.28399312 -0.59217584 0.034953497
-0.26993293 -0.59213209 0.034902629
-0.26701581 -0.5921706 0.034950797
-0.26240072 -0.59217817 0.034960672
-0.38104686 -0.58743089 0.034140576
-0.37592816 -0.58747298 0.034128081
-0.37235186 -0.58745986 0.034144513
-0.36659399 -0.58747959 0.034150839
-0.34998715 -0.58749205 0.0341684
-0.34614339 -0.58743125 0.034135882
-0.33772093 -0.58746088 0.034140304
-0.33057407 -0.58748388 0.03415411
-0.32556525 -0.58753675 0.034211978
-0.31904656 -0.58748072 0.034171242
-0.31552196 -0.58748645 0.03417084
-0.31190321 -0.58743846 0.034134898
-0.29944262 -0.58743978 0.034109399
-0.29530412 -0.58745986 0.03414895
-0.29025277 -0.5874933 0.034163963
-0.28993243 -0.58744431 0.034136154
-0.28629899 -0.58746821 0.034140907
-0.28594908 -0.5874728 0.034149911
-0.28017902 -0.58747739 0.034163088
-0.27728811 -0.58749455 0.034160569
-0.27475965 -0.5874387 0.034123883
-0.27226344 -0.58744532 0.034126967
-0.26899952 -0.58746088 0.034152694
-0.26539847 -0.58746451 0.034139652
-0.26112211 -0.58745074 0.03413219
-0.24380039 -0.58746082 0.034154665
-0.38760477 -0.58686239 0.034905441
-0.38541231 -0.58682311 0.034876429
-0.38328996 -0.58684987 0.034898914
-0.36916336 -0.58684057 0.034870256
-0.36666316 -0.58686829 0.034889959
-0.36273059 -0.58688092 0.034909487
-0.36058354 -0.58687592 0.034915023
-0.35808674 -0.58686888 0.034916788
-0.35569316 -0.58683479 0.034883857
-0.34639269 -0.58681965 0.034881771
-0.33900163 -0.58686358 0.034903102
-0.33824608 -0.58690155 0.034937177
-0.33357155 -0.58685154 0.034883216
-0.32778195 -0.58684516 0.034875687
-0.32565424 -0.586914 0.034957804
-0.32281861 -0.58691084 0.034961615
-0.31919414 -0.58691591 0.034962151
-0.31600368 -0.58686894 0.034919437
-0.30551437 -0.5868392 0.034899089
-0.30260676 -0.58683079 0.034882523
-0.2960971 -0.58684391 0.034891427
-0.29032344 -0.5868749 0.034911215
-0.28283712 -0.58681148 0.034860093
-0.26913881 -0.5868541 0.034903418
-0.26587585 -0.58683652 0.034871843
-0.25834277 -0.58687341 0.034904618
-0.25616834 -0.58680516 0.034843791
-0.25582054 -0.58682656 0.034867197
-0.25254157 -0.58685029 0.034886684
-0.24929674 -0.58686578 0.034906529
-0.24608591 -0.58682543 0.03487058
-0.35681948 -0.58215225 0.034239452
-0.31110543 -0.58213043 0.03419847
-0.27114543 -0.58213091 0.034204461
-0.26820737 -0.58218676 0.034237251
-0.25492251 -0.58214176 0.034199148
-0.24521179 -0.5821985 0.034250148
-0.34208953 -0.67311537 0.035415009
-0.33743173 -0.67310035 0.035394873
-0.28219849 -0.65672225 0.035395727
-0.37794876 -0.64193058 0.035087064
-0.28289485 -0.64191711 0.035090748
-0.37843889 -0.63425833 0.035635583
-0.37589365 -0.63498574 0.035018865
-0.38174969 -0.62804967 0.035133876
-0.37886199 -0.62803042 0.03508471
-0.37890902 -0.62738127 0.035785053
-0.3765561 -0.62739563 0.035780538
-0.37378755 -0.62799579 0.035053499
-0.37938932 -0.62117946 0.035411753
-0.37685034 -0.62122548 0.035453636
-0.37428218 -0.62116838 0.03537919
-0.37919211 -0.61502779 0.035244081
-0.37698576 -0.61507553 0.035277799
-0.37522221 -0.61500371 0.035241149
-0.28554368 -0.61502403 0.035231605
-0.38357514 -0.6143949 0.035974484
-0.28630936 -0.61438102 0.035928015
-0.28437263 -0.61437821 0.035945453
-0.28376648 -0.61436611 0.035927277
-0.38120896 -0.60827094 0.035944924
-0.3768788 -0.60890806 0.035262939
-0.28974783 -0.60828608 0.035969999
-0.28683275 -0.60891205 0.03524546
-0.35556507 -0.60284388 0.035447225
-0.3490462 -0.60289854 0.035492044
-0.34871408 -0.60289532 0.035473384
-0.34326634 -0.60290426 0.035502832
-0.34293303 -0.60290861 0.035506196
-0.34003031 -0.60289788 0.035484549
-0.33754805 -0.60286242 0.035463348
-0.3350246 -0.60293084 0.035529379
-0.33287728 -0.602907 0.035521489
-0.3154555 -0.60287374 0.035454564
-0.31234509 -0.60283625 0.035434183
-0.30132586 -0.60285676 0.035442799
-0.2924709 -0.6028201 0.035430208
-0.38454553 -0.59754997 0.035164881
-0.38161975 -0.59751517 0.035108358
-0.29844895 -0.59748614 0.035095721
-0.3845953 -0.59693849 0.03589176
-0.38168862 -0.59689498 0.035852108
-0.37849277 -0.59684563 0.035835616
-0.37527794 -0.59686702 0.035868999
-0.36866051 -0.59156686 0.03567899
-0.36654356 -0.59152561 0.035669126
-0.35120323 -0.59155166 0.035691779
-0.34710172 -0.59155631 0.035680413
-0.3383584 -0.59157228 0.035691939
-0.32039258 -0.59156203 0.035695486
-0.30710772 -0.59149009 0.035629269
-0.30386651 -0.59151781 0.035639979
-0.29629946 -0.59150302 0.035637904
-0.29124796 -0.5915044 0.035626207
-0.28443739 -0.59155214 0.035684526
-0.28188807 -0.59153289 0.035646476
-0.27902174 -0.59156036 0.035684757
-0.27356243 -0.59154695 0.035664883
-0.26996055 -0.59151328 0.035628147
-0.26714799 -0.59154916 0.035687294
-0.25993279 -0.59147209 0.035605151
-0.24804749 -0.591524 0.035639912
-0.24556556 -0.59154356 0.035686042
-0.38583618 -0.58626634 0.035659239
-0.38083354 -0.5862186 0.035621531
-0.37668478 -0.58618391 0.035596952
-0.36281934 -0.58628374 0.035662416
-0.36065432 -0.58630979 0.035704207
-0.35816032 -0.58627224 0.035676166
-0.35018542 -0.58623654 0.035625137
-0.3473044 -0.58627421 0.035657756
-0.34664285 -0.58623463 0.035638787
-0.33979967 -0.58626986 0.035668779
-0.33115402 -0.5862509 0.035667866
-0.33078432 -0.58626902 0.03566109
-0.32783654 -0.58624101 0.0356328
-0.32577786 -0.58630246 0.035703771
-0.31607082 -0.58626539 0.035676524
-0.30918625 -0.58621222 0.03561224
-0.29984748 -0.58623189 0.035636116
-0.29656962 -0.58623952 0.035630278
-0.28651288 -0.58623385 0.035638459
-0.2782357 -0.58618891 0.035601594
-0.26972806 -0.58623224 0.035632588
-0.2632975 -0.58625555 0.035654739
-0.25629336 -0.58619171 0.035589639
-0.25302953 -0.58627409 0.035677571
-0.35252324 -0.6716938 0.036621582
-0.38128316 -0.63357878 0.036269058
-0.37847984 -0.63360596 0.03631109
-0.37896064 -0.62670797 0.036448993
-0.28680256 -0.62669712 0.036441058
-0.38120815 -0.62053376 0.036117364
-0.38310814 -0.61982125 0.036764856
-0.37698144 -0.60830861 0.036015455
-0.37881756 -0.6076622 0.036683634
-0.37973237 -0.60226882 0.036214747
-0.33218786 -0.60228205 0.036242113
-0.32824028 -0.6023047 0.036252402
-0.32203716 -0.6022144 0.03615576
-0.32138684 -0.60222375 0.036159255
-0.31815013 -0.60220248 0.036149714
-0.31486648 -0.60223848 0.036173154
-0.31164995 -0.60220379 0.03614809
-0.30880931 -0.60222292 0.036174096
-0.30479586 -0.60223055 0.036181457
-0.29582414 -0.60224497 0.036185279
-0.2918663 -0.60219133 0.036148995
-0.34704098 -0.60163438 0.036927506
-0.34630221 -0.60161173 0.036919132
-0.33082607 -0.60166526 0.036982503
-0.32760787 -0.60166436 0.036971044
-0.32506531 -0.60161823 0.036928955
-0.32441974 -0.60161656 0.036927227
-0.32110649 -0.60159993 0.036893815
-0.3203508 -0.60159588 0.036885656
-0.31427622 -0.60158145 0.036900733
-0.30811155 -0.60157698 0.036875267
-0.29983079 -0.60159498 0.03689326
-0.29557955 -0.60158706 0.036890835
-0.3821806 -0.59619111 0.03653498
-0.37855744 -0.59622395 0.036552645
-0.3461265 -0.59625286 0.036586549
-0.37759876 -0.59094298 0.036423143
-0.34718037 -0.59094119 0.036422282
-0.33919939 -0.5909093 0.036398891
-0.3388609 -0.59091341 0.03640211
-0.30426082 -0.59092146 0.036399033
-0.30070966 -0.59089559 0.03637642
-0.27659464 -0.59087622 0.036380235
-0.24563928 -0.59092551 0.036418717
-0.35608697 -0.58566278 0.036417183
-0.31935623 -0.58570188 0.036465798
-0.29232183 -0.58561301 0.036360972
-0.28733498 -0.58562678 0.03637249
-0.28410044 -0.5856086 0.03636726
-0.28334942 -0.58560723 0.036358085
-0.28050759 -0.58566076 0.036418159
-0.26644713 -0.58561736 0.036368087
-0.2589148 -0.58566314 0.036425069
-0.37773374 -0.63951433 0.037369914
-0.37642828 -0.62602156 0.037105337
-0.28609005 -0.62602496 0.037110552
-0.35766688 -0.60695386 0.037374139
-0.28882149 -0.60699779 0.037374195
-0.33343124 -0.60104322 0.037689082
-0.34558669 -0.60096806 0.037614424
-0.31680697 -0.60090667 0.037548162
-0.29919943 -0.60097396 0.037628084
-0.34692526 -0.59559691 0.037274387
-0.29298502 -0.59560311 0.037282627
-0.34769604 -0.59028655 0.037157577
-0.31049076 -0.59025133 0.037091382
-0.2842581 -0.59030074 0.037144955
-0.270477 -0.59030104 0.037144262
-0.26265439 -0.59032398 0.037151534
-0.25763869 -0.59028929 0.037133172
-0.25112781 -0.59032124 0.037174389
-0.2478323 -0.59031034 0.037140053
-0.3664183 -0.58967209 0.037889481
-0.26486412 -0.58964163 0.037849031
-0.25360829 -0.58507407 0.037180003
-0.36801535 -0.55209839 0.037111901
-0.28380063 -0.65312392 0.038433354
-0.28553623 -0.64542085 0.038567692
-0.28608641 -0.63151932 0.038247976
-0.28522462 -0.63085657 0.038912222
-0.28467643 -0.63086724 0.038943585
-0.28514791 -0.62466842 0.038443498
-0.35157368 -0.60633916 0.038089897
-0.35886917 -0.60571074 0.038805023
-0.35676247 -0.60566497 0.038778953
-0.35025728 -0.60569835 0.038799282
-0.29113328 -0.60571289 0.038805857
-0.290795 -0.60571253 0.038806364
-0.34775692 -0.59500813 0.038049452
-0.34858486 -0.59435171 0.038767755
-0.34031701 -0.67665398 0.039599337
-0.33652231 -0.67665571 0.039594669
-0.35436428 -0.66797823 0.039468363
-0.35588035 -0.65952349 0.039827969
-0.28377578 -0.6524244 0.039058134
-0.28440744 -0.64469951 0.039162677
-0.28378919 -0.64395487 0.039778076
-0.28535306 -0.63698786 0.039528854
-0.28447819 -0.62398344 0.039086912
-0.28681543 -0.6171698 0.039492972
-0.28542808 -0.61712861 0.039442956
-0.35535139 -0.60505956 0.039499894
-0.34959108 -0.60505521 0.039499249
-0.34416118 -0.60504282 0.039478179
-0.33868724 -0.60503876 0.039477304
-0.33624214 -0.60510588 0.039556921
-0.33375278 -0.60508937 0.039562702
-0.32039154 -0.60502833 0.0394734
-0.28726456 -0.60506129 0.039502814
-0.29788402 -0.59971273 0.039066445
-0.35161567 -0.67553914 0.040433601
-0.34843609 -0.67586756 0.040121894
-0.34771824 -0.67514151 0.040709406
-0.3446494 -0.67588031 0.040137865
-0.34338361 -0.67550123 0.040407702
-0.33906284 -0.67584425 0.040103201
-0.33832961 -0.67513007 0.040685032
-0.33548039 -0.67554724 0.040461067
-0.33480889 -0.675156 0.040733624
-0.33188707 -0.67590988 0.040177632
-0.32897049 -0.67515683 0.04070672
-0.32681856 -0.6759153 0.040178198
-0.32431203 -0.67585248 0.040127408
-0.3536787 -0.66724741 0.040061351
-0.35510087 -0.65875965 0.040381201
-0.28327036 -0.6587739 0.040393211
-0.282722 -0.65877372 0.040388308
-0.28167731 -0.6580385 0.04098193
-0.28313422 -0.64324898 0.040417321
-0.28273118 -0.64326358 0.040426034
-0.28467131 -0.6363045 0.040167723
-0.28378576 -0.63562751 0.04082657
-0.2833716 -0.62949735 0.04025827
-0.35889918 -0.6097455 0.040783588
-0.28734195 -0.60972118 0.040740438
-0.3485426 -0.60444558 0.040237732
-0.34079754 -0.60441995 0.040209163
-0.3380799 -0.60438979 0.040175896
-0.33311418 -0.60445464 0.040265732
-0.32663158 -0.60441428 0.040226661
-0.32587633 -0.60441792 0.04020533
-0.31941202 -0.60434282 0.040151078
-0.3158097 -0.60438466 0.040198036
-0.3129032 -0.60437608 0.040181015
-0.30962908 -0.6043883 0.040167816
-0.30102438 -0.60441101 0.040199757
-0.34709743 -0.60373652 0.040878534
-0.34678546 -0.60373378 0.040884033
-0.34322387 -0.60371888 0.040867746
-0.34284866 -0.60371917 0.040856112
-0.33209437 -0.6038155 0.040981214
-0.32878867 -0.6037721 0.040928144
-0.32526657 -0.60377699 0.040927492
-0.31509325 -0.60374963 0.040902719
-0.31224769 -0.60373348 0.040873472
-0.30903459 -0.60372311 0.040853646
-0.30576581 -0.60375851 0.040912133
-0.29265076 -0.60372555 0.040877711
-0.35417297 -0.67440355 0.041280657
-0.3503921 -0.67440999 0.041282866
-0.34698817 -0.67440486 0.041283812
-0.3376112 -0.67438745 0.041265264
-0.3340503 -0.67438859 0.041274913
-0.33076206 -0.67444134 0.041315213
-0.32829317 -0.67435926 0.041265566
-0.32575586 -0.67443967 0.041320309
-0.32323459 -0.67437232 0.041260753
-0.31669652 -0.67439544 0.04125569
-0.35349274 -0.67362708 0.041824296
-0.34621593 -0.67368633 0.041861717
-0.3412585 -0.67365807 0.041852094
-0.33009976 -0.67370129 0.041902091
-0.32496801 -0.67369151 0.041894011
-0.31604537 -0.67365479 0.041841172
-0.28438115 -0.67371243 0.041895222
-0.34615496 -0.60309064 0.041591786
-0.34573287 -0.60314035 0.041635927
-0.33967632 -0.60314113 0.04162753
-0.33717427 -0.60312957 0.041625854
-0.33144403 -0.60316277 0.041666739
-0.3281554 -0.60311502 0.041634552
-0.32463917 -0.60314316 0.041646115
-0.32135397 -0.60308319 0.041593626
-0.31446305 -0.60308367 0.041581586
-0.3083905 -0.60307688 0.041558981
-0.30475447 -0.60310447 0.041607566
-0.29970264 -0.60313809 0.041622728
-0.29613781 -0.60310704 0.041611947
-0.28929061 -0.60310668 0.041604411
-0.2889117 -0.60309392 0.041575328
-0.35236263 -0.67253184 0.042671278
-0.35171759 -0.67216283 0.042980004
-0.34916699 -0.67292327 0.042428207
-0.3365874 -0.67292047 0.042420998
-0.31923127 -0.67294466 0.042432345
-0.31888199 -0.67292404 0.042429708
-0.28277406 -0.6635977 0.042999554
-0.28614819 -0.6084277 0.042138327
-0.3600187 -0.60782498 0.042865209
-0.35969168 -0.60779488 0.042831238
-0.28878567 -0.60781592 0.042865407
-0.34480429 -0.60247934 0.042335369
-0.33656359 -0.60250372 0.04236117
-0.33435079 -0.60252982 0.042370133
-0.3037686 -0.60242325 0.042279687
-0.29909131 -0.60244113 0.042298235
-0.29871291 -0.60240161 0.042257402
-0.29117092 -0.60246462 0.042317931
-0.31713527 -0.6017701 0.042969596
-0.31062207 -0.60181481 0.042995784
-0.30344537 -0.60178232 0.042985
-0.30236277 -0.60178918 0.042971916
-0.29806191 -0.60174668 0.042953532
-0.31816041 -0.67219716 0.043004069
-0.28479534 -0.67220598 0.043039583
-0.28537914 -0.67147362 0.043584693
-0.2831721 -0.66290385 0.043625675
-0.28212932 -0.66286087 0.043597959
-0.28443334 -0.65440935 0.04395137
-0.28592718 -0.63290137 0.043459684
-0.2863808 -0.61920571 0.043717027
-0.28589022 -0.61921084 0.043721806
-0.35188505 -0.60715914 0.043549769
-0.28805619 -0.60714769 0.043559182
-0.28519243 -0.60712862 0.043524273
-0.35354337 -0.60182106 0.043018099
-0.35214075 -0.60116595 0.043720245
-0.33273196 -0.60118908 0.043766782
-0.32683349 -0.60182732 0.043034233
-0.32260889 -0.60110945 0.043667592
-0.3160941 -0.60115069 0.043694127
-0.29739678 -0.60112345 0.043667186
-0.29516536 -0.60181832 0.043008365
-0.29449344 -0.6018194 0.043018006
-0.36264861 -0.55219454 0.043451481
-0.35528693 -0.66994983 0.044688173
-0.28246161 -0.66215688 0.044197906
-0.35539526 -0.66144359 0.044796772
-0.35418057 -0.66143078 0.044801522
-0.28355786 -0.65368474 0.044534624
-0.28425628 -0.64601088 0.044575673
-0.28357169 -0.64603812 0.044596914
-0.28454596 -0.63150948 0.044734359
-0.28534213 -0.62529355 0.04408969
-0.28497213 -0.62529159 0.044073503
-0.28429407 -0.62460774 0.044724688
-0.2846666 -0.61854178 0.044401191
-0.32964036 -0.60583347 0.044938769
-0.31339836 -0.60582185 0.044913895
-0.30699569 -0.60583043 0.044939417
-0.2961843 -0.60579091 0.044897269
-0.29367062 -0.60581422 0.044920046
-0.35436738 -0.66922981 0.045286562
-0.2829634 -0.6692788 0.045337617
-0.35304293 -0.66850609 0.04585747
-0.35453647 -0.66070575 0.045362335
-0.28360158 -0.66072917 0.045401748
-0.28266647 -0.66072631 0.045394957
-0.35557237 -0.65263438 0.045492601
-0.28248799 -0.65260839 0.045439847
-0.28357911 -0.64530998 0.045196254
-0.28461134 -0.63766557 0.045467257
-0.34692925 -0.60519737 0.045639552
-0.34366897 -0.60514015 0.045563195
-0.3405115 -0.60519814 0.045659337
-0.33257383 -0.60523999 0.045699846
-0.32254398 -0.60514838 0.04560921
-0.31960124 -0.60511005 0.045557115
-0.31567973 -0.60511518 0.045574371
-0.31243634 -0.60514396 0.045586217
-0.30955258 -0.60513645 0.045582235
-0.29012609 -0.6051054 0.045581877
-0.34386477 -0.6762991 0.046565346
-0.33528262 -0.67629027 0.046580594
-0.32950687 -0.676274 0.046558633
-0.32440552 -0.67630434 0.046582837
-0.35456601 -0.65155214 0.046399098
-0.28650761 -0.60982382 0.046945706
-0.35479075 -0.6045059 0.046316259
-0.35313508 -0.60453862 0.046306096
-0.34576309 -0.60453844 0.04633867
-0.34308004 -0.60448527 0.046282619
-0.34056628 -0.60455382 0.046340063
-0.33551228 -0.60454744 0.046368688
-0.3319419 -0.60457838 0.046382561
-0.32527164 -0.60449523 0.046300735
-0.32182074 -0.60451347 0.046302933
-0.31858495 -0.60448498 0.046302006
-0.31494835 -0.60447007 0.046255395
-0.30457276 -0.60447073 0.046275407
-0.29599082 -0.60450387 0.046308104
-0.29229948 -0.60452706 0.046317801
-0.2919943 -0.60452706 0.046332464
-0.28926852 -0.60445917 0.046268478
-0.35214025 -0.60383213 0.046984617
-0.34246138 -0.60382318 0.046982698
-0.31142741 -0.60384709 0.046994533
-0.3085995 -0.60383201 0.046980198
-0.30333537 -0.60382998 0.046969794
-0.35075489 -0.67556792 0.04715205
-0.3473193 -0.67557371 0.04715734
-0.3431434 -0.67557025 0.047133494
-0.34248391 -0.6755659 0.047164332
-0.33432186 -0.67554188 0.047123231
-0.32875606 -0.67554587 0.047122911
-0.32368293 -0.67557406 0.047142927
-0.31722659 -0.67556351 0.04712588
-0.34998021 -0.67481333 0.047692537
-0.34170035 -0.67483085 0.047713399
-0.33744362 -0.67482418 0.047715928
-0.33345181 -0.67479002 0.047682825
-0.33074346 -0.67485273 0.047735907
-0.32798356 -0.67484164 0.047721893
-0.32581934 -0.67486519 0.047729649
-0.32299933 -0.67482799 0.047715925
-0.31654045 -0.67481387 0.047705866
-0.31402203 -0.67484826 0.047740702
-0.28226212 -0.66627693 0.047585372
-0.28733721 -0.62189335 0.047367301
-0.28568739 -0.60914737 0.047613963
-0.35339576 -0.60386789 0.047011033
-0.33956954 -0.6038689 0.047031794
-0.33742377 -0.60389358 0.047064558
-0.33488595 -0.60387731 0.047043353
-0.33385226 -0.60323477 0.047752265
-0.3312819 -0.60392046 0.047069326
-0.33040804 -0.60325062 0.047752507
-0.32806176 -0.60387003 0.047028527
-0.32121539 -0.60386759 0.047029864
-0.3205269 -0.60351652 0.047347087
-0.31728029 -0.60317987 0.047678526
-0.31403103 -0.60315216 0.047639396
-0.30772501 -0.60318458 0.047677875
-0.30220243 -0.60317612 0.047693927
-0.29634738 -0.60386711 0.047010448
-0.29423758 -0.60315973 0.047654193
-0.29385155 -0.60313857 0.047656219
-0.29133201 -0.60386217 0.047004685
-0.34925652 -0.67407924 0.048247814
-0.34601709 -0.67408264 0.048275143
-0.34551787 -0.67409766 0.048292484
-0.34044307 -0.67410952 0.048290454
-0.3399072 -0.67412579 0.048299726
-0.3363446 -0.6740936 0.048291314
-0.32983601 -0.67410892 0.048301734
-0.32512644 -0.67410702 0.04828449
-0.32476762 -0.67411047 0.048286237
-0.32224759 -0.67408627 0.04826811
-0.31922406 -0.67408919 0.048287049
-0.31580037 -0.67407113 0.048250541
-0.31329995 -0.67409265 0.048272055
-0.35251474 -0.67330545 0.048794128
-0.34859917 -0.67330968 0.048784185
-0.3446013 -0.67334235 0.048840333
-0.33922935 -0.67332572 0.048824672
-0.33202532 -0.67332673 0.048828412
-0.32913309 -0.67334676 0.048837792
-0.31469193 -0.67335081 0.048830502
-0.31254676 -0.67328894 0.048783123
-0.3104291 -0.67332941 0.04882507
-0.28078118 -0.66558301 0.048184041
-0.28250435 -0.66482848 0.048726253
-0.28188631 -0.66480672 0.048727356
-0.28578544 -0.62727094 0.048500452
-0.28560871 -0.6205247 0.048687879
-0.28492653 -0.6205442 0.0487221
-0.28875208 -0.60851419 0.048316285
-0.35487553 -0.60780364 0.048955493
-0.35379878 -0.60783219 0.048996564
-0.28792453 -0.60784489 0.048996903
-0.34401497 -0.60256749 0.048423499
-0.32309112 -0.60252064 0.04836639
-0.31653842 -0.60253429 0.048372161
-0.31342727 -0.6024971 0.048351754
-0.31034791 -0.60251868 0.048371945
-0.30689859 -0.60252887 0.048369858
-0.30225584 -0.6025117 0.048362844
-0.35601786 -0.66332203 0.049854908
-0.35536394 -0.66330898 0.049859881
-0.35494059 -0.66333252 0.049862884
-0.28423953 -0.64720857 0.049980797
-0.28368554 -0.64722323 0.049991619
-0.2857008 -0.63345134 0.049238447
-0.28498706 -0.63272387 0.049822178
-0.28628021 -0.6131202 0.04973371
-0.29047033 -0.60716099 0.049668677
-0.28726354 -0.60713977 0.049648255
-0.35567251 -0.60118681 0.049765665
-0.3487699 -0.60188836 0.049087092
-0.3325842 -0.60193348 0.049149018
-0.32504809 -0.60124075 0.049780693
-0.31563741 -0.60122055 0.049757838
-0.30916613 -0.60119677 0.049743682
-0.3005389 -0.60123008 0.049780168
-0.29763454 -0.60185468 0.049052253
-0.29654455 -0.60186416 0.049070489
-0.29293495 -0.6018315 0.049041983
-0.35538584 -0.671085 0.050486591
-0.35433972 -0.67107612 0.050502975
-0.3539587 -0.66258425 0.05045405
-0.28225061 -0.66255897 0.050414454
-0.28147939 -0.66183776 0.050996449
-0.35611111 -0.65413469 0.050676163
-0.355533 -0.65415001 0.050698504
-0.354628 -0.65415013 0.050676454
-0.28367403 -0.65486097 0.050062735
-0.28275213 -0.65413213 0.050660294
-0.28280836 -0.64648718 0.050573491
-0.28543437 -0.6396088 0.050126243
-0.28486359 -0.6396066 0.050121274
-0.2841984 -0.63888073 0.050745443
-0.28344947 -0.6388756 0.050723165
-0.28453094 -0.62517971 0.050446626
-0.28394714 -0.61917031 0.050030243
-0.28746971 -0.61245245 0.050399967
-0.35286453 -0.60648906 0.050355729
-0.33882907 -0.60654575 0.050399415
-0.28982207 -0.60650021 0.050343961
-0.32549441 -0.60579914 0.05099757
-0.29643273 -0.60578066 0.050999824
-0.28596851 -0.60577291 0.050984878
-0.35031128 -0.60053909 0.050443392
-0.31828552 -0.60050899 0.050418392
-0.3542788 -0.67035091 0.051047344
-0.35362193 -0.67033821 0.051064778
-0.35283598 -0.66960317 0.051620781
-0.35616338 -0.64508712 0.051853232
-0.35564733 -0.64557129 0.05144158
-0.28681165 -0.6117667 0.051059283
-0.34613472 -0.60518205 0.051740032
-0.34326771 -0.60515791 0.05172858
-0.34071979 -0.60580856 0.051021457
-0.33995092 -0.60514826 0.051692888
-0.33789182 -0.60520697 0.051766887
-0.33501559 -0.60519654 0.051778432
-0.30837023 -0.6051389 0.051708024
-0.29971662 -0.60513794 0.051679831
-0.2921052 -0.60517484 0.05172554
-0.28873959 -0.61641473 0.052614063
-0.35017249 -0.60451931 0.052411407
-0.34943351 -0.60449666 0.052402582
-0.33720005 -0.60454583 0.052451532
-0.33108765 -0.60455012 0.052452642
-0.32840714 -0.60449511 0.052403495
-0.32771552 -0.60450184 0.052414164
-0.32099819 -0.6044516 0.052349225
-0.31449798 -0.60445333 0.052347828
-0.30296314 -0.60448104 0.052376825
-0.29867131 -0.60449314 0.052384995
-0.28857368 -0.60452259 0.052401785
-0.34287715 -0.67665005 0.053033251
-0.32917461 -0.67664719 0.053017862
-0.35367993 -0.67586958 0.053536493
-0.35012934 -0.67585206 0.053514414
-0.34974477 -0.67584831 0.053521357
-0.34612671 -0.67587036 0.053540226
-0.34578848 -0.67585105 0.053534266
-0.33428651 -0.67583978 0.053525969
-0.3335681 -0.67586601 0.05355522
-0.32830036 -0.67590517 0.053579748
-0.3234584 -0.67586368 0.053543191
-0.32017487 -0.67588663 0.05357201
-0.31692478 -0.67587179 0.053540684
-0.28674433 -0.62244493 0.053022902
-0.2853426 -0.62175304 0.05368498
-0.28738844 -0.61503214 0.053920876
-0.28643036 -0.61572468 0.05328057
-0.35130361 -0.6038413 0.053086959
-0.34948725 -0.6038664 0.05310715
-0.34821105 -0.60314691 0.053731315
-0.34228739 -0.60384077 0.053079687
-0.34143668 -0.60317385 0.053757757
-0.33871987 -0.60314381 0.053724688
-0.33334687 -0.60321158 0.053824585
-0.33043391 -0.60387903 0.053133626
-0.32972005 -0.6031723 0.053772647
-0.32359073 -0.60380614 0.053032406
-0.32287267 -0.60314655 0.053727236
-0.31961289 -0.60309619 0.053673267
-0.31679866 -0.60313183 0.053742178
-0.31384808 -0.60379857 0.053050544
-0.30717033 -0.60381997 0.053068995
-0.30125961 -0.60317475 0.053759273
-0.29051307 -0.60315609 0.053744763
-0.35368088 -0.67510664 0.054090753
-0.34502593 -0.67508805 0.054072585
-0.34469247 -0.67508632 0.054065261
-0.34036729 -0.67507356 0.054052453
-0.33710584 -0.67514044 0.054107234
-0.33675712 -0.67514449 0.054117266
-0.32740831 -0.675143 0.054119974
-0.32556877 -0.6751101 0.054083645
-0.32258257 -0.67510867 0.054083139
-0.31940883 -0.67511725 0.054093931
-0.31139341 -0.675143 0.054109171
-0.35254094 -0.67437351 0.054632455
-0.34846002 -0.67435217 0.054623827
-0.34394467 -0.6743505 0.054604292
-0.33963522 -0.67431444 0.054586995
-0.33607125 -0.67438269 0.054659121
-0.33533439 -0.67433751 0.054616757
-0.3324596 -0.67437828 0.054661129
-0.32989955 -0.67436552 0.054619327
-0.32157871 -0.67437875 0.054637272
-0.31879178 -0.6743263 0.054604616
-0.31533429 -0.67438006 0.054662835
-0.31332111 -0.67432022 0.054579526
-0.35649905 -0.66587597 0.054430116
-0.35539621 -0.66545796 0.054649703
-0.35500595 -0.65664303 0.054986648
-0.28411227 -0.64939296 0.054477442
-0.28341344 -0.64900231 0.054748747
-0.2852459 -0.64142072 0.054768819
-0.2843169 -0.6413936 0.054725282
-0.28380987 -0.6413542 0.054703157
-0.28575665 -0.63382435 0.054952327
-0.28543603 -0.62706655 0.054850988
-0.28469825 -0.6270963 0.05486656
-0.28469893 -0.62105507 0.054325338
-0.35980797 -0.60836983 0.05440639
-0.28696328 -0.60838664 0.054392636
-0.28339663 -0.60839397 0.054422755
-0.33809206 -0.60251015 0.05444549
-0.33593094 -0.60256004 0.054493733
-0.3323611 -0.60254174 0.054486223
-0.32907254 -0.60249519 0.05445388
-0.3258917 -0.60251039 0.054451127
-0.32227138 -0.60246509 0.054413155
-0.31897306 -0.60242814 0.054359347
-0.31538582 -0.60245836 0.054401293
-0.30966109 -0.6024583 0.054377273
-0.29327711 -0.60246003 0.054401349
-0.28982946 -0.60247588 0.054394804
-0.35166967 -0.67361081 0.055163227
-0.34748948 -0.67361921 0.055174548
-0.34283715 -0.6736024 0.055158719
-0.33870924 -0.67358255 0.055144586
-0.33536866 -0.67360896 0.055188231
-0.32921025 -0.67355251 0.055149361
-0.32433444 -0.6735661 0.055148926
-0.31799653 -0.6735822 0.055160344
-0.31259158 -0.6735689 0.055121098
-0.31011018 -0.67364156 0.055226456
-0.30758101 -0.67354989 0.055117287
-0.3547236 -0.67284089 0.055706434
-0.33383802 -0.67282933 0.055689473
-0.31695101 -0.67283231 0.055696122
-0.35433343 -0.66431129 0.055466775
-0.35389289 -0.66431248 0.05543888
-0.35651845 -0.65668344 0.055042773
-0.35580698 -0.65670294 0.055058677
-0.28410041 -0.65666741 0.055016063
-0.28339738 -0.65592957 0.055595621
-0.35648888 -0.64834404 0.055420265
-0.28233364 -0.64825112 0.055316139
-0.35609415 -0.64760673 0.055979513
-0.35467276 -0.64757127 0.055962928
-0.283142 -0.64063042 0.055314917
-0.28507537 -0.63308138 0.055543583
-0.28475067 -0.63307792 0.055554628
-0.2838186 -0.62640065 0.055524092
-0.32599273 -0.60704142 0.055737998
-0.28997916 -0.60705829 0.055758253
-0.3459965 -0.60184622 0.055120345
-0.34273595 -0.60179013 0.055044409
-0.33993098 -0.60186034 0.055129193
-0.33746713 -0.60186338 0.055155635
-0.33163998 -0.60188735 0.055179972
-0.30900311 -0.6017918 0.055057619
-0.3046878 -0.60146141 0.055416491
-0.29943678 -0.60176063 0.055047989
-0.29601026 -0.60183203 0.055108085
-0.29504973 -0.60114342 0.055776291
-0.29135934 -0.60116643 0.055786096
-0.35344517 -0.67130184 0.056758415
-0.28442854 -0.66359395 0.056043554
-0.35507911 -0.64760983 0.056004882
-0.35696185 -0.64004111 0.056033731
-0.35624447 -0.63931471 0.056624379
-0.35587025 -0.63927811 0.05661688
-0.28405622 -0.63237655 0.056166485
-0.28367135 -0.6323843 0.05617303
-0.28725877 -0.61892796 0.056179844
-0.34656295 -0.60636258 0.056399703
-0.29290488 -0.60638463 0.056432035
