# .PCD v0.7 - Point Cloud Data file format
VERSION 0.7
FIELDS x y z
SIZE 4 4 4
TYPE F F F
COUNT 1 1 1
WIDTH 1341
HEIGHT 1
VIEWPOINT 0 0 0 1 0 0 0
POINTS 1341
DATA ascii
-0.2729353 -0.62596792 0.037059218
-0.2539489 -0.62531 0.037744261
-0.2268796 -0.6253317 0.037756499
-0.15061095 -0.62533522 0.037752695
-0.14303896 -0.62533402 0.037756458
-0.14026289 -0.62535518 0.037786171
-0.13235041 -0.62528956 0.037723046
-0.26159963 -0.61917722 0.037454676
-0.26014906 -0.619201 0.037461787
-0.25124967 -0.61911535 0.037395783
-0.24823636 -0.61921006 0.037488986
-0.1575934 -0.61915439 0.037413333
-0.20450373 -0.61307436 0.037313033
-0.16211718 -0.6130197 0.037286472
-0.15845852 -0.61307973 0.037322938
-0.14554495 -0.61306721 0.03732295
-0.20244841 -0.61233085 0.037937749
-0.1606964 -0.6123684 0.037971269
-0.1510729 -0.61237603 0.037988104
-0.23435338 -0.60700691 0.037396189
-0.19395043 -0.60699135 0.037367579
-0.18955323 -0.60699743 0.037363295
-0.22632219 -0.60098493 0.037632503
-0.21700652 -0.60094416 0.037596587
-0.21550405 -0.60092574 0.037583545
-0.21073203 -0.60098451 0.037608758
-0.18018384 -0.60093427 0.037580788
-0.17545909 -0.60097945 0.037596606
-0.17196861 -0.60092241 0.03756867
-0.17015758 -0.60093117 0.037588257
-0.16832063 -0.60097897 0.037627064
-0.21618104 -0.5956049 0.037297059
-0.21323577 -0.59557247 0.037247501
-0.15709782 -0.59562165 0.037305601
-0.20442124 -0.59029073 0.037123099
-0.16129594 -0.59032679 0.037164509
-0.15521066 -0.59029287 0.037113264
-0.15333664 -0.59031975 0.037167203
-0.18509193 -0.58969343 0.037896968
-0.15849228 -0.58967227 0.037868131
-0.17846465 -0.58501923 0.037130125
-0.1810416 -0.57982159 0.037313454
-0.1644655 -0.57459563 0.03756408
-0.19869111 -0.68754297 0.038250677
-0.19968748 -0.68682486 0.038821019
-0.192616 -0.68676889 0.03879327
-0.20781164 -0.67810279 0.038422361
-0.20317334 -0.67812657 0.038450889
-0.10195482 -0.6781137 0.03843838
-0.20429528 -0.67735654 0.038984235
-0.21098018 -0.66946477 0.038326908
-0.20950173 -0.66946036 0.038337935
-0.20808646 -0.66946679 0.038348045
-0.21241122 -0.66877311 0.038971927
-0.12543651 -0.65310901 0.038393598
-0.14421557 -0.64538974 0.038522743
-0.14325312 -0.64538038 0.038539939
-0.14063665 -0.64538991 0.038531695
-0.13922001 -0.64541757 0.03857981
-0.12189154 -0.64538968 0.03854052
-0.14539608 -0.63844842 0.038308628
-0.12697294 -0.63843888 0.038297057
-0.28799179 -0.637779 0.038982909
-0.14767158 -0.63777643 0.03897487
-0.1512332 -0.63149601 0.038199402
-0.15016726 -0.63151795 0.038243152
-0.1490836 -0.63153613 0.038266782
-0.13359818 -0.63149428 0.038211931
-0.12776041 -0.63150501 0.038235657
-0.15391867 -0.62466264 0.038438641
-0.13444674 -0.62464011 0.038390465
-0.21733783 -0.61851215 0.038115118
-0.21515207 -0.61855114 0.038155247
-0.21307272 -0.61781985 0.038793322
-0.15846547 -0.61783683 0.038800523
-0.23415986 -0.61241734 0.038032413
-0.1467298 -0.61241102 0.038021572
-0.20073067 -0.61172616 0.03870061
-0.22147001 -0.60633588 0.038082518
-0.16703366 -0.60629785 0.038031768
-0.16394334 -0.60567468 0.038745351
-0.21814497 -0.60032243 0.0383339
-0.1785506 -0.60030437 0.038324211
-0.17202583 -0.60029036 0.038284339
-0.20822525 -0.59499687 0.038037989
-0.19642465 -0.59437454 0.038763557
-0.16472125 -0.5890401 0.038596157
-0.17926882 -0.57921177 0.038062882
-0.17674115 -0.57917851 0.038023572
-0.17031558 -0.57920551 0.038046695
-0.20080189 -0.68604356 0.039376222
-0.18889581 -0.68608719 0.039403707
-0.18714572 -0.68605715 0.039378844
-0.18721671 -0.68530083 0.039938286
-0.20745625 -0.67663383 0.03958457
-0.20570199 -0.67659026 0.03951925
-0.21060884 -0.66801858 0.039505992
-0.13739921 -0.66020626 0.039151691
-0.13909982 -0.65239626 0.03901675
-0.13693611 -0.65242302 0.039018314
-0.13696024 -0.65169519 0.039621729
-0.12803957 -0.64471531 0.039175276
-0.14147536 -0.64397615 0.039789878
-0.14615397 -0.63710117 0.039627675
-0.13201879 -0.63704133 0.039564941
-0.15096456 -0.63011789 0.039508626
-0.15503265 -0.6240015 0.039128471
-0.22412263 -0.62365067 0.03942728
-0.15362732 -0.62332654 0.039773364
-0.21308661 -0.61718887 0.039500732
-0.15960138 -0.61716759 0.039471436
-0.16505472 -0.60499203 0.039418418
-0.17683969 -0.59904444 0.039752543
-0.1700349 -0.59902036 0.039729558
-0.16999742 -0.59965461 0.039013177
-0.168102 -0.59969914 0.039063539
-0.17696649 -0.57801527 0.039574619
-0.20152272 -0.6845153 0.040447172
-0.18491367 -0.68457168 0.040479831
-0.20709559 -0.67516983 0.040750984
-0.21169235 -0.66656858 0.040718365
-0.21450754 -0.65875822 0.040361136
-0.13748583 -0.6580345 0.040978789
-0.11801974 -0.65875483 0.040360041
-0.13881272 -0.65098423 0.040269062
-0.13699988 -0.6509735 0.040228091
-0.14468913 -0.64329278 0.040426239
-0.143609 -0.64328253 0.040412184
-0.14843114 -0.63636267 0.040243495
-0.14472975 -0.63636994 0.040239383
-0.15176265 -0.62945139 0.040199175
-0.15580513 -0.62261939 0.040408559
-0.21069227 -0.61645555 0.040103164
-0.20859088 -0.6158464 0.040840056
-0.15791203 -0.61583591 0.040828805
-0.19725509 -0.61043108 0.040083431
-0.20017526 -0.60972148 0.040737119
-0.16244146 -0.60975999 0.040756043
-0.18739834 -0.60439104 0.040176567
-0.18455717 -0.60439098 0.040181898
-0.16835476 -0.60442829 0.040215448
-0.19001818 -0.60372251 0.040872183
-0.16479528 -0.60370743 0.040829949
-0.17801157 -0.598391 0.040454976
-0.1715845 -0.59838301 0.040436398
-0.20229462 -0.68305057 0.04158527
-0.20004182 -0.68380463 0.041046772
-0.18499279 -0.68381697 0.041048631
-0.1835175 -0.68381113 0.041037709
-0.21274616 -0.665093 0.041847304
-0.21134186 -0.66511101 0.041868608
-0.13993943 -0.64956689 0.04150112
-0.13847151 -0.64954931 0.041482009
-0.1465828 -0.64186394 0.041662283
-0.14554031 -0.63499862 0.041533343
-0.22915593 -0.62807274 0.041510772
-0.15041122 -0.62806243 0.041471802
-0.22170286 -0.62156141 0.041360132
-0.15806696 -0.62158895 0.04139214
-0.15667289 -0.62125003 0.041727304
-0.15443191 -0.62196821 0.041119885
-0.15303729 -0.62130082 0.041783832
-0.21255034 -0.61519241 0.041548621
-0.1984231 -0.60912454 0.041477062
-0.19698009 -0.60912931 0.041473001
-0.1646312 -0.60912591 0.041473381
-0.1713468 -0.59712279 0.041876514
-0.16776554 -0.59712368 0.041906103
-0.2030056 -0.68155313 0.042678278
-0.20816153 -0.67295855 0.042459924
-0.20643102 -0.67295414 0.042462278
-0.13959478 -0.64815348 0.042741451
-0.14516495 -0.64116764 0.04229096
-0.14991784 -0.63427848 0.042160869
-0.14881665 -0.63427311 0.042156454
-0.23051657 -0.62737453 0.04215429
-0.15324347 -0.62741572 0.042170934
-0.15441895 -0.62672681 0.042836301
-0.21924923 -0.62058961 0.042405698
-0.21718228 -0.62062728 0.042463575
-0.20611739 -0.61451274 0.042193741
-0.16120428 -0.61449724 0.042201925
-0.15872848 -0.61448938 0.042168818
-0.20413665 -0.61377138 0.042804591
-0.19384299 -0.60842282 0.042136401
-0.19526833 -0.60780364 0.042838652
-0.165888 -0.60777998 0.042819262
-0.16299012 -0.60779721 0.042871531
-0.185156 -0.60244048 0.042299293
-0.16823615 -0.60247052 0.042310767
-0.19925448 -0.69022876 0.04326424
-0.19775991 -0.69021845 0.043230411
-0.19632916 -0.69021755 0.043228567
-0.20404132 -0.68082416 0.043281965
-0.20157593 -0.68080348 0.043242365
-0.20820233 -0.6722222 0.043039739
-0.21315724 -0.66290033 0.043629251
-0.13968094 -0.6629172 0.043632846
-0.13828634 -0.66291285 0.043620992
-0.1378109 -0.65513861 0.043341972
-0.13645357 -0.65513146 0.043359946
-0.13778515 -0.64741892 0.043333344
-0.14337957 -0.63976371 0.043554727
-0.22860759 -0.62601072 0.043467622
-0.15304498 -0.6260376 0.043488346
-0.15194458 -0.62603354 0.043473892
-0.217217 -0.61994606 0.043120012
-0.15891516 -0.61990911 0.043079779
-0.15635976 -0.61990356 0.04306474
-0.20623255 -0.61319065 0.043559816
-0.20590822 -0.61318338 0.043562111
-0.16311944 -0.61314583 0.043537773
-0.16204999 -0.61312348 0.043519881
-0.16092917 -0.61316109 0.043559741
-0.19357823 -0.60713059 0.043535259
-0.1851929 -0.60180169 0.043008465
-0.18407364 -0.60180748 0.043010361
-0.18257838 -0.6018222 0.043011084
-0.17875743 -0.6011461 0.043702856
-0.17696092 -0.60113937 0.043672942
-0.16980214 -0.60115248 0.043708872
-0.20029818 -0.6887151 0.044319477
-0.19886965 -0.68872637 0.044340402
-0.19738247 -0.68872184 0.044342384
-0.19590414 -0.68871772 0.044321261
-0.19271901 -0.68873715 0.044365097
-0.20130771 -0.68799478 0.044906642
-0.2058668 -0.67853338 0.044887736
-0.2044144 -0.67856824 0.044924513
-0.2111405 -0.67068279 0.044114646
-0.20932336 -0.66994667 0.04470209
-0.21426177 -0.66214353 0.044193637
-0.21531561 -0.66145414 0.044794861
-0.13791297 -0.66144943 0.044782609
-0.1393277 -0.65366387 0.04451916
-0.13746458 -0.65369409 0.04453871
-0.14454666 -0.64595926 0.044544749
-0.14194399 -0.64598328 0.044543806
-0.14047307 -0.64598709 0.044566736
-0.14560391 -0.63904548 0.044173054
-0.14451446 -0.63904554 0.044172149
-0.14890973 -0.63839662 0.04487301
-0.15145119 -0.63216388 0.04403618
-0.15034069 -0.63219011 0.044071317
-0.14931263 -0.63218874 0.044081002
-0.1536697 -0.63148987 0.044717204
-0.15421027 -0.62534761 0.044145003
-0.22581445 -0.62464726 0.044800438
-0.21869956 -0.61854661 0.044394884
-0.21694256 -0.61858666 0.044444136
-0.15719312 -0.61854309 0.044386458
-0.20385808 -0.61246812 0.044192161
-0.15949149 -0.61252236 0.044251759
-0.20209537 -0.61177069 0.044859923
-0.16293478 -0.61182052 0.044901978
-0.19034261 -0.60647929 0.044224974
-0.16383095 -0.60648477 0.044234049
-0.19190753 -0.60579127 0.044884939
-0.19046465 -0.60581183 0.044908352
-0.16817123 -0.60580373 0.044902392
-0.16531156 -0.60579228 0.044882104
-0.17700867 -0.6004945 0.044384655
-0.17490967 -0.60052413 0.044430889
-0.17204793 -0.60046959 0.044372085
-0.16769588 -0.60052842 0.044430323
-0.1922864 -0.68721455 0.045420457
-0.19047467 -0.68724811 0.045468394
-0.1995106 -0.68645453 0.045949798
-0.18879592 -0.68646067 0.045985702
-0.20689026 -0.67703307 0.045978002
-0.20588571 -0.67777061 0.045414105
-0.20291145 -0.67784256 0.045513283
-0.21216907 -0.66925299 0.045297001
-0.21041296 -0.66846359 0.045824479
-0.21391994 -0.66067398 0.045346919
-0.21609937 -0.65998113 0.045968357
-0.13606842 -0.65296924 0.045157928
-0.15087169 -0.63005912 0.045939155
-0.22582535 -0.62395895 0.045436464
-0.15242395 -0.62397897 0.045446422
-0.21231639 -0.61782742 0.045016415
-0.21017997 -0.61720788 0.04574329
-0.15841287 -0.61787087 0.045076236
-0.15585679 -0.61785322 0.045049869
-0.19888991 -0.61116999 0.045591835
-0.19302738 -0.60516596 0.045615874
-0.19051391 -0.60514903 0.045599401
-0.18874656 -0.60516375 0.045611199
-0.17858964 -0.59985322 0.045118939
-0.17501168 -0.5992232 0.045814369
-0.17494643 -0.59986848 0.045128793
-0.17107728 -0.59917957 0.045789912
-0.16556977 -0.59987342 0.045137193
-0.19051866 -0.68648595 0.046016883
-0.2005119 -0.68572581 0.046533592
-0.18874043 -0.68570697 0.046532575
-0.18692586 -0.68571448 0.04652147
-0.20686473 -0.67629367 0.046552099
-0.21004026 -0.66699022 0.046965711
-0.13829562 -0.65077019 0.046910249
-0.14349587 -0.64310402 0.04697663
-0.14238861 -0.64346898 0.046684027
-0.1493299 -0.63624483 0.046717983
-0.14823671 -0.63627565 0.046748284
-0.14602785 -0.63696218 0.046118259
-0.15717065 -0.62326467 0.046081997
-0.22335446 -0.62257802 0.046717592
-0.15570079 -0.62261462 0.046779912
-0.16165042 -0.61654919 0.046433203
-0.1591832 -0.61652124 0.046402324
-0.15663977 -0.61650825 0.046387456
-0.20023975 -0.61050427 0.046283036
-0.16120119 -0.61046124 0.046240073
-0.16344394 -0.60982031 0.046923354
-0.18875845 -0.60450906 0.046295505
-0.18555401 -0.6045025 0.046303537
-0.1679285 -0.60449988 0.046303798
-0.16587758 -0.60379875 0.04693567
-0.20275559 -0.6849184 0.047024082
-0.20163471 -0.68493623 0.047030717
-0.18475392 -0.68419707 0.047591224
-0.20652246 -0.67480624 0.047669735
-0.2114992 -0.66705179 0.047041029
-0.21154107 -0.66630316 0.04762109
-0.21752985 -0.65852791 0.047140464
-0.21654488 -0.65850657 0.047155868
-0.13792713 -0.6585241 0.047144234
-0.21858057 -0.6577965 0.047719233
-0.14148659 -0.65010327 0.047576252
-0.14448045 -0.64314151 0.047006473
-0.15010437 -0.63484389 0.047983591
-0.149037 -0.63484001 0.047977701
-0.23246038 -0.62865186 0.04720816
-0.23108959 -0.62870252 0.047260161
-0.15274619 -0.62870848 0.047269665
-0.22336668 -0.62193012 0.047393195
-0.15428461 -0.62193888 0.047434781
-0.210307 -0.6158151 0.047034364
-0.20990011 -0.61584353 0.047065914
-0.15996608 -0.61516404 0.047725521
-0.162074 -0.60914862 0.047607027
-0.18576017 -0.60318255 0.047699045
-0.16981323 -0.60320884 0.047704566
-0.18049709 -0.59793496 0.047233678
-0.17874387 -0.59788877 0.047205348
-0.1763843 -0.59791398 0.047213234
-0.1744203 -0.59728962 0.047917955
-0.17262343 -0.59792835 0.047226254
-0.18296321 -0.68343478 0.048151616
-0.20202465 -0.68264598 0.048650086
-0.18296561 -0.68268657 0.04868776
-0.18112752 -0.68264908 0.04862627
-0.2079868 -0.67411536 0.048302054
-0.2097439 -0.67335981 0.048846997
-0.21393818 -0.66553879 0.048127715
-0.2124733 -0.66556627 0.048133124
-0.21686116 -0.65632635 0.048903875
-0.21583816 -0.6563074 0.048898481
-0.13793729 -0.64932781 0.04811696
-0.13937375 -0.64862376 0.048740663
-0.1449382 -0.6409902 0.048838541
-0.14762196 -0.63415504 0.04862345
-0.22086358 -0.62121594 0.048029974
-0.22310765 -0.62055296 0.048714057
-0.15626395 -0.62050468 0.048676319
-0.20781268 -0.61451882 0.048421632
-0.20603447 -0.6145255 0.048423637
-0.15854894 -0.61448288 0.048385069
-0.19827533 -0.60850251 0.048321761
-0.1642426 -0.60849649 0.048321959
-0.19955882 -0.60780758 0.048986658
-0.19628569 -0.60782504 0.048993919
-0.19520059 -0.60784352 0.048984386
-0.1672205 -0.60777241 0.048914634
-0.16539216 -0.60781866 0.048975192
-0.18815784 -0.60254574 0.048371807
-0.18683851 -0.60253268 0.048383422
-0.17243868 -0.59665245 0.048663791
-0.19784096 -0.69055027 0.04987343
-0.19608739 -0.69054067 0.049880564
-0.20417412 -0.68191314 0.049189691
-0.20277314 -0.68115723 0.049744807
-0.18116507 -0.68189663 0.049171019
-0.1793045 -0.68115294 0.049738105
-0.20973478 -0.67260474 0.049407884
-0.20761116 -0.6726163 0.049411502
-0.21477218 -0.66405362 0.049297594
-0.21214341 -0.66406226 0.049262237
-0.21329017 -0.66332221 0.049855322
-0.21899417 -0.65558034 0.049467959
-0.21782203 -0.65561336 0.049474634
-0.14347744 -0.64716285 0.049915105
-0.14203177 -0.64717388 0.049922954
-0.14050223 -0.64721721 0.049976699
-0.1505723 -0.63272864 0.049863271
-0.14946514 -0.63272882 0.04986386
-0.1483475 -0.632725 0.049851973
-0.22796269 -0.6266185 0.04919007
-0.22949016 -0.625898 0.049807288
-0.22804534 -0.62590909 0.049818903
-0.15542729 -0.62592459 0.049837209
-0.15285985 -0.62592047 0.049821034
-0.21848597 -0.61989301 0.049379211
-0.21633241 -0.61987668 0.049392555
-0.2142043 -0.61977726 0.049287744
-0.15602131 -0.6191358 0.049991794
-0.20539758 -0.61380637 0.049066473
-0.20362708 -0.61307502 0.049673043
-0.15972771 -0.61381984 0.049071006
-0.19637568 -0.60716021 0.049665324
-0.16962153 -0.6018939 0.049095545
-0.16748208 -0.60189283 0.049090654
-0.20040403 -0.68979198 0.050422672
-0.19901671 -0.68978131 0.050428547
-0.1974818 -0.68901831 0.050930515
-0.19605064 -0.68939626 0.050668426
-0.194287 -0.68901241 0.050949916
-0.20376192 -0.68041474 0.050305162
-0.17750819 -0.68042523 0.050322011
-0.20593305 -0.67964834 0.050825179
-0.21092181 -0.67105514 0.050466675
-0.21939322 -0.65409994 0.050615072
-0.21649194 -0.6548602 0.050058264
-0.13906534 -0.65485448 0.050042089
-0.14678125 -0.63956237 0.050069746
-0.14575572 -0.63953865 0.050048456
-0.14434071 -0.63884872 0.050683782
-0.15129761 -0.6320191 0.050482702
-0.15400147 -0.62522024 0.050463628
-0.2185557 -0.61918259 0.050031703
-0.21635567 -0.61919522 0.050044775
-0.2185542 -0.61847878 0.05065852
-0.21388276 -0.61841029 0.050591763
-0.15961254 -0.61847365 0.050653588
-0.1570746 -0.61845213 0.050634455
-0.20546079 -0.61247736 0.050408985
-0.16158393 -0.61244428 0.050387304
-0.16050673 -0.61247295 0.050432842
-0.16692875 -0.6064384 0.050275881
-0.16511157 -0.60647863 0.050321031
-0.16364871 -0.60650098 0.05036258
-0.19284417 -0.60578912 0.050990101
-0.16801994 -0.60578132 0.050976381
-0.16768168 -0.60577333 0.050960377
-0.18307751 -0.60055482 0.050444845
-0.17086299 -0.6005348 0.050436005
-0.19240727 -0.68829477 0.051525448
-0.1995848 -0.68749744 0.05198805
-0.1939158 -0.68747085 0.051985051
-0.20701331 -0.6780979 0.051860038
-0.20448323 -0.67892331 0.051401671
-0.17533118 -0.67815238 0.051951565
-0.20907372 -0.6703428 0.051057119
-0.2161237 -0.66112387 0.051582322
-0.21506664 -0.66107857 0.051544052
-0.21408245 -0.66182005 0.051004365
-0.1386743 -0.65339118 0.05119846
-0.13727897 -0.65339178 0.051220015
-0.21793298 -0.65265614 0.051808011
-0.14132914 -0.64500183 0.051713869
-0.14021149 -0.64576387 0.051184658
-0.1487377 -0.6381681 0.051352631
-0.14722584 -0.6374622 0.051967949
-0.14617002 -0.63743025 0.05193647
-0.14510341 -0.63740325 0.051889576
-0.15353103 -0.63128418 0.051067472
-0.15237822 -0.63128215 0.051047903
-0.15098101 -0.63059771 0.051718179
-0.21604969 -0.61783016 0.051351618
-0.21391754 -0.61775178 0.051280495
-0.20307791 -0.61103779 0.05167453
-0.16244969 -0.61106801 0.051714815
-0.16132733 -0.61107445 0.051707987
-0.19324832 -0.60578996 0.051001448
-0.19144425 -0.60513985 0.051684722
-0.18854763 -0.6058262 0.051016226
-0.16491537 -0.60513777 0.051665105
-0.17241138 -0.59920645 0.051795896
-0.16663219 -0.59927768 0.051865634
-0.19821912 -0.68750125 0.052005045
-0.20211327 -0.68674999 0.052563705
-0.2006962 -0.68674999 0.052534644
-0.19200937 -0.6867643 0.052580237
-0.19023474 -0.68677014 0.052562814
-0.18848924 -0.68674153 0.052542262
-0.20524913 -0.6773718 0.052434694
-0.20659705 -0.6765992 0.052947763
-0.21161668 -0.66807413 0.052684326
-0.21015102 -0.66882032 0.052137643
-0.20873241 -0.668836 0.052166659
-0.13988146 -0.66036016 0.05215726
-0.21689588 -0.65962064 0.052718267
-0.22045238 -0.65121621 0.052986648
-0.21940567 -0.65120828 0.052999321
-0.13798593 -0.65118319 0.052944299
-0.13587902 -0.6519264 0.052404456
-0.14240846 -0.64427644 0.05231116
-0.14460507 -0.64354753 0.052903473
-0.15286995 -0.62918109 0.052967437
-0.22531547 -0.62313652 0.052388601
-0.22271293 -0.62310427 0.052347921
-0.15696561 -0.62313914 0.052399009
-0.2137984 -0.61641145 0.052631028
-0.21151596 -0.61637264 0.052568387
-0.15903011 -0.61640996 0.052624132
-0.20317732 -0.6103676 0.052341025
-0.20023349 -0.61044115 0.052421857
-0.16464631 -0.61041772 0.052382734
-0.19155994 -0.60446006 0.052358653
-0.17071103 -0.59855491 0.052499488
-0.16846643 -0.59860414 0.05254576
-0.20279561 -0.6851899 0.053558741
-0.20173836 -0.6852079 0.053603571
-0.20026131 -0.6852417 0.053604867
-0.19927438 -0.68597543 0.053063706
-0.18845499 -0.68598485 0.0530787
-0.18626839 -0.68522352 0.053594511
-0.20805222 -0.67586386 0.0535345
-0.20977652 -0.66732174 0.053251952
-0.21267582 -0.66661739 0.053857427
-0.2153866 -0.65890718 0.053297967
-0.13943794 -0.65043789 0.053537339
-0.14532004 -0.64284587 0.053531736
-0.14329773 -0.64281487 0.053519793
-0.14809464 -0.63602555 0.053188685
-0.14916669 -0.63529044 0.053790428
-0.23207374 -0.62846804 0.053601664
-0.15358827 -0.62850577 0.053622749
-0.15142077 -0.62845618 0.053556815
-0.22538684 -0.62242502 0.053037066
-0.22264381 -0.6216892 0.053605758
-0.1566164 -0.62173504 0.053652287
-0.1552204 -0.62176096 0.053704161
-0.21154991 -0.61567831 0.053222045
-0.20899893 -0.61506158 0.053933565
-0.18834335 -0.60381341 0.053046271
-0.18550192 -0.60381311 0.053051468
-0.18402229 -0.60382187 0.053050064
-0.17574465 -0.59758967 0.053536355
-0.17546228 -0.592071 0.053561367
-0.18619949 -0.68446946 0.054121479
-0.18444827 -0.6837061 0.054666266
-0.18307021 -0.68365985 0.054611929
-0.20952214 -0.67438585 0.054655544
-0.20767358 -0.67436278 0.054638989
-0.21369518 -0.66509819 0.054912146
-0.21228381 -0.6651119 0.054961663
-0.21081778 -0.66512293 0.054951333
-0.22088541 -0.64901739 0.054754291
-0.14081877 -0.64973521 0.054151103
-0.13766322 -0.6497128 0.054108024
-0.14503966 -0.64139712 0.054724697
-0.14396025 -0.64138722 0.054710593
-0.14298652 -0.64136386 0.054717954
-0.22281811 -0.62100613 0.05424675
-0.20911655 -0.614362 0.05458618
-0.16087918 -0.61437315 0.054590259
-0.18953829 -0.60247159 0.054402068
-0.18811822 -0.60248095 0.054413091
-0.1668779 -0.60245055 0.054375373
-0.20426129 -0.6821484 0.055683896
-0.20313066 -0.68290949 0.055161659
-0.18441863 -0.68293005 0.055177674
-0.18266098 -0.68214458 0.055687848
-0.18083887 -0.68213046 0.055660684
-0.20728958 -0.67286652 0.055747595
-0.21695305 -0.65665573 0.055007286
-0.21900441 -0.6559279 0.05556665
-0.21800573 -0.65592676 0.055571206
-0.14057751 -0.64827091 0.055325352
-0.13876009 -0.64752209 0.055891495
-0.14582223 -0.63994247 0.055908196
-0.15169457 -0.63315523 0.055622213
-0.14951524 -0.6331467 0.055622116
-0.15655763 -0.62638038 0.055506416
-0.15397973 -0.62638491 0.055485934
-0.22002093 -0.61964875 0.055570513
-0.21795322 -0.61968535 0.055628221
-0.15964265 -0.61962968 0.055553708
-0.15713245 -0.61963201 0.055558376
-0.20701808 -0.61299562 0.055898402
-0.20661759 -0.61298972 0.055888124
-0.20527282 -0.61294842 0.055849355
-0.16170451 -0.61297351 0.055896319
-0.19611692 -0.60704887 0.055731013
-0.16488245 -0.60705537 0.055749029
-0.16372837 -0.60771763 0.055075783
-0.16270694 -0.60770971 0.055057131
-0.17235328 -0.60178369 0.055071592
-0.20243706 -0.68062794 0.056750756
-0.17858499 -0.68064678 0.056770355
-0.20875743 -0.67211843 0.056289136
-0.20868792 -0.67136377 0.056828152
-0.20695721 -0.67135912 0.056830458
-0.21441567 -0.66361302 0.05605806
-0.21190956 -0.66362214 0.056055035
-0.21295165 -0.6628567 0.056590229
-0.2204994 -0.65441471 0.056683354
-0.21620134 -0.65445232 0.056711897
-0.13552168 -0.65444231 0.056689922
-0.22131574 -0.64683032 0.05652903
-0.1417636 -0.64681357 0.056515042
-0.15027897 -0.63243741 0.056239404
-0.22887318 -0.62566799 0.056117076
-0.15514261 -0.62567687 0.056124523
-0.21800013 -0.61828446 0.056890231
-0.15934789 -0.61825281 0.056858093
-0.15820301 -0.61894047 0.056199972
-0.20313118 -0.61224383 0.056506261
-0.16505511 -0.61228168 0.056525033
-0.19441289 -0.60635573 0.056402069
-0.19147609 -0.6063627 0.056400139
-0.18872523 -0.60635024 0.05640481
-0.16352683 -0.60636431 0.056429841
-0.18430853 -0.6004743 0.056450795
-0.17574637 -0.60050052 0.056488935
-0.17389418 -0.60044569 0.056409568
-0.17025615 -0.60049015 0.056472354
-0.1681242 -0.60050619 0.056475289
-0.17604867 -0.59463495 0.05667229
-0.20008926 -0.68920588 0.057543639
-0.19859533 -0.68919653 0.057509951
-0.19716513 -0.68919551 0.057508036
-0.20711096 -0.6790877 0.057780787
-0.20563133 -0.6791178 0.057818726
-0.20457147 -0.67987436 0.057310503
-0.20349969 -0.67986333 0.057258088
-0.17862879 -0.67987806 0.05729644
-0.1768197 -0.67911291 0.057834134
-0.17533965 -0.67911386 0.057828359
-0.21056598 -0.67056334 0.05733306
-0.2151614 -0.66209471 0.057155821
-0.21405016 -0.66211009 0.057173435
-0.2161954 -0.66134179 0.05770044
-0.21835904 -0.65369737 0.057270825
-0.21911533 -0.65293962 0.057835445
-0.13802373 -0.65295941 0.057833456
-0.13666545 -0.65295196 0.057851486
-0.14247943 -0.64532459 0.057636973
-0.14759597 -0.63852465 0.057162352
-0.14835022 -0.63783568 0.057789709
-0.22898604 -0.62423772 0.05735587
-0.15342321 -0.62426394 0.057376426
-0.15232319 -0.62426031 0.057362109
-0.21545601 -0.61758357 0.057534635
-0.21336037 -0.61750853 0.05743634
-0.16158976 -0.61755604 0.057494387
-0.15646815 -0.61755139 0.057483129
-0.16359238 -0.61158419 0.057180416
-0.2046454 -0.61090773 0.057836071
-0.20318659 -0.61085439 0.057776712
-0.20285885 -0.61085826 0.057797909
-0.20144641 -0.61092877 0.057867289
-0.19959888 -0.61093402 0.057856299
-0.19815506 -0.61092281 0.05784313
-0.16434002 -0.60501301 0.057741683
-0.17902346 -0.59913218 0.057805266
-0.17546766 -0.59915769 0.057829369
-0.17216776 -0.59978199 0.057101287
-0.16825336 -0.59916174 0.057828635
-0.195426 -0.68841374 0.058033403
-0.19391128 -0.68845457 0.058073062
-0.19968206 -0.68767399 0.058560982
-0.19819523 -0.68766934 0.058562692
-0.19671765 -0.68766588 0.058541719
-0.19202451 -0.68770599 0.058604591
-0.19169088 -0.68770826 0.058599673
-0.20812559 -0.67753649 0.058799844
-0.20668821 -0.67754549 0.058823466
-0.20523524 -0.67757988 0.058860227
-0.17499077 -0.67759126 0.058884189
-0.17323607 -0.67758536 0.058892101
-0.15877596 -0.66903132 0.058403663
-0.21268392 -0.66831195 0.058947016
-0.21126235 -0.66828614 0.058938671
-0.21478134 -0.66058946 0.058265951
-0.21799158 -0.65987849 0.058855206
-0.21694678 -0.65987444 0.058838282
-0.21582364 -0.65988344 0.058838483
-0.14127849 -0.65220606 0.058411766
-0.21947813 -0.65145612 0.058979716
-0.14363021 -0.64459032 0.058227144
-0.14252055 -0.64460206 0.058229163
-0.14917277 -0.63637656 0.058979344
-0.1480238 -0.63637656 0.058973968
-0.15177308 -0.63026977 0.058033872
-0.15556444 -0.62357742 0.058014713
-0.15457602 -0.62355524 0.058006417
-0.15666121 -0.62286812 0.058655538
-0.15557848 -0.62287837 0.058653109
-0.21553446 -0.6168924 0.058176432
-0.21308111 -0.61609817 0.058712073
-0.21088625 -0.61617285 0.058776852
-0.1612888 -0.61615664 0.058755957
-0.16018635 -0.61686355 0.058134034
-0.15759997 -0.61684984 0.058112547
-0.19964123 -0.61023724 0.058503803
-0.18985142 -0.60433334 0.058394469
-0.18811725 -0.60432673 0.058408417
-0.17726167 -0.59846115 0.058462117
-0.17549123 -0.59848201 0.058502186
-0.17372231 -0.59846079 0.058457546
-0.17191148 -0.59844136 0.058459368
-0.1701421 -0.59846085 0.058487087
-0.20173188 -0.68615627 0.059610005
-0.20073201 -0.68689269 0.059052758
-0.19787607 -0.68611866 0.059586935
-0.19030115 -0.6865195 0.059351087
-0.18999395 -0.6868993 0.059090372
-0.18811318 -0.68614173 0.059600145
-0.20768924 -0.67601514 0.059855305
-0.20632175 -0.67600495 0.059848279
-0.17318405 -0.67681682 0.059400074
-0.17140172 -0.67608494 0.059962977
-0.2112356 -0.66753066 0.05947772
-0.15653829 -0.66753662 0.059486091
-0.15503819 -0.66753942 0.059481177
-0.21441571 -0.65908772 0.059362378
-0.22159906 -0.6514886 0.059010644
-0.22050811 -0.6515103 0.059001856
-0.22486727 -0.64318728 0.059441444
-0.22378145 -0.6431734 0.059430938
-0.14327 -0.64312571 0.059389979
-0.14647369 -0.64241558 0.059988402
-0.23284735 -0.62810844 0.059869155
-0.15469627 -0.6288631 0.059285678
-0.15364221 -0.6288625 0.059300337
-0.15225038 -0.6281175 0.059851494
-0.15149282 -0.6288256 0.059242845
-0.22433195 -0.62212336 0.05921926
-0.21971881 -0.62146723 0.059910223
-0.15391959 -0.62144363 0.059887841
-0.21090493 -0.61546725 0.059407033
-0.20907962 -0.6154967 0.059428502
-0.20114368 -0.60954934 0.059164852
-0.1630619 -0.60953331 0.059146084
-0.16835596 -0.60363501 0.059050668
-0.1669565 -0.60360426 0.059009112
-0.18952245 -0.60298842 0.059728123
-0.16839813 -0.60296881 0.059734933
-0.17882796 -0.59779882 0.059171259
-0.17554274 -0.59781706 0.059162829
-0.17018682 -0.59778261 0.059149686
-0.16732092 -0.59715784 0.059860945
-0.20278573 -0.68535799 0.060110822
-0.20352446 -0.68455189 0.060580436
-0.20128199 -0.68461305 0.060635898
-0.18625762 -0.68459654 0.060609523
-0.17134707 -0.67531884 0.060486652
-0.16950925 -0.6753391 0.060500465
-0.20727867 -0.67449683 0.0609276
-0.21229853 -0.66608584 0.060636282
-0.21622099 -0.65763021 0.060511719
-0.13840148 -0.65764004 0.060516387
-0.22241458 -0.65001643 0.060167085
-0.22092693 -0.64927161 0.060716018
-0.14198878 -0.6492734 0.060716376
-0.14051609 -0.64925379 0.060695436
-0.13880339 -0.6499719 0.060096219
-0.136995 -0.64925838 0.060684767
-0.2259834 -0.64242476 0.060002811
-0.22485784 -0.64245236 0.060021475
-0.22604057 -0.64166486 0.060555685
-0.14500906 -0.64169121 0.060580563
-0.14402473 -0.64165443 0.060551006
-0.14955549 -0.63417268 0.06074233
-0.23065688 -0.62741315 0.06050358
-0.22550274 -0.62071937 0.060497809
-0.22149254 -0.62071908 0.06047916
-0.1571656 -0.62071186 0.060490001
-0.16424631 -0.6140371 0.060668416
-0.16201904 -0.61479789 0.060080167
-0.19760704 -0.60816967 0.060470153
-0.19616139 -0.60816944 0.060462184
-0.19474488 -0.60813767 0.060422685
-0.16814931 -0.60813856 0.060419802
-0.16385071 -0.60816258 0.06043683
-0.18789043 -0.60229737 0.060405932
-0.17208043 -0.60229391 0.060403619
-0.17709677 -0.59646934 0.060517684
-0.20351304 -0.68379194 0.06109703
-0.2020136 -0.68303901 0.061616454
-0.18407813 -0.68304801 0.06165269
-0.18261872 -0.68379521 0.061070524
-0.16735741 -0.67376649 0.061512385
-0.20691344 -0.67297852 0.061986953
-0.16556473 -0.67296553 0.06198778
-0.21471567 -0.66454208 0.061665416
-0.21325155 -0.66456974 0.061670899
-0.21196137 -0.66456568 0.061729651
-0.21939074 -0.65689272 0.061064038
-0.21800876 -0.65613741 0.06163495
-0.21664198 -0.65612274 0.06164217
-0.13770166 -0.65688527 0.06105331
-0.22379641 -0.64773089 0.061804544
-0.22271825 -0.64779603 0.061868381
-0.14161432 -0.64780599 0.061870486
-0.138409 -0.64775461 0.061812233
-0.22678594 -0.64016414 0.061701555
-0.14833002 -0.64093947 0.061150271
-0.14689077 -0.64020801 0.061734464
-0.14577866 -0.64021999 0.061744299
-0.14958185 -0.63345546 0.061347906
-0.15137856 -0.63273615 0.061956927
-0.15030575 -0.63273609 0.061952911
-0.15300508 -0.62672353 0.061132029
-0.15195729 -0.62668979 0.061090585
-0.23071122 -0.62598479 0.061722834
-0.22148359 -0.62001884 0.061105084
-0.15458713 -0.62005347 0.061162818
-0.22184293 -0.61999804 0.061092075
-0.16280174 -0.61337703 0.061348166
-0.19736527 -0.60679865 0.061769046
-0.19588484 -0.60681432 0.061767071
-0.19444458 -0.60676342 0.061735623
-0.19301258 -0.6067791 0.061751716
-0.16462275 -0.6067993 0.061783638
-0.18620157 -0.60161173 0.061079316
-0.18574925 -0.60162324 0.061075073
-0.16559659 -0.60158283 0.061007045
-0.1750844 -0.60091484 0.061695337
-0.16780899 -0.600954 0.061755799
-0.18406872 -0.68228519 0.062159624
-0.18243268 -0.6822505 0.06209942
-0.20387219 -0.68149698 0.062643111
-0.20274839 -0.68147492 0.062634572
-0.18041812 -0.68150318 0.062655479
-0.17902091 -0.68151313 0.062680662
-0.21052186 -0.67302555 0.062059313
-0.20873959 -0.67303371 0.062062442
-0.16729091 -0.67301607 0.062052198
-0.21048498 -0.67226344 0.062578388
-0.16406386 -0.67299241 0.06200562
-0.16333368 -0.67223138 0.062532082
-0.16221847 -0.67223889 0.062538311
-0.13840394 -0.65463108 0.062738061
-0.14281225 -0.64703095 0.062416088
-0.14282224 -0.64629048 0.062963076
-0.22534132 -0.63946193 0.062301427
-0.22640096 -0.63870853 0.062869258
-0.15206209 -0.63201529 0.062546432
-0.15482338 -0.62529731 0.062358852
-0.23033568 -0.6245749 0.062961161
-0.22818345 -0.62457961 0.062971212
-0.21946795 -0.61863488 0.062400285
-0.21726827 -0.6186474 0.062413365
-0.15937364 -0.61859715 0.06235256
-0.21478261 -0.61784589 0.062933818
-0.16134527 -0.61270934 0.062001012
-0.16364315 -0.61195666 0.062592313
-0.16004235 -0.61199373 0.062613077
-0.18982953 -0.60611308 0.062415056
-0.17368092 -0.60022736 0.062361408
-0.19715212 -0.69003469 0.06356246
-0.20595928 -0.6807462 0.063195243
-0.20488782 -0.68072736 0.063144639
-0.2034746 -0.67995626 0.063670233
-0.16373205 -0.67146719 0.063067451
-0.2115915 -0.6706807 0.063591167
-0.16183095 -0.67070979 0.063596025
-0.16049607 -0.6706714 0.06356167
-0.21515781 -0.66226894 0.063319631
-0.21366434 -0.66152197 0.063848495
-0.22014429 -0.65311497 0.063817419
-0.21940723 -0.65387994 0.063283779
-0.13941823 -0.65388936 0.063274801
-0.13693848 -0.65389723 0.063300364
-0.14129315 -0.64633268 0.063016549
-0.2241917 -0.64553785 0.063526779
-0.14391208 -0.64554 0.063526146
-0.14133409 -0.64558542 0.063597269
-0.21726772 -0.61795092 0.063040458
-0.21480432 -0.61716819 0.0635956
-0.21269055 -0.61717111 0.063586481
-0.21082039 -0.61722857 0.063641123
-0.16125408 -0.61719853 0.063620627
-0.16019081 -0.61789834 0.063000381
-0.20114467 -0.61130542 0.063283868
-0.16219832 -0.61127698 0.063237175
-0.2039896 -0.61053002 0.063831873
-0.16079643 -0.61060822 0.063922286
-0.19271338 -0.60540771 0.063057564
-0.18624943 -0.60475087 0.063732564
-0.16398859 -0.60474581 0.063746586
-0.17189769 -0.59955853 0.063044533
-0.17688994 -0.59893006 0.063719079
-0.16542284 -0.59887284 0.063690037
-0.19527106 -0.68927449 0.064075738
-0.19387083 -0.68930006 0.064129807
-0.20107256 -0.68849373 0.064572312
-0.19813675 -0.6884895 0.064550571
-0.19668838 -0.68849045 0.064562149
-0.19532906 -0.68847722 0.064572059
-0.19382429 -0.6885218 0.064620167
-0.176773 -0.67920482 0.064218283
-0.2066121 -0.67841768 0.064691722
-0.20513952 -0.67844433 0.064737886
-0.2040742 -0.67842793 0.064713448
-0.17674625 -0.67843181 0.064733706
-0.17497018 -0.67842948 0.06472405
-0.21125397 -0.66915029 0.064638063
-0.20971756 -0.66996652 0.06416478
-0.20762253 -0.6692059 0.064683214
-0.2168314 -0.66003168 0.064946875
-0.13806929 -0.66075045 0.064368114
-0.2219107 -0.65240848 0.064410321
-0.2208519 -0.6523912 0.064410798
-0.13764231 -0.65239149 0.064408131
-0.13447213 -0.65240121 0.064400584
-0.21866038 -0.65163833 0.064953215
-0.22521803 -0.64410895 0.064718969
-0.22380944 -0.64407766 0.064696521
-0.1446629 -0.64405435 0.064676315
-0.14799669 -0.63731337 0.064141572
-0.14689773 -0.63729465 0.064090006
-0.15018779 -0.63660085 0.064730339
-0.1525166 -0.62908775 0.064880416
-0.15144807 -0.62984097 0.064342342
-0.15039173 -0.62984484 0.064349376
-0.22570963 -0.62316608 0.064184427
-0.15772456 -0.62316263 0.064224578
-0.15419635 -0.62314534 0.064190783
-0.22574936 -0.62244844 0.064811945
-0.22144604 -0.62247479 0.064824298
-0.15527752 -0.62243712 0.064820953
-0.21483119 -0.61647779 0.064252198
-0.21270846 -0.61645794 0.064203933
-0.15984865 -0.6164971 0.064248629
-0.2083804 -0.61582351 0.06489592
-0.16199827 -0.61578566 0.064864323
-0.20224534 -0.60988414 0.064542986
-0.17019832 -0.60406226 0.064397573
-0.1659182 -0.60403174 0.064350992
-0.17995165 -0.59821302 0.06439656
-0.20209308 -0.68771547 0.065057941
-0.19962393 -0.68771482 0.065070085
-0.19813971 -0.68770623 0.065050341
-0.18987702 -0.68773025 0.065087534
-0.19340409 -0.68696249 0.065615296
-0.1916299 -0.68696862 0.06559784
-0.18988338 -0.68694067 0.065577395
-0.17489533 -0.67766237 0.065230578
-0.20766994 -0.67683822 0.065667525
-0.20477177 -0.67690659 0.06575124
-0.1731285 -0.67690837 0.065770745
-0.17128021 -0.67691642 0.065774791
-0.21261095 -0.6683948 0.065153457
-0.15827334 -0.66839015 0.065163612
-0.15791632 -0.66839272 0.065154806
-0.21082255 -0.66763258 0.065694004
-0.15626183 -0.66763973 0.065687701
-0.21540661 -0.65923125 0.06545078
-0.14017716 -0.65086669 0.065476477
-0.13868985 -0.65089452 0.065485574
-0.14315088 -0.64332652 0.065238573
-0.22596908 -0.6426208 0.065855242
-0.22483103 -0.64263755 0.065858908
-0.22828279 -0.63513809 0.065898299
-0.14882763 -0.63586509 0.065317228
-0.22581007 -0.62172186 0.065421745
-0.15856688 -0.62168652 0.065387532
-0.22362913 -0.62095034 0.065968178
-0.15965706 -0.62097561 0.065996356
-0.16056141 -0.61507654 0.065484434
-0.20080777 -0.60921675 0.065192729
-0.19904149 -0.60852498 0.065828376
-0.18926689 -0.60335559 0.065020725
-0.16481426 -0.60335052 0.065011606
-0.18758172 -0.60265952 0.065684289
-0.18610677 -0.60266811 0.065678947
-0.17664625 -0.59755248 0.06503889
-0.17457369 -0.59758395 0.065093234
-0.20022057 -0.68615627 0.066048346
-0.18983875 -0.68616921 0.066083871
-0.2027394 -0.68539304 0.066593833
-0.18764029 -0.68539411 0.066569977
-0.20723127 -0.67530972 0.066696279
-0.21368758 -0.66614586 0.066798873
-0.21190266 -0.66610807 0.066738978
-0.15354243 -0.66613078 0.066789411
-0.21836913 -0.65772486 0.066567153
-0.21721193 -0.65774125 0.066567287
-0.21605906 -0.65776753 0.066576071
-0.22340912 -0.65016127 0.066095665
-0.22115552 -0.65016574 0.066074915
-0.22191249 -0.64942497 0.066649824
-0.14156191 -0.64939332 0.066622891
-0.22560392 -0.64113593 0.066988967
-0.14603844 -0.6418618 0.066402763
-0.1449804 -0.64184099 0.066373654
-0.1495166 -0.63440233 0.066481255
-0.14849858 -0.63440257 0.066484936
-0.15509813 -0.62695187 0.066730358
-0.15402062 -0.62696266 0.06674619
-0.15297145 -0.62693304 0.066717394
-0.1518527 -0.62691444 0.066680439
-0.15712242 -0.62100935 0.066045001
-0.1560276 -0.62102354 0.066070184
-0.1582852 -0.62026238 0.066622227
-0.21026973 -0.61439115 0.066141687
-0.20807929 -0.6143977 0.066135988
-0.15922683 -0.61437774 0.066139057
-0.16033593 -0.613671 0.066757359
-0.19727266 -0.60781765 0.066455178
-0.16710515 -0.60780662 0.06645108
-0.17171833 -0.6020022 0.066354156
-0.16958675 -0.60201687 0.066365451
-0.18363412 -0.60126758 0.066960104
-0.18000245 -0.60129148 0.0669697
-0.17676809 -0.60199434 0.066336028
-0.16599451 -0.60193712 0.066272952
-0.17787452 -0.59619564 0.066390909
-0.20093662 -0.68461639 0.067062475
-0.19988737 -0.68460494 0.067064069
-0.16907032 -0.67458206 0.067309871
-0.16748542 -0.67454672 0.067237034
-0.21009943 -0.6738292 0.06781555
-0.20829684 -0.67378801 0.067765892
-0.20689735 -0.67375726 0.067721374
-0.21464641 -0.66537338 0.067275748
-0.15090486 -0.66460121 0.06782411
-0.21996693 -0.6562528 0.067642279
-0.21898642 -0.65623069 0.06764102
-0.22083052 -0.64866149 0.067207754
-0.22477257 -0.64785284 0.067681476
-0.22374131 -0.64789647 0.067759492
-0.14113644 -0.64790434 0.067738913
-0.22916502 -0.64041466 0.067598864
-0.22811022 -0.64035684 0.067526504
-0.146851 -0.64037842 0.067542613
-0.14465453 -0.64037001 0.06752532
-0.22898433 -0.63290787 0.067603566
-0.15132453 -0.63292378 0.067638658
-0.15020725 -0.63292062 0.067626849
-0.232161 -0.62620276 0.067324355
-0.22993901 -0.62621772 0.067327462
-0.15262155 -0.62550348 0.067943707
-0.21905902 -0.61960834 0.06730032
-0.15674828 -0.61956984 0.067244329
-0.16041088 -0.6188398 0.06783884
-0.1589822 -0.61883789 0.067837529
-0.20424514 -0.61221814 0.067982167
-0.16137022 -0.61299086 0.067398682
-0.19555141 -0.60708451 0.067080021
-0.16457653 -0.60711426 0.067101501
-0.1696613 -0.60637313 0.067678824
-0.16828334 -0.60636938 0.067670628
-0.18367253 -0.60061568 0.067636892
-0.17472705 -0.60057378 0.067602165
-0.17074427 -0.60062867 0.067668125
-0.20301498 -0.68302786 0.068027101
-0.20195855 -0.68304473 0.068071797
-0.18541446 -0.68306953 0.068079583
-0.18403652 -0.68302423 0.068025231
-0.18215495 -0.68303758 0.068037316
-0.20408583 -0.68225908 0.06854517
-0.18216647 -0.68224376 0.068517007
-0.18034294 -0.68228662 0.068576626
-0.1654664 -0.6730144 0.068262853
-0.16543378 -0.67223662 0.068776198
-0.1637862 -0.67225367 0.068788663
-0.21653351 -0.66305918 0.068887435
-0.21538121 -0.66308033 0.068882667
-0.21431035 -0.66383392 0.068322636
-0.21289979 -0.66384667 0.068372041
-0.21963015 -0.65472543 0.068729371
-0.21863095 -0.65472406 0.068733893
-0.14123227 -0.64715528 0.068299517
-0.14378935 -0.64639634 0.068827085
-0.13940345 -0.64639044 0.06883736
-0.1475738 -0.63961464 0.068091065
-0.22885634 -0.63893992 0.068742938
-0.22996753 -0.62476027 0.068520457
-0.15437452 -0.6247896 0.068527259
-0.15333161 -0.62478119 0.068528272
-0.21648364 -0.61816078 0.068501532
-0.21439424 -0.61809796 0.068425179
-0.15756331 -0.61812747 0.068456404
-0.20781456 -0.61228222 0.06802702
-0.20248131 -0.61227185 0.068027124
-0.20573734 -0.61153013 0.068604499
-0.16687539 -0.61154902 0.068617009
-0.16436526 -0.61152178 0.068615489
-0.16324294 -0.61152828 0.068608731
-0.16217022 -0.61155409 0.068651535
-0.19229755 -0.60572183 0.068373509
-0.16687411 -0.60570794 0.06834466
-0.16539134 -0.60573667 0.0683887
-0.18516538 -0.59991974 0.068295851
-0.1744315 -0.59920508 0.068907931
-0.17079444 -0.59924841 0.068970524
-0.18210553 -0.6814732 0.069002442
-0.18027562 -0.68150795 0.069069371
-0.18030789 -0.6807248 0.069565602
-0.20970312 -0.67150831 0.069347866
-0.16177289 -0.67146391 0.069276549
-0.21113104 -0.67071819 0.069841877
-0.20962285 -0.67073888 0.069857456
-0.21610458 -0.66153121 0.069922194
-0.13939391 -0.66154271 0.069915541
-0.13937059 -0.65395886 0.069258772
-0.13763374 -0.6532073 0.069829531
-0.13578442 -0.65321398 0.069799587
-0.22407337 -0.64560342 0.069353901
-0.14381053 -0.64564013 0.069383994
-0.14239478 -0.64566505 0.069432355
-0.22511418 -0.64495218 0.069990978
-0.22412498 -0.64486122 0.069910325
-0.2296211 -0.63820577 0.069325447
-0.22884418 -0.63820511 0.069312945
-0.22740109 -0.63815224 0.069270425
-0.14934352 -0.63819993 0.069313921
-0.14828831 -0.63816863 0.069282092
-0.14722243 -0.63814276 0.06923534
-0.15278377 -0.63071531 0.069369011
-0.1517005 -0.63073224 0.069392346
-0.22527857 -0.62401062 0.069075644
-0.15552504 -0.62406337 0.069138281
-0.22561316 -0.62329721 0.069671676
-0.2231379 -0.62333691 0.069722354
-0.21182416 -0.61745316 0.069096602
-0.2140907 -0.61666512 0.069640435
-0.15828365 -0.61670357 0.06968379
-0.20220253 -0.61015964 0.06991607
-0.16550708 -0.61084473 0.069253638
-0.19064724 -0.60432869 0.069656327
-0.16369824 -0.60433 0.069682911
-0.17805736 -0.59853417 0.069568932
-0.17629835 -0.59856439 0.0696228
-0.19811507 -0.68918645 0.070553079
-0.19669576 -0.689179 0.070559077
-0.20443693 -0.6799286 0.070032947
-0.17662439 -0.67916846 0.070565119
-0.21113499 -0.66993636 0.070350602
-0.20963927 -0.66997153 0.070378736
-0.15967667 -0.66913903 0.070832074
-0.21710578 -0.66003692 0.070989594
-0.21641429 -0.66037935 0.070705682
-0.1454245 -0.66076565 0.07041347
-0.2218108 -0.65245789 0.070367001
-0.22073397 -0.65242511 0.070330516
-0.14039172 -0.65243441 0.070311882
-0.1389709 -0.65244931 0.070338733
-0.13575469 -0.65245289 0.070337206
-0.22076853 -0.65166974 0.070885181
-0.14040115 -0.65167159 0.070847437
-0.13724421 -0.65168601 0.07089898
-0.14570519 -0.64413422 0.070505284
-0.14458701 -0.64414179 0.070502274
-0.22926013 -0.63672149 0.070457615
-0.14788586 -0.63669956 0.070435308
-0.15029193 -0.62926471 0.07056725
-0.15625378 -0.62263387 0.070347168
-0.22277737 -0.62188542 0.070914134
-0.22026323 -0.62192839 0.070960328
-0.2115916 -0.61529243 0.070926771
-0.20938538 -0.61529922 0.07093022
-0.20220596 -0.60944903 0.070533969
-0.19209149 -0.60361809 0.070284501
-0.18889949 -0.60362846 0.070302956
-0.1867407 -0.60362792 0.070288785
-0.18790585 -0.60292679 0.070949115
-0.19299243 -0.69849634 0.071402818
-0.19518431 -0.68843907 0.071090981
-0.1933438 -0.68846303 0.07110478
-0.20128343 -0.6876415 0.071543775
-0.20059268 -0.68763578 0.071556456
-0.1990995 -0.68762732 0.071522944
-0.19630876 -0.68761438 0.07153365
-0.1916355 -0.68764037 0.071565434
-0.20763265 -0.67836905 0.071008898
-0.20509839 -0.67838794 0.071072213
-0.17488216 -0.67838866 0.071071878
-0.20614658 -0.67761755 0.071550854
-0.17481954 -0.67760599 0.071550101
-0.17271912 -0.6776281 0.071584255
-0.20794651 -0.67678082 0.071968384
-0.2121439 -0.66837758 0.071348004
-0.21107076 -0.66837591 0.071353726
-0.21073122 -0.66838324 0.071358189
-0.15771157 -0.66839015 0.071335398
-0.15560049 -0.66839111 0.071368627
-0.14430101 -0.6592465 0.071475036
-0.22323863 -0.65019464 0.071992911
-0.22291781 -0.6509487 0.071450904
-0.22143072 -0.65096813 0.071449518
-0.14146823 -0.6505385 0.071688086
-0.13820922 -0.65018409 0.071963616
-0.22616349 -0.6434533 0.07110291
-0.23271783 -0.64270717 0.071689367
-0.2283795 -0.64263004 0.07159432
-0.22767445 -0.64264697 0.071603723
-0.14535892 -0.6426335 0.071618468
-0.23315953 -0.63523293 0.071555696
-0.2328271 -0.63519484 0.071532816
-0.22978362 -0.63598371 0.071012706
-0.15087387 -0.63521296 0.071581453
-0.14862709 -0.63599342 0.071034469
-0.23159714 -0.62852287 0.071131356
-0.23269396 -0.62778038 0.071704604
-0.22281851 -0.6211521 0.07150393
-0.21637605 -0.62111628 0.07146965
-0.15699422 -0.62118345 0.071559615
-0.21159737 -0.61456907 0.071529925
-0.20736782 -0.61451334 0.071475267
-0.16165549 -0.61456203 0.071518891
-0.16022761 -0.61457211 0.071536742
-0.20005438 -0.6087445 0.071152434
-0.19577676 -0.60871184 0.071128823
-0.16485752 -0.60872835 0.071132727
-0.16346169 -0.60802221 0.071768045
-0.16233929 -0.60799879 0.07174816
-0.18857661 -0.60224617 0.07157445
-0.18461055 -0.60220981 0.071547329
-0.16843283 -0.60221022 0.071538396
-0.16562045 -0.6022262 0.071550965
-0.20328207 -0.68609649 0.072538115
-0.2026031 -0.6861009 0.072526194
-0.19906728 -0.68685591 0.072032712
-0.19289835 -0.68689162 0.072074607
-0.19119726 -0.68607575 0.072532356
-0.19008315 -0.68687105 0.072043791
-0.18891418 -0.68609279 0.072515517
-0.18216647 -0.68686414 0.072052956
-0.20120364 -0.68528146 0.072975457
-0.18767855 -0.6852957 0.072996862
-0.2072423 -0.67681044 0.072010525
-0.17271075 -0.67684937 0.072078779
-0.17112203 -0.67609864 0.072590776
-0.17076942 -0.67608595 0.072582632
-0.16904028 -0.67680269 0.0720006
-0.20888175 -0.67524374 0.072987765
-0.20679776 -0.67523962 0.072993733
-0.21341319 -0.66662174 0.072573282
-0.21177174 -0.66683233 0.072362736
-0.15517873 -0.66646576 0.072622485
-0.15407367 -0.66688472 0.072434224
-0.15328419 -0.66688728 0.072419547
-0.1529467 -0.66687536 0.072406992
-0.2203529 -0.65850365 0.072058104
-0.13716893 -0.65849233 0.072036274
-0.21928377 -0.65773058 0.07258556
-0.21861304 -0.65772521 0.072592743
-0.21710773 -0.65773875 0.072571978
-0.22505298 -0.65019715 0.072003707
-0.22431341 -0.65020293 0.072004981
-0.22368154 -0.65019745 0.072014779
-0.22576331 -0.64937723 0.072481774
-0.13970305 -0.64939862 0.072486065
-0.23047958 -0.64195406 0.0722415
-0.22839192 -0.64149648 0.072416283
-0.22690566 -0.64192712 0.072192505
-0.14704753 -0.64191943 0.072182141
-0.1438421 -0.64189696 0.072164841
-0.14942589 -0.6345011 0.072167844
-0.22955312 -0.63373232 0.072692163
-0.15152487 -0.63373274 0.072716065
-0.23124471 -0.62706637 0.072307765
-0.22907117 -0.62708348 0.072314255
-0.22726855 -0.62702209 0.072252303
-0.15286978 -0.62703872 0.072257064
-0.23014158 -0.62634033 0.072897397
-0.22951467 -0.62632459 0.072905011
-0.22338082 -0.626369 0.072936848
-0.15142392 -0.62630081 0.072846591
-0.22036992 -0.62047058 0.072160505
-0.21423417 -0.6204502 0.07212691
-0.21855821 -0.6197446 0.072757699
-0.21709964 -0.61968267 0.072685592
-0.15780324 -0.61969852 0.072712824
-0.20556688 -0.61308634 0.072719552
-0.16308901 -0.61315435 0.072791353
-0.16236165 -0.61316609 0.072788656
-0.19469373 -0.60731322 0.072386965
-0.16349138 -0.60731626 0.072383739
-0.18680358 -0.60154587 0.072224699
-0.18288216 -0.60152179 0.072197445
-0.17789084 -0.601565 0.072254971
-0.17429532 -0.60151184 0.072188146
-0.16707495 -0.60149622 0.072157532
-0.18498409 -0.60086495 0.072865397
-0.17429231 -0.60081929 0.072828233
-0.16815034 -0.6008296 0.072838746
-0.17358284 -0.59578806 0.072184563
-0.17177172 -0.59576869 0.07218641
-0.2025838 -0.68531436 0.073019758
-0.18896373 -0.68530041 0.073009968
-0.18245991 -0.68530178 0.073014751
-0.20511118 -0.68447822 0.073451623
-0.20362711 -0.68450224 0.073490515
-0.18571843 -0.68448764 0.073464073
-0.17813605 -0.68452883 0.073512629
-0.20621781 -0.68371016 0.073942393
-0.20435406 -0.68368316 0.073930077
-0.18419603 -0.68369234 0.073909938
-0.20999132 -0.67527103 0.073034935
-0.16933304 -0.67527521 0.073045224
-0.16893393 -0.67526484 0.073015697
-0.16682731 -0.67526591 0.073018223
-0.21317559 -0.67451394 0.073558368
-0.20816194 -0.67445832 0.073468253
-0.16753021 -0.67446035 0.073490851
-0.16491544 -0.67449456 0.073516876
-0.16247897 -0.67446399 0.073501855
-0.15730964 -0.67450589 0.073540263
-0.21484382 -0.6653527 0.073409408
-0.15291663 -0.66535246 0.073449187
-0.15005369 -0.66530764 0.073411196
-0.21592852 -0.66455436 0.07391651
-0.21419513 -0.66456378 0.07393086
-0.15017304 -0.66453868 0.073917687
-0.22388576 -0.65620691 0.073633246
-0.22245419 -0.65657353 0.073344052
-0.22025362 -0.65622205 0.073626131
-0.219226 -0.65698427 0.073104978
-0.21777974 -0.65697908 0.073116086
-0.14825775 -0.65623075 0.073666975
-0.13707539 -0.6562143 0.073608965
-0.22686011 -0.64864731 0.073032901
-0.22398131 -0.64869088 0.073096745
-0.14287728 -0.64868355 0.073077358
-0.13968004 -0.64864159 0.073023073
-0.22783202 -0.64793682 0.073614769
-0.22466505 -0.64787716 0.073582128
-0.1480981 -0.64788318 0.073584102
-0.22937757 -0.64045209 0.073342711
-0.14779508 -0.64041537 0.073280752
-0.14555815 -0.64042926 0.073298179
-0.23265955 -0.63969177 0.073872976
-0.23047134 -0.63972974 0.073913366
-0.14631014 -0.63967443 0.073847905
-0.2342857 -0.63225377 0.073848106
-0.23326246 -0.63298285 0.073289394
-0.23134488 -0.63295859 0.073217787
-0.1522709 -0.63299745 0.073291466
-0.15012848 -0.63298762 0.073275708
-0.22949524 -0.62559247 0.073473319
-0.22113033 -0.62561959 0.073496923
-0.1557572 -0.6256097 0.073484242
-0.21781127 -0.61901635 0.073354743
-0.21168576 -0.6190061 0.073320501
