# .PCD v0.7 - Point Cloud Data file format
VERSION 0.7
FIELDS x y z
SIZE 4 4 4
TYPE F F F
COUNT 1 1 1
WIDTH 1317
HEIGHT 1
VIEWPOINT 0 0 0 1 0 0 0
POINTS 1317
DATA ascii
-0.14080331 -0.60764664 0.036674183
-0.18815847 -0.60222167 0.03616339
-0.17014819 -0.6022346 0.036178026
-0.16616718 -0.60226053 0.036218241
-0.15213503 -0.60224706 0.03618316
-0.15180355 -0.60223985 0.03617024
-0.22258797 -0.6015842 0.036873363
-0.22154447 -0.60159129 0.036866482
-0.21833637 -0.60159647 0.036896218
-0.20951769 -0.60155797 0.036872048
-0.17023954 -0.60157794 0.036880028
-0.20164593 -0.59626698 0.0366138
-0.15766904 -0.59624487 0.036561906
-0.21042986 -0.59087211 0.036354367
-0.15808073 -0.59088027 0.036354017
-0.19948499 -0.58563924 0.036386944
-0.19840702 -0.58566946 0.036406711
-0.19231153 -0.5856216 0.03636786
-0.19082369 -0.58567071 0.036403459
-0.18978986 -0.5856477 0.036394555
-0.15659675 -0.58564919 0.036414362
-0.1748893 -0.58039594 0.036509182
-0.1730994 -0.5804041 0.03652329
-0.16704617 -0.58038384 0.036523305
-0.15725671 -0.58040971 0.036545351
-0.16080479 -0.57579404 0.036042802
-0.032454621 -0.074395686 0.036708884
-0.0222154 -0.074361049 0.036754072
0.010934284 -0.074376501 0.036743235
-0.031273492 -0.073639229 0.036288839
-0.0018264701 -0.073661417 0.036323804
-0.057585247 -0.057163786 0.036694739
-0.054007772 -0.057161614 0.036694147
-0.051823508 -0.057114299 0.036679816
-0.056481589 -0.056395069 0.036298588
-0.055240743 -0.056319486 0.036295462
-0.054383099 -0.056364603 0.036295667
-0.053863358 -0.056374822 0.036290206
-0.061351094 -0.038172849 0.036498446
-0.064797483 -0.037436232 0.036118314
-0.063373923 -0.037393928 0.036113165
-0.061602466 -0.037385438 0.036110349
-0.068611883 -0.018217294 0.036635745
0.90839791 0.053618491 0.036883537
0.90982968 0.053672101 0.036911506
0.91325253 0.055276431 0.03621703
-0.1919654 -0.68905163 0.037174601
-0.19815207 -0.68828595 0.03768193
-0.19781171 -0.68826914 0.037674226
-0.19121662 -0.68831646 0.037736181
-0.19083579 -0.6883136 0.037731793
-0.20619696 -0.67954594 0.037228506
-0.20254564 -0.67960829 0.037317537
-0.10011276 -0.67961413 0.037324712
-0.20254949 -0.67886913 0.037890803
-0.11067457 -0.66165197 0.037974752
-0.13638122 -0.65457237 0.037201256
-0.12169448 -0.65460223 0.037244055
-0.13716312 -0.65385586 0.037812989
-0.12320264 -0.65383846 0.037811238
-0.12173373 -0.65387917 0.037851632
-0.14150929 -0.64650393 0.037649028
-0.14621249 -0.63984257 0.03703421
-0.27467287 -0.63222688 0.03762703
-0.1510829 -0.62602299 0.037093021
-0.13244061 -0.6260038 0.037090573
-0.13131899 -0.62601095 0.037080992
-0.25643748 -0.62597543 0.037074558
-0.22935052 -0.62527287 0.037693933
-0.15148531 -0.62534165 0.037756484
-0.13761052 -0.6259737 0.037042908
-0.13672525 -0.625974 0.037044104
-0.13279875 -0.62599939 0.037082884
-0.25512356 -0.61917436 0.037448343
-0.25012761 -0.6191659 0.037439439
-0.24937014 -0.61920202 0.037458356
-0.21936235 -0.61913371 0.037417248
-0.1423052 -0.61917961 0.037453886
-0.14191303 -0.6191808 0.037453163
-0.23228107 -0.61307645 0.037340611
-0.23028748 -0.61302793 0.037298426
-0.20445079 -0.61306924 0.037321158
-0.20339023 -0.61302131 0.037283186
-0.20221797 -0.61301112 0.037265964
-0.15977499 -0.6130653 0.037335303
-0.14066888 -0.61302131 0.03726643
-0.2294575 -0.61236054 0.037980363
-0.20324928 -0.61269176 0.037620544
-0.16230839 -0.61238861 0.037997145
-0.23214643 -0.60694927 0.037356682
-0.19468713 -0.6069892 0.037373252
-0.19303513 -0.60697705 0.037367389
-0.19195475 -0.60695088 0.037342094
-0.16503109 -0.60695928 0.037325401
-0.16469042 -0.60696626 0.037340589
-0.15177251 -0.60697705 0.037366342
-0.15098807 -0.60697758 0.037361167
-0.14917101 -0.6069625 0.037356831
-0.14863366 -0.60696739 0.037350144
-0.14741698 -0.60697764 0.037370343
-0.14550675 -0.60699999 0.037402168
-0.22159518 -0.6009562 0.037595555
-0.21671769 -0.60092777 0.037571713
-0.20884268 -0.60095859 0.037606511
-0.17071804 -0.60092181 0.037576426
-0.19575447 -0.59563869 0.037310403
-0.15791784 -0.59560621 0.037281334
-0.20701231 -0.59495133 0.037983347
-0.18338417 -0.59028476 0.037132863
-0.15705866 -0.5902577 0.03707562
-0.15605074 -0.59027469 0.03709998
-0.15544215 -0.58966774 0.037841894
-0.18846421 -0.58504701 0.037141837
-0.1559284 -0.58503389 0.037131172
-0.17642795 -0.57978576 0.037264246
-0.033814147 -0.075198561 0.037135996
-0.02915591 -0.075140074 0.03714313
-0.028371638 -0.075330324 0.037259087
-0.02738682 -0.075155601 0.037163671
-0.024567831 -0.075897709 0.037587285
-0.023764931 -0.075100973 0.037161287
-0.022425914 -0.075919069 0.037600935
-0.015678762 -0.075549297 0.037387118
-0.0036747502 -0.075942747 0.037581898
0.003494967 -0.075961836 0.037585095
0.0054418161 -0.075157583 0.037164941
-0.054353341 -0.059472293 0.037906636
-0.052497376 -0.059479643 0.037903771
-0.051198494 -0.059528247 0.037914157
-0.057034723 -0.058682811 0.037515346
-0.054202408 -0.058701482 0.037501354
-0.053292125 -0.058695398 0.037496455
-0.060183808 -0.057883523 0.037087511
-0.056888234 -0.057938837 0.037112314
-0.054072272 -0.057928421 0.037097905
-0.064099096 -0.039723635 0.037277661
-0.063371882 -0.039745774 0.037281573
-0.068863273 -0.019836772 0.03738888
-0.066392422 0.026018087 0.037387889
0.91015989 0.051210001 0.037828512
0.91770619 0.051197499 0.037888315
0.90757358 0.052781899 0.037211765
0.90974629 0.052854687 0.037251964
-0.19012755 -0.68757528 0.038287967
-0.2010192 -0.68680125 0.038833354
-0.18922667 -0.68682241 0.03882768
-0.20628294 -0.67807972 0.038372606
-0.2110737 -0.66948384 0.038336411
-0.21183804 -0.66878933 0.038991366
-0.13755187 -0.65313673 0.038412213
-0.1354266 -0.65312928 0.038428038
-0.12386881 -0.65311497 0.03840002
-0.14227979 -0.64542258 0.038565543
-0.14152052 -0.64543808 0.038579289
-0.28868386 -0.63848066 0.03835234
-0.14592703 -0.63844883 0.038325544
-0.14596559 -0.63776428 0.038956985
-0.27825525 -0.63154179 0.038273178
-0.14992419 -0.63152319 0.038251068
-0.13809243 -0.63151807 0.038230684
-0.15039749 -0.63080978 0.038873892
-0.14997131 -0.6308195 0.038883384
-0.13741794 -0.63082421 0.03887409
-0.26653579 -0.62463605 0.038404137
-0.22720909 -0.62462747 0.038403451
-0.14185134 -0.62464696 0.038406469
-0.26022258 -0.61850899 0.038136072
-0.21834615 -0.61850756 0.038119305
-0.21796614 -0.61850578 0.038114946
-0.21260308 -0.61845106 0.03806033
-0.14700443 -0.61852026 0.038125906
-0.21696262 -0.61785716 0.038803488
-0.159481 -0.61174148 0.038716502
-0.19347261 -0.60634726 0.038075905
-0.19129013 -0.60631937 0.038048573
-0.18994217 -0.60567033 0.038764901
-0.21513502 -0.60027874 0.038298447
-0.17164201 -0.60027599 0.038274512
-0.17073327 -0.60029328 0.038294725
-0.16601951 -0.60037005 0.038359657
-0.15471563 -0.60028714 0.038302157
-0.17186747 -0.59964556 0.038997792
-0.2042487 -0.59435695 0.038755435
-0.15344349 -0.5943526 0.038733304
-0.18067028 -0.58905566 0.038612574
-0.18494359 -0.58381903 0.038639624
-0.16322885 -0.57921964 0.038047761
-0.16942658 -0.57403529 0.038356889
-0.1657827 -0.57402271 0.038349561
-0.01566465 -0.07828071 0.0388656
-0.014792097 -0.078259997 0.038863298
-0.0134307 -0.078247294 0.038863041
-0.030970568 -0.07751479 0.038411796
-0.016167827 -0.077471927 0.038438916
-0.024328679 -0.076654196 0.038009532
-0.023978122 -0.076668091 0.038016006
-0.017142337 -0.076706007 0.038018692
-0.015264842 -0.076716244 0.03802041
-0.013526506 -0.076712385 0.038020235
-0.049840566 -0.061039884 0.038720991
-0.052605946 -0.060280707 0.038314946
-0.050466429 -0.060258705 0.038315233
-0.049033064 -0.060253043 0.03831448
-0.064602084 -0.042895492 0.038838632
-0.067872204 -0.022994364 0.03887035
0.91000348 0.050404165 0.038145084
-0.20095648 -0.68604863 0.039388299
-0.18821841 -0.68605942 0.039377429
-0.18753143 -0.68604827 0.039376851
-0.18660372 -0.68530786 0.039931882
-0.20614195 -0.67660272 0.039526999
-0.13621056 -0.66019708 0.039150011
-0.11463447 -0.6594978 0.039798349
-0.13851622 -0.65240002 0.039019138
-0.13614528 -0.65242779 0.039038286
-0.13580243 -0.65242428 0.039035086
-0.13877845 -0.65168405 0.039645035
-0.13723971 -0.65169317 0.039628692
-0.13647784 -0.65172029 0.039637286
-0.14520137 -0.64400226 0.039802101
-0.14173326 -0.64437532 0.03951475
-0.14887713 -0.6370495 0.039570782
-0.14599562 -0.63709658 0.039628588
-0.2272481 -0.6239717 0.039078355
-0.22651733 -0.62396514 0.039083377
-0.22549553 -0.62331206 0.039761454
-0.22457904 -0.62332761 0.039768182
-0.22263138 -0.62324816 0.039703686
-0.15313058 -0.62330836 0.039759908
-0.15276495 -0.62330049 0.039753571
-0.21595794 -0.61721134 0.039507791
-0.15905914 -0.61715847 0.039459851
-0.17229451 -0.59935689 0.039372958
-0.16649064 -0.59940279 0.039428622
-0.015639691 -0.079050295 0.039287463
-0.014621541 -0.079034798 0.039286528
-0.013899601 -0.079021826 0.039283503
-0.050064765 -0.062572241 0.039530449
-0.04972237 -0.062569983 0.039530471
-0.044707023 -0.062589303 0.039539527
-0.052141208 -0.06184978 0.039129723
-0.050700918 -0.061825328 0.039127342
-0.069945328 -0.024626931 0.039619617
-0.070844263 -0.023833681 0.039258368
-0.067293286 -0.023787079 0.039239969
-0.20055817 -0.68454516 0.040473491
-0.18547182 -0.68456936 0.040496539
-0.2094004 -0.67518348 0.040754594
-0.20614794 -0.67550445 0.040404242
-0.21184146 -0.66731101 0.040150613
-0.21185975 -0.66657495 0.040709972
-0.11967494 -0.65806031 0.040991671
-0.13873501 -0.65062076 0.040563997
-0.1373142 -0.65096796 0.040234677
-0.14200628 -0.64330548 0.040458746
-0.14642909 -0.63639551 0.040254597
-0.1489124 -0.63566577 0.04085895
-0.1503942 -0.62943107 0.040152717
-0.23196246 -0.62872505 0.040809564
-0.22340198 -0.62263286 0.040407959
-0.22281882 -0.62259686 0.040382825
-0.15417266 -0.62264615 0.040448718
-0.15328237 -0.62264061 0.040433414
-0.16156648 -0.61652929 0.040189721
-0.20629916 -0.61585522 0.040842768
-0.15877672 -0.61582792 0.040822335
-0.19832383 -0.61044145 0.040091507
-0.1625253 -0.61041385 0.040054321
-0.19730341 -0.60977924 0.040780187
-0.19597438 -0.60978281 0.040776365
-0.16326909 -0.60976422 0.040768106
-0.16294043 -0.60976416 0.040754471
-0.18879379 -0.60439324 0.04016988
-0.16925289 -0.60442996 0.040211268
-0.16472842 -0.60434854 0.040122218
-0.18794623 -0.60374445 0.0408746
-0.17236242 -0.59844041 0.040489741
-0.010025112 -0.082166553 0.040980972
-0.0062999357 -0.082181543 0.040960953
0.0015276849 -0.082099065 0.040955152
-0.0098959226 -0.081377536 0.040556319
0.0030907455 -0.081314273 0.040537782
-0.0068900697 -0.080544002 0.040104639
-0.04438917 -0.064435862 0.040487692
-0.043811984 -0.064969741 0.040754199
-0.068018392 -0.046823181 0.040789973
-0.060029346 -0.046070319 0.040394995
-0.059222925 -0.046546429 0.040654067
-0.058330178 -0.046833675 0.040784873
-0.064551301 -0.045259401 0.040005744
-0.05919585 -0.045259245 0.04000419
-0.064702913 -0.026199734 0.040376965
-0.20418818 -0.6830548 0.041585833
-0.20058016 -0.68341172 0.041284077
-0.20613207 -0.67442411 0.041284826
-0.20975067 -0.67369676 0.04189276
-0.21179086 -0.66548276 0.041570716
-0.13876535 -0.64955807 0.04148848
-0.14490327 -0.64258748 0.04105892
-0.14208031 -0.6425913 0.041080527
-0.14930053 -0.63496697 0.041497122
-0.1488927 -0.63497156 0.04149865
-0.23049827 -0.62806529 0.041509196
-0.22829996 -0.62812191 0.041548677
-0.2208724 -0.62194288 0.041079219
-0.15498148 -0.62127578 0.041758582
-0.16695563 -0.60907674 0.041415464
-0.18732375 -0.60309488 0.041582946
-0.1649712 -0.60306507 0.041537207
-0.17291456 -0.59715492 0.041935254
-0.016004149 -0.083666563 0.041813921
-0.042321958 -0.06729316 0.041962534
-0.042720694 -0.066477239 0.04155476
-0.043495059 -0.065737978 0.041155756
-0.042764619 -0.065697268 0.041149709
-0.041940205 -0.065711133 0.041149233
-0.086469129 0.13753308 0.041716591
-0.08672709 0.13832779 0.041441958
-0.085488774 0.13841155 0.041447718
-0.087011062 0.13919544 0.041176766
-0.086598746 0.13915724 0.04116917
-0.085896522 0.13916817 0.041165274
-0.2048564 -0.68158627 0.042725835
-0.20982328 -0.67294055 0.042450577
-0.21186619 -0.66436779 0.042448986
-0.13936351 -0.64861995 0.042324569
-0.13877475 -0.64884746 0.042107332
-0.12442571 -0.64883488 0.04210408
-0.14463681 -0.64117926 0.042307608
-0.14463793 -0.6404627 0.042917047
-0.14932291 -0.63427877 0.042152867
-0.14581908 -0.63430488 0.042181544
-0.14936753 -0.63357896 0.042795297
-0.23060378 -0.62735641 0.04214114
-0.15414871 -0.62741035 0.042178728
-0.15379125 -0.62741864 0.042186841
-0.15023071 -0.62737286 0.042125154
-0.22950886 -0.62670231 0.042822178
-0.15443352 -0.62672454 0.042836927
-0.15027791 -0.6266917 0.042799126
-0.21922101 -0.62058228 0.042413142
-0.21847516 -0.62061739 0.042432167
-0.15530109 -0.6205821 0.042410746
-0.1630073 -0.60844553 0.042159379
-0.16308975 -0.60780203 0.042860981
-0.18648796 -0.60244954 0.042290173
-0.18302155 -0.60246247 0.042304669
-0.16479124 -0.60176301 0.042950328
-0.042237416 -0.068599589 0.042638805
-0.041450448 -0.068887666 0.042773552
-0.040584806 -0.06883914 0.042758871
-0.039321534 -0.068083569 0.042353306
-0.038736101 -0.068923727 0.042757358
-0.037295341 -0.06852448 0.042540312
-0.061071243 -0.050758459 0.042733334
-0.060347129 -0.050803203 0.042738125
-0.059431747 -0.050039191 0.042352326
-0.20014338 -0.69022417 0.043243296
-0.20454554 -0.68008077 0.043821864
-0.20980442 -0.67219979 0.043013062
-0.20982954 -0.67143732 0.043568548
-0.13922842 -0.66363865 0.043027047
-0.21216153 -0.66290605 0.043613654
-0.21184739 -0.66289812 0.043615267
-0.14826337 -0.63981414 0.043626714
-0.14463949 -0.63975614 0.043538682
-0.15231368 -0.63284361 0.04337376
-0.21721572 -0.61925966 0.04377171
-0.21676254 -0.61928028 0.043783247
-0.15571094 -0.61989981 0.043076925
-0.1612758 -0.61314964 0.04353616
-0.15861648 -0.61316913 0.043543193
-0.18518215 -0.60180116 0.043008242
-0.18286662 -0.60116434 0.043715075
-0.16910879 -0.60183585 0.043038428
-0.16842565 -0.60183734 0.043030512
-0.031888295 -0.071204409 0.043972827
0.0067223017 -0.070420355 0.043595467
-0.03975787 -0.069701262 0.043170039
-0.038717352 -0.069692634 0.043155536
-0.037290998 -0.069671661 0.043141522
-0.053849947 -0.053105667 0.043920036
-0.20008565 -0.68871528 0.044330381
-0.19973764 -0.68871701 0.044332091
-0.20006724 -0.68797499 0.044868752
-0.20452338 -0.67933339 0.044365086
-0.20472676 -0.67856324 0.044913694
-0.2095257 -0.66994488 0.044694699
-0.13814571 -0.66217732 0.044188078
-0.13852772 -0.66144007 0.044782285
-0.13998474 -0.64600819 0.044580478
-0.14914176 -0.63218218 0.044071279
-0.14933422 -0.63148779 0.044714935
-0.22563857 -0.62537068 0.044146564
-0.15570869 -0.62536085 0.04414371
-0.15608069 -0.62467122 0.044815384
-0.21612546 -0.61858404 0.044442173
-0.15631188 -0.61853403 0.044399232
-0.1612362 -0.61179429 0.044870924
-0.16676684 -0.60643119 0.044157688
-0.16288091 -0.60583955 0.044938691
-0.17451081 -0.60053718 0.044444714
-0.16923653 -0.6005224 0.044431023
-0.16493709 -0.60048574 0.044380203
-0.035007574 -0.072817206 0.044774994
-0.034232475 -0.072416581 0.04457663
-0.033941247 -0.072819218 0.044787616
-0.029437218 -0.072823048 0.044801943
-0.0093719512 -0.071957044 0.044419136
-0.059401665 -0.035731442 0.044848394
-0.066009082 -0.034100082 0.044097658
-0.071121328 -0.014200413 0.044660408
-0.072017357 -0.013441755 0.044312183
-0.071299128 -0.013419952 0.044306993
-0.069918349 -0.01339354 0.044297412
0.91039044 0.061775543 0.044832341
-0.20002289 -0.6864714 0.045976344
-0.1996855 -0.68646729 0.045963418
-0.20953095 -0.66919571 0.045260362
-0.15204588 -0.63075441 0.045277212
-0.14922875 -0.6300993 0.04599585
-0.1563364 -0.62398124 0.04546956
-0.21545134 -0.61791557 0.045116086
-0.16036913 -0.61719304 0.045731861
-0.15715681 -0.61718816 0.045736007
-0.15653281 -0.61786115 0.045053475
-0.18779233 -0.60517156 0.04560972
-0.17844479 -0.59919977 0.045816712
-0.17743199 -0.59952736 0.045452654
-0.1765345 -0.59983838 0.04508866
-0.17567244 -0.59921473 0.045805756
-0.17482674 -0.59922552 0.045824874
-0.16907905 -0.5992136 0.045826863
-0.026246306 -0.074316479 0.045637228
-0.025147364 -0.074329585 0.045645036
-0.034068216 -0.073586293 0.045195781
-0.030621843 -0.073599279 0.045202978
-0.025015093 -0.07358361 0.045243964
-0.024307657 -0.073516682 0.045231532
-0.069515131 -0.015412457 0.045194235
-0.068704031 -0.015016695 0.04501836
-0.20004697 -0.68572396 0.046534158
-0.20986292 -0.66771412 0.04638483
-0.1381762 -0.65925503 0.046549421
-0.14177723 -0.65082389 0.046980273
-0.14380604 -0.64385116 0.046401821
-0.14001657 -0.64387673 0.04642095
-0.14806204 -0.63698512 0.046118844
-0.21410376 -0.61655056 0.046460729
-0.21372113 -0.61654538 0.046446517
-0.16041431 -0.61652714 0.046395291
-0.15719283 -0.61651701 0.04640248
-0.16103907 -0.60978794 0.046925291
-0.18645728 -0.60450524 0.046312738
-0.16696627 -0.60447341 0.046267238
-0.18523082 -0.60384142 0.046989024
-0.18060002 -0.59857243 0.046519488
-0.17628337 -0.59855276 0.046507768
-0.17484842 -0.59857696 0.046518251
-0.028084092 -0.076631635 0.046848617
-0.027283834 -0.076694444 0.046863522
-0.0028521367 -0.076692358 0.046842802
-0.027931964 -0.075857222 0.046442036
-0.062209561 -0.038900033 0.046348125
0.90822363 0.056864243 0.046705041
0.90836334 0.05768114 0.046389993
0.91258365 0.058585279 0.046099927
-0.20254117 -0.68491256 0.047023099
-0.20812018 -0.67560184 0.047201958
-0.20776886 -0.67558897 0.047182843
-0.20486671 -0.67479479 0.047647368
-0.21378177 -0.66626203 0.04755047
-0.14175618 -0.65010577 0.047580604
-0.14401765 -0.64241469 0.047614694
-0.1436765 -0.64241838 0.047618903
-0.14777307 -0.63557398 0.047370538
-0.1477727 -0.63486731 0.047992479
-0.15220207 -0.62835753 0.047595493
-0.15810099 -0.62188679 0.047372077
-0.15776861 -0.62189353 0.047378413
-0.21268055 -0.61583114 0.047074523
-0.21024206 -0.61514175 0.047715794
-0.1604789 -0.61518073 0.047750004
-0.15766591 -0.61583805 0.047074024
-0.19994141 -0.60915279 0.047620125
-0.1646793 -0.60916501 0.047639936
-0.18583296 -0.60384119 0.047004245
-0.17070517 -0.60320711 0.047705419
-0.17669995 -0.59792876 0.047230635
-0.16961235 -0.59788746 0.047198914
-0.16883063 -0.59791768 0.047227636
-0.023586309 -0.078198723 0.047678933
-0.022465706 -0.078188814 0.047680013
-0.021718681 -0.078185201 0.047670115
-0.020377856 -0.078220204 0.047672316
-0.019289995 -0.07819435 0.047666386
-0.023484433 -0.077423811 0.047272731
-0.022583332 -0.077406377 0.04727266
-0.02056372 -0.077422932 0.047264617
-0.01125478 -0.07740292 0.047256403
-0.048221506 -0.061023731 0.047807015
-0.048362732 -0.059406865 0.047024574
-0.047805354 -0.059419557 0.047024868
-0.062913187 -0.042088948 0.047837026
-0.071726948 -0.020608503 0.04752038
-0.066568002 -0.019769926 0.047150936
0.90762651 0.053658508 0.047908977
0.90800869 0.053684693 0.047913369
0.90936249 0.055328522 0.047318101
-0.20233348 -0.68341112 0.048116431
-0.20251465 -0.68267131 0.048671372
-0.20780121 -0.67410493 0.048307132
-0.20808491 -0.67338216 0.048866007
-0.20773785 -0.67338163 0.048865184
-0.21410319 -0.66481709 0.048726052
-0.14184925 -0.64937079 0.0481738
-0.14224264 -0.64864224 0.048768569
-0.14657882 -0.64168245 0.048210308
-0.1466486 -0.64096195 0.048820674
-0.14778221 -0.63414985 0.048613396
-0.1521847 -0.6273281 0.048559561
-0.20926327 -0.61448503 0.048408892
-0.20043148 -0.60843259 0.048251141
-0.19928165 -0.6085043 0.048313554
-0.16511191 -0.6085003 0.048305787
-0.16514605 -0.60783237 0.048973158
-0.1608392 -0.60781217 0.048974857
-0.167189 -0.60254169 0.048402682
-0.16678256 -0.6025334 0.04836718
-0.014259263 -0.080555081 0.048881561
-0.011716276 -0.080568962 0.048885532
-0.0048794849 -0.080594227 0.048870917
-0.00084010541 -0.080601193 0.048885379
0.00019426634 -0.0805711 0.048869282
-0.020826111 -0.079008192 0.048079867
-0.01302102 -0.079749539 0.048474088
-0.010395874 -0.079002187 0.04807302
-0.0035319503 -0.079015099 0.048055097
-0.0029058438 -0.07972756 0.048458211
-0.00025533163 -0.079046018 0.048076551
0.00042918714 -0.079024814 0.048065525
0.0051418208 -0.079038307 0.048081078
-0.022577561 -0.078976616 0.048082303
-0.021829411 -0.078967422 0.04807245
-0.012897953 -0.078981832 0.048069578
-0.011404803 -0.078999102 0.048073962
0.0086936029 -0.078978665 0.048065305
-0.048603393 -0.062636122 0.048589993
-0.047363732 -0.062618658 0.048593018
-0.047573272 -0.061851043 0.048200529
-0.046518654 -0.06178781 0.048201367
-0.063542716 -0.044475917 0.048961062
-0.062969469 -0.042885873 0.048212241
-0.20213793 -0.68116277 0.049752027
-0.18207155 -0.68191528 0.049223069
-0.18149075 -0.68189454 0.04918151
-0.18071319 -0.6818924 0.04915566
-0.17985946 -0.68151629 0.049451724
-0.20815511 -0.67262352 0.049413465
-0.21414238 -0.66331327 0.04985714
-0.21379849 -0.66331035 0.04985274
-0.137188 -0.65558732 0.049487144
-0.1419223 -0.6472044 0.049967479
-0.14333728 -0.64027631 0.049461637
-0.15229072 -0.62662476 0.049193393
-0.1522847 -0.62592947 0.049828
-0.21656866 -0.61987877 0.049391046
-0.15852931 -0.61983758 0.049331907
-0.20707394 -0.61315942 0.049746998
-0.20567851 -0.61382419 0.049074829
-0.16025779 -0.61349869 0.049430914
-0.19727993 -0.6071679 0.049669411
-0.18274239 -0.60122544 0.049764119
-0.17235516 -0.60183626 0.049036983
-0.1673405 -0.60124189 0.049794722
-0.013672896 -0.082110688 0.049692884
-0.0028522387 -0.082124405 0.049692366
-0.0031631819 -0.081273377 0.049272437
-0.04868862 -0.064203724 0.049371388
-0.047388721 -0.064379565 0.049498398
-0.046273962 -0.06495177 0.049764387
-0.056618012 -0.04608399 0.049706776
-0.063659638 -0.045261536 0.049333785
-0.062609866 -0.045271672 0.049332209
-0.19817187 -0.68927598 0.050775159
-0.19760334 -0.68978959 0.050404407
-0.19667597 -0.68958497 0.050537471
-0.19552699 -0.68939817 0.050680459
-0.1945961 -0.68927377 0.050781775
-0.1934807 -0.68904203 0.050980784
-0.20288567 -0.68040347 0.050288454
-0.20652074 -0.67963207 0.050812021
-0.20287985 -0.67965072 0.050825857
-0.21154791 -0.67105788 0.050464354
-0.21420942 -0.66256678 0.05043295
-0.21455567 -0.6618157 0.050988361
-0.13858387 -0.65485835 0.050048023
-0.13644624 -0.65486634 0.050081816
-0.1463054 -0.63952965 0.05004517
-0.14338544 -0.63956106 0.050060246
-0.14646679 -0.63883913 0.050676744
-0.21956198 -0.61847407 0.050662521
-0.21452782 -0.61845076 0.050646648
-0.15906355 -0.61846668 0.050660037
-0.20642793 -0.61248237 0.050417788
-0.16248477 -0.61242372 0.050380249
-0.16525882 -0.6064769 0.050320379
-0.19303358 -0.60578412 0.050987221
-0.19264922 -0.60578632 0.05099085
-0.18033648 -0.60053873 0.050442692
-0.047495656 -0.065713339 0.050151374
-0.065184154 -0.048444144 0.050829355
-0.058754195 -0.04850056 0.050835375
-0.064047635 -0.047661282 0.050452627
-0.058585424 -0.047705308 0.05046434
-0.055404536 -0.047610182 0.050453056
-0.062524118 -0.04684858 0.050080393
-0.1925602 -0.68828964 0.051523566
-0.20659809 -0.67835665 0.051690351
-0.21205674 -0.66955763 0.051564049
-0.21169859 -0.66955221 0.051557016
-0.20772021 -0.66963452 0.051650047
-0.21488516 -0.66106933 0.051540542
-0.13732377 -0.65339446 0.051217571
-0.13820368 -0.65267122 0.051789619
-0.13787623 -0.65266311 0.051803961
-0.13617012 -0.65265346 0.051825538
-0.13469131 -0.65266526 0.051807616
-0.14188114 -0.64576477 0.051171184
-0.14667457 -0.63814598 0.051328991
-0.14670087 -0.63743037 0.051953491
-0.15070601 -0.63131487 0.051101349
-0.15073766 -0.63060284 0.05172598
-0.22767906 -0.62381548 0.051739629
-0.21331233 -0.61773354 0.051256657
-0.21249807 -0.61738765 0.051582254
-0.211374 -0.61708111 0.05194414
-0.21063478 -0.6171127 0.051974099
-0.15950927 -0.61777586 0.051309168
-0.20441063 -0.61176974 0.051055126
-0.20334163 -0.61138338 0.051350646
-0.20236346 -0.61139995 0.051372487
-0.16255385 -0.6110909 0.051721711
-0.16021587 -0.61179876 0.051103301
-0.19445819 -0.60582978 0.051020656
-0.1935609 -0.60580468 0.051011205
-0.19167155 -0.60513008 0.051683035
-0.19091482 -0.605133 0.051684514
-0.17183353 -0.59920084 0.051802263
-0.17069691 -0.59988189 0.051131822
-0.014874239 -0.085250914 0.051320042
-0.034963142 -0.06895858 0.05165685
0.042843096 -0.06885916 0.051716238
-0.059412777 -0.050084908 0.051578797
-0.057688233 -0.050770909 0.051946908
-0.056615055 -0.050829485 0.051953636
-0.057915382 -0.04997943 0.051573511
-0.068635419 -0.028597252 0.051080711
-0.19808803 -0.68748987 0.052010044
-0.19163316 -0.68752849 0.052046329
-0.20156217 -0.68676388 0.052560713
-0.19874713 -0.68673408 0.052524257
-0.19074304 -0.68676245 0.052552771
-0.20672216 -0.67658818 0.052936401
-0.21208167 -0.66809636 0.052698851
-0.21171033 -0.66809303 0.052693754
-0.20772305 -0.66887128 0.052188534
-0.21523589 -0.66035473 0.052135449
-0.21486406 -0.66032696 0.052106339
-0.21556216 -0.65963495 0.052718416
-0.13846457 -0.65154862 0.05265988
-0.13612755 -0.65191942 0.052391365
-0.14193362 -0.64431989 0.052367751
-0.14190929 -0.64359486 0.052959967
-0.14708139 -0.636756 0.052589513
-0.1467265 -0.63672799 0.052558038
-0.15065324 -0.62917078 0.052953519
-0.22447486 -0.62311751 0.052354757
-0.22378099 -0.62307984 0.052333567
-0.22309478 -0.62238759 0.052975625
-0.20996895 -0.61642796 0.052638717
-0.15939334 -0.61639786 0.052600902
-0.20024641 -0.61043835 0.052420683
-0.19970259 -0.61044508 0.05242338
-0.19022162 -0.6044817 0.052361667
-0.16901578 -0.60450745 0.052417867
-0.17222096 -0.59854054 0.052477207
-0.17192066 -0.59853888 0.052477174
-0.037178144 -0.071298301 0.05281866
-0.03684821 -0.071298763 0.052818928
-0.032093376 -0.071237668 0.052846696
-0.038139187 -0.07047426 0.052428041
-0.037029091 -0.07050582 0.052426372
-0.036914732 -0.069701642 0.052034326
-0.035058085 -0.069765829 0.052054815
-0.03454224 -0.069755018 0.052058324
-0.059730098 -0.052374434 0.052695435
-0.056857374 -0.052428823 0.052704487
-0.059608351 -0.051605478 0.052321374
-0.057108603 -0.051620275 0.052326374
-0.1830703 -0.031904139 0.052520558
-0.064637303 -0.031788729 0.052510828
-0.069470167 -0.030997749 0.052163657
-0.074546158 -0.0086327223 0.052087661
-0.070486844 0.013800044 0.052825958
-0.081219174 0.1433949 0.052427605
-0.18997896 -0.68600541 0.053088125
-0.20157535 -0.68560857 0.053359665
-0.19869208 -0.68520743 0.053583696
-0.18935756 -0.68598199 0.053074565
-0.18829092 -0.68521714 0.053611852
-0.18790089 -0.68522042 0.053602632
-0.17323881 -0.67664272 0.053011999
-0.20669232 -0.67585093 0.053491499
-0.21203162 -0.66738439 0.053297788
-0.212101 -0.66663313 0.053876575
-0.21654293 -0.65813643 0.053862609
-0.21596737 -0.65889454 0.053298865
-0.13924344 -0.65044141 0.053550676
-0.13867503 -0.65043986 0.053530578
-0.14249265 -0.64285862 0.053547099
-0.1418891 -0.64287412 0.053560674
-0.14964479 -0.63564485 0.053460188
-0.22489308 -0.62246144 0.053036347
-0.22238693 -0.62169778 0.053637922
-0.20924346 -0.61575741 0.053286526
-0.20752752 -0.61505216 0.053937029
-0.20612855 -0.61500233 0.053897213
-0.15929204 -0.61502582 0.053910874
-0.19746087 -0.6090768 0.053742386
-0.19652914 -0.60908407 0.053744793
-0.1667005 -0.60906732 0.053726941
-0.16342798 -0.60973823 0.053048469
-0.1892565 -0.60315013 0.053717267
-0.18887749 -0.60314703 0.053719208
-0.18175381 -0.60313094 0.053723697
-0.17023125 -0.60318154 0.053763017
-0.16416334 -0.60313135 0.053705633
-0.17347755 -0.59729755 0.053946726
-0.17236876 -0.59725875 0.053882074
-0.032584429 -0.072026342 0.053236946
-0.031526316 -0.072046421 0.053240377
-0.028392252 -0.072778895 0.053651705
-0.027497914 -0.072795093 0.053660274
-0.057093311 -0.05441656 0.053651758
-0.059473306 -0.053148076 0.053068209
-0.057002157 -0.053213507 0.053081241
-0.064669602 -0.033436347 0.053237345
-0.069972374 0.011423158 0.053799048
-0.070418105 0.013052786 0.053150456
-0.086236186 0.13840431 0.05397759
-0.085749567 0.13840267 0.053982947
-0.084870249 0.13839142 0.053979114
-0.20151985 -0.68444955 0.054142963
-0.18639165 -0.68447095 0.054135222
-0.18533427 -0.68446237 0.054126129
-0.18441889 -0.68446767 0.054144062
-0.20444661 -0.68367302 0.054625135
-0.2067073 -0.67433935 0.054598987
-0.21220191 -0.66537595 0.054787349
-0.21674208 -0.65739781 0.054439951
-0.21937098 -0.65666735 0.054982111
-0.21865021 -0.65666479 0.054986652
-0.21757835 -0.65666687 0.054991312
-0.1394062 -0.64971387 0.054134712
-0.14556478 -0.642124 0.054127861
-0.14558519 -0.64139706 0.05473081
-0.14276341 -0.64140069 0.054752387
-0.14945164 -0.63386256 0.054991581
-0.15411955 -0.62743866 0.054542109
-0.22062194 -0.62105 0.054301254
-0.15431367 -0.62105864 0.054313377
-0.15361267 -0.62105769 0.054315422
-0.22031762 -0.62033761 0.054938063
-0.15544476 -0.62035072 0.054970138
-0.15433469 -0.62036812 0.054971851
-0.19767693 -0.60840029 0.054409668
-0.16749485 -0.60837007 0.054360606
-0.16333398 -0.60839152 0.054391433
-0.18650733 -0.60247332 0.054425497
-0.17350711 -0.59664273 0.054636009
-0.17243932 -0.59660459 0.054578338
-0.025128257 -0.075110532 0.054831684
-0.024777679 -0.075124182 0.054838128
-0.023699047 -0.075145371 0.054843411
-0.018708762 -0.075162761 0.054841001
-0.017563488 -0.075170226 0.054841992
-0.030433824 -0.074368335 0.054420751
-0.022878762 -0.074364334 0.054458153
-0.017464271 -0.07437323 0.054450855
-0.034604337 -0.07362327 0.054021344
-0.028850801 -0.073571041 0.054042444
-0.056151025 -0.057175592 0.054952055
-0.055820297 -0.057181448 0.054950129
-0.052897077 -0.05714843 0.054940816
-0.051753663 -0.057210084 0.054952942
-0.054423299 -0.056361318 0.054571427
-0.05203047 -0.056392688 0.05457497
-0.056583963 -0.055551648 0.054212883
-0.054451555 -0.055579938 0.054200277
-0.053196166 -0.055566609 0.054193042
-0.052488841 -0.055544533 0.054188021
-0.065525234 -0.035875514 0.054317988
-0.07034108 0.0089741312 0.054772221
-0.071168825 0.010634834 0.054121595
0.91852868 0.065032326 0.054810341
-0.085747361 0.13755953 0.054236948
-0.20441873 -0.68290871 0.055146001
-0.20146972 -0.68291438 0.055154104
-0.20963797 -0.67364419 0.055214792
-0.20672344 -0.67359269 0.055147812
-0.20959388 -0.67288035 0.055751398
-0.21813986 -0.65666765 0.055001192
-0.21711013 -0.65666372 0.055001669
-0.21676832 -0.65664947 0.055013388
-0.1400979 -0.64826715 0.05532223
-0.1395774 -0.64826411 0.055315726
-0.14371619 -0.64757907 0.055941358
-0.14529328 -0.63995367 0.055924751
-0.14967409 -0.63314468 0.055602808
-0.23091587 -0.62634766 0.055477414
-0.21924707 -0.61967599 0.055597007
-0.21892469 -0.61968738 0.055611037
-0.16186301 -0.61297554 0.055906881
-0.19342168 -0.60702264 0.055712175
-0.19276123 -0.60702604 0.055723701
-0.16355821 -0.60703278 0.055743273
-0.18655331 -0.60181457 0.055092901
-0.17290738 -0.601116 0.055740904
-0.16819543 -0.60119051 0.055805717
-0.16568145 -0.60110581 0.0557198
0.022236317 -0.077566102 0.05599127
-0.02646398 -0.076680437 0.055606239
-0.025387812 -0.076712869 0.055620614
-0.0093689337 -0.076759338 0.055623651
0.023449685 -0.076779574 0.055605322
-0.026316855 -0.075915463 0.055220909
-0.024517203 -0.075934999 0.055232268
-0.017471869 -0.075953081 0.055231825
-0.016560389 -0.075958259 0.055231795
0.019473974 -0.075927272 0.055234641
-0.052618213 -0.058002032 0.055327952
-0.051506579 -0.058742985 0.055695862
-0.050622072 -0.05874927 0.055695828
-0.066197142 -0.039013553 0.055743393
-0.065498725 -0.039003063 0.05574017
-0.066103078 -0.038249701 0.055388466
-0.067451932 -0.037408911 0.055019654
-0.065948635 -0.03747585 0.055033248
-0.072357468 0.0065404694 0.055747561
-0.071123451 0.0065196245 0.055754423
0.90851259 0.061695259 0.055951688
0.90612501 0.062531196 0.055750728
0.90756774 0.06253916 0.055689801
0.91569954 0.064204074 0.055067945
-0.20504215 -0.68139088 0.056232475
-0.20470546 -0.68139541 0.056223791
-0.1635661 -0.67208391 0.056228992
-0.16353217 -0.6713267 0.056765098
-0.21942852 -0.65516859 0.056127191
-0.21963499 -0.65442169 0.056697018
-0.1452826 -0.63921994 0.056506854
-0.14934659 -0.63172364 0.056844261
-0.22969049 -0.62565231 0.056102164
-0.22878763 -0.62567133 0.056121193
-0.15419623 -0.62568182 0.056128331
-0.15385565 -0.62568295 0.056134343
-0.15501694 -0.62496907 0.056755938
-0.15442789 -0.62496871 0.056747034
-0.22365274 -0.61828113 0.0568786
-0.21828578 -0.61897665 0.056244086
-0.21750812 -0.61830074 0.05689542
-0.15666482 -0.61824149 0.056842055
-0.15560435 -0.6182462 0.056854218
-0.16463479 -0.61228073 0.056524727
-0.16187812 -0.61227721 0.056533296
-0.18848656 -0.60636085 0.056413066
-0.17402051 -0.60043806 0.056406643
-0.016198879 -0.07910116 0.05679255
-0.0097233765 -0.079143971 0.056802057
0.003104161 -0.079099238 0.056787066
0.0096314978 -0.079128198 0.056800544
0.011811179 -0.079103172 0.05679848
-0.016395375 -0.078317598 0.056401629
-0.0097685028 -0.078339003 0.056407887
0.0075799278 -0.078297161 0.056391291
0.012609514 -0.07832177 0.056407265
0.017675145 -0.078333944 0.056409098
0.02124561 -0.07834287 0.056379549
-0.01661646 -0.077549934 0.056014385
0.015663596 -0.07754951 0.056018878
-0.050778031 -0.061097026 0.056814715
0.050964948 -0.06109916 0.056822229
0.051348805 -0.061088383 0.056821436
-0.050863054 -0.060326979 0.056442387
-0.052699007 -0.059576407 0.056072909
-0.051479351 -0.059541419 0.056068547
-0.050716486 -0.059539031 0.056069247
0.051582735 -0.059537884 0.056079429
-0.0662314 -0.041415773 0.056814611
-0.065552257 -0.041415852 0.056812011
-0.066477381 -0.040594075 0.056452993
-0.065412447 -0.040617537 0.056455512
-0.072142743 -0.019148964 0.056525763
-0.070842721 -0.019936793 0.056868117
-0.074238256 0.004940805 0.056399163
-0.0719487 0.0057187532 0.056073744
0.90976304 0.060439572 0.056424864
-0.20027646 -0.68918931 0.057515301
-0.19993518 -0.68919635 0.057534099
-0.20502569 -0.67988336 0.057302035
-0.2048215 -0.67950737 0.057566222
-0.17822167 -0.67988086 0.057295486
-0.17736626 -0.67987162 0.057299059
-0.17659244 -0.67987728 0.057299841
-0.17567217 -0.67911577 0.05781582
-0.17478772 -0.67911381 0.05781072
-0.20976698 -0.67059845 0.05736744
-0.21033183 -0.66981161 0.057879236
-0.20995106 -0.66983396 0.057894625
-0.21817835 -0.66136318 0.05772429
-0.21703905 -0.66138315 0.057734668
-0.21269321 -0.66136831 0.057714496
-0.21976388 -0.65367943 0.057255886
-0.1400806 -0.6536814 0.057242576
-0.21997374 -0.65293127 0.057822868
-0.1404665 -0.64610606 0.057111688
-0.14527193 -0.63849586 0.057100993
-0.14855081 -0.63782907 0.057787947
-0.14532536 -0.63775766 0.057701487
-0.14937821 -0.63100564 0.057459712
-0.2237632 -0.62425524 0.057361964
-0.15470202 -0.62355167 0.057995077
-0.22368117 -0.61758173 0.057513364
-0.21647683 -0.6175884 0.057531647
-0.1566723 -0.61753869 0.057475731
-0.19982655 -0.6109314 0.057860475
-0.16161983 -0.61089849 0.057824578
-0.19028756 -0.60568124 0.057058796
-0.18943128 -0.60500574 0.057728022
-0.18889894 -0.60501528 0.057734065
-0.17234321 -0.60503888 0.057772376
-0.16726157 -0.60564595 0.057008911
-0.16677037 -0.60564405 0.057013415
-0.1640999 -0.60501742 0.05773937
-0.16368161 -0.60535842 0.057420444
-0.17559746 -0.599159 0.057837158
-0.16962023 -0.59915733 0.057828389
-0.016367465 -0.081457518 0.057960235
-0.0091434009 -0.081431076 0.057937518
-0.0079860594 -0.081519648 0.05795034
0.00059441471 -0.08143089 0.057944447
0.0074885753 -0.081513785 0.057970449
0.0150622 -0.08150021 0.057972934
-0.010134528 -0.080704935 0.057578228
-0.0094119655 -0.080649517 0.057557177
-0.0082881339 -0.080684431 0.05755448
-0.0074950256 -0.080727436 0.057560977
0.005375816 -0.080664866 0.057559516
0.010483745 -0.080660433 0.057577178
-0.016144281 -0.079880252 0.057179909
-0.015811184 -0.079875804 0.057180133
0.0022639686 -0.07985165 0.05716921
0.0030581355 -0.079935856 0.057187326
0.0062029827 -0.079862155 0.057169475
0.01389882 -0.079918571 0.05718955
0.016338818 -0.079933055 0.057193477
0.019922981 -0.079924136 0.05715945
-0.045231286 -0.063516848 0.057945311
-0.04488818 -0.063531935 0.057943646
0.048853591 -0.063530661 0.057953935
-0.045141179 -0.062731825 0.05757302
-0.050756283 -0.06190202 0.057189971
-0.045336589 -0.061929114 0.057200141
-0.066257834 -0.043817088 0.057882283
-0.072153144 -0.021520386 0.057549711
-0.070909977 -0.02077019 0.057209875
-0.073155083 0.0024766931 0.057379901
-0.20059924 -0.68843138 0.058035433
-0.20501561 -0.67835987 0.058343358
-0.2085661 -0.67754877 0.058807522
-0.20498252 -0.6775974 0.058857411
-0.21037206 -0.66904324 0.0584056
-0.21036564 -0.66827834 0.058942396
-0.15818296 -0.6683135 0.058981396
-0.21271729 -0.66063857 0.058294371
-0.21997887 -0.6522035 0.058413815
-0.21995971 -0.65147799 0.058996011
-0.14117537 -0.65146309 0.05897405
-0.14414473 -0.64389211 0.058854457
-0.14860624 -0.6371035 0.058375895
-0.15231088 -0.63025361 0.058011465
-0.14946415 -0.63028723 0.058068775
-0.15227212 -0.6295414 0.058613114
-0.22739196 -0.62358135 0.058022495
-0.15538016 -0.62356347 0.058004025
-0.22598495 -0.6228767 0.058635015
-0.15662581 -0.62286103 0.058651868
-0.21544653 -0.61688828 0.058188044
-0.21440418 -0.61616695 0.058795616
-0.21367994 -0.61612248 0.058733024
-0.1607265 -0.61615932 0.058767285
-0.1576342 -0.61615533 0.058762707
-0.1652718 -0.6102249 0.058495991
-0.16732423 -0.59851885 0.058521092
-0.00147561 -0.083060615 0.058731254
0.0035864413 -0.083041109 0.058730647
-0.00059915212 -0.082247794 0.058339123
0.0073905 -0.082294181 0.058361784
-0.045061123 -0.065119676 0.058687631
-0.044691596 -0.065101922 0.058683943
-0.043635394 -0.065073699 0.058678981
-0.045008924 -0.064329594 0.058314905
-0.061601687 -0.046218857 0.058953926
-0.060815193 -0.046189941 0.058954164
-0.061476033 -0.045441218 0.058597106
-0.06135533 -0.044636454 0.058237195
-0.071604431 -0.024815945 0.058905903
-0.073226355 -0.0007729287 0.058688458
-0.073437668 0.00049547385 0.058195524
-0.072018661 2.3525618e-05 0.058368713
-0.071882665 0.00083325332 0.058040284
-0.20050442 -0.68651509 0.05931795
-0.18896545 -0.68690902 0.059083961
-0.20497012 -0.676045 0.059900105
-0.22032858 -0.65075874 0.059571844
-0.21998608 -0.65075618 0.059575766
-0.14828432 -0.63565516 0.059581101
-0.23309894 -0.62881261 0.059254929
-0.23232226 -0.62884521 0.059282713
-0.15234241 -0.62882507 0.059220854
-0.2296882 -0.6220836 0.05918752
-0.15685917 -0.62144285 0.059881177
-0.16110627 -0.61547321 0.059402611
-0.16074902 -0.61546159 0.059405364
-0.16566809 -0.60954851 0.059167232
-0.17136149 -0.6036762 0.059092522
-0.1666881 -0.60294276 0.059677545
-0.1771054 -0.59779406 0.059152022
-0.17597796 -0.59781796 0.059151888
-0.16714475 -0.59717441 0.059870664
-0.16340576 -0.59776062 0.059096895
-0.00840226 -0.083876811 0.05911921
-0.042368129 -0.067518026 0.05980169
-0.041852392 -0.067489959 0.059793945
-0.039324608 -0.067544796 0.05978018
-0.038617112 -0.067543484 0.05977311
-0.037733451 -0.067519762 0.059763554
-0.036867179 -0.067498855 0.059746038
0.04210826 -0.067464672 0.059818562
-0.043539211 -0.066695131 0.059428979
-0.042456541 -0.066710822 0.05942921
-0.037804201 -0.066749081 0.059395511
-0.044811703 -0.065867692 0.059054606
-0.043403152 -0.065894343 0.059054326
-0.042744804 -0.065890454 0.059053417
0.043391515 -0.06587445 0.059070587
-0.061673265 -0.046998661 0.059311859
-0.060975198 -0.046994019 0.059310984
-0.071796648 -0.026370279 0.059585452
-0.073437691 -0.0040253112 0.059991486
-0.07364133 -0.0032271221 0.059668075
-0.20294 -0.68535137 0.060094405
-0.20063345 -0.68537223 0.060101792
-0.17011264 -0.6753279 0.060487155
-0.16899712 -0.6753059 0.060468204
-0.20813212 -0.67453516 0.060962122
-0.21414037 -0.66607147 0.060584463
-0.21384154 -0.66606736 0.060595579
-0.21044856 -0.66639084 0.060289063
-0.13794778 -0.65762663 0.060495947
-0.22029683 -0.65002406 0.060146358
-0.14185506 -0.65000904 0.060144339
-0.14191994 -0.64926749 0.060710412
-0.22478177 -0.64246172 0.060027808
-0.14421013 -0.64241564 0.060012288
-0.22518893 -0.64171034 0.060607258
-0.14454223 -0.64168245 0.06058016
-0.14829965 -0.63492984 0.060170438
-0.15241726 -0.62740552 0.060485154
-0.15772535 -0.62071645 0.060500748
-0.15697584 -0.62072355 0.060494736
-0.21230674 -0.6147241 0.060001142
-0.21055014 -0.6140604 0.060675457
-0.1614451 -0.60812962 0.060438629
-0.18549579 -0.60229921 0.060403701
-0.18439168 -0.60230577 0.060403321
-0.16712417 -0.60226572 0.060364693
-0.17720249 -0.5964818 0.060528766
-0.17011447 -0.59644127 0.060497347
0.036655415 -0.069859371 0.060944725
0.038878493 -0.069890872 0.060934797
0.03929387 -0.069896422 0.060939521
0.040628463 -0.06905967 0.06056466
-0.043780927 -0.068282984 0.060176384
-0.041603357 -0.068266168 0.060158715
-0.04068017 -0.06834387 0.060166061
-0.060559139 -0.049487654 0.060390428
-0.06140238 -0.048612043 0.060027242
-0.068468541 -0.029629882 0.060961761
-0.067971885 -0.029639801 0.06095906
-0.068487346 -0.028809041 0.060619723
-0.073420361 -0.0063716797 0.060964216
-0.072407916 -0.0055866372 0.060641475
-0.071858205 -0.0056292992 0.060644619
-0.073901474 -0.0048375917 0.060317717
-0.072838277 -0.0047679432 0.060312066
-0.20292905 -0.68340266 0.061347686
-0.16933891 -0.67456806 0.061026275
-0.16897869 -0.67457008 0.06102822
-0.20817113 -0.67377484 0.061528787
-0.21439622 -0.66528881 0.06112491
-0.21453616 -0.6645335 0.061670762
-0.13617559 -0.65687227 0.061046459
-0.2203614 -0.64853168 0.061282426
-0.14191727 -0.64854318 0.061302543
-0.14232002 -0.64779669 0.061869066
-0.22542518 -0.64095199 0.061172917
-0.14453375 -0.64094728 0.061161119
-0.14798549 -0.63348353 0.061367214
-0.14797284 -0.63275933 0.061961818
-0.15262389 -0.62672049 0.061137665
-0.15770313 -0.62001097 0.061112992
-0.21789308 -0.61935347 0.061787158
-0.21678729 -0.61933845 0.061785106
-0.1586262 -0.61929649 0.061729237
-0.20948593 -0.61339521 0.061345175
-0.20835158 -0.61340362 0.061343092
-0.20593455 -0.6133461 0.061308786
-0.20702478 -0.61269927 0.061996393
-0.16339287 -0.61265075 0.061941426
-0.1996365 -0.60749716 0.061122771
-0.19463353 -0.60675848 0.061732836
-0.17617543 -0.60164797 0.061082229
-0.16752382 -0.60162079 0.061055772
-0.17842713 -0.60093546 0.061722733
-0.17751443 -0.60095423 0.061734263
-0.17733356 -0.59512669 0.061877061
-0.034880362 -0.071514025 0.061655521
0.03535134 -0.071454488 0.061695628
-0.034053475 -0.070706896 0.061283778
-0.03329866 -0.070668049 0.061278809
0.039155796 -0.070669763 0.061314914
-0.055008631 -0.052614108 0.061830174
-0.061391473 -0.051886052 0.06145649
-0.0553036 -0.051406503 0.061293975
-0.068541199 -0.032052174 0.06197989
-0.067637965 -0.032058153 0.061976392
-0.068598866 -0.031245193 0.061640684
-0.067555137 -0.031248827 0.061635751
-0.073427863 -0.0088866251 0.061947457
-0.072568253 -0.0080710612 0.06161923
-0.20290747 -0.68224019 0.062130433
-0.18145218 -0.68147749 0.06260772
-0.18055935 -0.68149406 0.062645949
-0.20835167 -0.67302358 0.062071491
-0.16029622 -0.67301196 0.062030345
-0.2084794 -0.67228442 0.062596425
-0.21490784 -0.66302156 0.06276197
-0.22146367 -0.64705122 0.062441491
-0.14232415 -0.64705157 0.062429745
-0.22621013 -0.64631766 0.062997811
-0.22602049 -0.6394453 0.062297761
-0.22567391 -0.63944548 0.062292606
-0.1471391 -0.63946044 0.062311571
-0.14416631 -0.6394887 0.062339488
-0.22633559 -0.63871753 0.062881388
-0.14712176 -0.63872534 0.062895343
-0.15122688 -0.63200396 0.0625498
-0.15251081 -0.62458569 0.062974595
-0.21572755 -0.61859667 0.062373009
-0.15880777 -0.61859816 0.062353451
-0.15959568 -0.61789972 0.062994219
-0.1605612 -0.61200887 0.062640026
-0.20411174 -0.6119442 0.062571764
-0.19648641 -0.60610932 0.062413905
-0.1950106 -0.60609871 0.062414855
-0.19393115 -0.60607362 0.062389582
-0.16551235 -0.60611665 0.062409073
-0.17846137 -0.60024339 0.062373802
-0.17200695 -0.60024554 0.062386468
-0.17129609 -0.6002652 0.062407997
-0.16730604 -0.60027325 0.062423449
-0.031673688 -0.073372833 0.062541455
0.01594105 -0.073805332 0.062813342
0.029359529 -0.073061951 0.062432136
0.033428364 -0.073836662 0.062818334
-0.036426272 -0.072306246 0.06201693
-0.035682376 -0.072298482 0.062024239
0.033842485 -0.072236687 0.06207436
0.03669389 -0.07225401 0.062054057
0.037072677 -0.072255701 0.062054168
-0.055109262 -0.053429078 0.062183216
-0.0687287 -0.034462813 0.062997855
-0.07386741 -0.011299524 0.062911369
-0.073219597 -0.0096740881 0.062263992
-0.072265565 -0.0097118225 0.062270187
-0.20326228 -0.67995203 0.063665122
-0.20845227 -0.6715219 0.063124649
-0.20851035 -0.67074823 0.063643016
-0.1620646 -0.67070365 0.063583083
-0.16134578 -0.67070144 0.063592911
-0.16060257 -0.67070746 0.063592598
-0.21488453 -0.66226858 0.063308291
-0.21493919 -0.66150624 0.063855246
-0.13759959 -0.65388656 0.063303031
-0.13648903 -0.65351993 0.06356518
-0.14234549 -0.64631176 0.063006535
-0.22633508 -0.64559257 0.063572071
-0.14235714 -0.64558023 0.0635783
-0.22666371 -0.63802254 0.063521542
-0.15119152 -0.63129061 0.063149296
-0.15411302 -0.63053209 0.063688263
-0.15284388 -0.62385923 0.063567206
-0.2137168 -0.61714798 0.063573733
-0.21293791 -0.61717445 0.063601471
-0.1599623 -0.61790091 0.063002013
-0.20533676 -0.61127985 0.063238576
-0.20346324 -0.61123526 0.063206621
-0.16309887 -0.61125636 0.063229881
-0.20277673 -0.61055428 0.06387426
-0.1685487 -0.61059105 0.063885614
-0.1925804 -0.60540581 0.063056722
-0.19147724 -0.60473049 0.063708648
-0.18759039 -0.60472405 0.063723847
-0.18572922 -0.60473889 0.063720465
-0.16559851 -0.60472268 0.063704573
-0.18315932 -0.598921 0.063738145
-0.18003817 -0.59889621 0.063730039
-0.024450321 -0.076201856 0.06394887
0.026734186 -0.076229587 0.063928813
0.028912324 -0.076219335 0.063938528
-0.029367888 -0.075403139 0.06355603
-0.028244963 -0.075458631 0.063571617
-0.028153419 -0.074629165 0.063189052
-0.027226578 -0.074660115 0.063199148
-0.02669028 -0.074611492 0.063189097
0.050948132 -0.057461288 0.063988447
0.055240557 -0.057413403 0.063982643
-0.068795703 -0.013718892 0.06388773
-0.071736254 -0.012932057 0.06356281
-0.19744954 -0.68847537 0.06455636
-0.19638261 -0.68848145 0.064566433
-0.19589819 -0.68847704 0.064585626
-0.20680197 -0.67919254 0.064186551
-0.20719935 -0.67840159 0.06467855
-0.20319726 -0.67841703 0.064696893
-0.21245052 -0.66914231 0.064616226
-0.21169566 -0.66915929 0.064636908
-0.15995991 -0.66993642 0.064137056
-0.15881708 -0.66918862 0.064677469
-0.21545386 -0.66073674 0.064379111
-0.13755262 -0.65238935 0.064403921
-0.13826123 -0.65164608 0.064948596
-0.13791713 -0.65164292 0.064945504
-0.22693402 -0.64484537 0.064155169
-0.14622857 -0.64482135 0.064116672
-0.14300974 -0.64485902 0.064158358
-0.14247435 -0.64484555 0.064149544
-0.22704065 -0.63732809 0.064146541
-0.22707418 -0.63660038 0.06474632
-0.14677939 -0.63655764 0.064681999
-0.15086874 -0.62948167 0.064641044
-0.2263622 -0.62246102 0.064817183
-0.21193872 -0.61648929 0.064255051
-0.16250886 -0.61650127 0.064249501
-0.15971696 -0.61648679 0.064252637
-0.21042281 -0.61582339 0.064895302
-0.16251148 -0.61580157 0.064888738
-0.20061547 -0.60991102 0.06455157
-0.19042449 -0.60404432 0.064361379
-0.16887295 -0.60402328 0.064346373
-0.17896454 -0.59821922 0.064387456
-0.17183335 -0.59819502 0.064365193
-0.16742195 -0.59827721 0.064431779
-0.026133807 -0.077771612 0.064687356
-0.022494501 -0.077789247 0.064687893
-0.021800168 -0.077812634 0.064692028
0.026826899 -0.077814795 0.064673871
0.02807623 -0.077013798 0.064310871
0.029421387 -0.07776776 0.064679995
-0.024393834 -0.076985583 0.06432274
-0.023449654 -0.076982409 0.064321794
0.028758286 -0.076995119 0.064307563
0.029151017 -0.076957345 0.064301752
-0.049013607 -0.05820293 0.064321354
0.053303212 -0.05818535 0.064332515
-0.072427571 -0.01619149 0.064863138
-0.071696423 -0.016202617 0.064864516
-0.070494637 -0.015381918 0.064540148
-0.073254265 -0.014564228 0.064216539
-0.072180398 -0.014556027 0.064211674
0.91276938 0.06880492 0.064554684
0.90818316 0.069719516 0.064272158
-0.19906895 -0.68771023 0.065077342
-0.19852307 -0.68770826 0.06506741
-0.19788854 -0.68771422 0.065051682
-0.19651403 -0.68769711 0.06505207
-0.19512357 -0.68770605 0.065073207
-0.19452554 -0.68772185 0.06508287
-0.19359477 -0.68773395 0.065112717
-0.19269395 -0.68774259 0.065100536
-0.20261392 -0.68696117 0.065597586
-0.19174744 -0.68696737 0.065595694
-0.20716944 -0.67762256 0.065174036
-0.1733357 -0.67767799 0.065254062
-0.17226939 -0.67768508 0.065270409
-0.17417428 -0.67688996 0.065741599
-0.17364578 -0.6768778 0.065729842
-0.1726009 -0.67691278 0.065769896
-0.21236598 -0.66762245 0.065677047
-0.21556012 -0.65921962 0.065442204
-0.22210331 -0.65090954 0.065536067
-0.13824156 -0.65089756 0.065505788
-0.22731453 -0.64258122 0.065820239
-0.22824164 -0.63513458 0.065891892
-0.22744724 -0.63587916 0.065319113
