# .PCD v0.7 - Point Cloud Data file format
VERSION 0.7
FIELDS x y z
SIZE 4 4 4
TYPE F F F
COUNT 1 1 1
WIDTH 1337
HEIGHT 1
VIEWPOINT 0 0 0 1 0 0 0
POINTS 1337
DATA ascii
-0.12337159 -0.63448274 0.0074106306
-0.12026991 -0.63419926 0.0078091337
-0.11994256 -0.6348182 0.0070705754
-0.12565702 -0.6277408 0.0075396793
-0.27335662 -0.62125397 0.0073939702
-0.25827545 -0.61492187 0.0075118523
-0.23652159 -0.602992 0.0075691184
-0.14221574 -0.60294086 0.0075241611
-0.22656967 -0.59736741 0.0074306275
-0.14042008 -0.59732002 0.0073758378
-0.21442635 -0.59176099 0.0074284086
-0.21167538 -0.59174627 0.0074113668
-0.19889684 -0.58126783 0.0071272878
-0.19749375 -0.5812785 0.0071263793
-0.19643265 -0.58123195 0.0070920158
-0.19531265 -0.58119714 0.0070688385
-0.19153136 -0.58074641 0.007963567
-0.190824 -0.58073825 0.007954658
-0.15578312 -0.57575625 0.0075314511
-0.17420928 -0.57092583 0.0073808171
-0.17348129 -0.57092303 0.0073775337
-0.1565406 -0.57089674 0.0073550697
-0.16607314 -0.56602961 0.0072553153
-0.096767887 -0.67929596 0.0085133985
-0.10010076 -0.6711843 0.0082386732
-0.10225517 -0.67050248 0.0088927038
-0.10152461 -0.67050093 0.0088975299
-0.11272005 -0.65512949 0.0084155817
-0.11899678 -0.64005429 0.0089720646
-0.12399943 -0.6334973 0.0084501477
-0.28489026 -0.62709713 0.0082589602
-0.28316882 -0.62706912 0.0082334587
-0.28237543 -0.62702209 0.0081655066
-0.27050138 -0.62071604 0.0082096187
-0.26871613 -0.62068355 0.008176608
-0.13467562 -0.6200766 0.0089161163
-0.26051703 -0.61435121 0.0083107119
-0.25657454 -0.61433804 0.0082980823
-0.2509301 -0.60803705 0.0085953278
-0.24519941 -0.60807168 0.0086194407
-0.23267987 -0.60231316 0.0082551315
-0.22384402 -0.59670526 0.0081398999
-0.21639845 -0.59117007 0.0082044248
-0.21562475 -0.59116638 0.008198237
-0.21498272 -0.59114367 0.0081868423
-0.21280338 -0.59118283 0.0082034329
-0.21069123 -0.59116048 0.0081928885
-0.14783493 -0.59117538 0.0081876852
-0.14391916 -0.59120524 0.0082263397
-0.14838709 -0.59059656 0.0089730667
-0.14508815 -0.59060442 0.0089979852
-0.15026139 -0.58561659 0.0083509423
-0.14627531 -0.58565086 0.0083870608
-0.19276135 -0.58018374 0.0087411702
-0.18026625 -0.57527995 0.0083904518
-0.15625107 -0.57526803 0.0084025627
-0.17182997 -0.57038796 0.0081860637
-0.16767572 -0.56554949 0.0081146033
-0.16518773 -0.56551266 0.0080845421
-0.16280612 -0.56501281 0.0089238212
-0.10553905 -0.66980082 0.0095040714
-0.10371418 -0.66980761 0.0095274244
-0.10929894 -0.6617586 0.0094987126
-0.11139073 -0.6537649 0.0097533045
-0.11064232 -0.65377307 0.0097603872
-0.11949078 -0.63938844 0.0096586859
-0.2950975 -0.63286775 0.0091871675
-0.29398516 -0.6328904 0.0092077814
-0.29188186 -0.6322639 0.0099368626
-0.12416156 -0.632213 0.0098787528
-0.2793687 -0.62584102 0.0096994154
-0.12888089 -0.62581944 0.0096882675
-0.26737002 -0.61940068 0.0095846448
-0.26492199 -0.61944699 0.009648717
-0.25699815 -0.61370742 0.009008307
-0.25559363 -0.61371273 0.0090470556
-0.13551338 -0.60738522 0.0092821633
-0.23530811 -0.6018151 0.0090986667
-0.23317842 -0.60113662 0.0097798137
-0.23144734 -0.60117477 0.0098169837
-0.14243695 -0.60176146 0.0090428162
-0.22510895 -0.59559941 0.0097377161
-0.2225855 -0.5955866 0.0097323963
-0.14584523 -0.59560132 0.0097265355
-0.14112505 -0.5955835 0.009705618
-0.20341046 -0.58505785 0.0091735935
-0.20200618 -0.58506304 0.009172664
-0.20055842 -0.58511007 0.0091951806
-0.20536083 -0.58452392 0.0099754296
-0.1504382 -0.58447093 0.0099176178
-0.19182016 -0.57965446 0.0095651839
-0.18820474 -0.57954836 0.0094764028
-0.17937128 -0.57469302 0.0091774138
-0.17234099 -0.56986499 0.0090276413
-0.1706751 -0.56933337 0.0098426323
-0.15687022 -0.56985587 0.0090190582
-0.16326159 -0.56449872 0.0097513329
-0.15903592 -0.56450903 0.0097675836
-0.15824856 -0.56451559 0.0097714905
-0.095334552 -0.68600035 0.010254754
-0.098149598 -0.6852988 0.010875572
-0.094566949 -0.68600005 0.010244384
-0.093485475 -0.68599284 0.010216152
-0.10243656 -0.66840672 0.010813541
-0.10828136 -0.66107047 0.0101639
-0.10731828 -0.66037905 0.010820798
-0.1066189 -0.66035688 0.010799699
-0.11743518 -0.6451754 0.01090616
-0.11642992 -0.64518189 0.010920618
-0.11494239 -0.64589596 0.010292793
-0.29268432 -0.63157094 0.010606984
-0.2909064 -0.63157362 0.010597902
-0.28331819 -0.62521285 0.0104232
-0.28087613 -0.62512356 0.010340382
-0.12963304 -0.62516117 0.010375941
-0.12780343 -0.62518936 0.010397105
-0.26646882 -0.6187588 0.010337567
-0.1326028 -0.61883318 0.01039365
-0.13190034 -0.61879349 0.01035978
-0.25427854 -0.61249608 0.010519289
-0.13371931 -0.61248559 0.010520417
-0.24646109 -0.60681599 0.010100505
-0.24400948 -0.60684764 0.010111655
-0.24327977 -0.60682249 0.010101957
-0.13967016 -0.6062091 0.010843774
-0.13640976 -0.60622257 0.010851997
-0.22159512 -0.59501725 0.010515122
-0.1509385 -0.58391947 0.01072989
-0.1690542 -0.56879538 0.010653839
-0.15792888 -0.56880099 0.0106625
-0.16029602 -0.56400645 0.010623061
-0.15951151 -0.56399655 0.010607552
-0.095341563 -0.684569 0.011481316
-0.10383157 -0.66771352 0.011431792
-0.11435907 -0.65176719 0.011787172
-0.11860066 -0.64449424 0.01157872
-0.1195994 -0.6380614 0.011031544
-0.12007718 -0.63738757 0.011705693
-0.29347992 -0.63093525 0.011313974
-0.29171279 -0.63095993 0.011348688
-0.28981844 -0.63089418 0.011276535
-0.28879303 -0.63027632 0.011992681
-0.27809373 -0.62456453 0.011161919
-0.26872936 -0.61819142 0.011116309
-0.13091101 -0.6181466 0.011044683
-0.26512688 -0.61756128 0.01181902
-0.2580635 -0.61184931 0.01124192
-0.25658649 -0.61186087 0.011232311
-0.25559866 -0.61124319 0.011986363
-0.24981539 -0.61122155 0.011967008
-0.1374623 -0.61183029 0.011206037
-0.13274564 -0.61186302 0.01124549
-0.24023002 -0.60559219 0.011592676
-0.14015034 -0.60561937 0.011606365
-0.23021004 -0.60001701 0.011373556
-0.23205402 -0.59992874 0.011309608
-0.22062621 -0.59444898 0.011294369
-0.21957898 -0.59444535 0.011294082
-0.2065171 -0.58884132 0.011300518
-0.14673762 -0.58341384 0.011586283
-0.15123941 -0.57801056 0.011990675
-0.18679844 -0.57791907 0.011890404
-0.16806941 -0.56826735 0.011476817
-0.16630243 -0.56826794 0.011471124
-0.15912798 -0.56824017 0.011448586
-0.16145161 -0.56348968 0.011437278
-0.16079311 -0.56348985 0.011442075
-0.15694296 -0.55399281 0.011718622
-0.098268852 -0.68386573 0.012103304
-0.095369525 -0.68315154 0.012709409
-0.099078208 -0.67504597 0.01224464
-0.10160878 -0.67434531 0.01288502
-0.10282239 -0.66701925 0.012080966
-0.10825157 -0.6662876 0.012681266
-0.10749811 -0.66628456 0.012679825
-0.10600625 -0.66698396 0.012054828
-0.10495733 -0.66630787 0.012708941
-0.11033101 -0.65832281 0.012778152
-0.11336548 -0.65109718 0.012461493
-0.24160412 -0.64320713 0.012969925
-0.11908972 -0.64385968 0.012315515
-0.12042149 -0.63673669 0.012391587
-0.287792 -0.63029683 0.012014055
-0.27423757 -0.62321931 0.012499881
-0.26739392 -0.61693978 0.012558476
-0.26411685 -0.616952 0.012570662
-0.25210449 -0.6106407 0.012750354
-0.25136685 -0.61064893 0.012745182
-0.13499898 -0.61064547 0.012740465
-0.14055419 -0.60501748 0.012354737
-0.13733038 -0.60500437 0.012345685
-0.1427893 -0.59938073 0.01209452
-0.23079413 -0.59877926 0.012867308
-0.175539 -0.59878373 0.012856096
-0.14397128 -0.5988006 0.012870031
-0.1465299 -0.59385538 0.012066538
-0.14257653 -0.59383899 0.01204183
-0.20476927 -0.58829176 0.012105641
-0.14553303 -0.58830148 0.012100117
-0.21100484 -0.58776975 0.012905742
-0.20669621 -0.58770585 0.012862217
-0.14857401 -0.58774966 0.012932513
-0.15117739 -0.58280379 0.012326564
-0.19058815 -0.57746083 0.012794971
-0.18589573 -0.57738262 0.012711323
-0.15177207 -0.57745397 0.01278476
-0.15942296 -0.57256866 0.012462484
-0.13636111 -0.68169713 0.013904486
-0.095455587 -0.68172491 0.013937359
-0.10049725 -0.67364389 0.013498477
-0.099838205 -0.6736421 0.013502754
-0.10390409 -0.66562504 0.013342518
-0.10923164 -0.65764612 0.013438007
-0.10853717 -0.65764052 0.013429465
-0.11227644 -0.65041953 0.013112161
-0.11162401 -0.65040696 0.013098388
-0.11915609 -0.64255071 0.013694697
-0.12234906 -0.63541538 0.013799255
-0.12058059 -0.63540918 0.013767187
-0.22580777 -0.62258577 0.013200429
-0.26136592 -0.61631107 0.013282055
-0.13553864 -0.61001718 0.013468064
-0.13812338 -0.60999447 0.013448212
-0.23894571 -0.60442042 0.013104712
-0.23619547 -0.60379028 0.013860794
-0.14068046 -0.60381734 0.013869135
-0.2287811 -0.5982244 0.013651627
-0.17601544 -0.59816658 0.013599562
-0.14742722 -0.59263694 0.01354574
-0.14352357 -0.59267706 0.013580002
-0.20864342 -0.58717555 0.013704312
-0.20788729 -0.58719999 0.013728102
-0.14580058 -0.58717078 0.013677969
-0.1516017 -0.5822624 0.01313997
-0.15215768 -0.58174533 0.013982289
-0.18738841 -0.57682121 0.013521108
-0.18493256 -0.57686788 0.013551439
-0.15522292 -0.57683557 0.01353895
-0.16673854 -0.56670612 0.013944218
-0.099052541 -0.68102455 0.014559253
-0.10240391 -0.67223966 0.014787656
-0.10578122 -0.66418856 0.014600449
-0.29770198 -0.63476896 0.014491197
-0.28629109 -0.62770516 0.014843593
-0.28448999 -0.62772876 0.014871484
-0.28202876 -0.62769318 0.0148267
-0.12893173 -0.62771893 0.014847696
-0.27451447 -0.62128764 0.014629563
-0.27261323 -0.62135214 0.014706751
-0.13236111 -0.62129956 0.014640224
-0.25936314 -0.61504418 0.014707597
-0.13626936 -0.61504894 0.014738562
-0.13417156 -0.61505842 0.014736182
-0.1333985 -0.61569834 0.014015751
-0.13205291 -0.61507368 0.014752554
-0.25008035 -0.60937923 0.014194655
-0.24757931 -0.60938811 0.014200468
-0.24914242 -0.60874069 0.014920311
-0.24663049 -0.60880053 0.014973179
-0.24409105 -0.60872531 0.01488575
-0.13896966 -0.60879993 0.014964627
-0.13576171 -0.6087569 0.014920515
-0.23774196 -0.60321647 0.014624026
-0.14116207 -0.60321498 0.014638052
-0.22601303 -0.59759945 0.014369855
-0.17747205 -0.59763908 0.014410808
-0.17356373 -0.59761238 0.014397071
-0.14424571 -0.59761429 0.014394157
-0.1985428 -0.58119202 0.014764545
-0.19639656 -0.58112359 0.014715958
-0.19566038 -0.58114302 0.014729
-0.15259367 -0.58121073 0.014791491
-0.15349191 -0.5763166 0.014363032
-0.17773809 -0.57145232 0.014044624
-0.17556261 -0.5715152 0.014109449
-0.16191038 -0.57147473 0.014072463
-0.16044527 -0.57148308 0.014079424
-0.17676543 -0.57089972 0.014844803
-0.15943418 -0.5567202 0.014884045
-0.094241388 -0.68838727 0.015764154
-0.092489973 -0.68839514 0.015785735
-0.099357717 -0.6803056 0.015163974
-0.099782817 -0.67957646 0.015765946
-0.095885493 -0.67957711 0.015776657
-0.10472044 -0.66350663 0.015253956
-0.11147664 -0.65556526 0.015393374
-0.11750876 -0.64834714 0.01508614
-0.11603212 -0.64838833 0.015125421
-0.11503743 -0.64771295 0.015789239
-0.11424164 -0.64771014 0.015783371
-0.11352908 -0.64770657 0.015787289
-0.1189257 -0.64054769 0.015718764
-0.12247784 -0.63409275 0.0151722
-0.29642519 -0.63343024 0.015867036
-0.29280025 -0.63344747 0.015871065
-0.1228902 -0.63343376 0.015849948
-0.28344187 -0.62700987 0.01549805
-0.12759903 -0.62707043 0.01555004
-0.1265313 -0.6270712 0.015561628
-0.12432472 -0.6270377 0.015527216
-0.27161574 -0.62073672 0.015430277
-0.13120644 -0.62069649 0.015365181
-0.13052915 -0.62070721 0.015388043
-0.12977873 -0.6207065 0.015391449
-0.12834628 -0.62068641 0.015365507
-0.12765852 -0.62069565 0.015398138
-0.13678169 -0.61441219 0.01545825
-0.24811591 -0.60815525 0.015675826
-0.24564454 -0.60820663 0.015712637
-0.14538555 -0.59701967 0.015155114
-0.22652699 -0.59645587 0.015961483
-0.22478412 -0.5963788 0.015891006
-0.21617295 -0.59147632 0.015135594
-0.21550319 -0.59149188 0.015131072
-0.21399713 -0.59151071 0.015138238
-0.21235523 -0.59093523 0.015909556
-0.21168812 -0.5909394 0.015919814
-0.14927404 -0.58604294 0.015276893
-0.19400728 -0.58062458 0.015554934
-0.19326621 -0.58065486 0.015586503
-0.19150935 -0.58064485 0.015596606
-0.19041674 -0.58060926 0.015568568
-0.1833922 -0.57579488 0.015175624
-0.18227889 -0.57579052 0.015187367
-0.18135715 -0.57524943 0.015986647
-0.18068586 -0.57521439 0.015965262
-0.15596864 -0.57518411 0.015936898
-0.17581309 -0.57038969 0.015694523
-0.17369837 -0.57045138 0.015739523
-0.093229488 -0.68765819 0.01636057
-0.10033386 -0.67850304 0.016682275
-0.13444637 -0.67011058 0.016666414
-0.10349456 -0.67083687 0.016046049
-0.10102574 -0.67082983 0.01604257
-0.10737263 -0.66210055 0.016516717
-0.10665066 -0.66211027 0.016517818
-0.11040845 -0.65488976 0.01606236
-0.1097693 -0.6548996 0.016074141
-0.119325 -0.63988572 0.016388325
-0.29428232 -0.63279814 0.016556917
-0.12400757 -0.63275003 0.016499793
-0.12326681 -0.6327675 0.016522439
-0.28496745 -0.62642795 0.016272489
-0.28069788 -0.62642938 0.01626453
-0.27896717 -0.6264326 0.016278774
-0.28215596 -0.62570685 0.016881185
-0.2778545 -0.62574929 0.016911281
-0.12875998 -0.62006569 0.016097488
-0.26851347 -0.61943668 0.01683324
-0.26066762 -0.61380619 0.016205443
-0.25665891 -0.61379975 0.01620687
-0.25599995 -0.61379671 0.016205858
-0.17694108 -0.60196501 0.016099378
-0.14158887 -0.6016748 0.016482942
-0.22371285 -0.59582525 0.016687086
-0.17826742 -0.59583014 0.016687898
-0.14979494 -0.58545959 0.016038479
-0.20513637 -0.5848552 0.016784078
-0.20442504 -0.58486253 0.016820142
-0.20265548 -0.58487797 0.016835857
-0.15427096 -0.5800727 0.016367413
-0.15574226 -0.56991708 0.01655555
-0.10152395 -0.67744654 0.017599219
-0.13731685 -0.66942745 0.017278703
-0.10212726 -0.66942579 0.017298201
-0.11304031 -0.65350252 0.017327679
-0.11201242 -0.65280539 0.017980374
-0.11664122 -0.63915884 0.017040284
-0.11943036 -0.63855511 0.017755099
-0.28914484 -0.63147241 0.017942671
-0.12563212 -0.63144326 0.017920991
-0.1241203 -0.63143939 0.017900083
-0.26752844 -0.61874723 0.017515445
-0.25467205 -0.61254793 0.017645059
-0.24440965 -0.6069594 0.017195312
-0.24261434 -0.60687387 0.017125182
-0.24156992 -0.60629469 0.017891435
-0.20216398 -0.60628992 0.017864278
-0.20063347 -0.60634428 0.017913092
-0.13958451 -0.60695869 0.017177008
-0.2298435 -0.60079813 0.017640401
-0.18968478 -0.60077173 0.017602416
-0.17886303 -0.60076541 0.017596342
-0.14240797 -0.60073602 0.01757377
-0.13836221 -0.60077345 0.017608725
-0.22279359 -0.59526396 0.017476643
-0.17873944 -0.59523702 0.017462069
-0.20128904 -0.58435333 0.01764291
-0.1995075 -0.58432412 0.017607428
-0.15628789 -0.57946163 0.017115148
-0.15478921 -0.57951123 0.017161598
-0.15745528 -0.57888001 0.017887875
-0.15615609 -0.57411391 0.017561795
-0.17250393 -0.56937748 0.017375872
-0.16448006 -0.56461251 0.017259175
-0.094394058 -0.68477899 0.018783046
-0.13830896 -0.67601562 0.018857377
-0.1050652 -0.66801727 0.018524911
-0.10328174 -0.66801476 0.018543934
-0.10961141 -0.66004151 0.018456394
-0.10853375 -0.66003644 0.018457796
-0.24448335 -0.64498597 0.018421574
-0.24531122 -0.63080394 0.01863811
-0.24272545 -0.63083678 0.018659942
-0.2387355 -0.63080508 0.01863011
-0.1259917 -0.63079482 0.01862717
-0.1246004 -0.63077992 0.018598346
-0.27914414 -0.62449944 0.018399119
-0.2784164 -0.62449682 0.018398618
-0.2758441 -0.62443101 0.018321496
-0.23168801 -0.62446761 0.018337233
-0.26473975 -0.61818475 0.018299175
-0.26620615 -0.61749673 0.018978503
-0.13028391 -0.61748165 0.018932965
-0.25374755 -0.61191583 0.01837684
-0.25299251 -0.61192191 0.018378258
-0.24316153 -0.60565686 0.018603275
-0.19966851 -0.60572249 0.018644923
-0.19364032 -0.60571969 0.018652717
-0.13977413 -0.60571861 0.018665196
-0.23130471 -0.60018045 0.018376155
-0.18008795 -0.60015523 0.018349251
-0.1779127 -0.60011548 0.018321626
-0.14275025 -0.60014737 0.018334396
-0.22147176 -0.59467262 0.018250635
-0.22040948 -0.59467459 0.018252991
-0.21968128 -0.59464073 0.01822398
-0.21894167 -0.59463513 0.018208696
-0.21669216 -0.59466511 0.018216616
-0.14574617 -0.59465474 0.018210655
-0.14816533 -0.58917129 0.018221902
-0.19673319 -0.58375329 0.018409468
-0.18810153 -0.57830757 0.01867057
-0.17636952 -0.57360327 0.018404791
-0.17062561 -0.56829363 0.01899812
-0.16739295 -0.56827575 0.018987795
-0.16260074 -0.56356657 0.018911636
-0.097955219 -0.68407798 0.019413222
-0.13177092 -0.67532492 0.019468421
-0.097370207 -0.67529923 0.019445468
-0.11462654 -0.65078241 0.019983482
-0.11853629 -0.64356786 0.019698797
-0.11743003 -0.64358294 0.0197125
-0.11570455 -0.64359808 0.01973919
-0.11955307 -0.63722342 0.019114679
-0.24389967 -0.63655734 0.019821413
-0.24171685 -0.63649839 0.019777795
-0.23638585 -0.63654029 0.019798471
-0.1224772 -0.63653845 0.019776477
-0.12001018 -0.63653356 0.019780857
-0.29059178 -0.63009763 0.019285824
-0.23314199 -0.63015455 0.019337919
-0.1274675 -0.63016856 0.019342931
-0.22645263 -0.62311935 0.019722279
-0.12906283 -0.62381613 0.01906568
-0.12823565 -0.62382501 0.019056575
-0.12727718 -0.62318337 0.019767793
-0.12650666 -0.62319726 0.019776138
-0.13300873 -0.61757618 0.019033641
-0.13239111 -0.6175375 0.019015843
-0.26519462 -0.6169064 0.01971123
-0.26343378 -0.61690027 0.01972984
-0.21752948 -0.61687076 0.0196814
-0.21640676 -0.61683881 0.01965973
-0.13070163 -0.61683947 0.019655542
-0.20821182 -0.61129659 0.019124147
-0.20748909 -0.61127019 0.019090477
-0.20606865 -0.6112349 0.019036502
-0.24911746 -0.61065263 0.019808382
-0.20868292 -0.61068964 0.019862786
-0.20651621 -0.61059695 0.019768497
-0.20289096 -0.61068249 0.019829718
-0.1340178 -0.61066419 0.019846566
-0.24038464 -0.60509038 0.019403497
-0.23673058 -0.60503888 0.01933709
-0.19655983 -0.60502803 0.019322654
-0.13626215 -0.60509574 0.019397957
-0.23288319 -0.59949458 0.019050956
-0.17440626 -0.59955376 0.019112805
-0.23013622 -0.59896207 0.019861531
-0.18277773 -0.59893823 0.019836845
-0.17263505 -0.59896886 0.019869171
-0.16912732 -0.59890062 0.019800613
-0.16479437 -0.59897536 0.01989576
-0.14298126 -0.59892768 0.019838855
-0.14597425 -0.59348869 0.019763611
-0.21218213 -0.5880205 0.019781929
-0.21151321 -0.58801645 0.01976143
-0.14833502 -0.58801675 0.019773137
-0.20791954 -0.58799279 0.019751711
-0.2057568 -0.58799535 0.01978045
-0.16967708 -0.56775934 0.019808201
-0.15787576 -0.56774199 0.019801456
-0.093914293 -0.6921646 0.020207047
-0.09550494 -0.68334115 0.020008786
-0.14577779 -0.68261808 0.020596879
-0.14084527 -0.67458707 0.020060578
-0.14160165 -0.67386198 0.020653859
-0.13900244 -0.67389631 0.02068988
-0.098902293 -0.67385894 0.020662153
-0.2442247 -0.64295989 0.020436997
-0.11968067 -0.64294499 0.020453066
-0.24073757 -0.63584793 0.020452529
-0.24141568 -0.62951881 0.020054171
-0.28839183 -0.62882084 0.020689433
-0.23639704 -0.62885684 0.020720279
-0.27684382 -0.62254041 0.020483075
-0.26421562 -0.61627096 0.020440301
-0.26174632 -0.61623651 0.020415302
-0.21543041 -0.61624032 0.02040391
-0.21467717 -0.61624765 0.020408958
-0.2513907 -0.6100204 0.020543749
-0.13448353 -0.61003834 0.020567764
-0.25071266 -0.60999346 0.020528924
-0.13765733 -0.60999691 0.020509139
-0.23823667 -0.60452026 0.020165959
-0.1970273 -0.60444498 0.020094302
-0.19559075 -0.60442287 0.020082172
-0.19054647 -0.60448724 0.020133529
-0.18946981 -0.60445505 0.020114729
-0.13998672 -0.60448331 0.020131359
-0.23725109 -0.60387719 0.020898115
-0.19389366 -0.60387909 0.020888517
-0.19245596 -0.60386121 0.020882042
-0.19099423 -0.60385686 0.020871393
-0.18811247 -0.60384673 0.020841498
-0.22913232 -0.59836638 0.020630671
-0.22741082 -0.59833485 0.0206089
-0.17643975 -0.5983156 0.020584641
-0.17313224 -0.59833837 0.020602295
-0.17140824 -0.59836185 0.020630909
-0.17031494 -0.59835804 0.020620789
-0.16963148 -0.59831101 0.020564396
-0.16820627 -0.59830129 0.020570828
-0.16746196 -0.59832126 0.020586075
-0.16601108 -0.59835649 0.020633191
-0.14324984 -0.59286433 0.020495143
-0.20981985 -0.58741593 0.020545341
-0.15212259 -0.58740973 0.020534238
-0.18691221 -0.57719845 0.020259084
-0.15833409 -0.57250011 0.020011202
-0.17358731 -0.57195061 0.020810928
-0.14582001 -0.68116844 0.021781392
-0.14432174 -0.68119788 0.021808414
-0.14392889 -0.68191886 0.021207983
-0.13824417 -0.68187034 0.021158937
-0.098436318 -0.68190181 0.021215139
-0.097274721 -0.68190348 0.021208383
-0.09624774 -0.68118095 0.021806626
-0.095479228 -0.68118185 0.021803215
-0.13945888 -0.6731723 0.021297485
-0.13732499 -0.6731658 0.021322599
-0.13513856 -0.67309588 0.021216495
-0.13297731 -0.67311633 0.021235302
-0.10212507 -0.67315274 0.021295417
-0.10065398 -0.67315018 0.021273799
-0.13760084 -0.67244989 0.021897752
-0.10108615 -0.67243576 0.021896679
-0.13609429 -0.66517013 0.021024393
-0.10551202 -0.66517335 0.021028534
-0.13717884 -0.66446823 0.021645196
-0.10700881 -0.66444618 0.021628244
-0.11086825 -0.65725398 0.021021195
-0.10987404 -0.65655577 0.021660101
-0.11254751 -0.64941001 0.021280071
-0.11115153 -0.64870358 0.021911435
-0.29723048 -0.63517243 0.021121023
-0.24540666 -0.63520324 0.021155607
-0.1201337 -0.63519222 0.021124529
-0.24658379 -0.63447678 0.021775743
-0.24400783 -0.63455772 0.021845143
-0.23926374 -0.63454777 0.021818537
-0.23862199 -0.63453186 0.021817587
-0.12229436 -0.63453418 0.021835936
-0.12051655 -0.63453084 0.0218111
-0.28330672 -0.62814474 0.021382697
-0.2314899 -0.62820554 0.021437261
-0.27363804 -0.62121159 0.021862064
-0.27212337 -0.62190861 0.021212438
-0.22368504 -0.62185913 0.021165606
-0.22257629 -0.6219002 0.021190803
-0.22122449 -0.62125659 0.02189431
-0.26070365 -0.61559486 0.021116726
-0.21374008 -0.61564285 0.021156525
-0.21274818 -0.61501998 0.021891102
-0.21117799 -0.61565077 0.021188995
-0.15461847 -0.61560655 0.021134421
-0.25970477 -0.6149587 0.021818155
-0.25827342 -0.61498994 0.021864397
-0.20348853 -0.60940152 0.021280929
-0.19880426 -0.60933489 0.021206031
-0.13487275 -0.60941935 0.021296645
-0.24942555 -0.60875016 0.021989025
-0.15686688 -0.60875863 0.021980567
-0.13789882 -0.60874957 0.0219722
-0.240554 -0.60319859 0.021566169
-0.23881415 -0.60325509 0.021617306
-0.19290254 -0.60325789 0.021623416
-0.18291058 -0.59772593 0.021331046
-0.1431199 -0.59772223 0.021340298
-0.14652064 -0.59229463 0.02129516
-0.15253338 -0.58681381 0.021284029
-0.14602418 -0.58682603 0.021299429
-0.1976171 -0.58142084 0.021518318
-0.15092799 -0.58142197 0.021496922
-0.18549219 -0.57639694 0.021491958
-0.18421079 -0.57615513 0.021916423
-0.1594169 -0.57671416 0.021133171
-0.15862918 -0.57673198 0.021149039
-0.1511047 -0.57673371 0.021159802
-0.17730965 -0.57134336 0.02157009
-0.15856744 -0.5713774 0.021594139
-0.16528988 -0.56667304 0.021432234
-0.15987834 -0.56199831 0.021391781
-0.14252259 -0.6804691 0.022396792
-0.1418211 -0.68046266 0.022408023
-0.13819197 -0.68041903 0.022343006
-0.098451614 -0.68046725 0.022415478
-0.13860644 -0.67968017 0.022926556
-0.10318112 -0.67173427 0.022532322
-0.10737836 -0.66374004 0.022248916
-0.10562206 -0.66303074 0.022883927
-0.13316531 -0.65516686 0.022935411
-0.11308376 -0.6551469 0.022923935
-0.11228944 -0.65515751 0.022936305
-0.10876273 -0.65586287 0.022296293
-0.11770433 -0.6480158 0.022581037
-0.24054816 -0.64090806 0.022420229
-0.29477832 -0.63386905 0.022512453
-0.24265869 -0.63388348 0.022524102
-0.24159162 -0.63385308 0.022497673
-0.23764217 -0.63388097 0.022490341
-0.28724042 -0.62752658 0.022086112
-0.28543884 -0.62754452 0.022121917
-0.23512326 -0.62753528 0.022087147
-0.23305646 -0.62752324 0.022087827
-0.28447959 -0.6268512 0.022777477
-0.23630567 -0.62683558 0.022767788
-0.23412475 -0.62687528 0.022784738
-0.23021249 -0.62686825 0.022783935
-0.27259555 -0.6206044 0.022610134
-0.27077818 -0.62059617 0.022604009
-0.22633789 -0.62056237 0.022551017
-0.22057179 -0.62061095 0.022590932
-0.13375887 -0.62055129 0.022556208
-0.26265413 -0.61437231 0.022594251
-0.25868356 -0.61433846 0.022550873
-0.20915259 -0.61429393 0.022530168
-0.20743832 -0.61430538 0.022525882
-0.20669793 -0.61433953 0.022562696
-0.20599602 -0.61435759 0.022576073
-0.13492408 -0.61434537 0.022570848
-0.13283598 -0.6143626 0.022584522
-0.24769634 -0.60877711 0.022013003
-0.24666239 -0.60819662 0.022771105
-0.20068891 -0.60816371 0.022745496
-0.19710417 -0.60878795 0.022018852
-0.19633153 -0.60879576 0.02202386
-0.19464481 -0.60816395 0.022748295
-0.16081648 -0.6087814 0.022009198
-0.1357531 -0.60814232 0.022723794
-0.23599894 -0.60261309 0.022337204
-0.18539932 -0.60261655 0.022333715
-0.1836746 -0.60261953 0.022338608
-0.18297616 -0.6026234 0.022355193
-0.16497092 -0.60265446 0.02238616
-0.18417314 -0.59710908 0.022085996
-0.18342057 -0.59711677 0.022091968
-0.17516269 -0.59711295 0.022105373
-0.14361013 -0.59713262 0.022111518
-0.22764196 -0.59655964 0.02289148
-0.18459219 -0.59651017 0.022844264
-0.1444732 -0.59652752 0.02285976
-0.21662515 -0.59164733 0.022013327
-0.21489298 -0.59109372 0.022786925
-0.14709125 -0.59106731 0.022767885
-0.14899027 -0.58626801 0.02212307
-0.20435858 -0.58565533 0.022856299
-0.15271074 -0.58564043 0.022819923
-0.19554406 -0.58088577 0.022316588
-0.18328294 -0.57559001 0.022704015
-0.17637028 -0.5708279 0.022409758
-0.15900339 -0.57084626 0.022414904
-0.17085755 -0.56615543 0.022258626
-0.1676048 -0.56612986 0.022241574
-0.1600378 -0.56614816 0.022253884
-0.15866236 -0.5661211 0.022236167
-0.095794655 -0.68776327 0.02369993
-0.094363406 -0.68775541 0.023691373
-0.13394681 -0.67975777 0.02302246
-0.099135242 -0.67902648 0.023607766
-0.098854572 -0.67974621 0.023022473
-0.10441861 -0.67030984 0.023772087
-0.11656231 -0.64735687 0.023249501
-0.11591616 -0.64735305 0.02325293
-0.11846166 -0.64660567 0.023833511
-0.1147801 -0.64667279 0.023906872
-0.24481983 -0.64021921 0.023083892
-0.23949091 -0.64021707 0.023083504
-0.11916383 -0.64025038 0.023129255
-0.29553223 -0.6331979 0.023178672
-0.23595075 -0.63320589 0.023186091
-0.12246322 -0.63318282 0.02317626
-0.29341525 -0.63255072 0.023882637
-0.29157457 -0.63248426 0.023825765
-0.12276871 -0.63251472 0.023849841
-0.28170899 -0.62620187 0.023475613
-0.23171471 -0.626194 0.023468105
-0.22916305 -0.62616849 0.023424923
-0.14915118 -0.62623084 0.023495011
-0.12495136 -0.62619495 0.023461228
-0.27157292 -0.61996812 0.023327077
-0.2697885 -0.61993617 0.023294
-0.21846509 -0.61990345 0.023259379
-0.21708034 -0.61928946 0.023996554
-0.13119599 -0.61991858 0.023251362
-0.13052265 -0.61992466 0.023265477
-0.12921935 -0.6195972 0.023611546
-0.12764898 -0.61992562 0.023289492
-0.25699446 -0.61370569 0.023305794
-0.2114327 -0.61374503 0.023334056
-0.20823668 -0.61364239 0.023224816
-0.20256594 -0.61305028 0.023990717
-0.13528275 -0.61370456 0.023294317
-0.13359144 -0.61372435 0.023294352
-0.24388666 -0.60746318 0.023400692
-0.19973139 -0.60754704 0.023462156
-0.19690754 -0.6075049 0.023456747
-0.19366995 -0.60753298 0.023467893
-0.16096677 -0.6075241 0.023481553
-0.13949798 -0.60752839 0.023463942
-0.13873819 -0.60754251 0.023479225
-0.18423873 -0.60200495 0.023075214
-0.18191433 -0.6020025 0.023079922
-0.16609618 -0.60204536 0.023129428
-0.16540568 -0.60204929 0.023133695
-0.14103295 -0.60203272 0.023120988
-0.14029557 -0.60202628 0.023103952
-0.23393527 -0.60195273 0.02303913
-0.18096086 -0.60138941 0.023815209
-0.1672 -0.60142684 0.023858784
-0.16400273 -0.60199672 0.023075998
-0.16296382 -0.60135388 0.023787875
-0.21256374 -0.59049088 0.023548381
-0.2111084 -0.59049845 0.023569075
-0.21036838 -0.59049946 0.023570716
-0.1475303 -0.59046227 0.023520162
-0.19427219 -0.58035219 0.023133446
-0.19281682 -0.58036649 0.023161361
-0.15192693 -0.58031315 0.023106504
-0.1914946 -0.57977736 0.023932524
-0.18230501 -0.57502586 0.023509258
-0.18162076 -0.57503891 0.023498842
-0.17077805 -0.57027453 0.02322131
-0.16343084 -0.56561023 0.02305611
-0.16049854 -0.56562936 0.023081094
-0.15913029 -0.56556886 0.023044007
-0.096992575 -0.68703198 0.024323065
-0.094721265 -0.68703562 0.024282577
-0.093330055 -0.68703347 0.024291171
-0.13863735 -0.67823255 0.024133282
-0.097016647 -0.67829919 0.024210656
-0.13909352 -0.67753804 0.024793087
-0.13439058 -0.6775611 0.024799047
-0.099870645 -0.67755222 0.024782361
-0.10577397 -0.66959995 0.024358954
-0.1392699 -0.6688565 0.024945356
-0.10293995 -0.66888505 0.024990235
-0.10860059 -0.66162586 0.024140229
-0.10745098 -0.66163671 0.024138719
-0.11062807 -0.65377116 0.024235811
-0.1191567 -0.63889188 0.024426354
-0.29420412 -0.6318385 0.024527965
-0.14770514 -0.63187551 0.024554834
-0.12357949 -0.63183689 0.024499942
-0.28065011 -0.62558186 0.024194697
-0.27812421 -0.62551159 0.024123441
-0.23070037 -0.62556022 0.024184914
-0.2274366 -0.62552619 0.024159871
-0.14961301 -0.62555873 0.024171147
-0.12755275 -0.62556702 0.024172226
-0.12695298 -0.62556124 0.024186267
-0.12389384 -0.62554342 0.02415897
-0.22966452 -0.62490231 0.024877051
-0.22640163 -0.62486631 0.024837684
-0.26841527 -0.61861235 0.024653744
-0.2147364 -0.61867821 0.02474425
-0.21398561 -0.61867809 0.024750359
-0.25593495 -0.61308402 0.024014296
-0.20357674 -0.61308706 0.024016324
-0.25497466 -0.61244309 0.02472814
-0.20158486 -0.61237794 0.024657758
-0.16060631 -0.61240894 0.024684383
-0.15986425 -0.61240208 0.024678919
-0.24516526 -0.60630298 0.024945114
-0.24443549 -0.6062777 0.02493507
-0.1926429 -0.60690129 0.024195822
-0.18913652 -0.60625464 0.024910508
-0.18843324 -0.60626203 0.024909025
-0.16338681 -0.60624045 0.024881557
-0.16287607 -0.60688436 0.024167294
-0.13960145 -0.60627466 0.024916483
-0.23440437 -0.60073221 0.024517948
-0.18316957 -0.60077542 0.02454585
-0.16851635 -0.60076511 0.024559835
-0.22313561 -0.59533018 0.024383556
-0.15052696 -0.58990347 0.024322545
-0.20242125 -0.5845353 0.024443217
-0.20031618 -0.58452678 0.024414824
-0.19883759 -0.58446556 0.024384625
-0.15362336 -0.58447909 0.024391184
-0.14973517 -0.58451653 0.024416506
-0.19015917 -0.57916945 0.024681093
-0.18070954 -0.57442868 0.024265284
-0.15306461 -0.57446599 0.024318257
-0.1737607 -0.56975842 0.024046117
-0.1655179 -0.56452316 0.024688698
-0.16233955 -0.56453848 0.024712864
-0.10207481 -0.67611927 0.025983023
-0.10131793 -0.67611754 0.02598008
-0.10023142 -0.67683637 0.025385199
-0.24066615 -0.63820875 0.025089627
-0.14310829 -0.6381492 0.02504435
-0.1435104 -0.63749254 0.025730068
-0.11925926 -0.63755471 0.025775896
-0.29212099 -0.63117319 0.025197648
-0.14812401 -0.63120395 0.025226803
-0.12433889 -0.63115495 0.025162309
-0.23540425 -0.63052857 0.025890637
-0.1247786 -0.63049734 0.025861697
-0.27934706 -0.62426364 0.0256078
-0.15292323 -0.62425536 0.025573047
-0.26671255 -0.61800456 0.025407426
-0.21543932 -0.61802256 0.025427723
-0.21221276 -0.61799502 0.025424117
-0.15700448 -0.61799788 0.025398057
-0.15555412 -0.61799198 0.025401756
-0.19981103 -0.61175114 0.025395861
-0.13734108 -0.61180454 0.025443267
-0.24163565 -0.60563123 0.025651349
-0.19135919 -0.60564816 0.025646288
-0.14008826 -0.60565722 0.025662873
-0.22812125 -0.60010612 0.02525527
-0.17646921 -0.60014886 0.025295386
-0.14163251 -0.60016936 0.0253167
-0.22143312 -0.59474099 0.025144277
-0.22077547 -0.59473008 0.025135858
-0.21977201 -0.59410167 0.025867529
-0.21899797 -0.59409839 0.025861507
-0.21755785 -0.59412187 0.025876332
-0.14993374 -0.58334273 0.025950929
-0.1892191 -0.57855308 0.025417043
-0.17974217 -0.57383436 0.025028838
-0.17761871 -0.57391602 0.0251105
-0.17665958 -0.57335347 0.025902197
-0.15404445 -0.57331425 0.025863297
-0.17185332 -0.56865543 0.025646823
-0.16325398 -0.56865162 0.025636904
-0.10663154 -0.66744441 0.026197473
-0.10553489 -0.66673726 0.026800452
-0.10371 -0.66674322 0.026823638
-0.11009424 -0.65882635 0.026655165
-0.10935483 -0.65882903 0.026652467
-0.10833352 -0.65882522 0.026666231
-0.11253562 -0.65167093 0.026119443
-0.13947934 -0.64390218 0.026492925
-0.29071388 -0.62980694 0.026530586
-0.12519641 -0.62982816 0.02655229
-0.27837285 -0.6236009 0.026276072
-0.27647275 -0.6235258 0.026196592
-0.27576351 -0.62353659 0.02620494
-0.22761831 -0.6235407 0.026189171
-0.22620696 -0.62356061 0.02624137
-0.22547597 -0.62355864 0.026238296
-0.2247894 -0.62357074 0.026251452
-0.15335992 -0.62360471 0.026282467
-0.15158361 -0.6235882 0.026252037
-0.22335953 -0.62294918 0.026954705
-0.22156094 -0.62289423 0.026897207
-0.15374866 -0.62295032 0.026991986
-0.12857333 -0.62293303 0.026946098
-0.2656883 -0.61737388 0.026134877
-0.26395297 -0.61736846 0.02613016
-0.15743691 -0.61734211 0.026095217
-0.13406478 -0.6173799 0.026137436
-0.26292267 -0.61671221 0.026822127
-0.15857527 -0.61669832 0.026794408
-0.15782714 -0.61668181 0.026779352
-0.15421756 -0.61668211 0.026789512
-0.13304882 -0.61672688 0.026846513
-0.21785913 -0.61114639 0.026154606
-0.1607327 -0.61115491 0.026131533
-0.1577256 -0.61116838 0.026172027
-0.21644171 -0.61054599 0.026882913
-0.16445839 -0.61051762 0.026855061
-0.16124539 -0.61050844 0.026847733
-0.23951927 -0.60504365 0.026407605
-0.24311629 -0.60495859 0.026317403
-0.19043154 -0.60499096 0.026373846
-0.22715832 -0.59949791 0.026009338
-0.17936513 -0.5995481 0.026037846
-0.17534912 -0.59954637 0.026041662
-0.17468604 -0.5995301 0.026025033
-0.22865023 -0.5989399 0.026799351
-0.18098365 -0.59892148 0.026780719
-0.17292902 -0.59894812 0.026790896
-0.1425947 -0.5989145 0.02676373
-0.14563496 -0.59350413 0.02660506
-0.20862339 -0.58809531 0.026581235
-0.20758788 -0.58806694 0.026565248
-0.1511735 -0.58812779 0.026618723
-0.19527896 -0.58281487 0.026785765
-0.15434228 -0.58280128 0.026788738
-0.15443181 -0.57807302 0.02628592
-0.15377522 -0.57806706 0.026291436
-0.18733147 -0.57743526 0.026998697
-0.16842695 -0.56808448 0.026424022
-0.16431068 -0.56345499 0.026310934
-0.094432697 -0.68265331 0.027826067
-0.1359746 -0.65812159 0.027308183
-0.14134443 -0.642501 0.027766068
-0.13951159 -0.64252162 0.027791645
-0.11759166 -0.64248073 0.027749773
-0.14544559 -0.63618779 0.027109014
-0.12265561 -0.63615876 0.027066341
-0.12013274 -0.63618076 0.02709309
-0.14584838 -0.6355176 0.027775876
-0.289675 -0.62916845 0.027221609
-0.2879332 -0.62919867 0.02726862
-0.15046948 -0.62919259 0.027264768
-0.12841503 -0.62920493 0.027265575
-0.1277298 -0.62919849 0.027261388
-0.12556885 -0.62916607 0.027229549
-0.2869091 -0.62855804 0.027963078
-0.28511399 -0.6284585 0.027853837
-0.28446746 -0.6284706 0.02788024
-0.27439561 -0.62226468 0.027646381
-0.27263466 -0.62227911 0.027661353
-0.2700991 -0.6222204 0.027610406
-0.15456101 -0.62225693 0.027628344
-0.13004397 -0.62224841 0.027596625
-0.12715872 -0.62227678 0.027636494
-0.26199806 -0.61603492 0.027509231
-0.13134381 -0.61602098 0.027473558
-0.24989226 -0.60988349 0.02759501
-0.16339304 -0.60989404 0.027592432
-0.16167158 -0.60988778 0.027579453
-0.13796614 -0.60984904 0.027542509
-0.23853949 -0.60442764 0.027139712
-0.18938985 -0.60437065 0.027086256
-0.1887079 -0.60436445 0.027079374
-0.16392455 -0.60434538 0.027059183
-0.24189557 -0.60370123 0.027793227
-0.24004546 -0.60378915 0.027844876
-0.23755737 -0.60376394 0.027849391
-0.14316382 -0.60378999 0.02788613
-0.13998041 -0.60376275 0.027838524
-0.23020345 -0.5983246 0.02753577
-0.22585692 -0.59831148 0.027534029
-0.17345878 -0.59832579 0.027534153
-0.17209624 -0.59833419 0.027545016
-0.17130475 -0.59835374 0.027562285
-0.17060521 -0.59829611 0.027501836
-0.16996536 -0.5982703 0.027488092
-0.14608333 -0.59291166 0.027374705
-0.2065604 -0.58749729 0.027361484
-0.2051551 -0.58750296 0.027360713
-0.20298365 -0.58754957 0.027386183
-0.1681186 -0.58216119 0.027499631
-0.15548992 -0.58222502 0.027564896
-0.15643615 -0.57222933 0.027487371
-0.15663737 -0.56755346 0.027247583
-0.095533162 -0.68191928 0.028422365
-0.094850749 -0.68192178 0.028421521
-0.10356937 -0.67323244 0.028407404
-0.10662784 -0.66527706 0.028017264
-0.13609479 -0.65669292 0.028542351
-0.13737899 -0.64957011 0.028051242
-0.11616395 -0.64960903 0.028080832
-0.13639714 -0.64886397 0.028676437
-0.11509752 -0.64891678 0.028727047
-0.11443462 -0.64890915 0.028719556
-0.14475712 -0.64178193 0.028397862
-0.14242426 -0.64182168 0.028424207
-0.11838661 -0.64177984 0.028392337
-0.29806492 -0.63479555 0.02840277
-0.14754859 -0.63481534 0.028433651
-0.14654431 -0.63482249 0.028427031
-0.23168108 -0.62785977 0.028625611
-0.23098052 -0.62783259 0.02857686
-0.15198873 -0.62785906 0.028607255
-0.14917821 -0.62782615 0.028574329
-0.27155754 -0.6216231 0.028338429
-0.15538298 -0.62159097 0.028299481
-0.22106542 -0.62095517 0.028997131
-0.26089233 -0.61540407 0.028199242
-0.20859607 -0.61535984 0.028165247
-0.15870282 -0.61541569 0.028220914
-0.15551561 -0.61539656 0.028208207
-0.20722319 -0.6147536 0.028922783
-0.1590977 -0.61478174 0.028942307
-0.25138164 -0.60922372 0.028287167
-0.19975211 -0.60918492 0.028235219
-0.19834226 -0.60922664 0.028291065
-0.2343809 -0.60312903 0.028551612
-0.18739995 -0.60311937 0.028541913
-0.16407371 -0.60309643 0.028521361
-0.22918463 -0.59773093 0.028303061
-0.22742134 -0.59767801 0.028230945
-0.22412398 -0.59772295 0.028288305
-0.14738338 -0.5976817 0.028235162
-0.1426751 -0.59768194 0.02823914
-0.14650398 -0.59232116 0.028144088
-0.21762533 -0.59165508 0.028869582
-0.2154496 -0.59168959 0.028872306
-0.21477154 -0.59170854 0.028866587
-0.15015495 -0.59168774 0.028857065
-0.20345215 -0.58695525 0.028145857
-0.18931828 -0.57632816 0.02863008
-0.18611199 -0.57632536 0.028602652
-0.15672813 -0.57628471 0.028570406
-0.1695396 -0.5664506 0.028855097
-0.16876565 -0.5664463 0.028852377
-0.15841432 -0.56645584 0.028863611
-0.094340883 -0.68920135 0.029852176
-0.093894549 -0.68994224 0.029285101
-0.099853352 -0.68121195 0.029021256
-0.098447442 -0.68119836 0.02901648
-0.10182274 -0.67177755 0.029587889
-0.10852059 -0.66384882 0.02922957
-0.10489105 -0.66315395 0.029870098
-0.111316 -0.65600765 0.02918213
-0.13604011 -0.65528411 0.029788863
-0.14138895 -0.64822268 0.029349379
-0.13921194 -0.6482138 0.029354509
-0.13852642 -0.64820731 0.029350117
-0.1134271 -0.64821994 0.029367439
-0.14035335 -0.64751512 0.029982649
-0.13975893 -0.64750552 0.029996986
-0.13352421 -0.64746529 0.029917289
-0.14358343 -0.64112675 0.029069033
-0.14290932 -0.64113259 0.029083373
-0.11921965 -0.64112431 0.029106935
-0.11957692 -0.64046335 0.029781358
-0.14838465 -0.63414484 0.029110327
-0.12233964 -0.63415408 0.029099319
-0.29669729 -0.63345087 0.029749945
-0.15054329 -0.63345444 0.029744597
-0.12030301 -0.63346219 0.02973469
-0.28562289 -0.62720668 0.02932092
-0.152448 -0.62720013 0.029304909
-0.28456104 -0.62646931 0.029922552
-0.28385764 -0.62646216 0.029897826
-0.28285518 -0.62650454 0.029955583
-0.22891353 -0.62648284 0.029950239
-0.15287116 -0.62651598 0.029974485
-0.2730855 -0.62097096 0.029036982
-0.15540506 -0.62027615 0.029677846
-0.25964615 -0.61410499 0.029611778
-0.25892884 -0.61410296 0.029626058
-0.25570568 -0.61411506 0.02964993
-0.20612565 -0.61413181 0.029632879
-0.24859618 -0.60859579 0.029009391
-0.19734138 -0.60862964 0.029038049
-0.19662234 -0.60862398 0.029032696
-0.25014472 -0.60792708 0.029705459
-0.24763237 -0.60798615 0.029758332
-0.19562115 -0.60797393 0.029747443
-0.16544783 -0.60791767 0.029667091
-0.16220871 -0.6079793 0.02974781
-0.13782792 -0.60793787 0.029677223
-0.13519049 -0.60798311 0.029745456
-0.23522174 -0.60244453 0.029246388
-0.2333778 -0.60253149 0.029310513
-0.18395527 -0.60250121 0.029296767
-0.14410293 -0.60248631 0.029275376
-0.1854123 -0.60187274 0.029998096
-0.18040216 -0.60185325 0.029987715
-0.17143206 -0.60183424 0.029973682
-0.22616364 -0.59641355 0.029706515
-0.17521524 -0.59645629 0.029745067
-0.21238567 -0.59108055 0.029632615
-0.21162944 -0.59110451 0.029656356
-0.16886482 -0.585729 0.029650163
-0.19626273 -0.58102411 0.029073147
-0.19458131 -0.58048606 0.029884608
-0.19018874 -0.58097792 0.029015116
-0.187695 -0.57569486 0.029336015
-0.18517193 -0.57577157 0.029400261
-0.1571441 -0.57570899 0.029337429
-0.15779434 -0.57055622 0.029874636
-0.16784096 -0.56590837 0.02964857
-0.096889667 -0.68772346 0.030994309
-0.099881589 -0.67975169 0.030191289
-0.095186733 -0.6797359 0.030180003
-0.10394341 -0.6710726 0.030217823
-0.10069932 -0.67105907 0.030174021
-0.13762176 -0.66242361 0.030452877
-0.10709299 -0.66241717 0.030454006
-0.1217594 -0.63979101 0.030424701
-0.29461721 -0.6327976 0.030450923
-0.14201474 -0.63279098 0.030452251
-0.12251598 -0.63277858 0.030425219
-0.28180134 -0.62586784 0.030664343
-0.27925035 -0.62583619 0.030606942
-0.27892697 -0.62580872 0.030600538
-0.26995584 -0.61963022 0.030390348
-0.26637229 -0.61966348 0.030421872
-0.15586033 -0.61961496 0.030374698
-0.25467542 -0.6134761 0.030348718
-0.22836435 -0.61347657 0.030327447
-0.20838816 -0.61341268 0.030270867
-0.20513962 -0.61347842 0.030328764
-0.20439525 -0.61347437 0.030338932
-0.20371604 -0.61348379 0.030327121
-0.15992132 -0.61345905 0.030338023
-0.15209632 -0.61343867 0.030311164
-0.16036081 -0.61277688 0.030985558
-0.16263115 -0.60733986 0.030456541
-0.15545566 -0.60736036 0.030476227
-0.1357156 -0.60733384 0.030449381
-0.23853496 -0.60191488 0.03004582
-0.23419638 -0.6018554 0.030006798
-0.23033671 -0.60126674 0.030760475
-0.21531799 -0.60120499 0.030701693
-0.18191922 -0.60125244 0.030741738
-0.17050004 -0.60122114 0.030728962
-0.16975784 -0.60122716 0.030724537
-0.16825274 -0.60127872 0.030772252
-0.16730186 -0.60159922 0.030413553
-0.16634446 -0.60192573 0.030065665
-0.16563983 -0.601924 0.0300598
-0.16496882 -0.60190004 0.030044623
-0.14055887 -0.60190088 0.030030936
-0.22507811 -0.59583759 0.030479847
-0.14405645 -0.59584332 0.030476859
-0.14331396 -0.59584546 0.030467151
-0.21352898 -0.59048647 0.030372825
-0.15042289 -0.59047014 0.030360725
-0.14646269 -0.59049273 0.030399034
-0.14395091 -0.59048069 0.030364828
-0.20520657 -0.58512843 0.030419353
-0.20447464 -0.5851261 0.030415986
-0.16775914 -0.58514816 0.030419083
-0.1521554 -0.58512145 0.030385455
-0.14884867 -0.58514649 0.030441489
-0.19507347 -0.57987422 0.030627033
-0.1937069 -0.57989883 0.030662311
-0.19257525 -0.57989359 0.030668514
-0.1576701 -0.57515323 0.030134087
-0.18249202 -0.57463616 0.030974826
-0.17634079 -0.56998855 0.030665467
-0.17236869 -0.56999099 0.030664098
-0.15906857 -0.56997669 0.030664042
-0.16654685 -0.5653581 0.030467127
-0.15937302 -0.56532454 0.030435706
-0.16045627 -0.56079388 0.030425955
-0.10902441 -0.66098315 0.031684943
-0.10751877 -0.66099209 0.031678226
-0.11354336 -0.65386707 0.031033522
-0.11279422 -0.65387535 0.03104067
-0.11174884 -0.653175 0.031680662
-0.13436574 -0.64607251 0.031221345
-0.11713424 -0.64612293 0.031276505
-0.14269783 -0.64539874 0.031900406
-0.11860187 -0.64538205 0.031865276
-0.11751778 -0.64539587 0.031887531
-0.11604158 -0.64543569 0.031926468
-0.11456382 -0.64543533 0.031918295
-0.14666167 -0.63911653 0.031100448
-0.13323937 -0.63908124 0.031076357
-0.14561799 -0.63842487 0.031758737
-0.1445628 -0.63837528 0.031700868
-0.13363229 -0.63841754 0.031735305
-0.11930691 -0.63840294 0.031728074
-0.29533201 -0.63211507 0.031082449
-0.29464507 -0.63211179 0.031101128
-0.12293099 -0.63209426 0.031081092
-0.29324007 -0.63142908 0.03175436
-0.29048094 -0.63142729 0.031751078
-0.27848455 -0.63145727 0.031791195
-0.15038054 -0.63139558 0.031714857
-0.12332956 -0.63141602 0.031733491
-0.1530063 -0.62519407 0.031343203
-0.27798003 -0.62445223 0.031946022
-0.26058879 -0.62450552 0.0319985
-0.25991076 -0.62447894 0.031983379
-0.22762924 -0.62448776 0.031995088
-0.14685561 -0.62448257 0.031963583
-0.13172866 -0.62449867 0.031973474
-0.21659113 -0.61900139 0.031108396
-0.21551153 -0.61901486 0.031132055
-0.21442679 -0.61900848 0.031127887
-0.26790619 -0.61828667 0.031770386
-0.26645294 -0.61899459 0.031115716
-0.25565398 -0.6189636 0.031077618
-0.23207583 -0.61830068 0.031768963
-0.21337987 -0.61833155 0.031808618
-0.15700048 -0.6189698 0.031079773
-0.1562552 -0.6189732 0.031069275
-0.13403746 -0.61896563 0.03109079
-0.13265157 -0.61892444 0.031038022
-0.13148279 -0.61830074 0.031738415
-0.13043001 -0.61831057 0.031762823
-0.12892184 -0.61894882 0.031047132
-0.25757718 -0.61282182 0.031058319
-0.25691727 -0.61281896 0.031057293
-0.25585335 -0.6121763 0.031744208
-0.25157306 -0.61216652 0.031750396
-0.24366488 -0.6122123 0.031778447
-0.23722649 -0.61219525 0.031766884
-0.20274891 -0.61278445 0.031001683
-0.20101801 -0.61211592 0.031694371
-0.16074494 -0.61214679 0.031708494
-0.1432319 -0.61217034 0.031741541
-0.13713121 -0.61216033 0.031742033
-0.13634184 -0.61217022 0.031750549
-0.13563488 -0.61217016 0.031752009
-0.13458732 -0.61217189 0.031742625
-0.13384128 -0.612836 0.031046843
-0.13241421 -0.6128425 0.031060498
-0.24634714 -0.6067338 0.031190272
-0.24536768 -0.60608119 0.03190925
-0.24064153 -0.60608578 0.03191017
-0.22730689 -0.60668766 0.031161547
-0.19358951 -0.60669577 0.031169273
-0.19287091 -0.60671031 0.031171395
-0.16282539 -0.60605323 0.031864986
-0.13911806 -0.60607362 0.03189835
-0.13839822 -0.60607129 0.031892654
-0.18346165 -0.60062432 0.03146781
-0.17911832 -0.60058379 0.03143293
-0.16871908 -0.60062325 0.031475805
-0.14140198 -0.60065901 0.031516042
-0.17389019 -0.59522682 0.031218199
-0.14562178 -0.59523004 0.031214075
-0.14457171 -0.59522879 0.03121537
-0.2224555 -0.59464449 0.03199834
-0.22027755 -0.59460318 0.031955693
-0.21845371 -0.59462118 0.031963799
-0.21382812 -0.59463823 0.031995278
-0.14496925 -0.59461582 0.031961817
-0.21050544 -0.58927596 0.031893954
-0.20329756 -0.58924139 0.031843115
-0.19506024 -0.58922321 0.031824697
-0.20204796 -0.58457786 0.031199232
-0.19277252 -0.58449203 0.031128349
-0.15254277 -0.5845021 0.031124325
-0.20108661 -0.58398926 0.03195655
-0.19890849 -0.58393568 0.031926688
-0.1609814 -0.58392513 0.031930897
-0.15334076 -0.58391494 0.03189965
-0.15264276 -0.58391678 0.0318891
-0.14905249 -0.58396769 0.031965114
-0.18446034 -0.57926196 0.031383328
-0.17295399 -0.57926476 0.031372815
-0.15720819 -0.57926452 0.031386565
-0.15250945 -0.57929277 0.031418484
-0.15172027 -0.579252 0.031371824
-0.18157914 -0.57403004 0.031738184
-0.17906897 -0.57402515 0.031737842
-0.17185397 -0.57402867 0.03173846
-0.15932024 -0.57405835 0.031762723
-0.1586069 -0.5740661 0.031775571
-0.15749981 -0.57402557 0.03172351
-0.18088871 -0.57399225 0.03169015
-0.16433108 -0.57399809 0.031706501
-0.17468074 -0.56943643 0.031459231
-0.17392266 -0.56943387 0.031463947
-0.16606607 -0.56941611 0.031445842
-0.16063794 -0.56939888 0.031445816
-0.16132334 -0.56481719 0.031270906
-0.18954676 -0.68628651 0.032223504
-0.099124774 -0.67682117 0.03252336
-0.10617353 -0.66817904 0.032588948
-0.1047987 -0.66889763 0.032011554
-0.10364648 -0.66818053 0.03261172
-0.10223708 -0.66889554 0.032007296
-0.10790312 -0.66026807 0.032289993
-0.13190195 -0.6524657 0.032275505
-0.11434004 -0.65177929 0.032927278
-0.11289559 -0.65175271 0.032908112
-0.14372654 -0.64469737 0.032509528
-0.14166336 -0.64472193 0.032553222
-0.14086972 -0.64473122 0.032546028
-0.29103222 -0.63765985 0.032324277
-0.13811271 -0.63770181 0.032372843
-0.12228455 -0.63770324 0.032356538
-0.14814597 -0.63076431 0.032436855
-0.28051126 -0.6245448 0.032044955
-0.15336363 -0.62453252 0.032019183
-0.15013866 -0.62452036 0.032010447
-0.12922831 -0.62452477 0.032005351
-0.12815352 -0.62452799 0.032013699
-0.12744997 -0.62452388 0.032009944
-0.27690792 -0.62380975 0.032646067
-0.27540797 -0.62386769 0.032710563
-0.25572219 -0.62388003 0.032710925
-0.25171509 -0.62387186 0.032696582
-0.22658753 -0.62381816 0.032660313
-0.15371054 -0.62387544 0.032709703
-0.26511919 -0.61766899 0.032497164
-0.25932738 -0.61767644 0.032484215
-0.21235842 -0.61764795 0.032465924
-0.15785958 -0.6176573 0.032468658
-0.14243086 -0.61763382 0.0324458
-0.1402663 -0.6176554 0.032475155
-0.25491527 -0.61152291 0.032451849
-0.25271255 -0.61148137 0.032419138
-0.24414109 -0.61154908 0.032469582
-0.23763609 -0.61153984 0.032464575
-0.16373934 -0.611516 0.032459792
-0.13787675 -0.61152822 0.032451555
-0.24149066 -0.60542917 0.032610714
-0.2385658 -0.60540968 0.032587286
-0.23466213 -0.60543275 0.032606423
-0.22923979 -0.60543925 0.032627843
-0.2245211 -0.60543472 0.032603115
-0.21922812 -0.60542101 0.032591876
-0.191614 -0.60540509 0.032586914
-0.18829674 -0.60540926 0.032566532
-0.16640244 -0.60539919 0.032573756
-0.16333263 -0.60539734 0.032571126
-0.14211729 -0.60543537 0.032611642
-0.13955942 -0.60542655 0.032599639
-0.23258205 -0.60002398 0.032225017
-0.23193917 -0.600016 0.032207448
-0.22651686 -0.60001409 0.032220542
-0.2257961 -0.60002846 0.03222594
-0.21725638 -0.60000914 0.032214984
-0.22774191 -0.59932935 0.032895137
-0.2247998 -0.59940302 0.032958176
-0.22077495 -0.59939194 0.032929357
-0.21398999 -0.59997684 0.032192238
-0.21230558 -0.59935665 0.032920003
-0.20686691 -0.59937698 0.032934003
-0.17783089 -0.59935296 0.032908812
