# .PCD v0.7 - Point Cloud Data file format
VERSION 0.7
FIELDS x y z
SIZE 4 4 4
TYPE F F F
COUNT 1 1 1
WIDTH 1340
HEIGHT 1
VIEWPOINT 0 0 0 1 0 0 0
POINTS 1340
DATA ascii
-0.14528401 -0.68262118 0.02058647
-0.096811175 -0.68262327 0.020608073
-0.10193314 -0.67458296 0.020056624
-0.13651004 -0.67385179 0.020673558
-0.13537426 -0.67382497 0.020620121
-0.13429479 -0.67382246 0.020619838
-0.1001501 -0.67387068 0.020667339
-0.10503773 -0.66588271 0.02040207
-0.11379334 -0.6500991 0.02064722
-0.24100021 -0.64293003 0.020419341
-0.24135682 -0.63582683 0.020437796
-0.23881492 -0.63586044 0.020437179
-0.28853628 -0.62948614 0.020005679
-0.28782782 -0.62950367 0.020030431
-0.23526025 -0.62883049 0.020681122
-0.23336431 -0.62883317 0.020705277
-0.12760864 -0.62885416 0.020722471
-0.27721113 -0.62255216 0.020511718
-0.27280563 -0.62257046 0.020510048
-0.24963461 -0.61001748 0.020538557
-0.20426838 -0.61000961 0.020540515
-0.20392038 -0.61002868 0.02055517
-0.2013251 -0.61005729 0.020557249
-0.13610992 -0.6100381 0.020564813
-0.13361579 -0.61003488 0.020563431
-0.25006154 -0.60999453 0.020531889
-0.19682592 -0.60443681 0.020077309
-0.19433638 -0.60447854 0.020132734
-0.19392976 -0.60448867 0.020144165
-0.1910416 -0.60447961 0.020122744
-0.19069271 -0.60448933 0.020128688
-0.188895 -0.60444373 0.020094093
-0.13910098 -0.60448933 0.020145055
-0.13659172 -0.6044932 0.020144155
-0.23865978 -0.60388905 0.020894181
-0.19113582 -0.60386419 0.020874711
-0.18939872 -0.60383266 0.020856531
-0.18863449 -0.60382652 0.020839565
-0.22798714 -0.59835553 0.020623986
-0.1809226 -0.59833544 0.020611409
-0.17059295 -0.59837675 0.02063537
-0.16685757 -0.59833086 0.020594196
-0.21918453 -0.59288138 0.020527024
-0.21884161 -0.59288204 0.020528398
-0.20864873 -0.58743 0.020571664
-0.15051329 -0.58744693 0.020580595
-0.19636208 -0.58203381 0.020748885
-0.18415581 -0.57726473 0.020322515
-0.17841268 -0.57185745 0.020738414
-0.16960844 -0.56722212 0.020617245
-0.093441233 -0.69068015 0.021357844
-0.144238 -0.68118256 0.021793075
-0.14276211 -0.68118864 0.021789636
-0.14071277 -0.68186867 0.021177372
-0.097921595 -0.68189663 0.021206807
-0.096440613 -0.68118149 0.021807669
-0.14053662 -0.67312157 0.021250555
-0.13253443 -0.67312044 0.021251647
-0.10338814 -0.67316264 0.021308705
-0.13863289 -0.67244869 0.021898497
-0.10134436 -0.6724394 0.021903936
-0.1090598 -0.66444588 0.021622581
-0.10620616 -0.66444677 0.021637339
-0.11111953 -0.65725309 0.021032546
-0.10968609 -0.65656334 0.021663174
-0.1160557 -0.64872259 0.021941554
-0.11460005 -0.64872098 0.021942001
-0.12000608 -0.64227223 0.02110563
-0.1189407 -0.64225769 0.021098182
-0.11781032 -0.64222801 0.021047287
-0.11673366 -0.64222407 0.021046745
-0.24572325 -0.64160514 0.02177541
-0.24384086 -0.63524091 0.021183185
-0.24066825 -0.63517445 0.021121703
-0.1189089 -0.63519937 0.021129543
-0.29726148 -0.63452369 0.021810675
-0.24574637 -0.63451648 0.021824986
-0.23996603 -0.63450867 0.021794794
-0.23785131 -0.63452023 0.021789428
-0.12117275 -0.63452441 0.021803707
-0.28380048 -0.62812388 0.021349523
-0.23565146 -0.62818974 0.021386594
-0.12544982 -0.62817079 0.021392962
-0.27264243 -0.62125421 0.021917485
-0.22790158 -0.6218766 0.021192539
-0.22355393 -0.62154436 0.02152501
-0.22030391 -0.6212306 0.021853345
-0.13020352 -0.62186253 0.021150693
-0.12985936 -0.6218642 0.021157803
-0.12703919 -0.62124878 0.021892598
-0.12693274 -0.6219008 0.021193735
-0.25965098 -0.61561483 0.021116745
-0.21319263 -0.61565107 0.021163931
-0.21259026 -0.61500072 0.021870179
-0.13403654 -0.61501342 0.021880411
-0.13213122 -0.61565965 0.021186687
-0.25978211 -0.61496365 0.021842988
-0.21017188 -0.61498475 0.021870587
-0.20329398 -0.6094082 0.021281525
-0.200369 -0.60940474 0.021274697
-0.13882361 -0.60939717 0.021277649
-0.24986437 -0.60872948 0.021975452
-0.20584367 -0.60872215 0.021953827
-0.13592857 -0.60876346 0.021992782
-0.19304834 -0.60325187 0.021611881
-0.19274355 -0.60324705 0.021617349
-0.18510404 -0.60323489 0.021591393
-0.16302983 -0.60318881 0.021542218
-0.14070635 -0.6032601 0.021621078
-0.18031871 -0.59772754 0.021372959
-0.17127919 -0.5977537 0.021377215
-0.17096551 -0.59775811 0.021397475
-0.14413708 -0.59773952 0.02135672
-0.14199376 -0.59772205 0.021344278
-0.14748663 -0.59226352 0.02125637
-0.20870605 -0.58684343 0.021322943
-0.20252614 -0.58688945 0.021352934
-0.14810506 -0.58685178 0.021320885
-0.19310741 -0.581487 0.021560257
-0.15317117 -0.58148938 0.021571597
-0.18446149 -0.57614893 0.021921288
-0.15636905 -0.5760923 0.021867897
-0.15373304 -0.57670182 0.021130605
-0.17456689 -0.57141405 0.021629965
-0.16162094 -0.57137078 0.021592274
-0.16977453 -0.5666976 0.021445306
-0.15936784 -0.56665033 0.021415552
-0.14538744 -0.68044889 0.022377247
-0.097644918 -0.68045592 0.022411859
-0.13686775 -0.67172742 0.022512536
-0.13714778 -0.66375893 0.022259755
-0.10588297 -0.6630339 0.022887865
-0.10436956 -0.66375995 0.022279996
-0.11301511 -0.65514773 0.022936981
-0.11181998 -0.65585822 0.022315374
-0.24284199 -0.64091837 0.022409776
-0.29737592 -0.63384521 0.02249765
-0.24762367 -0.63386714 0.022515751
-0.245113 -0.63387078 0.022523008
-0.24291342 -0.63388491 0.022522818
-0.12735613 -0.62755167 0.022115424
-0.28370649 -0.62680703 0.022718623
-0.12522483 -0.62684977 0.022769375
-0.27305126 -0.62056535 0.022576656
-0.26910159 -0.62053305 0.02255442
-0.22039956 -0.62059927 0.022579372
-0.21965005 -0.62052906 0.022521939
-0.1299762 -0.6205799 0.022562442
-0.25984806 -0.61432797 0.022551656
-0.20832968 -0.61428285 0.022508204
-0.2075835 -0.61430973 0.022523291
-0.24548945 -0.60876828 0.022014154
-0.20879659 -0.60880113 0.022035556
-0.19727094 -0.60876775 0.022008453
-0.13860099 -0.60816139 0.022760689
-0.23888382 -0.60264713 0.022363063
-0.18523079 -0.6026203 0.022338061
-0.18052191 -0.60263765 0.022351084
-0.22461303 -0.59714168 0.022133457
-0.17203429 -0.59714079 0.022108179
-0.14676805 -0.59712207 0.022086112
-0.22467655 -0.59651488 0.022866571
-0.1832993 -0.59651977 0.02284918
-0.1829022 -0.59651303 0.022841973
-0.14402193 -0.59652615 0.022867646
-0.215002 -0.5916909 0.022021014
-0.14443475 -0.5916782 0.022016808
-0.20339611 -0.58626008 0.022104839
-0.15043546 -0.5862639 0.022098714
-0.20394786 -0.58566284 0.022877147
-0.19650261 -0.58085912 0.022306494
-0.19329275 -0.58092386 0.022357181
-0.15327178 -0.58091903 0.022343595
-0.15030088 -0.58085436 0.022275465
-0.18022369 -0.57550496 0.02263985
-0.092821546 -0.68847817 0.023106406
-0.095442154 -0.68776631 0.023701213
-0.14067863 -0.67974067 0.023012003
-0.13497193 -0.67900562 0.023596484
-0.098349974 -0.67902553 0.023617812
-0.14435501 -0.6789909 0.023568714
-0.13905929 -0.67100632 0.023110395
-0.10271505 -0.67102039 0.023141682
-0.10102893 -0.67100966 0.023137864
-0.13728508 -0.67030686 0.023744754
-0.10461234 -0.67031068 0.02377429
-0.1027782 -0.67031127 0.02376234
-0.11012327 -0.65447611 0.023604566
-0.11549467 -0.64666295 0.02390231
-0.23831037 -0.63955218 0.023753006
-0.1190715 -0.63956219 0.0237612
-0.24192289 -0.63320392 0.023200037
-0.14431582 -0.63322824 0.023209067
-0.29207137 -0.63248813 0.023830241
-0.12380865 -0.63251698 0.023840813
-0.22762254 -0.62620097 0.023475304
-0.12924747 -0.62622708 0.023486335
-0.12716666 -0.62621909 0.023497781
-0.27305934 -0.61990529 0.02325361
-0.26912439 -0.61959708 0.023613896
-0.15455118 -0.61991847 0.023273317
-0.13009749 -0.61992228 0.02326902
-0.20880122 -0.61303645 0.023977306
-0.15717269 -0.61371535 0.023287822
-0.15682666 -0.61370409 0.023269897
-0.13381088 -0.61373365 0.023315255
-0.24533245 -0.60754997 0.023494983
-0.19381186 -0.60751551 0.023471424
-0.18093196 -0.6020087 0.023070782
-0.23425893 -0.60194707 0.023041045
-0.19511926 -0.60130829 0.023754213
-0.18679604 -0.60137707 0.023810983
-0.18322437 -0.60139889 0.023826739
-0.16850635 -0.60138726 0.023829158
-0.16543558 -0.60141051 0.023840539
-0.140218 -0.60142213 0.02385178
-0.17219177 -0.59590685 0.02358442
-0.14656687 -0.5959208 0.023598261
-0.21486887 -0.59049535 0.023541151
-0.14748003 -0.5904597 0.023524882
-0.14426769 -0.59050226 0.02356011
-0.1901021 -0.58027142 0.02306352
-0.19315888 -0.57977962 0.023916846
-0.18469976 -0.57501358 0.023503233
-0.15335511 -0.57502723 0.023513874
-0.17485358 -0.5703097 0.023229768
-0.15828881 -0.57028794 0.023206983
-0.16555573 -0.56524646 0.023605391
-0.16213544 -0.5656051 0.023071148
-0.15921015 -0.5655933 0.02305563
-0.093865499 -0.68702883 0.024284257
-0.13743217 -0.67824411 0.024137747
-0.13601306 -0.6782546 0.0241485
-0.13276203 -0.67830676 0.024214871
-0.14065769 -0.67756981 0.024787115
-0.099396273 -0.67756462 0.024795651
-0.097984225 -0.67757422 0.0248075
-0.10462189 -0.66960579 0.024383148
-0.10809639 -0.66162229 0.024134487
-0.10662399 -0.66163087 0.024136921
-0.11664286 -0.64595306 0.024536459
-0.1177047 -0.63887423 0.024434911
-0.29228544 -0.6318332 0.024525821
-0.2910229 -0.63182575 0.024507424
-0.12248708 -0.63185203 0.024527393
-0.28421238 -0.6255905 0.024216779
-0.27981126 -0.62557447 0.024213359
-0.23702574 -0.62556916 0.024184491
-0.2284157 -0.62549734 0.024117656
-0.2273577 -0.62553442 0.024156937
-0.22662467 -0.62553155 0.024155678
-0.28004989 -0.62491798 0.024904532
-0.23711832 -0.62490702 0.024884837
-0.22847468 -0.62484461 0.024795247
-0.26561946 -0.61929709 0.024006099
-0.21588016 -0.61932093 0.024010977
-0.26605037 -0.61866105 0.02472342
-0.26571885 -0.6186626 0.024726395
-0.21665807 -0.61863601 0.024684293
-0.21591125 -0.61867154 0.024708718
-0.21309109 -0.61867082 0.024746403
-0.13206621 -0.61859357 0.024642814
-0.25637904 -0.61306328 0.024000056
-0.20429751 -0.61308283 0.024008391
-0.20373151 -0.61308736 0.024018962
-0.15722232 -0.61308479 0.024018642
-0.25648403 -0.612427 0.024716085
-0.20275541 -0.61244833 0.02472204
-0.16020642 -0.61239326 0.024695978
-0.15981539 -0.61239892 0.024684075
-0.24542867 -0.60690749 0.024195114
-0.24105465 -0.60690981 0.024203777
-0.19425707 -0.60690951 0.024197355
-0.19149467 -0.60625273 0.024924343
-0.16469076 -0.60622805 0.024863727
-0.16265576 -0.60689044 0.024180844
-0.13840535 -0.60629112 0.024941983
-0.23400722 -0.60072112 0.024513692
-0.23014085 -0.60080302 0.024605898
-0.18619519 -0.60075951 0.024549337
-0.18117732 -0.60077912 0.024566295
-0.18079498 -0.60077238 0.024566574
-0.17375433 -0.60078907 0.024566945
-0.16897158 -0.6007427 0.024536526
-0.1656656 -0.60078895 0.02456928
-0.22456302 -0.59528023 0.024339367
-0.18198109 -0.59532166 0.024356248
-0.14382988 -0.59531671 0.02436642
-0.14761475 -0.58986092 0.024299251
-0.14434496 -0.58991563 0.024337647
-0.20378692 -0.58449757 0.024413161
-0.1500572 -0.58451456 0.024422344
-0.19323532 -0.57922184 0.024711164
-0.18999097 -0.57915199 0.024662739
-0.15296671 -0.5792082 0.024710851
-0.18051095 -0.57441968 0.024248064
-0.15639964 -0.5744313 0.02425768
-0.17474531 -0.56921804 0.024852205
-0.15814792 -0.56921113 0.024828933
-0.16601999 -0.56452346 0.024691969
-0.16214539 -0.56453401 0.024718679
-0.13895288 -0.67683029 0.025401091
-0.13356632 -0.67684585 0.025396286
-0.1009057 -0.67683417 0.025389306
-0.099418454 -0.67683315 0.025386825
-0.13884358 -0.66814572 0.025555279
-0.10538565 -0.66816878 0.025589122
-0.13584664 -0.66022927 0.025396042
-0.10990043 -0.66023886 0.025408754
-0.10889472 -0.66023433 0.025409084
-0.11771432 -0.64523536 0.025143931
-0.14224559 -0.63816971 0.025050702
-0.11844896 -0.6375317 0.025752358
-0.29251057 -0.63121086 0.025231168
-0.14835782 -0.63120103 0.025230631
-0.12469171 -0.63116002 0.025189681
-0.2356784 -0.6305269 0.02588076
-0.14842579 -0.63051236 0.025880761
-0.14522454 -0.63051891 0.025898719
-0.12585099 -0.63049304 0.025870062
-0.28003991 -0.62426609 0.025574548
-0.27500853 -0.62425488 0.025574706
-0.15108834 -0.6242398 0.025560435
-0.21313497 -0.61802638 0.025435079
-0.13423321 -0.61803615 0.025450431
-0.2166934 -0.61799157 0.025394889
-0.15639934 -0.6179893 0.025404809
-0.12956071 -0.61797887 0.025374858
-0.20004079 -0.61173916 0.025392488
-0.19963054 -0.61175305 0.025396381
-0.16028409 -0.61177242 0.025412932
-0.13542192 -0.61180174 0.025450725
-0.24123999 -0.60565341 0.025660565
-0.14073642 -0.60564578 0.025654664
-0.138547 -0.60565406 0.025659993
-0.18126124 -0.6001572 0.025302552
-0.14186651 -0.60016441 0.025304418
-0.22106779 -0.59443653 0.025520805
-0.14370713 -0.59410733 0.025867194
-0.21156968 -0.58929217 0.025072627
-0.21089748 -0.58930063 0.025104243
-0.20544076 -0.58870876 0.02584081
-0.14746632 -0.58868897 0.025825808
-0.19855501 -0.58330047 0.025926189
-0.19010714 -0.57860547 0.025480743
-0.18065521 -0.57387495 0.025067847
-0.16006544 -0.57387632 0.025061216
-0.1563077 -0.57331824 0.025855668
-0.17163269 -0.56866068 0.025638651
-0.15828206 -0.56865573 0.02564262
-0.14563015 -0.68487138 0.026088167
-0.09895923 -0.68412882 0.026674375
-0.09745311 -0.68485433 0.026079612
-0.096106969 -0.68484497 0.026081521
-0.094642542 -0.68483514 0.026041664
-0.10190208 -0.67540056 0.026588682
-0.10051354 -0.67538583 0.026576271
-0.11062885 -0.65954071 0.026034666
-0.10752456 -0.65950209 0.02601463
-0.11531658 -0.65100133 0.026815621
-0.1141755 -0.6517036 0.026166307
-0.11314049 -0.65167969 0.026139554
-0.11175548 -0.65166062 0.026125995
-0.13656288 -0.6439026 0.026503574
-0.13436948 -0.64387685 0.026474984
-0.14465845 -0.63689041 0.026477885
-0.12400871 -0.6368503 0.026439775
-0.29228413 -0.62985396 0.026587661
-0.28616562 -0.6298191 0.026542466
-0.15137012 -0.62987632 0.026593644
-0.15265605 -0.62360477 0.026267264
-0.27554694 -0.62287152 0.02690829
-0.22246528 -0.62296003 0.026964182
-0.15436712 -0.62293249 0.026956206
-0.12886713 -0.62293243 0.026951035
-0.26619062 -0.61736047 0.026128547
-0.26256919 -0.61732846 0.02608542
-0.21318626 -0.61738044 0.02614194
-0.13175935 -0.61732256 0.026069457
-0.26193348 -0.61666352 0.026784981
-0.21368352 -0.61672181 0.026837323
-0.15638827 -0.61669397 0.026808497
-0.25265375 -0.61115688 0.026145576
-0.25194606 -0.61110967 0.026123671
-0.20008063 -0.61108947 0.026083611
-0.16231021 -0.61115611 0.026138909
-0.1603577 -0.61114359 0.02613805
-0.25315744 -0.61053032 0.02689226
-0.16255875 -0.61051667 0.026875691
-0.15864031 -0.61048216 0.026831437
-0.13517985 -0.61053437 0.026886784
-0.24127118 -0.60501045 0.026378943
-0.19161062 -0.60503298 0.026380245
-0.1872731 -0.60500717 0.026355488
-0.16484419 -0.60497725 0.026328349
-0.2299073 -0.59957403 0.026069611
-0.18133782 -0.59953564 0.026041782
-0.16882885 -0.59951425 0.026019517
-0.14381197 -0.59951591 0.026012925
-0.13982044 -0.59957558 0.026085416
-0.23039067 -0.59893799 0.026791906
-0.22997701 -0.59895682 0.026815502
-0.17383121 -0.59892386 0.026764583
-0.22159366 -0.59352487 0.026649395
-0.14970422 -0.58811587 0.026601158
-0.19865209 -0.58272439 0.026707385
-0.1863101 -0.57804662 0.026255906
-0.1582692 -0.57800049 0.026206601
-0.09673392 -0.68266457 0.027840037
-0.10343881 -0.67394871 0.027798809
-0.101646 -0.67394745 0.027783874
-0.098419562 -0.67393762 0.027782163
-0.10469433 -0.66602331 0.027421709
-0.13561445 -0.65741521 0.02793414
-0.13668007 -0.65025365 0.027396008
-0.11641779 -0.65031105 0.027445378
-0.13979769 -0.64322287 0.027159031
-0.13874513 -0.64322674 0.027164197
-0.1157248 -0.6431886 0.027133347
-0.14235683 -0.64250678 0.027777126
-0.11677287 -0.64248556 0.027756926
-0.23644602 -0.63616788 0.027108092
-0.12147105 -0.6361711 0.027063219
-0.12049819 -0.63614541 0.027058784
-0.23689137 -0.63548809 0.027781269
-0.14639002 -0.63552058 0.027790405
-0.28621826 -0.62919098 0.027266677
-0.23221533 -0.62919909 0.0272734
-0.15140392 -0.62921011 0.027275387
-0.15077159 -0.62919778 0.027278105
-0.28661397 -0.62855852 0.027967276
-0.23131469 -0.62849355 0.027891081
-0.23010278 -0.6284771 0.027904099
-0.12522864 -0.62849408 0.027902596
-0.27558842 -0.62220287 0.027580053
-0.22270957 -0.62229824 0.027647171
-0.15662761 -0.62223464 0.027596122
-0.1544092 -0.62226856 0.027629288
-0.15263192 -0.62229592 0.027670646
-0.12891717 -0.62227273 0.027642783
-0.26239839 -0.61603844 0.027511289
-0.15645306 -0.61604142 0.02750059
-0.13373119 -0.61609012 0.027563576
-0.13159665 -0.61603367 0.027493112
-0.21007827 -0.61599833 0.027446453
-0.19660307 -0.60989863 0.027599296
-0.16011368 -0.60987902 0.027573558
-0.13753374 -0.60985535 0.027556537
-0.18730354 -0.60439289 0.0270951
-0.23730014 -0.60374933 0.027833723
-0.23653975 -0.6037209 0.027788715
-0.18742184 -0.60374725 0.02781212
-0.16463916 -0.60371858 0.027786974
-0.14024273 -0.60377395 0.027844355
-0.13808951 -0.60376304 0.027842384
-0.17447241 -0.59831345 0.027512368
-0.21731956 -0.59287673 0.027347649
-0.21697406 -0.5928899 0.027358498
-0.20607843 -0.58751446 0.027372072
-0.14979669 -0.5875206 0.027382292
-0.14731207 -0.58750993 0.027360158
-0.15188372 -0.58213717 0.027461717
-0.19038723 -0.57749945 0.027085515
-0.18676369 -0.57745153 0.027028196
-0.1552534 -0.57689333 0.027826572
-0.1715439 -0.56756711 0.027261617
-0.16109899 -0.56754881 0.027242031
-0.15827584 -0.56754482 0.027242685
-0.093385972 -0.69140881 0.028122693
-0.13823116 -0.66529 0.028012622
-0.10584198 -0.66456664 0.028629946
-0.1363375 -0.65669698 0.028536305
-0.11085551 -0.65671462 0.028548358
-0.10861351 -0.6567167 0.028542688
-0.11356346 -0.64961731 0.028094074
-0.13807835 -0.64887494 0.028682865
-0.14502001 -0.64178789 0.028407
-0.14280236 -0.64181733 0.028433433
-0.11867712 -0.64179933 0.028422726
-0.11754204 -0.64178962 0.028400693
-0.12349141 -0.6348142 0.02843551
-0.28664437 -0.62789929 0.028650308
-0.15121263 -0.627864 0.028623018
-0.12671486 -0.62785095 0.028605726
-0.2720235 -0.62161428 0.028339997
-0.27149612 -0.62160671 0.028331026
-0.2182997 -0.6216076 0.028318973
-0.15457585 -0.62159377 0.028318623
-0.26244155 -0.61540425 0.028222987
-0.21014678 -0.61534917 0.028162852
-0.20650668 -0.61542976 0.02821839
-0.20666696 -0.61477226 0.028934021
-0.15901195 -0.61479264 0.028947592
-0.1543604 -0.61475611 0.02891857
-0.24747108 -0.60927016 0.02829574
-0.16233665 -0.60925055 0.028319571
-0.13757589 -0.60920525 0.028247736
-0.16457754 -0.60860437 0.028989639
-0.23776914 -0.60316122 0.028603569
-0.1877223 -0.60312307 0.028546561
-0.22665325 -0.59734917 0.028596647
-0.17516409 -0.5976823 0.028255196
-0.17471869 -0.59769857 0.028266815
-0.16914697 -0.59704113 0.028957536
-0.14331782 -0.59767544 0.028238101
-0.21764509 -0.59226274 0.028102459
-0.2132068 -0.59227687 0.028116707
-0.213819 -0.591694 0.028869966
-0.20702538 -0.58628249 0.02884729
-0.20658579 -0.5869 0.02811525
-0.15629336 -0.57169259 0.028292038
-0.16826051 -0.56699014 0.028034382
-0.16102211 -0.56647593 0.028870065
-0.1587974 -0.5618639 0.028781705
-0.09420988 -0.6891818 0.029830843
-0.098674148 -0.6804775 0.029603999
-0.10836206 -0.66314089 0.029848831
-0.10689005 -0.66314 0.02984835
-0.10944237 -0.65601343 0.029181294
-0.11297503 -0.65598947 0.029165905
-0.11154903 -0.65531272 0.02982915
-0.13958848 -0.64822125 0.029361235
-0.13603884 -0.64816588 0.029316595
-0.11436307 -0.6482259 0.029370412
-0.14174846 -0.64751798 0.029989
-0.14472245 -0.64040756 0.029704154
-0.14250445 -0.64044231 0.029733622
-0.14823061 -0.6341458 0.029107802
-0.14788723 -0.63414329 0.029102184
-0.14610204 -0.63415307 0.029105706
-0.12203903 -0.63413972 0.02908016
-0.29493511 -0.63345289 0.029755536
-0.12523881 -0.63346326 0.029746391
-0.28671005 -0.62720889 0.029321805
-0.15265739 -0.62720203 0.02931059
-0.14620622 -0.62719321 0.029301759
-0.1286487 -0.62719816 0.02930348
-0.28355128 -0.6264649 0.029921943
-0.28209493 -0.62653929 0.029990392
-0.15313441 -0.62652671 0.029980125
-0.14298329 -0.62652242 0.029986558
-0.12647684 -0.62652427 0.029973727
-0.12465362 -0.62649667 0.029947404
-0.27213755 -0.62064779 0.029391188
-0.26777309 -0.62032759 0.029735042
-0.21870506 -0.62028718 0.029687436
-0.156047 -0.62026995 0.029676495
-0.15240084 -0.62097377 0.029060038
-0.14601961 -0.62094194 0.029010104
-0.26217744 -0.61412501 0.029640296
-0.25930712 -0.61408824 0.029598661
-0.25822374 -0.6141156 0.029630709
-0.20237319 -0.61404103 0.029559849
-0.15909816 -0.61414105 0.029660534
-0.13499518 -0.61412293 0.029639587
-0.13325201 -0.61414051 0.029654242
-0.24800827 -0.60860598 0.029020077
-0.24766156 -0.60860509 0.029019967
-0.19646358 -0.60861284 0.029026626
-0.19349164 -0.60861129 0.029005909
-0.15993369 -0.60860509 0.029014362
-0.19722949 -0.60797602 0.029738415
-0.19648318 -0.60798115 0.029737493
-0.16217533 -0.60797709 0.029751224
-0.13730608 -0.60793853 0.029681791
-0.18375821 -0.60249686 0.029303003
-0.16749536 -0.60251421 0.029293571
-0.17087989 -0.60184169 0.029991595
-0.19605841 -0.59709555 0.029009223
-0.22311057 -0.59650695 0.029784076
-0.17572464 -0.596457 0.029749429
-0.17497018 -0.59645438 0.029738933
-0.21406659 -0.59109002 0.029613532
-0.15156125 -0.58573484 0.029642567
-0.19522136 -0.58105564 0.029083842
-0.19212796 -0.5810383 0.029095234
-0.15478136 -0.58103472 0.029073026
-0.18712193 -0.57571352 0.02934848
-0.18676895 -0.57572329 0.029347766
-0.18241712 -0.57576114 0.029388847
-0.15837859 -0.57576257 0.029378556
-0.16871256 -0.56588924 0.029656764
-0.16403161 -0.56592464 0.029671233
-0.16374034 -0.56591302 0.029672936
-0.096916229 -0.67899984 0.030769709
-0.20797151 -0.67031449 0.030769227
-0.10383935 -0.67034584 0.030807853
-0.10517558 -0.66241944 0.030463664
-0.1396731 -0.6475063 0.030000445
-0.11543403 -0.64752531 0.030004282
-0.11299819 -0.64752465 0.030009707
-0.14174917 -0.64682764 0.030638853
-0.11660346 -0.64682186 0.030635972
-0.14467715 -0.63974625 0.030376323
-0.12127114 -0.63978153 0.030413182
-0.11914546 -0.63977849 0.030426713
-0.11813882 -0.63974321 0.030393844
-0.29535604 -0.63275594 0.030397493
-0.15057129 -0.63275635 0.030397177
-0.14793445 -0.63279772 0.030443853
-0.28288999 -0.6258167 0.030625973
-0.27857906 -0.62578464 0.030592123
-0.12834598 -0.62586629 0.03066019
-0.1264905 -0.62587267 0.030671574
-0.21524483 -0.61965162 0.030411653
-0.13130774 -0.61962694 0.030383175
-0.12879007 -0.61963457 0.030389501
-0.15699734 -0.61345714 0.030313676
-0.1559981 -0.61345309 0.03031506
-0.13510238 -0.61346674 0.030341905
-0.20236856 -0.61275244 0.030973282
-0.19365102 -0.60734022 0.030444369
-0.23772249 -0.60191691 0.030053811
-0.18421176 -0.60125667 0.030739237
-0.18382594 -0.60156763 0.030384466
-0.17092296 -0.60121125 0.030705897
-0.16758557 -0.60157835 0.030397456
-0.16462842 -0.60187954 0.030018404
-0.14347541 -0.60124391 0.030743379
-0.13982743 -0.60158163 0.030396564
-0.22691108 -0.59583902 0.03047662
-0.22361739 -0.59587616 0.030521531
-0.14548692 -0.59584272 0.030471766
-0.21414419 -0.59047312 0.030349454
-0.20876473 -0.59046853 0.030371215
-0.20104198 -0.58514827 0.030398248
-0.20067807 -0.58509427 0.030363448
-0.1887781 -0.57984358 0.030580271
-0.18308362 -0.57979107 0.030553341
-0.15460622 -0.57987034 0.030621888
-0.18254055 -0.57520455 0.030183779
-0.18280962 -0.57463598 0.030974645
-0.18125632 -0.57458037 0.03091554
-0.17876829 -0.57461983 0.03096755
-0.17509751 -0.56998765 0.030668199
-0.17251617 -0.56999248 0.030659417
-0.16030276 -0.56996709 0.030650804
-0.15656725 -0.56999707 0.030683935
-0.19087896 -0.68774819 0.0310445
-0.20297612 -0.67826682 0.031339619
-0.20508794 -0.67750156 0.031867411
-0.098988093 -0.6775592 0.031945739
-0.097958438 -0.67755282 0.031945825
-0.10175568 -0.66961658 0.031405557
-0.1066634 -0.66169906 0.031062098
-0.10777336 -0.66098815 0.031673644
-0.13326158 -0.6531899 0.031692374
-0.11346319 -0.65316087 0.031656608
-0.11230339 -0.65387809 0.031046482
-0.13938788 -0.64611995 0.031275105
-0.14188622 -0.64542198 0.031914979
-0.14220926 -0.63907534 0.031053953
-0.14659546 -0.63843369 0.03177233
-0.14445974 -0.63837808 0.031698592
-0.11990567 -0.63840598 0.031710885
-0.29534084 -0.63211972 0.031082051
-0.29469779 -0.6320861 0.031077292
-0.1419486 -0.6321305 0.031121222
-0.12610507 -0.63207704 0.031057978
-0.12360573 -0.632092 0.031064983
-0.12146255 -0.63211495 0.031102156
-0.29583311 -0.63142163 0.031745706
-0.29223603 -0.63138926 0.031727016
-0.27604711 -0.63137698 0.031723462
-0.15027533 -0.6313889 0.031703714
-0.27938408 -0.62520206 0.03134422
-0.27788651 -0.62511629 0.031265199
-0.27677441 -0.62515211 0.031291716
-0.25712553 -0.62517875 0.03133275
-0.15288956 -0.62519008 0.03134191
-0.27850771 -0.62448043 0.031969916
-0.26502034 -0.62450689 0.031992856
-0.25961745 -0.62446839 0.031973254
-0.22681737 -0.62449312 0.031990916
-0.268466 -0.61892909 0.031054478
-0.26794431 -0.61897033 0.031092986
-0.26396856 -0.61895883 0.031067576
-0.25864401 -0.61898446 0.031104334
-0.21572717 -0.61899608 0.031105643
-0.15583229 -0.61895978 0.031064104
-0.13224405 -0.6182785 0.031733982
-0.13182282 -0.61828738 0.031737674
-0.12888344 -0.61896783 0.03106821
-0.25801858 -0.61280304 0.031032069
-0.25531605 -0.61238605 0.031510379
-0.25370768 -0.61280048 0.031016527
-0.20263568 -0.61214244 0.031714041
-0.15886399 -0.61283267 0.031064862
-0.1438323 -0.61217296 0.03174115
-0.13735442 -0.61280841 0.031048376
-0.13482086 -0.61217272 0.031746421
-0.24523067 -0.60668778 0.031169632
-0.24422407 -0.60600257 0.031833876
-0.24341066 -0.60644907 0.031376462
-0.23273717 -0.60604715 0.031870715
-0.23014937 -0.60608852 0.031905681
-0.19363543 -0.60605842 0.031887755
-0.19018902 -0.60604262 0.031864885
-0.16418268 -0.60667539 0.031140884
-0.14696626 -0.60603714 0.031859621
-0.24350439 -0.60599399 0.031829409
-0.23230547 -0.60065246 0.031496178
-0.22280934 -0.60059142 0.031450916
-0.22060284 -0.60061783 0.03144481
-0.22369121 -0.59524739 0.031253438
-0.22155869 -0.5952462 0.031245682
-0.20569064 -0.59518093 0.031175526
-0.14293876 -0.59522766 0.031207506
-0.22056498 -0.59462756 0.031976793
-0.21981567 -0.59460014 0.031953108
-0.21799451 -0.59462118 0.031948384
-0.21575496 -0.59462261 0.031960126
-0.20291747 -0.59465152 0.031982042
-0.1452435 -0.59461987 0.031960931
-0.1430485 -0.59461099 0.03195763
-0.21424206 -0.58986932 0.031106841
-0.21069467 -0.58988446 0.031148139
-0.20931701 -0.58921868 0.03181703
-0.14905283 -0.58926606 0.031872552
-0.14712068 -0.58986312 0.031116558
-0.14631644 -0.58957982 0.031521797
-0.20221758 -0.58459336 0.031206816
-0.20117044 -0.58457154 0.031182099
-0.19257864 -0.5844965 0.031128215
-0.15391977 -0.58451378 0.03113904
-0.19661291 -0.58399707 0.0319754
-0.19448546 -0.58398896 0.031995822
-0.19194521 -0.58391607 0.031903706
-0.18114206 -0.58396679 0.031957433
-0.17898898 -0.58393162 0.031935163
-0.16140474 -0.58391464 0.031908169
-0.1525922 -0.58391505 0.031885639
-0.15191545 -0.58392906 0.031904139
-0.19215487 -0.57930797 0.031424094
-0.190332 -0.5792222 0.031340737
-0.18819849 -0.57925725 0.031381831
-0.18251064 -0.57922167 0.031351414
-0.15253077 -0.57929003 0.031408746
-0.15168497 -0.57925338 0.031362876
-0.18349424 -0.57405657 0.031751316
-0.17887717 -0.57403475 0.031745728
-0.17344423 -0.5740152 0.031733539
-0.17023522 -0.57403779 0.031739954
-0.15833634 -0.57407135 0.031776886
-0.15617304 -0.5740037 0.031706143
-0.15535876 -0.57400846 0.031720646
-0.18065977 -0.57396019 0.031677466
-0.15586019 -0.57399797 0.031706467
-0.17408973 -0.56943309 0.031457055
-0.16940218 -0.56940156 0.031437956
-0.16273499 -0.56941855 0.031449694
-0.16042069 -0.56940526 0.031449467
-0.16446912 -0.56482196 0.031272814
-0.16396736 -0.56482178 0.031274091
-0.16216066 -0.56481802 0.031278178
-0.094531111 -0.6862312 0.03211876
-0.0960171 -0.68549991 0.032706406
-0.099369623 -0.67681736 0.032519389
-0.10533828 -0.66890919 0.032012325
-0.10351254 -0.66853911 0.032305274
-0.10993731 -0.66029316 0.032314479
-0.10858333 -0.65956026 0.032920327
-0.140055 -0.65246183 0.032292336
-0.11053759 -0.6524865 0.03232161
-0.13691543 -0.65173757 0.032903872
-0.13542359 -0.65175879 0.032912415
-0.13440628 -0.65176159 0.032919973
-0.1300943 -0.65175462 0.032905001
-0.11418433 -0.65177643 0.032933883
-0.11313918 -0.65176302 0.032914307
-0.11163443 -0.65175921 0.03291389
-0.1419123 -0.64472246 0.032554571
-0.11451909 -0.64474112 0.032565646
-0.28355676 -0.63768983 0.032364115
-0.14667377 -0.63773918 0.032403458
-0.14447328 -0.63771099 0.03238574
-0.1207136 -0.63772124 0.032374728
-0.29118145 -0.63071716 0.032391455
-0.29026887 -0.63073725 0.032407925
-0.28434381 -0.63077855 0.032441851
-0.12438217 -0.6307435 0.032412127
-0.12331451 -0.63074398 0.032407273
-0.27076548 -0.6245296 0.032029781
-0.22549374 -0.62452662 0.032020506
-0.22491997 -0.62454903 0.032032657
-0.12806682 -0.62453681 0.032017637
-0.27549261 -0.62386388 0.032705661
-0.27298465 -0.6238445 0.032685366
-0.25895393 -0.62381244 0.032665245
-0.15266174 -0.62385786 0.032699414
-0.1333698 -0.62383342 0.032662209
-0.13071157 -0.62384892 0.03270055
-0.128507 -0.62386882 0.032701686
-0.26016101 -0.61765695 0.032469492
-0.25723732 -0.617688 0.032487396
-0.2511169 -0.61762428 0.032444328
-0.2384928 -0.61762851 0.032435305
-0.21237221 -0.61764145 0.032464318
-0.15813178 -0.61766261 0.032467768
-0.1555535 -0.61765617 0.032452904
-0.14410636 -0.61763573 0.03243497
-0.13331376 -0.61766326 0.032483518
-0.13117224 -0.61764163 0.032441422
-0.1307888 -0.61764944 0.032443393
-0.25206107 -0.61148262 0.032422118
-0.25163451 -0.61150551 0.032428816
-0.24914499 -0.61154288 0.032439105
-0.24332853 -0.6115514 0.032477807
-0.23969661 -0.61148989 0.032419499
-0.20264675 -0.61151874 0.032436624
-0.13528079 -0.61151183 0.032445259
-0.13487051 -0.61152124 0.032458648
-0.24106002 -0.60543483 0.032607198
-0.24068631 -0.60545331 0.032624528
-0.23771867 -0.6053735 0.0325405
-0.23457904 -0.60543025 0.032602593
-0.22663885 -0.6054371 0.03260918
-0.21768826 -0.60537976 0.032568995
-0.19031228 -0.60538983 0.032557432
-0.1663667 -0.60540074 0.032564703
-0.16394056 -0.60538858 0.03254975
-0.14373861 -0.60545141 0.032636132
-0.13978189 -0.60541332 0.032579165
-0.23256798 -0.60001862 0.032221213
-0.23046114 -0.60002834 0.032243218
-0.22532311 -0.60004425 0.032241862
-0.14135221 -0.60002464 0.032240313
-0.22943491 -0.59938157 0.032945946
-0.22871596 -0.59935248 0.032904711
-0.22725438 -0.59936213 0.032934796
-0.22472669 -0.59939796 0.03295226
-0.2161653 -0.59938669 0.032950059
-0.21317944 -0.59998161 0.032188196
-0.21256363 -0.59935528 0.032928616
-0.17899168 -0.59935826 0.032910984
-0.1772595 -0.59936118 0.032928482
-0.17068066 -0.59996372 0.032161716
-0.1517704 -0.59938622 0.032957844
-0.14797066 -0.59999555 0.032189574
-0.14317647 -0.59935838 0.032914802
-0.21734644 -0.59401268 0.032693796
-0.19971506 -0.59401727 0.032730065
-0.19435945 -0.59401649 0.032716479
-0.14782272 -0.5940389 0.032730732
-0.14677767 -0.5940001 0.032689948
-0.21493672 -0.59398931 0.032694492
-0.20482312 -0.59396511 0.032681268
-0.14606507 -0.59399021 0.032679908
-0.14539103 -0.59399503 0.032689825
-0.20937991 -0.58862489 0.032574587
-0.20632476 -0.58865249 0.032628626
-0.20321871 -0.58866465 0.032607384
-0.19568442 -0.58861065 0.032580186
-0.19355197 -0.58864522 0.032621983
-0.1611665 -0.58868557 0.032656703
-0.15382129 -0.58866179 0.032608584
-0.15041596 -0.58866471 0.032622986
-0.19812293 -0.58336294 0.032704599
-0.19603944 -0.58339018 0.032728609
-0.19133563 -0.58333236 0.032665849
-0.18860899 -0.58337986 0.032719243
-0.18554968 -0.58329898 0.032647006
-0.18052287 -0.58337194 0.032708503
-0.15626594 -0.58338356 0.032725923
-0.15567014 -0.58338767 0.032724708
-0.15375753 -0.5833208 0.032666694
-0.15133305 -0.58334839 0.032690112
-0.18940955 -0.57863635 0.032109052
-0.18700704 -0.57811606 0.032942023
-0.18432677 -0.57869738 0.032162096
-0.17146489 -0.57840526 0.032550082
-0.1708589 -0.57810438 0.032942962
-0.16172896 -0.57870936 0.032183621
-0.16019335 -0.57813156 0.032943517
-0.15966181 -0.57809407 0.032910489
-0.15704598 -0.57868069 0.032152072
-0.156258 -0.57870704 0.032180756
-0.1546225 -0.57811666 0.032959901
-0.17971408 -0.57340485 0.032466765
-0.16655919 -0.57347023 0.032532111
-0.17101957 -0.56883645 0.032238428
-0.1686106 -0.56884646 0.032231942
-0.16563407 -0.56885445 0.032250639
-0.16192271 -0.56884062 0.032228585
-0.16139171 -0.56427222 0.032087326
-0.20028432 -0.68400437 0.033841867
-0.097085506 -0.68476731 0.033311915
-0.095648818 -0.68402708 0.033861451
-0.093792543 -0.68402374 0.033833742
-0.20474398 -0.67602766 0.033029672
-0.098684587 -0.67608446 0.033102889
-0.10012158 -0.6753369 0.033672053
-0.10637473 -0.66745406 0.033180706
-0.10506002 -0.66673511 0.033803292
-0.104615 -0.66674179 0.033800937
-0.11099572 -0.65887403 0.033537757
-0.10855177 -0.65885288 0.033531073
-0.12073682 -0.65104693 0.033543158
-0.11745458 -0.6510877 0.033580486
-0.11314788 -0.65106457 0.033546586
-0.11604633 -0.64402854 0.033185478
-0.14167863 -0.64332265 0.033835795
-0.12910329 -0.64330798 0.033815984
-0.11889952 -0.64397782 0.033131976
-0.11715837 -0.6436466 0.033477113
-0.29218635 -0.63706744 0.033064812
-0.12366232 -0.63701576 0.033008277
-0.12297273 -0.63701904 0.033010721
-0.12073877 -0.63702863 0.033020817
-0.28870779 -0.63631433 0.033668432
-0.28003934 -0.63633156 0.033678457
-0.14817603 -0.63634056 0.033692133
-0.13880922 -0.63632613 0.03365875
-0.13512921 -0.63636142 0.033696689
-0.13263014 -0.63635665 0.033702083
-0.12871626 -0.63630605 0.033647742
-0.127226 -0.63633758 0.033668544
-0.12156656 -0.63632077 0.033653259
-0.28925326 -0.63008213 0.033095054
-0.28078473 -0.63000685 0.033024829
-0.27793807 -0.6301046 0.033121787
-0.15326633 -0.63007212 0.033096939
-0.14995004 -0.63004208 0.033037122
-0.13063154 -0.63008523 0.03310059
-0.28619391 -0.62933475 0.033683941
-0.28585467 -0.62932944 0.033690803
-0.28343132 -0.62941736 0.033795718
-0.27982485 -0.62934405 0.033723738
-0.27729112 -0.62941837 0.033785742
-0.27470365 -0.62933886 0.033707857
-0.15005176 -0.62935716 0.033689708
-0.13390918 -0.62939662 0.033768523
-0.12523866 -0.62936759 0.033731237
-0.27464786 -0.62321258 0.033401318
-0.27224293 -0.62317783 0.033350401
-0.26744026 -0.62318861 0.033374723
-0.26694652 -0.62316692 0.033362146
-0.26402345 -0.62317014 0.033362582
-0.15631497 -0.62316245 0.033352304
-0.13907562 -0.62320638 0.033399668
-0.13614419 -0.62316251 0.033343975
-0.13248293 -0.62317634 0.033341724
-0.13076219 -0.62317234 0.033362851
-0.26452807 -0.61702162 0.033180289
-0.20869826 -0.61700797 0.033164442
-0.13444497 -0.6170451 0.033211596
-0.13337468 -0.61700886 0.033191431
-0.2588402 -0.61634177 0.033852056
-0.25631556 -0.61633134 0.033841874
-0.25311413 -0.61632746 0.033848163
-0.25279719 -0.61634272 0.033859503
-0.25014877 -0.61628932 0.033807989
-0.24689646 -0.61637688 0.033883128
-0.24037486 -0.61637294 0.033885073
-0.21227431 -0.61636162 0.033879567
-0.20909719 -0.61632502 0.033843245
-0.20874891 -0.61634392 0.03385786
-0.14315681 -0.61631584 0.03380594
-0.13950658 -0.61667907 0.033526182
-0.13632168 -0.61637282 0.033884909
-0.25101474 -0.61086434 0.033140577
-0.25045937 -0.61087048 0.033146013
-0.24999304 -0.61085254 0.033139925
-0.24823174 -0.61023349 0.033852752
-0.24519923 -0.61086386 0.033147618
-0.24238279 -0.61057067 0.033539962
-0.23842315 -0.61023819 0.033868089
-0.2355686 -0.61022723 0.033864804
-0.23306009 -0.61022985 0.033872064
-0.2308598 -0.61024404 0.033871427
-0.22760843 -0.61020058 0.0338246
-0.2251476 -0.61022693 0.033836082
-0.20303373 -0.61089754 0.03315153
-0.19953288 -0.61086118 0.033146635
-0.19877429 -0.61088556 0.033164825
-0.16173212 -0.61020416 0.03382444
-0.1587124 -0.6105389 0.033492897
-0.14756091 -0.61056536 0.033531532
-0.14547469 -0.61088192 0.033159699
-0.1447995 -0.61023176 0.033864312
-0.13819084 -0.61085725 0.03313094
-0.13720553 -0.61022902 0.03386049
-0.13680805 -0.61055195 0.033512391
-0.24005643 -0.6048156 0.03334095
-0.23652773 -0.60408574 0.033983756
-0.23388106 -0.60481167 0.033342507
-0.23078422 -0.60409695 0.03398487
-0.22100426 -0.60477132 0.033301484
-0.19072552 -0.6047557 0.033298373
-0.16404271 -0.60410291 0.033963546
-0.16396487 -0.6047405 0.033250816
-0.14605829 -0.60476881 0.033299632
-0.13987583 -0.60479182 0.033315554
-0.22664995 -0.59875697 0.033681344
-0.22412789 -0.59877706 0.033693746
-0.2211982 -0.59872764 0.033634689
-0.21907645 -0.5987432 0.033630181
-0.21873543 -0.59875512 0.033646051
-0.21548823 -0.59873223 0.033639554
-0.21148674 -0.5987438 0.033658918
-0.20857552 -0.59869641 0.033598389
-0.17843556 -0.59871644 0.033630952
-0.17123041 -0.59873343 0.033629924
-0.15056507 -0.59877872 0.033685118
-0.14665607 -0.59874684 0.03365998
-0.14481869 -0.59873241 0.033636142
-0.14341269 -0.59873509 0.033636119
-0.21433866 -0.59336889 0.033438489
-0.20702523 -0.59341288 0.033459775
-0.20169634 -0.59340894 0.03346255
-0.15441658 -0.59339237 0.033465181
-0.15117595 -0.59337288 0.033433471
-0.14792776 -0.59342003 0.033479489
-0.14545202 -0.5933795 0.033434454
-0.20550418 -0.58805269 0.033383355
-0.20259193 -0.58800596 0.033324186
-0.19506207 -0.58800679 0.033319864
-0.18966621 -0.58806247 0.033379693
-0.18684703 -0.58805054 0.033383667
-0.15660568 -0.58802581 0.033346456
-0.15321915 -0.58805251 0.033366378
-0.15103471 -0.58806455 0.033405297
-0.14949596 -0.5880512 0.033366516
-0.19735482 -0.58276963 0.03346616
-0.19543445 -0.5827983 0.033501048
-0.19321264 -0.5827651 0.033485632
-0.19068253 -0.58275747 0.033436004
-0.18778783 -0.58278996 0.033492353
-0.18250443 -0.58278006 0.033485644
-0.17777832 -0.58274174 0.033437427
-0.16021301 -0.58274239 0.033448592
-0.1550722 -0.5827927 0.033500168
-0.18640061 -0.57754439 0.033726353
-0.18352865 -0.57750821 0.033691544
-0.18066198 -0.57753342 0.033719484
-0.17599358 -0.57750487 0.033704665
-0.17299186 -0.57752973 0.033705007
-0.16573139 -0.57751453 0.033706702
-0.15903854 -0.57750589 0.033676922
-0.15871693 -0.57748789 0.033666648
-0.15691572 -0.57749563 0.033685602
-0.17914852 -0.57284701 0.0332755
-0.17655905 -0.5729205 0.033332791
-0.17475304 -0.57290649 0.033313308
-0.16898537 -0.57290792 0.033312641
-0.16104262 -0.57290918 0.033309139
-0.16073167 -0.5728907 0.03329841
-0.15963921 -0.57290697 0.033314016
-0.16747692 -0.56828856 0.033023007
-0.16506101 -0.5682919 0.033055529
-0.16102241 -0.56827688 0.033021905
-0.160523 -0.56828701 0.0330358
-0.16693023 -0.56773454 0.033831496
-0.16290289 -0.56773758 0.033823878
-0.097091131 -0.68329459 0.034454055
-0.096713886 -0.68329161 0.034454882
-0.20744273 -0.67462438 0.034275886
-0.10115007 -0.67461884 0.034263331
-0.20741327 -0.67389429 0.034860764
-0.10547352 -0.67389685 0.034874048
-0.10262461 -0.67388749 0.034845367
-0.10118177 -0.67389065 0.034845088
-0.1061324 -0.66600198 0.034384865
-0.10796475 -0.66524839 0.034960911
-0.13591346 -0.65815097 0.03414594
-0.10926584 -0.65815318 0.034155667
-0.13672028 -0.65743101 0.034780391
-0.12723663 -0.65739876 0.034717441
-0.11581241 -0.65741462 0.034751479
-0.11432378 -0.65742165 0.03476226
-0.11287861 -0.65744442 0.034790315
-0.11146607 -0.65744269 0.034768626
-0.11000466 -0.65743893 0.034759931
-0.13980041 -0.65035647 0.034177676
-0.13801037 -0.6503318 0.034153994
-0.13657945 -0.65033001 0.034152288
-0.12441177 -0.65033078 0.03416403
-0.11858025 -0.65038151 0.034204826
-0.11389416 -0.65038168 0.034206174
-0.11640003 -0.64967299 0.034830302
-0.12729657 -0.64262938 0.034451474
-0.12326182 -0.64263928 0.034461584
-0.12183479 -0.64263183 0.03446193
-0.11932687 -0.64258891 0.034412447
-0.11895787 -0.6425913 0.034411952
-0.1178507 -0.64259505 0.034412351
-0.29552495 -0.63562912 0.034327488
-0.29121429 -0.63568467 0.03436704
-0.2880441 -0.63563192 0.034335069
-0.27928337 -0.63564628 0.034317266
-0.14387709 -0.63565326 0.034362286
-0.12982893 -0.63562065 0.034302179
-0.12267029 -0.6356436 0.034310605
-0.29768664 -0.63495964 0.034966562
-0.2948775 -0.63492602 0.034966145
-0.28462067 -0.63492584 0.034948073
-0.13418016 -0.63498199 0.034996454
-0.13167419 -0.63496661 0.034989335
-0.12455659 -0.63494575 0.034979749
-0.28419119 -0.6287033 0.034422763
-0.28276736 -0.62874156 0.034456424
-0.2740548 -0.62867963 0.034397755
-0.27370051 -0.62871218 0.034425065
-0.27154765 -0.62873232 0.034442455
-0.15294036 -0.62871081 0.03440287
-0.13318209 -0.62872547 0.034433022
-0.12964082 -0.62872511 0.034437977
-0.12669724 -0.62870312 0.034400787
-0.27159032 -0.62248415 0.034002472
-0.2691274 -0.62253165 0.034069739
-0.26136541 -0.62251425 0.03404592
-0.25177476 -0.62250543 0.034045305
-0.15407309 -0.62253404 0.034082297
-0.13836972 -0.62254357 0.034073014
-0.13541926 -0.6224888 0.034007337
-0.27099904 -0.62179369 0.034691542
-0.26849017 -0.62186539 0.034751639
-0.25728339 -0.62183899 0.034717064
-0.25441816 -0.6218701 0.034754038
-0.22069561 -0.62180007 0.034684766
-0.14050709 -0.62185198 0.034731369
-0.13483833 -0.62179703 0.034667913
-0.131174 -0.62182969 0.034703214
-0.25819898 -0.61568737 0.034555674
-0.24942936 -0.61563748 0.03449278
-0.24300879 -0.61562592 0.034500163
-0.23973741 -0.61571628 0.034570824
-0.23726611 -0.61563683 0.034501474
-0.21241499 -0.6157167 0.034594681
-0.20912622 -0.61567307 0.034505624
-0.14249261 -0.61564916 0.034482963
-0.13848874 -0.61569518 0.034563027
-0.1353479 -0.61571777 0.034577228
-0.24756597 -0.60960114 0.034584686
-0.24135804 -0.60957158 0.034562111
-0.23776737 -0.60959184 0.034573942
-0.23024705 -0.60960186 0.03458878
-0.22697039 -0.60956645 0.034539688
-0.22450259 -0.60958606 0.034548581
-0.19929136 -0.60953468 0.03451699
-0.16385059 -0.60959405 0.034572743
-0.14119501 -0.60959578 0.034575235
-0.14085537 -0.60959458 0.03457262
-0.22858869 -0.60417342 0.034064956
-0.22551601 -0.60413814 0.034021854
-0.22312787 -0.60415828 0.034016509
-0.21657035 -0.60413241 0.034018002
-0.21236797 -0.60416359 0.034023419
-0.15535624 -0.60413718 0.034015596
-0.14540885 -0.60413432 0.034025375
-0.1449457 -0.60415006 0.034027591
-0.14353445 -0.60417038 0.034074407
-0.23564841 -0.603477 0.03472016
-0.23297246 -0.60353833 0.034769077
-0.22796711 -0.60353041 0.034773961
-0.21976037 -0.60350537 0.034766175
-0.21571082 -0.6035012 0.034744397
-0.18636245 -0.60351086 0.034735672
-0.16636178 -0.60352391 0.034761779
-0.15122052 -0.60350317 0.034734305
-0.15088853 -0.60350281 0.034729697
-0.14719367 -0.60348803 0.034717213
-0.14432099 -0.60351866 0.034761805
-0.14185466 -0.60352218 0.034763332
-0.22597612 -0.59815234 0.034413412
-0.22057483 -0.59811419 0.034373812
-0.2148214 -0.59808463 0.034328755
-0.20294961 -0.59815544 0.034420401
-0.200455 -0.59806526 0.034328748
-0.17132866 -0.59812963 0.034373794
-0.15504228 -0.59810603 0.034362812
-0.21349579 -0.59276515 0.034191333
-0.21269265 -0.59215206 0.03493917
-0.21007776 -0.59275204 0.03417208
-0.20923823 -0.59213924 0.034917925
-0.20637698 -0.59280902 0.034211844
-0.20350674 -0.59276742 0.034178387
-0.2029089 -0.59214902 0.03491208
-0.20080517 -0.59217948 0.034952167
-0.19853881 -0.59244299 0.034549393
-0.19632261 -0.59275562 0.03414629
-0.19324037 -0.59279263 0.034197249
-0.19033009 -0.59240186 0.034501992
-0.16005315 -0.59216827 0.034941927
-0.15704595 -0.59273857 0.034139965
-0.15644859 -0.59213555 0.034903292
-0.15018511 -0.59273231 0.034163777
-0.14815003 -0.59215307 0.034947407
-0.2034099 -0.58749342 0.034162365
-0.19698109 -0.58748633 0.034167826
-0.18910135 -0.58743352 0.034112815
-0.18368009 -0.58744693 0.034142345
-0.16387941 -0.5874148 0.034094594
-0.16023646 -0.58746481 0.034145199
-0.1554682 -0.58740324 0.034073845
-0.15228069 -0.58745122 0.034128666
-0.15118015 -0.58746028 0.034155477
-0.20352511 -0.58687603 0.034901731
-0.20121679 -0.58680415 0.034850556
-0.2005869 -0.58684224 0.03486985
-0.19887614 -0.58688307 0.034903627
-0.19125682 -0.58687502 0.034888722
-0.18828131 -0.58679026 0.034828264
-0.18556388 -0.58686411 0.034904446
-0.18130228 -0.58682555 0.034877893
-0.18052927 -0.58682084 0.034856502
-0.15950182 -0.58685446 0.034898847
-0.15892127 -0.58686095 0.03489067
-0.15485269 -0.58680785 0.034831617
-0.15141156 -0.58686519 0.034907375
-0.19475259 -0.58219701 0.034251768
-0.19259974 -0.582147 0.034214988
-0.18715867 -0.58220428 0.034243599
-0.18181951 -0.58219689 0.034253664
-0.17966338 -0.58219326 0.03423962
-0.17711543 -0.58216274 0.034223426
-0.17424411 -0.58218533 0.034233354
-0.16523331 -0.58217239 0.034217183
-0.16452803 -0.58218879 0.034237776
-0.15919156 -0.5821656 0.034223001
-0.15882564 -0.58217257 0.034240432
-0.15406743 -0.58217448 0.034237351
-0.19161411 -0.581532 0.034936309
-0.18373984 -0.58154428 0.034962609
-0.17902575 -0.58158755 0.034990352
-0.17634931 -0.5815711 0.034985766
-0.16932042 -0.58156341 0.034980204
-0.18536714 -0.57696515 0.034494448
-0.18000756 -0.57696021 0.034504484
-0.17243505 -0.57693481 0.034467407
-0.1692306 -0.57694149 0.034484744
-0.17559686 -0.57235104 0.034108039
-0.17236252 -0.57230186 0.034071319
-0.17161489 -0.57231468 0.034087855
-0.1682343 -0.57233346 0.034098029
-0.16008118 -0.57231218 0.034072366
-0.17324525 -0.57174325 0.034888059
-0.16351874 -0.5717259 0.0348581
-0.20279235 -0.68255353 0.035001855
-0.09819413 -0.6825583 0.035027228
-0.097459085 -0.68181747 0.035592876
-0.20746157 -0.67315501 0.035444319
-0.10724287 -0.66452116 0.03555591
-0.11187134 -0.65672934 0.035386994
-0.11078964 -0.65673006 0.035386238
-0.13951124 -0.64895362 0.035440944
-0.12475298 -0.6489563 0.035451051
-0.12219469 -0.6489073 0.035383273
-0.11574055 -0.64896923 0.035465017
-0.28950182 -0.64125103 0.035790756
-0.13087377 -0.64192456 0.035091922
-0.12915051 -0.64122111 0.035716765
-0.12778845 -0.64123267 0.035752825
-0.12546833 -0.64193225 0.035072897
-0.12370993 -0.64123535 0.035728492
-0.12260231 -0.64194429 0.035108957
-0.12087157 -0.64123881 0.035750732
-0.29376906 -0.63424236 0.035593301
-0.29051846 -0.63499641 0.035030656
-0.28697357 -0.63429451 0.035659671
-0.28376243 -0.63420832 0.035581373
-0.28158039 -0.63498288 0.035022434
-0.14976704 -0.63426673 0.035653446
-0.14752181 -0.63428158 0.035647303
-0.14578584 -0.63430357 0.035674188
-0.12889931 -0.63424206 0.035612967
-0.12743439 -0.63424176 0.035611633
-0.12594178 -0.63426334 0.035620648
-0.12453475 -0.63426393 0.035630055
-0.284224 -0.62802148 0.035075702
-0.28208554 -0.62805784 0.035134263
-0.27627414 -0.62804759 0.03510505
-0.27593592 -0.62804198 0.035105865
-0.27086669 -0.62805933 0.035104103
-0.26777703 -0.6280303 0.035061955
-0.22874372 -0.62801987 0.035083346
-0.13971336 -0.62804651 0.035115749
-0.13664073 -0.62803173 0.035066061
-0.13232638 -0.6280545 0.035098422
-0.12857689 -0.62805229 0.03509539
-0.28140891 -0.6273883 0.035791259
-0.27812493 -0.62734509 0.035743859
-0.22909969 -0.62735468 0.035751324
-0.2279457 -0.62736416 0.035746772
-0.14948247 -0.62733376 0.0357031
-0.13109738 -0.62737906 0.03575895
-0.26779434 -0.62118483 0.035414483
-0.26527554 -0.62114161 0.035376791
-0.26273015 -0.62118453 0.035406444
-0.2566047 -0.62118751 0.035409663
-0.250857 -0.62118518 0.035413187
-0.22124287 -0.62112278 0.035338271
-0.22090082 -0.62112969 0.035356805
-0.21769628 -0.62120855 0.035429429
-0.14308055 -0.62118381 0.035418972
-0.13990042 -0.62118268 0.035414141
-0.13736324 -0.62121499 0.035452321
-0.26005441 -0.61502171 0.035224278
-0.25185236 -0.61502677 0.035242695
-0.24595369 -0.61506116 0.035266612
-0.23443319 -0.61505055 0.035267275
-0.16092759 -0.61502737 0.035260618
-0.1580307 -0.61501753 0.035212513
-0.14613245 -0.61504382 0.035252456
-0.13784774 -0.61503458 0.03524927
-0.13502122 -0.61506182 0.035271659
-0.25467587 -0.61465442 0.035553757
-0.24864773 -0.61498177 0.035202771
-0.24775554 -0.61435151 0.035923257
-0.24230315 -0.61499083 0.035209384
-0.23883335 -0.61439663 0.035970066
-0.23631631 -0.61433345 0.035901852
-0.20922831 -0.61499447 0.03518923
-0.20494144 -0.61438912 0.035933651
-0.14802428 -0.61438376 0.035947956
-0.14163142 -0.61499465 0.035187259
-0.14085615 -0.61434555 0.035903469
-0.24652548 -0.60889089 0.035231467
-0.24401627 -0.60893708 0.035269551
-0.24366692 -0.60894829 0.035275396
-0.2405552 -0.60889733 0.035236295
-0.23712511 -0.60895574 0.035280898
-0.23397624 -0.60825479 0.035935059
-0.22929586 -0.60829043 0.035982512
-0.22360145 -0.60827672 0.035957001
-0.16364224 -0.60829479 0.035985507
-0.16148017 -0.608603 0.035597719
-0.1510525 -0.60827303 0.035954416
-0.1463185 -0.60895061 0.035304289
-0.14353617 -0.60860968 0.035618179
-0.14026769 -0.6089378 0.035282344
-0.13943285 -0.60826433 0.03594321
-0.13883346 -0.60856974 0.03555499
-0.23485196 -0.60286134 0.035456434
-0.21902291 -0.60286736 0.035452481
-0.2114132 -0.60287267 0.035434384
-0.16935863 -0.60289478 0.035485387
-0.16646765 -0.60289204 0.035487499
-0.15018652 -0.60287452 0.035457008
-0.1465929 -0.6028434 0.035428297
