# .PCD v0.7 - Point Cloud Data file format
VERSION 0.7
FIELDS x y z normal_x normal_y normal_z curvature
SIZE 4 4 4 4 4 4 4
TYPE F F F F F F F
COUNT 1 1 1 1 1 1 1
WIDTH 1081
HEIGHT 1
VIEWPOINT 0 0 0 1 0 0 0
POINTS 1081
DATA ascii
0.3019436 0.055500779 -0.054660801 0 0 -1 0
0.025999578 0.055853155 -0.054660801 0 0 -1 0
0.17475037 0.055991642 -0.054660801 0 0 -1 0
0.3164528 0.055877991 -0.054660801 0 0 -1 0
0.11862302 0.056479771 -0.054660797 0 0 -1 0
0.16591893 0.056474216 -0.054660801 0 0 -1 0
0.01232348 0.056525301 -0.054660801 0 0 -1 0
0.1633075 0.056528799 -0.054660801 0 0 -1 0
0.081086621 0.056989662 -0.054660805 0 0 -1 0
0.13670821 0.056962196 -0.054660801 0 0 -1 0
0.25616029 0.056766484 -0.054660805 0 0 -1 0
0.26971355 0.056911994 -0.054660801 0 0 -1 0
0.022320017 0.057148829 -0.054660797 0 0 -1 0
0.11454392 0.05704793 -0.054660797 0 0 -1 0
0.12385318 0.057045519 -0.054660801 0 0 -1 0
0.15483558 0.057100706 -0.054660801 0 0 -1 0
0.12160055 0.057271812 -0.054660805 0 0 -1 0
0.17543115 0.057385534 -0.054660801 0 0 -1 0
0.044023592 0.057657398 -0.054660801 0 0 -1 0
0.19219413 0.057657011 -0.054660801 0 0 -1 0
0.30737033 0.057566959 -0.054660801 0 0 -1 0
0.092981517 0.057924818 -0.054660801 0 0 -1 0
0.20460707 0.057789348 -0.054660797 0 0 -1 0
0.1805132 0.058247983 -0.054660801 0 0 -1 0
0.29533812 0.058249958 -0.054660797 0 0 -1 0
0.25439113 0.058432702 -0.054660801 0 0 -1 0
0.27158472 0.058319099 -0.054660801 0 0 -1 0
0.018172095 0.058864176 -0.054660801 0 0 -1 0
0.049168687 0.058756016 -0.054660805 0 0 -1 0
0.099960253 0.059016772 -0.054660801 0 0 -1 0
0.0062151891 0.059715945 -0.054660801 0 0 -1 0
0.043081202 0.059664566 -0.054660801 0 0 -1 0
0.10331157 0.05956737 -0.054660801 0 0 -1 0
0.095603265 0.059857592 -0.054660797 0 0 -1 0
0.1719062 0.059925187 -0.054660797 0 0 -1 0
0.12891373 0.060025375 -0.054660801 0 0 -1 0
0.079556033 0.0602828 -0.054660805 0 0 -1 0
0.1007947 0.060338266 -0.054660797 0 0 -1 0
0.10526829 0.060436353 -0.054660805 0 0 -1 0
0.019488955 0.060749952 -0.054660801 0 0 -1 0
0.028046871 0.060606979 -0.054660805 0 0 -1 0
0.16625109 0.060715377 -0.054660805 0 0 -1 0
0.28168911 0.060713097 -0.054660797 0 0 -1 0
0.31454253 0.060508832 -0.054660801 0 0 -1 0
0.026320305 0.060800575 -0.054660805 0 0 -1 0
0.05028253 0.060787797 -0.054660797 0 0 -1 0
0.053531643 0.060939319 -0.054660801 0 0 -1 0
0.078450195 0.060783677 -0.054660797 0 0 -1 0
0.089888096 0.06107308 -0.054660797 0 0 -1 0
0.097832806 0.061449196 -0.054660801 0 0 -1 0
0.0092480797 0.061537761 -0.054660801 0 0 -1 0
0.18501948 0.061554026 -0.054660801 0 0 -1 0
0.045459609 0.061915115 -0.054660801 0 0 -1 0
0.15670359 0.061804328 -0.054660805 0 0 -1 0
0.21624455 0.061867107 -0.054660805 0 0 -1 0
0.23490876 0.061997097 -0.054660805 0 0 -1 0
0.26036358 0.061788864 -0.054660797 0 0 -1 0
0.0059615523 0.062163353 -0.054660805 0 0 -1 0
0.073845394 0.062040858 -0.054660805 0 0 -1 0
0.15344515 0.062099952 -0.054660801 0 0 -1 0
0.15722904 0.062193014 -0.054660801 0 0 -1 0
0.16503738 0.062015008 -0.054660797 0 0 -1 0
0.20151 0.06216925 -0.054660801 0 0 -1 0
0.033216879 0.062469229 -0.054660805 0 0 -1 0
0.13709854 0.062253378 -0.054660801 0 0 -1 0
0.15160173 0.062337585 -0.054660797 0 0 -1 0
0.1928499 0.062339846 -0.054660797 0 0 -1 0
0.12420399 0.062715217 -0.054660801 0 0 -1 0
0.26546204 0.062641375 -0.054660805 0 0 -1 0
0.033680927 0.062843002 -0.054660801 0 0 -1 0
0.089288846 0.063243277 -0.054660797 0 0 -1 0
0.12162244 0.063542746 -0.054660801 0 0 -1 0
0.12615052 0.063587673 -0.054660801 0 0 -1 0
0.2037718 0.063740268 -0.054660797 0 0 -1 0
0.27693865 0.06362921 -0.054660797 0 0 -1 0
0.28055796 0.063708343 -0.054660801 0 0 -1 0
0.30186772 0.063536413 -0.054660801 0 0 -1 0
0.037287444 0.063791089 -0.054660805 0 0 -1 0
0.17573397 0.06403327 -0.054660801 0 0 -1 0
0.1232869 0.064364433 -0.054660801 0 0 -1 0
0.22804832 0.064315684 -0.054660801 0 0 -1 0
0.04109386 0.064568162 -0.054660797 0 0 -1 0
0.19488655 0.064720117 -0.054660801 0 0 -1 0
0.026125764 0.064998239 -0.054660801 0 0 -1 0
0.071578048 0.06513308 -0.054660801 0 0 -1 0
0.13494745 0.065231092 -0.054660801 0 0 -1 0
0.19614162 0.065153494 -0.054660805 0 0 -1 0
0.20882356 0.065178357 -0.054660805 0 0 -1 0
0.22330983 0.065088443 -0.054660797 0 0 -1 0
0.12171216 0.065433472 -0.054660801 0 0 -1 0
0.1299092 0.065418355 -0.054660801 0 0 -1 0
0.14920327 0.065396525 -0.054660805 0 0 -1 0
0.15200894 0.065310776 -0.054660797 0 0 -1 0
0.30409163 0.065371484 -0.054660797 0 0 -1 0
0.30583566 0.065348275 -0.054660801 0 0 -1 0
0.31361085 0.065401524 -0.054660801 0 0 -1 0
0.18488155 0.065658323 -0.054660805 0 0 -1 0
0.25695688 0.065682091 -0.054660801 0 0 -1 0
0.19786219 0.066074558 -0.054660801 0 0 -1 0
0.056397703 0.066381894 -0.054660797 0 0 -1 0
0.13520686 0.066456176 -0.054660801 0 0 -1 0
0.18244606 0.066433325 -0.054660801 0 0 -1 0
0.31268644 0.066284351 -0.054660801 0 0 -1 0
0.053715792 0.066707551 -0.054660797 0 0 -1 0
0.16241145 0.066719048 -0.054660805 0 0 -1 0
0.099252693 0.066906288 -0.054660797 0 0 -1 0
0.11506847 0.067691937 -0.054660797 0 0 -1 0
0.19351229 0.067920931 -0.054660797 0 0 -1 0
0.19452962 0.068204686 -0.054660797 0 0 -1 0
0.20950121 0.068152092 -0.054660801 0 0 -1 0
0.10593512 0.068507098 -0.054660801 0 0 -1 0
0.12351246 0.068669647 -0.054660801 0 0 -1 0
0.070787363 0.068924516 -0.054660805 0 0 -1 0
0.10865494 0.068844527 -0.054660797 0 0 -1 0
0.14691618 0.0689632 -0.054660801 0 0 -1 0
0.23772341 0.068828493 -0.054660797 0 0 -1 0
0.053776603 0.069087781 -0.054660797 0 0 -1 0
0.079825684 0.069009483 -0.054660801 0 0 -1 0
0.14283323 0.069039226 -0.054660797 0 0 -1 0
0.16043881 0.069163688 -0.054660801 0 0 -1 0
0.046075054 0.069301292 -0.054660801 0 0 -1 0
0.14956351 0.069378704 -0.054660797 0 0 -1 0
0.10208888 0.069991626 -0.054660801 0 0 -1 0
0.23414925 0.069936216 -0.054660797 0 0 -1 0
0.0182977 0.070058137 -0.054660805 0 0 -1 0
0.068869844 0.070235558 -0.054660805 0 0 -1 0
0.23673224 0.070048869 -0.054660801 0 0 -1 0
0.25938904 0.070199952 -0.054660805 0 0 -1 0
0.001448879 0.070352636 -0.054660797 0 0 -1 0
0.059176642 0.07035964 -0.054660805 0 0 -1 0
0.20631446 0.070432626 -0.054660801 0 0 -1 0
0.0063623232 0.070598304 -0.054660801 0 0 -1 0
0.19658482 0.070607133 -0.054660801 0 0 -1 0
0.21385498 0.07070335 -0.054660801 0 0 -1 0
0.23157817 0.070730641 -0.054660805 0 0 -1 0
0.25644359 0.071238555 -0.054660797 0 0 -1 0
0.16006199 0.071422949 -0.054660805 0 0 -1 0
0.16613317 0.071541972 -0.054660801 0 0 -1 0
0.22468397 0.071649149 -0.054660801 0 0 -1 0
0.035798389 0.071957998 -0.054660801 0 0 -1 0
0.20484239 0.072040945 -0.054660805 0 0 -1 0
0.21328801 0.072244652 -0.054660797 0 0 -1 0
0.2918005 0.072167076 -0.054660801 0 0 -1 0
0.056326471 0.072474748 -0.054660805 0 0 -1 0
0.13174798 0.072452508 -0.054660797 0 0 -1 0
0.13839012 0.072295554 -0.054660801 0 0 -1 0
0.16763391 0.072685532 -0.054660805 0 0 -1 0
0.23803551 0.072602011 -0.054660801 0 0 -1 0
0.31294036 0.072585851 -0.054660801 0 0 -1 0
0.012186063 0.072823025 -0.054660805 0 0 -1 0
0.16482106 0.072817467 -0.054660801 0 0 -1 0
0.2668139 0.072929993 -0.054660801 0 0 -1 0
0.23318769 0.073169485 -0.054660801 0 0 -1 0
0.073107511 0.073438972 -0.054660805 0 0 -1 0
0.078570299 0.073259383 -0.054660805 0 0 -1 0
0.13312303 0.07344801 -0.054660801 0 0 -1 0
0.10765499 0.073669136 -0.054660805 0 0 -1 0
0.13890588 0.074106723 -0.054660801 0 0 -1 0
0.19213027 0.074035048 -0.054660797 0 0 -1 0
0.10023216 0.074280247 -0.054660801 0 0 -1 0
0.26712668 0.074279912 -0.054660801 0 0 -1 0
0.11418626 0.074569598 -0.054660801 0 0 -1 0
0.083739504 0.075051889 -0.054660805 0 0 -1 0
0.085960045 0.075207815 -0.054660805 0 0 -1 0
0.096219532 0.075033903 -0.054660801 0 0 -1 0
0.29032165 0.075203493 -0.054660797 0 0 -1 0
0.30998206 0.075223282 -0.054660805 0 0 -1 0
0.047759753 0.075284898 -0.054660805 0 0 -1 0
0.064940438 0.075350918 -0.054660797 0 0 -1 0
0.30221626 0.07543128 -0.054660805 0 0 -1 0
0.076052263 0.075628713 -0.054660805 0 0 -1 0
0.12997051 0.075608626 -0.054660805 0 0 -1 0
0.13559632 0.075551055 -0.054660801 0 0 -1 0
0.14022751 0.075640514 -0.054660801 0 0 -1 0
0.20464256 0.075544611 -0.054660797 0 0 -1 0
0.02750138 0.075801328 -0.054660797 0 0 -1 0
0.20594464 0.075860783 -0.054660797 0 0 -1 0
0.0080162492 0.076401554 -0.054660797 0 0 -1 0
0.097964078 0.076322742 -0.054660797 0 0 -1 0
0.23343714 0.076258294 -0.054660801 0 0 -1 0
0.24764691 0.076455615 -0.054660801 0 0 -1 0
0.30400425 0.076423973 -0.054660805 0 0 -1 0
0.014259804 0.07652884 -0.054660801 0 0 -1 0
0.21280171 0.076513499 -0.054660805 0 0 -1 0
0.26530451 0.076732978 -0.054660801 0 0 -1 0
0.28037947 0.076880351 -0.054660801 0 0 -1 0
0.28131491 0.076863572 -0.054660805 0 0 -1 0
0.30498677 0.076779075 -0.054660805 0 0 -1 0
0.12733483 0.077086665 -0.054660797 0 0 -1 0
0.14735515 0.077067532 -0.054660801 0 0 -1 0
0.14878833 0.077137887 -0.054660805 0 0 -1 0
0.27374953 0.077150211 -0.054660801 0 0 -1 0
0.2929132 0.077188373 -0.054660801 0 0 -1 0
0.16876099 0.077475227 -0.054660805 0 0 -1 0
0.1797553 0.077492237 -0.054660801 0 0 -1 0
0.20295557 0.077338733 -0.054660805 0 0 -1 0
0.053502873 0.077684581 -0.054660801 0 0 -1 0
0.18929954 0.07754004 -0.054660805 0 0 -1 0
0.012998482 0.078210734 -0.054660797 0 0 -1 0
0.07221061 0.078076147 -0.054660801 0 0 -1 0
0.075952545 0.078227378 -0.054660801 0 0 -1 0
0.16711926 0.078240544 -0.054660797 0 0 -1 0
0.25240147 0.078021266 -0.054660801 0 0 -1 0
0.23568352 0.078319147 -0.054660801 0 0 -1 0
0.24809802 0.078346007 -0.054660805 0 0 -1 0
0.058113147 0.07868354 -0.054660797 0 0 -1 0
0.26677316 0.07859005 -0.054660801 0 0 -1 0
0.15901594 0.078945369 -0.054660797 0 0 -1 0
0.066317037 0.079088502 -0.054660801 0 0 -1 0
0.31517226 0.079113454 -0.054660805 0 0 -1 0
0.098326914 0.079343058 -0.054660801 0 0 -1 0
0.23550211 0.079448648 -0.054660805 0 0 -1 0
0.29407924 0.079299062 -0.054660801 0 0 -1 0
0.0086408723 0.07969141 -0.054660797 0 0 -1 0
0.085776217 0.079556063 -0.054660801 0 0 -1 0
0.09558209 0.079713337 -0.054660797 0 0 -1 0
0.12603803 0.079629868 -0.054660797 0 0 -1 0
0.1358922 0.079741061 -0.054660805 0 0 -1 0
0.18410908 0.079810262 -0.054660801 0 0 -1 0
0.25249428 0.079849869 -0.054660805 0 0 -1 0
0.03307353 0.080013454 -0.054660801 0 0 -1 0
0.24457048 0.080198132 -0.054660805 0 0 -1 0
0.26420283 0.080110393 -0.054660805 0 0 -1 0
0.26596719 0.08047317 -0.054660797 0 0 -1 0
0.094476521 0.080552235 -0.054660801 0 0 -1 0
0.23357405 0.08061786 -0.054660805 0 0 -1 0
0.10740951 0.080865011 -0.054660801 0 0 -1 0
0.11657835 0.080866113 -0.054660797 0 0 -1 0
0.29301465 0.08082509 -0.054660805 0 0 -1 0
0.30492306 0.080791675 -0.054660801 0 0 -1 0
0.10965756 0.081022635 -0.054660805 0 0 -1 0
0.13298941 0.081216782 -0.054660797 0 0 -1 0
0.11647923 0.082386002 -0.054660797 0 0 -1 0
0.12601757 0.082337253 -0.054660801 0 0 -1 0
0.23439264 0.082370266 -0.054660801 0 0 -1 0
0.16984583 0.082524091 -0.054660801 0 0 -1 0
0.29159912 0.082563788 -0.054660797 0 0 -1 0
0.0085403398 0.082914867 -0.054660797 0 0 -1 0
0.070781872 0.082953565 -0.054660797 0 0 -1 0
0.097576194 0.082842968 -0.054660797 0 0 -1 0
0.10750592 0.082784057 -0.054660801 0 0 -1 0
0.15493576 0.082768805 -0.054660801 0 0 -1 0
0.12004547 0.083219469 -0.054660805 0 0 -1 0
0.066973798 0.083314747 -0.054660805 0 0 -1 0
0.18407229 0.083387807 -0.054660801 0 0 -1 0
0.2192637 0.083367728 -0.054660797 0 0 -1 0
0.27312297 0.083275966 -0.054660805 0 0 -1 0
0.12993313 0.083826616 -0.054660805 0 0 -1 0
0.21485232 0.083775349 -0.054660805 0 0 -1 0
0.17357996 0.084343538 -0.054660801 0 0 -1 0
0.26804531 0.084383674 -0.054660805 0 0 -1 0
0.29670131 0.084394857 -0.054660801 0 0 -1 0
0.17022935 0.08451426 -0.054660797 0 0 -1 0
0.12938049 0.084842637 -0.054660801 0 0 -1 0
0.21811512 0.084907956 -0.054660801 0 0 -1 0
0.027091343 0.085130528 -0.054660805 0 0 -1 0
0.15553035 0.0850389 -0.054660805 0 0 -1 0
0.0038095568 0.085487917 -0.054660805 0 0 -1 0
0.27595451 0.085413195 -0.054660801 0 0 -1 0
0.22015938 0.085627496 -0.054660801 0 0 -1 0
0.039964065 0.086184405 -0.054660801 0 0 -1 0
0.21493356 0.086231135 -0.054660797 0 0 -1 0
0.084410131 0.086426787 -0.054660805 0 0 -1 0
0.038403679 0.086716212 -0.054660797 0 0 -1 0
0.17589381 0.08662422 -0.054660801 0 0 -1 0
0.0085809017 0.086850286 -0.054660805 0 0 -1 0
0.074525714 0.087159544 -0.054660801 0 0 -1 0
0.31493598 0.087095179 -0.054660797 0 0 -1 0
0.081315793 0.087323897 -0.054660801 0 0 -1 0
0.1613597 0.087375395 -0.054660805 0 0 -1 0
0.1873323 0.08729054 -0.054660805 0 0 -1 0
0.07433828 0.087554902 -0.054660797 0 0 -1 0
0.15597358 0.087744534 -0.054660805 0 0 -1 0
0.19787908 0.087644324 -0.054660805 0 0 -1 0
0.30719599 0.087621301 -0.054660801 0 0 -1 0
0.0057167467 0.087865725 -0.054660801 0 0 -1 0
0.020243617 0.088026419 -0.054660801 0 0 -1 0
0.023691392 0.088192485 -0.054660797 0 0 -1 0
0.18427238 0.088042758 -0.054660805 0 0 -1 0
0.012580573 0.088662811 -0.054660805 0 0 -1 0
0.079613 0.088739485 -0.054660797 0 0 -1 0
0.26055902 0.088663235 -0.054660805 0 0 -1 0
0.0033550477 0.088830389 -0.054660801 0 0 -1 0
0.10954889 0.089212805 -0.054660805 0 0 -1 0
0.15713717 0.089000702 -0.054660805 0 0 -1 0
0.16466549 0.089070141 -0.054660797 0 0 -1 0
0.0025124585 0.089516774 -0.054660797 0 0 -1 0
0.28289071 0.089575909 -0.054660805 0 0 -1 0
0.079933964 0.089906298 -0.054660801 0 0 -1 0
0.10142304 0.089917339 -0.054660801 0 0 -1 0
0.22285704 0.089921027 -0.054660801 0 0 -1 0
0.30118614 0.089836776 -0.054660805 0 0 -1 0
0.30910718 0.089864768 -0.054660805 0 0 -1 0
0.044966459 0.090392545 -0.054660797 0 0 -1 0
0.054487657 0.090352289 -0.054660797 0 0 -1 0
0.070367016 0.090698928 -0.054660805 0 0 -1 0
0.25602859 0.090630941 -0.054660801 0 0 -1 0
0.25867835 0.09073171 -0.054660805 0 0 -1 0
0.057642844 0.090985633 -0.054660805 0 0 -1 0
0.16167386 0.090953514 -0.054660797 0 0 -1 0
0.19714876 0.090978414 -0.054660797 0 0 -1 0
0.27347314 0.090819567 -0.054660797 0 0 -1 0
0.28638002 0.090870179 -0.054660801 0 0 -1 0
0.27233082 0.091144949 -0.054660801 0 0 -1 0
0.040794633 0.091472015 -0.054660797 0 0 -1 0
0.056345731 0.091867097 -0.054660797 0 0 -1 0
0.18112884 0.091981843 -0.054660797 0 0 -1 0
0.18286902 0.091969728 -0.054660797 0 0 -1 0
0.21371791 0.091769829 -0.054660797 0 0 -1 0
0.28835657 0.091965765 -0.054660805 0 0 -1 0
0.29593152 0.091900557 -0.054660801 0 0 -1 0
0.037669409 0.092220604 -0.054660805 0 0 -1 0
0.17843965 0.092167132 -0.054660805 0 0 -1 0
0.20608921 0.092044912 -0.054660801 0 0 -1 0
0.25714782 0.092131108 -0.054660801 0 0 -1 0
0.21304677 0.092322692 -0.054660797 0 0 -1 0
0.24019571 0.09246105 -0.054660801 0 0 -1 0
0.10413098 0.092770845 -0.054660801 0 0 -1 0
0.26186463 0.092934906 -0.054660801 0 0 -1 0
0.22154102 0.093034729 -0.054660801 0 0 -1 0
0.13221949 0.093592316 -0.054660805 0 0 -1 0
0.14009573 0.09360899 -0.054660801 0 0 -1 0
0.30057633 0.093600236 -0.054660797 0 0 -1 0
0.29870448 0.093930259 -0.054660797 0 0 -1 0
0.096878193 0.094479181 -0.054660805 0 0 -1 0
0.12807454 0.094341621 -0.054660801 0 0 -1 0
0.1623152 0.094381228 -0.054660797 0 0 -1 0
0.25492772 0.094402239 -0.054660801 0 0 -1 0
0.0070128334 0.094853394 -0.054660801 0 0 -1 0
0.047859557 0.094885327 -0.054660805 0 0 -1 0
0.081224293 0.094873711 -0.054660797 0 0 -1 0
0.085545458 0.094859719 -0.054660797 0 0 -1 0
0.10577442 0.094770789 -0.054660805 0 0 -1 0
0.14896104 0.094862662 -0.054660797 0 0 -1 0
0.16588201 0.094937563 -0.054660805 0 0 -1 0
0.19957018 0.094882369 -0.054660797 0 0 -1 0
0.28489551 0.095116444 -0.054660801 0 0 -1 0
0.08863996 0.095409706 -0.054660797 0 0 -1 0
0.12911214 0.095424131 -0.054660805 0 0 -1 0
0.30925485 0.095380999 -0.054660801 0 0 -1 0
0.14867759 0.095683202 -0.054660805 0 0 -1 0
0.27825162 0.09574616 -0.054660805 0 0 -1 0
0.15776174 0.095896304 -0.054660801 0 0 -1 0
0.23671682 0.095948137 -0.054660801 0 0 -1 0
0.007848653 0.096094608 -0.054660801 0 0 -1 0
0.011718227 0.096175939 -0.054660805 0 0 -1 0
0.11858007 0.096049465 -0.054660801 0 0 -1 0
0.22468753 0.096063852 -0.054660805 0 0 -1 0
0.27860403 0.096166797 -0.054660797 0 0 -1 0
0.13604717 0.096316352 -0.054660805 0 0 -1 0
0.25089329 0.096431524 -0.054660801 0 0 -1 0
0.27272049 0.096383505 -0.054660801 0 0 -1 0
0.044941656 0.096677728 -0.054660801 0 0 -1 0
0.15146814 0.096543729 -0.054660797 0 0 -1 0
0.29392925 0.09673626 -0.054660801 0 0 -1 0
0.041019719 0.096998401 -0.054660801 0 0 -1 0
0.11060727 0.096997842 -0.054660801 0 0 -1 0
0.0031941771 0.097420193 -0.054660801 0 0 -1 0
0.14580819 0.097588859 -0.054660805 0 0 -1 0
0.28293109 0.097804204 -0.054660801 0 0 -1 0
0.27661079 0.098135374 -0.054660801 0 0 -1 0
0.27933636 0.098090202 -0.054660797 0 0 -1 0
0.032466203 0.098472014 -0.054660801 0 0 -1 0
0.13220538 0.098407209 -0.054660801 0 0 -1 0
0.067274481 0.09862113 -0.054660801 0 0 -1 0
0.29704028 0.098565824 -0.054660801 0 0 -1 0
0.22580123 0.09892381 -0.054660797 0 0 -1 0
0.30292389 0.098947428 -0.054660801 0 0 -1 0
0.031205878 0.099171504 -0.054660801 0 0 -1 0
0.23567626 0.099029481 -0.054660801 0 0 -1 0
0.067467101 0.099324204 -0.054660797 0 0 -1 0
0.09168192 0.099453658 -0.054660801 0 0 -1 0
0.1992044 0.099319696 -0.054660805 0 0 -1 0
0.039126169 0.099678189 -0.054660801 0 0 -1 0
0.1051492 0.099737957 -0.054660801 0 0 -1 0
0.093419366 0.099930622 -0.054660801 0 0 -1 0
0.19590396 0.099754021 -0.054660801 0 0 -1 0
0.090972126 0.10019013 -0.054660801 0 0 -1 0
0.094671965 0.10021837 -0.054660797 0 0 -1 0
0.10325763 0.10012303 -0.054660797 0 0 -1 0
0.26043019 0.10000507 -0.054660797 0 0 -1 0
0.06946566 0.10040376 -0.054660801 0 0 -1 0
0.30647627 0.10032085 -0.054660801 0 0 -1 0
0.022130324 0.10081457 -0.054660801 0 0 -1 0
0.18903019 0.10098463 -0.054660797 0 0 -1 0
0.21217205 0.10094107 -0.054660805 0 0 -1 0
0.23041576 0.10090048 -0.054660797 0 0 -1 0
0.26609078 0.10096834 -0.054660801 0 0 -1 0
0.10496794 0.10116468 -0.054660801 0 0 -1 0
0.15717079 0.1011883 -0.054660797 0 0 -1 0
0.011846587 0.10162839 -0.054660797 0 0 -1 0
0.10619248 0.10168585 -0.054660805 0 0 -1 0
0.14405569 0.10155926 -0.054660801 0 0 -1 0
0.27510622 0.10155606 -0.054660801 0 0 -1 0
0.0001163391 0.10189832 -0.054660801 0 0 -1 0
0.25640407 0.10196649 -0.054660801 0 0 -1 0
0.14851922 0.10220847 -0.054660801 0 0 -1 0
0.057276994 0.10230255 -0.054660801 0 0 -1 0
0.28250688 0.10245854 -0.054660801 0 0 -1 0
0.29015771 0.10234895 -0.054660801 0 0 -1 0
0.15333727 0.10276896 -0.054660805 0 0 -1 0
0.23700671 0.1028897 -0.054660797 0 0 -1 0
0.0043741823 0.10311395 -0.054660801 0 0 -1 0
0.24503131 0.10313531 -0.054660801 0 0 -1 0
0.029361347 0.10332623 -0.054660797 0 0 -1 0
0.10064055 0.10346788 -0.054660805 0 0 -1 0
0.18534069 0.10333931 -0.054660805 0 0 -1 0
0.089236811 0.10362191 -0.054660805 0 0 -1 0
0.11951742 0.1036697 -0.054660805 0 0 -1 0
0.13068795 0.10372107 -0.054660805 0 0 -1 0
0.14024816 0.10371728 -0.054660801 0 0 -1 0
0.19531175 0.10369132 -0.054660801 0 0 -1 0
0.12814963 0.10380848 -0.054660805 0 0 -1 0
0.11105007 0.10417154 -0.054660801 0 0 -1 0
0.14721501 0.10407034 -0.054660797 0 0 -1 0
0.22895955 0.10406457 -0.054660801 0 0 -1 0
0.25669676 0.10414384 -0.054660801 0 0 -1 0
0.30518377 0.10410348 -0.054660801 0 0 -1 0
0.26844329 0.10455322 -0.054660801 0 0 -1 0
0.15363944 0.1049553 -0.054660801 0 0 -1 0
0.17866029 0.10476746 -0.054660805 0 0 -1 0
0.011688668 0.10517544 -0.054660801 0 0 -1 0
0.12117043 0.10520639 -0.054660805 0 0 -1 0
0.17707746 0.10520166 -0.054660801 0 0 -1 0
0.0050603328 0.10547473 -0.054660801 0 0 -1 0
0.030602075 0.10540685 -0.054660801 0 0 -1 0
0.29358187 0.10527927 -0.054660801 0 0 -1 0
0.10546234 0.10570243 -0.054660801 0 0 -1 0
0.19023432 0.10572222 -0.054660797 0 0 -1 0
0.039322551 0.10575623 -0.054660801 0 0 -1 0
0.16440332 0.10612854 -0.054660801 0 0 -1 0
0.20961905 0.10603873 -0.054660797 0 0 -1 0
0.2110083 0.10622652 -0.054660797 0 0 -1 0
0.30696934 0.10639949 -0.054660801 0 0 -1 0
0.28036886 0.10667238 -0.054660801 0 0 -1 0
0.011409579 0.1069437 -0.054660797 0 0 -1 0
0.30047092 0.10682082 -0.054660797 0 0 -1 0
0.0033217336 0.10713228 -0.054660797 0 0 -1 0
0.13332205 0.10725368 -0.054660801 0 0 -1 0
0.24194287 0.10745947 -0.054660805 0 0 -1 0
0.091680259 0.10761748 -0.054660797 0 0 -1 0
0.1880514 0.10768189 -0.054660801 0 0 -1 0
0.20991027 0.10771064 -0.054660801 0 0 -1 0
0.24638025 0.10772274 -0.054660805 0 0 -1 0
0.30586493 0.10774642 -0.054660801 0 0 -1 0
0.31743917 0.10796165 -0.054660801 0 0 -1 0
0.078627199 0.10813399 -0.054660805 0 0 -1 0
0.18775636 0.10822465 -0.054660801 0 0 -1 0
0.2210792 0.10826242 -0.054660805 0 0 -1 0
0.22265023 0.1083925 -0.054660805 0 0 -1 0
0.29271513 0.10841791 -0.054660801 0 0 -1 0
0.057682898 0.10862158 -0.054660797 0 0 -1 0
0.090611972 0.10871409 -0.054660801 0 0 -1 0
0.10505255 0.10870019 -0.054660805 0 0 -1 0
0.27125975 0.10868247 -0.054660797 0 0 -1 0
0.033644948 0.10899712 -0.054660801 0 0 -1 0
0.050060075 0.1089386 -0.054660801 0 0 -1 0
0.1955573 0.10880981 -0.054660805 0 0 -1 0
0.011822851 0.10940271 -0.054660805 0 0 -1 0
0.070702232 0.109494 -0.054660801 0 0 -1 0
0.08669813 0.10937292 -0.054660797 0 0 -1 0
0.092655189 0.109891 -0.054660797 0 0 -1 0
0.16209464 0.10995501 -0.054660801 0 0 -1 0
0.21765211 0.1099137 -0.054660801 0 0 -1 0
0.25388017 0.10997659 -0.054660801 0 0 -1 0
0.11015266 0.1101521 -0.054660801 0 0 -1 0
0.29554111 0.11016598 -0.054660801 0 0 -1 0
0.083785176 0.11042902 -0.054660805 0 0 -1 0
0.101677 0.11038812 -0.054660797 0 0 -1 0
0.20810458 0.11047582 -0.054660797 0 0 -1 0
0.22497129 0.11064374 -0.054660801 0 0 -1 0
0.22637545 0.11060731 -0.054660797 0 0 -1 0
0.010047764 0.11093731 -0.054660801 0 0 -1 0
0.13992572 0.11088634 -0.054660801 0 0 -1 0
0.1857304 0.11118718 -0.054660801 0 0 -1 0
0.23935953 0.11116923 -0.054660805 0 0 -1 0
0.015964905 0.11139566 -0.054660805 0 0 -1 0
0.020832142 0.11137451 -0.054660801 0 0 -1 0
0.035682343 0.1114298 -0.054567721 0 1 0 0
0.29320118 0.11133025 -0.054660801 0 0 -1 0
0.00092271954 0 -0.05431094 0 -1 0 0
0.065969393 0 -0.054443862 0 -1 0 0
0.13767834 0 -0.054300524 0 -1 0 0
0.1605998 0 -0.054351646 0 -1 0 0
0.028120955 0.1114298 -0.054462545 0 1 0 0
0.090425655 0.1114298 -0.054339822 0 1 0 0
0.091065563 0.1114298 -0.054259367 0 1 0 0
0.11087107 0.11142981 -0.054451779 0 1 0 0
-2.0793416e-18 0.04224759 -0.054093849 -1 -6.080694e-17 0 0
0.042497486 0.1114298 -0.054152671 0 1 0 0
0.25216565 0.1114298 -0.054136574 0 1 0 0
-3.4664927e-19 0.013752617 -0.053767014 -1 -6.080694e-17 0 0
-4.0803633e-18 0.075155362 -0.053877972 -1 -6.080694e-17 0 0
0.075225838 0.11142981 -0.053780548 0 1 0 0
0.087350577 0.1114298 -0.053844903 0 1 0 0
0.11984736 0.1114298 -0.053853098 0 1 0 0
0.019889472 0 -0.053729363 0 -1 0 0
0.10262052 0 -0.053649314 0 -1 0 0
0.073152252 0.11142981 -0.053506613 0 1 0 0
0.18638398 0.1114298 -0.053701147 0 1 0 0
0.0017296213 0 -0.053423833 0 -1 0 0
0.20032759 0 -0.053266272 0 -1 0 0
-5.7183252e-18 0.10325445 -0.05340362 -1 -5.1765022e-17 1.1500193e-16 0
0.053501312 0.1114298 -0.053256195 0 1 0 0
0.29902935 0.1114298 -0.053264286 0 1 0 0
0.13430461 0 -0.053197082 0 -1 0 0
0.075731933 0.1114298 -0.053109709 0 1 0 0
0.24261054 0.1114298 -0.052979749 0 1 0 0
0.10702615 0 -0.052717514 0 -1 0 0
0.14714262 0 -0.052688267 0 -1 0 0
0.15654144 0 -0.052590515 0 -1 0 0
0.27164197 0 -0.052596379 0 -1 0 0
0.28584456 0 -0.052624557 0 -1 0 0
0.29040414 0 -0.052615978 0 -1 0 0
-9.3907023e-19 0.023495268 -0.052607872 -1 -6.080694e-17 0 0
0.3175 0.026926568 -0.052740358 1 0 0 0
0.3175 0.031782694 -0.0525029 1 0 0 0
-4.6179831e-18 0.083996788 -0.052666463 -1 -6.080694e-17 0 0
0.3175 0.10476687 -0.052681454 1 0 0 0
0.06043924 0.1114298 -0.052634388 0 1 0 0
0.10584711 0.1114298 -0.052706715 0 1 0 0
0.15951246 0.11142981 -0.052606016 0 1 0 0
0.18927714 0.1114298 -0.052576404 0 1 0 0
0.22027224 0 -0.052282229 0 -1 0 0
0.27952847 0 -0.05228094 0 -1 0 0
0.301375 0.1114298 -0.052439339 0 1 0 0
0.043294486 0 -0.052069496 0 -1 0 0
0.046552032 0 -0.052222665 0 -1 0 0
0.092547439 0 -0.052031226 0 -1 0 0
0.12429778 0.11142981 -0.052109018 0 1 0 0
0.1300116 0.1114298 -0.052118883 0 1 0 0
0.23343126 0.11142981 -0.052027561 0 1 0 0
0.2725262 0.1114298 -0.052122332 0 1 0 0
0.2944971 0.1114298 -0.052004933 0 1 0 0
0.27888283 0 -0.05186037 0 -1 0 0
0.3175 0.037768565 -0.0518579 1 0 0 0
0.3175 0.070427969 -0.051788405 1 0 0 0
0.3175 0.088444203 -0.051869087 1 0 0 0
0.26001376 0.1114298 -0.05194445 0 1 0 0
0.28287983 0.11142981 -0.051778909 0 1 0 0
0.0090833316 0 -0.051575981 0 -1 0 0
0.3175 0.025481913 -0.051681291 1 0 0 0
0.3175 0.057118393 -0.05160249 1 0 0 0
-3.8103897e-18 0.070715524 -0.051555581 -1 -6.080694e-17 0 0
-5.8918859e-18 0.11049496 -0.051653698 -1 -5.1765022e-17 1.1500193e-16 0
0.05719417 0 -0.051296666 0 -1 0 0
0.11883425 0 -0.051357161 0 -1 0 0
-4.2543537e-18 0.079229124 -0.051488001 -1 -5.1765022e-17 1.1500193e-16 0
-4.4565501e-18 0.083508164 -0.051320113 -1 -5.1765022e-17 1.1500193e-16 0
0.18288231 0.1114298 -0.051291417 0 1 0 0
0.18526796 0.1114298 -0.051329743 0 1 0 0
0.042371709 0 -0.05124731 0 -1 0 0
0.077706166 0 -0.05104427 0 -1 0 0
0.3175 0.0081289578 -0.051238079 1 0 0 0
-5.0488929e-18 0.09520793 -0.051204491 -1 -5.1765022e-17 1.1500193e-16 0
0.011774708 0.11142981 -0.051232956 0 1 0 0
0.1002846 0.1114298 -0.051186256 0 1 0 0
0.24854133 0.1114298 -0.051247753 0 1 0 0
0.080562152 0 -0.050952744 0 -1 0 0
0.1685984 0 -0.050562613 0 -1 0 0
0.23309089 0 -0.05053626 0 -1 0 0
0.28462869 0 -0.050553896 0 -1 0 0
0.3175 0.018079855 -0.050566018 1 0 0 0
0.3175 0.085777409 -0.050615601 1 0 0 0
0.015885001 0.1114298 -0.050551541 0 1 0 0
0.029013455 0.1114298 -0.05066742 0 1 0 0
0.15695135 0.1114298 -0.050581466 0 1 0 0
0.10849941 0 -0.050445423 0 -1 0 0
0.31162325 0 -0.050420877 0 -1 0 0
0.12248623 0.1114298 -0.050387233 0 1 0 0
0.12876101 0.1114298 -0.050290182 0 1 0 0
0.023039525 0 -0.050122958 0 -1 0 0
0.18561746 0 -0.050162349 0 -1 0 0
0.19155912 0 -0.050230496 0 -1 0 0
0.25805128 0 -0.05024939 0 -1 0 0
0.3175 0.031784352 -0.050165225 1 0 0 0
0.12946181 0.1114298 -0.050184749 0 1 0 0
0.25193465 0.1114298 -0.050169982 0 1 0 0
-3.7555381e-18 0.07301759 -0.049946502 -1 -5.1765022e-17 1.1500193e-16 0
0.040470835 0.1114298 -0.049886085 0 1 0 0
0.098673798 0.11142981 -0.049837716 0 1 0 0
0.1091768 0.1114298 -0.049943682 0 1 0 0
0.1401028 0.1114298 -0.04978916 0 1 0 0
0.18250187 0.1114298 -0.049971405 0 1 0 0
0.20893469 0.1114298 -0.049961157 0 1 0 0
0.26243442 0.1114298 -0.049927987 0 1 0 0
0.27510667 0.1114298 -0.049761474 0 1 0 0
0.034647439 0 -0.049604829 0 -1 0 0
0.086161993 0 -0.049610108 0 -1 0 0
0.22462747 0 -0.049582824 0 -1 0 0
0.26636294 0 -0.049717583 0 -1 0 0
-7.0205067e-20 0.0092063565 -0.049749903 -1 -6.080694e-17 0 0
-4.1868483e-18 0.082133256 -0.049593791 -1 -5.1765022e-17 1.1500193e-16 0
0.018470431 0.1114298 -0.049509298 0 1 0 0
0.03712457 0.1114298 -0.049698811 0 1 0 0
0.047080141 0.1114298 -0.04951328 0 1 0 0
0.21617001 0.11142981 -0.049541038 0 1 0 0
0.30346474 0.1114298 -0.04958206 0 1 0 0
0.00040055544 0 -0.049301092 0 -1 0 0
0.098550148 0 -0.049301717 0 -1 0 0
0.16948727 0 -0.049284622 0 -1 0 0
0.21784151 0 -0.049488269 0 -1 0 0
0.24650308 0 -0.049391069 0 -1 0 0
0.14255822 0.11142981 -0.049475498 0 1 0 0
0.23148486 0.1114298 -0.049475528 0 1 0 0
0.29777646 0.1114298 -0.049352147 0 1 0 0
0.1204244 0 -0.049053077 0 -1 0 0
-1.7895122e-18 0.037481204 -0.049202077 -1 -6.080694e-17 0 0
0.3175 0.040503237 -0.049157888 1 0 0 0
0.3175 0.069204345 -0.049133684 1 0 0 0
0.032079332 0.1114298 -0.049142405 0 1 0 0
0.14963169 0.11142981 -0.049121149 0 1 0 0
0.062520802 0 -0.048793692 0 -1 0 0
-3.3089214e-18 0.066650756 -0.048928797 -1 -5.1765022e-17 1.1500193e-16 0
0.040385421 0.11142981 -0.048909511 0 1 0 0
0.068550654 0 -0.048702963 0 -1 0 0
0.14026718 0 -0.04873639 0 -1 0 0
0.31503397 0 -0.048501749 0 -1 0 0
0.3175 0.049013782 -0.048563067 1 0 0 0
0.27652621 0.1114298 -0.048537567 0 1 0 0
0.29517663 0.11142981 -0.048663653 0 1 0 0
0.15390423 0.11142981 -0.048437249 0 1 0 0
0.25323707 0.11142981 -0.048422582 0 1 0 0
0.28454396 0.1114298 -0.048271321 0 1 0 0
0.014675589 0 -0.048140105 0 -1 0 0
0.125415 0 -0.048176266 0 -1 0 0
0.3175 0.020604815 -0.048181631 1 0 0 0
-2.6122815e-18 0.054953501 -0.048136372 -1 -5.1765022e-17 1.1500193e-16 0
-4.9086494e-18 0.099503927 -0.048051275 -1 -5.1765022e-17 1.1500193e-16 0
0.08768601 0.1114298 -0.048237368 0 1 0 0
0.20822468 0.1114298 -0.048012104 0 1 0 0
0.051893897 0 -0.047867216 0 -1 0 0
0.097182095 0 -0.047847524 0 -1 0 0
0.3175 0.053619187 -0.047859132 1 0 0 0
0.3175 0.08459051 -0.047865931 1 0 0 0
0.13033023 0.1114298 -0.047947034 0 1 0 0
0.18986538 0.1114298 -0.047880046 0 1 0 0
0.27928987 0.1114298 -0.047994938 0 1 0 0
0.042236909 0 -0.047553837 0 -1 0 0
0.1869465 0.1114298 -0.04750862 0 1 0 0
0.23893204 0.11142981 -0.047612987 0 1 0 0
0.2463266 0.1114298 -0.047742717 0 1 0 0
0.27007771 0.1114298 -0.047524571 0 1 0 0
0.1650524 0 -0.047299705 0 -1 0 0
0.24177364 0 -0.047356211 0 -1 0 0
0.31750003 0.027902488 -0.047399674 1 0 0 0
0.13551401 0.1114298 -0.047413945 0 1 0 0
0.065724395 0 -0.047150958 0 -1 0 0
0.3175 0.10448801 -0.047029771 1 0 0 0
0.038526766 0.1114298 -0.047001362 0 1 0 0
0.085629538 0 -0.046892989 0 -1 0 0
0.18720667 0 -0.046824753 0 -1 0 0
0.14212455 0.11142981 -0.046822492 0 1 0 0
0.27594113 0.1114298 -0.046866734 0 1 0 0
0.14579839 0 -0.04661471 0 -1 0 0
0.21971403 0.0081734015 -0.046532799 0 0 1 0
0.036218058 0.0083115343 -0.046532799 0 0 1 0
0.043688398 0.0086450409 -0.046532799 0 0 1 0
0.04751664 0.0087263752 -0.046532799 0 0 1 0
0.0018683154 0.0087794838 -0.046532799 0 0 1 0
0.040804826 0.0089801587 -0.046532795 0 0 1 0
0.087901585 0.0092126457 -0.046532799 0 0 1 0
0.3022069 0.009092859 -0.046532799 0 0 1 0
0.2135226 0.0093820244 -0.046532799 0 0 1 0
0.097340047 0.0097381901 -0.046532799 0 0 1 0
0.11728248 0.0097634774 -0.046532799 0 0 1 0
0.15483233 0.010157559 -0.046532802 0 0 1 0
0.038789876 0.010298325 -0.046532799 0 0 1 0
0.10304616 0.010263626 -0.046532802 0 0 1 0
0.24762671 0.010339001 -0.046532799 0 0 1 0
0.18472415 0.010590523 -0.046532799 0 0 1 0
0.21196914 0.010629184 -0.046532799 0 0 1 0
0.076231211 0.010995725 -0.046532799 0 0 1 0
0.24614006 0.010851506 -0.046532795 0 0 1 0
0.26214814 0.010756196 -0.046532802 0 0 1 0
0.31733468 0.010841805 -0.046532799 0 0 1 0
0.068525225 0.011009171 -0.046532799 0 0 1 0
0.097954921 0.011080045 -0.046532799 0 0 1 0
0.20033491 0.011244824 -0.046532799 0 0 1 0
0.0015926668 0.011464023 -0.046532799 0 0 1 0
0.13482471 0.011277637 -0.046532799 0 0 1 0
0.027266985 0.011719141 -0.046532802 0 0 1 0
0.22229575 0.011602944 -0.046532799 0 0 1 0
0.26790014 0.011603748 -0.046532799 0 0 1 0
0.19857877 0.011866782 -0.046532795 0 0 1 0
0.28957179 0.011915993 -0.046532802 0 0 1 0
0.12793393 0.012146951 -0.046532799 0 0 1 0
0.27218959 0.012158783 -0.046532799 0 0 1 0
0.054008432 0.012461446 -0.046532799 0 0 1 0
0.14894831 0.012365919 -0.046532795 0 0 1 0
0.31346241 0.012288943 -0.046532799 0 0 1 0
0.072129108 0.012639345 -0.046532799 0 0 1 0
0.21829785 0.012694727 -0.046532795 0 0 1 0
0.21432018 0.013061309 -0.046532799 0 0 1 0
0.10360061 0.013327114 -0.046532799 0 0 1 0
0.26254308 0.013252504 -0.046532795 0 0 1 0
0.2926074 0.013314675 -0.046532799 0 0 1 0
0.040333457 0.013627488 -0.046532795 0 0 1 0
0.19538958 0.013710296 -0.046532799 0 0 1 0
0.19610943 0.013909972 -0.046532799 0 0 1 0
0.049745794 0.014242932 -0.046532799 0 0 1 0
0.097102366 0.014194597 -0.046532799 0 0 1 0
0.14967369 0.014249926 -0.046532799 0 0 1 0
0.23278147 0.014126018 -0.046532799 0 0 1 0
0.24365759 0.014175327 -0.046532799 0 0 1 0
0.15047081 0.014452606 -0.046532799 0 0 1 0
0.11115383 0.014563371 -0.046532799 0 0 1 0
0.15028894 0.014669178 -0.046532799 0 0 1 0
0.2977522 0.014719653 -0.046532795 0 0 1 0
0.24972506 0.014823366 -0.046532799 0 0 1 0
0.2851668 0.014913844 -0.046532799 0 0 1 0
0.028985851 0.015206533 -0.046532799 0 0 1 0
0.21572398 0.015209512 -0.046532795 0 0 1 0
0.221241 0.015434387 -0.046532799 0 0 1 0
0.12474221 0.015629414 -0.046532795 0 0 1 0
0.19318986 0.015622219 -0.046532799 0 0 1 0
0.056243837 0.015776524 -0.046532795 0 0 1 0
0.12579843 0.016220044 -0.046532799 0 0 1 0
0.092414469 0.016374011 -0.046532802 0 0 1 0
0.11440463 0.016317388 -0.046532799 0 0 1 0
0.17986332 0.016432129 -0.046532799 0 0 1 0
0.2625111 0.016416598 -0.046532802 0 0 1 0
0.058725182 0.017060919 -0.046532799 0 0 1 0
0.18024147 0.017048232 -0.046532799 0 0 1 0
0.11593668 0.017358351 -0.046532799 0 0 1 0
0.19722554 0.01757336 -0.046532799 0 0 1 0
0.20974419 0.017563704 -0.046532795 0 0 1 0
0.058595859 0.018218718 -0.046532799 0 0 1 0
0.19912934 0.018032124 -0.046532802 0 0 1 0
0.2458818 0.018140484 -0.046532802 0 0 1 0
0.27066776 0.018224737 -0.046532795 0 0 1 0
0.28166723 0.018150454 -0.046532799 0 0 1 0
0.28629977 0.018158846 -0.046532795 0 0 1 0
0.23033369 0.018369591 -0.046532799 0 0 1 0
0.31473327 0.018617246 -0.046532799 0 0 1 0
0.014171974 0.019311223 -0.046532799 0 0 1 0
0.051351786 0.019379195 -0.046532795 0 0 1 0
0.075447544 0.019331587 -0.046532799 0 0 1 0
0.14099184 0.019314928 -0.046532799 0 0 1 0
0.18953438 0.019268693 -0.046532799 0 0 1 0
0.12233588 0.01958869 -0.046532802 0 0 1 0
0.19374914 0.019515947 -0.046532799 0 0 1 0
0.068886578 0.019972663 -0.046532799 0 0 1 0
0.2292273 0.019755807 -0.046532799 0 0 1 0
0.21200383 0.020097071 -0.046532799 0 0 1 0
0.0287393 0.02078223 -0.046532799 0 0 1 0
0.20231789 0.020941138 -0.046532799 0 0 1 0
0.21039493 0.020772202 -0.046532799 0 0 1 0
0.21106029 0.020946758 -0.046532799 0 0 1 0
0.21412724 0.020784266 -0.046532799 0 0 1 0
0.25877815 0.020789457 -0.046532802 0 0 1 0
0.29939052 0.020995516 -0.046532799 0 0 1 0
0.015947411 0.021182593 -0.046532795 0 0 1 0
0.092641585 0.021216016 -0.046532795 0 0 1 0
0.19607407 0.021120535 -0.046532802 0 0 1 0
0.316091 0.021208227 -0.046532799 0 0 1 0
0.18583496 0.021615455 -0.046532795 0 0 1 0
0.19035453 0.021686563 -0.046532799 0 0 1 0
0.22376549 0.021732301 -0.046532799 0 0 1 0
0.23892324 0.02174855 -0.046532799 0 0 1 0
0.26823685 0.021749552 -0.046532799 0 0 1 0
0.23118848 0.021881189 -0.046532799 0 0 1 0
0.071760297 0.022350568 -0.046532799 0 0 1 0
0.086207435 0.022258595 -0.046532795 0 0 1 0
0.24595365 0.022318751 -0.046532799 0 0 1 0
0.28384459 0.022315219 -0.046532799 0 0 1 0
0.29757547 0.022471808 -0.046532802 0 0 1 0
0.074106865 0.022592038 -0.046532799 0 0 1 0
0.22678035 0.022531161 -0.046532802 0 0 1 0
0.060495563 0.022968508 -0.046532799 0 0 1 0
0.13266329 0.022846505 -0.046532799 0 0 1 0
0.17969903 0.022955084 -0.046532799 0 0 1 0
0.15590294 0.023347987 -0.046532795 0 0 1 0
0.2111015 0.023262667 -0.046532802 0 0 1 0
0.019855238 0.023539668 -0.046532799 0 0 1 0
0.039330754 0.023716338 -0.046532799 0 0 1 0
0.24416301 0.023645042 -0.046532802 0 0 1 0
0.01969959 0.023870146 -0.046532799 0 0 1 0
0.24048185 0.023977969 -0.046532799 0 0 1 0
0.11578546 0.024180796 -0.046532799 0 0 1 0
0.14661504 0.024053367 -0.046532802 0 0 1 0
0.18803805 0.02418009 -0.046532802 0 0 1 0
0.020127239 0.024306376 -0.046532799 0 0 1 0
0.15859674 0.024283264 -0.046532799 0 0 1 0
0.1564665 0.024536502 -0.046532795 0 0 1 0
0.044285722 0.025671832 -0.046532799 0 0 1 0
0.31203333 0.02599179 -0.046532799 0 0 1 0
0.23607352 0.026477883 -0.046532799 0 0 1 0
0.29062971 0.026422372 -0.046532802 0 0 1 0
0.30827618 0.026325367 -0.046532799 0 0 1 0
0.20582932 0.026671132 -0.046532799 0 0 1 0
0.060123745 0.026817858 -0.046532795 0 0 1 0
0.099697322 0.026873101 -0.046532799 0 0 1 0
0.12323945 0.026939223 -0.046532795 0 0 1 0
0.27051291 0.026839353 -0.046532799 0 0 1 0
0.0011189508 0.027233291 -0.046532799 0 0 1 0
0.045713466 0.027222412 -0.046532795 0 0 1 0
0.064724661 0.027237417 -0.046532799 0 0 1 0
0.11477251 0.027139232 -0.046532802 0 0 1 0
0.15319881 0.027015131 -0.046532795 0 0 1 0
0.10351881 0.027617043 -0.046532795 0 0 1 0
0.11642203 0.027547812 -0.046532799 0 0 1 0
0.11822205 0.027684765 -0.046532799 0 0 1 0
0.13570137 0.027692465 -0.046532799 0 0 1 0
0.20046985 0.027741468 -0.046532799 0 0 1 0
0.11161888 0.027798869 -0.046532799 0 0 1 0
0.02186485 0.028118275 -0.046532799 0 0 1 0
0.15249392 0.028182145 -0.046532799 0 0 1 0
0.17594478 0.028030401 -0.046532799 0 0 1 0
0.054245584 0.028498279 -0.046532799 0 0 1 0
0.067921609 0.028382003 -0.046532799 0 0 1 0
0.14114971 0.028484138 -0.046532795 0 0 1 0
0.053795829 0.028615842 -0.046532799 0 0 1 0
0.19372982 0.028642122 -0.046532799 0 0 1 0
0.045672402 0.028909214 -0.046532795 0 0 1 0
0.24006891 0.028825151 -0.046532799 0 0 1 0
0.25901854 0.02890062 -0.046532795 0 0 1 0
0.2531043 0.029026732 -0.046532802 0 0 1 0
0.14103851 0.02938213 -0.046532799 0 0 1 0
0.29593143 0.029404361 -0.046532799 0 0 1 0
0.077680521 0.02967781 -0.046532802 0 0 1 0
0.038040966 0.02983137 -0.046532799 0 0 1 0
0.14477138 0.029912382 -0.046532799 0 0 1 0
0.014397119 0.030236231 -0.046532799 0 0 1 0
0.25627601 0.03008334 -0.046532795 0 0 1 0
0.27230579 0.030345213 -0.046532802 0 0 1 0
0.039065633 0.030575585 -0.046532799 0 0 1 0
0.040367067 0.030593554 -0.046532799 0 0 1 0
0.20514216 0.030545723 -0.046532799 0 0 1 0
0.26434523 0.030574104 -0.046532802 0 0 1 0
0.26494932 0.030640852 -0.046532795 0 0 1 0
0.044561896 0.03080258 -0.046532799 0 0 1 0
0.081990786 0.030799208 -0.046532802 0 0 1 0
0.11536278 0.030880012 -0.046532799 0 0 1 0
0.22796926 0.030779619 -0.046532799 0 0 1 0
0.22537947 0.031088594 -0.046532799 0 0 1 0
0.15662956 0.031291049 -0.046532799 0 0 1 0
0.3032957 0.031406336 -0.046532799 0 0 1 0
0.070213608 0.031586897 -0.046532802 0 0 1 0
0.090661742 0.031502724 -0.046532795 0 0 1 0
0.096827552 0.031859692 -0.046532802 0 0 1 0
0.29103115 0.031766176 -0.046532799 0 0 1 0
0.053251535 0.032129113 -0.046532799 0 0 1 0
0.094560459 0.032074496 -0.046532799 0 0 1 0
0.099719875 0.0320215 -0.046532799 0 0 1 0
0.20624021 0.032363694 -0.046532799 0 0 1 0
0.013713595 0.032645684 -0.046532799 0 0 1 0
0.22267923 0.032629602 -0.046532799 0 0 1 0
0.22398263 0.032698158 -0.046532799 0 0 1 0
0.096847303 0.032897532 -0.046532799 0 0 1 0
0.020732492 0.033076223 -0.046532799 0 0 1 0
0.025606107 0.033128291 -0.046532799 0 0 1 0
0.037982859 0.033128381 -0.046532799 0 0 1 0
0.066792957 0.033085212 -0.046532799 0 0 1 0
0.2986185 0.033081912 -0.046532799 0 0 1 0
0.29962587 0.033008136 -0.046532795 0 0 1 0
0.037564419 0.03333842 -0.046532799 0 0 1 0
0.078409009 0.033312034 -0.046532799 0 0 1 0
0.15631519 0.033359289 -0.046532795 0 0 1 0
0.060920466 0.033501871 -0.046532799 0 0 1 0
0.11022417 0.033853069 -0.046532799 0 0 1 0
0.19000809 0.033820666 -0.046532799 0 0 1 0
0.19885059 0.033838246 -0.046532795 0 0 1 0
0.23900631 0.03413019 -0.046532802 0 0 1 0
0.29543343 0.034119438 -0.046532799 0 0 1 0
0.016217886 0.034267962 -0.046532799 0 0 1 0
0.11817423 0.034453437 -0.046532802 0 0 1 0
0.20661011 0.034296915 -0.046532795 0 0 1 0
0.25596651 0.034309722 -0.046532799 0 0 1 0
0.14076778 0.034723032 -0.046532799 0 0 1 0
0.31479743 0.034750719 -0.046532795 0 0 1 0
0.074187346 0.035292834 -0.046532799 0 0 1 0
0.081837654 0.035291698 -0.046532799 0 0 1 0
0.18050563 0.035414733 -0.046532799 0 0 1 0
0.23825134 0.035473794 -0.046532799 0 0 1 0
0.053152069 0.036254123 -0.046532795 0 0 1 0
0.18182376 0.036494639 -0.046532799 0 0 1 0
0.27389911 0.036346834 -0.046532802 0 0 1 0
0.27955565 0.036460895 -0.046532799 0 0 1 0
0.075624637 0.036652405 -0.046532795 0 0 1 0
0.059298977 0.036847614 -0.046532795 0 0 1 0
0.080968723 0.037002463 -0.046532799 0 0 1 0
0.24654955 0.037185706 -0.046532802 0 0 1 0
0.26172236 0.037197948 -0.046532799 0 0 1 0
0.035732687 0.037726428 -0.046532799 0 0 1 0
0.20507532 0.037523482 -0.046532799 0 0 1 0
0.038242128 0.037896112 -0.046532799 0 0 1 0
0.098685257 0.037839409 -0.046532799 0 0 1 0
0.15576893 0.037855413 -0.046532799 0 0 1 0
0.1972079 0.037864752 -0.046532799 0 0 1 0
0.25884986 0.037757378 -0.046532795 0 0 1 0
0.075145222 0.038144574 -0.046532799 0 0 1 0
0.28875804 0.038202353 -0.046532799 0 0 1 0
0.031209517 0.038487397 -0.046532799 0 0 1 0
0.2029127 0.038401153 -0.046532799 0 0 1 0
0.14245112 0.038670279 -0.046532799 0 0 1 0
0.31276846 0.038573343 -0.046532799 0 0 1 0
0.31451586 0.03879337 -0.046532799 0 0 1 0
0.031317495 0.039153032 -0.046532799 0 0 1 0
0.063340105 0.039137494 -0.046532802 0 0 1 0
0.17962265 0.039230999 -0.046532799 0 0 1 0
0.2905637 0.039176941 -0.046532799 0 0 1 0
0.29220527 0.039113961 -0.046532799 0 0 1 0
0.066455118 0.039454672 -0.046532802 0 0 1 0
0.25072843 0.039419577 -0.046532799 0 0 1 0
0.097013354 0.039714508 -0.046532799 0 0 1 0
0.012777301 0.039804652 -0.046532799 0 0 1 0
0.021722363 0.039772905 -0.046532799 0 0 1 0
0.21567667 0.039803624 -0.046532795 0 0 1 0
0.23746997 0.039840356 -0.046532795 0 0 1 0
0.030485319 0.04022276 -0.046532799 0 0 1 0
0.021547893 0.040351108 -0.046532799 0 0 1 0
0.14166325 0.040312413 -0.046532795 0 0 1 0
0.15688066 0.04031533 -0.046532799 0 0 1 0
0.051125508 0.040702209 -0.046532802 0 0 1 0
0.17552866 0.040522762 -0.046532799 0 0 1 0
0.29691792 0.040650092 -0.046532799 0 0 1 0
0.039392315 0.040843416 -0.046532799 0 0 1 0
0.13922222 0.040925615 -0.046532799 0 0 1 0
0.22065482 0.041064724 -0.046532795 0 0 1 0
0.10456237 0.041496761 -0.046532799 0 0 1 0
0.14904359 0.041325249 -0.046532799 0 0 1 0
0.21872029 0.041428708 -0.046532799 0 0 1 0
0.29357111 0.041412316 -0.046532795 0 0 1 0
0.054133266 0.041716706 -0.046532802 0 0 1 0
0.12458643 0.041505329 -0.046532799 0 0 1 0
0.14802901 0.041578103 -0.046532799 0 0 1 0
0.19132721 0.041581325 -0.046532802 0 0 1 0
0.15542606 0.042235974 -0.046532799 0 0 1 0
0.28573722 0.042116228 -0.046532802 0 0 1 0
0.21887411 0.042272311 -0.046532799 0 0 1 0
0.25664204 0.042663626 -0.046532799 0 0 1 0
0.06076391 0.04282292 -0.046532799 0 0 1 0
0.090952478 0.042873111 -0.046532795 0 0 1 0
0.19173184 0.042962059 -0.046532799 0 0 1 0
0.048009515 0.043128837 -0.046532799 0 0 1 0
0.12643364 0.043365888 -0.046532795 0 0 1 0
0.1389026 0.043426424 -0.046532799 0 0 1 0
0.17574303 0.043334972 -0.046532799 0 0 1 0
0.040532585 0.043504134 -0.046532802 0 0 1 0
0.081733704 0.043737918 -0.046532802 0 0 1 0
0.088996194 0.043940023 -0.046532802 0 0 1 0
0.30556118 0.043856442 -0.046532795 0 0 1 0
0.16031967 0.044197507 -0.046532799 0 0 1 0
0.20859236 0.04403501 -0.046532795 0 0 1 0
0.25256014 0.044147655 -0.046532799 0 0 1 0
0.25987172 0.04411082 -0.046532799 0 0 1 0
0.042948402 0.044361372 -0.046532799 0 0 1 0
0.045439083 0.044442669 -0.046532799 0 0 1 0
0.12074867 0.044535439 -0.046532795 0 0 1 0
0.2375266 0.044598836 -0.046532799 0 0 1 0
0.23833498 0.044621781 -0.046532799 0 0 1 0
0.14911443 0.044961222 -0.046532799 0 0 1 0
0.24732393 0.044967905 -0.046532799 0 0 1 0
0.11096963 0.04517382 -0.046532799 0 0 1 0
0.24594381 0.045468953 -0.046532799 0 0 1 0
0.061210595 0.045522485 -0.046532802 0 0 1 0
0.15096557 0.04550194 -0.046532799 0 0 1 0
0.26646245 0.046319366 -0.046532802 0 0 1 0
0.27339175 0.046361428 -0.046532799 0 0 1 0
0.29690707 0.04649483 -0.046532799 0 0 1 0
0.31006116 0.046730667 -0.046532799 0 0 1 0
0.077675201 0.046902329 -0.046532799 0 0 1 0
0.29416111 0.046960488 -0.046532799 0 0 1 0
0.074983597 0.047054224 -0.046532799 0 0 1 0
0.24161802 0.047330406 -0.046532799 0 0 1 0
0.28202131 0.0474023 -0.046532799 0 0 1 0
0.31189406 0.047423847 -0.046532799 0 0 1 0
0.084267959 0.047737066 -0.046532799 0 0 1 0
0.19098499 0.047683325 -0.046532799 0 0 1 0
0.19091202 0.047879085 -0.046532795 0 0 1 0
0.2435486 0.047773696 -0.046532802 0 0 1 0
0.10628801 0.048146982 -0.046532799 0 0 1 0
0.12099034 0.048249193 -0.046532799 0 0 1 0
0.036300946 0.048373472 -0.046532799 0 0 1 0
0.22626287 0.048443813 -0.046532799 0 0 1 0
0.23223281 0.04837149 -0.046532802 0 0 1 0
0.082289033 0.048682492 -0.046532795 0 0 1 0
0.12027088 0.04853547 -0.046532799 0 0 1 0
0.19974026 0.048517451 -0.046532799 0 0 1 0
0.31278837 0.048559017 -0.046532799 0 0 1 0
0.1121192 0.048966736 -0.046532799 0 0 1 0
0.18763784 0.048897464 -0.046532795 0 0 1 0
0.22577843 0.048752271 -0.046532799 0 0 1 0
0.31253427 0.048939731 -0.046532799 0 0 1 0
0.10466957 0.049216218 -0.046532795 0 0 1 0
0.019538013 0.049310565 -0.046532799 0 0 1 0
0.18280594 0.049356136 -0.046532795 0 0 1 0
0.28523076 0.049265403 -0.046532799 0 0 1 0
0.066059887 0.049558565 -0.046532802 0 0 1 0
0.28296596 0.049536072 -0.046532799 0 0 1 0
0.066919193 0.049932297 -0.046532799 0 0 1 0
0.11070292 0.049992476 -0.046532802 0 0 1 0
0.099945992 0.050129022 -0.046532799 0 0 1 0
0.31155947 0.050103091 -0.046532799 0 0 1 0
0.056814231 0.050522249 -0.046532799 0 0 1 0
0.1778104 0.050526556 -0.046532795 0 0 1 0
0.073347569 0.050783549 -0.046532802 0 0 1 0
0.22723827 0.051097829 -0.046532795 0 0 1 0
0.30398214 0.051132657 -0.046532799 0 0 1 0
0.01317039 0.051257584 -0.046532799 0 0 1 0
0.23190311 0.051334612 -0.046532799 0 0 1 0
0.11244649 0.051859751 -0.046532795 0 0 1 0
0.10110089 0.052246146 -0.046532799 0 0 1 0
0.15166451 0.052426729 -0.046532799 0 0 1 0
0.28788131 0.052342094 -0.046532799 0 0 1 0
0.064561099 0.052684963 -0.046532799 0 0 1 0
0.11112327 0.052523185 -0.046532799 0 0 1 0
0.18637833 0.052727155 -0.046532799 0 0 1 0
0.12077472 0.052901916 -0.046532799 0 0 1 0
0.31631288 0.052870415 -0.046532799 0 0 1 0
0.040611204 0.05319928 -0.046532802 0 0 1 0
0.10295241 0.053204603 -0.046532799 0 0 1 0
0.11584041 0.053155061 -0.046532799 0 0 1 0
0.12744898 0.05308339 -0.046532799 0 0 1 0
0.13469733 0.053050563 -0.046532799 0 0 1 0
0.055351779 0.053439029 -0.046532795 0 0 1 0
0.19940156 0.053373724 -0.046532802 0 0 1 0
0.2455181 0.053386439 -0.046532802 0 0 1 0
0.0922646 0.053617924 -0.046532799 0 0 1 0
0.22355938 0.053511258 -0.046532795 0 0 1 0
0.30852097 0.05352065 -0.046532799 0 0 1 0
0.017630015 0.053776093 -0.046532799 0 0 1 0
0.054819312 0.053941537 -0.046532799 0 0 1 0
0.1094824 0.053975631 -0.046532799 0 0 1 0
0.18972361 0.053951845 -0.046532799 0 0 1 0
0.19487128 0.053872235 -0.046532795 0 0 1 0
0.23744178 0.054157451 -0.046532799 0 0 1 0
0.24004008 0.05400265 -0.046532799 0 0 1 0
0.046968438 0.054352954 -0.046532802 0 0 1 0
0.1371344 0.0544599 -0.046532802 0 0 1 0
0.13963276 0.054343648 -0.046532795 0 0 1 0
0.157291 0.05445151 -0.046532795 0 0 1 0
0.087678939 0.054711826 -0.046532802 0 0 1 0
0.13317916 0.054719865 -0.046532795 0 0 1 0
0.15242445 0.054710202 -0.046532802 0 0 1 0
0.15841793 0.054915756 -0.046532799 0 0 1 0
0.20749068 0.054774743 -0.046532802 0 0 1 0
0.015283281 0.05524933 -0.046532802 0 0 1 0
0.12292872 0.055003934 -0.046532799 0 0 1 0
0.065453321 0.05537485 -0.046532799 0 0 1 0
0.2080667 0.055381726 -0.046532802 0 0 1 0
0.026984159 0.055849254 -0.046532799 0 0 1 0
0.051504146 0.05596124 -0.046532799 0 0 1 0
0.18942064 0.05585948 -0.046532799 0 0 1 0
0.1140357 0.056519818 -0.046532799 0 0 1 0
0.30327412 0.056607112 -0.046532799 0 0 1 0
0.14888424 0.056930676 -0.046532799 0 0 1 0
0.24944185 0.056861389 -0.046532802 0 0 1 0
0.011502048 0.057164297 -0.046532802 0 0 1 0
0.027529441 0.057040609 -0.046532802 0 0 1 0
0.1312003 0.057180323 -0.046532799 0 0 1 0
0.17749396 0.057128195 -0.046532799 0 0 1 0
0.29622221 0.057215326 -0.046532799 0 0 1 0
0.15637167 0.057280239 -0.046532799 0 0 1 0
0.17962755 0.057344347 -0.046532799 0 0 1 0
0.23118053 0.057396218 -0.046532799 0 0 1 0
0.0016634585 0.057680555 -0.046532799 0 0 1 0
0.25939155 0.057741221 -0.046532799 0 0 1 0
0.28560948 0.057663452 -0.046532799 0 0 1 0
0.31295621 0.05764043 -0.046532799 0 0 1 0
0.29232624 0.057962053 -0.046532802 0 0 1 0
0.29348773 0.057881422 -0.046532799 0 0 1 0
0.18592635 0.058120187 -0.046532799 0 0 1 0
0.15666239 0.058266867 -0.046532799 0 0 1 0
0.28653252 0.058499739 -0.046532799 0 0 1 0
0.14247663 0.058604322 -0.046532799 0 0 1 0
0.19571441 0.058648121 -0.046532799 0 0 1 0
0.25257537 0.058581978 -0.046532795 0 0 1 0
0.26338485 0.058528788 -0.046532795 0 0 1 0
0.31006536 0.058733486 -0.046532799 0 0 1 0
0.26784846 0.059022091 -0.046532799 0 0 1 0
0.27268168 0.059040692 -0.046532799 0 0 1 0
0.097830355 0.059413053 -0.046532799 0 0 1 0
0.13365938 0.059250288 -0.046532799 0 0 1 0
0.020637633 0.05950496 -0.046532795 0 0 1 0
0.084519759 0.05977416 -0.046532795 0 0 1 0
0.23754409 0.059970398 -0.046532799 0 0 1 0
0.28791207 0.059835054 -0.046532799 0 0 1 0
0.057918914 0.060495239 -0.046532795 0 0 1 0
0.2521143 0.060256291 -0.046532799 0 0 1 0
