# .PCD v0.7 - Point Cloud Data file format
VERSION 0.7
FIELDS x y z
SIZE 4 4 4
TYPE F F F
COUNT 1 1 1
WIDTH 1075
HEIGHT 1
VIEWPOINT 0 0 0 1 0 0 0
POINTS 1075
DATA ascii
-0.012614701 0.12763484 -0.067755908
-0.013510721 0.10226206 -0.067852855
-0.013348024 0.085063204 -0.067453824
0.10306133 -0.0036325976 -0.11499399
0.083367035 -0.0042241514 -0.10741958
-0.0096591078 0.053777024 -0.069525756
-0.0082736015 0.046531912 -0.071093544
0.03102614 -0.006661348 -0.086662233
-0.0066669509 0.013934448 -0.071760714
0.015929013 -0.0078264996 -0.080997102
0.0089485645 -0.0086813197 -0.078148827
-0.01390862 0.11842636 -0.06627962
0.13274175 -0.0017226189 -0.12525119
0.13032551 -9.2804432e-05 -0.1242978
-0.01224418 0.076009043 -0.067254655
-0.007943958 0.039143905 -0.070358016
0.038026601 -0.0061612502 -0.088293537
-0.0093747843 0.11404051 -0.066592149
0.12014057 -0.0019443333 -0.11915745
0.11062795 -0.0030002668 -0.11563809
-0.0074330159 0.065336287 -0.068882853
0.090781987 -0.0037083775 -0.10838883
0.05514504 -0.0061688051 -0.094038732
-0.0058273189 0.030703623 -0.070138685
-0.0067577139 0.030855369 -0.068923473
-0.0076680854 0.013794418 -0.069578767
0.0012004822 -0.0096098632 -0.073034108
-0.0087243915 -0.0026014559 -0.06900163
-0.0091826431 0.096137844 -0.065915316
-0.0095093511 0.065687709 -0.066465281
-0.010312971 0.066256471 -0.066137806
-0.0059337355 0.056355923 -0.068310186
-0.0043340325 0.041261338 -0.068503127
-0.0099732429 0.045727126 -0.067070715
0.044967778 -0.0059278607 -0.088867232
-0.0051421821 0.023244947 -0.069220699
0.022791088 -0.0079936907 -0.080927953
-0.0050530285 0.0052274615 -0.069018595
-0.005975835 0.0058971569 -0.06862776
0.0077574775 -0.009016823 -0.074988589
-0.0031035095 -0.0069645979 -0.070371374
-0.0097942147 0.10383727 -0.06428843
-0.010606678 0.10439012 -0.06399624
0.12825683 -0.0010834634 -0.1205222
0.098543257 -0.0031673834 -0.10915965
-0.0090043955 0.064782068 -0.065877676
0.081277609 -0.0054090247 -0.10253699
0.078713596 -0.0041134059 -0.10069215
-0.0072536021 0.056219358 -0.06616497
-0.0059904382 0.048589051 -0.066926211
0.026964001 0.019356992 -0.081048295
0.062290944 -0.0059855804 -0.09442462
0.027700447 0.018283956 -0.080554128
0.052405089 -0.0051606447 -0.091244116
0.029618606 -0.007387124 -0.08256878
-0.010575331 0.1209213 -0.062998183
-0.011001997 0.095586017 -0.062945299
-0.0098386705 0.086808681 -0.064020157
0.10872455 -0.0040053278 -0.1118044
-0.0085310377 0.078102261 -0.064861156
-0.0095711648 0.078240119 -0.063682094
0.089041173 -0.0046630427 -0.10449341
-0.008279983 0.056386419 -0.064962089
0.069856331 -0.0051195398 -0.096533135
-0.0080889165 0.030395258 -0.065822981
-0.0064973459 0.022896528 -0.066048436
0.014520951 -0.0092473403 -0.075044543
-0.004087396 -0.007012587 -0.068155468
-0.012407511 -0.0066028051 -0.064404041
-0.0097047277 0.12848608 -0.062038131
-0.012024448 0.12063576 -0.060997386
0.11677499 -0.0031551421 -0.11329211
0.10579142 -0.0030422881 -0.10904381
-0.007127475 0.048363559 -0.064813733
-0.005374115 0.015840214 -0.065908447
-0.010829497 0.12861496 -0.060887538
-0.010814941 0.11914456 -0.060776282
0.12598228 -0.0025409609 -0.11587446
0.096564949 -0.0040369704 -0.10526764
-0.0078066401 0.068539582 -0.062659927
0.076854229 -0.0050202385 -0.096765786
0.036360338 0.017308481 -0.081473663
0.035379522 0.017487802 -0.080238879
0.030638702 0.021350656 -0.079159319
-0.0083914772 0.048230141 -0.062662929
-0.0059553683 0.040409453 -0.064520463
-0.0070782863 0.040681485 -0.063258931
0.050795607 -0.0059297234 -0.087187767
-0.0045410693 0.032895878 -0.064994104
0.043378316 -0.0071871653 -0.083965212
-0.0027033538 0.0076993033 -0.066316471
-0.010838708 0.10932495 -0.05954339
0.13548526 -0.0013656169 -0.11912636
-0.0076211281 0.098574072 -0.060751569
0.12309314 -0.0010929927 -0.11397821
-0.0042981319 0.058729291 -0.063785568
0.084531292 -0.0041386709 -0.098649889
0.040671282 -0.005728133 -0.082004577
0.0039825514 -0.0085802078 -0.067966521
-0.0016893595 -0.0045863092 -0.065661669
-0.006876206 0.11447296 -0.060194217
-0.011948042 0.10945147 -0.05839318
-0.0070900731 0.097565189 -0.060250733
-0.0062439032 0.088402659 -0.060579099
-0.0071423929 0.089053996 -0.060207151
0.10409179 -0.0035850927 -0.10601855
0.094846979 -0.0046562254 -0.10231546
-0.0052120611 0.051616315 -0.062119309
0.067987643 -0.0064059421 -0.091694884
0.057725504 -0.0058521256 -0.087654024
-0.0031419583 0.024614833 -0.063501418
-0.0004113391 0.016839013 -0.065011315
-0.0020511039 0.017948907 -0.064380124
-0.0030175485 0.018165406 -0.063133121
-0.0046780407 0.0079015195 -0.062839895
0.010651909 -0.008504495 -0.068995163
-0.0084636156 0.11426407 -0.058167495
-0.0077892672 0.10522197 -0.058598023
-0.0085563716 0.10575619 -0.058303352
-0.0090137515 0.098324373 -0.058704093
0.13359317 -0.0019554645 -0.116208
-0.0081921592 0.089209728 -0.059011012
-0.0064004138 0.07947056 -0.059489157
0.091964677 -0.0036772192 -0.099538147
0.06503582 -0.0054313168 -0.088893145
0.039404817 -0.0062329918 -0.078909084
-0.0050586239 0.025031127 -0.061033476
0.025400482 -0.0079276338 -0.07390672
-0.003604807 -0.0039737672 -0.063043378
-0.0075531239 0.13109379 -0.057376668
-0.0085231448 0.12227741 -0.057021696
-0.0093378043 0.12284581 -0.056697555
-0.0096046412 0.11439837 -0.057015203
0.087717712 0.020678684 -0.096050844
0.11137539 -0.0036112815 -0.10589206
-0.007473845 0.079624064 -0.058301724
-0.0023167357 0.069303699 -0.06105388
0.10222155 -0.0045732036 -0.10218427
-0.0043119676 0.024525288 -0.061325662
0.032130778 -0.0073081851 -0.075456001
0.00034106523 0.0091839209 -0.062985793
0.0014880151 -0.0028199218 -0.063452244
-0.0079098493 -0.0067902878 -0.060118344
-0.011060454 -0.0099780001 -0.058448456
0.031587109 0.10265929 -0.072577968
-0.0071210591 0.13011026 -0.056867726
-0.008927458 0.13135931 -0.056169137
0.089829937 0.06138432 -0.095093265
0.026285961 0.096235611 -0.069805197
0.022202209 0.09916833 -0.068095744
0.023506626 0.089664385 -0.069008566
0.14147152 -0.0015592724 -0.1164586
0.12916285 -0.0013149455 -0.11146834
-0.0046322644 0.069728434 -0.058611967
-0.001583267 0.033825703 -0.060480334
-0.0024562143 0.034449279 -0.06012626
0.048889115 -0.007505402 -0.081370838
0.017277874 -0.0088365972 -0.069031775
0.031703535 0.10117866 -0.071315899
0.020217828 0.099937245 -0.066579737
0.022342701 0.089794427 -0.067874394
0.020718414 0.090873107 -0.067271821
-0.0023786239 0.060303893 -0.058512289
0.082335368 -0.0058653131 -0.092969134
0.063339479 -0.0063426122 -0.084965408
-0.0034330599 0.034607261 -0.058920987
0.030923329 -0.0078587607 -0.072411261
0.023850478 -0.0085650906 -0.069776721
-0.0017604977 0.0094460547 -0.059454408
0.020577885 0.098992698 -0.066062853
0.090445355 0.024670362 -0.094431534
0.11900921 -0.0030885935 -0.10639291
0.089878008 -0.0050592497 -0.094797313
-0.0016963556 0.059227102 -0.058033217
0.079516992 -0.0045191646 -0.091100842
0.00053553656 0.043776833 -0.058834374
0.04591693 -0.0068949088 -0.077672154
-0.0026161 0.0096300803 -0.058218434
0.0092754886 -0.0099326894 -0.063058481
0.034219697 0.09675809 -0.069595166
0.025210887 0.10316071 -0.065877795
0.13926835 -0.0025304779 -0.11270333
-0.0048258938 0.090860963 -0.055446368
-0.0055838041 0.091414154 -0.05511713
-0.0067673549 0.091645032 -0.053887624
-0.0038409419 0.081662916 -0.055735882
-0.0046118088 0.08222045 -0.055411249
-0.0037408099 0.06012553 -0.05641111
-0.0010766685 0.051028907 -0.057083189
0.070480742 -0.0057679117 -0.086047888
0.027445123 0.017858341 -0.06889794
-0.00048849359 0.018904168 -0.05781962
0.0035426915 -0.0007609874 -0.059882246
0.0027724653 -0.0002284795 -0.059588626
0.081162795 0.072853766 -0.087394223
0.034726195 0.095742814 -0.069091268
0.020771444 0.10573649 -0.063285366
-0.0053769648 0.10685697 -0.053753126
-0.0064653773 0.10698192 -0.052614305
-0.0063048545 0.099139325 -0.053334389
-0.0070436578 0.09965162 -0.053042702
0.13651431 -0.0013047084 -0.11089858
0.11687288 -0.0040822774 -0.10259333
-0.0066221226 0.083067812 -0.053831808
0.087193459 0.016722664 -0.090678185
0.079151087 0.015539847 -0.088325918
-0.0012202561 0.071241029 -0.055386465
-0.0020640679 0.071809277 -0.055066563
-0.0037715733 0.072998196 -0.054379612
0.097157747 -0.0046406537 -0.095648512
-0.0028286614 0.051726494 -0.055576105
0.060164548 -0.0056724697 -0.081272423
0.037934937 0.010063648 -0.072228327
-0.0058741793 0.040723223 -0.054711085
0.037459388 -0.0081056282 -0.072124511
0.0018577054 -4.6156347e-06 -0.058356177
0.049468949 0.10377933 -0.073738694
0.04413927 0.10670078 -0.071027294
-0.0067605842 0.13385008 -0.051469479
0.038898345 0.10081623 -0.069338217
-0.0060836775 0.12387452 -0.051933985
-0.0068411883 0.12440613 -0.051632077
0.024497412 0.092812374 -0.064268664
-0.0067323204 0.11501718 -0.051539928
-0.0075278999 0.11556362 -0.051232748
-0.0077775661 0.10727599 -0.051378317
0.12632824 -0.0030990466 -0.10595106
0.089991607 0.022453614 -0.091336906
0.09538269 0.018002443 -0.092850029
0.11420855 -0.0028497577 -0.10078563
0.10506693 -0.0038071498 -0.097174287
0.079353087 0.014176138 -0.086913869
-0.004871808 0.073141113 -0.053215027
0.077507675 -0.0058448091 -0.086311251
-0.0040875375 0.051499128 -0.053486019
-0.0004138425 0.03585298 -0.055261597
-0.0013694987 0.036503892 -0.054892853
0.051625773 -0.0065126196 -0.076863229
0.044292443 -0.0077113211 -0.073649347
0.015655987 -0.010173064 -0.063031077
0.010704905 -0.0066350028 -0.061009694
-0.0060103014 0.13190199 -0.050480533
-0.0068049356 0.13245733 -0.050162315
0.034469172 0.10325181 -0.066858336
0.020096451 0.095256329 -0.061773475
0.13432583 -0.002330184 -0.10718422
0.099657565 0.022001565 -0.093282461
-0.0034187268 0.0944902 -0.051712465
0.087172449 0.014925145 -0.088437878
0.082492083 0.018926851 -0.087217331
-0.0034979731 0.071638651 -0.052952077
0.045660876 0.0094305947 -0.072940759
0.00029875711 0.029055391 -0.055379368
-0.0027900375 0.024958093 -0.053840201
-0.0017266199 0.018358078 -0.054758258
0.0048849955 0.0021766536 -0.056871857
0.054802723 0.10823338 -0.07396365
0.044104226 0.10530865 -0.069728173
0.039020713 0.099356771 -0.068056084
0.018303797 0.0867052 -0.059970997
0.10012487 0.021019906 -0.09276329
-0.0030016601 0.093537599 -0.051185608
0.12452516 -0.0037072301 -0.10306591
0.095610678 0.016585849 -0.09145803
-0.0012583062 0.083767474 -0.051949639
0.08301492 0.017919414 -0.086688742
0.073498987 0.0091542751 -0.082243815
-0.00067445636 0.061245129 -0.05243846
-0.0012177788 0.062200334 -0.052996807
0.084776983 -0.0053905547 -0.087258399
0.036258392 0.015568286 -0.068270355
-0.0024691895 0.042692397 -0.052787665
0.058541983 -0.0065598041 -0.077299036
0.00012829155 0.010664783 -0.053936545
0.0031811595 0.0028646775 -0.055350959
0.054692842 0.10690172 -0.072645858
0.03326245 0.09269473 -0.064430885
0.089253619 0.019823745 -0.087416813
-0.0031978395 0.084549978 -0.050408326
0.11215855 -0.0037840232 -0.096950196
-0.0021044426 0.075575113 -0.050492048
-0.0030186065 0.076192446 -0.050141808
0.065739088 -0.0057717264 -0.079376109
0.042900041 -0.0081481487 -0.070545048
0.033417881 -0.0075923949 -0.066229902
0.043306421 0.10302188 -0.066831924
-0.0034840973 0.11794733 -0.048942029
0.027548429 0.095206261 -0.060901221
-0.0039509628 0.10912012 -0.048464008
-0.0047246236 0.10965162 -0.048164092
-0.0044112466 0.084815778 -0.049157172
0.090159938 0.017901845 -0.086364537
-0.0016701259 0.074690238 -0.049908224
0.091925547 -0.0049269348 -0.088083819
-0.00084714219 0.05356976 -0.051303849
-0.0017082579 0.054176956 -0.05095809
0.030620873 -0.0061834455 -0.064317822
0.0081119686 0.0041114278 -0.055443246
0.011866026 -0.0095679946 -0.057073988
-0.0032931846 0.12581974 -0.047608018
-0.0046655433 0.12608385 -0.046396337
-0.0058747083 0.10977504 -0.047025628
-0.004406359 0.10034043 -0.047706086
-0.0051881503 0.10086996 -0.04742093
0.14169405 -0.0023238808 -0.10654904
0.11956549 -0.0034019127 -0.097466491
0.099606425 -0.0042847395 -0.089814596
0.072707079 -0.0057249218 -0.079580918
0.056807086 -0.0073728934 -0.073287107
0.049681678 -0.00818865 -0.071102545
-0.002484154 0.027980767 -0.049283352
0.039934747 -0.0074595362 -0.066762678
0.02508691 -0.0087998137 -0.060593497
0.018139251 -0.0094358586 -0.057912122
0.0009791553 0.0025731623 -0.051024981
-0.0053821579 0.11722717 -0.046158146
0.14006424 -0.0025306344 -0.10452081
0.11006275 -0.0047531128 -0.093102686
0.000735268 0.063998364 -0.048559356
0.00071050972 0.044248071 -0.049888577
0.073953524 -0.0076665655 -0.078469753
-0.00044261292 0.044511277 -0.048617322
-0.0013022535 0.04512617 -0.048268951
0.034130707 0.01384249 -0.062586263
0.028392084 0.017733313 -0.060390517
0.0013707578 0.037338458 -0.050263863
0.00056123361 0.037918646 -0.04993131
0.0030160211 0.029867679 -0.050870754
0.0029416531 0.01193317 -0.050571851
0.0091036856 -0.0083626993 -0.054103456
0.015026692 0.068785675 -0.053985119
0.10699299 -0.0037806034 -0.090383336
0.085530452 0.011179619 -0.081841916
-1.4662743e-05 0.06452699 -0.04825332
0.097924411 -0.0047949627 -0.08680445
0.0012823269 0.063028984 -0.048011273
-0.0011085719 0.064703166 -0.047053128
0.09007971 -0.005934827 -0.084268317
0.07992211 -0.005345799 -0.080586143
-0.00072785467 0.037768882 -0.047794111
0.0042097047 0.028018437 -0.049702212
0.04122217 -0.0093820691 -0.065631784
0.010405123 -0.01018142 -0.052918352
0.074054196 0.086970501 -0.074597746
-0.0078046895 0.12550619 -0.042490426
0.12685987 -0.003469564 -0.097015679
0.015119936 0.06748043 -0.052558199
0.00026087835 0.077631161 -0.046790078
0.086993113 -0.0049974695 -0.081527933
0.070940517 -0.006713137 -0.075693063
0.051053539 0.0072005615 -0.06775102
0.055138826 -0.0082788244 -0.069347434
0.0018440858 0.011759087 -0.048416771
0.00017189607 0.012914237 -0.047749661
0.0056300014 0.0034921505 -0.050200813
0.004744947 -0.0012463331 -0.049838509
0.0038637146 -0.011277117 -0.049154609
-0.001868071 0.10227863 -0.043749273
0.13634224 -0.002550967 -0.10019463
0.020577431 0.078680441 -0.053763345
-0.0035440903 0.095143378 -0.043137424
0.12566487 -0.0032444522 -0.09582217
-0.0014215373 0.085868105 -0.044813529
0.01564147 0.06649211 -0.052026898
0.10514073 -0.0044428706 -0.087495551
-0.0024825111 0.064438231 -0.045015991
0.00089914724 0.054903578 -0.046146885
0.012285233 0.040351477 -0.051142707
0.071409695 -0.0017117783 -0.074105456
0.068106376 -0.005306378 -0.073811345
0.010952786 0.028035898 -0.050035693
0.038198546 -0.0086383671 -0.061847333
0.021865062 -0.0083649904 -0.055869348
0.0036327988 0.0039665997 -0.047665313
0.0028277785 -0.011012532 -0.047876619
0.072075278 0.086182803 -0.071902201
-0.0016028862 0.11900977 -0.043057177
-0.0027477052 0.11912195 -0.041923761
-0.0037179179 0.11981223 -0.041519269
-0.0030530654 0.11085927 -0.042325057
0.1348104 -0.0027423948 -0.098158799
0.1230507 0.0054282695 -0.093510203
-0.0022565257 0.093559265 -0.042986043
-0.0030441619 0.094127029 -0.042652003
0.12002042 -0.00056878477 -0.092086405
0.018560052 0.070636831 -0.051385209
0.01762047 0.071289152 -0.05101113
0.110669 -0.0015621483 -0.088795245
0.0017201938 0.074797213 -0.045147408
-0.0023207963 0.077552311 -0.043571163
0.085397854 -0.0056086406 -0.078571171
0.067505099 0.0076404735 -0.072073877
0.076893464 -0.0060422346 -0.075453877
0.062866062 0.0037933886 -0.069816396
0.059720755 0.0059689507 -0.068599164
0.018311031 0.035051599 -0.05195795
0.037199959 0.015352193 -0.05975445
0.0049832091 0.0379401 -0.046827324
0.047818959 0.0015117675 -0.064111829
0.0024621449 0.03337045 -0.045886219
0.040669337 0.00078043342 -0.061934587
0.046329916 -0.0036214143 -0.063339204
0.041366167 -0.0002483055 -0.061417218
0.0083081238 0.023003038 -0.048105419
0.0050964355 0.025347777 -0.046763364
0.0042741001 0.025932357 -0.046431534
0.0037349686 0.020555563 -0.046819363
0.001270473 0.022394463 -0.045770705
0.03726051 -0.0085098445 -0.060665052
0.030109197 -0.0094900802 -0.05723219
0.025146015 -0.0060646608 -0.055276014
0.017691642 -0.0058020502 -0.053251658
0.0076351538 0.00086218864 -0.048319861
0.0028576702 0.0045352094 -0.047333919
0.018310294 -0.006695237 -0.052652568
0.012637056 -0.0027013123 -0.05034633
0.0052724555 -0.0024826005 -0.048274085
-0.0015904224 0.12699477 -0.041526612
0.029181026 0.086683691 -0.054018777
0.13725951 0.0025414303 -0.097679384
0.024938002 0.08127901 -0.052638993
-0.00048100762 0.099350303 -0.042144887
0.12328275 0.0040869489 -0.092112988
0.020509426 0.076778345 -0.051619563
0.11265339 -0.004097417 -0.088042736
0.11190271 -0.0035516173 -0.087712936
0.11128339 -0.0024890602 -0.08822675
0.0078375526 0.069395438 -0.04603165
0.0022850856 0.073800117 -0.044612456
0.1037422 -0.0047121346 -0.085473731
0.099383652 -0.0021458119 -0.082908213
0.015239958 0.056940887 -0.049079832
0.0098032504 0.06132146 -0.047688544
0.0046871006 0.064908482 -0.045641758
-0.00017201528 0.068234213 -0.043738022
0.095291272 0.00067344308 -0.081287831
0.091458499 -0.0032983124 -0.080472484
0.071769588 0.010589115 -0.072514132
0.0064349659 0.056451775 -0.046273839
0.0023255423 0.059341572 -0.044633087
0.084336102 -0.005436413 -0.077368215
0.079369351 -0.001977168 -0.07537891
0.075184554 0.0010256022 -0.073661655
0.0074820928 0.048550837 -0.046473622
0.072447263 -0.0035977364 -0.072976485
0.018967777 0.034053091 -0.051421188
0.0081711262 0.041577622 -0.047107682
0.0015943162 0.046210643 -0.044452015
0.00075638667 0.046811499 -0.044112012
0.064934485 -0.0046613589 -0.07009656
0.0517698 0.0045106336 -0.064864412
0.046878882 0.0079640001 -0.062897623
0.0095979609 0.034164906 -0.047902621
0.0071500987 0.029614918 -0.046911605
0.044009149 -0.0081445426 -0.06211051
0.03898675 -0.0046218932 -0.060121529
0.034023024 -0.0011951327 -0.058166299
0.0102228 0.015575152 -0.048541345
0.0043298304 0.019609928 -0.046256185
0.035516463 -0.0077766404 -0.059131429
0.0073382482 0.012070384 -0.047760375
0.0048422962 0.01376209 -0.046790406
0.0032029562 0.014873009 -0.04615923
0.032717079 -0.0063699633 -0.057207298
0.027827747 -0.0029159375 -0.055239942
0.026843444 -0.0021969527 -0.054825865
0.020145275 -0.0029754229 -0.052360963
0.006030716 0.00689134 -0.046726678
0.0052384436 0.0074651875 -0.04640884
0.020679541 -0.0088335648 -0.052755278
0.019144922 -0.0077585913 -0.052139986
0.013265625 -0.0036258474 -0.049762852
0.0065287426 -0.0042023212 -0.046993565
0.0050361902 -0.0081008188 -0.047214486
0.09047465 0.061630689 -0.077835821
-0.0036145225 0.12770331 -0.040078904
0.14604847 0.0040695891 -0.10018766
7.3924661e-05 0.10662035 -0.041534018
0.14271113 -0.0020149201 -0.099166304
0.14186548 -0.0014182776 -0.098853074
0.13738991 0.0010819286 -0.096354909
0.0085476562 0.091475561 -0.044631675
0.021406706 0.07487376 -0.050553001
0.0090091638 0.083315611 -0.045757502
0.10702208 0.0072187781 -0.085495964
0.12148151 -0.0036156178 -0.090625748
0.12071502 -0.003049925 -0.090291888
0.11988631 -0.0023989156 -0.08991918
0.11077805 0.0039956272 -0.086266808
0.10734378 -0.0010214373 -0.0852158
0.10326976 0.0018530041 -0.083575204
0.099823594 -0.003082417 -0.08233767
0.086714715 0.0060853139 -0.077107266
0.015668493 0.056019139 -0.048514917
0.00074482709 0.066403329 -0.042602502
-3.4924597e-05 0.066929549 -0.042304568
0.092395931 -0.0047649145 -0.079656407
0.087721273 -0.0017773956 -0.077392198
0.082607746 0.0017142966 -0.07541652
0.078774296 0.0050604716 -0.074610278
0.015781391 0.048652999 -0.048560511
0.0067154393 0.055059768 -0.044873506
0.0028766803 0.058363967 -0.044087179
0.070771597 0.0034864321 -0.071159013
0.0040093549 0.050444383 -0.044280723
0.055800833 0.0074869245 -0.065523997
0.016934603 0.034901477 -0.049835898
0.012795847 0.037765682 -0.04820564
0.068672553 -0.0020225868 -0.069849707
0.063737407 0.001439102 -0.067859448
0.060552657 -0.0021911636 -0.067580558
0.045651734 0.0083068013 -0.061589863
0.027527265 0.021095634 -0.054251403
0.017683432 0.027906194 -0.05035992
0.010277547 0.033163246 -0.047355786
0.066098325 -0.0066483319 -0.069051243
0.065327622 -0.0060689673 -0.068699621
0.047924757 0.0061410591 -0.061725218
0.054522723 -0.0047547892 -0.064352557
0.05398412 -0.0038379505 -0.064921878
0.043949477 0.0031279251 -0.060980354
0.0043991506 0.030963529 -0.045036085
0.04665789 -0.0048374981 -0.061793648
0.041722804 -0.0015021786 -0.059905063
0.0086743981 0.021684997 -0.046642713
0.039797612 -0.0057011023 -0.059614129
0.0056982152 0.018154528 -0.045973152
0.040402651 -0.0066018775 -0.05900107
0.035289548 -0.0031169727 -0.057009
0.030340113 0.00042225048 -0.054986537
0.029569335 0.0010273084 -0.054627091
0.010592863 0.014325563 -0.047030821
0.0085348487 0.010237407 -0.046572562
0.028422102 -0.0038128346 -0.054638665
0.020754725 -0.0038196631 -0.051716633
0.019770101 -0.0086447075 -0.05152854
0.014762476 -0.005146984 -0.049497422
0.01392135 -0.0045645572 -0.049174551
0.013039172 -0.0092397146 -0.048772518
0.08858411 0.071721576 -0.076003291
-0.00030010752 0.1239245 -0.040148076
0.14109138 0.0061386079 -0.096921273
0.030115381 0.084674492 -0.053054951
5.4696575e-05 0.10524885 -0.040181063
0.13206355 0.0041719452 -0.093526356
0.0041441806 0.09402433 -0.042037614
9.8181888e-05 0.096934363 -0.040318705
-0.0004715845 0.098009557 -0.040769193
0.12372492 0.0021239594 -0.090517297
0.11928521 0.005535163 -0.089134842
0.021806862 0.073934965 -0.050017387
0.0049534477 0.084949017 -0.042646591
0.0045763515 0.085894518 -0.043170705
0.0016846824 0.087364063 -0.041230455
0.0009387657 0.087916218 -0.040899474
0.00038469955 0.088995107 -0.041343704
0.0090923943 0.081951611 -0.044388141
0.11118768 0.0030503944 -0.085711718
0.012108836 0.072535709 -0.045976587
0.011328932 0.073062547 -0.045678716
0.0055939369 0.076951474 -0.043477699
0.0027412139 0.078268245 -0.041647192
0.0014116131 0.079869471 -0.041793555
0.1075146 -0.0024888664 -0.083890922
0.10349403 0.00045415014 -0.082191512
0.099093929 0.0038614944 -0.080782279
0.0079905055 0.068074949 -0.044606373
0.0035211146 0.070472002 -0.04215787
0.0029878169 0.071484648 -0.042647868
0.10015534 -0.0045490265 -0.080989756
0.095465928 -0.00067723542 -0.079878911
0.091040164 0.0018665716 -0.077322021
0.010111548 0.05866484 -0.044829257
0.0055485852 0.062487353 -0.043744199
0.083135843 0.00072592497 -0.074859262
0.011465602 0.051129065 -0.046018116
0.007433895 0.053977683 -0.044388063
0.0032382756 0.056886591 -0.042748675
0.071392424 0.0024913698 -0.070635676
0.0086991116 0.04652255 -0.045439228
0.0044693314 0.049530175 -0.043700945
0.080177158 -0.0042159036 -0.0733587
0.076012097 -0.0013687089 -0.071764067
0.071917921 0.0015315861 -0.070085064
0.011598274 0.043898199 -0.045837719
0.073414631 -0.0059716552 -0.070998222
0.05948671 0.0038996786 -0.065350108
0.013148576 0.036377568 -0.046785399
0.0048414841 0.042194579 -0.043460622
0.06175977 -0.0041248202 -0.066479318
0.056798756 -0.00055937469 -0.064405158
0.011599742 0.025391728 -0.047095522
0.0075485744 0.028257582 -0.045461368
0.056037009 -0.0063668713 -0.06416446
0.055140615 -0.0057591423 -0.063807927
0.049534097 -0.0017374232 -0.061501529
0.047270946 -0.0058072731 -0.061221451
0.042299576 -0.0024105757 -0.059314743
0.01345364 0.017905585 -0.047665812
0.0060416944 0.023129407 -0.044672541
0.0090739578 0.02036269 -0.045163393
0.036001869 -0.0041401014 -0.056485873
0.023233034 -0.00067267194 -0.051690597
0.010724023 0.0027255341 -0.046859339
0.092559792 0.067349486 -0.076446652
0.091309838 0.067512967 -0.075317375
-0.00029958971 0.13190284 -0.038490895
-0.00035990868 0.1225417 -0.038835399
-0.00061285496 0.11416716 -0.039460357
-0.00024017133 0.11321975 -0.038939066
0.14581726 0.0021977797 -0.09807799
0.14151464 0.0051780269 -0.09640833
0.0012566186 0.10372887 -0.039960857
0.00048904121 0.10426355 -0.039666049
0.13707651 -0.00070668012 -0.094169647
0.13216262 0.0026929602 -0.092231832
0.12840445 -0.002217941 -0.091432631
0.0092278719 0.080553427 -0.043033566
0.0051432475 0.083483279 -0.041326456
0.10680038 0.0054462031 -0.08326719
0.0081529096 0.066705391 -0.04321707
0.08656989 0.0043163449 -0.074863322
0.015663657 0.054185215 -0.046288587
0.0057567023 0.061125748 -0.042334724
0.087943897 -0.0031116009 -0.075957477
0.078771636 0.0032705739 -0.072316416
0.069557205 0.0091805905 -0.067829274
0.014119707 0.048032347 -0.045625515
0.0076250806 0.052665818 -0.042946327
0.0034684949 0.055522226 -0.041329958
0.062527299 0.0076064244 -0.065509409
0.06170968 0.0081084967 -0.065223649
0.016353458 0.039966382 -0.046998799
0.021063007 0.030275475 -0.049159303
0.0062086098 0.040682439 -0.043210648
0.0054210797 0.041220933 -0.04290653
0.062273026 -0.0049925894 -0.065878943
0.052400529 0.0019580051 -0.061892327
0.015325077 0.027999815 -0.046963103
0.0078763552 0.033176396 -0.044027768
0.0070043541 0.03379951 -0.043674313
0.040994048 0.0036474615 -0.057331782
0.016188532 0.021080196 -0.047333963
0.032893397 0.0032164864 -0.053842422
0.0065535307 0.022218581 -0.04409159
0.017986156 0.013659433 -0.047889534
0.031205781 -0.0072719827 -0.053241532
0.030295826 -0.0066104233 -0.052853454
0.016169034 -0.0069221184 -0.048260249
0.011117458 -0.0038766488 -0.045384109
0.0094507337 -0.0076450221 -0.045612521
0.089666963 0.067244202 -0.073367029
-0.00035157055 0.13048948 -0.037212893
0.093376383 0.05601126 -0.075829819
0.092485949 0.056699403 -0.075410031
5.7499856e-06 0.12156929 -0.038330235
0.0001554396 0.11225405 -0.038432345
0.14626877 0.0011520907 -0.097604208
0.13630693 0.0082130656 -0.093568683
0.13755104 -0.0017146096 -0.093645304
0.025305204 0.077077612 -0.04860701
0.0041809473 0.092639305 -0.040699929
0.13256478 0.0017118081 -0.091732778
0.008737158 0.088605188 -0.042001605
0.11946106 0.0026742071 -0.086482234
0.11904678 0.0036388189 -0.087000787
0.0096452869 0.079617098 -0.042491809
0.11112285 0.0011609644 -0.083543897
0.10689847 0.0040873215 -0.081882685
0.094523206 0.0053976476 -0.077188581
0.018667493 0.058750704 -0.046654344
0.017893851 0.059279736 -0.046349525
0.016023006 0.06058174 -0.045616388
0.014189314 0.061206784 -0.044181224
0.0090993233 0.06479615 -0.042131968
0.091235936 0.00055289268 -0.075877763
0.084037259 -0.001639314 -0.072911732
0.015459724 0.046493493 -0.045401096
0.013072807 0.0481929 -0.044426195
0.012164693 0.048832107 -0.044048458
0.072124206 0.00026968122 -0.06861718
0.067274496 0.0036965981 -0.06661889
0.014353864 0.040767048 -0.045433979
0.0086299144 0.044809632 -0.043124635
0.059726663 0.0025856122 -0.063895941
0.0092543624 0.037943725 -0.043679953
0.065208577 -0.0018750802 -0.065354377
0.060219973 0.0017238557 -0.0632741
0.057178624 -0.001941964 -0.062988326
0.053164341 0.00086249411 -0.061401535
0.016828991 0.020126011 -0.046755087
0.010354988 0.018481024 -0.0439969
0.037179679 -0.0059256554 -0.055278011
0.013460331 -0.00062002987 -0.045391165
0.074589051 0.086654089 -0.06603124
-3.741309e-05 0.12955315 -0.036707625
0.0039505344 0.1089409 -0.039248049
0.13631588 0.0068189278 -0.092232145
0.13298957 0.00077587366 -0.091194466
0.0043131784 0.091179937 -0.039403435
0.0049052462 0.081656151 -0.039148107
0.006688159 0.073709376 -0.040972792
0.016564377 0.059570327 -0.045104045
0.094727457 0.0040363669 -0.075777799
0.018523488 0.043752495 -0.045853175
0.076515861 -0.0040549114 -0.068852216
0.019681647 0.035922639 -0.045989446
0.012529369 0.041507069 -0.043885902
0.014612615 0.033109527 -0.044222176
0.093847796 0.062896878 -0.073738441
0.018569998 0.036132973 -0.044772584
0.015721351 0.013781868 -0.044447854
0.086890712 0.076494038 -0.069790661
0.081129171 0.080554873 -0.067449912
0.091488659 0.072603472 -0.070963442
0.085578844 0.076693274 -0.068649247
0.092126861 0.062634423 -0.071821563
0.013061844 0.091193289 -0.040781759
0.019402545 0.062347699 -0.043131359
0.016239714 0.050082944 -0.042083889
0.017372347 0.036369562 -0.043546639
0.090141304 0.072775662 -0.069830984
0.088846445 0.072960772 -0.068697423
0.083148502 0.07688915 -0.066460773
0.096262127 0.058363967 -0.072160438
0.094604649 0.050104953 -0.071865663
0.016552459 0.042765442 -0.042028338
0.094568096 0.058119982 -0.070222527
0.093425766 0.050154708 -0.070773222
0.092881575 0.068612792 -0.069111057
0.01975286 0.052316517 -0.040559292
0.020604789 0.038133729 -0.04140833
0.019442558 0.038365878 -0.040182125
0.084313013 0.081852451 -0.063131139
0.088894993 0.077865884 -0.064397305
0.09534584 0.063891768 -0.06766963
0.094387315 0.064528577 -0.067328855
0.082622312 0.08151722 -0.061270889
0.07847219 0.084470838 -0.059568655
0.092773221 0.064163409 -0.065455712
0.096894801 0.05194059 -0.067515492
0.095692076 0.052088395 -0.066380337
0.023415428 0.054417673 -0.038994342
0.091697656 0.073668823 -0.063687928
0.097733222 0.059328936 -0.066135183
0.022604182 0.040093321 -0.037990317
0.022984274 0.032929234 -0.037794497
0.090396993 0.073850922 -0.062567681
0.095739335 0.069363952 -0.064078256
0.096091762 0.058983423 -0.064246476
0.094449498 0.069547981 -0.062961653
0.094763413 0.05916281 -0.063105337
0.0928014 0.069175161 -0.061108895
0.090725221 0.079224139 -0.058925606
0.091516435 0.069339842 -0.059993122
0.095897391 0.065382525 -0.061260693
0.098751932 0.053376786 -0.062298868
0.097959943 0.053941905 -0.061981883
0.098593011 0.045048624 -0.063110679
0.0976649 0.04575409 -0.062691487
0.099743359 0.043525532 -0.062912449
0.098968871 0.044066079 -0.062615797
0.025686435 0.034331493 -0.0347187
0.085320696 0.082282878 -0.056160387
0.089057676 0.078884393 -0.057051182
0.08083564 0.084699333 -0.053720925
0.02347555 0.034637067 -0.032357909
0.093445547 0.075064309 -0.058248196
0.08778315 0.079024233 -0.055949759
0.075326495 0.087805882 -0.05092641
0.072141655 0.09001521 -0.049683254
0.09832079 0.060737528 -0.059759352
0.022960335 0.047647115 -0.030994229
0.091305964 0.07425867 -0.05564025
0.069802128 0.08939968 -0.04696513
0.096995607 0.060897693 -0.05866003
0.028747998 0.035981964 -0.03250435
0.089967169 0.074450344 -0.054519281
0.10072998 0.046852745 -0.058750652
0.09987656 0.047410481 -0.058451116
0.098989323 0.047986053 -0.058150589
0.094499283 0.07052701 -0.05571989
0.093178146 0.070704214 -0.054607008
0.087973446 0.082944095 -0.051035158
0.083894193 0.085861191 -0.04933523
0.098513596 0.066111609 -0.056219131
0.097158998 0.066342935 -0.055060592
0.10044319 0.054787233 -0.057008486
0.099719748 0.055304334 -0.056701645
0.096347392 0.030429207 -0.055775911
0.095574215 0.031035364 -0.05541436
0.025707498 0.03559994 -0.028389269
0.090829253 0.080185615 -0.051572468
0.086730279 0.083061591 -0.049943045
0.098750651 0.035433702 -0.055041164
0.082030021 0.085620075 -0.047446676
0.077870175 0.088535681 -0.045788057
0.080819257 0.085694984 -0.04638375
0.099974744 0.062036246 -0.054466926
0.098553129 0.062233478 -0.053357914
0.099169508 0.034415968 -0.054566309
0.088473484 0.079492003 -0.048951387
0.084389634 0.082367413 -0.047291405
0.072809659 0.090530768 -0.042637944
0.093028262 0.075499438 -0.050237823
0.1019446 0.049035236 -0.054158255
0.10103089 0.049699992 -0.053769171
0.099247642 0.032974064 -0.053304996
0.023358628 0.034115449 -0.023796052
0.090826347 0.076243825 -0.048795212
0.071119584 0.090141676 -0.040834375
0.096225604 0.071725592 -0.050347522
0.095375717 0.072343931 -0.05000589
0.091287196 0.075164713 -0.048398934
0.10307781 0.056902952 -0.05331086
0.10130718 0.039040402 -0.05285427
0.099588588 0.040246293 -0.052171197
0.026717994 0.03795822 -0.02463395
0.10021165 0.067407593 -0.050778545
0.068859354 0.089386031 -0.038236208
0.10132176 0.056566142 -0.051475354
0.10055355 0.057086624 -0.051163193
0.10164283 0.038064659 -0.052395776
0.099905968 0.039306693 -0.051668614
0.10198502 0.037050225 -0.051954273
0.098894171 0.067584977 -0.049682263
0.097668566 0.067642748 -0.048627958
0.080885008 0.089560166 -0.041418437
0.087804049 0.083918035 -0.043640472
0.10153779 0.063246079 -0.049152393
0.091460593 0.080520697 -0.044594631
0.083344184 0.086286634 -0.041257504
0.079184666 0.089147851 -0.039651126
0.082069106 0.08637584 -0.04020182
0.099754669 0.062953308 -0.047304638
0.10390778 0.050803714 -0.049674436
0.1033017 0.042198345 -0.049822975
0.10112174 0.043021612 -0.048321322
0.030493133 0.037687097 -0.021229008
0.093836993 0.077267133 -0.044425532
0.089635305 0.080226958 -0.042766251
0.0856148 0.083081737 -0.041095305
0.088357069 0.080329955 -0.041704856
0.084276997 0.083246581 -0.04000498
0.080076404 0.086183578 -0.038320731
0.076892607 0.088392958 -0.037077822
0.097705424 0.072995968 -0.04489563
0.074963391 0.088203877 -0.035170164
0.10331973 0.058193617 -0.046952937
0.10254466 0.058723897 -0.046643086
0.029978987 0.042972211 -0.018849997
0.033579119 0.033592761 -0.020331368
0.071139403 0.090063684 -0.033115916
0.10051366 0.068714432 -0.044309869
0.080897875 0.0065713152 -0.038616713
0.029129617 0.029909346 -0.018399788
0.099112466 0.068874389 -0.043218344
0.069316119 0.089760274 -0.031294435
0.10714114 0.052371062 -0.046266906
0.10651159 0.043694101 -0.046609592
0.10485494 0.044877619 -0.045905322
0.096199967 0.024179131 -0.042714905
0.031047024 0.047130555 -0.017059296
0.032115631 0.033274241 -0.018354414
0.030008025 0.034086235 -0.016830117
0.050881878 0.0072989613 -0.026070405
0.050110303 0.007846918 -0.025739882
0.10258154 0.064001717 -0.043011922
0.067086525 0.08895427 -0.028742988
0.10586991 0.052494176 -0.04519096
0.10377777 0.053251877 -0.043707397
0.031487953 0.038533468 -0.016054792
0.096196495 0.077834822 -0.039273493
0.091252774 0.081324577 -0.037299201
0.10169308 0.06467066 -0.042622458
0.10047151 0.064766571 -0.041542951
0.10060769 0.073940419 -0.040532254
0.094845682 0.078000069 -0.038191851
0.086526148 0.083875686 -0.034824573
0.082365125 0.086792558 -0.033165541
0.093421593 0.07818523 -0.037108965
0.063520283 0.089823425 -0.026247142
0.10525691 0.059769988 -0.042416196
0.099285237 0.026765198 -0.040748175
0.098723263 0.073674299 -0.038706515
0.077251829 0.088775322 -0.030058468
0.097443841 0.07373891 -0.03767962
0.10393237 0.059901953 -0.041343085
0.10797144 0.046337932 -0.042629465
0.10708694 0.046913289 -0.042329904
0.10631599 0.047390074 -0.042044047
0.10540321 0.048053645 -0.041655395
0.10185179 0.069909506 -0.038856864
0.0961532 0.073841386 -0.036619987
0.075507417 0.088374794 -0.028297365
0.060771286 0.088571146 -0.022958357
0.10899111 0.054055996 -0.041666832
0.10270628 0.030566707 -0.040024634
0.072019137 0.0060194433 -0.028262645
0.054612875 0.0055262595 -0.021530036
0.10692666 0.054741904 -0.040270824
0.10560919 0.054838523 -0.039224647
0.10468955 0.036558725 -0.039439708
0.10258087 0.029212132 -0.038740374
0.099026568 0.022851221 -0.037309766
0.093929961 0.019254811 -0.036146291
0.049421594 0.0085937828 -0.018682703
0.10317294 0.065794483 -0.037230086
0.069331579 0.089483313 -0.023694169
0.036343023 0.036581039 -0.01244445
0.029285572 0.040849127 -0.0089327488
0.093416162 0.081893116 -0.032077286
0.089366175 0.084777012 -0.030410845
0.085151948 0.087703414 -0.028763009
0.096193179 0.079104379 -0.032708604
0.10647798 0.060938679 -0.037060857
0.10573656 0.061439924 -0.036764208
0.067519851 0.089107566 -0.021927666
0.10855041 0.049493097 -0.038275145
0.1056604 0.033505879 -0.038156349
0.10484783 0.034116179 -0.037811089
0.036566209 0.064534545 -0.010329081
0.087804385 0.012846798 -0.031156827
0.031170405 0.045713305 -0.0087942816
0.034131557 0.023292348 -0.0100722
0.098389648 0.088677242 -0.032995645
0.092044994 0.082055017 -0.031006932
0.088075355 0.084869199 -0.029370971
0.086771771 0.084954262 -0.028336398
0.083397992 0.087280527 -0.027038991
0.099255279 0.075301416 -0.032920208
0.10557139 0.032038711 -0.036942374
0.034956884 0.064172193 -0.0084627569
0.033196993 0.065394208 -0.0077664517
0.032093365 0.051339462 -0.0080670658
0.087899752 0.011333503 -0.029929318
0.064255193 0.0075268075 -0.020929154
0.061752841 0.0032804981 -0.020461377
0.082063325 0.087411098 -0.025982507
0.081118941 0.088112086 -0.025570516
0.10158495 0.072070457 -0.032793652
0.10992881 0.045419402 -0.036595266
0.10649449 0.03961537 -0.036355622
0.10754602 0.038122915 -0.036180437
0.10665073 0.029050477 -0.035605196
0.099292994 0.017428294 -0.033139214
0.091705717 0.0156883 -0.030895513
0.090881109 0.0086274296 -0.030416906
0.038578719 0.037723586 -0.0091435462
0.03610938 0.033349589 -0.0089651439
0.031074669 0.036821485 -0.0069877151
0.031641196 0.035757631 -0.0065286718
0.058795743 0.010712601 -0.018021014
0.033282265 0.028617732 -0.0078005586
0.042551041 0.016176164 -0.011974156
0.10570642 0.069217168 -0.034409415
0.10409293 0.070323497 -0.033778206
0.10324221 0.07094273 -0.033436477
0.077684015 0.08886908 -0.023183465
0.1018123 0.071106084 -0.03237059
0.074640058 0.090181984 -0.021452267
0.075711377 0.088613659 -0.021360312
0.10877834 0.056193709 -0.035760432
0.10788903 0.056804478 -0.035408352
0.057733014 0.091028877 -0.014912451
0.10832503 0.035996966 -0.035390567
0.10695596 0.028057814 -0.035170373
0.035790205 0.069254197 -0.0065992288
0.032822795 0.063445829 -0.0057739336
0.030127659 0.050589822 -0.0053421073
0.03158826 0.041904446 -0.0056880843
0.036188453 0.031914353 -0.0076516699
0.049411096 0.016576029 -0.013624888
0.041196503 0.022338133 -0.010319758
0.10641114 0.067108713 -0.033638608
0.10557576 0.067710333 -0.033301007
0.10857723 0.063877635 -0.033542909
0.11093316 0.053102575 -0.035545684
0.10979662 0.043969169 -0.035399023
0.04339432 0.080663927 -0.0088472925
0.11072407 0.032747477 -0.035224315
0.039659917 0.074465066 -0.0076015517
0.038909245 0.074976757 -0.0073031206
0.10286318 0.021354064 -0.033012036
0.099203259 0.016044118 -0.031861611
0.03190108 0.055579994 -0.004892895
0.033341806 0.053850286 -0.0048255082
0.088652864 0.0080667362 -0.02759742
0.087838255 0.0085706338 -0.027312398
0.037014335 0.037398688 -0.0072174985
0.03454835 0.039131049 -0.0061968584
0.080399014 0.0061848909 -0.024010651
0.036571264 0.030995417 -0.0071189012
0.040373228 0.027641505 -0.0079515819
0.054434367 0.011785597 -0.014217217
0.061867185 0.00646092 -0.017256539
0.060218655 0.007645987 -0.016592365
0.055002414 0.010668464 -0.013798501
0.051203638 0.013882685 -0.013033673
0.049923077 0.014131896 -0.011811435
0.11586156 0.068939194 -0.035534598
0.10191718 0.078720808 -0.02992963
0.089436308 0.087514088 -0.024902757
0.10833941 0.062386245 -0.032446034
0.067933008 0.090727016 -0.016226135
0.11489941 0.048599772 -0.036178458
0.11030351 0.051077597 -0.033752128
0.059952825 0.086339131 -0.01357997
0.057405148 0.088093013 -0.012576368
0.10997594 0.041451171 -0.033859588
0.10954119 0.042597972 -0.034189269
0.04740769 0.084406927 -0.008330714
0.11102244 0.031823315 -0.03473879
0.10884294 0.032447353 -0.033372875
0.042810693 0.07875593 -0.0068893377
0.1065371 0.026023135 -0.033278022
0.039508402 0.073058501 -0.0063620452
0.10288386 0.019833647 -0.031783778
0.099117674 0.014637984 -0.030597214
0.033698369 0.052887339 -0.0043345671
0.068049267 0.0075539425 -0.018385369
0.04398378 0.024324466 -0.0088226087
0.041793287 0.019942161 -0.0084613655
0.098053612 0.080583349 -0.027919907
0.094817854 0.082888409 -0.026562285
0.093971692 0.083499454 -0.026219375
0.089769565 0.086437672 -0.024533931
0.084803686 0.08993879 -0.022555564
0.10169837 0.077199638 -0.028844826
0.098306417 0.079581983 -0.027518526
0.068164468 0.089766204 -0.015798172
0.068424404 0.088785946 -0.015369691
0.11059046 0.05006323 -0.033333369
0.057247303 0.086613387 -0.011419173
0.11056992 0.039459862 -0.032967445
0.10667935 0.023644164 -0.031586606
0.10639139 0.024603896 -0.032059271
0.03955714 0.071508177 -0.005206313
0.099057548 0.013269447 -0.029304519
0.083204284 0.0096619725 -0.023560442
0.06844227 0.0065351725 -0.017918672
0.056955956 0.014575738 -0.013319194
0.048695065 0.020432893 -0.0099639259
0.040345065 0.026261933 -0.0066282172
0.063156128 0.0095623732 -0.01511278
0.06238272 0.010110505 -0.014781825
0.045008317 0.022278823 -0.0078400057
0.10521051 0.073930874 -0.029774193
0.10197562 0.0761673 -0.028462864
0.11152585 0.058579691 -0.032607116
0.057595212 0.085560217 -0.01105069
0.046809305 0.082475491 -0.006406974
0.036720715 0.056278847 -0.0036383644
0.04283528 0.036636323 -0.0059999768
0.075496502 0.0068904534 -0.019394964
0.052448116 0.02312322 -0.010064919
0.075857602 0.0059426799 -0.01887621
0.057040572 0.013193078 -0.011968542
0.052846901 0.016036909 -0.010351218
0.072576948 0.093413308 -0.014737772
0.06145348 0.090323836 -0.010573177
0.039299469 0.068662271 -0.002751423
0.037661858 0.045683526 -0.0022290647
0.048381194 0.018636636 -0.007788755
0.078280605 0.089519426 -0.016959177
0.039121643 0.06725426 -0.0015215725
0.041149311 0.049453855 -0.0023660939
0.038027275 0.044701081 -0.0017463807
0.083779693 0.0057082698 -0.020539813
0.10124104 0.081887059 -0.024101678
0.11504612 0.060387433 -0.029708073
0.11251687 0.053055868 -0.029864579
0.040564656 0.041476808 -0.0014753528
0.10891231 0.075637266 -0.026727881
0.045885187 0.077625126 -0.0021503959
