# .PCD v0.7 - Point Cloud Data file format
VERSION 0.7
FIELDS x y z
SIZE 4 4 4
TYPE F F F
COUNT 1 1 1
WIDTH 976
HEIGHT 1
VIEWPOINT 0 0 0 1 0 0 0
POINTS 976
DATA ascii
0.0022723563 0.0029661432 0.058689382
0.0062856106 0.0058461502 0.075437844
0.011374378 0.0071275458 0.094084084
0.01073456 0.0090484731 0.091915004
0.02061956 0.031833939 0.14018315
0.010934126 0.011422332 0.083275735
0.011244579 0.011682119 0.080551848
0.0088677034 0.018450592 0.072740138
0.024670796 0.046114635 0.13319069
-0.0064364094 0.054946013 -0.00064504333
-0.012056376 0.085996896 -0.014955699
0.013501133 0.0098917671 0.072843879
0.0018371789 0.045157045 0.031691208
-0.0079573365 0.073821716 -0.001024697
-0.015841626 0.11199234 -0.020967189
0.018653207 0.012396015 0.088969335
0.020520002 0.0063271783 0.097140044
-0.0095278928 0.11173721 -0.00057458133
-0.010330627 0.13204885 0.0014240146
0.029714007 0.033337392 0.14162987
0.024480246 0.048743222 0.12410054
0.027762827 0.059381481 0.14219852
0.0095645497 0.0099714249 0.047080711
0.0056625516 0.035795264 0.038752422
0.0033053998 0.05919867 0.032016829
-0.0029588607 0.077070229 0.012860162
-0.005309538 0.083933547 0.0050380547
-0.0016846587 0.072605312 0.019151179
-0.015580901 0.11349913 -0.027599595
0.0064783483 0.020936932 0.030987523
0.00072936056 0.037833821 0.011731475
7.6972065e-05 0.039752565 0.0095412973
-0.001579508 0.04477166 0.0038156258
-0.0057284571 0.056814056 -0.0099306889
0.0083409669 0.014952092 0.039010361
0.0042514158 0.026933338 0.025342921
0.015073445 0.010058664 0.063005105
0.011776038 0.019444242 0.053664252
0.0031482019 0.045080632 0.02452364
0.0090149455 0.027241334 0.046076402
-0.0096525392 0.098343849 -0.015076537
0.012363315 0.032828491 0.060770646
0.027675679 0.041783787 0.12455608
0.030090455 0.034225762 0.13439268
0.029567905 0.035761889 0.13265671
0.028385745 0.060023997 0.13267221
0.03273996 0.046396092 0.15075265
-0.00047398033 0.056287915 0.010556052
-0.0021466394 0.061281838 0.0048592556
-0.006259433 0.073279329 -0.0088706538
0.016077578 0.023343585 0.067845628
0.018478118 0.016630456 0.0756533
0.0088415649 0.044691574 0.044941962
-0.010488131 0.10188691 -0.021500744
-0.012062544 0.12282403 -0.021710128
0.016303804 0.038482957 0.075597107
0.025175629 0.049350053 0.11463496
0.016034881 0.009163186 0.060437441
-0.0065357098 0.075969085 -0.015544713
-0.0093130721 0.083353437 -0.022736914
0.008510096 0.047279261 0.038388453
-0.0053819483 0.088180408 -0.0082411617
-0.0041569714 0.083766706 -0.0020612292
0.016438995 0.040013008 0.068840593
0.026096726 0.011206433 0.10438277
0.023211313 0.019632414 0.094704531
0.02496787 0.032469086 0.10390288
0.022066191 0.040963095 0.094189823
0.032954738 0.048024002 0.14146745
0.010144683 0.014298383 0.031462274
0.0043365383 0.045298122 0.017102703
0.020492014 0.012456547 0.076808453
0.014094886 0.031948324 0.053441513
0.011351144 0.039590292 0.045904126
0.0053925109 0.057662498 0.024083773
-0.00040273322 0.074628308 0.0047152676
0.025606835 0.014684949 0.095526867
0.016381823 0.040762961 0.066779979
-0.0038762596 0.10071535 -0.0013514049
0.0065168282 0.026390208 0.015264168
0.01675288 0.010390669 0.053261913
-0.00096247159 0.061392531 -0.0024678074
0.017237034 0.02358087 0.060447164
0.023627233 0.02143798 0.085365161
0.016026586 0.043605223 0.06008989
-0.00069325138 0.092942774 0.0038634725
-0.0046036188 0.10407249 -0.0075372867
-0.0052458066 0.10587077 -0.0097120479
0.029655058 0.020489503 0.11270456
0.028783783 0.041688122 0.11486939
0.015499742 0.015628416 0.044961367
0.013183925 0.022439165 0.037204325
0.010319439 0.030089512 0.02964622
0.020488072 0.014999416 0.067697622
0.02515169 0.018047277 0.086805567
0.027206169 0.047577601 0.10440838
0.030319575 0.057957187 0.12276495
0.036943227 0.060162447 0.15049234
0.0070362967 0.056739878 0.016737677
0.022556109 0.026386607 0.074719965
0.017367383 0.041765258 0.05727531
0.01620017 0.045452897 0.053176507
-0.0046057673 0.10652621 -0.016424671
0.024479024 0.020440497 0.082911968
0.02359473 0.040853977 0.082041807
-0.005743226 0.12666988 -0.014553469
0.029130125 0.023938522 0.10385533
0.026234573 0.032403894 0.094142072
0.010642127 0.031735398 0.02293513
0.012513364 0.057189945 0.037335128
0.016113454 0.046257939 0.051050723
0.031318832 0.057776559 0.1129481
0.024329582 0.041595463 0.072449401
0.026423559 0.034858681 0.082788095
-0.0013286741 0.11666632 -0.010482825
0.0251146 0.040632974 0.069885522
0.030800134 0.043098126 0.090965971
0.024749292 0.043337941 0.063229606
0.022211038 0.05263095 0.049079712
0.020750886 0.057800408 0.040766556
0.025719697 0.044010602 0.054006156
0.021093238 0.057661831 0.038456246
0.032048196 0.043607868 0.076671898
0.025254466 0.047377516 0.045241185
0.033913478 0.039481387 0.077784099
0.033118907 0.042033985 0.073609784
0.032695547 0.044368275 0.067105003
0.023266854 0.055945538 0.028142869
0.033149026 0.045356572 0.059951186
0.033911686 0.042501733 0.064309351
0.03389851 0.044422999 0.057372633
0.029541502 0.057158783 0.04412866
0.03308164 0.047932811 0.050959833
0.033397958 0.047856905 0.048588701
0.041002359 0.043304767 0.079730332
0.031519122 0.053796522 0.040593706
0.04110156 0.04481364 0.070400894
0.046220534 0.050557755 0.087614283
0.043012485 0.042952366 0.060214404
0.041384302 0.047863469 0.054633696
0.042508841 0.046134286 0.05173007
0.039695263 0.055583104 0.037266072
0.041636497 0.049572933 0.045333579
0.049489744 0.045035858 0.076397315
0.042338643 0.048564333 0.042729743
0.050137848 0.043918982 0.073821418
0.040394504 0.054541439 0.034713823
0.055236697 0.050006341 0.093033209
0.054664217 0.051701955 0.091108397
0.049904883 0.045585368 0.066895768
0.050970469 0.04368981 0.064027667
0.055272777 0.051225808 0.084161885
0.050460212 0.046361919 0.057364494
0.051115952 0.045379885 0.054789465
0.05731003 0.046911743 0.080246404
0.050640598 0.047971141 0.048141725
0.051296998 0.046984524 0.045528915
0.049611583 0.051948536 0.039844461
0.046828724 0.059648633 0.032298561
0.05866535 0.044173926 0.077058762
0.066741981 0.064883262 0.11569029
0.044398736 0.06816186 0.017605782
0.058028005 0.046572626 0.070520416
0.046970297 0.061176289 0.023041857
0.050596483 0.050259817 0.036807351
0.042445477 0.074045315 0.0096468395
0.058576636 0.045598231 0.06774839
0.064889409 0.048183016 0.095972046
0.049835935 0.053552721 0.028021954
0.045433261 0.066310294 0.014732879
0.058877733 0.04599639 0.060997419
0.069314294 0.059042633 0.10708104
0.059785701 0.044467717 0.057823241
0.065689743 0.047676474 0.083894625
0.065540567 0.04778149 0.086315945
0.059318118 0.046714358 0.05150884
0.059542589 0.046697691 0.049099635
0.050283954 0.074718982 0.013398346
0.046848077 0.084913291 0.001743691
0.0586075 0.050108805 0.042709045
0.057409056 0.054322895 0.034157749
0.067210704 0.045280859 0.071347378
0.067029402 0.04554132 0.073674619
0.075457685 0.067131832 0.11247168
0.059602432 0.048165344 0.039868787
0.049132075 0.078912795 0.0048403107
0.072464749 0.05211997 0.093334109
0.057390533 0.055849694 0.024900347
0.055345409 0.061658733 0.019469669
0.058401074 0.052350122 0.031368397
0.067222863 0.0459961 0.064191438
0.057627071 0.055661969 0.022550311
0.055488497 0.061735712 0.016847502
0.067789808 0.044937186 0.061574101
0.07360813 0.049505938 0.089976892
0.073390365 0.050300859 0.08781004
0.067183875 0.047563255 0.05491244
0.050476439 0.096966162 -0.0013137646
0.067744419 0.046536125 0.052341927
0.0741622 0.048842467 0.080632657
0.066803508 0.049975686 0.045945529
0.074199595 0.048944291 0.077936351
0.08004377 0.055598091 0.097514674
0.066793136 0.051218688 0.036931336
0.064413041 0.058039732 0.029139284
0.075394332 0.046140905 0.07475961
0.083981864 0.069594756 0.11646277
0.067280091 0.05037047 0.034144349
0.059406009 0.073146828 0.0094028087
0.056531087 0.081775263 -0.00044732913
0.056730025 0.080973148 0.0017413758
0.075373642 0.046691187 0.067754276
0.08113955 0.052798569 0.094288796
0.063993149 0.060378127 0.020139195
0.062227871 0.065599687 0.014216723
0.059500046 0.073259138 0.0067404322
0.075826176 0.04568018 0.064990714
0.085420862 0.065485157 0.10818125
0.075611256 0.046910897 0.05848898
0.076392308 0.045319177 0.055325247
0.058359694 0.098704807 -0.0066853836
0.082550459 0.049564563 0.083936393
0.087120689 0.060833231 0.10457371
0.075471818 0.048431631 0.049250796
0.058918804 0.097100273 -0.0049027745
0.083313778 0.047612023 0.081042357
0.076343723 0.046573907 0.046368226
0.074821725 0.051051334 0.042560957
0.088429123 0.057215784 0.10102993
0.091654658 0.074792981 0.12091307
0.075345024 0.04995954 0.039984137
0.074405819 0.053226821 0.031198595
0.072623335 0.058352768 0.02532047
0.066286229 0.077057913 0.0040013036
0.075501703 0.049767099 0.037632905
0.084109575 0.045971513 0.068766043
0.083653189 0.047165576 0.071325704
0.069120765 0.069135264 0.0092336573
0.072774485 0.05828495 0.022914059
0.071116932 0.063204184 0.017243141
0.068979561 0.069323197 0.01154951
0.089720607 0.053697221 0.090872765
0.093835488 0.068004802 0.11195278
0.072946951 0.058072045 0.020569798
0.071196631 0.063252345 0.014627693
0.083961099 0.046623148 0.061624482
0.064614221 0.10420583 -0.009022519
0.084091946 0.046431996 0.059254043
0.09070307 0.051015135 0.087532282
0.094802186 0.065040484 0.10892659
0.084067926 0.047195494 0.052118063
0.091098189 0.049967483 0.084891662
0.084531762 0.046126574 0.04955294
0.08386635 0.048624054 0.042927679
0.069982953 0.089403659 -0.0036267377
0.069395334 0.091133095 -0.0055402406
0.091616333 0.048496019 0.075040922
0.091319643 0.049340021 0.077965133
0.083990864 0.04846932 0.040562853
0.097080193 0.058107492 0.097463615
0.083035946 0.05162961 0.031863235
0.073228113 0.08043959 -0.001022391
0.082984529 0.051606543 0.034403864
0.081547871 0.055828452 0.028339781
0.073441125 0.079719603 0.0010882448
0.092325456 0.046548769 0.072113514
0.097752415 0.056003258 0.094743073
0.081679575 0.05572515 0.02333042
0.080023438 0.060702804 0.017623914
0.078258157 0.065924838 0.011701201
0.075901687 0.072684877 0.0039825533
0.081621543 0.055700593 0.025893759
0.075871304 0.072602361 0.0066368394
0.09182097 0.047951337 0.065363877
0.069098569 0.11516906 -0.012549344
0.10219455 0.071121067 0.11610056
0.092499346 0.045990765 0.062372245
0.070605837 0.110745 -0.011322822
0.098379157 0.054062065 0.091769382
0.092154361 0.047169097 0.055878714
0.10424484 0.064413518 0.11215077
0.092483468 0.046435043 0.052963912
0.10390572 0.064831078 0.10506849
0.099431314 0.050697781 0.081446417
0.092239775 0.047610898 0.044017442
0.076268561 0.094539098 -0.0082148965
0.092142813 0.047693595 0.046413459
0.075386144 0.097060472 -0.0097631253
0.099757612 0.04961754 0.078799084
0.10508619 0.061021272 0.10171743
0.091499396 0.050056882 0.037403289
0.090430602 0.053271476 0.028626781
0.079998873 0.083910123 -0.0037918352
0.10014307 0.048153277 0.068870045
0.075025797 0.12228003 -0.014304467
0.1061986 0.057334848 0.098193452
0.11845289 0.051188916 0.14501837
0.08905708 0.057388321 0.020109946
0.087399989 0.062307347 0.014441174
0.085294858 0.068439841 0.008743302
0.082956396 0.075272381 0.00095398631
0.10050169 0.046925463 0.066319793
0.08537104 0.068227254 0.006431201
0.10019047 0.047518909 0.059194006
0.10683883 0.054618794 0.08830139
0.1139434 0.063233435 0.11955005
0.10736819 0.052802183 0.085213222
0.11732285 0.052504402 0.12403153
0.10006871 0.048000947 0.049703229
0.081632636 0.10227565 -0.012154445
0.099672422 0.04934939 0.040531524
0.10797855 0.050100893 0.075431511
0.11485872 0.058661547 0.1066785
0.11639656 0.054668244 0.11512908
0.086709306 0.087363943 -0.006728828
0.086120725 0.089093573 -0.0086458344
0.099731237 0.049172774 0.038170114
0.0986351 0.052404553 0.034442283
0.10817794 0.049218003 0.072519854
0.097496927 0.055573799 0.025718011
0.089144938 0.080170602 -0.0036387816
0.098660231 0.052282318 0.032017894
0.11803186 0.048794512 0.11141565
0.095842525 0.060398754 0.015015831
0.094077259 0.065621205 0.0090930015
0.096094064 0.059677653 0.017166611
0.094345063 0.06485226 0.011228707
0.09206152 0.07140132 0.0037829932
0.097505629 0.055420544 0.023277715
0.090003341 0.077619016 -0.0020038728
0.10812105 0.048583679 0.062870525
0.11675481 0.05191173 0.10273293
0.092027359 0.071456268 0.0011374
0.10837718 0.047508996 0.060125645
0.11580191 0.05414265 0.093648061
0.10784325 0.048896201 0.055932142
0.086525127 0.11207411 -0.015980899
0.10842294 0.046935424 0.050503064
0.10819136 0.047711734 0.053407773
0.087934427 0.10761367 -0.014745835
0.11688963 0.050128799 0.090471998
0.12690961 0.051877387 0.13209936
0.10760009 0.049368761 0.046489369
0.11765835 0.047206726 0.087282389
0.11563806 0.053301703 0.081614152
0.092623569 0.093126163 -0.011134455
0.091773592 0.095659718 -0.012688128
0.10794959 0.048151284 0.043957423
0.11643241 0.050257772 0.078619137
0.12840125 0.046049029 0.12829819
0.10566493 0.054703835 0.028843379
0.1068529 0.051380195 0.035199139
0.12930219 0.042283908 0.12479109
0.12710889 0.049076419 0.11962551
0.10445074 0.057820417 0.020085808
0.10594315 0.053618737 0.026198905
0.095867313 0.083350345 -0.0064570382
0.11620117 0.049447566 0.066546053
0.1159495 0.050599769 0.069124401
0.1283564 0.0441892 0.11610048
0.10104237 0.067601793 0.0037795054
0.10447105 0.057701085 0.017690465
0.10281435 0.06261991 0.012023676
0.10103198 0.067836873 0.006087306
0.098693103 0.074670561 -0.0017029969
0.11646085 0.048189286 0.064006075
0.11598493 0.048730101 0.056897491
0.092484526 0.11891323 -0.017796703
0.12727942 0.046431426 0.10707633
0.12826194 0.04244725 0.10384688
0.12621775 0.048448522 0.09816052
0.13992935 0.042188443 0.15409359
0.1156321 0.049129799 0.04742441
0.12719803 0.044570066 0.0948347
0.11510354 0.0503617 0.040891048
0.098017164 0.10059923 -0.015132569
0.097120419 0.10345187 -0.01706551
0.11503893 0.050405029 0.03827301
0.12610865 0.04644933 0.083547488
0.11416845 0.052359708 0.029538292
0.10252464 0.08652126 -0.0094423015
0.10193525 0.088251136 -0.011362331
0.11420897 0.052506432 0.03195595
0.12676309 0.043647714 0.080245912
0.12476338 0.049601316 0.074768469
0.097005524 0.13134921 -0.01839046
0.13916139 0.03951624 0.12983161
0.1389989 0.040606909 0.13243303
0.10968889 0.06487444 0.0087663038
0.10740414 0.071427338 0.0013141241
0.11288167 0.055456474 0.020807657
0.11116339 0.060636852 0.014933975
0.10537935 0.077654339 -0.004472482
0.10482764 0.07928323 -0.0063420413
0.11293864 0.05563283 0.023241656
0.12524199 0.047416884 0.07210511
0.13804156 0.0416575 0.12084948
0.11115279 0.060412921 0.012554349
0.10938754 0.065635741 0.0066313222
0.10703114 0.072390385 -0.001089789
0.12560001 0.045559954 0.068976656
0.12425022 0.048598696 0.060280167
0.13718122 0.04276121 0.11167477
0.13891734 0.037632734 0.11755069
0.12379725 0.048584275 0.051073212
0.10300118 0.11015567 -0.019021429
0.12466432 0.046558812 0.05731545
0.12354873 0.049800623 0.05358937
0.13959481 0.034457609 0.11465938
0.13782367 0.039745841 0.10866375
0.15049903 0.038310841 0.15902998
0.12281589 0.051133491 0.044393435
0.13642779 0.042766079 0.099994995
0.14920142 0.040590376 0.14983013
0.12306572 0.049885269 0.041870832
0.13554883 0.043982308 0.090773873
0.13706192 0.039702754 0.096991479
0.1491179 0.040259704 0.14759988
0.12235152 0.051191434 0.032666653
0.10785213 0.093616575 -0.015692813
0.10815522 0.092948742 -0.013671579
0.12237965 0.051451087 0.034983307
0.13618325 0.040938087 0.087700874
0.14991368 0.036260337 0.14435875
0.14743219 0.044374935 0.13897681
0.12101912 0.05431433 0.023911929
0.11123364 0.083115682 -0.0089755785
0.12109769 0.054492384 0.026317826
0.13634992 0.039695904 0.085228026
0.11595245 0.068246447 0.0015073759
0.11944737 0.058365583 0.015412801
0.11779106 0.063284189 0.0097479234
0.11600859 0.068501778 0.0038104681
0.11366928 0.075336494 -0.0039806729
0.11975054 0.057568673 0.017570838
0.11085194 0.083993949 -0.011291327
0.13472502 0.043770127 0.07661812
0.14915608 0.035453916 0.13217814
0.14911467 0.036413066 0.13491806
0.13548096 0.03953452 0.071007773
0.13343573 0.045668822 0.065312468
0.13511328 0.041623317 0.073864453
0.14824215 0.036442421 0.12316425
0.14791289 0.03855975 0.12602189
0.10925546 0.11579335 -0.021127801
0.13358805 0.044486918 0.062745646
0.14849675 0.034518249 0.12013314
0.13091463 0.050799999 0.047668681
0.132385 0.046525277 0.05381389
0.13107571 0.049679831 0.045048289
0.14628173 0.038735788 0.10483606
0.14783131 0.034483396 0.11100499
0.16055652 0.035174325 0.16144767
0.1302835 0.050888699 0.035918999
0.11384171 0.09922763 -0.017958578
0.13041411 0.050865427 0.038527422
0.14669637 0.035478808 0.099470519
0.11023751 0.14310803 -0.020771768
0.14636141 0.037621301 0.10222574
0.15930441 0.038216241 0.15531169
0.1292465 0.052793071 0.027200084
0.12935336 0.052961919 0.029610567
0.14535755 0.038650509 0.09309566
0.15967901 0.034275457 0.1493116
0.15967825 0.035430662 0.15198439
0.12231492 0.071814947 -0.0010117749
0.12610784 0.061034292 0.012608234
0.12032383 0.078050189 -0.0067984164
0.12758577 0.056796201 0.01870919
0.12794948 0.056050099 0.020907316
0.11725336 0.08774364 -0.013930859
0.14401317 0.040646851 0.081717551
0.14568931 0.036606763 0.090249471
0.12603086 0.060789827 0.010236058
0.12426558 0.066013008 0.004312756
0.12460086 0.065258272 0.0064467257
0.1200126 0.078735366 -0.008896322
0.11445758 0.12612328 -0.022254091
0.14414307 0.039371993 0.079213858
0.15884823 0.033429079 0.13724676
0.15885098 0.034506507 0.13993739
0.14278561 0.041214749 0.068023682
0.14108129 0.044217084 0.05668864
0.14278683 0.040263988 0.065141432
0.14107162 0.045185998 0.059438333
0.15779097 0.03331922 0.1255762
0.15814349 0.032536075 0.12771332
0.139798 0.047280531 0.050467804
0.15671109 0.034465291 0.11639053
0.13856436 0.049172491 0.039228506
0.13863903 0.04950022 0.041513938
0.11991099 0.10497198 -0.020427335
0.13994567 0.046035934 0.047959648
0.11914784 0.10759956 -0.022137273
0.15565051 0.035515785 0.10724041
0.15697207 0.032292657 0.11356532
0.12348719 0.092185892 -0.016294451
0.13729773 0.052592952 0.032812014
0.15571003 0.034360938 0.10469569
0.12617514 0.083249323 -0.011351252
0.13610621 0.054646827 0.023934755
0.13573681 0.05539798 0.021761209
0.1374265 0.05136621 0.030275982
0.15459423 0.035441827 0.095590591
0.16930163 0.033863492 0.15510423
0.16928303 0.035061635 0.1576665
0.13428795 0.058473766 0.013044816
0.13263209 0.06339214 0.0073818727
0.13084951 0.068610393 0.0014432751
0.12850973 0.075446084 -0.0063488148
0.12884766 0.074640863 -0.0041476372
0.13440117 0.058635041 0.015426955
0.15330704 0.037556108 0.086619347
0.15464598 0.034241386 0.093052134
0.16802561 0.035145566 0.14570034
0.15165521 0.040298488 0.075568177
0.15321858 0.036058255 0.081775896
0.1533595 0.036373772 0.084014423
0.16770865 0.034573689 0.14115305
0.16806453 0.033846371 0.14325117
0.15174738 0.037925381 0.0704384
0.15169992 0.039152537 0.072954439
0.1672263 0.03315258 0.13352577
0.14839005 0.044925034 0.053172037
0.14981428 0.04168899 0.059569143
0.1501762 0.040993139 0.061672699
0.16680422 0.032731123 0.12878491
0.16705376 0.032761529 0.13129014
0.14714696 0.046993565 0.044292439
0.14844476 0.043689109 0.050657958
0.12541303 0.11297221 -0.024299338
0.16587737 0.032712415 0.11957201
0.16587265 0.0339109 0.12218684
0.14578892 0.04985141 0.035847224
0.12918308 0.09820608 -0.020635799
0.14699939 0.046803467 0.041903656
0.16469747 0.033766657 0.11047541
0.16580811 0.031712465 0.11678044
0.14435382 0.052857593 0.027175356
0.14559187 0.04985676 0.033249356
0.129994 0.095575698 -0.018865081
0.16351297 0.034909934 0.10128961
0.16471656 0.032578222 0.10790212
0.13707976 0.071650706 -0.0034253625
0.13916011 0.066042282 0.0042649382
0.13743538 0.071033552 -0.001390703
0.13512264 0.077893049 -0.0092125181
0.14069983 0.061830666 0.010419985
0.14260849 0.056863956 0.018709913
0.14221144 0.057600476 0.016515546
0.13274394 0.085882284 -0.01443
0.16350101 0.032549419 0.096172355
0.16349092 0.033766717 0.098690413
0.17891794 0.033511251 0.16054887
0.16210213 0.034583885 0.087198488
0.16209516 0.035708431 0.089803971
0.17770806 0.034373298 0.15157151
0.17868176 0.033267438 0.15814134
0.16035384 0.037303232 0.076185897
0.16070522 0.036687866 0.078233153
0.12919985 0.1296782 -0.026530128
0.17756738 0.033464618 0.14870916
0.15876029 0.039090671 0.065019026
0.15893079 0.039429475 0.067211062
0.1311696 0.12116379 -0.025944304
0.16010423 0.037273344 0.073599428
0.17622876 0.033424459 0.13692391
0.15685579 0.042043522 0.053713761
0.15694645 0.043039691 0.056450188
0.17595144 0.033282153 0.1344645
0.13548125 0.1027435 -0.023383472
0.15536058 0.044780623 0.045226004
0.13456158 0.10633694 -0.024873711
0.15550485 0.045094192 0.047501225
0.17480217 0.033294395 0.12517957
0.15250947 0.051281497 0.03009855
0.15215743 0.051941663 0.028021753
0.15101691 0.05526866 0.024198053
0.15384321 0.047880895 0.036504991
0.15417576 0.047268305 0.038560141
0.17365237 0.032288738 0.113223
0.14749779 0.063193403 0.0072674048
0.14896344 0.059169419 0.013190049
0.14153014 0.081149779 -0.011871209
0.14096129 0.082832217 -0.013812753
0.15077014 0.055204123 0.021688744
0.13916256 0.089253828 -0.017152244
0.13859783 0.090850085 -0.018997062
0.17217371 0.033075325 0.10178494
0.17238976 0.03329277 0.10409954
0.14553432 0.068171784 -0.0010091309
0.14712714 0.063908897 0.0051542418
0.14592238 0.067461088 0.0011197225
0.14356631 0.074209318 -0.0066040941
0.17045857 0.034808915 0.090615734
0.17068237 0.035069928 0.092924424
0.16917673 0.035941456 0.081380993
0.16922623 0.037144955 0.083975367
0.16731431 0.038673941 0.070345327
0.18562335 0.034904823 0.14525934
0.18691453 0.034733154 0.15476103
0.16520716 0.042383689 0.059532173
0.16561972 0.041609824 0.061738256
0.18528846 0.033436686 0.14039305
0.18550766 0.033790365 0.14261256
0.16344666 0.044079494 0.048323989
0.14103438 0.1104959 -0.027314518
0.16366716 0.044377748 0.05060621
0.18378247 0.033245012 0.12869248
0.18402313 0.033646092 0.1309213
0.14412054 0.097573742 -0.023169173
0.16076007 0.049225569 0.033310652
0.16015013 0.051134668 0.031166362
0.16186531 0.047158677 0.039581802
0.16225483 0.046400178 0.041745637
0.18239717 0.034351833 0.11961141
0.18183318 0.036017679 0.11766993
0.18261251 0.034698397 0.12185219
0.15555842 0.061451796 0.010221337
0.14730631 0.08616367 -0.016714217
0.14671481 0.087894864 -0.018642325
0.15755607 0.056503482 0.018471939
0.15699689 0.05810678 0.016642839
0.15843019 0.05487553 0.022926258
0.15884419 0.054121904 0.025099222
0.14489745 0.094937555 -0.02139559
0.18128628 0.033563919 0.10990741
0.15379381 0.065339364 0.001771115
0.15206821 0.07033322 -0.0038892794
0.15150559 0.071903557 -0.0056998283
0.14975558 0.077192292 -0.011709619
0.15519367 0.062098678 0.0081410427
0.1499528 0.077466287 -0.009393678
0.1795291 0.035243735 0.098778605
0.18052238 0.034859665 0.10581847
0.18091691 0.034144007 0.10793872
0.17783937 0.035987347 0.08732342
0.17900145 0.034765266 0.094122708
0.17924958 0.035038657 0.096410744
0.17602268 0.037870292 0.076008193
0.17630935 0.038061868 0.078462407
0.17743289 0.036764205 0.085170209
0.173649 0.041184504 0.063041151
0.17404424 0.040572301 0.065008953
0.1743264 0.040816408 0.067387991
0.17563677 0.03848125 0.073963195
0.19525278 0.035034455 0.1511611
0.1701224 0.047134794 0.045563478
0.17204633 0.043188594 0.054050468
0.17229506 0.043563578 0.056329459
0.14690627 0.1184485 -0.029024314
0.19411567 0.035448313 0.14400122
0.19445859 0.035669446 0.14643671
0.19497834 0.034669496 0.14884952
0.16862342 0.049269482 0.036636371
0.19295232 0.03460566 0.13447249
0.19232948 0.036381267 0.1324541
0.19301128 0.03660848 0.13749018
0.16372639 0.059260707 0.013385168
0.15315433 0.090880632 -0.021334419
0.16517121 0.056195285 0.019572821
0.16685578 0.053259071 0.028188277
0.15043136 0.10185799 -0.025968283
0.19121818 0.034422211 0.1227598
0.19065878 0.036151282 0.12084806
0.19154589 0.034656994 0.12518829
0.15988722 0.068158738 -0.0033218623
0.15754658 0.074996315 -0.011116035
0.16191861 0.063195586 0.0049474193
0.16151406 0.063902296 0.0028385124
0.16030926 0.067456491 -0.0011963982
0.15795328 0.074202217 -0.008921206
0.15598489 0.081157655 -0.0141953
0.16326213 0.060141087 0.011084057
0.18945064 0.035281897 0.11128328
0.18990159 0.034501985 0.1134662
0.18756068 0.036982834 0.10009626
0.1879845 0.036246367 0.10218859
0.18455112 0.039054252 0.081895463
0.18617719 0.0370127 0.090820991
0.18560624 0.038673665 0.088952042
0.18263167 0.040743545 0.070679486
0.18205461 0.042458754 0.068737194
0.15121999 0.13585727 -0.031166317
0.1841211 0.039765567 0.079747051
0.18050192 0.043436341 0.05971178
0.17991529 0.045173146 0.057725817
0.15304248 0.12546034 -0.03121379
0.15606044 0.10937034 -0.029960807
0.17648463 0.05008775 0.040203724
0.17698179 0.049077764 0.04261712
0.17882176 0.045410298 0.05086365
0.17820516 0.047139 0.048826579
0.17175731 0.058199063 0.016528228
0.15961705 0.093756564 -0.024005948
0.17283863 0.055616684 0.020758476
0.1587355 0.097363614 -0.025565237
0.17356199 0.055191979 0.025233595
0.17314759 0.055837728 0.023144562
0.17539927 0.051167037 0.033694472
0.17485368 0.052885391 0.031780623
0.15673929 0.10675976 -0.028358653
0.20160127 0.038219661 0.13873045
0.20201121 0.037612952 0.14072749
0.1658138 0.071637034 -0.0080600018
0.16796426 0.0660353 -0.0003655483
0.16623777 0.071031697 -0.0060305973
0.16392529 0.077890299 -0.013849143
0.1698301 0.062168658 0.0080682393
0.16252805 0.083128043 -0.017220391
0.16189088 0.084954739 -0.019302361
0.17147551 0.057872307 0.014263323
0.20034134 0.036446907 0.12885939
0.19978803 0.037975721 0.1270688
0.1969361 0.037242338 0.10813042
0.19641046 0.038786143 0.10638054
0.19844133 0.037109204 0.11758126
0.1944714 0.039629184 0.094887197
0.19494008 0.038880683 0.097031593
0.19080031 0.042386398 0.074543007
0.19025764 0.043962952 0.072715983
0.19127652 0.04162297 0.0767719
0.19285494 0.040547505 0.085825145
0.1890887 0.044343252 0.065724522
0.18849444 0.046024542 0.063784368
0.18271692 0.053671762 0.035254188
0.18314947 0.052989312 0.037331425
0.16231605 0.11515112 -0.032168813
0.18493451 0.04995361 0.046054062
0.18438593 0.051570378 0.04416614
0.161191 0.12085369 -0.033452574
0.18685216 0.047056329 0.054691572
0.18629046 0.048609741 0.052852895
0.1651886 0.1004302 -0.028631242
0.16440433 0.1040529 -0.030138675
0.18121324 0.054734454 0.026174944
0.18152693 0.054990284 0.028506918
0.17399128 0.068599507 -0.0055026617
0.17444742 0.067904398 -0.0033809845
0.17209156 0.07464765 -0.011106762
0.1760909 0.063649192 0.0027588075
0.1703131 0.080646798 -0.016603559
0.17652607 0.062978044 0.0048849983
0.17800097 0.059731603 0.011181259
0.17750259 0.060605794 0.0088852104
0.16827157 0.087821923 -0.022126243
0.16758487 0.090388954 -0.023756709
0.17951456 0.056675993 0.017363243
0.20837077 0.042800181 0.13116765
0.20950225 0.040135719 0.13554724
0.20878343 0.042968914 0.13361324
0.2069492 0.04079929 0.12151109
0.20734596 0.041041873 0.12393247
0.20389463 0.040645584 0.10322431
0.20323773 0.042546503 0.10100826
0.20549899 0.03986717 0.11203904
0.20592806 0.039940506 0.11458199
0.20469916 0.043557569 0.11049813
0.19998337 0.043400906 0.082878746
0.19935946 0.045285288 0.080770634
0.19878991 0.046964649 0.078838222
0.20170376 0.042415641 0.09200941
0.2010514 0.044242788 0.089883991
0.19417202 0.05231132 0.056868903
0.197201 0.04693646 0.069587924
0.19662312 0.048654173 0.067642905
0.1906445 0.055232108 0.038966794
0.19117424 0.054233376 0.041376628
0.19301297 0.051550061 0.049823217
0.19228935 0.054254711 0.047997855
0.16732025 0.12944894 -0.035051171
0.19553122 0.047719825 0.060832176
0.1948649 0.049599871 0.058643501
0.18790142 0.056413278 0.023172883
0.17088465 0.10770219 -0.032683905
0.18929562 0.054120928 0.029705156
0.18963079 0.054350678 0.032043692
0.1820669 0.066229828 -0.0025924081
0.18033953 0.071228758 -0.008262082
0.17856957 0.076443061 -0.014208823
0.17802715 0.078086965 -0.016078994
0.18258916 0.065355241 -0.00025824085
0.17669876 0.083332166 -0.019457284
0.176062 0.085161343 -0.021538332
0.18403442 0.062380604 0.0058241384
0.17402869 0.09301497 -0.02647765
0.18606457 0.058426421 0.014271304
0.18755753 0.056081962 0.020875318
0.21455754 0.043569535 0.11849172
0.21620587 0.044525549 0.1279348
0.21332943 0.052942552 0.11837714
0.21538827 0.04897882 0.12677629
0.21051441 0.046236917 0.09826839
0.20996179 0.047831833 0.096419267
0.2093731 0.049545813 0.094489552
0.21228515 0.045252956 0.10727601
0.2116717 0.047770962 0.10573673
0.20594002 0.049539763 0.076010205
0.20525515 0.052243818 0.074207515
0.20819847 0.047879118 0.087164775
0.20754845 0.050440446 0.085455567
0.19913368 0.056828793 0.045158111
0.20054027 0.056474742 0.052147478
0.20101504 0.055892721 0.054195058
0.20354608 0.052232653 0.064991765
0.20277664 0.05586065 0.063472211
0.19727314 0.054676186 0.033111885
0.17711622 0.11421092 -0.034739483
0.19765219 0.054973267 0.035396777
0.19884992 0.055523213 0.042639006
0.18679617 0.072713777 -0.011224528
0.18615313 0.074593857 -0.013380592
0.18440881 0.0805986 -0.018880904
0.19065589 0.062936313 0.0026024682
0.19009909 0.06457597 0.00069229957
0.19219945 0.0596985 0.0088881273
0.19166681 0.060567677 0.0065972675
0.18243587 0.087783709 -0.024413263
0.19262742 0.059959698 0.011277476
0.19369459 0.0576239 0.015274378
0.18026827 0.097531542 -0.028998869
0.17964612 0.099444985 -0.031156406
0.1941458 0.057721525 0.017756598
0.19556408 0.055708155 0.024061533
0.19594686 0.055970684 0.026386356
0.18850888 0.067853019 -0.0056538801
0.22079885 0.052511148 0.1121282
0.22291794 0.054703005 0.124182
0.21669832 0.053055264 0.091740169
0.21590391 0.056834757 0.090031408
0.21912798 0.051315799 0.10292567
0.21833117 0.055166222 0.10112916
0.22150809 0.049665712 0.11403506
0.20927575 0.059187397 0.05825755
0.20987025 0.05828603 0.060652465
0.21244496 0.054676905 0.071306467
0.21167868 0.058497235 0.069593854
0.21477146 0.054015696 0.082639217
0.21407698 0.056875866 0.080741264
0.18357427 0.11878791 -0.037466526
0.20534682 0.05599831 0.036759671
0.20583929 0.055985663 0.039372005
0.20753355 0.057217464 0.048634131
0.1965697 0.066033803 -0.0023700269
0.19078407 0.083036967 -0.021780951
0.19014785 0.08486855 -0.023861142
0.19815353 0.062092077 0.003492821
0.18828687 0.091761053 -0.029027939
0.1887781 0.091128014 -0.027019089
0.20021673 0.059125334 0.012134578
0.20181274 0.056794107 0.01872566
0.18609811 0.10288608 -0.033865929
0.20222522 0.057134032 0.021013778
0.20412555 0.055095617 0.029858142
0.20365199 0.05582799 0.027738636
0.1943557 0.070928827 -0.010579981
0.19258557 0.076143377 -0.016526248
0.19601364 0.066902898 -0.0046974965
0.19485712 0.070279248 -0.0085211731
0.23068914 0.058168024 0.12119053
0.22124521 0.062223237 0.078301162
0.22058478 0.065767288 0.076929934
0.22318852 0.062179066 0.08763101
0.22241433 0.067674205 0.086539924
0.22580044 0.059581604 0.098500386
0.22503497 0.065085851 0.097473025
0.22839683 0.056003623 0.10919348
0.2276175 0.061551012 0.10809608
0.21360454 0.057029486 0.04057128
0.21399142 0.058347236 0.043075033
0.21450631 0.057700194 0.045121826
0.21556996 0.058007982 0.050038397
0.21597238 0.059381392 0.052491535
0.21643271 0.059687857 0.054770514
0.21824969 0.063554369 0.06491255
0.21877126 0.062894806 0.066951275
0.20463841 0.06337487 0.00044065621
0.20568383 0.061008651 0.0044298172
0.20619765 0.061120555 0.006920686
0.20674737 0.060412146 0.0090945717
0.20836952 0.05818129 0.015561912
0.19362263 0.10381057 -0.032524444
0.21034257 0.056448191 0.024168393
0.21175236 0.056150109 0.031076759
0.21220016 0.056455389 0.033353653
0.20049222 0.067205362 -0.017178738
0.20242283 0.068284333 -0.0078055291
0.2007096 0.073145568 -0.013379778
0.19896092 0.078428894 -0.019378848
0.204135 0.064036988 -0.0016746782
0.22688276 0.069591105 0.069388159
0.22747086 0.068703845 0.07171797
0.22794434 0.069078252 0.073954657
0.22982281 0.074912786 0.084430724
0.23262791 0.069375582 0.094746336
0.23531945 0.066662155 0.10574172
0.23184974 0.076905601 0.094109222
0.23462442 0.072252721 0.1046557
0.21216978 0.06130819 0.0010781744
0.21437095 0.058352567 0.0097007584
0.21607032 0.05603116 0.016277589
0.21485855 0.059586663 0.012267394
0.21651575 0.057355657 0.018759411
0.21698515 0.057698473 0.021015247
0.21811587 0.055081282 0.025259711
0.21855146 0.056313939 0.027779277
0.22001696 0.056252342 0.034454528
0.22054118 0.057230469 0.037258886
0.22196425 0.058267381 0.044037536
0.22251175 0.058482397 0.046482209
0.22404529 0.060264744 0.053660639
0.22452733 0.061453968 0.056259938
0.22508302 0.062515929 0.059053108
0.22552997 0.063868448 0.061426513
0.20887661 0.067533001 -0.011331784
0.2106237 0.063289739 -0.0051842332
0.22018476 0.064017124 0.0052521732
0.22629671 0.055163905 0.028535005
0.22681364 0.055474874 0.030803449
0.22842564 0.056066118 0.037994549
0.22893535 0.056413025 0.040281501
0.23113395 0.060398988 0.050256617
0.23384042 0.065580398 0.062811799
0.23435906 0.066880122 0.065246537
0.23640452 0.075653493 0.076378807
0.23686469 0.078961208 0.079162009
0.23739854 0.079235986 0.081498727
0.2208811 0.057434469 0.0062179044
0.21855953 0.064306013 -0.0016118623
0.21796574 0.067903839 -0.0031187879
0.21676169 0.072389111 -0.0069241496
0.22258808 0.0561869 0.012872892
0.21501338 0.07837379 -0.01240446
0.216144 0.076067023 -0.0084428508
0.22188774 0.061955702 0.011615193
0.2247151 0.055444971 0.021655886
0.22440699 0.068872094 -0.0062747765
0.22605614 0.066895984 -2.9716641e-05
0.2226184 0.078014947 -0.011426358
0.22204599 0.07964129 -0.013281351
0.22661433 0.067127116 0.0022949027
0.2283956 0.063946933 0.0085718744
0.2307481 0.061981391 0.017402422
0.23128474 0.063308388 0.019844878
0.23298767 0.061933741 0.026586905
0.23525633 0.060906712 0.035634935
0.23751104 0.058248643 0.044024304
0.23816583 0.057371598 0.046274029
0.24052873 0.062304847 0.056520201
0.24108276 0.061700419 0.058484815
0.24397095 0.072812691 0.072129831
0.23078044 0.071857557 -0.0092839226
0.23253709 0.067696936 -0.0031773457
0.22851729 0.080403082 -0.016396984
0.23490578 0.06376721 0.0052359533
0.23430331 0.065451831 0.0032678097
0.23735334 0.061799407 0.014018845
0.23676814 0.063501507 0.012068406
0.23908539 0.061786115 0.020623237
0.23970869 0.060861018 0.022949809
0.24142301 0.061830118 0.029732909
0.24371292 0.055917621 0.037805136
0.24200785 0.061071411 0.031893764
0.24440347 0.062136039 0.041210853
0.24754123 0.062395487 0.052745908
0.25083929 0.074487969 0.066524863
0.23899612 0.069379188 -0.006204294
0.23843643 0.0710399 -0.008094036
0.2407169 0.066356286 -0.00013089553
0.242567 0.063176036 0.0061356686
0.23736244 0.078526981 -0.011360746
0.2367526 0.079204738 -0.013460742
0.24322903 0.063434802 0.0084819477
0.24573192 0.062543452 0.017365327
0.24812984 0.060582127 0.026110645
0.25073692 0.063462019 0.035900276
