# .PCD v0.7 - Point Cloud Data file format
VERSION 0.7
FIELDS x y z
SIZE 4 4 4
TYPE F F F
COUNT 1 1 1
WIDTH 1327
HEIGHT 1
VIEWPOINT 0 0 0 1 0 0 0
POINTS 1327
DATA ascii
0.039526343 0.057970077 -0.065318257
0.026823699 0.057656854 -0.065487206
0.029275537 0.058572412 -0.064639002
0.030026555 0.058855802 -0.064354032
0.022782803 0.056005955 -0.065935582
0.023690701 0.056316942 -0.065614134
0.015682995 0.057644546 -0.06510374
0.1125426 0.09532392 -0.030627549
0.13248524 0.10306692 -0.023530543
0.0014198124 0.056355149 -0.065698951
0.10717224 0.097393751 -0.028079093
0.064346045 0.09697637 -0.028818667
0.056633323 0.10152745 -0.024925381
0.054194152 0.1003671 -0.024812132
0.30799115 0.056102097 -0.066967458
0.31040737 0.057068139 -0.066115499
0.30632553 0.055714637 -0.066577792
0.30718356 0.056030929 -0.066266596
0.30928189 0.056844026 -0.065524876
0.28101236 0.05459255 -0.067418337
0.2628296 0.055630535 -0.066485822
0.26442111 0.056146413 -0.065908253
0.24399404 0.055874735 -0.066594094
0.2479108 0.057388365 -0.065190941
0.23061979 0.058083713 -0.064597189
0.23144931 0.058381617 -0.064298958
0.22651359 0.056719095 -0.06507647
0.20833223 0.056614906 -0.065616161
0.20997289 0.057236165 -0.065031528
0.21955742 0.060932845 -0.061619341
0.19342826 0.057548732 -0.064849585
0.1942291 0.057851851 -0.064570665
0.19507135 0.058328152 -0.063275069
0.29277289 0.10276756 -0.023309261
0.16092995 0.057829767 -0.064876407
0.15770818 0.056776583 -0.065027595
0.1428083 0.056807131 -0.064868003
0.13343042 0.058829904 -0.063629061
0.2509754 0.10453838 -0.021823466
0.12709245 0.056424469 -0.064874381
0.12782183 0.056723624 -0.064612329
0.1302017 0.057679504 -0.063769758
0.24783875 0.10331172 -0.021924376
0.11285669 0.056453347 -0.065251976
0.11760688 0.058372587 -0.06357348
0.097815812 0.056043655 -0.065839142
0.10179831 0.057686478 -0.064421594
0.098587379 0.056417704 -0.064550906
0.085970804 0.056657016 -0.065151155
0.089923441 0.058255404 -0.062742025
0.070995092 0.055900484 -0.065518707
0.076509356 0.058120191 -0.063554853
0.060699314 0.056771636 -0.065117478
0.063944742 0.058091283 -0.063969225
0.057455778 0.055572897 -0.065258592
0.067857385 0.059658557 -0.061575502
0.16948554 0.098987073 -0.025377184
0.18071444 0.10332051 -0.021365225
0.044981644 0.055443645 -0.065575898
0.050441608 0.05759877 -0.063611954
0.030742809 0.054524094 -0.066407293
0.033801347 0.055746049 -0.065313131
0.011778653 0.056051999 -0.065489769
0.013160855 0.056661218 -0.064973682
0.014771909 0.057231247 -0.064391315
0.0092430115 0.055011541 -0.065348923
0.12278268 0.099144399 -0.024954945
0.098544851 0.10226208 -0.023035318
0.043908522 0.10000959 -0.024558663
0.2982443 0.053170621 -0.067514002
0.28170311 0.055099219 -0.066175789
0.28244638 0.05540657 -0.065912455
0.28331456 0.05578658 -0.065602303
0.25886217 0.054200798 -0.066886157
0.26366547 0.056087136 -0.065184534
0.26529187 0.056682259 -0.064599156
0.24308151 0.055753678 -0.06591633
0.24475968 0.056336135 -0.065323859
0.22019824 0.054362446 -0.066310704
0.22254595 0.055330813 -0.065469086
0.20352229 0.055018097 -0.065321416
0.20594859 0.055971354 -0.064455152
0.20922345 0.057126999 -0.064299285
0.21237029 0.058263868 -0.063182861
0.18620193 0.05496788 -0.065424562
0.18945175 0.056101054 -0.065270305
0.1903134 0.056426704 -0.064967126
0.19101948 0.056706816 -0.064713418
0.1761374 0.057326883 -0.06370616
0.16718046 0.054060519 -0.065933853
0.17370698 0.056451261 -0.064594358
0.17446913 0.056823432 -0.063306957
0.27601022 0.096443385 -0.027250409
0.15517908 0.056061715 -0.063896537
0.15837736 0.057121605 -0.06377694
0.15927222 0.057450294 -0.063456953
0.16175732 0.05833298 -0.062561631
0.13883352 0.055278927 -0.065251768
0.14359426 0.05720377 -0.063566029
0.12296133 0.054927647 -0.065336317
0.12616406 0.056140035 -0.064197242
0.10954943 0.055255562 -0.065425873
0.1135188 0.05675292 -0.064005315
0.10637489 0.054014981 -0.065540195
0.11040211 0.055657536 -0.064117759
0.091412231 0.05362463 -0.066093892
0.09489876 0.054965883 -0.064853668
0.082776904 0.05539453 -0.06528458
0.085144967 0.056344122 -0.063434005
0.068507671 0.054996789 -0.065385759
0.074004784 0.057037055 -0.063431948
0.064621687 0.058335662 -0.061709106
0.15335087 0.097668678 -0.025975317
0.1597344 0.100234 -0.02372843
0.028193712 0.053530812 -0.066275179
0.018688321 0.05428797 -0.065378368
0.025088459 0.056751937 -0.063087314
0.12590927 0.095907182 -0.027219892
0.0059888363 0.053620666 -0.065505028
-0.0017703474 0.054876626 -0.064837962
0.29899082 0.053640008 -0.066248447
0.29654577 0.052939832 -0.066150397
0.29744515 0.053298324 -0.065838069
0.2793152 0.054348558 -0.066043764
0.28011966 0.054668158 -0.065756351
0.25478083 0.053027809 -0.066372931
0.2580511 0.054288328 -0.065193176
0.24056026 0.055171072 -0.06482926
0.23573528 0.05344668 -0.065551341
0.23663184 0.053818733 -0.065230548
0.22089455 0.054814339 -0.065064847
0.21689095 0.053406686 -0.065483719
0.22325233 0.05597052 -0.063224196
0.19953385 0.053655744 -0.065739155
0.20024772 0.053939939 -0.065480053
0.2027303 0.054869771 -0.06459856
0.1821252 0.053642184 -0.064846337
0.18296349 0.05395624 -0.064553261
0.18538204 0.054929852 -0.063708812
0.16798784 0.054488927 -0.064641148
0.15119055 0.05444923 -0.064301997
0.13956428 0.055685252 -0.06398648
0.14028212 0.055973023 -0.063727975
0.14430822 0.057566375 -0.06230554
0.1355395 0.054123789 -0.064424068
0.11977655 0.053766668 -0.065455258
0.12051395 0.054126769 -0.064181596
0.11188279 0.056280941 -0.062568426
0.075450987 0.052645415 -0.065853208
0.080277935 0.054524243 -0.064155847
0.18744466 0.09610787 -0.026040494
0.041546732 0.054155737 -0.064756215
0.032903388 0.055279493 -0.063601941
0.15030672 0.10093272 -0.020814776
0.12899999 0.097053885 -0.025099099
0.14172281 0.10203308 -0.02056998
0.00048211217 0.055672646 -0.063018441
0.31636855 0.051986665 -0.066116661
0.27113178 0.051843494 -0.065985978
0.27206722 0.05197525 -0.066633046
0.27278498 0.052467108 -0.065398812
0.277643 0.054128587 -0.064656258
0.25396451 0.052949518 -0.065681994
0.23262969 0.052367687 -0.065650791
0.2373953 0.054321408 -0.06396392
0.19622329 0.052667707 -0.0649243
0.19707027 0.052998066 -0.064619094
0.16299571 0.052928627 -0.0644283
0.16881092 0.054922462 -0.063336581
0.28532943 0.10054481 -0.020911664
0.15043168 0.054233789 -0.063564628
0.15187392 0.054835945 -0.063041598
0.11881632 0.053556591 -0.063778371
0.12211242 0.054833293 -0.06260407
0.23715185 0.099512666 -0.021679282
0.10306168 0.0529809 -0.06368947
0.21839249 0.10303909 -0.017868459
0.051756173 0.053239346 -0.063228339
0.035197824 0.056140751 -0.060756683
0.13531978 0.099366546 -0.020835519
0.11943775 0.097586006 -0.023106486
0.013851047 0.056611329 -0.060669422
0.0053196847 0.057381392 -0.060294956
0.2884478 0.050534427 -0.066067368
0.29501936 0.052777529 -0.06470567
0.26639554 0.050384194 -0.065701842
0.26724237 0.050714344 -0.065397441
0.24979493 0.051761776 -0.065167636
0.25313812 0.053280145 -0.063000768
0.23340684 0.052852303 -0.064388514
0.21432272 0.052757263 -0.064400375
0.21756949 0.054030359 -0.063250631
0.21914957 0.054660261 -0.062691361
0.21122193 0.051727176 -0.064523697
0.21355493 0.052622974 -0.063679755
0.1812866 0.053744853 -0.06212306
0.30921289 0.10347113 -0.016608089
0.16388291 0.053354889 -0.063101709
0.16633546 0.054248512 -0.062220663
0.15962031 0.051997721 -0.063630253
0.14642273 0.052753121 -0.063986868
0.14153841 0.050936282 -0.064717293
0.27677047 0.10342836 -0.016603857
0.12906876 0.051869988 -0.064689726
0.13459828 0.05395174 -0.062731504
0.10860473 0.055157423 -0.060707092
0.2094456 0.099669874 -0.020045459
0.21277323 0.10090306 -0.018872261
0.18434337 0.09989056 -0.020124495
0.065040633 0.053612739 -0.062549233
0.054078028 0.054152071 -0.061398804
0.056494728 0.055143535 -0.060527861
0.04374823 0.054806828 -0.060911179
0.010557383 0.055078566 -0.05984515
0.10126902 0.098754019 -0.020602047
0.31309804 0.051527202 -0.064335257
0.31462169 0.052077234 -0.063805252
0.31557745 0.052416056 -0.063458234
0.30499834 0.048630685 -0.06625244
0.28770432 0.05049637 -0.065361589
0.28607342 0.050076574 -0.064962
0.28677142 0.050320983 -0.064699471
0.22843653 0.051412165 -0.064183742
0.23182639 0.052615136 -0.062952548
0.22529092 0.050375849 -0.064316601
0.17160168 0.050106972 -0.064530998
0.17235136 0.05039078 -0.06426096
0.17721534 0.052050173 -0.06351006
0.26158518 0.097678512 -0.020995587
0.13140963 0.052946836 -0.061838746
0.099698633 0.051909059 -0.061850399
0.090318754 0.053456664 -0.060397208
0.19134906 0.097708672 -0.0205926
0.059439868 0.051437259 -0.062522441
0.067410648 0.054621488 -0.059701771
0.040602386 0.053575486 -0.060021639
0.046191245 0.055688828 -0.059045792
0.017531693 0.053500712 -0.060711533
0.0025812685 0.051875502 -0.061659992
0.11610098 0.096025288 -0.021271318
0.10989968 0.097815275 -0.020035833
0.31217748 0.051661581 -0.062703192
0.3041237 0.048817813 -0.064617723
0.26141068 0.048984289 -0.065496475
0.26549897 0.050690144 -0.063052624
0.24585557 0.050761551 -0.063596368
0.22765903 0.05149883 -0.06247282
0.22452801 0.050454915 -0.062592745
0.20463759 0.049712509 -0.063857675
0.21023205 0.051888287 -0.061880976
0.19215384 0.051847696 -0.061357737
0.30116084 0.10064033 -0.017463505
0.17634648 0.052135885 -0.060802549
0.14556357 0.052721202 -0.061268151
0.13741142 0.049584687 -0.063152224
0.12807168 0.051809222 -0.061001807
0.093541101 0.054654717 -0.05925104
0.076700687 0.053330958 -0.060351998
0.074353516 0.052287757 -0.06018126
0.061768353 0.052370906 -0.060677737
0.16997969 0.099070996 -0.017077386
0.021522194 0.050583839 -0.061585337
0.031819731 0.05455327 -0.057923377
0.026989967 0.052772522 -0.059618562
0.0294016 0.053640813 -0.058746725
0.0072186291 0.053706318 -0.058974653
0.30290851 0.04854399 -0.064062476
0.31134346 0.051867604 -0.061062276
0.28525385 0.050516129 -0.062315315
0.27804035 0.047894448 -0.06388703
0.2605781 0.04931289 -0.062837452
0.23928542 0.048922777 -0.06296581
0.24169376 0.049873412 -0.062101334
0.20705593 0.050863624 -0.062013745
0.2014716 0.048844606 -0.06298998
0.18813196 0.050408632 -0.061796486
0.17080267 0.050217122 -0.061813146
0.15628648 0.051302105 -0.060793132
0.1406382 0.051005572 -0.061002284
0.12491775 0.050646544 -0.061125904
0.13042517 0.052850693 -0.059167534
0.11463836 0.052252471 -0.060201377
0.11782107 0.053518265 -0.059061617
0.096479744 0.050692409 -0.060977638
0.071854651 0.051400423 -0.060047448
0.064130187 0.053302974 -0.058836013
0.17538503 0.096373141 -0.019179374
0.30177245 0.048589706 -0.062500179
0.30973381 0.0517039 -0.059673071
0.25655875 0.048078537 -0.062275112
0.25984606 0.049458027 -0.061122507
0.23760915 0.048692226 -0.061577916
0.2385031 0.049035281 -0.061266482
0.22111447 0.049470484 -0.061801434
0.22352183 0.050446093 -0.060947388
0.20377785 0.049896747 -0.061171532
0.18389446 0.049045175 -0.06129545
0.17555319 0.052111149 -0.05907777
0.16982397 0.050095409 -0.060153574
0.15307751 0.050103933 -0.060922474
0.29307529 0.10444978 -0.010125577
0.12722006 0.051658481 -0.059288323
0.1240381 0.050503701 -0.05941686
0.098711058 0.051656604 -0.059144437
0.22356898 0.10013589 -0.014736086
0.08130601 0.050046951 -0.05955264
0.083662599 0.050955743 -0.058713764
0.07881619 0.049142301 -0.060424656
0.089292258 0.053218663 -0.056695789
0.048181146 0.051861405 -0.058418244
0.037318617 0.05214262 -0.058152556
0.16269369 0.10101631 -0.013531059
0.033843279 0.05088076 -0.058370292
-0.0032408834 0.04933697 -0.05967325
-0.00064492226 0.054396093 -0.055337578
0.30087528 0.048503667 -0.061834455
0.29520041 0.046623468 -0.062895805
0.27634999 0.047665119 -0.06250906
0.27540722 0.047538459 -0.061871052
0.23449138 0.047634661 -0.06170103
0.21790762 0.048579395 -0.06095919
0.19812615 0.048059791 -0.061199099
0.20042603 0.048966587 -0.060364097
0.17458549 0.052025348 -0.057417721
0.14907756 0.048679262 -0.060340792
0.13650793 0.04965201 -0.059444964
0.12069727 0.049351871 -0.059590578
0.11368373 0.052089483 -0.057506442
0.10503979 0.048778862 -0.059574842
0.069424599 0.050489128 -0.058874309
0.058432519 0.051080346 -0.057802767
0.020492822 0.050014943 -0.057879835
0.023652822 0.05121693 -0.056750804
-0.0040478408 0.053125262 -0.055530101
0.29356962 0.046163708 -0.06248799
0.27467829 0.047498077 -0.061156899
0.26980597 0.045900106 -0.061900407
0.251647 0.046718329 -0.062072843
0.25575829 0.048205465 -0.060589522
0.21554381 0.047810882 -0.060797423
0.220231 0.049860299 -0.058143586
0.19490451 0.047157288 -0.06035471
0.16491398 0.04851684 -0.059913367
0.1690046 0.050056338 -0.058443397
0.30987355 0.10485753 -0.0083444715
0.16165644 0.047521323 -0.060086399
0.15226117 0.050117612 -0.058195442
0.13964136 0.051023901 -0.057315111
0.13329527 0.04860878 -0.058574438
0.10734944 0.049752325 -0.05773285
0.08671689 0.047156185 -0.060387969
0.095468879 0.050500453 -0.057270467
0.036214873 0.051650494 -0.055485398
0.02595593 0.052116513 -0.054896474
0.012341708 0.051106066 -0.055468857
0.31325668 0.045476705 -0.06139788
0.29276758 0.046345204 -0.060814112
0.26906043 0.046073914 -0.060209304
0.24846002 0.045894563 -0.061234921
0.25489342 0.048542857 -0.057949573
0.23041707 0.046646476 -0.060175657
0.23369326 0.048127294 -0.058029592
0.21215215 0.046893477 -0.060026407
0.1972056 0.048218727 -0.058528751
0.19072062 0.045830399 -0.059836209
0.19405904 0.047166735 -0.058657974
0.1799154 0.048133552 -0.05866912
0.16812792 0.050136715 -0.055740327
0.30161974 0.10205659 -0.0082588196
0.14414185 0.047082394 -0.059065789
0.14813513 0.048664272 -0.057649672
0.10156885 0.047703773 -0.058789641
0.10402063 0.048595011 -0.056898445
0.092087775 0.049233973 -0.056435257
0.055007637 0.049788147 -0.055982769
0.044913948 0.050439417 -0.055524737
0.016270876 0.048225194 -0.057352096
0.0014401376 0.050955564 -0.054976225
0.29196751 0.046587646 -0.059158146
0.29024321 0.046256393 -0.058807492
0.29101369 0.046524465 -0.058535576
0.24440114 0.044680953 -0.060697705
0.25076497 0.047277391 -0.05843097
0.24761578 0.046209246 -0.058564246
0.22632007 0.045551151 -0.059666514
0.20890416 0.046060264 -0.059192032
0.2144765 0.048159003 -0.057198137
0.1582714 0.046743929 -0.058292985
0.16402516 0.048753232 -0.056217253
0.14332506 0.047013849 -0.057352036
0.13234535 0.048571169 -0.055882692
0.11015883 0.045701265 -0.058296084
0.1165356 0.048187882 -0.056019753
0.11976232 0.049410075 -0.054874986
0.12294668 0.050627232 -0.053750545
0.077906638 0.049004287 -0.055696636
0.08024466 0.049846977 -0.054848284
0.066026628 0.049337029 -0.055017114
0.052539527 0.048801064 -0.055849969
0.039258197 0.048279852 -0.056509763
0.042339593 0.049554616 -0.055423766
0.019336492 0.049396306 -0.054225564
0.02272661 0.050663859 -0.053028643
0.0091707408 0.04964152 -0.05457601
0.31004646 0.045315951 -0.058655977
0.28373832 0.044049919 -0.060147822
0.26420927 0.044588953 -0.059958458
0.26328483 0.044476986 -0.059313536
0.26808292 0.046358109 -0.057607591
0.20569983 0.045190096 -0.058342487
0.21127555 0.047300726 -0.056363881
0.19946349 0.049644828 -0.054721981
0.18673444 0.044792086 -0.058258832
0.18991099 0.046027243 -0.057136029
0.17890362 0.048178464 -0.056012124
0.16072109 0.047752708 -0.056406468
0.15491448 0.045834035 -0.05747658
0.16316974 0.048729479 -0.054518074
0.14729096 0.048695654 -0.054931223
0.08582893 0.047037572 -0.05563575
0.082657993 0.05079478 -0.052982837
0.075388104 0.048119307 -0.054549932
0.060406953 0.047140896 -0.056002408
0.050220549 0.047883004 -0.055659145
0.030490711 0.049328446 -0.053480625
0.015321523 0.047690183 -0.054636925
0.13786176 0.099606514 -0.007774055
0.30846006 0.044908732 -0.058227211
0.30769342 0.044896096 -0.057538778
0.2893571 0.046667933 -0.056170821
0.24035184 0.044104725 -0.058185071
0.24671541 0.046514422 -0.055923909
0.22534016 0.045991778 -0.05605796
0.20239994 0.044266522 -0.057525188
0.15724066 0.046920061 -0.05464682
0.12908256 0.047546774 -0.055031002
0.10062061 0.047714353 -0.05406189
0.062786639 0.048078328 -0.054139704
0.046948001 0.046683311 -0.054808229
0.051687181 0.048476428 -0.05311808
0.038283765 0.047803879 -0.053835452
0.0034772456 0.047277123 -0.054564416
0.0082240105 0.049143404 -0.051861465
0.00033915043 0.050188482 -0.051318944
0.30632231 0.044764876 -0.056558907
0.2828624 0.044480026 -0.05750984
0.28843558 0.046581447 -0.055519879
0.25845331 0.043379098 -0.05809021
0.24353805 0.045707256 -0.055087447
0.22211459 0.045150816 -0.055204928
0.22861463 0.047447532 -0.053893954
0.20803671 0.046695441 -0.054531217
0.18910985 0.046228826 -0.054430246
0.17334537 0.046433538 -0.054962158
0.15968348 0.047937065 -0.052764893
0.14242968 0.047160566 -0.053642303
0.1258983 0.046475083 -0.054145098
0.11233559 0.046827286 -0.053462327
0.11552203 0.048124433 -0.052339643
0.097410887 0.046481669 -0.054191411
0.10299297 0.048609108 -0.052207828
0.099810645 0.04755953 -0.052322417
0.088011354 0.048063159 -0.052834749
0.07284537 0.047094613 -0.053426296
0.057018697 0.045915663 -0.054169565
0.049245834 0.047576487 -0.052954674
0.03256616 0.045648932 -0.053826988
0.024795994 0.047062129 -0.052455276
0.30503923 0.044692397 -0.055559039
0.29943383 0.042767793 -0.056567848
0.27337655 0.041438073 -0.057957292
0.28119069 0.044565499 -0.055176079
0.28205842 0.044944406 -0.054866493
0.26242608 0.045366198 -0.054705441
0.25759631 0.043709248 -0.055434108
0.23623997 0.043405056 -0.055708796
0.23934552 0.044610292 -0.054606646
0.20473471 0.045752615 -0.053708404
0.18252458 0.043820709 -0.055760264
0.18575534 0.045098841 -0.054621965
0.17248175 0.046456665 -0.053278267
0.15077692 0.044612199 -0.054914832
0.15400845 0.046018988 -0.053780973
0.1352143 0.044371098 -0.05520311
0.13840181 0.045676768 -0.054065764
0.14153446 0.047055453 -0.051960826
0.12817195 0.047612935 -0.051315397
0.10922098 0.045764655 -0.053578556
0.084676504 0.046799541 -0.051974624
0.068122327 0.045333058 -0.054090053
0.070542827 0.046285152 -0.053251922
0.059409544 0.046774089 -0.052289754
0.027755275 0.043749005 -0.054521441
0.014351249 0.047230005 -0.051967353
0.0056352019 0.043864846 -0.055041403
0.011136264 0.046064258 -0.053103089
-0.0023116171 0.044870108 -0.05359444
0.0049201548 0.047688246 -0.051020384
0.29771507 0.04271847 -0.055255175
0.29864308 0.042748332 -0.055885404
0.27967858 0.044454366 -0.053766936
0.24265997 0.046059102 -0.052443445
0.2164084 0.043474942 -0.054262251
0.21891035 0.044449121 -0.053376108
0.20151865 0.044685096 -0.053857535
0.18176819 0.043862939 -0.054029971
0.16676836 0.044563562 -0.0533337
0.17150523 0.046403885 -0.051629186
0.12489934 0.046408594 -0.051479816
0.10595141 0.044596314 -0.052719295
0.094019592 0.045328379 -0.052368134
0.071979135 0.046898693 -0.05069375
0.053758919 0.04464525 -0.053290427
0.056125462 0.045613348 -0.051432103
0.041127861 0.044513404 -0.052806497
0.043651208 0.045382351 -0.051921993
0.045954749 0.046264887 -0.051080644
0.037285626 0.047380149 -0.050116092
0.018094182 0.04439199 -0.05278489
0.021404386 0.045669675 -0.051628828
0.0024185777 0.046635747 -0.050896496
0.0072515309 0.048601329 -0.049190432
0.29689646 0.043002337 -0.05361864
0.27241805 0.041845381 -0.055360436
0.22898774 0.041198075 -0.055333734
0.23536387 0.043716192 -0.053060591
0.21310362 0.042592108 -0.053450286
0.19586433 0.042882353 -0.053888798
0.19260073 0.041781425 -0.054054946
0.14995192 0.044694096 -0.052206308
0.1375255 0.045672208 -0.051353514
0.13427404 0.044478714 -0.051524252
0.12165895 0.045286894 -0.051624417
0.11847785 0.044160813 -0.051745653
0.10821244 0.045625061 -0.050898105
0.090803385 0.044196844 -0.051487684
0.096438169 0.046357214 -0.050490141
0.076533854 0.04388082 -0.051849693
0.079031706 0.044730574 -0.051980346
0.064830571 0.04418996 -0.052226186
0.0671352 0.045162171 -0.050387442
0.058512688 0.046519428 -0.049570709
0.029319495 0.044304729 -0.050928414
0.023715109 0.046486288 -0.048775285
0.013346702 0.046722382 -0.049258232
0.27151281 0.042007446 -0.053724825
0.24943584 0.041820526 -0.053436875
0.25265616 0.04301706 -0.052305281
0.25346929 0.043061852 -0.052988619
0.23217118 0.042606443 -0.053208977
0.2155785 0.043756574 -0.051581174
0.19820127 0.044181943 -0.051063418
0.17768645 0.042764634 -0.052437484
0.18080303 0.044190943 -0.050377339
0.16582598 0.044674307 -0.050665617
0.14590465 0.043350875 -0.051645041
0.13108194 0.043427795 -0.051644117
0.10503894 0.044419914 -0.051013947
0.090039194 0.044006497 -0.05074808
0.093155339 0.045200139 -0.049638033
0.034559652 0.041926622 -0.052105099
0.040177688 0.044150829 -0.050101459
0.026773721 0.043346494 -0.050794154
0.017266899 0.043973327 -0.050069243
0.010300696 0.045476019 -0.049361974
-0.0031977296 0.044276685 -0.04987511
0.31500757 0.041828364 -0.051981479
0.29520452 0.042840302 -0.052271456
0.26674315 0.040616691 -0.053467155
0.2707172 0.042218328 -0.052044392
0.24849343 0.041898757 -0.051804751
0.23130712 0.042722762 -0.051534027
0.20997711 0.041790664 -0.052599698
0.19489665 0.04326281 -0.050259382
0.17697984 0.042631 -0.051686227
0.16168591 0.043501467 -0.050162405
0.14511953 0.043319404 -0.04991582
0.13333817 0.044375777 -0.049837947
0.1111656 0.041597962 -0.051306605
0.11433297 0.042866975 -0.050203085
0.10177307 0.043414235 -0.050166398
0.086612612 0.042876899 -0.049933076
0.07408309 0.042971998 -0.050681472
0.0613859 0.043004721 -0.050415039
0.048057064 0.042588651 -0.050254822
0.052805662 0.044362903 -0.048567504
0.055221111 0.045352995 -0.047697663
0.020527333 0.045189589 -0.047899693
0.31429064 0.041520864 -0.05223006
0.31252599 0.041178524 -0.051891208
0.28713912 0.040273279 -0.053178638
0.28639907 0.04026854 -0.052481264
0.26978624 0.042121053 -0.051404625
0.26592577 0.04081434 -0.051800787
0.24532935 0.041076809 -0.050956547
0.22403708 0.040442675 -0.052181154
0.22715396 0.041657627 -0.051063657
0.20656198 0.041149586 -0.050837815
0.19167697 0.042188346 -0.050399691
0.17593001 0.042543769 -0.050041407
0.15600821 0.041645914 -0.051208347
0.15831915 0.042639136 -0.04937306
0.09845753 0.042372435 -0.049329519
0.081077099 0.040691465 -0.050887555
0.083487406 0.041636288 -0.050036311
0.069263116 0.041196048 -0.050385803
0.06054002 0.042714864 -0.048676342
0.031253055 0.040598184 -0.050228179
0.016218305 0.043456465 -0.047385275
0.30367196 0.038327157 -0.053113222
0.31087518 0.041113019 -0.050533026
0.27990025 0.038292974 -0.052850544
0.28546897 0.040127963 -0.051827431
0.26505464 0.040730208 -0.051135987
0.26100636 0.039492607 -0.051609516
0.18446203 0.039712459 -0.050988019
0.18767621 0.040971071 -0.049843252
0.15279272 0.040725321 -0.050341517
0.14020512 0.041664183 -0.049657732
0.12685621 0.042261779 -0.04911536
0.11343288 0.042708248 -0.048498213
0.11020461 0.041580826 -0.048633754
0.1007573 0.04334265 -0.047503203
0.085857764 0.042725652 -0.048185736
0.033599705 0.041575789 -0.048378229
0.036147326 0.042468548 -0.047483355
0.025726169 0.04292199 -0.047120601
0.028137475 0.043791384 -0.046248257
0.30280411 0.038581997 -0.051496267
0.27832144 0.037913352 -0.052442819
0.27749252 0.037856102 -0.051765561
0.28396016 0.040422201 -0.049469769
0.26007658 0.039396703 -0.050947279
0.26419055 0.040892124 -0.049479634
0.24126263 0.040047407 -0.050446868
0.24453466 0.041229814 -0.049282074
0.23802504 0.039033681 -0.050620973
0.22075632 0.039818347 -0.050364226
0.2232517 0.040801615 -0.049493998
0.20334294 0.040268093 -0.049991488
0.20576371 0.04145214 -0.048154563
0.18685143 0.041032583 -0.048148036
0.18989766 0.042217374 -0.047059655
0.17025603 0.040953875 -0.049095541
0.15185446 0.040630698 -0.048666
0.15502915 0.041937143 -0.047543049
0.13612063 0.040291756 -0.049094021
0.13938378 0.041619629 -0.047940433
0.12045963 0.040061772 -0.049390942
0.12366852 0.04124248 -0.048249185
0.11713007 0.038894355 -0.049571246
0.095242232 0.041225582 -0.048460275
0.097477317 0.04222554 -0.046628475
0.042142451 0.040305406 -0.048282266
0.012176305 0.041891128 -0.046785146
-0.0012930036 0.040686578 -0.047391713
0.0059072673 0.043603033 -0.045812845
0.30196783 0.038497359 -0.050815731
0.29561597 0.036375344 -0.052127212
0.27628705 0.037786663 -0.050726056
0.25623754 0.038304269 -0.050350755
0.25927597 0.039581209 -0.04928109
0.23724847 0.039214253 -0.048936039
0.21743315 0.038930357 -0.049577326
0.20015295 0.039662451 -0.048156232
0.18362045 0.039955616 -0.048304021
0.16466215 0.039150715 -0.049117237
0.16855638 0.040793955 -0.046715289
0.14871073 0.039454401 -0.048780739
0.13529581 0.040245056 -0.04738456
0.13846645 0.041524559 -0.046250761
0.12279478 0.04116863 -0.04654631
0.10697488 0.040522367 -0.047777414
0.077590197 0.039702713 -0.048083514
0.080078602 0.040606946 -0.047211826
0.082435668 0.041516304 -0.046372622
0.075109348 0.038878739 -0.047960937
0.063369349 0.039130628 -0.048416883
0.065830678 0.040162921 -0.047568619
0.068201914 0.041009724 -0.046704024
0.050049692 0.038743556 -0.048351437
0.044587702 0.041238874 -0.046416104
0.046920449 0.04224515 -0.045585215
0.31604517 0.035488576 -0.051433027
0.30045909 0.03845489 -0.04940632
0.29391754 0.036276162 -0.050779939
0.27503705 0.037936628 -0.048723966
0.2552622 0.038416862 -0.048733056
0.25136831 0.037253052 -0.049173623
0.23390239 0.038123965 -0.04913938
0.23008484 0.036809891 -0.049502581
0.23321187 0.03807655 -0.048405021
0.23630306 0.039329171 -0.047300935
0.1968458 0.038786411 -0.047363609
0.19914605 0.039692998 -0.046528608
0.18262224 0.039740205 -0.047656298
0.17956337 0.038746566 -0.04772687
0.14392474 0.037862659 -0.048486382
0.14782502 0.039418608 -0.047103524
0.12975119 0.038253397 -0.048352957
0.13208774 0.039270341 -0.046521991
0.11945796 0.040051073 -0.046723425
0.11622439 0.038898975 -0.046862423
0.10380505 0.039463282 -0.046887726
0.091935575 0.040162057 -0.046594977
0.088673219 0.039036393 -0.046746701
0.039004207 0.039176792 -0.047391742
0.019239098 0.040303499 -0.0453749
0.0033888817 0.038264364 -0.047914207
0.00091224909 0.037312448 -0.047763795
0.011141807 0.041400015 -0.044121087
0.31520355 0.035444319 -0.050771445
0.31278992 0.034799635 -0.05066976
0.29954362 0.038681895 -0.047789365
0.29226795 0.036130577 -0.049420297
0.293174 0.036235631 -0.050060868
0.26852536 0.036009431 -0.049105644
0.27337125 0.037836462 -0.047388881
0.2740989 0.037844121 -0.048093647
0.25446618 0.038611084 -0.047063529
0.25033355 0.037369102 -0.047577977
0.21178561 0.037369132 -0.048620582
0.21428081 0.038330197 -0.047730893
0.21658704 0.039487481 -0.045932531
0.17466128 0.037116796 -0.047411621
0.1786797 0.038786322 -0.046037316
0.16043186 0.038160592 -0.047650307
0.16365391 0.03928417 -0.046484679
0.16774143 0.040823251 -0.045015305
0.14293027 0.037782878 -0.046830058
0.14692347 0.039364487 -0.04541418
0.1061177 0.040472418 -0.045047909
0.1028325 0.039292872 -0.045213491
0.072727531 0.037946969 -0.046791613
0.079109788 0.04046762 -0.044508964
0.062514305 0.038988233 -0.045705408
0.051376656 0.039402485 -0.044846535
0.041177809 0.040102154 -0.04458636
0.3112427 0.034544736 -0.05024609
0.29072142 0.036129087 -0.048046857
0.29147047 0.036378831 -0.047764897
0.27261916 0.037835985 -0.046686411
0.24717608 0.036367625 -0.047724694
0.25366017 0.038558513 -0.046385139
0.22590357 0.0360232 -0.048071593
0.229147 0.037191033 -0.04690066
0.20850466 0.036575317 -0.047828376
0.21086895 0.03769356 -0.045995504
0.21325377 0.038603723 -0.045134485
0.19045018 0.036701888 -0.047647238
0.19362827 0.03795144 -0.046532065
0.19593331 0.039048105 -0.04471159
0.16283861 0.039336443 -0.044781655
0.15705791 0.037486732 -0.045871168
0.12877986 0.038312733 -0.045697033
0.12557709 0.037172884 -0.04582268
0.13114595 0.039336234 -0.04384166
0.11860703 0.04006511 -0.044010252
0.11210081 0.037627727 -0.045317709
0.11534452 0.038951337 -0.044161588
0.087739438 0.038859576 -0.045047075
0.070232362 0.037110567 -0.046660125
0.076732308 0.039680988 -0.044359982
0.074258626 0.03880915 -0.044213533
0.0648579 0.03999114 -0.043849587
0.056869984 0.036884576 -0.045670658
0.049057201 0.038518399 -0.044656694
0.038052842 0.038833976 -0.044672489
0.022126377 0.037082225 -0.0453538
0.0086255372 0.036111057 -0.047137111
0.015021294 0.038584828 -0.04484269
0.01813969 0.039854735 -0.042711526
0.0079722106 0.040004611 -0.043224216
0.30952713 0.034789979 -0.047984123
0.28422356 0.033963323 -0.04939723
0.2893765 0.036105186 -0.047089219
0.26776233 0.036513507 -0.046466768
0.24636467 0.03653878 -0.046046495
0.22505695 0.036162853 -0.046406895
0.20765275 0.036714882 -0.046152979
0.21005782 0.037813395 -0.044313967
0.19278857 0.038029671 -0.044847488
0.17387658 0.037195206 -0.045702517
0.17770667 0.038757682 -0.044379771
0.16906394 0.035603315 -0.046464354
0.17294976 0.037035257 -0.045041054
0.15950868 0.038529873 -0.043989748
0.15370592 0.036643744 -0.045066178
0.14211789 0.037782669 -0.045125335
0.10893178 0.036572993 -0.045444876
0.093907923 0.036191642 -0.045361519
0.084653258 0.037809998 -0.044131726
0.059199423 0.037869722 -0.043836445
0.029910088 0.035689652 -0.045568615
0.032219872 0.03669551 -0.044735044
0.034684002 0.037561536 -0.043845087
0.024433374 0.038034171 -0.043497562
0.026884198 0.038948834 -0.042649359
0.014125884 0.03818512 -0.043119967
-5.9425831e-05 0.036898553 -0.044045746
0.0047031641 0.038727432 -0.042340785
0.30878049 0.034785241 -0.047287017
0.3071954 0.034411609 -0.046867937
0.30792612 0.034727484 -0.046623111
0.28814554 0.036064565 -0.046056002
0.28245783 0.034215689 -0.04713589
0.28722757 0.036011577 -0.045413941
0.26684082 0.036375016 -0.045819044
0.26291549 0.035096675 -0.046232522
0.2430979 0.035468608 -0.046233594
0.23989417 0.034592479 -0.046393216
0.22823891 0.037579179 -0.044280171
0.21934596 0.034378618 -0.04645741
0.22175397 0.035353065 -0.045604438
0.20203374 0.034949124 -0.046171457
0.20445457 0.035913318 -0.045316696
0.18550235 0.035564363 -0.045446008
0.18867764 0.036798954 -0.044323653
0.19185355 0.038069397 -0.043190598
0.1721549 0.037115782 -0.043346047
0.1506283 0.035484016 -0.045155942
0.15607077 0.037640601 -0.043230712
0.12474364 0.037252635 -0.043110192
0.11441427 0.038810164 -0.042479932
0.11119133 0.03762275 -0.0426085
0.096272632 0.03726086 -0.04351449
0.069420859 0.037079096 -0.042919397
0.053459436 0.035749197 -0.043852121
-0.0024960637 0.035812467 -0.043912828
0.30065459 0.032200783 -0.048252672
0.30643269 0.034432232 -0.046188861
0.28163183 0.034187824 -0.046445727
0.26199555 0.035018772 -0.045595616
0.26604259 0.036607981 -0.044155985
0.25804776 0.033835948 -0.046028078
0.24234933 0.035713673 -0.044547766
0.23908305 0.034779936 -0.044723243
0.18136117 0.034340948 -0.044932008
0.18791389 0.036908418 -0.042616606
0.14960989 0.035401493 -0.043509215
0.13724098 0.036475271 -0.042849571
0.1214366 0.036127031 -0.043294787
0.090536669 0.035031259 -0.044530779
0.092927873 0.036120921 -0.042693019
0.098675877 0.03837204 -0.041649014
0.081165999 0.03667441 -0.042344719
0.055820346 0.036748648 -0.04200539
0.043331057 0.036420852 -0.042642266
0.04804799 0.038337439 -0.040953994
0.30544797 0.034650207 -0.044609219
0.30464286 0.0346452 -0.043927312
0.28085819 0.034473479 -0.044789582
0.25719631 0.033758581 -0.045363158
0.26119673 0.035550654 -0.042959929
0.21850508 0.034744322 -0.043814242
0.22089362 0.035737306 -0.042962641
0.20113251 0.035270005 -0.04353568
0.1845637 0.035813421 -0.042813748
0.1665087 0.035351753 -0.043396384
0.17129812 0.037207007 -0.041673362
0.13402145 0.035315037 -0.042996198
0.12055007 0.036076367 -0.041595966
0.12375394 0.037290275 -0.04045558
0.10481393 0.035494685 -0.041875631
0.03998068 0.035356045 -0.041805476
0.028972387 0.035446316 -0.041837186
0.031331733 0.036381572 -0.04098779
0.0019803643 0.033415556 -0.043387651
0.0036867261 0.038177699 -0.038658649
0.29741752 0.032155842 -0.045538485
0.29818451 0.032438308 -0.045256287
0.27994746 0.034654111 -0.043178618
0.25636965 0.033927888 -0.043697178
0.23197222 0.032711864 -0.044339031
0.23500744 0.033970356 -0.043247283
0.19783524 0.034471393 -0.042730182
0.16559064 0.035382748 -0.041739941
0.14570795 0.03416124 -0.042911649
0.14882305 0.035425395 -0.041802496
0.1275247 0.03316763 -0.043309778
0.1173728 0.034985006 -0.041720688
0.099105164 0.033556998 -0.042903423
0.086514235 0.034025729 -0.0419451
0.089715451 0.0350582 -0.041817844
0.095310971 0.037275761 -0.039822847
0.071367651 0.033132195 -0.042793065
0.077872038 0.03571111 -0.040487468
0.061237022 0.034200281 -0.041764706
0.063675821 0.035145372 -0.040899932
0.045411646 0.032851428 -0.042681575
0.052525237 0.035588384 -0.040128648
0.054933876 0.036551118 -0.039270192
0.036758572 0.033973217 -0.0419496
0.042461142 0.036247522 -0.039921463
-0.0042788684 0.035047352 -0.040497303
-0.0035913289 0.035312057 -0.040234566
0.0011873841 0.037160486 -0.03853178
0.29647407 0.032455117 -0.043962747
0.27118069 0.032034904 -0.043390006
0.24901646 0.031697869 -0.04437387
0.25230202 0.032890171 -0.043214381
0.23416497 0.034137964 -0.041591436
0.21519578 0.034164757 -0.042040944
0.19466847 0.03366679 -0.041893482
0.18055196 0.034841597 -0.041253209
0.17653289 0.033455938 -0.04164052
0.16153681 0.034276187 -0.041214049
0.14089143 0.032620698 -0.042630076
0.14478144 0.034151644 -0.041250557
0.129967 0.034255266 -0.041438818
0.10147941 0.034504592 -0.041052461
0.06660673 0.031495452 -0.042464882
0.050111443 0.034685433 -0.0399912
0.020898342 0.03235203 -0.041654617
0.016864568 0.035110146 -0.040103734
0.0066849291 0.035301626 -0.039684922
0.29489478 0.032773137 -0.041660935
0.27030253 0.031985015 -0.042732477
0.24822488 0.032207489 -0.041742146
0.23097429 0.033062428 -0.041747749
0.21189675 0.033350796 -0.041242778
0.21439958 0.03431952 -0.040355027
0.20639534 0.031528771 -0.042234153
0.20880215 0.032388091 -0.041380197
0.17579979 0.033551842 -0.039914727
0.15809754 0.033460468 -0.040468037
0.16055572 0.034313947 -0.039579928
0.1524255 0.031591982 -0.041494757
0.1400065 0.03261897 -0.040962279
0.14400098 0.034188598 -0.039531678
0.12666228 0.033297807 -0.040607423
0.13219544 0.035383314 -0.038645864
0.10769537 0.031649709 -0.04215771
0.11003271 0.032652646 -0.040300876
0.11320111 0.033921421 -0.039197415
0.083188578 0.032868475 -0.041090041
0.085496575 0.033934057 -0.039275855
0.07293269 0.034058571 -0.039193183
0.057871073 0.033054709 -0.039917529
0.03337878 0.03289628 -0.040104419
0.038996547 0.035120279 -0.038101435
0.023245215 0.033341169 -0.03980875
0.028092012 0.035175323 -0.038087994
0.0095955431 0.032332957 -0.040690422
0.016088665 0.034807771 -0.038383961
0.0090749264 0.036181927 -0.036836028
0.26951167 0.032262683 -0.04107058
0.2449857 0.031139612 -0.041913927
0.24731253 0.032091677 -0.041090935
0.223643 0.030830771 -0.042424351
0.2269455 0.032091618 -0.041240484
0.19054931 0.032719702 -0.040392101
0.19374004 0.033972234 -0.039267629
0.15485248 0.032669425 -0.039648414
0.15719669 0.033519983 -0.03880173
0.13600421 0.031340599 -0.040367633
0.13909315 0.032603115 -0.03928265
0.097337827 0.033477575 -0.038505286
0.087966949 0.034968138 -0.037397563
0.070474118 0.03316617 -0.039071769
0.044433847 0.032643765 -0.038954884
0.31302017 0.031603187 -0.039758742
0.2859174 0.030210733 -0.041944057
0.26472622 0.030926704 -0.040844411
0.24415258 0.031337559 -0.040259421
0.24099764 0.030411303 -0.040425479
0.2228525 0.031032592 -0.040752351
0.22597094 0.032248437 -0.03963396
0.20307642 0.030918092 -0.040458262
0.20539612 0.031848162 -0.039641142
0.20780402 0.032982498 -0.037804723
0.18652777 0.031783313 -0.038871378
0.16992973 0.031745523 -0.040025085
0.15164131 0.031816483 -0.038793772
0.13275895 0.030199707 -0.040543467
0.10669973 0.031666994 -0.039491534
0.075021356 0.03019616 -0.03998062
0.079925328 0.031875074 -0.039237618
0.082334757 0.032819688 -0.038386434
0.06563738 0.031532437 -0.038771808
0.068078279 0.032425255 -0.037905514
0.056985408 0.032954931 -0.037203312
0.032471806 0.032663494 -0.037376493
-0.0015349388 0.032055259 -0.038552672
0.30323285 0.028459489 -0.041322827
0.28516045 0.030535102 -0.040301412
0.28423327 0.030428916 -0.039656967
0.25981429 0.029671192 -0.040671557
0.26383674 0.031155616 -0.039228499
0.25888678 0.029609054 -0.040018767
0.23724461 0.029415429 -0.040298998
0.24006869 0.030636549 -0.03880316
0.2172327 0.02954343 -0.039798796
0.21957992 0.030510545 -0.038958788
0.22207525 0.031493008 -0.038089126
0.19983749 0.030130088 -0.039645106
0.20218191 0.031035334 -0.038809001
0.20463148 0.032023489 -0.037953258
0.18328652 0.030737132 -0.039038658
0.16426274 0.030170023 -0.039087921
0.16912007 0.031850368 -0.038335234
0.1539152 0.032920063 -0.036989033
0.13498256 0.031461298 -0.037741244
0.12253711 0.03242147 -0.037079871
0.10349408 0.030640185 -0.038620591
0.091667771 0.031409115 -0.038506269
0.088513523 0.03032282 -0.038624495
0.059896111 0.029479206 -0.038804501
0.025274307 0.029879719 -0.038906991
0.034974292 0.033578038 -0.035482943
0.012501836 0.029201061 -0.039583385
0.30241176 0.028508693 -0.040672421
0.3015697 0.028517962 -0.040025324
0.27866638 0.028625786 -0.04069075
0.27792782 0.028627127 -0.040000856
0.28275383 0.030525357 -0.038284272
0.25505194 0.028584391 -0.039439887
0.19658956 0.029374003 -0.038838983
0.19902599 0.030302018 -0.037969351
0.17922117 0.029583424 -0.038489372
0.1824813 0.030870944 -0.037351519
0.16353261 0.030115157 -0.038369328
0.16836631 0.031970918 -0.036631435
0.1475964 0.030472338 -0.038232237
0.15070915 0.031791627 -0.037128568
0.11600348 0.03010723 -0.038406312
0.11929569 0.031383157 -0.037232965
0.10585564 0.031749278 -0.036790729
0.10023677 0.029736727 -0.037784636
0.090865195 0.031333208 -0.036778152
0.076450557 0.031025022 -0.036443353
0.078974858 0.031837344 -0.036567003
0.062234282 0.030425102 -0.036940187
0.064695716 0.031455845 -0.036092818
0.046541691 0.029179364 -0.037893265
0.051332235 0.030899048 -0.037201226
0.053746447 0.031887829 -0.036332875
0.035449743 0.029339194 -0.038106084
0.01954636 0.027720571 -0.038934827
0.01904285 0.031777322 -0.03624481
0.0054247677 0.030704945 -0.037109077
-0.0024574101 0.031632125 -0.03585276
0.30073577 0.028467447 -0.039354801
0.29513475 0.026705414 -0.04040724
0.27551904 0.028268367 -0.038919091
0.27665645 0.028564185 -0.039003551
0.25097594 0.027328849 -0.039949507
0.25408295 0.028765231 -0.037839562
0.22966167 0.02732864 -0.03957805
0.23274294 0.028586447 -0.038493752
0.23606253 0.029904604 -0.037317902
0.21623874 0.02993682 -0.037217796
0.17842689 0.029729426 -0.036788791
0.18145952 0.030902863 -0.035732687
0.14281549 0.02894935 -0.037948817
0.14671664 0.030505151 -0.03656593
0.12861994 0.029524952 -0.037016004
0.11192483 0.028953105 -0.036846966
0.11833635 0.031333029 -0.035567284
0.1026902 0.030759543 -0.035908401
0.029757664 0.027290255 -0.038104892
0.037838086 0.030462384 -0.035236716
0.02128166 0.032681704 -0.033397377
0.2934528 0.026645035 -0.039088935
0.29921207 0.028803378 -0.03701666
0.27460447 0.028205752 -0.038280368
0.27383769 0.028175056 -0.037576675
0.25019258 0.02763316 -0.038290352
0.21064773 0.027986616 -0.038222164
0.21311781 0.029192746 -0.036364138
0.19569944 0.029723525 -0.03621763
0.18933332 0.027477592 -0.037489712
0.19251242 0.028726965 -0.036374569
0.17432532 0.028253078 -0.037194401
0.1592845 0.029421896 -0.035940528
0.14182714 0.02893889 -0.036303043
0.1458202 0.030520231 -0.034887433
0.12532654 0.028400987 -0.037184775
0.12768917 0.029526919 -0.03536129
0.10869989 0.027875394 -0.036990315
0.10500583 0.031804085 -0.034071952
0.099235475 0.029820472 -0.035136759
0.084348261 0.029249758 -0.036079347
0.089806631 0.031255156 -0.034118712
0.071596175 0.029374838 -0.035157889
0.073935553 0.030326337 -0.035328597
0.061386108 0.030385375 -0.034235179
0.05025658 0.03077659 -0.033533901
0.0021817684 0.029330969 -0.035221249
0.31555319 0.026038885 -0.038486302
0.29230529 0.026654184 -0.038046002
0.26805922 0.026596218 -0.0377222
0.2721782 0.028141201 -0.036260962
0.24914297 0.028096765 -0.035752088
0.22887884 0.027830929 -0.036936581
0.23200679 0.02909708 -0.035839289
0.17352736 0.028169513 -0.036485851
0.15595043 0.028656125 -0.035159945
0.15843134 0.029538721 -0.03426519
0.13784313 0.027762145 -0.035737962
0.10785577 0.027883589 -0.035299838
0.1110235 0.028905898 -0.035166651
0.093721852 0.027756006 -0.036098629
0.095996499 0.028683096 -0.035262793
0.069104165 0.028572083 -0.035029382
0.040643841 0.027107656 -0.035924613
0.043131113 0.02803579 -0.035057932
0.045466065 0.029041499 -0.03422755
0.010665983 0.028692782 -0.034124434
-0.00029280782 0.028413653 -0.035069764
0.31476116 0.026053131 -0.037823409
0.31073868 0.024817795 -0.038301349
0.31152999 0.025101483 -0.038025558
0.31356022 0.025894552 -0.037302166
0.29103255 0.026579827 -0.03706032
0.29025882 0.026581436 -0.036375523
0.26731193 0.026609898 -0.037023097
0.24287856 0.025846332 -0.037003607
0.24598762 0.027128965 -0.035907775
0.22473212 0.026881814 -0.036496162
0.22797488 0.02805078 -0.035324275
0.2097161 0.028658271 -0.034651726
0.20650119 0.027711898 -0.03481847
0.18526924 0.026582956 -0.035996437
0.18831648 0.027769119 -0.034907103
0.19165227 0.029102206 -0.033731282
0.1727484 0.02831617 -0.034790218
0.15260352 0.027880013 -0.034368545
0.13376307 0.026492208 -0.035196126
0.13693419 0.027770936 -0.034063578
0.14020708 0.029073954 -0.032906413
0.12128142 0.02751413 -0.034643471
0.1244562 0.028582364 -0.034505218
0.092808098 0.027661532 -0.034400433
0.083558381 0.029262394 -0.033338189
0.066719621 0.027742833 -0.034860373
0.070639357 0.02933076 -0.032461941
0.048581481 0.025532722 -0.036753803
0.058117598 0.029297918 -0.033367813
0.028798282 0.0271101 -0.034414738
0.03357324 0.028982729 -0.032690585
0.011205524 0.02465716 -0.036822945
0.014434695 0.025904357 -0.03568244
0.30998415 0.024878889 -0.037613481
0.30793211 0.024743885 -0.036457181
0.30909684 0.024852365 -0.036974579
0.2894921 0.026643783 -0.035707623
0.2829982 0.024509937 -0.037069261
0.28854921 0.026647896 -0.035103649
0.26657835 0.026918501 -0.035367846
0.26247889 0.025568873 -0.035853148
0.24518159 0.027367741 -0.034247577
0.22389157 0.027089357 -0.034848213
0.21820953 0.025110722 -0.035879821
0.22061794 0.026084453 -0.035027504
0.20890975 0.028845757 -0.032986313
0.20088816 0.026014477 -0.034852296
0.20330936 0.026978463 -0.033997893
0.18437245 0.026706129 -0.034343451
0.18754658 0.027940214 -0.033221483
0.16700636 0.026597321 -0.034904242
0.14952663 0.026755482 -0.034464091
0.15177573 0.027951002 -0.032678008
0.11471933 0.025347978 -0.034973711
0.12035921 0.027513713 -0.032983392
0.058673531 0.024842262 -0.035709798
0.042260751 0.027911305 -0.032334387
0.021551967 0.024381489 -0.035958767
0.023926497 0.025366962 -0.035112828
0.02633813 0.026237905 -0.034239501
0.035975993 0.029918909 -0.030842423
0.004101187 0.026199788 -0.03341049
0.0035539865 0.029980004 -0.030641466
0.30633357 0.024740279 -0.035111308
0.28124368 0.024861753 -0.034838706
0.26173583 0.025569052 -0.035152704
0.26563984 0.027110517 -0.033774257
0.25757313 0.024356902 -0.035684139
0.24191771 0.026331544 -0.034443319
0.23871586 0.025487036 -0.03461358
0.24432051 0.027596325 -0.032617569
0.22298187 0.02727595 -0.033231854
0.20571095 0.028194636 -0.03216961
0.19755276 0.025254577 -0.034080029
0.1834688 0.026828527 -0.032705873
0.16211438 0.025189996 -0.034692436
0.16619828 0.026728332 -0.033223867
0.13056228 0.025619924 -0.034349889
0.13615303 0.027837068 -0.032355815
0.13293716 0.026713073 -0.032506496
0.11714238 0.026456684 -0.033122122
0.086278647 0.025576413 -0.033706844
0.077624425 0.027305126 -0.032426596
0.080079421 0.028230995 -0.031559974
0.075251371 0.026569575 -0.032282233
0.06830059 0.028678238 -0.03129974
0.047605127 0.025515527 -0.033068746
0.052346811 0.027321577 -0.032390267
0.05474776 0.028280854 -0.031542301
0.036612347 0.025839806 -0.03332001
0.020112693 0.028208196 -0.030622065
0.006521076 0.027063191 -0.031556845
-0.0012534261 0.028137654 -0.031347483
0.29941419 0.022734225 -0.035684317
0.30424812 0.024591744 -0.033951014
0.30519071 0.02496475 -0.033621132
0.28041857 0.024866909 -0.034159452
0.27966943 0.024906427 -0.033473432
0.2568745 0.024374098 -0.034968436
0.23793195 0.025462538 -0.033921748
0.24117345 0.026642591 -0.032776475
0.23464775 0.024476379 -0.034129858
0.21499044 0.02465108 -0.0341115
0.21737686 0.025577873 -0.033261895
0.19999568 0.026436836 -0.032240301
0.19437715 0.024516553 -0.033266217
0.17711553 0.024592847 -0.033938229
0.18021059 0.025780439 -0.032870293
0.16130561 0.025343806 -0.03300941
0.14061484 0.02399689 -0.03367129
0.14461614 0.025570571 -0.03224355
0.12966357 0.02566272 -0.032677114
0.11385137 0.025554806 -0.032293886
0.10131893 0.026043147 -0.032616198
0.098046392 0.025074393 -0.032784522
0.10371763 0.027122706 -0.030762076
0.080579966 0.023566604 -0.033740819
0.088628411 0.026700526 -0.030875146
0.091802627 0.027820826 -0.030751109
0.072781414 0.02575025 -0.032140195
0.055407584 0.023878157 -0.03384313
0.030790925 0.023804843 -0.033385396
0.027870223 0.027005106 -0.030686617
0.032601416 0.028892994 -0.028998911
0.0071233809 0.02318874 -0.03424716
0.29779634 0.022769541 -0.034340888
0.27239662 0.022249103 -0.03508991
0.25279948 0.023293555 -0.034475774
0.25600666 0.024626583 -0.03335768
0.23386511 0.024753749 -0.032472789
0.23697323 0.025959343 -0.031370044
0.2116444 0.024132967 -0.03237167
0.21407567 0.025099307 -0.031514317
0.19670388 0.025705606 -0.031450868
0.17615113 0.02466774 -0.032300681
0.17946427 0.025959194 -0.03116703
0.16448452 0.026742011 -0.030874848
0.14369611 0.025629371 -0.030594617
0.12641522 0.024810344 -0.031848878
0.10974288 0.024223149 -0.031745851
0.10042244 0.026057273 -0.030937076
0.094807178 0.024074167 -0.031931102
0.085429758 0.025701731 -0.031006873
0.062565744 0.026883662 -0.029290348
0.03940466 0.02269429 -0.032959849
0.044306859 0.024561495 -0.031228393
0.04665029 0.025468111 -0.030372709
0.04904899 0.026357412 -0.029535234
0.051460832 0.027225852 -0.029670775
0.017461002 0.023027062 -0.033367753
0.0093427002 0.024217635 -0.031413347
0.012672365 0.025346994 -0.031226367
-0.0039370656 0.023028612 -0.032240927
0.29697201 0.022774696 -0.03367573
0.29618785 0.02282086 -0.033013821
0.27090567 0.022651732 -0.032764494
0.25197855 0.023587406 -0.032856196
0.25114402 0.023596197 -0.032201976
0.23080701 0.023774683 -0.032604635
0.19354254 0.024968892 -0.030629933
0.17137088 0.023225933 -0.031998396
0.17541841 0.024836272 -0.030589134
0.15456182 0.023852766 -0.031496853
0.15703534 0.024743348 -0.030606925
0.12324288 0.023911804 -0.030985326
0.12885889 0.025931686 -0.029983789
0.09721598 0.025235623 -0.030073166
0.082110256 0.024615258 -0.030158401
0.013251007 0.021449149 -0.032834113
0.015728951 0.026707351 -0.028103828
0.29525238 0.023185998 -0.03145951
0.27000427 0.022635221 -0.03212443
0.24783799 0.022699475 -0.032407016
0.2266302 0.022749901 -0.032147914
0.22984019 0.023947477 -0.031000108
0.21075907 0.024616152 -0.029767781
0.19028437 0.023936152 -0.030810952
0.17061025 0.023178875 -0.031298101
0.17469078 0.025000483 -0.028877795
0.14810573 0.021716475 -0.031795591
0.15379569 0.024020016 -0.02980122
0.13892686 0.024165213 -0.030318469
0.12556058 0.025043547 -0.029163092
0.12229754 0.023926884 -0.029337138
0.10660218 0.023403168 -0.030889809
0.108942 0.02444163 -0.029036909
0.093895972 0.024153829 -0.029252201
0.063047424 0.022446722 -0.031580985
0.065497041 0.023334146 -0.030702293
0.069408104 0.024966091 -0.028307736
0.056806743 0.024807274 -0.029309422
0.043378413 0.024420202 -0.028504968
0.016377866 0.022787899 -0.030703872
0.29371762 0.022945464 -0.031078756
0.28642926 0.020450503 -0.03270191
0.28724271 0.020775139 -0.032431573
0.26910958 0.022931188 -0.030527383
0.26436886 0.021362126 -0.03125757
0.24707578 0.023013562 -0.030759007
0.2258181 0.023042858 -0.0305112
0.20764397 0.023949385 -0.02894935
0.18635282 0.022877276 -0.030259103
0.16976348 0.023371696 -0.029646724
0.16494675 0.021745473 -0.030397117
0.16882858 0.023262054 -0.029002458
0.15058906 0.023234457 -0.028961152
0.13168788 0.021850854 -0.029916316
0.13490018 0.023151249 -0.028755099
0.11906213 0.022889912 -0.029494852
0.10564715 0.023363948 -0.029224336
0.10803047 0.024469346 -0.027377307
0.081262946 0.024669856 -0.027466208
0.076441944 0.022842884 -0.029188246
0.05982402 0.021396905 -0.030713856
0.038514152 0.022738338 -0.029236883
0.022655427 0.020971417 -0.031189024
0.025106043 0.021885246 -0.030340701
