# .PCD v0.7 - Point Cloud Data file format
VERSION 0.7
FIELDS x y z
SIZE 4 4 4
TYPE F F F
COUNT 1 1 1
WIDTH 1193
HEIGHT 1
VIEWPOINT 0 0 0 1 0 0 0
POINTS 1193
DATA ascii
-0.02734223 0.027136847 0.00039726496
-0.020044774 0.034384415 0.0018187333
0.0068572164 0.014659628 -0.00096387975
-0.005845651 -0.011068776 -0.004120579
0.010866359 -0.0028421283 -0.0033118371
0.040024899 0.018652678 -0.00022280589
0.01754798 -0.02701354 -0.0058253035
0.013066247 -0.041933537 -0.0074364655
0.073642515 0.0083072782 -0.0015426204
0.11416385 0.012977131 -0.0016682921
0.17772412 0.048985362 0.0020191632
0.18992361 0.049188089 0.0018953807
0.17239429 0.029068645 -0.00026312238
0.15178204 0.0054461136 -0.0027816575
0.17238232 0.022543989 -0.0013194541
0.19683371 0.043509051 0.0016313209
0.19347243 0.039600544 0.0011822693
0.18822765 0.033582937 0.0005525481
0.17093873 0.013706788 -0.0016114176
0.2090749 0.044872157 0.0017418154
0.18815188 0.020702504 -0.00099293469
0.22259542 0.05460025 0.0018333622
0.21718521 0.048470207 0.0012960879
0.2001726 0.028184384 -0.00011367584
0.19687492 0.024365071 -0.00055162562
0.19142964 0.018089499 -0.0012100507
0.22599147 0.052071843 0.0016363477
0.19124171 0.012219351 -0.0025993446
0.22416578 0.043815993 0.0011706171
0.22048232 0.039580747 0.00075098593
0.21542352 0.033807725 0.00014830614
0.20843945 0.025727902 -0.0008649868
0.19995996 0.015918266 -0.0019670427
0.23299496 0.047287181 0.0015649413
0.22753185 0.041305505 0.0011633108
0.21545233 0.027555995 -0.00021353434
0.2272498 0.035421032 0.00011353195
0.22356626 0.031185493 -0.0003052426
0.21492495 0.021270923 -0.0014578858
0.21152587 0.017332546 -0.0019213525
0.23060757 0.03295581 0.00029281154
0.25164741 0.057135463 0.0028375636
0.24991435 0.055035304 0.0025421367
0.24821597 0.052993212 0.0022809911
0.24478517 0.049004085 0.0018174308
0.23950164 0.042779211 0.0010626503
0.23607464 0.038938455 0.00069507631
0.25135961 0.051064007 0.0017807825
0.24785274 0.046875328 0.0012370341
0.24445699 0.042904243 0.00078007649
0.24293919 0.041158937 0.00057866063
0.2358516 0.033158176 -0.00020574918
0.23032922 0.027092542 -0.00058813184
0.22158656 0.017082687 -0.0016098367
0.25111067 0.045055956 0.00084007258
0.24767731 0.041065909 0.00037650694
0.23349816 0.025016017 -0.0011503536
0.25949705 0.049257524 0.0012301721
0.24735554 0.034975488 -0.00049953174
0.22954236 0.014928911 -0.0022883832
0.26960054 0.055214729 0.0017566669
0.25401416 0.037143156 -0.00028005429
0.25237107 0.034688033 0.00037402904
0.25057828 0.033152208 -0.00074363744
0.24546504 0.026619827 -0.00055997772
0.24383272 0.024776923 -0.00075224997
0.24165872 0.017336378 -0.0024516142
0.24890296 0.025045926 -0.0007173859
0.28116107 0.057347462 0.0020619472
0.2725088 0.047338251 0.00095365808
0.26709729 0.041151188 0.00032446077
0.26034611 0.033406503 -0.00053486309
0.24820586 0.01904683 -0.0022994136
0.24478076 0.015206641 -0.0026734523
0.28418928 0.055249028 0.0019756465
0.25837645 0.025344338 -0.0013659147
0.25656626 0.023192767 -0.0016492424
0.27310529 0.03172842 -0.0010382227
0.26968446 0.027755558 -0.0014728296
0.29362822 0.044082746 0.001012878
0.29298961 0.038251549 -3.0255062e-05
0.29120025 0.036218293 -0.00023741473
0.29254016 0.03252618 -0.0010483358
0.2909472 0.030696021 -0.0012459458
-0.013035387 0.015328497 -0.00015456975
-0.016054511 0.010715306 2.2506341e-05
-0.0093259215 -0.028304726 -0.0047523472
0.016032398 -0.010124445 -0.0026612803
0.029735163 -0.013888523 -0.0035998318
0.088382825 0.04264392 0.0031314744
0.064196251 0.014786005 0.00012995396
0.079264775 0.013768911 -0.00024666265
0.11102663 0.041619591 0.0025550751
0.10196481 0.0057188198 -0.0010561096
0.13595313 0.021457024 0.00055813324
0.13954365 0.018194355 0.0001615556
0.13786674 0.016255215 -3.7784688e-05
0.13567647 0.014525853 -0.0011113603
0.19025309 0.055289581 0.0038924254
0.18150023 0.045193855 0.0027973764
0.1762628 0.039314486 0.0022274256
0.1935211 0.052584596 0.0031710027
0.18491757 0.042658869 0.0020910655
0.17623824 0.0327949 0.0010606307
0.17123194 0.019735511 0.00015713833
0.20936479 0.05726289 0.0041927742
0.20576757 0.053871427 0.0028723036
0.20062281 0.047162186 0.002941503
0.17977539 0.023235634 0.00036492338
0.17449838 0.017033454 -0.00035641482
0.21260038 0.054538507 0.0037440015
0.20405978 0.044799067 0.0025911874
0.200726 0.040898036 0.0021460371
0.18310094 0.020696141 -1.8524006e-06
0.21265937 0.048289672 0.0030798314
0.20392139 0.038189285 0.0018289625
0.20036 0.034052931 0.0013649547
0.18307061 0.014262665 -0.00074783666
0.22129588 0.051823489 0.0034601751
0.21255387 0.041816071 0.0024375725
0.20401837 0.031970486 0.001236584
0.19506299 0.021564562 6.7999586e-05
0.23012114 0.055269845 0.0036726594
0.21573412 0.039833467 0.0014887925
0.20007545 0.021686945 -0.0006730957
0.23335898 0.053278189 0.0027513099
0.2189623 0.037186369 0.0014330265
0.20345931 0.019324258 -0.0006408249
0.23662086 0.050731394 0.0028265454
0.23152338 0.045078643 0.002322976
0.21708895 0.023183245 -0.00024125655
0.21349955 0.019087683 -0.00076421071
0.22188759 0.023075204 -0.00061055948
0.22875032 0.024714187 0.000131835
0.25839087 0.058665156 0.0036323776
0.25327486 0.05281207 0.0029932791
0.23770326 0.034614753 0.00085153151
0.25298518 0.046760656 0.0020246853
0.24947867 0.042571664 0.0014816227
0.24094284 0.03266095 0.00035520666
0.23747793 0.028855318 3.7570018e-05
0.23195443 0.022788901 -0.00034516468
0.26999867 0.060773067 0.0033790953
0.26631278 0.056541063 0.0029569883
0.26470354 0.054739669 0.0027998465
0.2612786 0.050767481 0.0023643966
0.25616139 0.044915587 0.0017233499
0.2558766 0.038877867 0.00091586419
0.26417285 0.042900313 0.0014145165
0.25562906 0.032909047 0.00022241042
0.25187013 0.02286773 -0.0008725354
0.028704904 0.036589764 0.0035113832
0.016446821 0.022514641 0.0019429149
0.015934676 0.010811463 0.00033682678
0.038099445 0.024190374 0.0023567546
0.029111326 0.014973179 0.00070003048
0.04702685 0.013613582 0.00092623476
0.013882369 -0.024489835 -0.0031188466
0.11088628 0.049078166 0.0042964742
0.077833652 0.011139512 0.0003009839
0.10281503 0.031142592 0.0021110578
0.096268132 0.015139632 0.00037868787
0.12799703 0.043161146 0.0035246997
0.11938988 0.033251703 0.0024584932
0.12319992 0.029173627 0.0022674082
0.11970937 0.025104202 0.0017615827
0.12730399 0.018040039 0.0011835201
0.13956866 0.02467379 0.0017035445
0.13089892 0.01474385 0.00065732375
0.1727156 0.055500202 0.0050255721
0.14318866 0.021452218 0.0012970855
0.17794085 0.054902572 0.0041677775
0.17270887 0.049024392 0.0035995007
0.1431336 0.014878549 -0.00013466366
0.18160897 0.051793478 0.0040458883
0.17293032 0.0419292 0.0030177752
0.19731908 0.05621022 0.0044630487
0.17981385 0.036110986 0.0023005074
0.15921602 0.012372412 -0.00025756331
0.20076001 0.053810298 0.0039085262
0.19742545 0.049908478 0.0034610988
0.17980355 0.02970925 0.0013147164
0.18365096 0.033236124 0.0025259438
0.17475104 0.023016233 0.0014134278
0.2078416 0.054759666 0.0048009595
0.20425268 0.050617315 0.00425182
0.19557317 0.03415069 0.0022755885
0.20754096 0.041672558 0.0031567824
0.21115205 0.039523672 0.0030717805
0.19360866 0.019232344 0.0007553217
0.21060924 0.033245374 0.0015825848
0.21757868 0.035004552 0.0021618998
0.20528473 0.020768583 0.0004490409
0.20192097 0.016858052 1.0035001e-06
0.23718062 0.057056651 0.004106211
0.23518682 0.054708824 0.0038305111
0.22444041 0.036590435 0.0026386147
0.22079676 0.032399967 0.0022121465
0.21746251 0.028610017 0.0018153428
0.23881231 0.052683406 0.0039987098
0.22366345 0.02447651 0.00046044029
0.24131241 0.0381038 0.0021383862
0.26343662 0.058348328 0.0043187276
0.27691913 0.062669709 0.0045109196
0.031519555 0.049754195 0.0060394211
0.036283657 0.043021642 0.0054097492
0.01204481 0.015188619 0.0024691382
0.060569681 0.037967421 0.0045933174
0.056042947 0.022952288 0.0027194368
0.065612733 0.024169065 0.0025822818
0.060552329 0.017239764 0.0025784383
0.10170507 0.054741122 0.0065342104
0.097771354 0.051144756 0.005365693
0.083730482 0.035258085 0.0038350718
0.075117059 0.025302827 0.0026838761
0.11083607 0.056700222 0.0063142208
0.10642239 0.041905761 0.0050131762
0.097211629 0.032407306 0.0033037001
0.12386551 0.054498315 0.005494209
0.11525933 0.044589512 0.0044279257
0.097755536 0.024492189 0.0022284351
0.11883977 0.047717951 0.0055234078
0.10167824 0.027922496 0.0033319639
0.092644073 0.017595209 0.0022802204
0.10162583 0.020363703 0.001738918
0.12277478 0.043630742 0.0049767033
0.11935697 0.039802805 0.0046475353
0.1316255 0.046330616 0.0046263328
0.13553062 0.042377248 0.0044238782
0.11495028 0.018646248 0.0018372005
0.13573797 0.035139538 0.0032650023
0.11844339 0.015229419 0.0011120597
0.13071585 0.02844958 0.0033549089
0.1273385 0.02460742 0.0029694531
0.13098699 0.021278284 0.0022775112
0.14350268 0.028417163 0.002955202
0.14730734 0.018098138 0.0019331505
0.18554167 0.055499151 0.0052902568
0.17651558 0.04521925 0.004237494
0.17148472 0.039367523 0.0035881982
0.15052077 0.015311413 0.0010207584
0.19238214 0.049706496 0.0046194484
0.18363118 0.039611038 0.0035241642
0.17502452 0.029750962 0.0024787001
0.16273776 0.015731491 0.0010613501
0.1959016 0.040202882 0.003963829
0.187154 0.030107763 0.002868108
0.17854701 0.020249087 0.0018226919
0.19055034 0.027664088 0.0025007133
0.18520784 0.021625634 0.0018804166
0.21468376 0.049151417 0.0049648974
0.22723503 0.057002287 0.005584477
0.24067636 0.060520686 0.005474424
0.23890081 0.058395226 0.0051967385
0.014617383 0.041537397 0.0059733717
0.019444816 0.034860611 0.005197648
0.035488114 0.052035443 0.0075461362
0.025441796 0.01851964 0.0032839188
0.049843214 0.046412244 0.0061357105
0.041175641 0.036454789 0.0050636726
0.059696041 0.046767861 0.0061052376
0.046068609 0.030043259 0.0049894601
0.042274453 0.026778594 0.0039682733
0.069443211 0.047094218 0.0063539222
0.055511378 0.031016186 0.0045627998
0.046845198 0.021059737 0.0034914147
0.073637009 0.042096384 0.0054427562
0.065045774 0.032186277 0.0043420354
0.060344949 0.025711156 0.0043624341
0.051413134 0.015483998 0.0032540001
0.092534602 0.052910149 0.0070608566
0.083509311 0.042589284 0.0060073128
0.078340232 0.036661558 0.0053935451
0.069845952 0.026929453 0.0043379879
0.078665987 0.028402992 0.0038470021
0.068713345 0.015961222 0.0031993203
0.088228531 0.02968464 0.0041424213
0.083063081 0.023759276 0.0035291873
0.11865106 0.0549867 0.0072054635
0.0927011 0.025213636 0.0040410953
0.087304451 0.019019045 0.0033835936
0.1277824 0.056993678 0.0072765229
0.11049261 0.037085265 0.0051209284
0.1058589 0.023207217 0.0035468265
0.10051874 0.017209515 0.0029586321
0.12688869 0.038988791 0.0054193907
0.11488324 0.025165886 0.0039285533
0.10966706 0.019023448 0.003173219
0.12716109 0.031770997 0.0040776543
0.11845847 0.021812521 0.0030801557
0.18211788 0.057165556 0.0069591189
0.18376178 0.052608043 0.0058444077
0.16838616 0.034112945 0.0047115833
0.18767482 0.049890466 0.0059029078
0.16841571 0.02776647 0.0035162522
0.20119633 0.059126344 0.0065809228
0.16664112 0.019329194 0.0022411644
0.18216121 0.030085508 0.0039953473
0.21335644 0.05956459 0.0070925397
0.21853966 0.052880622 0.0062548756
0.2063618 0.038957369 0.004674424
0.22158825 0.044512819 0.00471512
0.0086034089 0.05814369 0.0093806349
0.017156936 0.054497145 0.0090017365
0.01343561 0.051383778 0.0080935424
0.010416828 0.04673668 0.0081832632
0.01834695 0.04470659 0.0069554318
-0.0060044378 0.016656771 0.0039249621
0.030907482 0.057932049 0.0089376094
0.022289388 0.04808905 0.0079717645
0.04114531 0.057438932 0.0087784827
0.011493333 0.023417294 0.0051865354
0.007934615 0.019290179 0.0046968339
0.04039786 0.045516953 0.0069870632
0.024665043 0.027530968 0.0051495451
0.049637869 0.054991581 0.0086788945
0.028600402 0.030933276 0.0061943745
0.016275108 0.016740233 0.0046500536
0.059461094 0.055317387 0.0084386775
0.029465318 0.020933464 0.0048443945
0.055304714 0.039539762 0.0067097219
0.073608421 0.049696609 0.0079767834
0.064812623 0.040682644 0.0062951678
0.051064037 0.023838103 0.0052687367
0.083266295 0.050987087 0.0077481484
0.069264688 0.034929894 0.0060805343
0.064794265 0.020059049 0.0043218955
0.10554187 0.057158962 0.0083690127
0.097047627 0.047333717 0.0072222371
0.088284582 0.037340015 0.0062042251
0.08288727 0.031146459 0.0055465838
0.074279524 0.021279506 0.0045376159
0.10608333 0.049151227 0.0069566788
0.097547956 0.03933385 0.0058737844
0.11500363 0.05845768 0.0087422598
0.10115021 0.042333081 0.006879909
0.092348769 0.032460198 0.0059752092
0.12278058 0.050256103 0.0073153297
0.11422965 0.040420413 0.0062378775
0.1055556 0.030290693 0.005069457
0.096753128 0.020418637 0.0041622259
0.11463267 0.032393433 0.0054114964
0.13078029 0.042595781 0.0066378564
0.13100752 0.035382859 0.0053504067
0.12267075 0.02485735 0.0050242776
0.13486487 0.031477444 0.0053474377
0.12269835 0.017408475 0.0037787398
0.11957429 0.0063589886 0.0023035035
0.19484785 0.057411566 0.0076369699
0.18939885 0.037517227 0.0056349505
0.25448307 0.063601241 0.0077295592
0.023793124 0.036475874 0.0072733173
0.040051088 0.053974658 0.0097807851
0.031139933 0.043762229 0.0086763352
0.063434482 0.057659663 0.01000121
0.054423034 0.04840932 0.0083684707
0.045718677 0.038452961 0.0073837955
0.033409536 0.024354748 0.0059313495
0.069205359 0.054490939 0.009042454
0.064233921 0.048740812 0.0084010512
0.050572433 0.031975068 0.0072748838
0.079084083 0.054908223 0.0092171123
0.060071208 0.033074521 0.0068784216
0.078168005 0.044086665 0.0077298116
0.055596553 0.018185541 0.0049805036
0.092633083 0.059568286 0.010044352
0.087285586 0.053563498 0.0094641075
0.091459833 0.048618101 0.0088326642
0.10068526 0.050477892 0.0082583828
0.091995567 0.040645264 0.0073051341
0.11360765 0.055859216 0.0092342924
0.087396167 0.025770992 0.0060273325
0.10537977 0.03770978 0.0068142917
0.12668157 0.053839963 0.0085105505
0.10975987 0.033272266 0.0069800466
0.10976718 0.025762118 0.005351726
0.12215666 0.0391673 0.007699972
0.10499667 0.019372635 0.0055072811
0.13851729 0.03469409 0.0064515006
0.16850317 0.054549079 0.0082940739
0.16869915 0.047386441 0.0075146705
0.16536425 0.042646006 0.007810954
0.18613237 0.046487257 0.0072834492
0.16717906 0.024719693 0.0049345945
0.012983516 0.059720844 0.011387632
0.021437302 0.057104401 0.010572533
0.035352111 0.059620447 0.011013135
0.026601791 0.049593464 0.0099962791
0.014534153 0.035776958 0.008571879
0.04492107 0.047389634 0.0091896812
0.032587215 0.033243909 0.007719988
0.020518251 0.019427776 0.0062985718
0.053930059 0.056670949 0.010841304
0.036554612 0.036681101 0.0087457784
0.049709246 0.040856376 0.0090124225
0.038243316 0.01783134 0.0058025923
0.042203061 0.021288916 0.0068592066
0.082920663 0.058311328 0.010320676
0.077689454 0.052299894 0.0096899327
0.069074027 0.042344943 0.008539103
0.07346385 0.036646597 0.0084628286
0.069045961 0.021832108 0.0067112064
0.078165218 0.02374813 0.0063340431
0.082330018 0.018927597 0.0060522268
0.1654349 0.056509811 0.010252926
0.16541333 0.049157925 0.0093406914
0.16729616 0.044045724 0.0088208402
0.16369519 0.019966252 0.0053684283
0.22647129 0.059604876 0.0094252098
0.025472306 0.0594327 0.01199836
0.011235334 0.030825108 0.0086486237
0.0082580373 0.026256442 0.0087763453
0.044059478 0.056341901 0.011353211
0.019673288 0.028360233 0.0083479043
0.046047874 0.057442173 0.012040325
0.087054759 0.060872562 0.011963611
0.096873231 0.061272673 0.012332165
0.16907908 0.05990589 0.011495038
0.16426724 0.039704174 0.0091845747
0.16441688 0.032640412 0.0085890135
0.010461479 0.039919585 0.011166413
0.0070943609 0.036015138 0.010730877
0.003246814 0.019330546 0.0086653773
0.056517787 0.056271173 0.012806891
0.066253357 0.056579523 0.012713336
0.074057788 0.055687681 0.011861092
0.03663563 0.0019858181 0.0064536752
0.10314903 0.057851031 0.012711256
0.11982736 0.058925182 0.012519708
0.098966256 0.0012573153 0.0061596939
0.12591758 0.056516673 0.012780035
0.17507786 0.057638828 0.012776136
0.163219 0.02961399 0.010014683
0.050961167 0.058621734 0.014758185
0.060761541 0.058933198 0.014434054
0.016396716 -0.0029223561 0.0076285787
0.18770294 0.056881301 0.013769451
0.20668636 0.059179518 0.013738102
0.018870115 0.058364995 0.015533022
0.0065449327 0.04417631 0.013985714
0.02934666 0.056965224 0.015458507
0.080987401 0.058234416 0.01558061
0.086897425 0.055398077 0.014882261
0.049623884 0.0018598586 0.0097083133
0.10779019 0.059048042 0.015736859
0.011012152 0.059297517 0.017612889
0.0054586753 0.027223274 0.013487562
0.071354583 0.056921251 0.016077802
0.16711316 0.059484448 0.016530365
0.16215751 0.018892042 0.011842947
0.0043637827 0.023597345 0.014343177
0.075451754 0.059484661 0.017735444
0.091437347 0.057321236 0.017157305
0.16231573 0.011978738 0.011477638
0.0067707226 0.050889514 0.018432049
0.023841679 0.058242582 0.018523173
0.034286074 0.056877993 0.018530985
-0.0019198954 0.014161736 0.014578899
0.1800286 0.058060434 0.017834723
0.16458021 0.03318835 0.015251414
0.15736733 0.011605896 0.012678
0.21977599 0.05799631 0.017655352
0.0055091158 0.034868881 0.017242754
0.095962159 0.058127902 0.019985799
0.11276437 0.059635408 0.019507285
0.11863373 0.056826398 0.019356716
0.164977 0.039026547 0.017434722
0.16313586 0.030699268 0.015870562
0.016363472 0.058415577 0.021050088
0.038867034 0.058760598 0.02067798
0.04936219 0.057551913 0.02101378
0.036567025 -0.009808898 0.012977202
0.17363083 0.055279877 0.020059675
0.18606769 0.056176689 0.019421473
0.19123904 0.061295837 0.020849548
0.19816709 0.063188896 0.02051371
0.0068302974 0.058475897 0.022546304
0.16162008 0.027266227 0.017224664
0.23925696 0.059707556 0.020513522
0.0056790635 0.041418016 0.021578187
0.043530308 0.059537284 0.023275144
0.0036738664 0.013648495 0.018251847
0.053672835 0.059174702 0.023090784
0.063757956 0.058748074 0.0232058
0.0793119 0.056201451 0.022079028
0.10652357 0.056651808 0.022702463
0.24776389 0.057100128 0.021929223
0.021631457 0.058601938 0.024096042
0.073727459 0.058307759 0.023627639
0.11292985 0.053592771 0.023218483
0.12367674 0.05761696 0.023218896
0.16396227 0.048461579 0.02181638
0.23321871 0.056594972 0.022683637
0.014836609 -0.01044257 0.016999062
0.15586677 0.010278441 0.019078705
0.19918603 0.054013077 0.023325883
0.21108177 0.061613217 0.023927791
0.033300757 0.05405587 0.025975388
0.058573835 0.060249187 0.025763277
0.068273358 0.05950027 0.025983755
0.084391147 0.056625701 0.025548207
0.22660585 0.053780146 0.024262479
0.16489288 0.052973468 0.025735578
0.17200106 0.054205906 0.025789268
0.17904221 0.05515692 0.025795251
0.20505501 0.059157066 0.025712365
0.015193589 0.056295298 0.028121501
0.026974916 0.05771251 0.027508903
0.088844679 0.058405459 0.027734686
0.25665161 0.053398136 0.026447557
0.0014608204 0.012811229 0.024032982
0.048083574 0.054399334 0.028264975
0.26327962 0.055338304 0.027378269
0.27766228 0.056641988 0.027132168
0.10543437 0.054213226 0.029506035
0.12937479 0.055930298 0.028921623
-0.0041113198 0.014947474 0.026504891
0.042639516 0.056663103 0.0305195
0.12257034 0.054248527 0.03052257
0.21271084 0.051996544 0.028843217
0.21816671 0.057439532 0.030254982
0.020783827 0.055619426 0.031560086
0.053338692 0.054726139 0.03140777
0.063392796 0.054429591 0.031543005
0.094371825 0.058097325 0.031694889
0.10013188 0.055296026 0.031051958
0.11708692 0.056210391 0.031234708
0.16315494 0.024713643 0.027677424
0.0071228296 0.051978625 0.032054536
0.0057135299 0.049137063 0.032321621
0.036946468 0.058595724 0.032905232
0.11010064 0.055322982 0.032424998
0.27073309 0.056537744 0.031098556
0.011333562 0.054428533 0.033463135
0.057986945 0.055482447 0.034004088
0.067647152 0.055965289 0.033671893
0.16565315 0.045470528 0.032171484
0.16383693 0.037413821 0.030426472
0.16213125 0.015006177 0.028578317
0.2392332 0.055777084 0.032646183
0.02610667 0.054608755 0.034898102
0.077729151 0.055803597 0.034049582
0.093890496 0.0532097 0.033905447
0.12767348 0.054998059 0.03427878
0.18332498 0.057976246 0.034277909
0.19733033 0.054620907 0.033683971
-0.0061058551 0.015160486 0.03178174
0.088161677 0.055004008 0.035242852
0.16459113 0.04242675 0.033454672
0.16106077 0.024785645 0.031723093
0.1610281 0.011990316 0.029938363
0.23127536 0.056686431 0.034231961
0.24606256 0.056625076 0.03492355
0.0046115369 0.013198778 0.032206699
0.072467126 0.056925409 0.036268566
0.082646951 0.05689919 0.036704488
0.11541432 0.055086553 0.036687132
0.17703149 0.055799879 0.035729349
0.15263183 0.014150396 0.031337701
0.018708616 0.054580569 0.037469666
0.031073019 0.05558005 0.037320912
0.041414768 0.054407462 0.037308693
0.12121374 0.052452743 0.036493253
0.16170558 0.037268642 0.03455567
0.20304604 0.058637947 0.036695577
0.2235581 0.057280634 0.037181586
0.071541086 0.052497521 0.037743639
0.16910511 0.050750058 0.037738025
0.18300182 0.053069692 0.037849165
0.21691136 0.054667711 0.038008098
0.0095784813 0.053650633 0.039535996
0.013256393 0.05670245 0.040453512
0.036048889 0.055363879 0.040170342
-0.00047814846 0.013423234 0.03567737
0.046099171 0.055113733 0.039787278
0.05617746 0.054893933 0.039483689
0.066202864 0.054608062 0.039479412
0.1033169 0.055259183 0.039519887
0.1710813 0.052146219 0.038703743
0.18851124 0.058486801 0.039232675
0.25486103 0.05382251 0.038475394
0.097598724 0.056779012 0.040640637
0.0072931647 0.046190031 0.040922385
0.0056603253 0.044313848 0.040702015
-0.0012915432 0.0089606792 0.037006762
0.05107598 0.056092568 0.042198561
0.061097853 0.055894077 0.042038999
0.2093949 0.05590554 0.040362161
0.029037751 0.054503776 0.04311464
0.080819227 0.055176504 0.04244227
0.10781772 0.05610048 0.04241683
0.11385433 0.05389899 0.042090945
0.17552298 0.053468306 0.042030748
0.16507986 0.054969098 0.042647779
0.23043293 0.053931054 0.042841494
0.23697869 0.055700831 0.043047648
0.02328226 0.057371303 0.045503713
0.075644247 0.056284547 0.04467576
0.091519333 0.05366794 0.044195086
0.12543458 0.055946518 0.043807693
0.1311429 0.053394441 0.043795891
0.15866254 0.012078919 0.039340794
0.20200744 0.05633162 0.043636341
0.24514627 0.054190826 0.043485537
0.034240678 0.054495931 0.045906499
0.08562246 0.056220464 0.045141347
0.10152341 0.05360692 0.044959582
0.19374119 0.058169432 0.044943545
0.26261523 0.053481419 0.044673253
0.0083356425 0.05087065 0.046416394
0.065003 0.052255116 0.045946348
0.096134141 0.055520095 0.046276119
0.12441385 0.051512405 0.045395881
0.18763557 0.055924054 0.046201725
0.22276957 0.05417433 0.045774281
0.012555286 0.053289704 0.047763579
0.0054196268 0.031984419 0.044870686
0.059342019 0.053919241 0.047937181
0.21473983 0.05529096 0.047122844
0.01663103 0.055565394 0.049092397
0.03904856 0.055237129 0.048239522
0.0027607679 0.012337744 0.044264026
0.049308449 0.054072313 0.048197389
0.10657882 0.053934768 0.048408493
0.16549505 0.041920304 0.046411149
0.1946398 0.049899764 0.046726849
0.16197127 0.011457905 0.043438084
0.20833346 0.053577192 0.047207359
0.11787492 0.056763001 0.049260311
0.12954971 0.052153949 0.049018376
0.17435116 0.051245123 0.0482895
0.1866989 0.051118925 0.048911314
0.20033905 0.054710001 0.04892372
0.25396502 0.050901394 0.047770649
0.04395777 0.056110829 0.050616506
0.054272577 0.055070683 0.050619543
0.074111186 0.054620743 0.050467007
0.090011247 0.052183867 0.049768537
0.16952839 0.051308446 0.04924646
0.17985451 0.05649285 0.04957483
0.021923184 0.055569045 0.051803447
0.0063007846 0.037582979 0.049827691
0.0845614 0.053917192 0.051286627
0.16317596 0.042027082 0.049757753
0.16268417 0.016128846 0.046158664
0.1574109 0.010055229 0.045516204
0.27120328 0.050419006 0.049619999
-0.0035920441 0.010761097 0.047573429
0.043224901 0.051726356 0.051918946
0.068868041 0.055560187 0.052949
0.078885011 0.055516958 0.053032257
0.11159235 0.05417157 0.051746357
0.11742755 0.051883213 0.051467393
0.16346055 0.034792464 0.049612924
0.16321552 0.021477118 0.048260707
0.24533319 0.047978386 0.05098002
0.28951329 0.048294403 0.050724614
0.13473949 0.051650986 0.053130064
0.22152995 0.051763933 0.052564442
0.23646495 0.052286908 0.052345891
0.026949383 0.05524423 0.054416265
0.037598878 0.053312711 0.054350048
0.0014032274 0.010550708 0.050323375
0.047929049 0.052366354 0.054276492
0.058279097 0.051458351 0.054314267
0.068250984 0.051293842 0.054169971
0.21375516 0.052941192 0.053962424
0.22840196 0.053275749 0.053363696
0.01190196 0.049739689 0.055050336
0.0066542551 0.043683164 0.054352723
0.015585646 0.052776605 0.055936404
0.099491246 0.053810887 0.054938655
0.16424665 0.052539021 0.054642826
0.17848364 0.054753736 0.055024222
0.19218108 0.050939545 0.054536343
0.19896011 0.053287812 0.054236654
0.27956215 0.048753195 0.05321078
0.032273501 0.055291258 0.05710458
0.052920036 0.053275444 0.056567341
0.062889606 0.053191744 0.056253202
0.072813198 0.051902398 0.056713015
0.094165519 0.055763826 0.05645214
0.109676 0.053210594 0.056545414
0.11565781 0.051138937 0.056135651
0.16289705 0.022933908 0.052339163
0.15587603 0.0083520859 0.050812326
0.16293833 0.010016859 0.051209159
0.2058499 0.053920746 0.055491701
0.019985914 0.05415538 0.057609782
0.10440098 0.055009142 0.057661537
0.26223221 0.050030585 0.055790037
0.0053942949 0.006705597 0.053833805
0.077406883 0.053622633 0.058617353
0.121622 0.054588307 0.058426172
0.12719782 0.053273872 0.05771355
0.14010227 0.051486995 0.057397962
0.0073358715 0.048830777 0.059415132
0.087662041 0.052872658 0.05945551
0.10345346 0.050501816 0.059056718
0.17127633 0.054678347 0.059440713
0.16766608 0.050451886 0.058939412
0.02530928 0.054141402 0.060271848
-0.00037063658 0.0093106329 0.055971231
0.098127253 0.052258916 0.06042454
0.12083358 0.050435446 0.06003698
0.16461524 0.039419632 0.058181878
0.23515815 0.049966872 0.059062555
0.2432946 0.048857719 0.059383214
0.25228304 0.050443072 0.058625452
0.010426186 0.047488116 0.061306134
0.082141735 0.054390438 0.061102703
0.16348523 0.036160056 0.059397422
0.18386315 0.054085173 0.060365502
0.16313228 0.029330295 0.05852763
0.19086158 0.049304157 0.059829962
0.16285974 0.017175678 0.056427345
0.15427473 0.0073214993 0.055344824
0.21241261 0.050739706 0.059871987
0.21909793 0.052178539 0.060607165
0.22723612 0.050851472 0.060137574
0.030373253 0.053843893 0.062790215
0.041041769 0.052029543 0.062639788
0.05125232 0.050973058 0.062416218
0.061233945 0.050936043 0.062003687
0.092797324 0.052934445 0.062479619
0.13240677 0.052645948 0.061681908
0.16144437 0.0072635263 0.057107039
0.20470048 0.05175209 0.061448451
0.018736348 0.052122511 0.063856766
0.13867514 0.050041284 0.062381316
0.18294564 0.050103631 0.062260084
0.19661167 0.053111695 0.062658094
0.27092633 0.046868935 0.061687991
0.0070712045 0.037436247 0.062758043
0.045968086 0.052840374 0.064893909
0.056233875 0.051905699 0.064715721
0.066174641 0.051850922 0.064387687
0.075970575 0.051677749 0.06426245
0.16446771 0.047178239 0.063453175
0.17635784 0.054465454 0.063927867
0.035605662 0.053723022 0.065350659
0.086376265 0.051056825 0.064902037
0.11905262 0.049476825 0.064630114
0.26106948 0.047169685 0.06408567
0.024045318 0.052049391 0.066410139
0.070798129 0.052443512 0.066773012
0.080764428 0.052504621 0.066707321
0.096679442 0.050406404 0.065826014
0.10784417 0.053163804 0.066191539
0.1755698 0.050565232 0.065788954
0.23380721 0.048154119 0.064929076
0.25090069 0.048158366 0.065142177
0.069861397 0.048937105 0.067423075
0.091094963 0.05186224 0.067386992
0.10688315 0.049735434 0.067020811
0.2031703 0.049743585 0.066551581
0.21124713 0.048523467 0.065716334
0.21782549 0.049918465 0.066461287
0.22590296 0.048806425 0.066046752
0.014423072 0.051335938 0.068218775
0.0074977577 0.043354787 0.06733793
0.028752334 0.052495249 0.068448059
0.03935279 0.050658852 0.068155542
0.0031601787 0.0078802109 0.064097993
0.10128564 0.050959691 0.068259358
0.11257747 0.054033868 0.068772927
0.12403503 0.049513526 0.067811891
0.16560048 0.05077355 0.067248158
0.1816587 0.048107605 0.067534544
0.1953056 0.051231213 0.067856506
0.16006067 0.0054507181 0.062338285
0.064560093 0.050680369 0.069577515
0.034093283 0.052468084 0.070979282
-0.0024338067 0.010440126 0.066433825
0.04432065 0.051529542 0.070415743
0.12436545 0.055342492 0.070522502
0.1302515 0.053406443 0.070254579
0.13587925 0.051080927 0.070034869
0.15915129 0.0015850589 0.064297661
0.2411896 0.048197936 0.068515204
0.021862909 0.051219441 0.071677811
0.12918761 0.049929198 0.071191579
0.1632853 0.030332725 0.068107173
0.18757729 0.051903896 0.070210524
0.16328821 0.024108406 0.06733837
0.0082556456 0.048303992 0.072419688
0.049052432 0.052077956 0.07258749
0.059337698 0.051274523 0.072266616
0.079379298 0.05033569 0.072139889
0.16426034 0.03569904 0.070399009
0.21647643 0.048274234 0.071532555
0.22432309 0.047034115 0.07103122
0.24955307 0.046447441 0.070850469
0.012551345 0.050769292 0.073671147
0.037728474 0.049271576 0.073666543
0.089593515 0.049669206 0.072801232
0.14241296 0.054212511 0.07310424
0.14830363 0.052338082 0.073196471
0.18677691 0.048021492 0.072097473
0.19362868 0.049681403 0.072260894
0.16244209 0.013868205 0.068451993
0.16205278 0.0072108433 0.067820638
0.20847467 0.049368098 0.072195426
0.27939665 0.045836691 0.071906336
0.016243488 0.053786255 0.074509442
0.027204558 0.051134095 0.074181519
0.054061092 0.052889697 0.074693173
0.073837906 0.051742062 0.074170962
0.08380264 0.051848643 0.074023046
0.11110577 0.05195415 0.073999703
0.16803946 0.051614352 0.073645346
0.17326492 0.051381569 0.073194891
0.20087914 0.050961003 0.07334815
0.25921527 0.047281247 0.072990626
0.042565197 0.049887151 0.075750276
0.094422743 0.050447099 0.075179383
0.16695823 0.048238598 0.074700825
0.16535649 0.04642421 0.074503057
0.16331522 0.018136419 0.071206897
0.23160769 0.047666747 0.073452316
0.23969787 0.046739664 0.073403202
0.26933885 0.045938443 0.073088624
0.015935957 0.048412487 0.075791508
0.032283448 0.050764032 0.07654196
0.1046479 0.049778171 0.076012291
0.1655321 0.039294235 0.074020259
0.020364568 0.049770705 0.077381045
-0.0039143264 0.0078650266 0.072406769
0.057727419 0.049796119 0.077495292
0.067956023 0.049013674 0.077443324
0.099397652 0.051363759 0.077537529
0.11638089 0.052279875 0.077095777
0.14031664 0.05377207 0.076824479
0.19217022 0.048270941 0.076683499
0.20690933 0.048053376 0.076485559
0.24787562 0.044808887 0.075584404
0.00060610473 0.0093818605 0.074081846
0.047507003 0.05063916 0.077879399
0.11514327 0.048498139 0.077852979
0.15209651 0.049070921 0.077600077
0.17174152 0.049567059 0.077745125
0.17838812 0.051036336 0.077526651
0.19896714 0.04902184 0.077637248
0.1571687 0.0019933954 0.071803287
0.21501006 0.046261095 0.076482914
0.011205323 0.048152328 0.079793639
0.0078314692 0.044247143 0.079359442
0.025688402 0.04962603 0.079774246
0.062439449 0.05031997 0.07966546
0.072263114 0.050370991 0.079254046
0.082515255 0.049700886 0.079481579
0.098330133 0.04781349 0.078346588
0.10945427 0.050675198 0.078584693
0.1396804 0.049680185 0.078317046
0.22188507 0.047306754 0.07800173
0.2575371 0.045760535 0.077644855
0.052185506 0.051069036 0.079967909
0.092802905 0.049130954 0.079974152
0.10849944 0.047208637 0.079354718
0.12130056 0.052142434 0.08012443
0.16542625 0.040179245 0.078129217
0.18442839 0.048625734 0.079168744
0.15486312 0.0085797235 0.074746028
0.1614188 0.0099355206 0.074863799
0.15802193 0.0060980096 0.074488126
0.23010506 0.045885287 0.078415848
0.0071851313 0.039722539 0.080262743
0.030408867 0.050018832 0.081685618
0.0061090812 0.022077411 0.078681648
0.077136375 0.051083788 0.081432693
0.11994056 0.049432658 0.080463745
0.13282567 0.054411374 0.081340887
0.1455951 0.053053398 0.080616564
0.16432165 0.036826123 0.079240091
0.15884356 0.017163388 0.077261813
0.15846819 0.011691526 0.075865321
0.16241147 0.015195467 0.076974601
0.15348136 0.0048918128 0.075810194
0.16161299 0.0031708181 0.075059704
0.23832394 0.044447582 0.079079144
0.018488638 0.0489989 0.082733661
0.0063205063 0.034938276 0.08109419
0.066087008 0.048429683 0.082076736
0.087488204 0.050542369 0.081721433
0.11307937 0.047833636 0.081904151
0.15609913 0.032492381 0.079956189
0.15925826 0.023799803 0.07822562
0.16287321 0.026996259 0.079370283
0.16275342 0.02069902 0.07841906
0.20522094 0.04634583 0.080702327
0.26832882 0.043520413 0.080394298
0.00010375679 0.011455029 0.078994595
0.04594405 0.049085997 0.083289638
0.086198367 0.046673618 0.082436517
0.12628832 0.052053034 0.083139196
0.15596099 0.045891155 0.082066573
0.16146122 0.044846948 0.081852734
0.15614755 0.038770195 0.08121746
0.15972522 0.035670538 0.081073917
0.17693603 0.049303319 0.082059562
0.15960467 0.029330838 0.079883173
0.16321245 0.032415893 0.080945924
0.19749044 0.047463469 0.08196187
0.0083169863 0.049882248 0.084129274
-0.00097922236 0.021532759 0.081508368
0.035764702 0.049922429 0.084057145
0.004588671 0.012831047 0.080565333
-0.00076384842 0.0078940988 0.079511933
0.1023773 0.050419196 0.084550753
0.16006613 0.041105215 0.082865581
0.18268844 0.047608633 0.082947344
0.18961124 0.048429355 0.083569303
0.21270812 0.047132362 0.082826324
0.22048825 0.045238592 0.0828932
0.24596664 0.045152459 0.082847416
0.29127604 0.042185485 0.081603348
0.023590036 0.048565894 0.084958568
0.0066359639 0.027694955 0.083097599
0.0037140325 0.023090392 0.083046407
0.050691515 0.049578167 0.08533477
0.060928442 0.048864499 0.084812224
0.1690989 0.0503719 0.084490277
0.16581628 0.046597827 0.084068984
0.22866429 0.043985132 0.083340749
0.25617042 0.043669343 0.083147794
0.013650849 0.049713463 0.086380437
0.0017489791 0.034713209 0.08516141
0.04046727 0.050305463 0.085973591
0.075399421 0.049372196 0.086421847
0.10144296 0.04703255 0.085369982
0.11869153 0.047319002 0.085436955
0.13152517 0.052353263 0.086265296
0.13709444 0.05014516 0.085852109
0.14426529 0.05106964 0.085442811
0.150111 0.049299296 0.085454039
0.17518845 0.048095286 0.085861892
0.19562832 0.046289243 0.085535616
0.27917269 0.041808896 0.08378718
-0.00044704974 0.047250815 0.08716654
0.028948031 0.048414342 0.08730147
0.0046206862 0.0066476762 0.082256153
0.055710517 0.050330311 0.087314367
0.095904753 0.04821682 0.087029822
0.15755022 0.048355155 0.086442627
0.16313621 0.047479786 0.086183764
0.2028279 0.047689244 0.086588591
0.23614426 0.04494638 0.085745059
0.044270158 0.047204636 0.088509455
0.054388672 0.046339929 0.087879606
0.080355369 0.05013264 0.088531077
0.10609262 0.047609292 0.087664917
0.12469544 0.05063685 0.087512143
0.12329906 0.047934256 0.087880068
0.16173875 0.044799849 0.086613677
0.18787125 0.047322366 0.087278195
0.21085855 0.045159049 0.086894743
0.21899511 0.043836735 0.087036707
0.0049195811 0.047135517 0.089365169
0.033697151 0.048839994 0.089130402
0.07061407 0.050099157 0.088984594
0.079286382 0.046475597 0.089223541
0.090521835 0.049540572 0.088830143
0.14224692 0.050407931 0.089069575
0.15501809 0.049408555 0.088796511
0.24420717 0.042922571 0.087505788
0.25428945 0.042308066 0.086908735
0.26719242 0.041361611 0.086767055
0.048884764 0.04875847 0.09012416
0.059400298 0.047153234 0.089927152
0.148141 0.047548179 0.089485072
0.16770506 0.048336565 0.088986397
0.011698596 0.048602104 0.091702633
0.038620003 0.049449705 0.091002524
0.063787185 0.048469372 0.091567129
0.073905364 0.047770731 0.091391198
0.11125091 0.047629021 0.090597503
0.12989971 0.050864097 0.090597205
0.12829921 0.047801256 0.09082038
0.18035112 0.047622871 0.090033472
0.20072745 0.046141662 0.090056933
0.22625084 0.044579238 0.089330085
0.23418076 0.043188401 0.089779578
0.084115192 0.047175847 0.091420576
0.18605827 0.045997605 0.090943821
0.20911616 0.044179149 0.090322204
0.0015913993 0.04943537 0.093461126
0.016979501 0.048303567 0.09384241
0.068767592 0.049235389 0.093638785
0.11602062 0.048357911 0.092940375
0.14073026 0.049045447 0.093232214
0.15303856 0.048699737 0.092198715
0.17283298 0.048797347 0.092464454
0.19362067 0.046668444 0.092284806
0.24260999 0.04159436 0.091408171
0.25264055 0.041119982 0.090748824
0.0062007308 0.050924532 0.094920807
0.099315628 0.04743968 0.093916044
0.13488188 0.050700475 0.093535006
0.14622617 0.046944145 0.093077973
0.16611609 0.047086403 0.092877515
0.21642835 0.04482992 0.092453502
0.22419587 0.04328566 0.092582941
0.26446182 0.042193852 0.091785684
0.0055640191 0.046343751 0.095676094
0.021764688 0.04872787 0.095624611
0.10944399 0.046893805 0.094568327
0.17868464 0.046349075 0.093802534
0.1993437 0.04431019 0.094245136
0.23228337 0.042218294 0.093038023
0.037268959 0.047715299 0.096410029
0.07216762 0.046942107 0.095803693
0.082221508 0.046195187 0.095718727
0.093861327 0.048595764 0.095715061
0.10396881 0.047839105 0.096047081
0.12117957 0.048380166 0.095851637
0.15824959 0.047884051 0.095957682
0.19128051 0.045670155 0.095186338
0.02676174 0.049361214 0.097434834
0.025149234 0.046254568 0.097524643
0.052162573 0.047417276 0.097344719
0.088619016 0.049840957 0.097631961
0.13301104 0.049997367 0.097301483
0.14425328 0.0461476 0.096609302
0.17095889 0.047115061 0.096221052
0.206608 0.044875436 0.09595263
0.21469507 0.043720331 0.095764697
-0.00052136183 0.049150348 0.098664515
0.01491753 0.048170984 0.098837651
0.041983724 0.048049293 0.098197311
0.076793626 0.047335975 0.097912632
0.087006949 0.046774343 0.097834848
0.097222008 0.046311051 0.098098636
0.11438932 0.046603218 0.09740153
0.17670792 0.045646045 0.09689106
0.18379636 0.046731357 0.097239085
0.23994531 0.042623509 0.096250184
0.25018439 0.041643869 0.096045107
0.031844549 0.048806652 0.099491276
0.057190411 0.04811392 0.099196278
0.12623119 0.048151053 0.098590575
0.2217214 0.04415568 0.097864918
0.0033133551 0.045897625 0.10072104
0.019659214 0.048521981 0.10057669
0.047330283 0.04791338 0.10049056
0.15124926 0.048362352 0.099888772
0.15641111 0.047244452 0.099408761
0.16354991 0.048265949 0.099116668
0.18962091 0.044328772 0.098784618
0.20472169 0.044397108 0.098718047
0.23004612 0.042585261 0.098922484
0.061925501 0.048593074 0.10109151
0.13112825 0.049103167 0.10104179
0.16933605 0.045587812 0.099996224
0.19696777 0.044846136 0.10010742
0.23812801 0.04163418 0.099406265
0.24969862 0.050378535 0.10046227
0.24557342 0.041039035 0.099594824
0.24847461 0.040814463 0.099034175
0.25637192 0.045585118 0.100006
0.0095647424 0.049250454 0.10235019
0.18190785 0.045051463 0.10089785
0.21204354 0.044082318 0.10116677
0.22527537 0.048998266 0.10175528
0.22455068 0.04356496 0.10093343
0.23285091 0.048388842 0.10108389
0.22763863 0.042531908 0.10063598
0.23979172 0.050630193 0.10183971
0.2352048 0.041990787 0.10029887
0.24349393 0.046740949 0.10067267
0.24665053 0.045925267 0.10075825
0.25273955 0.048538629 0.10131514
0.24934736 0.044577815 0.10085725
0.040558085 0.0461061 0.10348459
0.066917598 0.049279653 0.10302509
0.11889328 0.04940103 0.103366
0.12434473 0.047275223 0.10245596
0.19961348 0.044760976 0.10226837
0.20241134 0.043306291 0.10141524
0.21085876 0.047372311 0.1020387
0.21430889 0.045680337 0.10215033
0.21713564 0.044289958 0.10161876
0.2200692 0.04304821 0.10116816
0.22850889 0.047148317 0.10207008
0.23140089 0.045842472 0.10168628
0.23631059 0.046783268 0.10152912
0.2391634 0.04544542 0.10132843
0.24213237 0.044297963 0.10124464
0.25228077 0.043585818 0.10110323
0.013389654 0.045957766 0.10439808
0.030155934 0.047756448 0.10465465
0.055476092 0.045843408 0.10424393
0.091445781 0.049299568 0.10403302
0.090200976 0.046562925 0.10418054
0.11734243 0.046366565 0.10352319
0.142271 0.04647686 0.10390808
0.14030604 0.044150613 0.10361622
0.1490576 0.047119651 0.10329697
0.16193719 0.046656918 0.10301496
0.16750395 0.044885561 0.1032178
0.17449147 0.04594763 0.10333237
0.1884736 0.048142511 0.10390442
0.20004663 0.049942344 0.10362194
0.19511083 0.044240598 0.10297746
0.2035307 0.048253961 0.10338552
0.20656621 0.04604362 0.1031867
0.2147736 0.050837316 0.10325041
0.20981967 0.044167656 0.10315941
0.2179967 0.048897535 0.10330641
0.22076207 0.047432333 0.10270935
0.045421861 0.046588011 0.10524534
0.070290968 0.046849422 0.10510325
0.080270752 0.046112485 0.10470101
0.10210629 0.048054509 0.10452157
0.11209175 0.047491364 0.10502037
0.1364644 0.048045639 0.10431049
0.14418733 0.047498338 0.10462374
0.18000476 0.044306993 0.10397318
0.18702008 0.045378435 0.10428595
0.19192311 0.045235418 0.10396495
0.20716994 0.051433865 0.10447311
0.018335119 0.046490766 0.10606754
0.034917109 0.048108913 0.10628767
0.060506135 0.046578288 0.10609732
0.072676904 0.047077529 0.10599438
0.096658595 0.049041636 0.10644201
0.10610871 0.050192364 0.10572857
0.12937811 0.047018297 0.10516789
0.14411899 0.054501131 0.10618497
0.15941769 0.04620523 0.105794
0.18049411 0.049535222 0.10569724
0.18420738 0.046836328 0.10551756
0.19276175 0.050884984 0.10553803
0.1958175 0.048637822 0.10502167
0.023128219 0.046868801 0.10771783
0.052412875 0.048278235 0.10767658
0.050395615 0.047211275 0.10705334
0.062559642 0.047715709 0.10666934
0.074968748 0.047238573 0.10704532
0.086812183 0.048624195 0.10686745
0.085122392 0.046728738 0.1067066
0.09531486 0.046296902 0.10663606
0.10504936 0.046449073 0.1063433
0.14723405 0.046261258 0.1068299
0.15431322 0.047368068 0.10634484
0.156342 0.048566476 0.10713205
0.16858041 0.048528876 0.10629901
0.17247976 0.051902242 0.10732514
0.17767762 0.050998136 0.10715801
0.17598779 0.049036101 0.10691804
0.17205732 0.045586292 0.10586227
0.18437167 0.052798253 0.10666241
0.008304812 0.047233634 0.10801587
0.038242936 0.046783336 0.10779144
0.065251127 0.046966411 0.10794684
0.067556664 0.048376575 0.10853794
0.13598722 0.049817245 0.10770078
0.13466106 0.047149103 0.10799187
0.16026662 0.051845741 0.10800265
0.16409589 0.04806789 0.1077534
0.014949292 0.049722493 0.10986684
0.028132662 0.047454976 0.10939538
0.042621195 0.047953159 0.10912551
0.091709189 0.04930672 0.10888824
0.11003541 0.047336169 0.10851556
0.12726179 0.046831094 0.10841466
0.15186085 0.048016995 0.10874599
0.16436124 0.054200433 0.10940501
0.00025168061 0.048860557 0.11069642
0.01935263 0.050923474 0.11118419
0.057792805 0.048048146 0.10973681
0.12713209 0.053798676 0.11042496
0.1220779 0.048032545 0.10985678
0.13150714 0.049372789 0.10984029
0.14807825 0.050675012 0.10970732
0.15203917 0.054087888 0.1106782
0.032879449 0.047733106 0.11098234
0.047634482 0.048638918 0.11093184
0.11467846 0.047779053 0.11069518
0.005291231 0.049531646 0.11228928
0.024130099 0.051236033 0.11271051
0.076940663 0.049056672 0.11224408
0.10093002 0.052293949 0.1119774
0.11468435 0.054861587 0.1129666
0.11901186 0.050343942 0.11199531
0.1321004 0.054688569 0.11265919
0.13986926 0.054149199 0.11249623
0.0096583366 0.050662898 0.11353677
0.028474256 0.053617217 0.11377554
0.081579342 0.050547376 0.11367846
0.09988299 0.048627488 0.11256802
0.12299763 0.052460946 0.11323211
0.032893062 0.054818012 0.11498673
0.10981961 0.055062436 0.11519463
