# .PCD v0.7 - Point Cloud Data file format
VERSION 0.7
FIELDS x y z
SIZE 4 4 4
TYPE F F F
COUNT 1 1 1
WIDTH 1421
HEIGHT 1
VIEWPOINT 0 0 0 1 0 0 0
POINTS 1421
DATA ascii
0.29353008 0.34829253 0.034667797
0.28927258 0.35528547 0.034185424
0.28263173 0.3629536 0.034579907
0.28657687 0.36292821 0.034592301
0.27434564 0.38287413 0.034413576
0.27039254 0.3889358 0.034379657
0.26148039 0.40096569 0.034735143
0.25431004 0.41676623 0.034404688
0.26082963 0.41675723 0.034422468
0.24494332 0.42718035 0.03485151
0.24567825 0.43619525 0.03437895
0.24787003 0.43613625 0.034442216
0.23588437 0.44507104 0.034417029
0.2314018 0.45385367 0.034874063
0.23427913 0.45388258 0.034835618
0.23865563 0.4539417 0.03481007
0.16679603 0.48075259 0.034626614
0.21944791 0.4807657 0.034623221
0.21522173 0.48765463 0.034253791
0.20440826 0.51123989 0.034782499
0.20362163 0.51441085 0.034761988
0.37481394 0.26138002 0.035151213
0.33642292 0.28534573 0.03562415
0.32334483 0.29572326 0.03539861
0.362207 0.29570156 0.035415269
0.31628284 0.30522788 0.035024811
0.30547786 0.32431197 0.035392858
0.30223325 0.33269775 0.035111755
0.30219975 0.33344066 0.035693124
0.29570124 0.34126616 0.035328455
0.29645288 0.34127718 0.035344154
0.2972312 0.34126109 0.035353266
0.29871577 0.34121549 0.035401095
0.29313812 0.34901744 0.035281837
0.28657871 0.36362684 0.035232395
0.27962682 0.37052745 0.03523697
0.27962023 0.37118983 0.035903234
0.27446759 0.37736923 0.035431255
0.26728636 0.389561 0.035098173
0.21657282 0.39563632 0.03515726
0.26426598 0.39624274 0.035894647
0.207629 0.40756124 0.035895787
0.26379973 0.40753508 0.035930179
0.252976 0.41280508 0.035819672
0.23654178 0.43673533 0.035213813
0.24373165 0.43672955 0.03522139
0.24414462 0.43674546 0.03519373
0.23140922 0.44559443 0.035237577
0.24047527 0.44559777 0.035233893
0.2415154 0.44562328 0.03521644
0.23235273 0.45435387 0.035724796
0.23732382 0.45440072 0.035683975
0.22734693 0.45821601 0.035255238
0.22246814 0.46630913 0.035518132
0.21015072 0.49853837 0.03557267
0.2048451 0.5084008 0.03581547
0.15105879 0.51469398 0.035718244
0.20333961 0.51468241 0.035712656
0.1974152 0.5209685 0.035855427
0.19390145 0.52697659 0.035260465
0.19645044 0.52692878 0.035282321
0.19592813 0.53007299 0.035556518
0.19074491 0.53311431 0.035941485
0.19127008 0.53310978 0.035946779
0.19207662 0.53599501 0.035383198
0.3691355 0.26370883 0.036659036
0.32849002 0.28692257 0.036600325
0.3306458 0.28690439 0.036643453
0.33129448 0.28690422 0.036669873
0.33852971 0.28689784 0.036665652
0.33991247 0.28694266 0.036611047
0.36221841 0.29761165 0.036736175
0.36410832 0.29798627 0.036996275
0.31682503 0.30749983 0.036647603
0.30231696 0.31616962 0.036038801
0.30841118 0.31620955 0.036014199
0.30427331 0.32560122 0.036270563
0.30518633 0.32557136 0.036319438
0.30375412 0.32634604 0.036840472
0.297892 0.33486927 0.036925614
0.29844484 0.33451325 0.036608588
0.30218989 0.33418459 0.036265489
0.29204249 0.35046166 0.036476627
0.28261355 0.36501276 0.036509052
0.22824329 0.37811559 0.036025643
0.2328788 0.37806195 0.036081515
0.23469985 0.3787474 0.036734134
0.26678851 0.39088708 0.036480546
0.22111112 0.40288019 0.036892895
0.23811156 0.43339795 0.036935445
0.23916662 0.43340153 0.036923654
0.24318352 0.43341637 0.036915854
0.24458066 0.43338025 0.036954362
0.23610148 0.43727279 0.036021326
0.22905028 0.466793 0.03638446
0.17464349 0.47048438 0.036303896
0.22474727 0.47052979 0.0362457
0.22030124 0.4852128 0.036678784
0.21099171 0.49566406 0.0369073
0.21206805 0.49570382 0.036870092
0.20458233 0.50871122 0.036767382
0.20785242 0.50870264 0.036757335
0.18456414 0.51186156 0.036697686
0.19550428 0.51184976 0.036694098
0.20275602 0.51188374 0.036659285
0.20386332 0.51188636 0.036658648
0.20422155 0.51186007 0.036671218
0.20592654 0.51186121 0.036675178
0.20093918 0.51502562 0.036625478
0.20189863 0.51812267 0.036694448
0.19673437 0.52121294 0.036797948
0.14365733 0.52432144 0.036994994
0.14454943 0.52432257 0.036992583
0.19294 0.52433544 0.036986038
0.19872889 0.52406979 0.036009416
0.13980392 0.53023553 0.036560062
0.14068252 0.53021711 0.036600742
0.14128336 0.53026247 0.036550432
0.14809746 0.53025329 0.036564562
0.14649966 0.53331769 0.036934067
0.15045267 0.53327894 0.036944009
0.175643 0.53331363 0.036930583
0.18174356 0.53332758 0.036921017
0.18321672 0.53330678 0.036933679
0.19180661 0.53330064 0.036947932
0.1925596 0.53331357 0.036918446
0.19099751 0.53623736 0.036330462
0.19154197 0.53619295 0.036346685
0.15556312 0.53922009 0.036867507
0.16598448 0.53916657 0.036900636
0.17070761 0.53923762 0.036848728
0.17356962 0.53917837 0.036891211
0.17714545 0.53920197 0.036867552
0.1857616 0.539222 0.036871478
0.18631256 0.53920895 0.036868785
0.18635938 0.54210746 0.036409769
0.17374465 0.54795343 0.036736738
0.17447039 0.54794371 0.036747165
0.18223381 0.55089319 0.036422011
0.37359005 0.25243163 0.037459027
0.37609392 0.25324357 0.037913747
0.33716115 0.26447481 0.037157785
0.33861941 0.26450706 0.037109759
0.27951771 0.2653079 0.037572265
0.33796793 0.26525617 0.037636705
0.33862627 0.26528323 0.037595578
0.3415665 0.26528335 0.037599482
0.34231734 0.26526815 0.037628356
0.32978773 0.28767216 0.037136409
0.3306725 0.28767699 0.037146326
0.34146905 0.28770906 0.037095934
0.34388995 0.28769392 0.037141517
0.34428591 0.28768313 0.03715387
0.35048217 0.28764111 0.037192028
0.35188311 0.29796857 0.037023053
0.35226947 0.29796541 0.037017856
0.3542107 0.2979821 0.037016805
0.35338056 0.29873466 0.03754228
0.3541308 0.29873246 0.037541509
0.35550416 0.2987408 0.037542772
0.35620755 0.29873109 0.037552752
0.3590107 0.29878974 0.03749951
0.36130255 0.298738 0.037546888
0.31257367 0.30899787 0.037726954
0.30825639 0.31771171 0.037116382
0.3081066 0.31843424 0.03768748
0.25262916 0.32703561 0.037459917
0.30210465 0.32706809 0.037411381
0.30343366 0.32755977 0.037801161
0.29380143 0.34339523 0.037189908
0.23507926 0.3588683 0.037268143
0.28467467 0.35950494 0.037965834
0.27281147 0.36573207 0.037145596
0.2825278 0.36571556 0.037156764
0.27993003 0.37255013 0.037214719
0.28237575 0.37265152 0.037107494
0.22332084 0.37323785 0.037867669
0.27663678 0.37329507 0.037807278
0.2783559 0.37325436 0.037840795
0.27966216 0.37324548 0.037862003
0.27178457 0.37945825 0.03735818
0.26204687 0.39153075 0.037171803
0.27024102 0.39154625 0.037163865
0.27102613 0.39155805 0.037143856
0.21475995 0.39221585 0.037841968
0.26136124 0.39753497 0.0373253
0.26210472 0.39757401 0.037276447
0.26320484 0.39760756 0.037253425
0.2605958 0.39819258 0.037993494
0.2606748 0.40355134 0.037569936
0.26141995 0.40874004 0.037428655
0.24741891 0.41919124 0.037422214
0.2470814 0.42431742 0.037656952
0.24452683 0.43394279 0.037731413
0.24559259 0.43392694 0.037752517
0.2397472 0.43845487 0.037567649
0.23580271 0.44281954 0.037579149
0.23739254 0.44288766 0.037532244
0.23833743 0.44282413 0.037583571
0.23936334 0.45106608 0.037051857
0.24002552 0.45106423 0.037059952
0.23185301 0.45975292 0.037747551
0.22819874 0.46352005 0.03744211
0.22872385 0.46726102 0.03725009
0.22397643 0.47147995 0.037980407
0.22468394 0.47146082 0.037979957
0.16621536 0.47513533 0.037975859
0.21695158 0.4819842 0.037340336
0.21738809 0.48198563 0.037326708
0.18457329 0.48201472 0.03731047
0.18296644 0.48564827 0.037566755
0.18340349 0.48566467 0.03754219
0.20478591 0.48930436 0.037831452
0.18366173 0.49251992 0.037313767
0.20855492 0.49606645 0.037798483
0.21036547 0.49603087 0.037825495
0.21322682 0.49608189 0.037780751
0.16813245 0.49920356 0.037468277
0.18514517 0.49922198 0.037462041
0.18987718 0.49916685 0.037479393
0.20946294 0.49922824 0.037450682
0.15312397 0.50591952 0.037835021
0.18335497 0.50588673 0.037862454
0.1899597 0.50583482 0.037905969
0.19029346 0.50586498 0.037882097
0.19385743 0.50583678 0.037900776
0.1941888 0.50585401 0.037902121
0.19680056 0.50586849 0.037877582
0.20110524 0.50585628 0.037878178
0.20360723 0.50589311 0.037853431
0.20429698 0.50591922 0.037839815
0.20537671 0.50587773 0.037875772
0.15628752 0.50899589 0.037742242
0.19997311 0.50899506 0.037730549
0.15089914 0.50902939 0.037712149
0.15129846 0.50902432 0.037712544
0.16282877 0.50900936 0.037715726
0.18006015 0.50905722 0.037698962
0.20067957 0.50900507 0.037725147
0.16774365 0.5121398 0.037654739
0.17424265 0.51216608 0.037610229
0.19347572 0.51210606 0.03766764
0.19814244 0.51214218 0.037640188
0.19992614 0.51215249 0.037638146
0.20031652 0.51213998 0.037639383
0.20131481 0.51213014 0.037639622
0.15942922 0.51527965 0.03760374
0.16518319 0.51527286 0.037623003
0.19079658 0.51525068 0.037624814
0.19665155 0.5152992 0.037606571
0.19988182 0.51526177 0.037622444
0.15109894 0.51835126 0.037675537
0.15823859 0.51834226 0.037708979
0.16944936 0.51839304 0.037647165
0.17034146 0.51837778 0.037670743
0.17178494 0.51837409 0.037664037
0.17271569 0.51840585 0.037637841
0.18171105 0.51838005 0.037639476
0.18268907 0.51837862 0.037662033
0.19000608 0.5183965 0.037641097
0.14595491 0.52147365 0.03778806
0.14650947 0.52145487 0.037787963
0.14720863 0.5214594 0.037790742
0.15530762 0.5214541 0.037798591
0.1567384 0.52150583 0.037740238
0.15961447 0.52146685 0.037793797
0.16449964 0.52148873 0.037760779
0.16541675 0.52154112 0.037724108
0.16649199 0.52148497 0.037777752
0.16771635 0.52149296 0.03778049
0.16823044 0.5214709 0.037793394
0.17653933 0.52147007 0.037785802
0.17743385 0.52145666 0.037798319
0.1848079 0.52145958 0.037782565
0.18661788 0.52151155 0.037755217
0.18731907 0.52148634 0.037775341
0.1884093 0.52145672 0.037785031
0.18932119 0.5214529 0.037790295
0.1939024 0.52145803 0.037783958
0.19597003 0.52149618 0.037765913
0.14072463 0.52430952 0.037009057
0.14110959 0.52453512 0.037977602
0.14404306 0.52456874 0.037950259
0.1454871 0.52454054 0.03797479
0.15358531 0.52455771 0.037946761
0.1543451 0.52451468 0.037979212
0.15525401 0.52457219 0.037952881
0.15632075 0.52453828 0.037978478
0.15771115 0.52451003 0.037997101
0.16243866 0.52456403 0.037949171
0.16333249 0.52459443 0.037914943
0.17252567 0.52456862 0.037934739
0.17375112 0.52455246 0.037966836
0.1744476 0.52454424 0.037979368
0.17519453 0.52454853 0.037960455
0.17628551 0.5245809 0.037937131
0.19341591 0.52457106 0.037937507
0.19449866 0.5245502 0.037953641
0.14351529 0.52743351 0.037213959
0.14948288 0.52738845 0.03723735
0.15899232 0.5273596 0.037249364
0.16009024 0.52742749 0.037192822
0.1673342 0.52735472 0.037261527
0.17090973 0.52742076 0.037219115
0.17231739 0.52739918 0.037234541
0.19067127 0.52740812 0.037227474
0.19139352 0.52738905 0.037232593
0.19211736 0.52736533 0.037241388
0.14181489 0.53050482 0.037493598
0.14237574 0.53049207 0.037497163
0.14343211 0.53047073 0.037537903
0.14737114 0.5304687 0.037536956
0.14844432 0.53044039 0.0375535
0.15023589 0.53048342 0.037537582
0.15598887 0.53046876 0.03752064
0.1565671 0.53046668 0.037514377
0.15747938 0.53043294 0.037550189
0.15855303 0.53044826 0.037549861
0.15946063 0.5304445 0.037553903
0.16000462 0.53045982 0.037539382
0.16464221 0.53044176 0.037563961
0.1654236 0.53044432 0.037549127
0.16648081 0.53049183 0.037499122
0.17585593 0.53047335 0.037512966
0.1765382 0.53047061 0.037531599
0.17760804 0.53045106 0.037554424
0.17852461 0.53045321 0.037538614
0.17942786 0.53049278 0.037506636
0.18050504 0.5304653 0.037525829
0.18552035 0.5304383 0.037546478
0.1865918 0.53047901 0.037521791
0.18736371 0.53051323 0.037492447
0.14647543 0.53351331 0.037908331
0.147607 0.53355372 0.03787183
0.1526469 0.53349972 0.037912276
0.15356129 0.53347468 0.037926022
0.15443125 0.53351474 0.037909016
0.15553102 0.53352392 0.03788761
0.15623841 0.53349912 0.037899498
0.15731615 0.53350866 0.037895337
0.15840161 0.53351146 0.037882667
0.16199744 0.53348356 0.037927411
0.16251516 0.53346372 0.037935402
0.1634582 0.5335201 0.037888613
0.16454282 0.53351915 0.037897527
0.16525391 0.5334897 0.03792578
0.16880184 0.53353167 0.037887525
0.16953397 0.5335027 0.037908725
0.17045829 0.53346813 0.037936702
0.17138222 0.53353512 0.03787699
0.17245552 0.5335604 0.037873086
0.17352507 0.53350246 0.037909366
0.17457548 0.53351605 0.0379139
0.17531243 0.53350335 0.03791704
0.17600662 0.53351474 0.037913356
0.18265533 0.53350914 0.037912618
0.18373233 0.5334844 0.037928868
0.18452722 0.53350729 0.037901264
0.18536833 0.53354728 0.037878003
0.18610752 0.53351867 0.037886482
0.14167541 0.53638482 0.037337355
0.14278528 0.5363304 0.037349951
0.1434907 0.53634107 0.037369914
0.14457524 0.53635097 0.037360694
0.15049988 0.53636289 0.037355576
0.15139329 0.53635108 0.037364818
0.15248862 0.53635919 0.037363276
0.15320539 0.53640503 0.037329488
0.15878808 0.53636134 0.037338641
0.15969238 0.53636169 0.037336629
0.16004241 0.53635985 0.037332449
0.16113934 0.53632474 0.03736892
0.16777521 0.53634626 0.037374549
0.16850111 0.53632689 0.037385184
0.16977605 0.53639644 0.037302788
0.17015266 0.53638917 0.037324149
0.17876282 0.53636318 0.037344288
0.17932564 0.53636765 0.037339717
0.1805577 0.53634942 0.037367851
0.18145049 0.53634077 0.037374135
0.1825546 0.53639036 0.037321426
0.18323678 0.53637481 0.037345041
0.18864566 0.53634477 0.037362784
0.1895366 0.53633642 0.037367996
0.14978683 0.53938186 0.037857901
0.15050897 0.53942132 0.037820399
0.15140569 0.5394147 0.037826132
0.15664765 0.53935111 0.037863858
0.15752769 0.53937942 0.037859317
0.15844229 0.53939903 0.037828363
0.15916675 0.53938246 0.037844993
0.16494247 0.53937536 0.037852801
0.16543978 0.5393464 0.037869353
0.1665259 0.53938121 0.037838612
0.16747153 0.53940094 0.037831288
0.16819161 0.5393787 0.037845563
0.17262483 0.5393855 0.037840176
0.1735234 0.53934401 0.037877601
0.1744628 0.53938991 0.037834138
0.17537987 0.53944278 0.037798434
0.17645553 0.53938663 0.037850298
0.17768013 0.53939462 0.037852552
0.17857173 0.53937435 0.037860058
0.17950359 0.53937376 0.037853561
0.18005088 0.53937864 0.037842751
0.18684632 0.53935385 0.037864935
0.18717065 0.53935695 0.037878077
0.15359202 0.542234 0.037422761
0.154484 0.5422352 0.037420344
0.15519127 0.54220402 0.037433304
0.1615231 0.54223025 0.037405118
0.16257942 0.54223657 0.03740073
0.16348195 0.54223305 0.037404377
0.16457254 0.54220998 0.037425403
0.1654962 0.54222739 0.037425753
0.16622078 0.54221147 0.037435949
0.17067856 0.54222202 0.037434708
0.1713776 0.5422067 0.037445642
0.17250764 0.54225147 0.037396584
0.17339161 0.54226398 0.03738163
0.18346104 0.5422318 0.037418395
0.18434447 0.54221958 0.037436526
0.18666345 0.54224503 0.037411779
0.16206557 0.54526103 0.0379963
0.16853812 0.54507101 0.037053984
0.16960669 0.54507935 0.037045009
0.17057508 0.54512501 0.037014548
0.1712538 0.54509681 0.037035715
0.17567918 0.54510427 0.037030302
0.17644346 0.54507363 0.037054192
0.17738801 0.5450685 0.037050817
0.17861933 0.54529178 0.037980266
0.1795482 0.5451051 0.03703985
0.18041503 0.54509783 0.037038788
0.18147114 0.54509342 0.037053913
0.18257645 0.54509008 0.037044391
0.18331423 0.54509389 0.037033305
0.18405426 0.54510546 0.037017569
0.16457063 0.54807502 0.037708625
0.16561866 0.54808617 0.037700091
0.16653612 0.54808486 0.037699129
0.16763595 0.54805017 0.037728339
0.17339036 0.54806495 0.037731331
0.17556342 0.54808927 0.037704762
0.17646074 0.54811811 0.037671607
0.16999772 0.55095911 0.037447426
0.17872992 0.55095959 0.037439238
0.17948949 0.55092996 0.03746083
0.18021363 0.55090457 0.037482366
0.17678785 0.5537973 0.037266899
0.37867886 0.25482953 0.038837496
0.38225839 0.2540493 0.038365796
0.34225488 0.26607853 0.038085688
0.32383835 0.28998005 0.038705353
0.32496732 0.28996992 0.038713396
0.35588992 0.2994982 0.038074672
0.35699707 0.29949218 0.038076751
0.35838085 0.29952741 0.038027633
0.35979941 0.29953563 0.038035307
0.36058033 0.29952484 0.038041953
0.35841545 0.30028838 0.038562663
0.36097026 0.30028188 0.038570479
0.29344276 0.32777297 0.03804839
0.30249268 0.33640283 0.038000524
0.28806612 0.35256988 0.038336195
0.28252679 0.36708736 0.038431671
0.27183995 0.37398523 0.038474414
0.22127053 0.38005489 0.038125154
0.27275491 0.38015109 0.038025204
0.27317756 0.38013095 0.038043611
0.27364129 0.38683689 0.038550142
0.27471089 0.38683939 0.038562302
0.22867846 0.3928352 0.038573012
0.27046871 0.39286059 0.038560469
0.2529431 0.40413427 0.038358513
0.26135731 0.40935624 0.038158949
0.25598937 0.41462082 0.038070649
0.25661021 0.41523051 0.038815971
0.23901802 0.42037535 0.038948249
0.249466 0.42036754 0.038946129
0.2012763 0.42498553 0.03836412
0.2454443 0.4300704 0.038749285
0.24689278 0.43007368 0.038748346
0.23360699 0.4345023 0.038540773
0.22023082 0.4390043 0.038346015
0.19198924 0.44771785 0.038529262
0.22764191 0.44774318 0.038496617
0.22107193 0.4521507 0.038685739
0.18064275 0.46020365 0.038628895
0.19213352 0.46023542 0.038615737
0.22130919 0.46026039 0.038576145
0.23023689 0.46022338 0.038643781
0.23135731 0.46025616 0.038598143
0.22808987 0.46398813 0.038305953
0.17726415 0.46769363 0.038150791
0.22442946 0.46772182 0.038130295
0.19331455 0.46819818 0.038994867
0.19759151 0.46821874 0.038953938
0.22059187 0.46824181 0.038947687
0.22531465 0.46823138 0.038954508
0.16756341 0.47191668 0.038861964
0.17705852 0.4719097 0.038862869
0.18062037 0.47192419 0.038856726
0.19137636 0.4718889 0.038894076
0.20071512 0.4718864 0.038893413
0.20112321 0.47187239 0.038890719
0.20690629 0.47181636 0.038931493
0.21300676 0.471843 0.038925558
0.21908864 0.47190398 0.038863886
0.22249663 0.47194779 0.038834099
0.22343472 0.47195131 0.038824335
0.1848011 0.47558618 0.038872547
0.18875411 0.47557569 0.038860518
0.18918487 0.47557175 0.038850173
0.20459235 0.47554374 0.038889706
0.21613598 0.47556978 0.038870536
0.21950585 0.47559345 0.03885119
0.21768227 0.47880465 0.038045336
0.16875112 0.47924066 0.038921937
0.18037757 0.47926694 0.038906325
0.18150294 0.47924316 0.038928438
0.18218949 0.47922599 0.03894924
0.18862799 0.47924441 0.038923196
0.21099463 0.47916609 0.038981315
0.2136246 0.47918612 0.038980473
0.21671805 0.47918707 0.038982995
0.18512982 0.48243082 0.038211808
0.21816936 0.48240525 0.038241584
0.17227107 0.48608714 0.038427968
0.185718 0.48606819 0.0384445
0.2007741 0.48607379 0.038428627
0.21265429 0.48603708 0.038477827
0.21406379 0.48603183 0.038473681
0.21798906 0.48602593 0.038480584
0.16878554 0.48973149 0.038733594
0.16985631 0.48967892 0.03875763
0.17025009 0.48967898 0.038756888
0.18048924 0.4896419 0.038798537
0.18244702 0.48970205 0.038760301
0.18440065 0.48963434 0.038785666
0.18507576 0.48965174 0.038794037
0.19957444 0.4896763 0.038735785
0.20203125 0.48965752 0.0387634
0.20639184 0.48965251 0.038779669
0.21245682 0.48964351 0.038786191
0.21373969 0.48969942 0.038736958
0.18912309 0.49286306 0.038260762
0.19271308 0.49291462 0.038215529
0.19595227 0.49286258 0.03824709
0.20311856 0.49286228 0.038264878
0.20417908 0.49283135 0.038262997
0.20525804 0.49283653 0.038272079
0.20713428 0.49288023 0.038256608
0.20855024 0.49284869 0.038261782
0.20928943 0.49284852 0.038267102
0.21358064 0.49284208 0.038258448
0.16462669 0.49645507 0.038709309
0.16536671 0.49642551 0.038719211
0.16936746 0.49641341 0.038716152
0.17018574 0.49641037 0.038738232
0.17470735 0.49638498 0.038751505
0.17510343 0.4963901 0.038751118
0.18157986 0.49643832 0.038720157
0.18253684 0.49641669 0.038718957
0.18305314 0.49640316 0.038732644
0.18424192 0.49637651 0.038778402
0.18571183 0.4964487 0.038717996
0.18743056 0.49640393 0.038745109
0.18849635 0.49636865 0.038772821
0.1939474 0.49644125 0.038719807
0.19429618 0.49644315 0.038717669
0.19733053 0.49641407 0.038737927
0.20288968 0.49641728 0.038740497
0.20364964 0.49643219 0.038711257
0.20561641 0.49639231 0.038748767
0.2097376 0.49639827 0.038755357
0.21081236 0.49639267 0.038765937
0.1599769 0.49956197 0.038391147
0.16280872 0.49959344 0.038374104
0.16747889 0.49959248 0.038371798
0.17040619 0.49964172 0.038334526
0.1914081 0.49958557 0.038374528
0.19284824 0.4995749 0.038388096
0.1973784 0.49956417 0.038381364
0.20684373 0.49957412 0.038392249
0.20881575 0.49955404 0.038393181
0.21013156 0.49960691 0.038354196
0.1653153 0.50274551 0.038098212
0.17868873 0.50270921 0.038101144
0.179342 0.50273794 0.038109481
0.1837658 0.50270981 0.038102426
0.18743649 0.50271994 0.038103729
0.19713897 0.50271606 0.03809917
0.20469761 0.50273967 0.038084608
0.2065182 0.50274265 0.038069848
0.20722303 0.50276828 0.038053136
0.20863029 0.50273097 0.038101878
0.16796467 0.50310302 0.038998991
0.16828337 0.50312716 0.038981546
0.17174256 0.5031265 0.038979575
0.17246014 0.50312293 0.038987346
0.18526584 0.50310147 0.038997404
0.18602851 0.50308847 0.038997412
0.19406679 0.5031051 0.038995434
0.1983223 0.50312114 0.03898979
0.15350246 0.50623554 0.038790386
0.15426007 0.50621367 0.0388011
0.15876177 0.50621283 0.03880677
0.15944684 0.50621068 0.038826901
0.16053313 0.5062145 0.038815383
0.16165489 0.50621259 0.038799226
0.16255382 0.50621825 0.038792703
0.16431603 0.50619286 0.038834598
0.16543433 0.50623119 0.038782239
0.16650355 0.50622362 0.03879502
0.1792537 0.50620687 0.03880804
0.1837807 0.50620604 0.038800459
0.1841954 0.50620121 0.038805634
0.19756067 0.50618255 0.038821753
0.19864094 0.50618923 0.038832061
0.20086414 0.5062089 0.038803313
0.20154428 0.50619423 0.038821243
0.20469794 0.50625575 0.0387806
0.20545995 0.50621676 0.038808312
0.2094191 0.50624728 0.038776796
0.15259606 0.50932497 0.03868315
0.1705845 0.50931466 0.038684171
0.17148811 0.5093689 0.038631514
0.17254055 0.50936043 0.038649201
0.17364362 0.50931305 0.038680494
0.17470899 0.50933683 0.038660668
0.17544955 0.50939047 0.038617678
0.17654237 0.5093447 0.038642924
0.17757893 0.50932574 0.038663737
0.17846221 0.50931847 0.038680144
0.17941359 0.50935793 0.038643919
0.18262821 0.50931543 0.038677648
0.18355179 0.50935239 0.038646925
0.18425953 0.50935662 0.038649645
0.18770564 0.50929093 0.038703606
0.18842372 0.50935113 0.038647518
0.18911943 0.50935471 0.038651098
0.19065621 0.50933123 0.038674437
0.19125047 0.50930822 0.038688447
0.19252577 0.50933635 0.038657427
0.19340399 0.50935644 0.038663514
0.19463587 0.50932282 0.038667981
0.19554561 0.5092814 0.038693201
0.19603264 0.50930452 0.038696319
0.19756201 0.509359 0.038638525
0.20399392 0.50934446 0.038651522
0.14986563 0.51245117 0.038586438
0.15036583 0.51242095 0.038604181
0.15580803 0.51246971 0.038562514
0.15671256 0.5124861 0.038550034
0.15734106 0.51246482 0.038572945
0.15811077 0.51242244 0.038609661
0.15939352 0.51246303 0.038565878
0.16348982 0.51244932 0.038593445
0.16461432 0.51244926 0.038582593
0.16552493 0.51246047 0.038564451
0.16640398 0.51245975 0.038578272
0.16730016 0.51243764 0.038597994
0.16856626 0.51246059 0.03856799
0.16964051 0.5124718 0.03856682
0.17052352 0.51245868 0.038581926
0.17103678 0.51244819 0.038586721
0.18677694 0.51245946 0.038569611
0.18748713 0.5124464 0.038576011
0.18842256 0.51242942 0.038587365
0.20071968 0.51243448 0.038598917
0.20107454 0.51241517 0.038592312
0.14656702 0.51555061 0.038568173
0.14741948 0.51556051 0.038556833
0.15358725 0.51558685 0.038535561
0.15449306 0.51557136 0.038559008
0.15553567 0.51554406 0.03859074
0.15623862 0.51554626 0.038587358
0.17366916 0.51553386 0.038593683
0.17463052 0.51556623 0.038558014
0.1754761 0.51560158 0.038539279
0.17638943 0.51556444 0.038560122
0.17729396 0.51552272 0.03859121
0.17855611 0.51559138 0.038539812
0.17945987 0.51560497 0.038533125
0.18053919 0.51555169 0.038566165
0.18159306 0.5155412 0.038584758
0.18252239 0.51555598 0.038563602
0.18359089 0.51558757 0.038555931
0.18448371 0.51555496 0.038568124
0.18540072 0.5155282 0.038582858
0.18645453 0.51555419 0.038578399
0.18773377 0.51557827 0.03855738
0.19153711 0.51554859 0.038578026
0.19242972 0.51557982 0.03855066
0.19337842 0.51555789 0.038552761
0.19452661 0.51553762 0.03859096
0.19562876 0.51553047 0.038584378
0.19671986 0.51558483 0.038562983
0.19756821 0.51555783 0.038575988
0.19847831 0.51551795 0.038592435
0.19934195 0.51551718 0.038602721
0.20063654 0.51557982 0.038545892
0.14395812 0.51864719 0.038626458
0.15082628 0.51859581 0.03865331
0.15169272 0.51865071 0.038624875
0.15259862 0.5186336 0.038643479
0.15364826 0.51863003 0.038635984
0.15454116 0.51861572 0.038650941
0.15873802 0.51863223 0.038637403
0.15943381 0.51867568 0.038592473
0.16046834 0.51867402 0.038603451
0.16155711 0.51862991 0.038639672
0.16696373 0.51864719 0.038634382
0.16748244 0.51865447 0.038629737
0.16843522 0.51864696 0.038617518
0.17092222 0.51863861 0.038642872
0.17126215 0.51863444 0.038648218
0.17236555 0.51869476 0.038575977
0.17343792 0.518664 0.038612723
0.17430758 0.5186525 0.038630277
0.19055903 0.51864982 0.038616601
0.19149214 0.51863515 0.038624641
0.19257632 0.51862562 0.038635921
0.14778417 0.52173305 0.038760301
0.1485208 0.521752 0.03872171
0.14961043 0.52172625 0.03873935
0.15050459 0.52173483 0.038726073
0.15120828 0.52173567 0.03872614
0.15755364 0.52175164 0.038725495
0.15860653 0.52172005 0.038755249
0.15932384 0.52172005 0.038766306
0.16402784 0.52168548 0.038775891
0.16722205 0.52171654 0.038748119
0.17692769 0.52170497 0.038760185
0.17838359 0.52176344 0.038713239
0.17944542 0.52175033 0.038728144
0.18053854 0.52170658 0.038756698
0.18160748 0.52174163 0.038733535
0.18254614 0.52178633 0.038699936
0.18343887 0.52173889 0.038724538
0.18428525 0.52172446 0.03874239
0.18556193 0.52171814 0.038753092
0.18770567 0.5217284 0.038741909
0.18985891 0.52173102 0.038763579
0.19062629 0.52175021 0.038725566
0.19476622 0.52170819 0.038763706
0.19551533 0.5217517 0.038721591
0.19644853 0.52174389 0.038716163
0.19795096 0.52171487 0.038756769
0.14660612 0.52483094 0.038917135
0.15487921 0.52478236 0.038935274
0.15580845 0.52478004 0.038947303
0.15670964 0.52479362 0.038932104
0.15704262 0.52477181 0.038949974
0.1616478 0.5245167 0.0380046
0.16384676 0.52482009 0.038909566
0.17145598 0.52479243 0.038928792
0.17253441 0.52480435 0.038917448
0.17322522 0.52480316 0.038918622
0.17575815 0.52484006 0.038881242
0.17680097 0.52480894 0.038924005
0.17736691 0.52480119 0.038927883
0.19378325 0.5247978 0.03892326
0.19411966 0.52479261 0.038919449
0.14355311 0.52764541 0.03819311
0.14449713 0.52767026 0.03816659
0.14899704 0.52761936 0.0382061
0.15042368 0.527601 0.038218133
0.15148392 0.52763271 0.038199529
0.15258446 0.52763236 0.03818832
0.15349671 0.52762365 0.038190849
0.15400884 0.52762312 0.038192719
0.15976653 0.52759993 0.03821823
0.16072905 0.5276528 0.038178314
0.16158772 0.52761757 0.038208123
0.16226918 0.52761161 0.038221128
0.16582984 0.52763397 0.038194187
0.16659617 0.52760196 0.038219124
0.16772351 0.52761447 0.038193934
0.16843203 0.52767897 0.038157117
0.1695118 0.52764618 0.038190823
0.17038459 0.52761662 0.038207158
0.17143324 0.52762377 0.038220342
0.17200401 0.52761841 0.038214371
0.17972243 0.52761632 0.038209934
0.18042508 0.52759898 0.038226638
0.18138623 0.52763152 0.038191989
0.18242159 0.5276556 0.038176887
0.18349361 0.52761883 0.038208116
0.18493986 0.52762282 0.038202241
0.1864135 0.5276525 0.03817245
0.1876204 0.52761674 0.038202476
0.18852425 0.52760494 0.038216785
0.18964329 0.52764523 0.038185474
0.19037062 0.52765477 0.038187455
0.1925436 0.52759373 0.038215309
0.19357842 0.52763259 0.038193956
0.14275372 0.53065097 0.038482327
0.14342552 0.53067952 0.038503546
0.14411145 0.53066039 0.038535092
0.14957443 0.53070128 0.038506161
0.15860367 0.53068542 0.038508531
0.16578585 0.53069258 0.038499504
0.17480719 0.53065401 0.038515002
0.17530823 0.5306738 0.038504358
0.17762285 0.53065503 0.03853111
0.19045135 0.53369665 0.038882487
0.19262427 0.53369999 0.038881607
0.14242041 0.53651679 0.038343221
0.14548111 0.53657514 0.038295981
0.14637747 0.5365324 0.038321789
0.14739928 0.53652859 0.03835465
0.1608142 0.5364815 0.038367879
0.16168082 0.5365361 0.038340215
0.16258863 0.5365181 0.038358685
0.16941836 0.53655058 0.038315102
0.17044616 0.53655839 0.038321108
0.17982179 0.53654277 0.038330078
0.18199959 0.53653312 0.038332745
0.18380958 0.53653729 0.038330015
0.19045311 0.53658348 0.038297255
0.1876165 0.53952235 0.038848188
0.17014685 0.54236317 0.038423326
0.18274632 0.54239213 0.038394969
0.18490517 0.54236448 0.038417429
0.185249 0.54237902 0.038397804
0.18600774 0.54240429 0.038381938
0.15952674 0.54521215 0.038040422
0.16023946 0.54518819 0.038053274
0.16240704 0.54523128 0.038025893
0.17785922 0.54525721 0.03800977
0.18363729 0.54523444 0.038019184
0.1686978 0.5481869 0.038725533
0.17241907 0.55099785 0.038483497
0.17064518 0.55103141 0.038461633
0.17137679 0.5510298 0.038461473
0.17279038 0.55102348 0.038460832
0.17358905 0.55107874 0.038416255
0.17443037 0.55104971 0.038442899
0.18074524 0.55103934 0.038438417
0.18145463 0.55110335 0.038403224
0.17796105 0.553859 0.038287818
0.35640195 0.24266505 0.039639715
0.35639852 0.25559443 0.039348356
0.3809149 0.2556231 0.039295986
0.38261414 0.25564069 0.039300501
0.37136132 0.28039634 0.039661292
0.32248405 0.29072493 0.039230876
0.32386041 0.2907337 0.039230507
0.32470205 0.29075778 0.039221235
0.34149194 0.29076952 0.039206605
0.3450802 0.29078346 0.039178662
0.32218027 0.291502 0.03973297
0.3235743 0.29149801 0.039742719
0.30904192 0.30105412 0.039113887
0.35946655 0.30105633 0.039080899
0.30863902 0.320692 0.03935134
0.30588603 0.32143658 0.039911017
0.30663282 0.32142913 0.03992201
0.30262455 0.32928169 0.039143689
0.30347365 0.32929575 0.03912805
0.29680872 0.33779585 0.039240479
0.3035332 0.33785218 0.039180789
0.24268299 0.35396993 0.039613754
0.24073136 0.36161953 0.039849956
0.24723348 0.36161292 0.039866012
0.27388766 0.36160195 0.039874293
0.29038212 0.36166048 0.039800655
0.28134021 0.36781955 0.039054751
0.22977999 0.36852485 0.039699588
0.2780588 0.36850631 0.039726693
0.28016242 0.36856532 0.039652627
0.28205919 0.36849159 0.039711282
0.27687091 0.37468255 0.039108627
0.27972746 0.37461823 0.03916274
0.22460219 0.37531799 0.039815705
0.24113807 0.37535441 0.039784547
0.26526871 0.37535578 0.039771415
0.27324018 0.37532562 0.039819527
0.21481502 0.38817853 0.039899744
0.26974425 0.39349502 0.039270915
0.23943028 0.39414495 0.039956164
0.22383463 0.40476382 0.039053656
0.24606892 0.40476286 0.039079405
0.20465982 0.4053632 0.039816927
0.2484861 0.40544391 0.039746352
0.23150763 0.4106462 0.039584223
0.24207759 0.4106701 0.039583825
0.25069565 0.41065419 0.039582714
0.25154081 0.41582036 0.039579764
0.25527298 0.41586196 0.039533917
0.24784628 0.42103517 0.039657693
0.25291741 0.42103624 0.039647534
0.21124279 0.42553699 0.03915707
0.2493445 0.42559397 0.039110705
0.25009006 0.42556071 0.039135452
0.20665827 0.42614901 0.039904673
0.20857853 0.4261449 0.039914444
0.22697282 0.42614573 0.039899006
0.2273412 0.42616719 0.039899215
0.24821028 0.42611742 0.039915554
0.21621802 0.43062288 0.039538104
0.24174717 0.43064702 0.039522283
0.2370804 0.43511641 0.039288562
0.2286973 0.4395327 0.039179761
0.22252783 0.44007427 0.039995816
0.23544335 0.44013882 0.039936651
0.24226817 0.440099 0.039965242
0.24586603 0.44012171 0.039962981
0.24622381 0.44013304 0.039935447
0.20594063 0.44392085 0.039191529
0.2072854 0.44453442 0.039947182
0.208224 0.44452786 0.039937485
0.21130383 0.44448614 0.039993353
0.21240956 0.44452649 0.039925471
0.21489421 0.4444927 0.039963376
0.2155821 0.44449824 0.039977472
0.21956283 0.44448614 0.039981995
0.22782686 0.44453329 0.039933849
0.18753427 0.44829625 0.039313231
0.1926046 0.4482466 0.039355788
0.2036674 0.44827664 0.039322283
0.23397636 0.4483493 0.039260101
0.23431027 0.44836569 0.039256506
0.23649284 0.44830823 0.039305348
0.23791012 0.44830614 0.039303534
0.18888134 0.45267701 0.039491534
0.21118262 0.45265919 0.039516445
0.21820223 0.45265132 0.039526813
0.22382304 0.45264369 0.039520871
0.22631192 0.45264977 0.039517418
0.18275079 0.45642924 0.039051186
0.18474621 0.45693171 0.039880417
0.19269967 0.45692426 0.039882939
0.19892046 0.45640451 0.039070267
0.19959718 0.45666742 0.039485108
0.20093831 0.45689511 0.039922588
0.20128322 0.45688337 0.039929423
0.20347545 0.45689774 0.039914526
0.2043947 0.45689249 0.039923176
0.20701563 0.45693797 0.039879445
0.20863086 0.45693159 0.039885927
0.21066535 0.45695597 0.039855219
0.22543666 0.45696187 0.039847806
0.22653022 0.45695955 0.039852738
0.18169066 0.4607178 0.039484199
0.18928143 0.46070492 0.039493535
0.19337869 0.46074313 0.039448589
0.21749169 0.46074963 0.039440017
0.22321454 0.46069574 0.039497003
0.2257798 0.46074027 0.039468743
0.18036678 0.46445799 0.03918251
0.18793482 0.46443516 0.039196059
0.20052925 0.46441108 0.039237939
0.20445272 0.46442538 0.039228346
0.20990789 0.46444565 0.039201625
0.21022406 0.46443194 0.039210759
0.18231198 0.46865404 0.039847776
0.18697006 0.46867877 0.039835431
0.22261009 0.46867841 0.039837692
0.22371104 0.46867907 0.039823335
0.1819157 0.47235304 0.03974412
0.18259379 0.47234088 0.039763562
0.18574724 0.47240245 0.039721739
0.19260302 0.47232169 0.03976262
0.1940459 0.47234285 0.039774273
0.20163876 0.4723382 0.039749265
0.20987913 0.47229129 0.039805233
0.21062753 0.47228467 0.039804969
0.21238747 0.47229975 0.039799482
0.21860152 0.47241068 0.03969755
0.21962789 0.47238517 0.039731387
0.22214457 0.47236687 0.039741803
0.17703944 0.47598308 0.039776009
0.19869107 0.47599941 0.039761931
0.20692229 0.47598135 0.039785936
0.21875519 0.47599906 0.039757609
0.21907124 0.47599721 0.039762117
0.17815644 0.47603571 0.039735626
0.18283892 0.47605783 0.039717358
0.18608516 0.47602361 0.039740492
0.19187358 0.47602338 0.039717019
0.19271451 0.47606468 0.039718691
0.19919235 0.47600734 0.039759506
0.20261049 0.47602069 0.039749272
0.21661484 0.47600299 0.039759029
0.21801484 0.47601449 0.0397535
0.2202327 0.47609204 0.039695766
0.16599062 0.47966146 0.039834995
0.16967434 0.47965276 0.039821673
0.18666658 0.47966409 0.039831083
0.19094262 0.47967255 0.039818384
0.19137353 0.47966862 0.039808068
0.1983422 0.47968078 0.039819766
0.20662522 0.47964406 0.039836258
0.20710599 0.47967637 0.039825559
0.2158246 0.47962451 0.039846048
0.16897795 0.48290539 0.039068535
0.17455763 0.48289984 0.039070267
0.17912751 0.48287195 0.039107945
0.18203786 0.48288888 0.039085444
0.18975848 0.48287988 0.039089251
0.19575471 0.48287678 0.039067179
0.2029061 0.48286307 0.03910058
0.20649192 0.48287404 0.03909881
0.16945806 0.48332959 0.039960898
0.17789701 0.48329228 0.039977077
0.18274733 0.48332942 0.039957814
0.18346488 0.48330843 0.039981496
0.18686762 0.48333144 0.039962977
0.18742311 0.48333943 0.039956827
0.19061977 0.48330045 0.039979044
0.19118756 0.48332399 0.039960861
0.19674194 0.48333919 0.039963838
0.19745818 0.48330534 0.039990604
0.19851813 0.4832738 0.039993584
0.2069605 0.48329484 0.03999823
0.21057814 0.48327565 0.03999263
0.16876242 0.4864679 0.039351746
0.16912013 0.48646307 0.039348844
0.17274836 0.48648947 0.039326869
0.17316207 0.48648447 0.039332427
0.18685302 0.4864676 0.039346732
0.18726322 0.48646283 0.039352871
0.18983102 0.4864915 0.039329547
0.19033539 0.48647112 0.039347652
0.19366357 0.48653984 0.039307036
0.19442743 0.48648793 0.039344445
0.20161137 0.48647773 0.039351691
0.20257908 0.48651534 0.039312977
0.20670733 0.48651457 0.039313726
0.20990416 0.48646396 0.039353751
0.16281718 0.49005246 0.039687805
0.16353312 0.49005562 0.039682075
0.16461897 0.49013263 0.039621986
0.1655345 0.49009228 0.039640911
0.16623652 0.49007046 0.039664544
0.16713047 0.49005735 0.039675333
0.17292792 0.49009883 0.039647009
0.17343342 0.49009645 0.039655387
0.17404103 0.49008816 0.039647084
0.17796028 0.4901036 0.039640374
0.17872402 0.49009007 0.039640393
0.17945448 0.49006552 0.039666589
0.18060365 0.49004251 0.039695833
0.18150568 0.49006009 0.039671641
0.18307704 0.4900654 0.039685875
0.18581519 0.49007225 0.039671559
0.1865505 0.49010205 0.039641008
0.18746296 0.49007487 0.039665062
0.1906721 0.4901033 0.039646532
0.19370788 0.4900735 0.039667379
0.19458792 0.49007553 0.03966026
0.19891784 0.49009448 0.039651878
0.20036879 0.49011046 0.039641853
0.20146146 0.49006927 0.039674181
0.20287588 0.49006337 0.039663449
0.20718983 0.49005222 0.039695565
0.21060276 0.49006748 0.039678805
0.21117187 0.49005353 0.039678447
0.21456891 0.49003744 0.039693594
0.17254195 0.49322224 0.039183855
0.17673379 0.49324179 0.039161954
0.17746603 0.4932282 0.039172541
0.17804277 0.49322695 0.039176561
0.190476 0.49321651 0.039178867
0.19121391 0.49322271 0.039188128
0.19359523 0.49324608 0.03916401
0.19428909 0.49323291 0.039180491
0.19764158 0.49328333 0.039152842
0.19838691 0.49324113 0.039172467
0.20573944 0.4932344 0.039191373
0.20635784 0.49327016 0.039145563
0.2076146 0.49322575 0.039180469
0.20973095 0.49321973 0.039196841
0.21046555 0.49326396 0.039141979
0.21120277 0.49329537 0.039113376
0.15972859 0.49678153 0.039653052
0.16008335 0.49682677 0.039612722
0.16407955 0.49680048 0.039638795
0.16655391 0.49675751 0.03967499
0.16762051 0.49679518 0.039652146
0.16838726 0.49683732 0.039615776
0.16943589 0.49679804 0.039644182
0.1766403 0.49680263 0.039643943
0.17755914 0.49679637 0.039651189
0.17810816 0.49678421 0.039657041
0.1839658 0.49676663 0.03967756
0.18471351 0.49673241 0.039701387
0.18524134 0.4967671 0.039665718
0.18647984 0.49679279 0.039669342
0.18894207 0.49675226 0.039697524
0.18937907 0.49676901 0.039673362
0.1904721 0.49680549 0.039638586
0.19155446 0.49676567 0.039672829
0.19475481 0.49682945 0.039626677
0.1951713 0.49680811 0.039643038
0.19799384 0.49677771 0.03965788
0.19852573 0.49679279 0.039646368
0.19905031 0.49681664 0.039634321
0.20375222 0.49681485 0.0396262
0.20465589 0.49680531 0.039656017
0.20641753 0.49675775 0.039665673
0.21025759 0.49675363 0.039683491
0.15398848 0.49995571 0.03930711
0.15540573 0.49995202 0.039299108
0.15663749 0.49993229 0.039316867
0.15756837 0.49992937 0.039308887
0.15828365 0.49993801 0.039295901
0.16365486 0.49993289 0.039306056
0.17533892 0.49993449 0.03930825
0.1764307 0.49990302 0.039323036
0.17732504 0.49991238 0.039324868
0.1806497 0.49992335 0.039305311
0.18136689 0.49991184 0.039314404
0.19367471 0.49991381 0.039326154
0.19437364 0.49990064 0.039321315
0.19509491 0.49991167 0.039331883
0.19799829 0.49991667 0.039321024
0.19832048 0.49993598 0.039320774
0.20173416 0.4999404 0.039312072
0.20249212 0.49992168 0.03930394
0.20355541 0.49993753 0.039308824
0.16088831 0.50342345 0.039950706
0.16177714 0.50340688 0.03997061
0.1622076 0.50306213 0.039044902
0.1630491 0.50339562 0.039974123
0.16764668 0.50309241 0.039001603
0.16867343 0.50310993 0.039006531
0.16939226 0.50308108 0.039015532
0.17048118 0.50304615 0.039045166
0.17118567 0.50307578 0.039023388
0.17337671 0.50306976 0.039015047
0.1744062 0.50306213 0.039035648
0.17533767 0.50306332 0.039028112
0.17982545 0.50308478 0.039014857
0.18056831 0.50309598 0.039009646
0.18144104 0.5034256 0.039940193
0.18471664 0.50308478 0.039016634
0.18559599 0.50309378 0.039013807
0.18656981 0.50306153 0.039015707
0.18752766 0.50305247 0.039050695
0.18937206 0.50309074 0.039013222
0.19039321 0.50307953 0.039032593
0.19147897 0.5030359 0.039048299
0.19294643 0.50306064 0.039035689
0.19346559 0.50308883 0.039010499
0.19461906 0.50324976 0.03948864
0.19780332 0.5030998 0.039005335
0.19883481 0.50343865 0.039941937
0.20063668 0.50307906 0.039018638
0.20155454 0.50307214 0.039021011
0.20656952 0.50307572 0.039026622
0.20827129 0.50326651 0.039486535
0.1529299 0.50657356 0.039696608
0.15392888 0.50654721 0.03974171
0.15544486 0.50650442 0.039769076
0.15653411 0.50659001 0.03970255
0.15761408 0.50655675 0.039738081
0.15831399 0.50653517 0.039753545
0.16010168 0.50653183 0.039761934
0.16654763 0.50654793 0.039746419
0.16744632 0.50653678 0.03975809
0.16819221 0.50651741 0.039764971
0.17880118 0.50654209 0.039750326
0.17988595 0.50650764 0.03976636
0.18044275 0.50650442 0.039763626
0.18480784 0.50651461 0.039755132
0.18555114 0.50651085 0.039761756
0.20195433 0.50653803 0.039762955
0.15179586 0.50962722 0.039630894
0.15211892 0.50963485 0.039628401
0.15340358 0.50961637 0.039640725
0.17337054 0.50964326 0.03960805
0.17426378 0.50961512 0.039630052
0.18963164 0.50965977 0.039582085
0.19017226 0.50963318 0.039600119
0.19471142 0.50962675 0.039633378
0.19689402 0.50965232 0.039604753
0.20158106 0.50967181 0.039589345
0.15097696 0.51270109 0.039575323
0.15135002 0.51272625 0.039549865
0.15641239 0.5127877 0.039480738
0.15707418 0.51277339 0.03951605
0.15873647 0.51270789 0.03956658
0.16038135 0.51281071 0.039481472
0.16145647 0.5127548 0.039535895
0.16250119 0.51275337 0.039539151
0.17150331 0.51274025 0.039544336
0.18845981 0.51273489 0.03954006
0.14697677 0.51584744 0.039503518
0.14840046 0.51583993 0.039513759
0.15451509 0.51584285 0.039524477
0.17790917 0.51582414 0.039542813
0.18729207 0.51586187 0.03950705
0.19346654 0.51582623 0.039515086
0.14500394 0.52787465 0.039162666
0.18716082 0.52784097 0.039173156
0.19288996 0.52782363 0.039192826
0.19322276 0.52784598 0.03919806
0.18559009 0.54257333 0.039348356
0.17310098 0.5511772 0.039406281
0.35711855 0.24346858 0.040089659
0.29846433 0.24429524 0.040527683
0.35791919 0.2442683 0.040539563
0.35937521 0.24427277 0.040528774
0.37080166 0.26997805 0.040516756
0.35104722 0.27078724 0.040975094
0.35322857 0.27079105 0.040962376
0.35435677 0.27079874 0.040942587
0.27302432 0.28196442 0.040654223
0.27698973 0.28118831 0.040150866
0.28076434 0.28114641 0.040220868
0.2813009 0.28114015 0.040213276
0.33206987 0.28198743 0.04063151
0.34403941 0.28193146 0.040698275
0.32175508 0.29228699 0.040246669
0.35665464 0.29230076 0.04023616
0.35773903 0.29226995 0.040277775
0.31924558 0.29307139 0.040720917
0.32033136 0.29308194 0.040721718
0.321751 0.29307091 0.040759481
0.34375888 0.29310566 0.040683534
0.34804684 0.29304087 0.040770452
0.35344642 0.2930454 0.040768001
0.35593504 0.29307932 0.040737431
0.35748285 0.29304731 0.040772341
0.30610412 0.31280178 0.040408924
0.3118006 0.31355929 0.040955629
0.31259483 0.3135516 0.040954798
0.30839229 0.32218975 0.040477362
0.30280524 0.33076286 0.040298544
0.29126149 0.33152109 0.040850382
0.29380691 0.33146858 0.04090675
0.30281794 0.33150148 0.040887926
0.25704151 0.33930725 0.04036662
0.25848997 0.33927232 0.040395346
0.29016644 0.33928227 0.040374972
0.2807706 0.34773356 0.040773816
0.27426359 0.35542667 0.040794559
0.28037497 0.35542935 0.0407985
0.2381866 0.36235684 0.040449075
0.24217889 0.36236566 0.040437467
0.2849426 0.36232507 0.040482853
0.22824609 0.36992592 0.040968247
0.25608987 0.36918533 0.040383533
0.27260196 0.36927605 0.040277008
0.27408117 0.36957681 0.040641882
0.27879387 0.36922395 0.040340733
0.27945289 0.36993128 0.04098288
0.28018183 0.36996716 0.040914711
0.28840971 0.36921674 0.040339448
0.23825878 0.37603229 0.040431023
0.27245975 0.37604702 0.040425889
0.23161504 0.38210821 0.040096302
0.23475161 0.38278431 0.040753927
0.26364976 0.3820979 0.040109999
0.26435426 0.38277537 0.040773287
0.26543555 0.38280702 0.040741719
0.2183595 0.38885945 0.040557243
0.22055343 0.388798 0.040624034
0.24828389 0.38883919 0.040594649
0.24966028 0.38879919 0.040620722
0.25000107 0.3888095 0.040618945
0.25529391 0.38884109 0.040576708
0.26412961 0.38888556 0.04054695
0.21517235 0.39487767 0.040590715
0.24147171 0.39482194 0.040620781
0.26497093 0.39480788 0.040629201
0.26565999 0.39481628 0.040638328
0.26654968 0.39485198 0.040588051
0.23583922 0.400159 0.040095929
0.2364594 0.40080673 0.040819917
0.25318027 0.40017009 0.040093955
0.25433928 0.40012401 0.040123437
0.25629467 0.40074617 0.040851902
0.2576997 0.40081632 0.040798835
0.25848025 0.40083969 0.040759977
0.22543746 0.4060536 0.040498592
0.25817817 0.40605664 0.040490314
0.25996172 0.40602547 0.04053152
0.26108491 0.40610391 0.040430922
0.23232284 0.41125739 0.040321101
0.23341942 0.41123646 0.04034863
0.23554179 0.41164076 0.040620841
0.23617581 0.41196495 0.040975951
0.24271831 0.41126734 0.040331401
0.24380419 0.41125041 0.040329758
0.24646586 0.41194862 0.040991511
0.25464392 0.41126072 0.040339358
0.2031565 0.41647762 0.040282518
0.22191906 0.41649985 0.040267214
0.23022863 0.4164589 0.040283091
0.23126268 0.4164741 0.040295269
0.24242747 0.41643155 0.040314183
0.25499135 0.41647941 0.040274255
0.22968459 0.41710603 0.040999088
0.24412534 0.41714388 0.040983014
0.21253252 0.42159384 0.040435478
0.22979978 0.4216612 0.040378205
0.23697656 0.42164087 0.040380541
0.24165168 0.42168224 0.040345781
0.24203709 0.4216494 0.040381778
0.25121209 0.42163461 0.040398803
0.25245219 0.42167103 0.040376399
0.19880265 0.42676437 0.040662564
0.20382401 0.4267115 0.040698878
0.20493296 0.42673379 0.040664345
0.20562026 0.42673993 0.040678736
0.20993638 0.42673725 0.040680878
0.22468632 0.42670625 0.040700961
0.22559181 0.42671621 0.040697481
0.23509321 0.42675066 0.040654246
0.23621956 0.42673743 0.040673204
0.24591094 0.4267239 0.040677965
0.24913213 0.42678213 0.040631581
0.20352685 0.43121457 0.040330328
0.24056241 0.43122077 0.040314745
0.24883643 0.43116981 0.040348016
0.24914888 0.43118382 0.040348265
0.20123947 0.43564701 0.040106572
0.21387061 0.43567443 0.040085331
0.21430287 0.43565381 0.040093787
0.22391146 0.43566662 0.040080693
0.23244882 0.43568611 0.040070023
0.20336336 0.43628782 0.040822674
0.20407996 0.43627131 0.040855393
0.20519444 0.43624139 0.040861968
0.20732158 0.43627328 0.040846311
0.20943898 0.43621105 0.040898234
0.21054563 0.43624169 0.040870301
0.2112492 0.43625182 0.040872633
0.21665409 0.43623781 0.040889747
0.21756509 0.43626583 0.040852308
0.21811265 0.43627912 0.040843759
0.22368902 0.4362483 0.040848121
0.22996482 0.43621254 0.040893249
0.19070536 0.44061118 0.04081855
0.19122756 0.44060242 0.040828172
0.19248188 0.44057596 0.040843215
0.1975036 0.4406423 0.040791467
0.19869876 0.44005567 0.040007103
0.20083451 0.44069529 0.040727079
0.20222101 0.44066513 0.040759876
0.18952882 0.44498503 0.040829927
0.21412307 0.44446254 0.040003952
0.20935208 0.44504362 0.040781457
0.21045309 0.44504392 0.040766571
0.2158404 0.44504374 0.040778797
0.22268462 0.44506967 0.040754125
0.22443593 0.44504279 0.040775541
0.22536582 0.44501483 0.040808979
0.18816045 0.44881773 0.040125974
0.19315013 0.44878763 0.040161517
0.19533837 0.44881082 0.040148858
0.19748923 0.44877213 0.040172927
0.19925386 0.44878513 0.040167041
0.20248348 0.44883513 0.040126141
0.20759577 0.44885796 0.040099803
0.18587068 0.4494006 0.040905286
0.18623018 0.44940895 0.04088562
0.20060384 0.44936842 0.040945787
0.20378569 0.4493494 0.040949468
0.20740643 0.4494006 0.040906701
0.2083315 0.44937623 0.040925298
0.21970305 0.44939309 0.040897414
0.22034577 0.44940293 0.040886238
0.22111428 0.44939154 0.040905636
0.23223767 0.44936532 0.040942334
0.18533313 0.45314705 0.040368605
0.19228536 0.45316738 0.040361267
0.19341543 0.45316267 0.040347952
0.21357045 0.45321351 0.040323518
0.2146838 0.45318395 0.040330522
0.21538559 0.45317698 0.040348992
0.21785665 0.45319748 0.04032119
0.23010933 0.45315474 0.040367633
0.23302168 0.45320761 0.040303946
0.19360057 0.45742738 0.040725976
0.21233773 0.4574756 0.040692642
0.2130183 0.45744574 0.040718123
0.22058854 0.45747906 0.040700085
0.2246969 0.45748854 0.040664408
0.22705746 0.45747644 0.040695187
0.22887731 0.4574632 0.040696841
0.22996053 0.45750988 0.040666841
0.23064208 0.4574973 0.040662825
0.18241987 0.46122652 0.040317204
0.18387258 0.4612413 0.040290665
0.1852825 0.46120328 0.040343568
0.19753307 0.46122754 0.040316474
0.21916515 0.46122551 0.040307026
0.22451562 0.46122587 0.04031444
0.18235049 0.46494108 0.040052928
0.18952522 0.46491492 0.040066183
0.19713703 0.46492147 0.040055394
0.20537615 0.46489221 0.040093448
0.20936203 0.4649362 0.040058687
0.2114538 0.46493477 0.040051475
0.21477938 0.46497422 0.040011477
0.21979433 0.46498293 0.040000368
0.22303483 0.46498382 0.040014524
0.22554973 0.4649328 0.040049717
0.22628909 0.46495962 0.04001753
0.1760796 0.4654144 0.040907305
0.17931858 0.46543795 0.040887013
0.1838069 0.46543258 0.040899146
0.18454933 0.46544623 0.040888589
0.19029969 0.46543252 0.040898889
0.19119865 0.46544605 0.040880628
0.19553536 0.46547824 0.040840626
0.19837916 0.4653964 0.04092215
0.19906259 0.46542877 0.040905498
0.21817252 0.46544278 0.040888086
0.21946228 0.46549487 0.040835489
0.2239939 0.46547818 0.040835172
0.22447091 0.46546614 0.040857945
0.2250109 0.46545088 0.040891636
0.17387402 0.4691205 0.040726606
0.17499617 0.46916282 0.040684082
