# .PCD v0.7 - Point Cloud Data file format
VERSION 0.7
FIELDS x y z normal_x normal_y normal_z curvature
SIZE 4 4 4 4 4 4 4
TYPE F F F F F F F
COUNT 1 1 1 1 1 1 1
WIDTH 840
HEIGHT 1
VIEWPOINT 0 0 0 1 0 0 0
POINTS 840
DATA ascii
0.034394238 -0.0254 -0.0052792309 0 -1 0 0
0.13450325 -0.0254 -0.0054121297 0 -1 0 0
0.19807187 -0.025400002 -0.0054319603 0 -1 0 0
0.23788981 -0.0254 -0.0053035291 0 -1 0 0
0.34016293 -0.022225 -0.0054881074 0 1 0 0
0.3524377 0.013659918 -0.0053805681 -1 0 0 0
0.3556127 0.017700411 -0.0053212075 1 0 0 0
0.35189015 0.019679634 -0.0052531208 -0.88619453 -0.46331343 1.0383111e-06 0
0.032541741 0.021463096 -0.0053536496 -1.0937929e-09 -0.84102958 -0.54098922 0
0.29272419 0.021504983 -0.0054196278 -5.8130445e-10 -0.84883279 -0.52866155 0
0.1152922 0.025400002 -0.0052520828 0 1 0 0
0.21398427 0.0254 -0.0053979987 0 1 0 0
0.34791872 0.0254 -0.0054933466 0 1 0 0
0.0047233738 -0.025399998 -0.0050534657 0 -1 0 0
0.26521999 -0.0254 -0.00507621 0 -1 0 0
0.21000372 -0.021309681 -0.0051302854 0 0.80746686 -0.58991295 0
0.29813749 -0.021251053 -0.0050516343 3.3772949e-07 0.79447073 -0.60730243 0
0.3556127 -0.004428579 -0.005057069 1 0 0 0
0.3524377 0.0132645 -0.0051166471 -1 0 0 0
0.079367362 0.021319246 -0.0051434389 2.2782052e-07 -0.81256598 -0.58286935 0
0.041055854 0.0254 -0.0051990044 0 1 0 0
0.20890407 0.025399998 -0.0051498218 0 1 0 0
0.27936929 0.0254 -0.0050297305 0 1 0 0
0.30743042 -0.0254 -0.004806282 0 -1 0 0
0.12691841 -0.02120194 -0.0049883365 0 0.78530878 -0.61910433 0
0.013612132 0.021134537 -0.0049047796 -2.6566724e-09 -0.76883441 -0.63944793 0
0.13072263 0.02110377 -0.0048679356 6.0818706e-10 -0.76324904 -0.64610451 0
0.1415908 0.021018151 -0.0047691665 -5.9540894e-10 -0.74604779 -0.66589248 0
0.22904226 0.021063779 -0.0048210756 1.0081187e-10 -0.75604671 -0.65451777 0
0.20389394 0.025400002 -0.0049788803 0 1 0 0
0.22080232 0.0254 -0.0049016559 0 1 0 0
0.0076915971 -0.025399784 -0.0047182641 0 -0.99991441 0.013086741 0
0.1377898 -0.025399234 -0.004677481 0 -0.99976182 0.021826269 0
0.2273194 -0.025399644 -0.0047074491 0 -0.99991441 0.013086742 0
0.31251496 -0.025400002 -0.0046741245 0 -1 0 0
0.33174556 -0.0254 -0.0046607237 0 -1 0 0
0.35053265 -0.021272514 -0.0047119604 -0.59810591 0.80141711 0 0
0.028807284 -0.020984851 -0.0047321878 0 0.74022496 -0.67235935 0
0.054776847 -0.020922702 -0.0046651717 0 0.72837889 -0.68517458 0
0.3524377 -0.01648129 -0.0045995638 -1 0 0 0
0.3556127 0.0049235392 -0.0045649125 1 0 0 0
0.13093191 0.02088581 -0.0046265768 -2.5943094e-09 -0.71629542 -0.69779724 0
0.19203407 0.020854138 -0.0045941547 1.2822163e-09 -0.7101925 -0.70400757 0
0.31525034 0.022225 -0.004565035 0 -1 0 0
0.32489455 0.022225 -0.0046938495 0 -1 0 0
0.055532549 0.025398243 -0.0046337526 0 0.99953413 0.03052081 0
0.22957309 -0.02539018 -0.0044574453 0 -0.9978599 0.06538862 0
0.25270948 -0.020636156 -0.0043865559 2.7141624e-07 0.66438341 -0.74739194 0
0.043100119 0.020605925 -0.0043598097 5.616364e-11 -0.65933555 -0.75184888 0
0.10622753 0.020650221 -0.004399165 -3.2575254e-10 -0.67081261 -0.74162692 0
0.12214018 0.025386721 -0.0044077314 0 0.99724871 0.074128389 0
0.27227306 0.025388008 -0.0044250251 0 0.99724871 0.074128389 0
0.082976438 -0.025366502 -0.0041989982 0 -0.9930715 0.11751211 0
0.11155388 -0.025355458 -0.0041129594 0 -0.99086511 0.13485672 0
0.13795887 -0.025344251 -0.0040362277 0 -0.98836344 0.15211107 0
0.0043868385 -0.020410135 -0.0041968562 0 0.61910826 -0.78530562 0
0.013622737 -0.02035515 -0.0041541541 0 0.60529321 -0.79600263 0
0.038716845 -0.020402756 -0.0041910382 0 0.61910826 -0.78530562 0
0.1588178 -0.020258624 -0.0040822378 0 0.58635819 -0.81005192 0
0.18269193 0.020191036 -0.0040341229 0 -0.56999516 -0.82164812 0
0.025734473 0.020262161 -0.0040847999 0 -0.58991778 -0.80746341 0
0.08222045 0.020277785 -0.0040962566 0 -0.59130973 -0.80644453 0
0.099435307 0.020280987 -0.0040986054 0 -0.59130973 -0.80644453 0
0 0.022307882 -0.0040097455 -1 0 0 0
0.061593525 0.025367696 -0.0042090951 0 0.9930715 0.11751212 0
0.31569195 0.025399998 -0.0040420368 0 1 0 0
0.15838137 -0.025292106 -0.003754715 0 -0.97723317 0.21216822 0
0.18227068 -0.025334351 -0.0039745001 0 -0.98555315 0.16936621 0
0.20380422 -0.025335046 -0.0039786743 0 -0.98700058 0.16071673 0
0.24211879 -0.025296444 -0.003774808 0 -0.97904366 0.20365068 0
0.3556127 -0.020553043 -0.0038183946 1 0 0 0
0.11451096 -0.01992164 -0.0038590471 0 0.5187577 -0.85492134 0
0.35243767 0.0050646337 -0.0039677504 -1 0 0 0
0.18979557 0.019786125 -0.0037803396 0 -0.48738575 -0.87318677 0
0.22359271 0.019898962 -0.0038454547 3.8561637e-07 -0.51376706 -0.85792977 0
0.22857121 0.019847952 -0.0038154959 0 -0.50249177 -0.864582 0
0.33628991 0.022225 -0.0038162889 0 -1 0 0
0.089988813 0.025321359 -0.0039007186 0 0.98404372 0.17792697 0
0.15053178 0.025304642 -0.0038142654 0 0.98078507 0.19509149 0
0.18180566 0.025338311 -0.0039987136 0 0.98700058 0.16071673 0
0.34154704 -0.022225 -0.0036501167 0 1 0 0
0.06611862 -0.019570688 -0.0036670759 0 0.44229922 -0.89686757 0
0.079864874 -0.019577364 -0.0036703681 0 0.44229922 -0.89686757 0
0.051993493 -0.019454408 -0.0036116154 0 0.4186599 -0.9081431 0
0.21059421 -0.01949585 -0.0036309257 1.6529665e-07 0.4254553 -0.90497947 0
0.26381269 -0.019490626 -0.0036284612 1.6529665e-07 0.4254553 -0.90497947 0
0.24463183 -0.019234307 -0.003516874 1.441058e-07 0.36956775 -0.92920381 0
0.3524377 -0.0042676767 -0.0035667082 -1 0 0 0
0.030588498 0.019473914 -0.0036206073 0 -0.4186599 -0.9081431 0
0.23573682 0.019611459 -0.003687426 4.1452597e-07 -0.45283854 -0.89159256 0
0.34795308 0.022216849 -0.0035222485 -0.056665804 -0.99839324 0 0
0.28437024 0.025234997 -0.0035198773 0 0.96478659 0.26303399 0
0.052731391 0.025281481 -0.0037068236 0 0.97533607 0.2207251 0
0.086289778 0.02526604 -0.0036410296 0 0.97134638 0.23766854 0
0.16111746 -0.02517263 -0.003308686 0 -0.95239967 0.30485216 0
0.18615565 -0.025212299 -0.0034387694 0 -0.96004653 0.27984038 0
0.19426256 -0.019093458 -0.0034629835 0 0.34612823 -0.93818724 0
0.16156508 -0.018966252 -0.0034186458 7.2617226e-08 0.31395811 -0.9494369 0
0.24173217 -0.018887425 -0.0033931667 6.8218029e-08 0.29741439 -0.95474851 0
0.25284338 -0.018596232 -0.0033119228 5.3109787e-08 0.23880391 -0.97106785 0
0.26779205 -0.018636677 -0.003322023 5.3896073e-08 0.24725425 -0.96895069 0
0.28380471 -0.018626228 -0.0033193831 3.4052002e-07 0.24370351 -0.96984982 0
0.085849419 0.018621884 -0.003318293 2.0667025e-07 -0.24724078 -0.96895409 0
0.15693855 0.018601475 -0.0033132418 0 -0.23769227 -0.97134054 0
0.16178882 0.019060191 -0.0034510104 0 -0.33702332 -0.94149631 0
0.17885596 0.01901686 -0.0034357985 0 -0.3271704 -0.94496536 0
0.29093778 0.019128904 -0.0034760602 0 -0.34612826 -0.93818718 0
0.2891244 0.025191382 -0.0033684061 0 0.95501512 0.29655707 0
0.31371841 0.0254 -0.0034086667 0 1 0 0
0.12482389 -0.025100898 -0.0031014078 0 -0.93820268 0.34608644 0
0.22835314 -0.025121937 -0.003159116 0 -0.94117343 0.33792406 0
0.34644675 -0.022225 -0.0031364304 0 1 0 0
0.02555947 -0.018060692 -0.0032127618 0 0.12620226 -0.99200451 0
0.10928989 -0.018107243 -0.0032188892 0 0.13484971 -0.99086607 0
0.01668519 -0.017773043 -0.0031851807 -7.5409062e-10 0.065405346 -0.99785876 0
0.10845017 -0.01783317 -0.0031894515 1.5076468e-08 0.075955331 -0.99711126 0
0.051927418 -0.017585021 -0.0031765806 0 0.023961192 -0.99971294 0
0.27819124 -0.017361529 -0.003175 0 0 -1 0
0.17283027 -0.01705448 -0.003175 0 0 -1 0
0.27533895 -0.017035186 -0.003175 0 0 -1 0
0.045039557 -0.016819667 -0.003175 0 0 -1 0
0.066630781 -0.016748399 -0.0031749997 0 0 -1 0
0.18879792 -0.016559131 -0.0031750002 0 0 -1 0
0.046295099 -0.016375024 -0.003175 0 0 -1 0
0.052525345 -0.016403429 -0.0031749997 0 0 -1 0
0.27803761 -0.016485048 -0.003175 0 0 -1 0
0.077557206 -0.016100273 -0.003175 0 0 -1 0
0.18290471 -0.016008958 -0.003175 0 0 -1 0
0.16504186 -0.015561644 -0.003175 0 0 -1 0
0.24067505 -0.015569461 -0.0031750002 0 0 -1 0
0.061954033 -0.015487273 -0.003175 0 0 -1 0
0.20582113 -0.015303846 -0.0031749997 0 0 -1 0
0.26252854 -0.015401792 -0.0031749997 0 0 -1 0
0.12688966 -0.015049542 -0.003175 0 0 -1 0
0.12920257 -0.015090444 -0.003175 0 0 -1 0
0.22011599 -0.015016376 -0.0031750002 0 0 -1 0
0.11109771 -0.014916766 -0.003175 0 0 -1 0
0.1255907 -0.014782023 -0.003175 0 0 -1 0
0.12060119 -0.014700755 -0.003175 0 0 -1 0
0.052547589 -0.014404617 -0.003175 0 0 -1 0
0.19482088 -0.01447247 -0.0031750002 0 0 -1 0
0.28133103 -0.014301593 -0.003175 0 0 -1 0
0.10031012 -0.01413903 -0.003175 0 0 -1 0
0.19119771 -0.013815958 -0.003175 0 0 -1 0
0.014669972 -0.013749652 -0.003175 0 0 -1 0
0.19596332 -0.013688121 -0.0031750002 0 0 -1 0
0.02862012 -0.013346678 -0.003175 0 0 -1 0
0.22983606 -0.0132966 -0.003175 0 0 -1 0
0.11971869 -0.013211668 -0.003175 0 0 -1 0
0.12441008 -0.012800043 -0.003175 0 0 -1 0
0.12868914 -0.012995141 -0.0031750002 0 0 -1 0
0.24333566 -0.012979098 -0.0031750002 0 0 -1 0
0.26104984 -0.012720613 -0.003175 0 0 -1 0
0.17680846 -0.012392337 -0.003175 0 0 -1 0
0.22596598 -0.01211758 -0.0031750002 0 0 -1 0
0.11870341 -0.01176494 -0.0031750002 0 0 -1 0
0.1544711 -0.011846114 -0.0031749997 0 0 -1 0
0.16129334 -0.011631714 -0.0031749997 0 0 -1 0
0.19722435 -0.011660991 -0.0031750002 0 0 -1 0
0.23794623 -0.01169835 -0.003175 0 0 -1 0
0.25671884 -0.011533318 -0.0031750002 0 0 -1 0
0.24132164 -0.011295445 -0.0031750002 0 0 -1 0
0.087121867 -0.011223782 -0.0031750002 0 0 -1 0
0.11938218 -0.011176622 -0.003175 0 0 -1 0
0.09009885 -0.010983557 -0.003175 0 0 -1 0
0.29640701 -0.010924386 -0.003175 0 0 -1 0
0.0037135882 -0.010575818 -0.0031750002 0 0 -1 0
0.022303674 -0.010686327 -0.003175 0 0 -1 0
0.14181519 -0.010639643 -0.003175 0 0 -1 0
0.18059738 -0.010621212 -0.0031749997 0 0 -1 0
0.0095710792 -0.010185538 -0.0031749997 0 0 -1 0
0.035663843 -0.010032535 -0.003175 0 0 -1 0
0.14524429 -0.010073274 -0.003175 0 0 -1 0
0.25140223 -0.01002908 -0.003175 0 0 -1 0
0.0023730628 -0.0098997895 -0.003175 0 0 -1 0
0.014560835 -0.0098341499 -0.0031749997 0 0 -1 0
0.054032862 -0.009628946 -0.0031749997 0 0 -1 0
0.076685607 -0.0094250292 -0.003175 0 0 -1 0
0.083433107 -0.0094346553 -0.003175 0 0 -1 0
0.14556949 -0.0094893556 -0.0031750002 0 0 -1 0
0.1860995 -0.0094013084 -0.0031749997 0 0 -1 0
0.24070452 -0.0094589256 -0.0031750002 0 0 -1 0
0.25504932 -0.0094947452 -0.003175 0 0 -1 0
0.0026984178 -0.0090022907 -0.003175 0 0 -1 0
0.18521224 -0.0091308113 -0.0031749997 0 0 -1 0
0.024765553 -0.0084796827 -0.003175 0 0 -1 0
0.29086688 -0.0083478382 -0.003175 0 0 -1 0
0.045311462 -0.0081031714 -0.0031749997 0 0 -1 0
0.13060701 -0.0081562214 -0.0031750002 0 0 -1 0
0.19164568 -0.0080674514 -0.003175 0 0 -1 0
0.22147477 -0.00809942 -0.003175 0 0 -1 0
0.28998283 -0.0080496883 -0.003175 0 0 -1 0
0.082259558 -0.0075301863 -0.0031750002 0 0 -1 0
0.10299745 -0.007678621 -0.003175 0 0 -1 0
0.17553097 -0.0076668747 -0.0031749997 0 0 -1 0
0.27217942 -0.0076293764 -0.003175 0 0 -1 0
0.017639309 -0.0074803438 -0.003175 0 0 -1 0
0.081789292 -0.0074247462 -0.0031750002 0 0 -1 0
0.25900382 -0.0074794702 -0.003175 0 0 -1 0
0.05241213 -0.0071284492 -0.0031750002 0 0 -1 0
0.10333302 -0.007024691 -0.003175 0 0 -1 0
0.17162628 -0.0070729032 -0.003175 0 0 -1 0
0.030900177 -0.0069562718 -0.003175 0 0 -1 0
0.16988881 -0.0068225483 -0.003175 0 0 -1 0
0.20978241 -0.0065635648 -0.003175 0 0 -1 0
0.30182847 -0.0067030131 -0.003175 0 0 -1 0
0.29918498 -0.0062690168 -0.003175 0 0 -1 0
0.11518801 -0.0062400196 -0.003175 0 0 -1 0
0.26072645 -0.0062292074 -0.003175 0 0 -1 0
0.05966929 -0.0059594908 -0.0031749997 0 0 -1 0
0.13909023 -0.0058965781 -0.003175 0 0 -1 0
0.14988893 -0.0057918564 -0.003175 0 0 -1 0
0.28639072 -0.0059130671 -0.003175 0 0 -1 0
0.30324152 -0.0057702195 -0.003175 0 0 -1 0
0.18483967 -0.0056245071 -0.0031749997 0 0 -1 0
0.26136011 -0.0057076802 -0.003175 0 0 -1 0
0.12434791 -0.0052926131 -0.0031750002 0 0 -1 0
0.17854002 -0.0050063594 -0.0031749997 0 0 -1 0
0.23322932 -0.005108275 -0.003175 0 0 -1 0
0.23785061 -0.0050116251 -0.003175 0 0 -1 0
0.2402042 -0.00506231 -0.003175 0 0 -1 0
0.042041764 -0.0047596786 -0.0031750002 0 0 -1 0
0.12561665 -0.0045623239 -0.003175 0 0 -1 0
0.22882402 -0.0045788414 -0.003175 0 0 -1 0
0.1675289 -0.0044535245 -0.003175 0 0 -1 0
0.29806447 -0.0044471705 -0.003175 0 0 -1 0
0.011829971 -0.0040770043 -0.0031749997 0 0 -1 0
0.081324168 -0.0042185155 -0.0031750002 0 0 -1 0
0.047685418 -0.0039922879 -0.003175 0 0 -1 0
0.25028411 -0.0038152526 -0.0031750002 0 0 -1 0
0.2887316 -0.0039293878 -0.0031749997 0 0 -1 0
0.071747564 -0.0036986633 -0.0031749997 0 0 -1 0
0.093062572 -0.0036891331 -0.003175 0 0 -1 0
0.09414427 -0.0036811773 -0.0031750002 0 0 -1 0
0.057197433 -0.0033185687 -0.003175 0 0 -1 0
0.018350936 -0.0032321042 -0.003175 0 0 -1 0
0.058163345 -0.0027684364 -0.0031749997 0 0 -1 0
0.17093404 -0.0029464457 -0.003175 0 0 -1 0
0.22996745 -0.0027661142 -0.003175 0 0 -1 0
0.3556127 -0.0028826944 -0.0031663557 1 0 0 0
0.10896863 -0.0027495679 -0.003175 0 0 -1 0
0.12037605 -0.0025250013 -0.0031750002 0 0 -1 0
0.15601613 -0.0025628917 -0.003175 0 0 -1 0
0.30517706 -0.002742094 -0.003175 0 0 -1 0
0.011776189 -0.0022704001 -0.0031749997 0 0 -1 0
0.012940419 -0.0023204912 -0.003175 0 0 -1 0
0.04512101 -0.0024541258 -0.003175 0 0 -1 0
0.2101907 -0.0022875932 -0.003175 0 0 -1 0
0.19826964 -0.0021221032 -0.0031750002 0 0 -1 0
0.086507611 -0.0019306219 -0.003175 0 0 -1 0
0.10104511 -0.0017598327 -0.003175 0 0 -1 0
0.15540852 -0.0019318685 -0.003175 0 0 -1 0
0.21045806 -0.0017926823 -0.0031749997 0 0 -1 0
0.23019888 -0.0018593199 -0.0031749997 0 0 -1 0
0.24004087 -0.0017664996 -0.003175 0 0 -1 0
0.092115447 -0.0015729554 -0.003175 0 0 -1 0
0.089664645 -0.0014278684 -0.003175 0 0 -1 0
0.23616156 -0.0013564504 -0.003175 0 0 -1 0
0.11580744 -0.0011597294 -0.003175 0 0 -1 0
0.22004949 -0.0010228343 -0.0031749997 0 0 -1 0
0.053748626 -0.00075978413 -0.003175 0 0 -1 0
0.090993389 -0.0009201169 -0.0031750002 0 0 -1 0
0.25281742 -0.0008194095 -0.0031750002 0 0 -1 0
0.19576484 -0.00063908054 -0.0031749997 0 0 -1 0
0.24814177 -0.00045247888 -0.003175 0 0 -1 0
0.26273775 -0.00044843927 -0.003175 0 0 -1 0
0.15443897 -3.142003e-05 -0.003175 0 0 -1 0
0.16271619 -0.00022496749 -0.003175 0 0 -1 0
0.056829527 6.8441965e-05 -0.0031749997 0 0 -1 0
0.25307053 0.00013847672 -0.003175 0 0 -1 0
0.25393558 0.00013566017 -0.003175 0 0 -1 0
0.0046435758 0.00046562031 -0.003175 0 0 -1 0
0.14355882 0.00072224159 -0.0031750002 0 0 -1 0
0.19079548 0.0007091607 -0.0031749997 0 0 -1 0
0.23946995 0.0006257887 -0.003175 0 0 -1 0
0.26077524 0.00071718311 -0.003175 0 0 -1 0
0.050810006 0.00094565377 -0.0031750002 0 0 -1 0
0.26707283 0.00098161912 -0.0031750002 0 0 -1 0
0.093807563 0.0011127163 -0.0031749997 0 0 -1 0
0.13929099 0.0011808779 -0.0031749997 0 0 -1 0
0.19067574 0.0013322397 -0.0031749997 0 0 -1 0
0.010873169 0.001561068 -0.003175 0 0 -1 0
0.019603187 0.0016183536 -0.0031749997 0 0 -1 0
0.033290211 0.0015236279 -0.003175 0 0 -1 0
0.19894196 0.0016001486 -0.0031750002 0 0 -1 0
0.096094742 0.0020267372 -0.003175 0 0 -1 0
0.2072995 0.0024664814 -0.0031749997 0 0 -1 0
0.0067458432 0.0026783892 -0.0031749997 0 0 -1 0
0.024572205 0.0026226658 -0.003175 0 0 -1 0
0.095235504 0.0025582369 -0.0031750002 0 0 -1 0
0.099387027 0.0025628693 -0.003175 0 0 -1 0
0.12665606 0.0026017986 -0.003175 0 0 -1 0
0.012113479 0.0028225407 -0.0031750002 0 0 -1 0
0.22150616 0.0032647767 -0.0031749997 0 0 -1 0
0.062163308 0.0036507719 -0.0031749997 0 0 -1 0
0.14791085 0.0036888132 -0.003175 0 0 -1 0
0.19778819 0.0037354571 -0.0031750002 0 0 -1 0
0.21565622 0.0036292633 -0.003175 0 0 -1 0
0.25015682 0.0039688041 -0.003175 0 0 -1 0
0.0088476697 0.0040161377 -0.0031750002 0 0 -1 0
0.17404056 0.0042313212 -0.003175 0 0 -1 0
0.0014351648 0.0043451367 -0.0031750002 0 0 -1 0
0.051005498 0.0043910318 -0.003175 0 0 -1 0
0.090458594 0.0042538997 -0.0031750002 0 0 -1 0
0.16643165 0.004345024 -0.003175 0 0 -1 0
0.20452242 0.0044839885 -0.003175 0 0 -1 0
0.17688259 0.0045079328 -0.003175 0 0 -1 0
0.17200473 0.0048634685 -0.0031750002 0 0 -1 0
0.30781335 0.004834062 -0.0031750002 0 0 -1 0
0.15519135 0.0050736768 -0.003175 0 0 -1 0
0.16981272 0.0050732819 -0.003175 0 0 -1 0
0.22171178 0.0051127509 -0.0031749997 0 0 -1 0
0.11276159 0.0055510593 -0.0031750002 0 0 -1 0
0.20565248 0.0056854361 -0.0031749997 0 0 -1 0
0.14229374 0.0057997848 -0.003175 0 0 -1 0
0.19403936 0.0059119188 -0.0031749997 0 0 -1 0
0.21401724 0.0057654367 -0.0031749997 0 0 -1 0
0.07899154 0.0060259406 -0.003175 0 0 -1 0
0.097722456 0.0061978945 -0.0031749997 0 0 -1 0
0.18197912 0.0064887418 -0.003175 0 0 -1 0
0.19143115 0.0063818903 -0.0031750002 0 0 -1 0
0.0286195 0.0066454615 -0.0031749997 0 0 -1 0
0.033063721 0.0066790362 -0.003175 0 0 -1 0
0.11742137 0.0065392493 -0.003175 0 0 -1 0
0.028346116 0.0069911275 -0.0031749997 0 0 -1 0
0.053107258 0.0068361107 -0.003175 0 0 -1 0
0.076352879 0.0067652832 -0.003175 0 0 -1 0
0.091316618 0.0069036675 -0.0031749997 0 0 -1 0
0.1064845 0.0068927915 -0.0031750002 0 0 -1 0
0.11821726 0.0068710274 -0.0031749997 0 0 -1 0
0.19351248 0.0068731797 -0.0031750002 0 0 -1 0
0.037227739 0.0070382128 -0.003175 0 0 -1 0
0.23234281 0.0070258072 -0.0031749997 0 0 -1 0
0.24842384 0.0070946766 -0.0031749997 0 0 -1 0
0.29283753 0.0070698513 -0.003175 0 0 -1 0
0.078535102 0.0075739995 -0.0031750002 0 0 -1 0
0.088491738 0.0076244902 -0.0031749997 0 0 -1 0
0.14007656 0.0075487643 -0.0031749997 0 0 -1 0
0.087994121 0.0079661626 -0.003175 0 0 -1 0
0.21968339 0.0078208596 -0.0031750002 0 0 -1 0
0.089137338 0.0081302207 -0.003175 0 0 -1 0
0.28725681 0.0084750671 -0.0031749997 0 0 -1 0
0.046149466 0.008538451 -0.003175 0 0 -1 0
0.13369504 0.0087018684 -0.003175 0 0 -1 0
0.075552806 0.0087502869 -0.003175 0 0 -1 0
0.10180687 0.0088708606 -0.003175 0 0 -1 0
0.2983003 0.0088519361 -0.003175 0 0 -1 0
0.030311709 0.009102596 -0.003175 0 0 -1 0
0.03267432 0.0093502179 -0.003175 0 0 -1 0
0.11447014 0.0092953397 -0.003175 0 0 -1 0
0.28187308 0.0094509749 -0.003175 0 0 -1 0
0.01638128 0.0098508671 -0.0031749997 0 0 -1 0
0.20983294 0.0098285461 -0.0031749997 0 0 -1 0
0.22538993 0.010217445 -0.003175 0 0 -1 0
0.24888431 0.010201141 -0.003175 0 0 -1 0
0.030863393 0.010456553 -0.003175 0 0 -1 0
0.17525508 0.010561936 -0.003175 0 0 -1 0
0.096665852 0.010851432 -0.003175 0 0 -1 0
0.10867378 0.010910711 -0.0031750002 0 0 -1 0
0.29283476 0.011115791 -0.003175 0 0 -1 0
0.16241114 0.011401244 -0.0031749997 0 0 -1 0
0.2995024 0.011428875 -0.003175 0 0 -1 0
0.0090817781 0.011500675 -0.003175 0 0 -1 0
0.14403865 0.011749383 -0.0031750002 0 0 -1 0
0.17782067 0.011570647 -0.0031750002 0 0 -1 0
0.079904199 0.011909828 -0.003175 0 0 -1 0
0.12549049 0.011769235 -0.0031749997 0 0 -1 0
0.205228 0.011961406 -0.003175 0 0 -1 0
0.26164997 0.012217044 -0.003175 0 0 -1 0
0.070463434 0.012283347 -0.0031749997 0 0 -1 0
0.16654125 0.012261031 -0.0031749997 0 0 -1 0
0.21877342 0.012418445 -0.003175 0 0 -1 0
0.29723561 0.012455479 -0.003175 0 0 -1 0
0.15584309 0.012687903 -0.003175 0 0 -1 0
0.043163668 0.012950185 -0.003175 0 0 -1 0
0.052872941 0.012929739 -0.003175 0 0 -1 0
0.11759048 0.013002634 -0.0031749997 0 0 -1 0
0.16793743 0.013279127 -0.003175 0 0 -1 0
0.21716441 0.013424311 -0.003175 0 0 -1 0
0.25814602 0.013316415 -0.003175 0 0 -1 0
0.26268125 0.01331998 -0.0031749997 0 0 -1 0
0.30439076 0.013347334 -0.003175 0 0 -1 0
0.13377297 0.013549376 -0.003175 0 0 -1 0
0.21826516 0.013527441 -0.003175 0 0 -1 0
0.23514123 0.013662385 -0.003175 0 0 -1 0
0.18823916 0.013767003 -0.0031749997 0 0 -1 0
0.12544386 0.01411007 -0.003175 0 0 -1 0
0.19502796 0.014174381 -0.0031750002 0 0 -1 0
0.26244694 0.014090502 -0.003175 0 0 -1 0
0.28006887 0.014240416 -0.003175 0 0 -1 0
0.041314811 0.014416697 -0.003175 0 0 -1 0
0.092232063 0.014319611 -0.003175 0 0 -1 0
0.13282163 0.014607095 -0.003175 0 0 -1 0
0.23995824 0.014696861 -0.0031749997 0 0 -1 0
0.26828536 0.014688615 -0.0031750002 0 0 -1 0
0.017257186 0.014777512 -0.0031749997 0 0 -1 0
0.30409464 0.014773668 -0.003175 0 0 -1 0
0.097134091 0.015021107 -0.003175 0 0 -1 0
0.14362089 0.01524565 -0.0031750002 0 0 -1 0
0.16262603 0.015208466 -0.003175 0 0 -1 0
0.088282727 0.015384071 -0.003175 0 0 -1 0
0.19521922 0.015375518 -0.003175 0 0 -1 0
0.25209838 0.01537101 -0.0031749997 0 0 -1 0
0.11520928 0.015518383 -0.0031750002 0 0 -1 0
0.29872084 0.015557827 -0.003175 0 0 -1 0
0.09091612 0.015996279 -0.003175 0 0 -1 0
0.099692501 0.015829802 -0.0031749997 0 0 -1 0
0.27738616 0.015781377 -0.003175 0 0 -1 0
0.30564016 0.01586844 -0.003175 0 0 -1 0
0.0084233852 0.016156971 -0.003175 0 0 -1 0
0.29996538 0.016184304 -0.0031749997 0 0 -1 0
0.15969267 0.01625504 -0.003175 0 0 -1 0
0.22453943 0.016462253 -0.003175 0 0 -1 0
0.1275827 0.016506782 -0.0031749997 0 0 -1 0
0.16189082 0.016640067 -0.003175 0 0 -1 0
0.19628187 0.016670708 -0.0031750002 0 0 -1 0
0.19093059 0.017103914 -0.0031750002 0 0 -1 0
0.27218473 0.017191963 -0.003175 0 0 -1 0
0.045938261 0.017320322 -0.003175 0 0 -1 0
0.10372874 0.017403595 -0.003175 0 0 -1 0
0.14626753 0.017542075 -0.0031756782 6.9785044e-09 -0.013092781 -0.99991429 0
0.14899021 0.017641546 -0.00317839 2.7923625e-07 -0.041262466 -0.99914837 0
0.16278782 0.017716549 -0.0031817895 -9.0598524e-09 -0.054289959 -0.99852526 0
0.25617221 0.017727576 -0.0031823898 -9.0598524e-09 -0.054289959 -0.99852526 0
0.18136188 0.017761221 -0.0031843882 -1.1000309e-08 -0.06296704 -0.99801564 0
0.10275448 0.018106658 -0.0032188096 0 -0.1348497 -0.99086607 0
0.24222778 0.018065713 -0.0032133781 2.4828364e-07 -0.12783493 -0.99179548 0
0.34153673 0.022225 -0.0031170407 0 -1 0 0
0.16155156 0.025071066 -0.0030233406 0 0.93200749 0.36243898 0
0.1836997 0.025127301 -0.0031740954 0 0.94409281 0.32967982 0
0.15993226 -0.025012635 -0.002881235 0 -0.91878742 0.39475283 0
0.083760872 -0.024990123 -0.002829649 0 -0.91531795 0.40273204 0
0.33122838 -0.022225 -0.0027808775 0 1 0 0
0.3079623 0.0041533359 -0.002875773 1 0 0 0
0.31523278 0.022225 -0.0029721428 0 -1 0 0
0.20754752 0.024973877 -0.0027934844 0 0.91176528 0.41071174 0
0.06819468 0.025001595 -0.0028557242 0 0.91531795 0.40273207 0
0.075222194 -0.024871448 -0.0025819852 0 -0.88902336 0.45786187 0
0.10508193 -0.024944864 -0.0027308543 0 -0.90447003 0.42653725 0
0.2690635 -0.024835069 -0.0025127381 0 -0.88089097 0.47331923 0
0.19618109 -0.024754401 -0.0023683105 0 -0.86382687 0.50378883 0
0.050193567 -0.02472977 -0.0023264587 0 -0.85941231 0.51128328 0
0.073741972 -0.024746625 -0.0023549786 0 -0.86382687 0.50378883 0
0.3079623 -0.0025277883 -0.0024743043 1 0 0 0
0.3079623 0.0022189692 -0.0023197394 1 0 0 0
0.31910133 0.022225 -0.0022644834 0 -1 0 0
0.29428077 0.024698559 -0.002274693 0 0.85491478 0.51876855 0
0.26566324 0.024797419 -0.0024438491 0 0.87248582 0.48863956 0
0.027518205 -0.024622763 -0.002155073 0 -0.83630401 0.54826605 0
0.13769792 -0.024544971 -0.0020398663 0 -0.82162893 0.57002276 0
0.1407537 -0.024633914 -0.00217215 0 -0.84103125 0.54098666 0
0.15284657 -0.024525099 -0.0020115813 0 -0.81665415 0.5771274 0
0.22905397 -0.024614641 -0.0021426855 0 -0.83630401 0.54826605 0
0 -0.014442891 -0.0022038841 -1 0 0 0
0.3524377 0.0020697904 -0.0020095131 -1 0 0 0
0.32199296 0.022225 -0.0020166188 0 -1 0 0
0.33027244 0.025400002 -0.0022155493 0 1 0 0
0.31050092 -0.025399998 -0.0018745908 0 -1 0 0
0.063701518 -0.024378458 -0.0018152636 0 -0.78530878 0.61910433 0
0.3054378 -0.024478434 -0.0019467935 0 -0.80643821 0.59131837 0
0.10219561 0.024326647 -0.0017506604 0 0.77439994 0.63269639 0
0.26646751 0.024506481 -0.0019854486 0 0.8115775 0.58424485 0
0.062439185 -0.024286401 -0.0017019648 0 -0.76883215 0.63945073 0
0.15149778 -0.024173368 -0.0015720666 0 -0.74020141 0.67238528 0
0.21999276 -0.024180397 -0.0015798784 0 -0.74607128 0.66586608 0
0.22238415 -0.024196051 -0.0015974169 0 -0.74607128 0.66586608 0
0.31710517 -0.022225 -0.0015138846 0 1 0 0
0.32433453 -0.022225 -0.0015166178 0 1 0 0
0.022924943 0.024116198 -0.0015098333 0 0.72837627 0.68517739 0
0.13947828 0.02422465 -0.0016298615 0 0.75183356 0.65935296 0
0.29356936 0.024171345 -0.0015698397 0 0.74020135 0.67238528 0
0.33412507 0.025400002 -0.0016334285 0 1 0 0
0.29513755 -0.024015719 -0.0014056216 0 -0.71019387 0.7040062 0
0.11239816 -0.023963058 -0.0013534466 0 -0.69778156 0.71631062 0
0.12950473 -0.023991033 -0.0013809646 0 -0.70401746 0.71018273 0
0.34769571 -0.022224911 -0.0014803268 -0.0043489547 0.99999052 0 0
0.34790084 -0.022219606 -0.0013419355 -0.047952671 0.99884963 0 0
0 -0.020136606 -0.001388235 -1 0 0 0
0.3556127 -0.0138076 -0.0013519218 1 0 0 0
3.2798366e-17 0.0066805836 -0.0012603803 -1 2.6898196e-15 3.2277834e-14 0
0.30876189 0.020103816 -0.0013521032 0.83264643 -0.55380505 0 0
0.046014167 0.023868708 -0.0012638901 0 0.67881674 0.73430771 0
0.08249905 0.023992497 -0.0013824145 0 0.70401746 0.71018267 0
0.15774816 0.023961117 -0.0013515562 0 0.69778156 0.71631062 0
0.27869135 0.023905663 -0.0012983789 0 0.68518054 0.72837335 0
0.11967284 0.024006207 -0.0013960253 0 0.71019387 0.7040062 0
0.13341676 0.024063587 -0.0014544311 0 0.72237402 0.69150257 0
0.3556127 -0.013634339 -0.0011675335 1 0 0 0
0.046454705 0.023697786 -0.0011133875 0 0.64115375 0.76741242 0
0.15577419 0.023750413 -0.0011582274 0 0.65276635 0.75755936 0
0.10918795 -0.023283932 -0.00080303452 0 -0.55555576 0.83147931 0
0.12231447 -0.023350138 -0.000848094 0 -0.56999892 0.82164544 0
0.13028194 -0.023470327 -0.00093412097 0 -0.59130704 0.80644655 0
0.15946148 -0.023414599 -0.00089353381 -2.9874846e-07 -0.58601809 0.81029797 0
0.25982594 -0.02322177 -0.00076216005 -2.9564512e-07 -0.54279703 0.83986396 0
0.3556127 -0.019347031 -0.00099153433 1 0 0 0
0.35243767 -0.0082134977 -0.00097289542 -1 0 0 0
1.7187476e-17 -0.0050422335 -0.00076712004 -1 2.6898196e-15 3.2277834e-14 0
0.15653378 0.023293184 -0.00080919202 0 0.55736822 0.8302654 0
0.18405083 0.02349798 -0.0009547493 0 0.60004842 0.79996365 0
0.19823727 0.023285713 -0.00080420036 -2.9667453e-07 0.55374074 0.83268917 0
0.25726378 0.023290616 -0.00080746738 0 0.55736822 0.8302654 0
0.3433167 0.0254 -0.00081343326 0 1 0 0
0.089524649 -0.023115465 -0.00069546915 0 -0.51875973 0.85492009 0
4.6222515e-17 0.0036479407 -0.00059176644 -1 2.6898196e-15 3.2277834e-14 0
8.1191708e-17 0.016420554 -0.0005727699 -1 2.6898196e-15 3.2277834e-14 0
0.014141661 0.022858093 -0.00054942985 0 0.4656038 0.88499331 0
0.16567615 0.02294251 -0.00059497479 0 0.48287541 0.87568909 0
0.25061169 0.022954674 -0.00060174934 -2.9767173e-07 0.48670599 0.87356585 0
0.13845269 0.023071386 -0.0006689463 0 0.51130587 0.85939884 0
0.16468301 0.023014301 -0.00063549913 0 0.49810356 0.86711758 0
0.0052614217 -0.022618758 -0.00043170355 0 -0.41866106 0.90814257 0
0.035202332 -0.022595976 -0.00042137638 0 -0.4107157 0.91176349 0
0.059874646 -0.022513054 -0.00038490957 0 -0.39473847 0.91879356 0
0.061660524 -0.022551216 -0.00040145699 0 -0.40274647 0.91531163 0
0.066072293 -0.022698689 -0.00046918576 0 -0.43444464 0.9006986 0
0.09292125 -0.022684187 -0.0004622296 0 -0.42656499 0.90445691 0
0.12099755 -0.022672243 -0.00045659608 0 -0.42656499 0.90445691 0
0.21820132 -0.022605315 -0.00042558421 0 -0.4107157 0.91176349 0
0.24277194 -0.022490483 -0.00037529381 -2.9517653e-07 -0.38872084 0.92135561 0
0.3556127 0.0025944007 -0.00028691487 1 0 0 0
0.3556127 0.0056017786 -0.00048257317 1 0 0 0
0.11610238 0.022447364 -0.00035733718 -2.9610163e-07 0.37662357 0.92636645 0
0.19456315 0.022331007 -0.00031128546 -2.9877236e-07 0.3522296 0.93591368 0
0.27589622 0.022748578 -0.0004934629 0 0.44424647 0.89590466 0
0.34978309 -0.025399998 -5.739741e-05 0 -1 0 0
0.035536289 -0.022114638 -0.00023488892 0 -0.31316793 0.94969779 0
0.3023147 -0.022140305 -0.00024333359 -2.9874485e-07 -0.31524953 0.94900882 0
0.13439196 -0.021796668 -0.0001432321 0 -0.24403872 0.96976554 0
0.0486014 -0.021502636 -7.9249214e-05 0 -0.17794 0.98404133 0
0.15725677 -0.021733683 -0.00012791439 0 -0.22919704 0.97338003 0
0.23909116 -0.021512575 -8.109511e-05 0 -0.18438122 0.98285484 0
0.026746415 -0.021274295 -4.2807471e-05 0 -0.13484988 0.99086607 0
0.17923258 -0.021400368 -6.1526909e-05 -2.9763629e-07 -0.16290052 0.98664254 0
0.095793679 -0.021220103 -3.5773981e-05 0 -0.12403664 0.99227768 0
0.11381509 -0.021123234 -2.487271e-05 0 -0.10018526 0.99496883 0
0.13452017 -0.021196783 -3.2999113e-05 0 -0.11753723 0.99306852 0
0.15634555 -0.021071101 -1.9818721e-05 -2.9778434e-07 -0.093676373 0.99560273 0
0.13201833 -0.020892005 -6.8137797e-06 0 -0.054518174 0.9985128 0
0.2766858 -0.020622374 -3.7880691e-18 0 -1.969196e-16 1 0
0.2381579 -0.020201342 -3.7051595e-18 0 -1.969196e-16 1 0
0.26348305 -0.020222256 -3.7092776e-18 0 -1.969196e-16 1 0
0.28026983 -0.020068856 -3.6790702e-18 0 -1.969196e-16 1 0
0.292117 -0.020205673 -3.7060123e-18 0 -1.969196e-16 1 0
0.15953602 -0.019862499 -3.6384346e-18 0 -1.969196e-16 1 0
0.18440461 -0.019810397 -3.6281746e-18 0 -1.969196e-16 1 0
0.2872301 -0.019979656 -3.6615051e-18 0 -1.969196e-16 1 0
0.21121363 -0.019514184 -3.5698448e-18 0 -1.969196e-16 1 0
0.2207173 -0.019527256 -3.5724185e-18 0 -1.969196e-16 1 0
0.08418671 -0.019452728 -3.5577427e-18 0 -1.969196e-16 1 0
0.19096372 -0.019053312 -3.4790894e-18 0 -1.969196e-16 1 0
0.25981465 -0.019114131 -3.4910661e-18 0 -1.969196e-16 1 0
0.27588999 -0.019097442 -3.4877798e-18 0 -1.969196e-16 1 0
0.28634772 -0.019117972 -3.4918226e-18 0 -1.969196e-16 1 0
0.29156101 -0.019154254 -3.498967e-18 0 -1.969196e-16 1 0
0.29881087 -0.019100528 -3.4883881e-18 0 -1.969196e-16 1 0
0.35217014 -0.01903636 -1.9534491e-06 -0.94351548 0.33132857 6.9292145e-07 0
0.20684817 -0.018947696 -3.458292e-18 0 -1.969196e-16 1 0
0.11356685 -0.018745316 -3.4184395e-18 0 -1.969196e-16 1 0
0.0195431 -0.018275984 -3.3260188e-18 0 -1.969196e-16 1 0
0.071235768 -0.017911563 -3.2542572e-18 0 -1.969196e-16 1 0
0.23627719 -0.017557617 -3.1845583e-18 0 -1.969196e-16 1 0
0.030562606 -0.017361285 -3.1458971e-18 0 -1.969196e-16 1 0
0.063661143 -0.017333075 -3.1403416e-18 0 -1.969196e-16 1 0
0.15551816 -0.017215859 -3.1172597e-18 0 -1.969196e-16 1 0
0.16789404 -0.01724115 -3.1222395e-18 0 -1.969196e-16 1 0
0.22724968 -0.017115625 -3.0975213e-18 0 -1.969196e-16 1 0
0.018170882 -0.016906634 -3.0731613e-18 -1.7906301e-18 -1.8369701e-16 1 0
0.041295879 -0.016621454 -3.0002093e-18 0 -1.969196e-16 1 0
0.28702998 -0.01665923 -3.0076481e-18 0 -1.969196e-16 1 0
0.010571226 -0.016449144 -3.0027297e-18 -1.7906301e-18 -1.8369701e-16 1 0
0.16043782 -0.016319305 -2.9407102e-18 0 -1.969196e-16 1 0
0.16153981 -0.016258977 -2.9288309e-18 0 -1.969196e-16 1 0
0.21216312 -0.01633794 -2.94438e-18 0 -1.969196e-16 1 0
0.26658413 -0.016416892 -2.9599271e-18 0 -1.969196e-16 1 0
0.082250655 -0.01609146 -2.8958431e-18 0 -1.969196e-16 1 0
0.081737012 -0.015936695 -2.8653667e-18 0 -1.969196e-16 1 0
0.11128615 -0.015914649 -2.8610254e-18 0 -1.969196e-16 1 0
0.27014026 -0.015551099 -2.7894352e-18 0 -1.969196e-16 1 0
0.28806004 -0.015525568 -2.784408e-18 0 -1.969196e-16 1 0
0.10468063 -0.015470723 -2.7736079e-18 0 -1.969196e-16 1 0
0.108851 -0.015331454 -2.7461828e-18 0 -1.969196e-16 1 0
0.24594614 -0.015334196 -2.7467231e-18 0 -1.969196e-16 1 0
0.26223949 -0.015304936 -2.7409612e-18 0 -1.969196e-16 1 0
0.02153776 -0.014997832 -2.7164913e-18 -1.7906301e-18 -1.8369701e-16 1 0
0.26129407 -0.014795084 -2.6405611e-18 0 -1.969196e-16 1 0
0.006375799 -0.014694102 -2.6878465e-18 -1.7906301e-18 -1.8369701e-16 1 0
0.086852103 -0.014649878 -2.6119673e-18 0 -1.969196e-16 1 0
0.15880415 -0.014727751 -2.6273018e-18 0 -1.969196e-16 1 0
0.044555672 -0.014424129 -2.5698868e-18 -1.7906301e-18 -1.8369701e-16 1 0
0.29744256 -0.014129689 -2.509532e-18 0 -1.969196e-16 1 0
0.029540734 -0.013881227 -2.4970438e-18 -1.7906301e-18 -1.8369701e-16 1 0
0.069994666 -0.01399853 -2.4837041e-18 0 -1.969196e-16 1 0
0.013388469 -0.013529246 -2.4613086e-18 -1.7906301e-18 -1.8369701e-16 1 0
0.17293358 -0.013654446 -2.4159472e-18 0 -1.969196e-16 1 0
0.20529696 -0.013682126 -2.4213979e-18 0 -1.969196e-16 1 0
0.24264491 -0.013554103 -2.396188e-18 0 -1.969196e-16 1 0
0.18993689 -0.013315057 -2.3491152e-18 0 -1.969196e-16 1 0
0.24711096 -0.013312553 -2.348622e-18 0 -1.969196e-16 1 0
0.20824215 -0.01308279 -2.3033771e-18 0 -1.969196e-16 1 0
0.097442381 -0.012877903 -2.2630309e-18 0 -1.969196e-16 1 0
0.10345815 -0.012747949 -2.2374404e-18 0 -1.969196e-16 1 0
0.20943612 -0.012016284 -2.0933613e-18 0 -1.969196e-16 1 0
0.089106441 -0.011795178 -2.0498212e-18 0 -1.969196e-16 1 0
0.26702374 -0.011891817 -2.0688511e-18 0 -1.969196e-16 1 0
0.079937115 -0.011650726 -2.0213755e-18 0 -1.969196e-16 1 0
0.27227944 -0.011606963 -2.0127579e-18 0 -1.969196e-16 1 0
0.097630583 -0.011454234 -1.9826824e-18 0 -1.969196e-16 1 0
0.1682916 -0.011332354 -1.9586818e-18 0 -1.969196e-16 1 0
0.29908001 -0.01144621 -1.9811023e-18 0 -1.969196e-16 1 0
0.06431745 -0.011034652 -1.9118642e-18 -1.7906301e-18 -1.8369701e-16 1 0
0.096265763 -0.011026573 -1.8984676e-18 0 -1.969196e-16 1 0
0.054866586 -0.01096784 -1.9165134e-18 -1.7906301e-18 -1.8369701e-16 1 0
0.20689726 -0.010763668 -1.8466964e-18 0 -1.969196e-16 1 0
0.093717031 -0.010528869 -1.8004599e-18 0 -1.969196e-16 1 0
0.15546834 -0.010438974 -1.7827579e-18 0 -1.969196e-16 1 0
0.23788989 -0.010287809 -1.7529905e-18 0 -1.969196e-16 1 0
0.022042777 -0.010172125 -1.8291186e-18 -1.7906301e-18 -1.8369701e-16 1 0
0.23371635 -0.010066447 -1.7094e-18 0 -1.969196e-16 1 0
0.24132998 -0.010246083 -1.7447739e-18 0 -1.969196e-16 1 0
0.25597534 -0.010078341 -1.7117421e-18 0 -1.969196e-16 1 0
0.059335079 -0.009784163 -1.6910747e-18 -1.7906301e-18 -1.8369701e-16 1 0
0.3524377 -0.0098164603 -0.00016374607 -1 0 0 0
0.049116578 -0.0097445659 -1.7020981e-18 -1.7906301e-18 -1.8369701e-16 1 0
0.042135153 -0.0094584543 -1.6620414e-18 -1.7906301e-18 -1.8369701e-16 1 0
0.045609489 -0.0092911664 -1.6250904e-18 -1.7906301e-18 -1.8369701e-16 1 0
0.070172355 -0.0093654674 -1.5947558e-18 -1.7906301e-18 -1.8369701e-16 1 0
0.00096042099 -0.0090449173 -1.6598047e-18 -1.7906301e-18 -1.8369701e-16 1 0
0.088972852 -0.0091311857 -1.5252289e-18 0 -1.969196e-16 1 0
0.28176743 -0.0090367161 -1.5066255e-18 0 -1.969196e-16 1 0
0.11654884 -0.0088725407 -1.4742964e-18 0 -1.969196e-16 1 0
0.15632159 -0.0089520467 -1.4899528e-18 0 -1.969196e-16 1 0
0.2716496 -0.0088111227 -1.4622022e-18 0 -1.969196e-16 1 0
0.29678062 -0.0088579422 -1.4714218e-18 0 -1.969196e-16 1 0
0.068416849 -0.0085868016 -1.4548607e-18 -1.7906301e-18 -1.8369701e-16 1 0
0.1016736 -0.0086573968 -1.4319306e-18 0 -1.969196e-16 1 0
0.14703962 -0.0085499017 -1.4107626e-18 0 -1.969196e-16 1 0
0.29354751 -0.0087190662 -1.4440741e-18 0 -1.969196e-16 1 0
0.002069355 -0.0083830664 -1.536239e-18 -1.7906301e-18 -1.8369701e-16 1 0
0.016275018 -0.008439403 -1.5211508e-18 -1.7906301e-18 -1.8369701e-16 1 0
0.056782704 -0.0082713887 -1.4177528e-18 -1.7906301e-18 -1.8369701e-16 1 0
0.047317509 -0.0082195401 -1.425177e-18 -1.7906301e-18 -1.8369701e-16 1 0
0.14012811 -0.0081895376 -1.3397999e-18 0 -1.969196e-16 1 0
0.19748202 -0.0081289606 -1.3278711e-18 0 -1.969196e-16 1 0
0.046665248 -0.0078858705 -1.3650507e-18 -1.7906301e-18 -1.8369701e-16 1 0
0.15743047 -0.0079192352 -1.2865718e-18 0 -1.969196e-16 1 0
0.094205663 -0.007742065 -1.253507e-18 -1.7906301e-18 -1.8369701e-16 1 0
0.15025902 -0.0076426668 -1.2321102e-18 0 -1.969196e-16 1 0
0.15415515 -0.0075341901 -1.2107489e-18 0 -1.969196e-16 1 0
0.19525999 -0.0076073175 -1.2251494e-18 0 -1.969196e-16 1 0
0.28131336 -0.0075542289 -1.2146951e-18 0 -1.969196e-16 1 0
0.039555475 -0.0072891619 -1.2681682e-18 -1.7906301e-18 -1.8369701e-16 1 0
0.18261597 -0.0073659448 -1.1776181e-18 0 -1.969196e-16 1 0
0.059849069 -0.007213322 -1.2178981e-18 -1.7906301e-18 -1.8369701e-16 1 0
0.15188232 -0.007206996 -1.146318e-18 0 -1.969196e-16 1 0
0.066731922 -0.0068937317 -1.146866e-18 -1.7906301e-18 -1.8369701e-16 1 0
0.15444434 -0.0069526206 -1.0962267e-18 0 -1.969196e-16 1 0
0.17823914 -0.006865934 -1.0791564e-18 0 -1.969196e-16 1 0
0.25567186 -0.006886825 -1.0832701e-18 0 -1.969196e-16 1 0
0.27031648 -0.0069681043 -1.0992755e-18 0 -1.969196e-16 1 0
0.27605942 -0.0068324767 -1.0725679e-18 0 -1.969196e-16 1 0
0.21467374 -0.0066742636 -1.0414125e-18 0 -1.969196e-16 1 0
0.22033161 -0.0066617294 -1.0389442e-18 0 -1.969196e-16 1 0
0.26223782 -0.0062585538 -9.5955122e-19 0 -1.969196e-16 1 0
0.28338793 -0.0062009902 -9.4821585e-19 0 -1.969196e-16 1 0
0.051291954 -0.0057547251 -9.652809e-19 -1.7906301e-18 -1.8369701e-16 1 0
0.19611311 -0.0057932856 -8.6793073e-19 0 -1.969196e-16 1 0
0.02595938 -0.0056027607 -9.8272676e-19 -1.7906301e-18 -1.8369701e-16 1 0
0.023162428 -0.005414702 -9.5318938e-19 -1.7906301e-18 -1.8369701e-16 1 0
0.21915802 -0.0054951999 -8.0923198e-19 0 -1.969196e-16 1 0
0.048579551 -0.0052431524 -8.7616335e-19 -1.7906301e-18 -1.8369701e-16 1 0
0.14277923 -0.0052165077 -7.5435191e-19 0 -1.969196e-16 1 0
0.25944173 -0.005222091 -7.5545165e-19 0 -1.969196e-16 1 0
0.11435363 -0.0049501844 -7.0456918e-19 -1.7906301e-18 -1.8369701e-16 1 0
0.14511438 -0.0048294291 -6.7812825e-19 0 -1.969196e-16 1 0
0.16917725 -0.0048149205 -6.7527132e-19 0 -1.969196e-16 1 0
0.035456661 -0.0046048644 -7.8241024e-19 -1.7906301e-18 -1.8369701e-16 1 0
0.11370673 -0.0045158523 -6.2594163e-19 -1.7906301e-18 -1.8369701e-16 1 0
0.17871839 -0.0045808796 -6.2918423e-19 0 -1.969196e-16 1 0
0.16116308 -0.0044909799 -6.1148138e-19 0 -1.969196e-16 1 0
0.21901432 -0.0042552147 -5.6505442e-19 0 -1.969196e-16 1 0
0.015060971 -0.0040355669 -7.1435292e-19 -1.7906301e-18 -1.8369701e-16 1 0
0.046549164 -0.0040782527 -6.6581055e-19 -1.7906301e-18 -1.8369701e-16 1 0
0.053810589 -0.004127352 -6.6182736e-19 -1.7906301e-18 -1.8369701e-16 1 0
0.1328467 -0.0040218551 -5.1910159e-19 0 -1.969196e-16 1 0
0.20353411 -0.0040839706 -5.3133316e-19 0 -1.969196e-16 1 0
0.2264009 -0.0038180363 -4.7896549e-19 0 -1.969196e-16 1 0
0.28231752 -0.0039780466 -5.1047456e-19 0 -1.969196e-16 1 0
0.00091031712 -0.0037276684 -6.8313161e-19 -1.7906301e-18 -1.8369701e-16 1 0
0.28205979 -0.0036480655 -4.4549497e-19 0 -1.969196e-16 1 0
0.19280636 -0.0033315057 -3.8315828e-19 0 -1.969196e-16 1 0
0.19900671 -0.0030099773 -3.1984277e-19 0 -1.969196e-16 1 0
0.14420155 -0.0028654309 -2.9137871e-19 0 -1.969196e-16 1 0
0.10294497 -0.002612392 -2.9555225e-19 -1.7906301e-18 -1.8369701e-16 1 0
0.18940857 -0.0026467829 -2.4832267e-19 0 -1.969196e-16 1 0
0.19927046 -0.0024079245 -2.012868e-19 0 -1.969196e-16 1 0
0.28204864 -0.0024052393 -2.0075808e-19 0 -1.969196e-16 1 0
0.046668429 -0.002078909 -2.9832352e-19 -1.7906301e-18 -1.8369701e-16 1 0
0.10451502 -0.0022204826 -2.2074824e-19 -1.7906301e-18 -1.8369701e-16 1 0
0.17980804 -0.0020691794 -1.3458123e-19 0 -1.969196e-16 1 0
0.00023544094 -0.0016229915 -2.977173e-19 -1.7906301e-18 -1.8369701e-16 1 0
0.0096669942 -0.001708328 -2.9650496e-19 -1.7906301e-18 -1.8369701e-16 1 0
0.1402012 -0.0014926074 -2.313955e-20 -1.7906301e-18 -1.8369701e-16 1 0
0.0067904182 -0.0011701139 -2.0278733e-19 -1.7906301e-18 -1.8369701e-16 1 0
0.0255531 -0.0010761269 -1.5192501e-19 -1.7906301e-18 -1.8369701e-16 1 0
0.3524377 0.0045717568 -0.00017623976 -1 0 0 0
0.35243773 0.0052495645 -2.8538285e-05 -1 0 0 0
0.07570526 0.02120683 -3.4188131e-05 0 0.11753724 0.99306852 0
0.099660985 0.02123696 -3.7923273e-05 0 0.12620038 0.99200481 0
0.24505952 0.02106994 -1.9697629e-05 -2.9776615e-07 0.089326896 0.99600238 0
0.0018189125 0.021334965 -5.1372394e-05 0 0.14349093 0.98965162 0
0.082350388 0.021419002 -6.4565633e-05 0 0.16290046 0.98664254 0
0.092841461 0.021320036 -4.9208182e-05 0 0.14349093 0.98965162 0
0.34990272 0.021671925 -8.5202977e-05 -0.46565592 -0.8849659 0 0
0.19521804 0.021870548 -0.00016239347 0 0.26303041 0.9647876 0
0.064052366 0.022019355 -0.00020491921 0 0.2881957 0.95757157 0
0.29262319 0.022090519 -0.00022707038 0 0.30693638 0.95173001 0
0.30612722 -0.023949195 3.7123624e-05 -0.71526569 -0.6988526 -6.9459929e-06 0
0.3556127 -0.0090448363 2.0342879e-05 1 0 0 0
0.3079623 -0.0073416079 0.00013416872 1 0 0 0
0.20368515 -0.0012950166 1.7866584e-20 0 -1.969196e-16 1 0
0.25594273 -0.0012725652 2.2287761e-20 0 -1.969196e-16 1 0
0.27760023 -0.0013300003 1.0977411e-20 0 -1.969196e-16 1 0
0.12332547 -0.0010348773 3.0726451e-20 -1.7906301e-18 -1.8369701e-16 1 0
0.13822767 -0.0012207478 2.3266936e-20 -1.7906301e-18 -1.8369701e-16 1 0
0.1808089 -0.0011942438 3.7710595e-20 0 -1.969196e-16 1 0
0.16004971 -0.00092927256 8.9888657e-20 0 -1.969196e-16 1 0
0.14460991 -0.00050887465 1.6546425e-19 -1.7906301e-18 -1.8369701e-16 1 0
0.10229026 -0.00039318856 1.109366e-19 -1.7906301e-18 -1.8369701e-16 1 0
0.11115389 -0.00042222766 1.2147364e-19 -1.7906301e-18 -1.8369701e-16 1 0
0.22028667 -0.00049585011 1.7523801e-19 0 -1.969196e-16 1 0
0.2349565 -0.000360935 2.018056e-19 0 -1.969196e-16 1 0
0.14635403 -9.926036e-06 2.6024239e-19 -1.7906301e-18 -1.8369701e-16 1 0
0.15962346 -0.00019772458 2.3394485e-19 0 -1.969196e-16 1 0
0.029480621 0.00011361926 7.3660511e-20 -1.7906301e-18 -1.8369701e-16 1 0
0.060962673 4.663039e-05 1.177275e-19 -1.7906301e-18 -1.8369701e-16 1 0
0.10453898 0.00047852285 2.750938e-19 -1.7906301e-18 -1.8369701e-16 1 0
0.12802352 0.0003458336 2.9277127e-19 -1.7906301e-18 -1.8369701e-16 1 0
0.24441747 0.00038010255 3.4773039e-19 0 -1.969196e-16 1 0
0.14881381 0.00071745925 3.9826554e-19 -1.7906301e-18 -1.8369701e-16 1 0
0.00066937169 0.00090800726 1.6799683e-19 -1.7906301e-18 -1.8369701e-16 1 0
0.0080483193 0.00082388823 1.6575748e-19 -1.7906301e-18 -1.8369701e-16 1 0
0.012047873 0.00094192068 1.9460148e-19 -1.7906301e-18 -1.8369701e-16 1 0
0.18718681 0.00095981045 4.6188607e-19 0 -1.969196e-16 1 0
0.25616357 0.00092716096 4.5545671e-19 0 -1.969196e-16 1 0
0.11989216 0.0010574437 4.0893183e-19 -1.7906301e-18 -1.8369701e-16 1 0
0.19055833 0.0011549082 5.0030468e-19 0 -1.969196e-16 1 0
0.21956517 0.0014424587 5.5692928e-19 0 -1.969196e-16 1 0
0.04767492 0.0018460439 4.2448099e-19 -1.7906301e-18 -1.8369701e-16 1 0
0.1271776 0.0019273856 5.8178332e-19 -1.7906301e-18 -1.8369701e-16 1 0
0.22492941 0.001927895 6.5252106e-19 0 -1.969196e-16 1 0
0.022893017 0.0022238861 4.4951414e-19 -1.7906301e-18 -1.8369701e-16 1 0
0.11672813 0.0022326587 6.1914965e-19 -1.7906301e-18 -1.8369701e-16 1 0
0.14134008 0.0020800484 6.3518672e-19 -1.7906301e-18 -1.8369701e-16 1 0
0.20472986 0.0027306895 8.1060691e-19 0 -1.969196e-16 1 0
0.017058969 0.0027861544 5.4235446e-19 -1.7906301e-18 -1.8369701e-16 1 0
0.24741355 0.003135473 8.9031703e-19 0 -1.969196e-16 1 0
0.16984016 0.0033970997 9.2815807e-19 -1.7906301e-18 -1.8369701e-16 1 0
0.23583576 0.0033179093 9.262419e-19 0 -1.969196e-16 1 0
0.28093427 0.0034567909 9.5359046e-19 0 -1.969196e-16 1 0
0.074929588 0.0036347799 8.018693e-19 -1.7906301e-18 -1.8369701e-16 1 0
0.10309085 0.0037006396 8.6439412e-19 -1.7906301e-18 -1.8369701e-16 1 0
0.11151678 0.0036667169 8.7325044e-19 -1.7906301e-18 -1.8369701e-16 1 0
0.12832777 0.0037319013 9.1532694e-19 -1.7906301e-18 -1.8369701e-16 1 0
0.29533762 0.0037708273 1.0154303e-18 0 -1.969196e-16 1 0
0.11722285 0.0041901674 9.7962411e-19 -1.7906301e-18 -1.8369701e-16 1 0
0.18228945 0.0042369133 1.1047214e-18 -1.7906301e-18 -1.8369701e-16 1 0
0.033182766 0.0046642451 9.1622599e-19 -1.7906301e-18 -1.8369701e-16 1 0
0.0037943779 0.0047527412 8.7985878e-19 -1.7906301e-18 -1.8369701e-16 1 0
0.12681912 0.0049511846 1.1366041e-18 -1.7906301e-18 -1.8369701e-16 1 0
0.15404835 0.0048778732 1.1718945e-18 -1.7906301e-18 -1.8369701e-16 1 0
0.0042271279 0.0051222262 9.4850692e-19 -1.7906301e-18 -1.8369701e-16 1 0
0.063398525 0.0050753118 1.0458431e-18 -1.7906301e-18 -1.8369701e-16 1 0
0.23466107 0.0050867801 1.2745673e-18 0 -1.969196e-16 1 0
0.11682586 0.0053974669 1.2006905e-18 -1.7906301e-18 -1.8369701e-16 1 0
0.25600085 0.0053066215 1.3178586e-18 0 -1.969196e-16 1 0
0.15955341 0.0055587986 1.306836e-18 -1.7906301e-18 -1.8369701e-16 1 0
0.18865792 0.0059920121 1.4385313e-18 -1.7906301e-18 -1.8369701e-16 1 0
0.11547653 0.0061754058 1.3411793e-18 -1.7906301e-18 -1.8369701e-16 1 0
0.11714844 0.0061131464 1.3327365e-18 -1.7906301e-18 -1.8369701e-16 1 0
0.13607644 0.0062325411 1.3885618e-18 -1.7906301e-18 -1.8369701e-16 1 0
0.13743512 0.0062064799 1.3862075e-18 -1.7906301e-18 -1.8369701e-16 1 0
0.24763525 0.0061540985 1.4847435e-18 0 -1.969196e-16 1 0
0.029854693 0.0063685551 1.2233433e-18 -1.7906301e-18 -1.8369701e-16 1 0
0.12622854 0.0063434541 1.3913021e-18 -1.7906301e-18 -1.8369701e-16 1 0
0.17334437 0.0064123743 1.48833e-18 -1.7906301e-18 -1.8369701e-16 1 0
0.30197468 0.0064160973 1.5363357e-18 0 -1.969196e-16 1 0
0.18820067 0.0067028417 1.5682899e-18 -1.7906301e-18 -1.8369701e-16 1 0
0.19381894 0.0066520208 1.5690144e-18 -1.7906301e-18 -1.8369701e-16 1 0
0.2938222 0.0066508376 1.5825609e-18 0 -1.969196e-16 1 0
0.042675924 0.0070806993 1.3771203e-18 -1.7906301e-18 -1.8369701e-16 1 0
0.046508271 0.0073862611 1.4401134e-18 -1.7906301e-18 -1.8369701e-16 1 0
0.09536951 0.0074740229 1.5437274e-18 -1.7906301e-18 -1.8369701e-16 1 0
0.13713208 0.007320622 1.5903294e-18 -1.7906301e-18 -1.8369701e-16 1 0
0.22325423 0.0072933026 1.7090749e-18 0 -1.969196e-16 1 0
0.23049457 0.0073038633 1.7111544e-18 0 -1.969196e-16 1 0
0.30031741 0.0076572746 1.7807482e-18 0 -1.969196e-16 1 0
0.080908932 0.0079853591 1.6117646e-18 -1.7906301e-18 -1.8369701e-16 1 0
0.1195233 0.0079742931 1.678876e-18 -1.7906301e-18 -1.8369701e-16 1 0
0.29544899 0.008102797 1.8684798e-18 0 -1.969196e-16 1 0
0.10276645 0.0084345536 1.7334193e-18 -1.7906301e-18 -1.8369701e-16 1 0
0.10987159 0.0084970454 1.7576211e-18 -1.7906301e-18 -1.8369701e-16 1 0
0.29583248 0.0083070286 1.9086975e-18 0 -1.969196e-16 1 0
0.088046357 0.0085745621 1.7327802e-18 -1.7906301e-18 -1.8369701e-16 1 0
0.26791611 0.0087166606 1.9893617e-18 0 -1.969196e-16 1 0
0.12683606 0.0092238365 1.9215081e-18 -1.7906301e-18 -1.8369701e-16 1 0
0.16588169 0.0090087811 1.951919e-18 -1.7906301e-18 -1.8369701e-16 1 0
0.28307256 0.0091272416 2.0702135e-18 0 -1.969196e-16 1 0
0.045409601 0.0094413711 1.8156637e-18 -1.7906301e-18 -1.8369701e-16 1 0
0.10637651 0.0093741613 1.9124867e-18 -1.7906301e-18 -1.8369701e-16 1 0
0.1528836 0.0092679951 1.976261e-18 -1.7906301e-18 -1.8369701e-16 1 0
0.098674767 0.0096165724 1.9432257e-18 -1.7906301e-18 -1.8369701e-16 1 0
0.017211659 0.010048309 1.8766644e-18 -1.7906301e-18 -1.8369701e-16 1 0
0.25914302 0.010135688 2.2687964e-18 0 -1.969196e-16 1 0
0.26822767 0.010000414 2.2421585e-18 0 -1.969196e-16 1 0
0.017370692 0.010335599 1.9297232e-18 -1.7906301e-18 -1.8369701e-16 1 0
0.17918672 0.010266543 2.2067907e-18 -1.7906301e-18 -1.8369701e-16 1 0
0.30401909 0.010479238 2.3364482e-18 0 -1.969196e-16 1 0
0.15004106 0.010654722 2.2259091e-18 -1.7906301e-18 -1.8369701e-16 1 0
0.16169007 0.010947284 2.3005109e-18 -1.7906301e-18 -1.8369701e-16 1 0
0.19505872 0.010770279 2.3277464e-18 -1.7906301e-18 -1.8369701e-16 1 0
0.22408268 0.01082381 2.3895509e-18 -1.7906301e-18 -1.8369701e-16 1 0
0.090971276 0.011165865 2.2140318e-18 -1.7906301e-18 -1.8369701e-16 1 0
0.11304861 0.011247167 2.2684996e-18 -1.7906301e-18 -1.8369701e-16 1 0
0.13549517 0.011094251 2.2806027e-18 -1.7906301e-18 -1.8369701e-16 1 0
0.28033283 0.011216569 2.481643e-18 0 -1.969196e-16 1 0
0.21635453 0.011293398 2.4619747e-18 -1.7906301e-18 -1.8369701e-16 1 0
0.30478731 0.011286484 1.3521065e-05 -1 0 0 0
0.207247 0.011615244 2.5047885e-18 -1.7906301e-18 -1.8369701e-16 1 0
0.225587 0.011547484 2.5251816e-18 -1.7906301e-18 -1.8369701e-16 1 0
0.020552704 0.01186146 2.215717e-18 -1.7906301e-18 -1.8369701e-16 1 0
0.23776969 0.01188844 2.6096287e-18 -1.7906301e-18 -1.8369701e-16 1 0
0.19959758 0.012238104 2.6055089e-18 -1.7906301e-18 -1.8369701e-16 1 0
0.21168081 0.012186756 2.6177129e-18 -1.7906301e-18 -1.8369701e-16 1 0
0.055235934 0.012472017 2.3899796e-18 -1.7906301e-18 -1.8369701e-16 1 0
0.18917733 0.0124749 2.6303489e-18 -1.7906301e-18 -1.8369701e-16 1 0
0.30050284 0.012366921 2.7081699e-18 0 -1.969196e-16 1 0
0.0010377205 0.012932247 2.3774738e-18 -1.7906301e-18 -1.8369701e-16 1 0
0.014557535 0.012991074 2.4124888e-18 -1.7906301e-18 -1.8369701e-16 1 0
0.041663546 0.012788003 2.4237219e-18 -1.7906301e-18 -1.8369701e-16 1 0
