# .PCD v0.7 - Point Cloud Data file format
VERSION 0.7
FIELDS x y z normal_x normal_y normal_z curvature
SIZE 4 4 4 4 4 4 4
TYPE F F F F F F F
COUNT 1 1 1 1 1 1 1
WIDTH 1032
HEIGHT 1
VIEWPOINT 0 0 0 1 0 0 0
POINTS 1032
DATA ascii
0.081085764 0.0015201652 0 0 0 -1 0
0.12893635 0.0017107135 0 0 0 -1 0
0.037231646 0.001927021 0 0 0 -1 0
0.14513351 0.0021238567 0 0 0 -1 0
0.022673257 0.0023109426 0 0 0 -1 0
0.08224716 0.0023472731 0 0 0 -1 0
0.065857202 0.0025208648 0 0 0 -1 0
0.069740206 0.0025293515 0 0 0 -1 0
0.011596242 0.0027587547 0 0 0 -1 0
0.020003019 0.0027908385 0 0 0 -1 0
0.031438433 0.0030788931 0 0 0 -1 0
0.11343528 0.0030043966 0 0 0 -1 0
0.0097572003 0.0033299436 0 0 0 -1 0
0.077959992 0.0039265784 0 0 0 -1 0
0.080221027 0.0037713388 0 0 0 -1 0
0.030423921 0.0045980206 0 0 0 -1 0
0.15510905 0.0045886701 0 0 0 -1 0
0.07458429 0.0048999218 0 0 0 -1 0
0.13451681 0.005105034 0 0 0 -1 0
0.052697115 0.0054350575 0 0 0 -1 0
0.13069758 0.0052694776 0 0 0 -1 0
0.094780475 0.0059759701 0 0 0 -1 0
0.14805301 0.0058217309 0 0 0 -1 0
0.039866578 0.006089712 0 0 0 -1 0
0.13401669 0.0061116647 0 0 0 -1 0
0.049817972 0.0063430518 0 0 0 -1 0
0.02449988 0.0067141894 0 0 0 -1 0
0.048663944 0.0067346557 0 0 0 -1 0
0.023523984 0.0067666504 0 0 0 -1 0
0.035439733 0.0071908855 0 0 0 -1 0
0.070327863 0.0071913744 0 0 0 -1 0
0.15548562 0.0071740197 0 0 0 -1 0
0.13235535 0.0079988986 0 0 0 -1 0
0.067697339 0.0082183378 0 0 0 -1 0
0.12944958 0.0081259776 0 0 0 -1 0
0.054893292 0.0086059924 0 0 0 -1 0
0.082104027 0.0087758591 0 0 0 -1 0
0.096936755 0.0088019343 0 0 0 -1 0
0.0095544504 0.0092173005 0 0 0 -1 0
0.043614194 0.0090689454 0 0 0 -1 0
0.15471973 0.0090043042 0 0 0 -1 0
0.033361174 0.0092741121 0 0 0 -1 0
0.033781767 0.0094008073 0 0 0 -1 0
0.073733561 0.0093059605 0 0 0 -1 0
0.095273852 0.0093578082 0 0 0 -1 0
0.037719108 0.0097146863 0 0 0 -1 0
0.021348519 0.0098406216 0 0 0 -1 0
0.087058805 0.0099065099 0 0 0 -1 0
0.10213632 0.0099997241 0 0 0 -1 0
0.084130242 0.010068689 0 0 0 -1 0
0.14559557 0.010127379 0 0 0 -1 0
0.049278691 0.010430086 0 0 0 -1 0
0.0079391235 0.010799236 0 0 0 -1 0
0.044102967 0.010782192 0 0 0 -1 0
0.083563596 0.010903605 0 0 0 -1 0
0.14038393 0.010941259 0 0 0 -1 0
0.15162824 0.010910761 0 0 0 -1 0
0.012553093 0.011214107 0 0 0 -1 0
0.10425452 0.011168055 0 0 0 -1 0
0.11445192 0.011016519 0 0 0 -1 0
0.13476014 0.011220127 0 0 0 -1 0
0.13641267 0.011119263 0 0 0 -1 0
0.11309222 0.011832831 0 0 0 -1 0
0.11942676 0.012059029 0 0 0 -1 0
0.08020401 0.012371606 0 0 0 -1 0
0.083366089 0.012374967 0 0 0 -1 0
0.092900559 0.012402423 0 0 0 -1 0
0.15298371 0.012556915 0 0 0 -1 0
0.0010200582 0.014316035 0 0 0 -1 0
0.0012188898 0.015319431 0 0 0 -1 0
0.0047706687 0.017294023 0 0 0 -1 0
0.012034488 0.017633587 0 0 0 -1 0
0.0041367211 0.01813156 0 0 0 -1 0
0.010694738 0.01942629 0 0 0 -1 0
0.006904867 0.019929392 0 0 0 -1 0
0.00030987509 0.022884391 0 0 0 -1 0
0.004116016 0.023083761 0 0 0 -1 0
0.080915995 0.025838867 6.548129e-06 -0.60528845 0.7960062 0 0
0.025458273 0.02608495 8.5756183e-06 -0.71629947 -0.69779301 0 0
0.012434975 0.026256848 0 0 0 -1 0
0.0044193184 0.027692683 0 0 0 -1 0
0.0080463886 0.027737468 0 0 0 -1 0
0.0010304063 0.029041715 0 0 0 -1 0
0.0034202444 0.029754153 0 0 0 -1 0
0.0026759838 0.032151248 0 0 0 -1 0
0.0043035918 0.033161592 0 0 0 -1 0
0.018389994 0.035533085 3.3135759e-05 -0.87249553 -0.48862204 0 0
0.0027540994 0.036113303 0 0 0 -1 0
0.0014789731 0.037289694 0 0 0 -1 0
0.0028652269 0.038522311 0 0 0 -1 0
0.0070663653 0.041696347 0 0 0 -1 0
0.0017394389 0.050187171 0 0 0 -1 0
0.0010760406 0.051305953 0 0 0 -1 0
0.096077539 0.051320344 3.325101e-05 -0.98836094 0.15212734 0 0
0.0011822135 0.055753276 0 0 0 -1 0
0.0025754331 0.057524569 0 0 0 -1 0
0.003592148 0.059100203 0 0 0 -1 0
0.0050371308 0.061365835 0 0 0 -1 0
0.01049911 0.061544333 0 0 0 -1 0
0.0055984771 0.065515682 0 0 0 -1 0
0.0033506022 0.068807587 0 0 0 -1 0
0.0080448762 0.069614969 0 0 0 -1 0
0.011512032 0.070233159 0 0 0 -1 0
0.00023801076 0.073037878 0 0 0 -1 0
0.011903951 0.073481806 0 0 0 -1 0
0.0073141921 0.074599668 0 0 0 -1 0
0.0078988634 0.076101087 0 0 0 -1 0
0.0096027749 0.076583393 0 0 0 -1 0
0.0178438 0.077859774 0.00020175893 -0.88498753 0.46561486 0 0
0.011852095 0.080891527 0 0 0 -1 0
0.012168394 0.082712658 0 0 0 -1 0
0.0127 0.085538752 0.00011183274 1 0 0 0
0.00035974817 0.089969762 0 0 0 -1 0
0.0022767212 0.090816669 0 0 0 -1 0
0.0066556698 0.090939209 0 0 0 -1 0
0.0072312802 0.091478661 0 0 0 -1 0
0.0012559956 0.092976466 0 0 0 -1 0
0.070334025 0.094261765 5.1591545e-05 -0.33791509 -0.94117665 0 0
0.0057039075 0.094604209 0 0 0 -1 0
0.0039469921 0.0949644 0 0 0 -1 0
0.0037502428 0.095561609 0 0 0 -1 0
0.0063901534 0.096304052 0 0 0 -1 0
0.0039180312 0.097055443 0 0 0 -1 0
0.0094359247 0.09841644 0 0 0 -1 0
0.0032897673 0.099476635 0 0 0 -1 0
0.0084159914 0.10100687 0 0 0 -1 0
0.0038657929 0.10227121 0 0 0 -1 0
0.011748468 0.10289556 0 0 0 -1 0
0.012699999 0.1031251 0.0001060672 1 0 0 0
0.0061269007 0.10329448 0 0 0 -1 0
0.0090227108 0.10498916 0 0 0 -1 0
0.0082568321 0.10747956 0 0 0 -1 0
0.0096134208 0.10782435 0 0 0 -1 0
0.001272166 0.10876827 0 0 0 -1 0
0.012435088 0.10988838 0 0 0 -1 0
0.011656625 0.11253425 0 0 0 -1 0
0.00077517651 0.11503714 0 0 0 -1 0
0.010512279 0.11602224 0 0 0 -1 0
1.3472304e-05 0.11656402 0 0 0 -1 0
0.0064964369 0.11781984 0 0 0 -1 0
0.0089663258 0.11795761 0 0 0 -1 0
0.00094579556 0.11805518 0 0 0 -1 0
0.0067438995 0.11977986 0 0 0 -1 0
0.0018408763 0.12235656 0 0 0 -1 0
0.012539148 0.12368286 0 0 0 -1 0
0.01047592 0.12644775 0 0 0 -1 0
0.0018007878 0.12849621 0 0 0 -1 0
0.0078055402 0.12963068 0 0 0 -1 0
0.0048518088 0.13219203 0 0 0 -1 0
0.0010959628 0.13448535 0 0 0 -1 0
0.01167192 0.13457444 0 0 0 -1 0
0.012199169 0.13642433 0 0 0 -1 0
0.0075340657 0.13651063 0 0 0 -1 0
0.010737879 0.1369165 0 0 0 -1 0
0.009600373 0.13804208 0 0 0 -1 0
0.0057699587 0.13846275 0 0 0 -1 0
0.0092280721 0.14015901 0 0 0 -1 0
0.0087761125 0.1412764 0 0 0 -1 0
0.011312664 0.1427395 0 0 0 -1 0
0.13517417 0 0.00032056688 0 -1 0 0
0 0.0030538286 0.00044092967 -1 0 0 0
0.15557501 0.0066450043 0.00032528662 1 0 0 0
0.070420764 0.0127 0.00027867424 0 1 0 0
0.11342234 0.012700001 0.00037994212 0 1 0 0
0.058533527 0.0127712 0.00038185716 0.030540049 -0.99953353 0 0
0.068831421 0.014299779 0.00048039481 0.26303089 -0.96478742 0 0
0.072056346 0.015306787 0.00045208307 0.33791801 -0.94117552 0 0
0.074243121 0.016147794 0.00026018405 0.38670653 -0.92220289 0 0
0.064269826 0.018522585 0.00045783166 -0.17794713 0.98404002 0 0
0.016977182 0.076117143 0.00033248728 -0.9044525 0.42657435 0 0
0.066681601 0.095359735 0.0002683429 -0.23767893 -0.97134382 0 0
0.0127 0.13928004 0.00048415401 1 0 0 0
0.049113121 0 0.00060384424 0 -1 0 0
0.05483536 0 0.00050302863 0 -1 0 0
0.033680666 0.0127 0.00052033522 0 1 0 0
0.055409599 0.012787305 0.00052937423 -0.039260026 -0.99922901 0 0
0.06912519 0.019733705 0.00072752469 -0.30486399 0.95239592 0 0
0.084354348 0.085637704 0.00050059007 -0.69151056 -0.72236645 0 0
0.080302373 0.089017659 0.00058707967 -0.58426183 -0.81156528 0 0
0.0127 0.10767167 0.00066059036 1 0 0 0
0.012699999 0.11388042 0.00050100248 1 0 0 0
0.081764534 0 0.00087084732 0 -1 0 0
0 0.003461523 0.00082350988 -1 0 0 0
0.091727883 0.0127 0.00080789643 0 1 0 0
0.039591592 0.01638799 0.00089523115 -0.39474323 -0.91879147 0 0
0.0661323 0.018909743 0.00087051449 -0.22919819 0.97337979 0 0
0.04755602 0.019083226 0.00091763679 0.24615377 0.96923083 0 0
0.018892329 0.048343256 0.00083149783 0.97337979 0.22919819 0 0
0.022751704 0.076154217 0.0009759916 0.87673205 -0.48097906 0 0
0.024806861 0.079485916 0.00089876249 0.82164991 -0.56999248 0 0
0.089639805 0.07942 0.00075401878 -0.82658875 -0.56280643 0 0
0 0.081158169 0.00086027861 -1 0 0 0
0.020112071 0.081700072 0.0008276077 -0.83628327 0.54829764 0 0
0.088552445 0.088710256 0.00075148698 0.70401722 0.71018291 0 0
0.035936147 0.096234076 0.00099909864 -0.48099715 0.87672216 0 0
0.012699999 0.12355627 0.00077665038 1 0 0 0
0.012528467 0.142875 0.00085934647 0 1 0 0
0.038054239 0 0.0012052223 0 -1 0 0
0.068595432 0 0.0012338549 0 -1 0 0
0.080318689 0 0.0011356872 0 -1 0 0
0.095453873 0 0.0012123983 0 -1 0 0
0.047896102 0.0127 0.0012492643 0 1 0 0
0.092809714 0.0127 0.0011524233 0 1 0 0
0.056233294 0.012761753 0.0010512748 -0.021815173 -0.99976206 0 0
0 0.013769185 0.0011516466 -1 0 0 0
0.041099984 0.02132969 0.0011277464 0.4107208 0.91176116 0 0
0.074652717 0.021967219 0.0010606446 -0.44229081 0.89687175 0 0
0.0127 0.023972288 0.0010994788 1 0 0 0
0.019277746 0.034013972 0.0011739503 -0.85491168 -0.51877362 0 0
0.012821984 0.054693669 0.0012138519 -0.99839181 -0.056690685 0 0
0.085035414 0.084971651 0.0011995719 -0.71019429 -0.70400584 0 0
0.076428622 0.091497473 0.001084822 -0.48861393 -0.87250012 0 0
0.060669739 0.09636651 0.0010651671 -0.091502868 -0.99580485 0 0
0.0127 0.11033683 0.0010523889 1 0 0 0
0.084930278 0.0127 0.0013446808 0 1 0 0
0.12750918 0.012699999 0.0013729918 0 1 0 0
0.06621211 0.018928535 0.0014456187 -0.22919819 0.97337979 0 0
0.088584706 0.025723312 0.0014060792 0.70401722 -0.71018291 0 0
0.017581861 0.037048101 0.0013352893 -0.89298004 -0.45009625 0 0
0.0180088 0.054043718 0.0012841532 0.99656564 0.082806468 0 0
0.10161427 0.055408709 0.001363067 0.99922901 -0.039260026 0 0
0.018047549 0.060805403 0.0014921427 0.99580485 -0.091502868 0 0
0.018850153 0.079673037 0.0012883467 -0.86383808 0.50376952 0 0
0.021132696 0.083178803 0.0013027031 -0.81157678 0.5842458 0 0
0.03569866 0.090119377 0.001366531 0.54830003 -0.83628178 0 0
0.037085518 0.096838601 0.0013636202 -0.45009246 0.89298201 0 0
0.01866189 0.012699999 0.0015859981 0 1 0 0
0.052368 0.013014728 0.0017160219 -0.1088682 -0.99405622 0 0
0.04155653 0.015595105 0.0016959356 -0.35428727 -0.93513668 0 0
0 0.01844947 0.0015344654 -1 0 0 0
0.087392561 0.032012876 0.0017207167 -0.76884741 0.63943231 0 0
0.09609367 0.051427409 0.0015244922 -0.98965228 0.14348672 0 0
0 0.052798703 0.0016605727 -1 0 0 0
0.03948937 0.097969696 0.001568458 -0.39473516 0.91879499 0 0
0 0.11375637 0.0017107559 -1 0 0 0
0.0044458141 0.142875 0.0016349244 0 1 0 0
0.032328628 0 0.0019801061 0 -1 0 0
0.15557501 0.004925367 0.0017900956 1 0 0 0
0.012699999 0.016878881 0.0018324475 1 0 0 0
0.036099911 0.02402336 0.0018360023 0.53361183 0.84572953 0 0
0 0.027037375 0.001966611 -1 0 0 0
0.10086402 0.065524824 0.0019487618 0.98245019 0.18652514 0 0
0.087861739 0.081815369 0.0017665797 -0.77988064 -0.62592828 0 0
0.026912332 0.08227244 0.0019025614 0.76884478 -0.63943553 0 0
0 0.093758747 0.0019784698 -1 0 0 0
0.012700001 0.097761497 0.0019988655 1 0 0 0
0.056683362 0.0127 0.0020621242 0 1 0 0
0.10506459 0.012700001 0.0021292774 0 1 0 0
0.067820333 0.014038391 0.0020353338 0.23768553 -0.97134215 0 0
0.0423114 0.015318941 0.0020260112 -0.33791801 -0.94117552 0 0
0.053123433 0.018093711 0.0021508799 0.10018844 0.99496853 0 0
0.029501297 0.022436922 0.0021151756 -0.62592524 -0.77988315 0 0
0.039131783 0.022279659 0.0021365657 0.45787367 0.88901728 0 0
0 0.024471048 0.0022358191 -1 0 0 0
0.026599821 0.032511521 0.0021671904 0.77988756 0.6259197 0 0
0.024517529 0.03534276 0.0020247062 0.83147109 0.5555681 0 0
0 0.044785496 0.002181387 -1 0 0 0
0.10157447 0.054603126 0.0020622322 0.99839234 -0.056681111 0 0
0.081634447 0.088006333 0.0020744205 -0.61908376 -0.78532499 0 0
0.073169887 0.093131006 0.0020569079 -0.40273282 -0.9153176 0 0
0.012699999 0.13013987 0.0021127886 1 0 0 0
0.015208673 0.0127 0.0023334655 0 1 0 0
0.037357431 0.012700001 0.0023988914 0 1 0 0
0.046116024 0.0127 0.002430558 0 1 0 0
0.080868602 0.0127 0.0022831706 0 1 0 0
0.11762953 0.012700001 0.0023727377 0 1 0 0
0.1342968 0.012699999 0.0023743357 0 1 0 0
0.1408866 0.0127 0.0024065697 0 1 0 0
0.036572084 0.017827883 0.0023878575 -0.46561486 -0.88498753 0 0
0.034887005 0.024826752 0.0024039301 0.56999761 0.82164639 0 0
0.025878444 0.025662307 0.0023041633 -0.7040149 -0.71018529 0 0
0.096878417 0.037164517 0.0023055365 0.89298201 -0.45009246 0 0
0.091732293 0.038397565 0.0023095515 -0.87671793 0.48100492 0 0
0.020561162 0.042935207 0.0023413261 0.93200755 0.36243892 0 0
0 0.073510721 0.0023167962 -1 0 0 0
0.055602595 0.096487179 0.0023689317 0.03925911 -0.99922907 0 0
0.052833863 0.10143542 0.0024486866 -0.10018642 0.99496871 0 0
0 0.1109773 0.0022953518 -1 0 0 0
0.019448603 0 0.002728102 0 -1 0 0
0.058397129 0 0.0025688394 0 -1 0 0
0.067596704 0 0.0026658813 0 -1 0 0
0.095529094 0 0.0026542442 0 -1 0 0
0 0.0017996369 0.002542289 -1 0 0 0
0.059601318 0.0127 0.0026812891 0 1 0 0
0.10047241 0.012700001 0.0026923532 0 1 0 0
0.044208132 0.014692076 0.0025674161 -0.28819716 -0.95757115 0 0
0.04358004 0.01488951 0.0025326463 -0.30486712 -0.9523949 0 0
0.037864372 0.02296496 0.0025506467 0.48862171 0.87249577 0 0
0.012699999 0.02433816 0.002690207 1 0 0 0
0.092829242 0.040569253 0.0025071693 -0.90445572 0.42656758 0 0
0 0.048639253 0.0026335102 -1 0 0 0
0.012855406 0.054156147 0.0025163516 -0.99785882 -0.065404594 0 0
0.0127 0.084784821 0.002527788 1 0 0 0
0.0063499045 0 0.0028349273 0 -1 0 0
0.028363224 0 0.002850354 0 -1 0 0
0.036525179 0 0.0029274127 0 -1 0 0
0.022080217 0.0127 0.0028904788 0 1 0 0
0.055183515 0.012700001 0.0029444885 0 1 0 0
0.072195865 0.020853426 0.0028105145 -0.37864214 0.92554319 0 0
0.076727562 0.023073453 0.0028119558 -0.49622199 0.86819571 0 0
0.091208316 0.037465908 0.0029876279 -0.86383998 0.50376642 0 0
0.0127 0.040025055 0.0027566247 1 0 0 0
0.015889179 0.040795922 0.0028017876 -0.92880982 -0.37055686 0 0
0.10043734 0.046886571 0.0029788362 0.97337866 -0.22920313 0 0
0.013240536 0.050620984 0.0028340733 -0.98836124 -0.15212502 0 0
0.10127363 0.062978305 0.0028955229 0.99200583 0.12619278 0 0
0.095679343 0.065286517 0.0029613082 -0.97904688 -0.20363516 0 0
0.012700001 0.073923528 0.0027941947 1 0 0 0
0 0.078003637 0.0027685766 -1 0 0 0
0.023464959 0.08614327 0.0028062356 -0.75756538 0.65275937 0 0
0.023935786 0.086683467 0.0029812059 -0.74605799 0.66588104 0 0
0.0127 0.12784937 0.002975449 1 0 0 0
0.04702498 0 0.0030479706 0 -1 0 0
0.15555644 0 0.0030598128 0 -1 0 0
0.074601494 0.0127 0.003222713 0 1 0 0
0.0769995 0.012699999 0.0031961878 0 1 0 0
0.085433058 0.012699999 0.003047016 0 1 0 0
0 0.026071461 0.0031709548 -1 0 0 0
0 0.037025444 0.003094079 -1 0 0 0
0.097066879 0.037542202 0.0032434352 0.89687222 -0.44228974 0 0
0.09991847 0.044912983 0.0030357405 0.96004838 -0.27983403 0 0
0 0.050653394 0.0031374402 -1 0 0 0
0.018269079 0.051695336 0.003007252 0.98965073 0.14349735 0 0
0.10131796 0.051771782 0.0032384121 0.99200559 -0.12619397 0 0
0 0.056508899 0.0031561686 -1 0 0 0
0 0.067587502 0.0030571991 -1 0 0 0
0.079115301 0.089846343 0.0032413101 -0.55557179 -0.83146858 0 0
0 0.012081005 0.0033439819 -1 0 0 0
0.050406694 0.012699999 0.0034511695 0 1 0 0
0.047504641 0.019096274 0.0034897858 0.24615377 0.96923083 0 0
0 0.039745413 0.0032508464 -1 0 0 0
0.019298553 0.046741135 0.0032774908 0.96478689 0.26303291 0 0
0 0.063568741 0.0033912242 -1 0 0 0
0.097580068 0.075782523 0.0033546924 0.9081493 0.41864643 0 0
0.092874207 0.083718382 0.0034441128 0.80125213 0.59832692 0 0
0.038245775 0.091649011 0.0032977506 0.48100492 -0.87671793 0 0
0.084617577 0.092187956 0.0033325893 0.61909491 0.78531623 0 0
0.012700001 0.093266606 0.0033819128 1 0 0 0
0.0127 0.098184139 0.0034510321 1 0 0 0
0.10701531 0 0.0036133565 0 -1 0 0
0.13245507 0 0.0035479455 0 -1 0 0
0.1398018 0.0127 0.0035576017 0 1 0 0
0.095070645 0.033927232 0.0035046684 0.85035521 -0.52620918 0 0
0.089022309 0.034105681 0.0036156466 -0.81156898 0.58425665 0 0
0.024737457 0.035017341 0.0037395558 0.82659221 0.56280142 0 0
0.022735029 0.038277779 0.0036489032 0.87672704 0.48098823 0 0
0.01439624 0.045219887 0.0036322251 -0.96245545 -0.2714397 0 0
0.095539674 0.048477117 0.0036318509 -0.97534192 0.22069938 0 0
0.040148884 0.092629656 0.003597144 0.4344351 -0.90070319 0 0
0.065039217 0.10095385 0.0036424515 0.1779388 0.98404157 0 0
0.065283313 0.10090971 0.0036946675 0.1779388 0.98404157 0 0
0.053635705 0.10150734 0.0035204522 -0.08280386 0.99656588 0 0
0.016814748 0 0.0038324313 0 -1 0 0
0.078593977 0 0.0039822534 0 -1 0 0
0.035533346 0.0127 0.0037902885 0 1 0 0
0.05883814 0.01278126 0.0038187183 0.039260402 -0.99922901 0 0
0.050285619 0.018494764 0.0037871026 0.17794526 0.98404044 0 0
0 0.019722044 0.0038797073 -1 0 0 0
0.089208558 0.034364395 0.0039822808 -0.81156898 0.58425665 0 0
0.01377292 0.047725245 0.0038624632 -0.9772315 -0.21217607 0 0
0.017919473 0.055476282 0.0038230759 0.9988482 0.04798219 0 0
0.09426555 0.070323408 0.0039994181 -0.94409275 -0.32968009 0 0
0.018053558 0.078254506 0.003841602 -0.88089311 0.47331536 0 0
0.096107453 0.078696251 0.003865777 0.87672442 0.48099312 0 0
0.056395613 0.10164339 0.0037564011 -0.021819972 0.99976194 0 0
0.0127 0.11360475 0.0039523826 1 0 0 0
0.0127 0.11888646 0.0039721858 1 0 0 0
0.0127 0.13846219 0.0039764959 1 0 0 0
0.009708819 0.142875 0.0037663404 0 1 0 0
0.12476699 0 0.0042297076 0 -1 0 0
0.13395871 0 0.0040173773 0 -1 0 0
0.15557501 0.0022702029 0.004026867 1 0 0 0
0 0.010443412 0.0041569616 -1 0 0 0
0.12523007 0.0127 0.0040279026 0 1 0 0
0.074041985 0.016065177 0.0040034032 0.37865004 -0.92553991 0 0
0.029114012 0.084716506 0.0042092334 0.71630186 -0.69779062 0 0
0 0.087793179 0.004146615 -1 0 0 0
0.086473666 0.090650268 0.004126118 0.65934056 0.75184453 0 0
0.0127 0.12159027 0.0040953513 1 0 0 0
0 0.12965506 0.0042055403 -1 0 0 0
0.012700001 0.13909039 0.0040395707 1 0 0 0
0.067079142 0 0.0042983433 0 -1 0 0
0.077811196 0 0.004474028 0 -1 0 0
0.15208144 0 0.0044363965 0 -1 0 0
0.063369282 0.012700001 0.0042567449 0 1 0 0
0.062126845 0.018191759 0.0044272235 -0.1261965 0.99200529 0 0
0.0127 0.023188042 0.0043905256 1 0 0 0
0.037563015 0.023136904 0.0042710989 0.49621728 0.86819839 0 0
0.087635234 0.032306712 0.0042882562 -0.77439153 0.63270676 0 0
0.1016274 0.055770133 0.0042792526 0.99953353 -0.030540049 0 0
0 0.069150209 0.0043307836 -1 0 0 0
0.093454555 0.072420374 0.0043412773 -0.92220217 -0.38670823 0 0
0 0.11793044 0.0043849112 -1 0 0 0
0.12731577 0 0.0045340243 0 -1 0 0
0 0.0030877602 0.0047138068 -1 0 0 0
0.021277452 0.0127 0.0045394595 0 1 0 0
0.1502724 0.0127 0.0047479835 0 1 0 0
0.073540606 0.015863219 0.0045768917 0.37056017 -0.92880851 0 0
0 0.062419925 0.0046507088 -1 0 0 0
0.094139323 0.070674345 0.0045297849 -0.93819064 -0.3461189 0 0
0.03538705 0.089913666 0.0045462707 0.55557179 -0.83146858 0 0
0.0127 0.099613905 0.0045668962 1 0 0 0
0 0.09976925 0.0046503614 -1 0 0 0
0 0.10341394 0.004657744 -1 0 0 0
0 0.13143516 0.0045650988 -1 0 0 0
0.0032422137 0.142875 0.0045823404 0 1 0 0
0.040827613 0.012699999 0.0047554146 0 1 0 0
0.060700238 0.0127 0.0049698781 0 1 0 0
0.10214735 0.012699999 0.004908565 0 1 0 0
0.13634248 0.012700001 0.0048335409 0 1 0 0
0.14161141 0.012700001 0.0047522085 0 1 0 0
0.14948827 0.012699999 0.004906578 0 1 0 0
0.055143028 0.012798818 0.0048415558 -0.047978435 -0.99884838 0 0
0.0127 0.041348197 0.0049587633 1 0 0 0
0.013034832 0.052184433 0.0048781806 -0.99405622 -0.1088682 0 0
0.018925795 0.06620048 0.0048393491 0.97337979 -0.22919819 0 0
0 0.068011478 0.0049504861 -1 0 0 0
0 0.13394035 0.004754696 -1 0 0 0
0.0003625231 0.142875 0.0048626778 0 1 0 0
0.00012664127 0 0.0051809303 0 -1 0 0
0.15279964 0 0.0050729276 0 -1 0 0
0.016566712 0.012699999 0.0052388422 0 1 0 0
0.051450826 0.018304531 0.0051669404 0.14349735 0.98965073 0 0
0.04447351 0.019998716 0.0051758173 0.32144082 0.94692969 0 0
0.069817543 0.019961191 0.0050881533 -0.32144412 0.94692856 0 0
0.024649918 0.026931636 0.0050307079 -0.73432153 -0.67880189 0 0
0.022015916 0.039650269 0.0051171277 0.89297855 0.45009923 0 0
0 0.052242368 0.0051761763 -1 0 0 0
0 0.060320318 0.0051016351 -1 0 0 0
0.10141584 0.061762266 0.0050780484 0.99496871 0.10018642 0 0
0 0.086778015 0.0051391418 -1 0 0 0
0.048693363 0 0.0053983745 0 -1 0 0
0.053976968 0 0.0052607669 0 -1 0 0
0.082573839 0 0.0054633124 0 -1 0 0
0.094897069 0 0.0053971973 0 -1 0 0
0.14689605 0 0.0054538473 0 -1 0 0
0.14854272 0 0.0054482124 0 -1 0 0
0.065520748 0.018772308 0.0052893134 -0.21217611 0.9772315 0 0
0.093819886 0.032004844 0.0054253447 0.8216452 -0.56999928 0 0
0.095725089 0.065066531 0.0052704667 -0.97904688 -0.20363516 0 0
0.014187705 0.068410218 0.0052628899 -0.96704596 0.25460178 0 0
0 0.070011206 0.0052973512 -1 0 0 0
0.020722389 0.071874179 0.0053052846 0.92880839 -0.37056035 0 0
0.0127 0.081715867 0.0054004905 1 0 0 0
0.035467967 0.089967728 0.0053366083 0.55557179 -0.83146858 0 0
0.051343389 0.096081086 0.0053834585 0.15212734 -0.98836094 0 0
0 0.12625057 0.0053905216 -1 0 0 0
0.0127 0.14109357 0.0054139928 1 0 0 0
0 0.015865853 0.005592457 -1 0 0 0
0.07337036 0.015796524 0.0056723142 0.36244118 -0.93200672 0 0
0 0.062821113 0.0055960361 -1 0 0 0
0.093479797 0.082883485 0.0056959521 0.81664461 0.57714087 0 0
0 0.086319834 0.0055472087 -1 0 0 0
0.068195552 0.094951108 0.0056465794 -0.27983072 -0.96004939 0 0
0.05041419 0.10112923 0.0057404893 -0.15212502 0.98836124 0 0
0.0046640057 0.142875 0.0056038382 0 1 0 0
0.037760194 0 0.0059220023 0 -1 0 0
0.072310865 0 0.0058793258 0 -1 0 0
0.14813776 0 0.0059323385 0 -1 0 0
0.15557501 0.010119396 0.0059107384 1 0 0 0
0.059617519 0.012816851 0.0058649485 0.056691229 -0.99839181 0 0
0 0.031536318 0.0059248339 -1 0 0 0
0.018622641 0.049604662 0.0057557737 0.98078519 0.19509088 0 0
0.0127 0.0505303 0.0059614135 1 0 0 0
0 0.063585743 0.0059438143 -1 0 0 0
0.02735452 0.090139642 0.0058490471 -0.67236203 0.74022251 0 0
0.067519061 0.09514159 0.0059111719 -0.26302004 -0.9647904 0 0
0.03803762 0 0.0060545509 0 -1 0 0
0.079575993 0 0.0060450952 0 -1 0 0
0.15557501 0.0019618315 0.0062308726 1 0 0 0
0.14552473 0.012700001 0.006039815 0 1 0 0
0.0127 0.036035366 0.0060026799 1 0 0 0
0.013082782 0.062623061 0.0062044542 -0.99200517 0.1261975 0 0
0.020450752 0.071179599 0.0061118891 0.93513519 -0.35429111 0 0
0.070150405 0.094325967 0.0062196348 -0.32968009 -0.94409275 0 0
0.068293922 0.094922431 0.0060055815 -0.27983072 -0.96004939 0 0
0 0.1162 0.0061291475 -1 0 0 0
0.028446604 0 0.0064988886 0 -1 0 0
0.078276314 0 0.0063410928 0 -1 0 0
0.029803477 0.012699999 0.006442721 0 1 0 0
0.060828619 0.0127 0.0063894582 0 1 0 0
0.071315713 0.015051453 0.0062889317 0.32143784 -0.94693071 0 0
0.050301269 0.018491935 0.0062803975 0.17794526 0.98404044 0 0
0.032866351 0.020004004 0.0063259955 -0.54829323 -0.83628613 0 0
0.031097891 0.021222612 0.0062728636 -0.5842458 -0.81157678 0 0
0.0860084 0.023349646 0.0064318096 0.64612675 -0.7632302 0 0
0.0127 0.037096966 0.0064481888 1 0 0 0
0.01954589 0.045883648 0.0063970303 0.95757163 0.28819546 0 0
0.095727548 0.065054744 0.0062592183 -0.97904688 -0.20363516 0 0
0.024589477 0.087404586 0.0064933924 -0.73432374 0.67879951 0 0
0.082330674 0.093865134 0.006379006 0.5627985 0.82659411 0 0
0 0.13036829 0.0063301483 -1 0 0 0
0.0127 0.1328153 0.0064557581 1 0 0 0
0.0011109561 0.142875 0.0063177873 0 1 0 0
0.0085486984 0 0.0066551669 0 -1 0 0
0.078504331 0.0127 0.0067099682 0 1 0 0
0 0.015723398 0.006667126 -1 0 0 0
0.058855765 0.017916661 0.0065146917 -0.039258685 0.99922907 0 0
0 0.029848365 0.0066990736 -1 0 0 0
0.02621815 0.032991834 0.006569175 0.7853182 0.6190924 0 0
0.019670479 0.03338372 0.0066390289 -0.84572506 -0.53361899 0 0
0 0.075947091 0.0067348885 -1 0 0 0
0 0.077749886 0.006674638 -1 0 0 0
0.082968451 0.086899564 0.0065526702 -0.65274376 -0.75757879 0 0
0.14831538 0 0.0069473679 0 -1 0 0
0.057569101 0.0127 0.0068267239 0 1 0 0
0.067832597 0.014041393 0.0069169113 0.23768553 -0.97134215 0 0
0.041622251 0.015570206 0.0067790844 -0.35428727 -0.93513668 0 0
0.081850745 0.020212315 0.0067598172 0.55556643 -0.83147216 0 0
0.036693111 0.023653498 0.0069855317 0.51877385 0.85491151 0 0
0 0.031671427 0.0068703997 -1 0 0 0
0 0.038566966 0.0069869352 -1 0 0 0
0.012757171 0.056455523 0.0069146063 -0.99991435 -0.01308752 0 0
0 0.082041211 0.0067830388 -1 0 0 0
0.083017893 0.086856633 0.0069991127 -0.65934199 -0.75184315 0 0
0.081366077 0.094507962 0.0068144496 0.54096442 0.84104556 0 0
0.056259353 0.096508443 0.0069285594 0.021800995 -0.99976236 0 0
0.07276646 0.098836258 0.0068632388 0.34611923 0.93819052 0 0
0.042397045 0.099113069 0.0069272653 -0.32967958 0.94409293 0 0
0.012700001 0.11274463 0.006838507 1 0 0 0
0.047400199 0 0.0070905453 0 -1 0 0
0.12835677 0 0.0070430334 0 -1 0 0
0.071005076 0.012699999 0.0070683057 0 1 0 0
0.047383972 0.013848813 0.0072234464 -0.22069763 -0.97534227 0 0
0.094759315 0.033428412 0.0072388183 0.84572071 -0.53362584 0 0
0.024067987 0.078371555 0.0072030043 0.84103417 -0.54098207 0 0
0.084537566 0.092250638 0.0070253182 0.61222512 0.79068351 0 0
0.071059227 0.093996458 0.0072305114 -0.35428637 -0.93513703 0 0
0.040056806 0 0.0072639077 0 -1 0 0
0.13596791 0 0.0073100757 0 -1 0 0
0.075458124 0.012700001 0.0073140552 0 1 0 0
0.078226745 0.0127 0.0074991854 0 1 0 0
0.012699999 0.013251035 0.0072800987 1 0 0 0
0 0.014263617 0.0074221827 -1 0 0 0
0.052723326 0.018137477 0.0074954061 0.11753666 0.99306858 0 0
0.076590486 0.022995103 0.0074829082 -0.49622199 0.86819571 0 0
0.0127 0.026104528 0.0072846324 1 0 0 0
0.027977094 0.030895429 0.0073468373 0.74605644 0.66588277 0 0
0.024998846 0.034639109 0.0074735731 0.81664068 0.57714647 0 0
0.042441644 0.099128649 0.0073262388 -0.32967958 0.94409293 0 0
0.0127 0.10324168 0.0073570143 1 0 0 0
0.0127 0.10368393 0.0073490934 1 0 0 0
0.012700001 0.11667477 0.0073121842 1 0 0 0
0 0.12784138 0.0073579624 -1 0 0 0
0.00073448598 0 0.0075171511 0 -1 0 0
0.019667203 0 0.0075336746 0 -1 0 0
0.15557501 0.0034870564 0.0077070785 1 0 0 0
0.15557501 0.0085641211 0.0075055989 1 0 0 0
0.053701587 0.012699999 0.0076020188 0 1 0 0
0.062995113 0.012699999 0.0075013922 0 1 0 0
0.13857508 0.0127 0.0075880745 0 1 0 0
0.046523832 0.019359387 0.0076552378 0.2714394 0.96245557 0 0
0.092562795 0.04001027 0.0075095133 -0.90070319 0.4344351 0 0
0.012699999 0.05411274 0.0076456424 1 0 0 0
0.0127 0.059278864 0.0076939161 1 0 0 0
0.022966124 0.085551471 0.0076060132 -0.76884127 0.63943976 0 0
0.03388733 0.088862419 0.0076408014 0.59131241 -0.80644262 0 0
0.07470464 0.092408784 0.0077298665 -0.44229081 -0.89687175 0 0
0.066734314 0.09534663 0.0077064037 -0.24615127 -0.96923143 0 0
0.00032884811 0.142875 0.0075509287 0 1 0 0
0.016045764 0 0.007807049 0 -1 0 0
0.052716929 0 0.0078106881 0 -1 0 0
0 0.0035215525 0.0078386888 -1 0 0 0
0.15557501 0.011732796 0.0078222705 1 0 0 0
0.14432456 0.012700001 0.0078823697 0 1 0 0
0.15113126 0.0127 0.0078484472 0 1 0 0
0.075413883 0.022354495 0.0077977916 -0.46560952 0.88499027 0 0
0.08624737 0.030700339 0.0079378793 -0.74021518 0.67237014 0 0
0.095571801 0.048619062 0.007978756 -0.97534192 0.22069938 0 0
0.1014022 0.052508052 0.0079576932 0.99405622 -0.1088682 0 0
0.081419148 0.088176049 0.0079925982 -0.61908376 -0.78532499 0 0
0.057650328 0.096517108 0.0078453841 -0.013093625 -0.99991429 0 0
0.055808023 0.10162856 0.0079640001 -0.030540049 0.99953353 0 0
0.012699999 0.13527441 0.0078383777 1 0 0 0
0.062639415 0 0.0081632528 0 -1 0 0
0.14481121 0 0.0080702296 0 -1 0 0
0.052153632 0.018207166 0.008008237 0.1261965 0.99200529 0 0
0.025510982 0.033925779 0.0080181602 0.80644518 0.59130883 0 0
0.095918559 0.035366949 0.0081068631 0.87249553 -0.48862204 0 0
0.10076704 0.048382007 0.0080619296 0.98078519 -0.19509102 0 0
0.10136725 0.052188843 0.0081161661 0.99405622 -0.1088682 0 0
0.096483231 0.058899179 0.0080082063 -0.99922907 -0.039258685 0 0
0.096287273 0.061469041 0.0081883594 -0.99405795 -0.1088525 0 0
0 0.071214654 0.008071078 -1 0 0 0
0.090570666 0.086564414 0.0082233967 0.75184453 0.65934056 0 0
0.068701535 0.09480042 0.0081440182 -0.29654604 -0.95501858 0 0
0.049136348 0.095683753 0.0081060492 0.203633 -0.9790473 0 0
0 0.10985766 0.008118609 -1 0 0 0
0.15557501 0.0058765383 0.0084522543 1 0 0 0
0.041316565 0.015686015 0.0082766991 -0.35428727 -0.93513668 0 0
0.0127 0.019549001 0.0084408857 1 0 0 0
0.025402961 0.026141733 0.0084460601 -0.71629947 -0.69779301 0 0
0.095338255 0.047634304 0.0084436499 -0.96923208 0.24614868 0 0
0.0127 0.047766324 0.0082957419 1 0 0 0
0 0.049969405 0.0083154514 -1 0 0 0
0.0127 0.062162489 0.0083556036 1 0 0 0
0.10061114 0.066757165 0.0084544644 0.97723305 0.21216889 0 0
0.094790585 0.068733178 0.0084409174 -0.95501858 -0.29654604 0 0
0 0.079802454 0.0082850643 -1 0 0 0
0.012699999 0.085418604 0.0083097108 1 0 0 0
0 0.12899658 0.0084287701 -1 0 0 0
0.0127 0.12954111 0.0084466776 1 0 0 0
0.0011088181 0 0.00856739 0 -1 0 0
0.0061178943 0 0.0085072843 0 -1 0 0
0.014489302 0 0.0085455021 0 -1 0 0
0.032752611 0 0.0085756304 0 -1 0 0
0.13824069 0 0.0086752009 0 -1 0 0
0.054417893 0.012700001 0.0085001029 0 1 0 0
0.086287059 0.023588849 0.0087326486 0.65275937 -0.75756538 0 0
0 0.024039004 0.0086604906 -1 0 0 0
0.088479601 0.033376284 0.0085487254 -0.79601008 0.60528338 0 0
0.020140599 0.044065453 0.0086304927 0.94117486 0.33791989 0 0
0 0.056809422 0.008657516 -1 0 0 0
0.013023089 0.062109936 0.0085840458 -0.99405622 0.1088682 0 0
0.022893457 0.085463911 0.0085055772 -0.77439386 0.63270396 0 0
0 0.088119641 0.0086669559 -1 0 0 0
0.078110658 0.090498775 0.0086853821 -0.5335992 -0.84573752 0 0
0.044890836 0.094542928 0.0085969372 0.31316116 -0.9497 0 0
0 0.095166869 0.0087074013 -1 0 0 0
0.039282206 0 0.0087868981 0 -1 0 0
0.088146418 0 0.0087520098 0 -1 0 0
0.13940011 0 0.008827243 0 -1 0 0
0.028396986 0.012700001 0.0087545225 0 1 0 0
0.13900632 0.0127 0.0088019371 0 1 0 0
0.15512006 0.0127 0.008801193 0 1 0 0
0.04517686 0.019765569 0.008870976 0.30486399 0.95239592 0 0
0.090372548 0.036090888 0.0088419886 -0.84573442 0.53360409 0 0
0.0127 0.047782551 0.0087668989 1 0 0 0
0.10158613 0.059593119 0.0089893676 0.99839234 0.056681655 0 0
0 0.060564183 0.0087605827 -1 0 0 0
0.012700001 0.082373269 0.0088243755 1 0 0 0
0.092988841 0.083563469 0.0089247357 0.80644834 0.59130454 0 0
0.031918593 0.093760051 0.0088811638 -0.56999928 0.8216452 0 0
0.044905093 0.094547637 0.008803946 0.31316116 -0.9497 0 0
0.079478897 0.095664665 0.0089301858 0.50377309 0.86383605 0 0
0.016327728 0 0.0091859493 0 -1 0 0
0.035598416 0 0.0090489425 0 -1 0 0
0.065642901 0 0.0091535402 0 -1 0 0
0.13987488 0 0.0090204068 0 -1 0 0
0 0.0099120177 0.009204587 -1 0 0 0
0.11051024 0.012699999 0.0090553118 0 1 0 0
0.12031431 0.012699999 0.0090174461 0 1 0 0
0.059344318 0.012802937 0.0091923568 0.047977977 -0.99884844 0 0
0.064544708 0.018573904 0.0091118691 -0.18652336 0.98245054 0 0
0.0127 0.020485483 0.0090373755 1 0 0 0
0.0127 0.056649193 0.009229389 1 0 0 0
0.012699999 0.075685531 0.0091733607 1 0 0 0
0.095177703 0.080298886 0.0091417152 0.85490954 0.51877713 0 0
0.0127 0.082149334 0.009151266 1 0 0 0
0.012699999 0.091058388 0.0091528846 1 0 0 0
0.051294599 0.096073575 0.0091852043 0.15212734 -0.98836094 0 0
0.053315558 0.09632723 0.0090559786 0.10018844 -0.99496853 0 0
0.054606494 0 0.0093810353 0 -1 0 0
0.093595266 0 0.0093112839 0 -1 0 0
0.064364858 0.0127 0.0092843445 0 1 0 0
0.079080649 0.0127 0.0093497001 0 1 0 0
0.077235617 0.023369119 0.0094219539 -0.51129818 0.85940343 0 0
0.023139328 0.028641872 0.0093432311 -0.76884127 -0.63943976 0 0
0.096200719 0.035875347 0.0093897069 0.87672216 -0.48099715 0 0
0 0.044432927 0.0092607923 -1 0 0 0
0.093314856 0.072748974 0.0094279386 -0.91878414 -0.39476037 0 0
0.024894819 0.087731093 0.0093437517 -0.72837114 0.68518287 0 0
0.049886074 0.10104472 0.0094677731 -0.16072869 0.98699862 0 0
0.050122947 0.10108329 0.009252103 -0.16072869 0.98699862 0 0
0 0.12593716 0.009290196 -1 0 0 0
0 0.13829604 0.0093394397 -1 0 0 0
0.02527561 0 0.0097280927 0 -1 0 0
0.030307915 0 0.0095234429 0 -1 0 0
0.020994026 0.0127 0.0096643791 0 1 0 0
0.035169218 0.02463405 0.009694498 0.56280142 0.82659221 0 0
0.012700001 0.04798159 0.0095644789 1 0 0 0
0.10100128 0.049632128 0.0096692145 0.98555559 -0.16935247 0 0
0.0127 0.08101657 0.0095604314 1 0 0 0
0.06322404 0.096055552 0.0097074974 -0.15212896 -0.98836064 0 0
0.0127 0.1189383 0.0096364049 1 0 0 0
0.0127 0.12477766 0.0096854363 1 0 0 0
0.0127 0.13715446 0.0095472727 1 0 0 0
0.026201352 0 0.0098494114 0 -1 0 0
0.08225213 0 0.0097889537 0 -1 0 0
0.10683532 0 0.00981561 0 -1 0 0
0.09475179 0.012700001 0.0098768026 0 1 0 0
0.034025848 0.025437612 0.009960467 0.59130883 0.80644518 0 0
0.012700001 0.026359878 0.0098239146 1 0 0 0
0.032762911 0.026398618 0.009760594 0.6190924 0.7853182 0 0
0.094330944 0.032764684 0.0098733287 0.83628398 -0.54829663 0 0
0 0.043149535 0.0097965384 -1 0 0 0
0.10078089 0.048451699 0.0098635238 0.98078519 -0.19509102 0 0
0.099407248 0.071142837 0.0098245433 0.94969451 0.31317794 0 0
0.012700001 0.090131126 0.0098759411 1 0 0 0
0.028469177 0.091116264 0.0099968128 -0.64612389 0.76323259 0 0
0.072948523 0.0932284 0.009803948 -0.40273282 -0.9153176 0 0
0.059830826 0.10157264 0.0098370919 0.056681655 0.99839234 0 0
0.011182952 0 0.010168944 0 -1 0 0
0.027772494 0 0.010022148 0 -1 0 0
0.14394283 0 0.010245753 0 -1 0 0
0.037639108 0.0127 0.01018189 0 1 0 0
0.056920197 0.012699999 0.010107369 0 1 0 0
0.090895981 0.012699999 0.010039494 0 1 0 0
0.078738205 0.024305351 0.010024661 -0.54829121 0.8362875 0 0
0.02271999 0.029149998 0.010032747 -0.77439386 -0.63270396 0 0
0.088362761 0.033223383 0.010063974 -0.79068273 0.61222619 0 0
0.012699999 0.060891844 0.010243813 1 0 0 0
0.012700001 0.062964521 0.010038558 1 0 0 0
0.051326156 0.10126062 0.010189927 -0.13485692 0.99086511 0 0
0.0049628108 0.142875 0.010020806 0 1 0 0
0.022874629 0 0.01026322 0 -1 0 0
0.12157932 0 0.010335111 0 -1 0 0
0 0.01136017 0.010460363 -1 0 0 0
0.041138548 0.015754791 0.010484034 -0.36244118 -0.93200672 0 0
0.037230134 0.017490111 0.010261278 -0.45009625 -0.89298004 0 0
0.052077539 0.018216847 0.010452894 0.1261965 0.99200529 0 0
0.028375562 0.023364587 0.010396415 -0.64612675 -0.7632302 0 0
0.09627559 0.036012251 0.010400685 0.88089508 -0.4733116 0 0
0.10118479 0.063617632 0.010410774 0.98965037 0.14349969 0 0
0.095648706 0.065431371 0.010496082 -0.97722811 -0.21219164 0 0
0.089732587 0.079283722 0.010424279 -0.82658875 -0.56280643 0 0
0 0.010297504 0.010552842 -1 0 0 0
0.019386977 0.012699999 0.010644525 0 1 0 0
0.034952872 0.012699999 0.010513677 0 1 0 0
0.14504918 0.0127 0.010513938 0 1 0 0
0.079296775 0.018632226 0.01069005 0.49622479 -0.8681941 0 0
0 0.022589266 0.010512706 -1 0 0 0
0.1015333 0.060425598 0.010659939 0.99724919 0.074122146 0 0
0 0.06764181 0.010594076 -1 0 0 0
0.019314962 0.067720257 0.010682939 0.96245474 -0.27144223 0 0
0 0.076767221 0.010689419 -1 0 0 0
0 0.077912547 0.010631144 -1 0 0 0
0.025015682 0.079786316 0.010573743 0.81664068 -0.57714647 0 0
0.012700001 0.11281858 0.010523885 1 0 0 0
0.011579627 0.142875 0.010711895 0 1 0 0
0.028200286 0 0.010970518 0 -1 0 0
0.04489461 0 0.010904728 0 -1 0 0
0.015851256 0.0127 0.010966184 0 1 0 0
0.14762539 0.0127 0.010921641 0 1 0 0
0.054216668 0.012851439 0.010977518 -0.065404594 -0.99785882 0 0
0.044050075 0.014741123 0.010977319 -0.29653832 -0.95502096 0 0
0.08481621 0.029212089 0.010978121 -0.70400858 0.71019155 0 0
0 0.040238969 0.010935429 -1 0 0 0
0.021217465 0.041352462 0.010968586 0.91531157 0.40274647 0 0
0.019217348 0.04703952 0.010926181 0.96704578 0.25460258 0 0
0.0127 0.051700488 0.010852141 1 0 0 0
0.0127 0.054098148 0.010903816 1 0 0 0
0.019418778 0.080616273 0.010959358 -0.85035521 0.52620918 0 0
0 0.08094167 0.010815172 -1 0 0 0
0 0.09006425 0.01082122 -1 0 0 0
0.028824164 0.091413885 0.010921629 -0.63943976 0.76884127 0 0
0.045976318 0.10020992 0.01087926 -0.25459492 0.96704781 0 0
0.023561535 0 0.011072629 0 -1 0 0
0.076900676 0.012699999 0.011248677 0 1 0 0
0.10645726 0.0127 0.01104386 0 1 0 0
0.072976314 0.015644826 0.011007286 0.35428727 -0.93513668 0 0
0.053648725 0.018042723 0.011045704 0.091502868 0.99580485 0 0
0.033712573 0.019463796 0.01106111 -0.52620918 -0.85035521 0 0
0.08772032 0.024884686 0.011048744 0.68518287 -0.72837114 0 0
0 0.038475819 0.01101035 -1 0 0 0
0 0.044794858 0.011218406 -1 0 0 0
0 0.051608671 0.011017314 -1 0 0 0
0.09191256 0.075669393 0.011163907 -0.88089466 -0.47331235 0 0
0.023547398 0.08623895 0.011022876 -0.75756538 0.65275937 0 0
0 0.11818143 0.011009497 -1 0 0 0
0 0.14035907 0.011109807 -1 0 0 0
0.016554806 0 0.011283429 0 -1 0 0
0.01722911 0 0.011367083 0 -1 0 0
0.10903534 0 0.011435375 0 -1 0 0
0.10857423 0.0127 0.011313044 0 1 0 0
0.084888577 0.029283829 0.011470275 -0.70400858 0.71019155 0 0
0.017435841 0.037337802 0.011393945 -0.89298004 -0.45009625 0 0
0.0127 0.057124775 0.011399837 1 0 0 0
0.0127 0.057478469 0.011495905 1 0 0 0
0.10062491 0.066693731 0.011461736 0.97723305 0.21216889 0 0
0.0127 0.077581353 0.011294127 1 0 0 0
0 0.077933989 0.01125425 -1 0 0 0
0.029332316 0.084937483 0.011451989 0.71019155 -0.70400858 0 0
0.02731071 0.090099849 0.011479985 -0.67236203 0.74022251 0 0
0.047558479 0.10059228 0.011406546 -0.22069535 0.97534281 0 0
0.063169837 0.10124778 0.011281823 0.13485692 0.99086511 0 0
0.044883132 0 0.011564431 0 -1 0 0
0.085706115 0 0.011730838 0 -1 0 0
0.023193361 0.0127 0.011650459 0 1 0 0
0 0.013620992 0.011581656 -1 0 0 0
0.091328874 0.037675306 0.011742544 -0.86819369 0.49622548 0 0
0.09493944 0.046166018 0.011520692 -0.96005023 0.2798278 0 0
0.0127 0.048682328 0.011539461 1 0 0 0
0.03371276 0.094937921 0.011510462 -0.52620918 0.85035521 0 0
0 0.10908452 0.011613822 -1 0 0 0
0.035208832 0 0.011819206 0 -1 0 0
0.12152019 0 0.011751687 0 -1 0 0
0.12978721 0 0.011955958 0 -1 0 0
0.15217246 0.0127 0.011938698 0 1 0 0
0.077260636 0.017535049 0.011780713 0.45009625 -0.89298004 0 0
0.079250202 0.018605608 0.011838688 0.49622479 -0.8681941 0 0
0.088636413 0.025774667 0.011980114 0.71018529 -0.7040149 0 0
0.012978494 0.052711487 0.011881603 -0.99496871 -0.10018642 0 0
0 0.07554616 0.011920963 -1 0 0 0
0.0952546 0.080172181 0.011914733 0.85490954 0.51877713 0 0
0.01986482 0.081321284 0.011917174 -0.84103894 0.54097456 0 0
0 0.086244769 0.011871441 -1 0 0 0
0.034026563 0.088964507 0.011869913 0.59131241 -0.80644262 0 0
0.064234436 0.095885418 0.011803821 -0.17794713 -0.98404002 0 0
0.059030049 0.096477091 0.011787847 -0.047966465 -0.99884897 0 0
0.046248257 0.10027988 0.01185126 -0.24614727 0.96923244 0 0
0.021318026 0 0.012075515 0 -1 0 0
0.015312232 0.012699999 0.012106858 0 1 0 0
0.099470191 0.012700001 0.012235685 0 1 0 0
0.12888837 0.012700001 0.012243591 0 1 0 0
0.063552782 0.018398438 0.012162458 -0.16074115 0.98699659 0 0
0.0127 0.031599261 0.012027711 1 0 0 0
0 0.039042737 0.012038051 -1 0 0 0
0.023540057 0.07752154 0.012231884 0.85491449 -0.51876909 0 0
0.078577124 0.090201385 0.01220581 -0.54098588 -0.84103173 0 0
0.077061102 0.091135174 0.012062749 -0.50376165 -0.86384273 0 0
0.062083244 0.09621539 0.012099529 -0.12620182 -0.99200457 0 0
0.066771261 0.0127 0.012441852 0 1 0 0
0.08543542 0.012699999 0.012411989 0 1 0 0
0.059017118 0.017923886 0.012392199 -0.047982711 0.9988482 0 0
0.025719469 0.025820784 0.012441721 -0.71018529 -0.7040149 0 0
0.020261489 0.03247726 0.012317256 -0.83146918 -0.5555709 0 0
0.0127 0.033385351 0.012290983 1 0 0 0
0.095699288 0.065190598 0.012283392 -0.97904688 -0.20363516 0 0
0 0.078184418 0.012441807 -1 0 0 0
0.0127 0.096252769 0.012329143 1 0 0 0
0.052927919 0.1014449 0.012376671 -0.10018642 0.99496871 0 0
0.0624253 0.10134227 0.01249296 0.11753217 0.99306911 0 0
0 0.12782092 0.012278541 -1 0 0 0
0.003312381 0.142875 0.012439676 0 1 0 0
0.044612017 0 0.01261468 0 -1 0 0
0.028816551 0.0127 0.012577645 0 1 0 0
0.094110027 0.0127 0.012503649 0 1 0 0
0.096421771 0.012711721 0.012700001 0 0 -1 0
0.086467132 0.012786146 0.0127 0 0 -1 0
0.082399897 0.013488536 0.012699999 0 0 -1 0
0.084134832 0.013277797 0.0127 0 0 -1 0
0.078317329 0.013557309 0.012699999 0 0 -1 0
0.090216689 0.014061689 0.012700001 0 0 -1 0
0.075276613 0.014408316 0.0127 0 0 -1 0
0.10905218 0.014611629 0.0127 0 0 -1 0
0.050579067 0.014813809 0.0127 0 0 1 0
0.10325421 0.015627678 0.0127 0 0 -1 0
0.044980019 0.016154293 0.012700001 0 0 1 0
0.074878968 0.016392894 0.0127 0 0 -1 0
0.04440435 0.016658718 0.012700001 0 0 1 0
0.094173796 0.017275803 0.012700001 0 0 -1 0
0.054939564 0.017947039 0.012525355 0.056690041 0.99839187 0 0
0.092169419 0.01795882 0.0127 0 0 -1 0
0.044575028 0.018890718 0.0127 0 0 1 0
0.086960986 0.019136997 0.0127 0 0 -1 0
0.084079884 0.019545102 0.012699999 0 0 -1 0
0.035297457 0.019931102 0.0127 0 0 1 0
0.083702035 0.020046771 0.012700001 0 0 -1 0
0.067886859 0.020349778 0.0127 0 0 -1 0
0.035727911 0.020825446 0.0127 0 0 1 0
0.066435188 0.020950813 0.0127 0 0 -1 0
0.069351897 0.02082454 0.012699999 0 0 -1 0
0.031737756 0.021114243 0.0127 0 0 1 0
0.1034369 0.02116086 0.012699999 0 0 -1 0
0.066714913 0.021556001 0.012700001 0 0 -1 0
0.10603573 0.021742128 0.0127 0 0 -1 0
0.052119434 0.023141462 0.0127 0 0 -1 0
0.087089911 0.02356223 0.0127 0 0 -1 0
0.064929843 0.024363739 0.012699999 0 0 -1 0
0.094880596 0.024912842 0.012699999 0 0 -1 0
0.047797821 0.025434621 0.0127 0 0 -1 0
0.072800964 0.025702033 0.0127 0 0 -1 0
0.10123283 0.026144261 0.0127 0 0 -1 0
0.10504114 0.026051007 0.012700001 0 0 -1 0
0.1100933 0.026508987 0.0127 0 0 -1 0
0.065859646 0.026889196 0.012700001 0 0 -1 0
0.024529755 0.027061626 0.012685792 -0.73432153 -0.67880189 0 0
0.044787511 0.027139476 0.0127 0 0 -1 0
0.070110105 0.027060799 0.0127 0 0 -1 0
0.066012636 0.027426802 0.0127 0 0 -1 0
0.080119483 0.0274939 0.012700001 0 0 -1 0
0.043530192 0.027628304 0.0127 0 0 -1 0
0.083455205 0.027963612 0.0127 0 0 -1 0
0.063424774 0.028323447 0.012700001 0 0 -1 0
0.029855885 0.028947623 0.012623155 0.69778788 0.71630448 0 0
0.026969023 0.02903562 0.012700001 0 0 1 0
0.028808534 0.02916028 0.0127 0 0 1 0
0.051189266 0.029895896 0.0127 0 0 -1 0
0.098889098 0.030107446 0.012699999 0 0 -1 0
0.051928684 0.030907935 0.0127 0 0 -1 0
0.070088804 0.030945271 0.0127 0 0 -1 0
0.062441848 0.03119253 0.0127 0 0 -1 0
0.046558887 0.031284332 0.0127 0 0 -1 0
0.074324556 0.031949453 0.012700001 0 0 -1 0
0.094416067 0.031770315 0.012699999 0 0 -1 0
0.039234657 0.032077201 0.0127 0 0 -1 0
0.045217257 0.032233857 0.0127 0 0 -1 0
0.10762332 0.032461643 0.0127 0 0 -1 0
0.054107808 0.032635029 0.012699999 0 0 -1 0
0.05991029 0.0325123 0.012700001 0 0 -1 0
0.10628614 0.032960754 0.0127 0 0 -1 0
0.10084984 0.03311225 0.0127 0 0 -1 0
0.10117795 0.033173081 0.012699999 0 0 -1 0
0.074323505 0.034216776 0.0127 0 0 -1 0
0.058664463 0.034382701 0.012699999 0 0 -1 0
0.08231847 0.034646004 0.012700001 0 0 -1 0
0.059152465 0.034914486 0.012699999 0 0 -1 0
0.10758502 0.035154212 0.0127 0 0 -1 0
0.075195283 0.035645064 0.0127 0 0 -1 0
0.066848561 0.035812367 0.0127 0 0 -1 0
0.067339234 0.035823863 0.0127 0 0 -1 0
0.08682435 0.036237337 0.0127 0 0 -1 0
0.11025206 0.036058556 0.0127 0 0 -1 0
0.04646387 0.036749251 0.012700001 0 0 -1 0
0.055368312 0.036738399 0.012699999 0 0 -1 0
0.058568493 0.03725291 0.0127 0 0 -1 0
0.050953455 0.037699509 0.0127 0 0 -1 0
0.066229567 0.038002487 0.012699999 0 0 -1 0
0.080003008 0.038703553 0.012699999 0 0 -1 0
0.088345274 0.03878903 0.012700001 0 0 -1 0
0.089736596 0.038855918 0.0127 0 0 -1 0
0.071789786 0.039170828 0.012700001 0 0 -1 0
0.019007485 0.039437566 0.0127 0 0 1 0
0.02156768 0.039385777 0.0127 0 0 1 0
0.084865488 0.039342083 0.012700001 0 0 -1 0
0.071629241 0.039919488 0.012699999 0 0 -1 0
0.054395527 0.040043235 0.0127 0 0 -1 0
0.045284078 0.04037194 0.0127 0 0 -1 0
0.068637073 0.040298477 0.0127 0 0 -1 0
0.098812431 0.040982395 0.012700001 0 0 -1 0
0.040314645 0.041238233 0.0127 0 0 -1 0
0.10605766 0.04113904 0.012700001 0 0 -1 0
0.057634577 0.04134389 0.0127 0 0 -1 0
0.059009377 0.041490432 0.012699999 0 0 -1 0
0.10849778 0.041337304 0.0127 0 0 -1 0
0.11197397 0.041681532 0.0127 0 0 -1 0
0.11327199 0.041969437 0.0127 0 0 -1 0
0.068620414 0.042561635 0.0127 0 0 -1 0
0.064198434 0.042827643 0.012699999 0 0 -1 0
0.091086365 0.042831741 0.012699999 0 0 -1 0
0.035734657 0.043728858 0.0127 0 0 -1 0
0.05194236 0.044351656 0.0127 0 0 -1 0
0.076014861 0.04428152 0.0127 0 0 -1 0
0.031693913 0.044716809 0.012699999 0 0 -1 0
0.037105653 0.044542454 0.0127 0 0 -1 0
0.069748752 0.044566534 0.0127 0 0 -1 0
0.089644715 0.044710584 0.0127 0 0 -1 0
0.092565529 0.044748347 0.0127 0 0 -1 0
0.093468487 0.044687726 0.012700001 0 0 -1 0
0.10968985 0.044940189 0.012699999 0 0 -1 0
0.074333966 0.045009635 0.0127 0 0 -1 0
0.035189465 0.045404077 0.012699999 0 0 -1 0
0.091826931 0.045996364 0.012699999 0 0 -1 0
0.11298036 0.045764931 0.0127 0 0 -1 0
0.10495378 0.046220634 0.0127 0 0 -1 0
0.014701057 0.046310555 0.0127 0 0 1 0
0.071245931 0.046308182 0.0127 0 0 -1 0
0.077073552 0.046540309 0.0127 0 0 -1 0
0.089239053 0.047336441 0.0127 0 0 -1 0
0.10057005 0.047460258 0.012619205 0.97534281 -0.22069535 0 0
0.077541962 0.048303388 0.012699999 0 0 -1 0
0.055988744 0.048615217 0.0127 0 0 -1 0
0.094001971 0.048676085 0.012700001 0 0 -1 0
0.034790758 0.049181357 0.0127 0 0 -1 0
0.022452129 0.04954173 0.012699999 0 0 -1 0
0.077492543 0.049648456 0.0127 0 0 -1 0
0.062643155 0.04989408 0.0127 0 0 -1 0
0.10287132 0.050066799 0.0127 0 0 -1 0
0.061938696 0.050344288 0.0127 0 0 -1 0
0.027913816 0.05146813 0.0127 0 0 -1 0
0.084581673 0.051400144 0.012700001 0 0 -1 0
0.095297694 0.051718108 0.0127 0 0 -1 0
0.053943221 0.052155022 0.012699999 0 0 -1 0
0.062552787 0.052021187 0.012699999 0 0 -1 0
0.061742119 0.05235818 0.0127 0 0 -1 0
0.077990144 0.05236619 0.0127 0 0 -1 0
0.037124977 0.052565932 0.0127 0 0 -1 0
0.038643956 0.052570574 0.0127 0 0 -1 0
0.024918083 0.052933156 0.0127 0 0 -1 0
0.063538745 0.052828033 0.0127 0 0 -1 0
0.076982185 0.053082123 0.012700001 0 0 -1 0
0.024254801 0.053815883 0.0127 0 0 -1 0
0.073024005 0.053788856 0.0127 0 0 -1 0
0.064425647 0.054119695 0.0127 0 0 -1 0
0.05817306 0.05460475 0.0127 0 0 -1 0
0.059799995 0.054670945 0.0127 0 0 -1 0
0.10561176 0.055054605 0.012699999 0 0 -1 0
0.046314415 0.055441879 0.0127 0 0 -1 0
0.072600186 0.055477895 0.0127 0 0 -1 0
0.048382036 0.055711299 0.0127 0 0 -1 0
0.027672084 0.056177683 0.0127 0 0 -1 0
0.078891695 0.056147829 0.012700001 0 0 -1 0
0.024691932 0.056322645 0.0127 0 0 -1 0
0.10485087 0.056302901 0.0127 0 0 -1 0
0.066753365 0.056599356 0.0127 0 0 -1 0
0.038976148 0.056861162 0.0127 0 0 -1 0
0.060429551 0.057245634 0.0127 0 0 -1 0
0.045519158 0.057434566 0.012700001 0 0 -1 0
0.050602365 0.057267621 0.012700001 0 0 -1 0
0.093816675 0.05786385 0.012699999 0 0 -1 0
0.10558864 0.058232576 0.012699999 0 0 -1 0
0.05520419 0.058414444 0.0127 0 0 -1 0
0.10496881 0.058406457 0.0127 0 0 -1 0
0.051241517 0.0586369 0.0127 0 0 -1 0
0.082883656 0.058521524 0.012700001 0 0 -1 0
0.056250062 0.058780883 0.012700001 0 0 -1 0
0.077253319 0.058915667 0.012700001 0 0 -1 0
0.041936021 0.05908753 0.0127 0 0 -1 0
0.082315356 0.059644327 0.0127 0 0 -1 0
0.023500409 0.060324378 0.012700001 0 0 -1 0
0.049118243 0.06033057 0.0127 0 0 -1 0
0.083181441 0.060647428 0.0127 0 0 -1 0
0.031210303 0.061358612 0.012699999 0 0 -1 0
0.066664144 0.061474457 0.0127 0 0 -1 0
0.025684515 0.061954595 0.0127 0 0 -1 0
0.043931119 0.06201195 0.012699999 0 0 -1 0
0.05026463 0.062812433 0.012699999 0 0 -1 0
0.056868486 0.062857702 0.0127 0 0 -1 0
0.046120234 0.063024029 0.012700001 0 0 -1 0
0.034246746 0.063383296 0.012700001 0 0 -1 0
0.021922551 0.063729204 0.0127 0 0 -1 0
0.046598367 0.063904695 0.012699999 0 0 -1 0
0.019096144 0.064230368 0.012700001 0 0 -1 0
0.040258005 0.064210698 0.012700001 0 0 -1 0
0.055101786 0.064244255 0.012699999 0 0 -1 0
0.07766825 0.064171284 0.0127 0 0 -1 0
0.10512894 0.064232506 0.0127 0 0 -1 0
0.11026227 0.064233474 0.012700001 0 0 -1 0
0.03617043 0.064528324 0.012700001 0 0 -1 0
0.088737749 0.065448552 0.012699999 0 0 -1 0
0.047111865 0.06660296 0.0127 0 0 -1 0
0.063983813 0.066601656 0.012700001 0 0 -1 0
0.066342667 0.066979915 0.012699999 0 0 -1 0
0.076902814 0.066874683 0.012699999 0 0 -1 0
0.040873058 0.067043386 0.0127 0 0 -1 0
0.050237283 0.067031763 0.0127 0 0 -1 0
0.034750205 0.067290649 0.012699999 0 0 -1 0
0.10653444 0.067279205 0.0127 0 0 -1 0
0.048882194 0.067589693 0.0127 0 0 -1 0
0.089140862 0.067941241 0.0127 0 0 -1 0
0.065356761 0.068021484 0.012700001 0 0 -1 0
