# .PCD v0.7 - Point Cloud Data file format
VERSION 0.7
FIELDS x y z
SIZE 4 4 4
TYPE F F F
COUNT 1 1 1
WIDTH 1420
HEIGHT 1
VIEWPOINT 0 0 0 1 0 0 0
POINTS 1420
DATA ascii
0.34111238 0.33473092 0.022994995
0.31370771 0.36380446 0.022122193
0.31418771 0.36379659 0.02213442
0.3134957 0.36448014 0.022789322
0.30823463 0.3708148 0.022258498
0.2818318 0.39013636 0.022565968
0.27884537 0.39558941 0.022098292
0.27921617 0.39560688 0.022101611
0.27875233 0.39623135 0.022828415
0.26960635 0.40166384 0.02254314
0.22705829 0.44165033 0.022190399
0.22759843 0.44223434 0.022968471
0.22835413 0.44223154 0.022954646
0.21703267 0.45476562 0.022099882
0.21830982 0.45521545 0.022980541
0.20059836 0.46705687 0.022160672
0.19371071 0.47098702 0.022065908
0.19735956 0.47529393 0.022992659
0.1779286 0.48640627 0.022659361
0.18196008 0.48642486 0.02264487
0.18051767 0.49358088 0.022583272
0.43847567 0.27888584 0.023818847
0.43900892 0.2788797 0.023822166
0.44779706 0.28856725 0.023098957
0.37875092 0.2989769 0.023264971
0.38308465 0.29898852 0.023226205
0.38129291 0.29972982 0.023813535
0.39164099 0.29974407 0.023798954
0.39206192 0.29972947 0.023800146
0.37256646 0.30856103 0.02316409
0.39981914 0.30857456 0.023175657
0.40038806 0.30858004 0.023165267
0.36571598 0.30931902 0.023721129
0.36930174 0.30929583 0.02375472
0.37111086 0.30929983 0.023741618
0.35946655 0.31886423 0.023931116
0.36103892 0.31809765 0.023364846
0.40842769 0.3180905 0.023370452
0.40913877 0.31883174 0.023951929
0.41485116 0.31810653 0.023375183
0.41706488 0.31810355 0.023373015
0.35175824 0.32681274 0.023346033
0.34885532 0.32751793 0.023968417
0.35027018 0.32752693 0.023959886
0.34063816 0.33541709 0.023676779
0.34101999 0.33543104 0.023641147
0.34394124 0.33543712 0.02362448
0.33062866 0.34328771 0.023553845
0.32762861 0.35042644 0.023039274
0.32831514 0.35043126 0.023040358
0.32936281 0.3504287 0.023046009
0.32164037 0.35107452 0.02373907
0.32362771 0.35110617 0.023688458
0.32572231 0.35110706 0.023706958
0.32647184 0.35110962 0.023695152
0.32723308 0.35112053 0.023681454
0.31579235 0.35822165 0.023390599
0.31682348 0.35819077 0.023417044
0.31853816 0.35816276 0.023457833
0.31922361 0.35816801 0.02346345
0.32039776 0.35816407 0.023448858
0.30887312 0.36518991 0.0234299
0.31325299 0.36516815 0.023452599
0.28987336 0.38465559 0.023161583
0.29021275 0.38467151 0.023134116
0.29421252 0.38457912 0.023240834
0.28143686 0.39077055 0.023291405
0.28674293 0.39145225 0.023959555
0.27026221 0.4022823 0.023299459
0.25290707 0.41842318 0.023287263
0.22656563 0.44212347 0.023045063
0.22893813 0.44271094 0.023796465
0.20828041 0.45569223 0.023839597
0.2119354 0.45966673 0.023462664
0.20592242 0.46356696 0.023230523
0.17771772 0.48679906 0.023569517
0.17933264 0.49020112 0.023021188
0.43974862 0.27963775 0.024349596
0.3769874 0.30046314 0.02436785
0.37913582 0.30047065 0.02437545
0.38341898 0.30048108 0.024345804
0.39274675 0.30048615 0.024351206
0.36791942 0.31078875 0.024875458
0.3714357 0.31077641 0.024886001
0.35946161 0.31959045 0.024530146
0.41343951 0.31953663 0.024579857
0.41516414 0.31956881 0.024548281
0.33806694 0.33683062 0.024877951
0.33991462 0.33645535 0.024599172
0.34045678 0.33611751 0.0242856
0.32321638 0.35179496 0.024340659
0.32484123 0.35180086 0.024345603
0.32549098 0.35180414 0.024342574
0.3254979 0.35249776 0.024983879
0.31431937 0.35889041 0.024084214
0.31542176 0.35888922 0.024057753
0.31318644 0.35950971 0.024816632
0.30973965 0.365888 0.024062052
0.31028745 0.36590135 0.024049953
0.31166184 0.36590046 0.024069812
0.31244338 0.36587548 0.024082042
0.31093958 0.36658031 0.024717517
0.31146878 0.36658382 0.024720263
0.30240446 0.37282276 0.024296734
0.30401403 0.37348628 0.024969265
0.2921035 0.37904924 0.024015095
0.29892874 0.37937284 0.024356332
0.2901389 0.38593286 0.024597175
0.29411426 0.38586897 0.024618618
0.27846083 0.39748478 0.02428386
0.27091616 0.40288705 0.024031617
0.271568 0.40288252 0.024046551
0.27237725 0.40352952 0.024758048
0.25512248 0.41427004 0.024658021
0.25238013 0.4193002 0.024428949
0.23230565 0.43867111 0.024604987
0.2298117 0.44323206 0.024657082
0.21477169 0.45175946 0.024251629
0.20920885 0.45615673 0.024700548
0.20421714 0.46008718 0.024371155
0.2132583 0.4601813 0.024284244
0.20032933 0.4645313 0.024946652
0.19510159 0.47225845 0.024759218
0.17979169 0.48339802 0.024175834
0.43103796 0.27066338 0.025907539
0.37518254 0.30198491 0.025462121
0.37942836 0.3019712 0.025490727
0.36646956 0.31153536 0.025425829
0.37011272 0.31149882 0.025479957
0.40347829 0.31228352 0.025984708
0.35804838 0.32025337 0.025186494
0.36164397 0.32031357 0.025103744
0.41191939 0.32101923 0.025729049
0.41380525 0.32100081 0.025747444
0.34564647 0.32892233 0.025200941
0.3524099 0.32897747 0.025146
0.34764111 0.32967162 0.025799442
0.34957016 0.32967448 0.025777519
0.33771574 0.33756638 0.025480565
0.33881366 0.33752787 0.025512613
0.3390978 0.33753997 0.025507342
0.34422582 0.33757848 0.025451548
0.32858697 0.34538919 0.025471333
0.32947659 0.34539276 0.025447067
0.42814401 0.35322553 0.025571629
0.30470461 0.37414241 0.025645554
0.2973102 0.38035923 0.025416899
0.29803967 0.38035697 0.025405996
0.2853452 0.38720673 0.025996428
0.28115994 0.39271891 0.025401179
0.27852908 0.39873081 0.025743898
0.25220305 0.42015654 0.025596127
0.22605279 0.43926358 0.025372028
0.23286039 0.43917841 0.025454018
0.23328048 0.43916458 0.025451664
0.22964862 0.44376218 0.025455225
0.21605122 0.45223743 0.025115725
0.20898578 0.45665443 0.025548026
0.20970714 0.45665568 0.025562454
0.21083844 0.45673108 0.025496934
0.21379334 0.46063668 0.025154747
0.20426536 0.464912 0.025870822
0.20500261 0.4649567 0.025854167
0.18057254 0.48379552 0.025107514
0.17725277 0.48754001 0.025432501
0.18303365 0.48754948 0.025430009
0.17860776 0.49126726 0.025821865
0.37766549 0.30270833 0.02603668
0.37376028 0.30349058 0.026552387
0.37769994 0.30345798 0.026581988
0.39570615 0.30347979 0.026576117
0.36467648 0.31223631 0.026056185
0.35475665 0.32173699 0.026318055
0.35656047 0.32170516 0.026367962
0.35845762 0.32170677 0.026349403
0.41193074 0.32175493 0.026308972
0.35480261 0.32246453 0.026899818
0.34592545 0.33037162 0.026405297
0.34369689 0.33113104 0.026966624
0.34802455 0.33111453 0.026990406
0.3277927 0.34682453 0.026679199
0.32833385 0.34681451 0.026696
0.30586398 0.3678875 0.026085727
0.30688548 0.36857492 0.026757643
0.30744523 0.36856735 0.026756432
0.29227692 0.381006 0.026109137
0.29723799 0.38165724 0.026800547
0.28992853 0.38779819 0.026782181
0.29040939 0.38719642 0.026039705
0.27677855 0.39393228 0.026875474
0.28116125 0.39335078 0.026098456
0.27839017 0.39937538 0.026469484
0.26070184 0.41074502 0.026875813
0.26193681 0.41074818 0.026890978
0.26231885 0.41014063 0.02612856
0.26371023 0.41072911 0.026885811
0.26404083 0.41071612 0.026897211
0.26518774 0.41078514 0.026827496
0.25489873 0.4154548 0.026172325
0.26059601 0.4160288 0.026970711
0.25209716 0.42073643 0.026379745
0.22986627 0.4352017 0.026272614
0.22052243 0.44427025 0.026306253
0.2171517 0.45323235 0.026838358
0.20340729 0.46130073 0.026507404
0.20429537 0.46928573 0.02656268
0.20552796 0.46925139 0.026602875
0.19694653 0.47319639 0.02648586
0.18171942 0.48455119 0.02694523
0.1822505 0.48452902 0.026942987
0.371851 0.30425644 0.027108267
0.3737027 0.30461442 0.027388271
0.37581944 0.3042438 0.027124211
0.39666486 0.30424041 0.027134232
0.36290318 0.31371677 0.027194869
0.3650499 0.31372553 0.02718436
0.36715493 0.31375039 0.027141102
0.36106414 0.31446689 0.02774892
0.36501148 0.31446135 0.027764253
0.40490723 0.31450099 0.02769452
0.40533125 0.31449735 0.027691219
0.3568874 0.32318014 0.027518801
0.34627074 0.33182281 0.027595155
0.32720315 0.3482455 0.027912036
0.3083193 0.36923784 0.027417999
0.2922489 0.38230819 0.0274885
0.28538382 0.38853031 0.027395125
0.28986341 0.38844889 0.027486004
0.27093095 0.40064991 0.027905874
0.27636898 0.40063173 0.027931601
0.27771753 0.4003436 0.027546789
0.25473431 0.41662288 0.027726188
0.25505546 0.41663045 0.027720079
0.2465362 0.42654282 0.027527388
0.23175666 0.43622386 0.027937956
0.23207116 0.43623787 0.02792662
0.23790386 0.43624914 0.027897179
0.23829302 0.43625396 0.027901161
0.23479149 0.44024628 0.027084488
0.23515734 0.44024026 0.027076457
0.22111535 0.44480324 0.027131248
0.22164002 0.44534057 0.027951147
0.22423989 0.4493165 0.027331352
0.20856577 0.453767 0.027624909
0.19672778 0.47361499 0.027369741
0.18876633 0.47739804 0.02744364
0.18907607 0.47742963 0.027443074
0.18280414 0.48489118 0.027865373
0.44706628 0.28498644 0.028040998
0.4470686 0.28575641 0.028564386
0.38275796 0.29616088 0.028494369
0.38489184 0.29616719 0.028494552
0.37258354 0.30650401 0.028773755
0.36143219 0.31595916 0.028876752
0.36323804 0.31556392 0.028616745
0.35147375 0.32465953 0.028679341
0.35362935 0.3246451 0.028705217
0.35720372 0.32465315 0.028687585
0.34836119 0.33254796 0.028191745
0.34442082 0.33330065 0.028761163
0.34663165 0.33326489 0.028788351
0.31811666 0.35596269 0.028196119
0.31938878 0.35598481 0.028166413
0.32048935 0.35668325 0.028802872
0.31120783 0.3629784 0.028032608
0.30894452 0.36990857 0.028102446
0.30127478 0.37061661 0.028754037
0.29651171 0.37681919 0.028375801
0.2978189 0.37680423 0.028367553
0.29852706 0.37683177 0.0283635
0.29904866 0.37683904 0.028354295
0.29638875 0.3830409 0.028123755
0.28472409 0.38948321 0.028457116
0.27180287 0.40129197 0.028613817
0.27231541 0.40130347 0.028626051
0.27307534 0.40125978 0.02866086
0.27490404 0.40122867 0.028698754
0.27599022 0.40123177 0.028685626
0.2596035 0.41195601 0.0283693
0.26032937 0.41198134 0.028354544
0.25172219 0.42245597 0.028734196
0.24578583 0.42715347 0.028250296
0.24638084 0.42714554 0.028280184
0.23851296 0.43171704 0.028039157
0.23343018 0.43680924 0.028700314
0.22450694 0.44587809 0.02874767
0.22540238 0.45032823 0.028992444
0.21941477 0.45426714 0.028453287
0.21318817 0.45863855 0.028921548
0.20295393 0.46243513 0.028694969
0.20175853 0.46638846 0.028406732
0.20403516 0.46631294 0.028475411
0.19436392 0.47023767 0.028294984
0.43579948 0.27607936 0.029488321
0.44546402 0.28650939 0.029100541
0.44744229 0.28728706 0.029621489
0.38282394 0.29690611 0.029033516
0.38451967 0.29693127 0.029023405
0.38671064 0.29689997 0.029060271
0.38708478 0.29690343 0.029057272
0.37088212 0.30720872 0.029357936
0.37258741 0.30723262 0.029347353
0.4153285 0.31672889 0.029406648
0.41531372 0.31747019 0.029978793
0.35353822 0.32539099 0.029285789
0.342255 0.33402538 0.029347882
0.34474051 0.33475125 0.029946942
0.34688765 0.33472574 0.029976889
0.32132602 0.35739034 0.029434431
0.30201024 0.37129354 0.029409174
0.30348182 0.3712756 0.029424366
0.29537678 0.37747395 0.029062655
0.29649824 0.37747723 0.029050808
0.29974449 0.37751222 0.029017564
0.3002767 0.37750351 0.029026087
0.30193332 0.37748826 0.029025007
0.30114102 0.37817752 0.029701099
0.28805548 0.38430369 0.029557455
0.29200646 0.38429499 0.029559262
0.27610371 0.39650929 0.029741511
0.28105921 0.39649493 0.029761419
0.27337715 0.40188307 0.029388685
0.27428558 0.40186357 0.029409889
0.27570087 0.4018566 0.029416364
0.25822812 0.40789407 0.029886324
0.25971532 0.40784347 0.029919878
0.26009598 0.40723801 0.029191792
0.26107058 0.40783685 0.029924165
0.26477888 0.40786886 0.029904328
0.26542169 0.40783972 0.029917911
0.266689 0.40718973 0.029218093
0.26762411 0.4078036 0.029967807
0.26840025 0.40784502 0.029934518
0.25551495 0.41254914 0.029130585
0.25620317 0.41313916 0.029894982
0.2548762 0.41780162 0.029249478
0.25008726 0.41843128 0.02998453
0.24659097 0.42302752 0.029515214
0.2455948 0.42773682 0.029048629
0.24773297 0.42763895 0.029118426
0.24458826 0.42820156 0.02992662
0.24532491 0.4282819 0.029850621
0.2358335 0.43735778 0.029518731
0.23688689 0.43734616 0.029513936
0.23037159 0.44183689 0.029533938
0.21589062 0.4508158 0.029855575
0.18130895 0.48196423 0.029436383
0.17670783 0.48905343 0.029077794
0.37962732 0.29841346 0.030147195
0.38567054 0.29843658 0.030116796
0.3870855 0.2984162 0.030136988
0.38986567 0.29843134 0.030138832
0.38168228 0.2991823 0.030673396
0.38357064 0.29918265 0.030652065
0.38986662 0.29919302 0.0306793
0.36936772 0.30870628 0.030481901
0.36171597 0.31745231 0.03001016
0.35958695 0.31823474 0.030521385
0.36166674 0.31821275 0.030568123
0.41345555 0.31821454 0.030553643
0.41534957 0.31820339 0.0305553
0.34896457 0.32686383 0.030420654
0.3522293 0.32685035 0.03042008
0.34219337 0.33547276 0.030543149
0.34474501 0.33546758 0.030552942
0.32198763 0.35809648 0.030071747
0.32239282 0.35810709 0.030054297
0.32309139 0.35809743 0.030065097
0.30453122 0.37197572 0.030064985
0.30483356 0.37200624 0.030042257
0.3056446 0.37268168 0.030714415
0.30619889 0.37266201 0.030737847
0.29457313 0.37882978 0.030398652
0.29188657 0.38497567 0.03023082
0.27922392 0.39175433 0.030911386
0.28458124 0.39148265 0.03073629
0.27564174 0.39715034 0.030453403
0.28101358 0.39713436 0.030468777
0.25962621 0.40845269 0.030675136
0.26173317 0.40847832 0.030640554
0.26357254 0.40852153 0.03060877
0.2642709 0.40851688 0.030626308
0.26536199 0.40847272 0.030653477
0.25840181 0.41374952 0.030646544
0.25453401 0.41869956 0.030392416
0.24577183 0.4236033 0.030291975
0.24433184 0.42876273 0.030715734
0.23783332 0.43339151 0.030427936
0.23837751 0.4333806 0.030426532
0.23537183 0.43794638 0.030279793
0.21648809 0.45136887 0.030648783
0.21066168 0.45524561 0.030173331
0.20263082 0.46338624 0.030411508
0.19593838 0.47156256 0.030945413
0.12908316 0.47489303 0.030083731
0.12890381 0.47532332 0.030963972
0.12956777 0.47532004 0.030963682
0.37738651 0.2999261 0.031239733
0.37978786 0.29992306 0.031232927
0.38167483 0.29993922 0.03122627
0.38995102 0.29993403 0.031227566
0.37964714 0.30067849 0.031771425
0.36798847 0.30944377 0.031064529
0.3715654 0.30945539 0.031025324
0.3665545 0.31022614 0.031563833
0.37154126 0.31020582 0.031580467
0.40139878 0.31022847 0.031560976
0.35811844 0.31896454 0.031129286
0.40866715 0.31895232 0.031108044
0.40972316 0.3196879 0.031684514
0.34783974 0.32829809 0.031628743
0.35104126 0.32834095 0.031586375
0.35253352 0.32832009 0.031583332
0.34478402 0.33618033 0.031148504
0.33366024 0.34470284 0.03162073
0.33454317 0.34473532 0.031588718
0.3356784 0.3447386 0.031563848
0.30734485 0.36708456 0.031962644
0.27526176 0.39777386 0.031171631
0.27475929 0.39840305 0.031884979
0.26410201 0.40372384 0.031603456
0.26665461 0.40379089 0.031534996
0.26705885 0.40380597 0.031522177
0.26308548 0.40909058 0.031408444
0.26636413 0.40905786 0.03140793
0.25758854 0.41435134 0.031412009
0.24443838 0.42486733 0.031757582
0.24651644 0.42418742 0.031081252
0.24838391 0.42481607 0.031802446
0.23875591 0.42938793 0.031459615
0.24382725 0.42936206 0.031473402
0.23254701 0.4345209 0.031998295
0.22685617 0.43846506 0.031117823
0.22719601 0.43844122 0.031151194
0.22819689 0.43896407 0.031962853
0.21430445 0.46010911 0.031493466
0.21540663 0.46005267 0.031525433
0.12662828 0.47200722 0.031830564
0.19097227 0.47579169 0.031825759
0.19100574 0.48283041 0.031199809
0.37567163 0.30143011 0.032303315
0.3777734 0.30143631 0.032325368
0.37378198 0.30222684 0.032830928
0.37779668 0.30217749 0.032865748
0.36837012 0.31094664 0.03216064
0.40100366 0.31097317 0.032134973
0.37046129 0.31170636 0.032696851
0.35675603 0.32038361 0.032308828
0.41242033 0.32040924 0.032288797
0.35308278 0.3211391 0.032858081
0.35882223 0.3211503 0.032882005
0.41454425 0.3211661 0.032843862
0.34969026 0.32905746 0.032174125
0.3427766 0.33839869 0.032918766
0.33330199 0.34541047 0.03223332
0.33672976 0.34545153 0.032191887
0.33088744 0.34613323 0.032843392
0.33308765 0.34613109 0.03283133
0.30796665 0.36777121 0.032630436
0.30145085 0.37398899 0.032079384
0.30142128 0.37466949 0.032741871
0.29014111 0.38080359 0.032446627
0.29364818 0.38090122 0.032367025
0.29424053 0.38088226 0.032381687
0.28776231 0.38690877 0.032353181
0.2881268 0.38690966 0.032345351
0.27926314 0.3930161 0.032377351
0.27289444 0.39901656 0.032641772
0.26223302 0.40440476 0.032280784
0.26400346 0.40437633 0.032295693
0.26511744 0.4043417 0.032344848
0.26835379 0.40442455 0.032275751
0.25685808 0.4096868 0.032164011
0.24759823 0.42023146 0.032257322
0.24960464 0.42017645 0.032301005
0.24296036 0.42995757 0.032226622
0.2425395 0.43054312 0.032997828
0.23437011 0.43445355 0.032054864
0.22951192 0.43955338 0.032730136
0.22115475 0.44404435 0.032750059
0.21518907 0.44850916 0.032869782
0.2164377 0.44847476 0.032904174
0.22467574 0.44846815 0.032930337
0.2014873 0.46435487 0.032126095
0.12816659 0.47244316 0.032725509
0.1860593 0.47619742 0.032726683
0.18225345 0.48318863 0.032155711
0.18537253 0.48319536 0.032129209
0.18719217 0.48325121 0.032117788
0.1893667 0.48321003 0.032133561
0.17659962 0.49057233 0.032748997
0.3760584 0.30294675 0.033385482
0.37780067 0.30293703 0.033404708
0.39397287 0.30296206 0.033380922
0.37418091 0.30374163 0.033912592
0.39399421 0.3037163 0.033926141
0.36296269 0.3124432 0.03326888
0.36549196 0.31245548 0.033240538
0.36685967 0.31247807 0.033228904
0.36729231 0.31247282 0.033230849
0.36874348 0.31245923 0.033255626
0.40208676 0.31246787 0.033238158
0.36555535 0.31318593 0.033814099
0.35882592 0.32188511 0.03346001
0.41281104 0.32188773 0.033425506
0.41457638 0.32189375 0.033432633
0.41281012 0.32262957 0.033993639
0.4145892 0.32262611 0.033999827
0.34856015 0.33048403 0.033389326
0.34672368 0.3312149 0.03396339
0.34813428 0.33122438 0.033966288
0.33181828 0.3468442 0.033459812
0.3177385 0.36157125 0.033264622
0.31703216 0.36229819 0.033878218
0.30864406 0.36845487 0.033282842
0.30908284 0.36843109 0.033307571
0.29973045 0.3753612 0.033403795
0.30068961 0.37535566 0.03339193
0.30116341 0.3753525 0.033405956
0.29363292 0.38153666 0.033068482
0.28694534 0.38756412 0.033031859
0.28748277 0.38757336 0.033031967
0.26606953 0.40499628 0.033059668
0.2697534 0.40498841 0.033050105
0.26682305 0.40504014 0.033009805
0.25348246 0.41093558 0.033606343
0.25139946 0.41614252 0.033666492
0.25282359 0.41616905 0.033663008
0.24316043 0.42077291 0.033059832
0.24892512 0.42076677 0.033084422
0.24930143 0.42074442 0.033091646
0.24556258 0.42136014 0.033844173
0.23703071 0.43055344 0.033000674
0.23263696 0.43104047 0.033848092
0.23330116 0.4310863 0.033815652
0.23407125 0.43107396 0.033825658
0.23567063 0.43113238 0.033789545
0.24016002 0.43107235 0.033830408
0.24310762 0.43110824 0.03379079
0.23269957 0.43562049 0.033596456
0.22209135 0.4445653 0.033576876
0.21391788 0.45720577 0.033592146
0.1882734 0.48034936 0.033726212
0.1890513 0.48036164 0.03370801
0.19046286 0.48038435 0.033695426
0.18297482 0.48364079 0.033014204
0.18345186 0.48407626 0.033903845
0.18455479 0.4840641 0.033910818
0.44181141 0.28299737 0.034106825
0.44217479 0.28299654 0.034110233
0.44143757 0.28300458 0.034103055
0.44247836 0.28300321 0.034108426
0.38250986 0.29494429 0.03487473
0.37420046 0.30449605 0.03443959
0.37639451 0.30446428 0.034472298
0.37279195 0.30523735 0.034985118
0.37426049 0.30524212 0.034982052
0.36336923 0.31393415 0.034381174
0.36549902 0.31392658 0.034390897
0.36159307 0.31467098 0.034947071
0.35741818 0.32260257 0.034021329
0.35559374 0.32336354 0.034579638
0.34671527 0.33194405 0.034559496
0.32155985 0.35529292 0.034182191
0.32257056 0.35574341 0.034633748
0.32110202 0.356031 0.034779053
0.31574765 0.36297458 0.034553092
0.30462354 0.36985815 0.034555551
0.3030059 0.37670821 0.034742214
0.28975725 0.38285589 0.034446951
0.28257951 0.3888877 0.034407813
0.28682721 0.38890988 0.034386463
0.28724048 0.38887894 0.034412436
0.27909616 0.39495522 0.034488671
0.26549658 0.40101528 0.034700852
0.25520626 0.41153681 0.034372613
0.25625461 0.41152954 0.034388393
0.24638727 0.41676778 0.034416262
0.24870661 0.42199409 0.03456654
0.24695781 0.42202491 0.0345309
0.24165091 0.42652339 0.034146331
0.23395047 0.43166035 0.034599509
0.22603023 0.43613583 0.034439228
0.21086103 0.45390856 0.034845449
0.21448299 0.45773458 0.034401499
0.18686894 0.46961117 0.034508128
0.17951041 0.47710133 0.034477863
0.44003028 0.28531939 0.035639081
0.4475868 0.28532481 0.035629265
0.37281889 0.30599707 0.035524923
0.39547443 0.30522114 0.035012577
0.36370504 0.31542778 0.035503756
0.40614089 0.31621289 0.03598579
0.35189563 0.32411754 0.035155363
0.35376257 0.32482773 0.035741128
0.35448146 0.32483381 0.035728272
0.35556716 0.32410467 0.035143498
0.35776225 0.32407933 0.03517434
0.34470543 0.33270407 0.035130627
0.33481267 0.34197706 0.035949118
0.3354772 0.34141505 0.035530917
0.33658594 0.34196073 0.035979513
0.33717611 0.34195697 0.035990562
0.31514412 0.36363834 0.035235886
0.31440985 0.36429971 0.035908159
0.30528182 0.37055176 0.03521087
0.30604535 0.37054634 0.035202459
0.28946346 0.38353884 0.035112906
0.28943855 0.38421452 0.035774883
0.28216428 0.38953567 0.035098489
0.28151119 0.39023769 0.035775501
0.2821081 0.39020133 0.035802063
0.27892733 0.3956123 0.035195466
0.26346976 0.39629471 0.035864864
0.27889431 0.39625704 0.035895143
0.26608399 0.4016524 0.035424992
0.27012616 0.40754288 0.035913397
0.25437957 0.41215676 0.035094537
0.24492094 0.4180513 0.035848264
0.23885721 0.42768997 0.035702992
0.24030185 0.42775077 0.035648707
0.2492784 0.42771608 0.035670742
0.23127103 0.43228823 0.035345141
0.2114225 0.45439166 0.035694826
0.13387313 0.46627516 0.035530202
0.13494354 0.46636498 0.035479207
0.19823503 0.47010237 0.035345644
0.18925548 0.47753835 0.035370246
0.17329037 0.48484474 0.035732143
0.18451592 0.48488444 0.035687752
0.15874436 0.5052442 0.035983536
0.16359651 0.50521708 0.035996322
0.16338393 0.50841296 0.035803758
0.37720096 0.26374769 0.036579587
0.37930632 0.26373363 0.036608964
0.33831862 0.28612638 0.036150672
0.43602753 0.28608441 0.036161583
0.43862507 0.28684831 0.036671966
0.44579357 0.28648806 0.036404874
0.44876006 0.28686565 0.036648951
0.38151038 0.29723549 0.036440954
0.38328433 0.29724097 0.036449604
0.38582477 0.297984 0.036999248
0.37133092 0.30674207 0.036090676
0.39789891 0.30750722 0.036638726
0.35975438 0.31697226 0.036540683
0.36008337 0.31697363 0.036552452
0.36187238 0.31617379 0.036063671
0.36413151 0.31691062 0.036621194
0.41616672 0.31697887 0.036552127
0.35020092 0.32559973 0.036262177
0.35234302 0.32558298 0.036294598
0.3544943 0.32557189 0.036305651
0.34908855 0.32634836 0.036845811
0.34054244 0.33492887 0.036831897
0.34278086 0.33416873 0.036272381
0.33404222 0.34271884 0.036524266
0.33121312 0.35040361 0.036535308
0.3150956 0.35813594 0.03667286
0.31623018 0.35812175 0.036679756
0.24345788 0.36501843 0.036533829
0.31468078 0.36500913 0.036542702
0.2913079 0.37875742 0.036729049
0.26778412 0.40286463 0.036903456
0.26820627 0.40221137 0.036206
0.24552396 0.41865253 0.036598429
0.25653738 0.41860682 0.036644466
0.23686045 0.42376852 0.036851984
0.23737681 0.42321771 0.036051795
0.24030888 0.42313689 0.03612639
0.23692864 0.42830372 0.03643401
0.24009657 0.43339181 0.036947276
0.23027775 0.44226938 0.03678187
0.21311772 0.45494038 0.036498643
0.21584147 0.45927191 0.036897182
0.18426704 0.4742251 0.036237709
0.18727058 0.47794831 0.036264788
0.1899069 0.47796011 0.036261398
0.19357482 0.47795975 0.036234394
0.1853874 0.48526454 0.036624163
0.16342327 0.50207663 0.03619688
0.16414568 0.50205898 0.036211647
0.16661212 0.50203824 0.036233492
0.16741046 0.50206101 0.036203105
0.15844965 0.50555485 0.036930222
0.15915248 0.50556195 0.036935385
0.16118622 0.50555211 0.036919024
0.16241774 0.50557053 0.036912598
0.16310287 0.50556928 0.036925338
0.16430449 0.50522614 0.036002021
0.38051307 0.2652936 0.037579481
0.32246047 0.28765827 0.037170649
0.44588852 0.28763175 0.037179291
0.44837105 0.28763521 0.037174426
0.37758183 0.29874152 0.037543923
0.38000286 0.29875731 0.037533175
0.38580668 0.29875249 0.037519399
0.38825524 0.29874623 0.037544921
0.3717134 0.30825567 0.037176799
0.37350783 0.30827552 0.037139911
0.3986702 0.30826873 0.03717206
0.36994624 0.30899996 0.03771235
0.35837889 0.31773245 0.037078813
0.36224246 0.31767595 0.037162859
0.41398466 0.31772065 0.037105761
0.35831001 0.3184858 0.037641764
0.41651466 0.31847084 0.03766508
0.41834161 0.31847328 0.037668057
0.30109042 0.32704234 0.037455268
0.34934908 0.32783854 0.037987109
0.35274383 0.32706118 0.037432346
0.34020305 0.33564895 0.03743045
0.3306618 0.34338945 0.037177656
0.33042139 0.34411472 0.037783977
0.31623396 0.35882229 0.037305694
0.31735831 0.35880405 0.037328452
0.31725144 0.35952455 0.037944406
0.30782738 0.36573422 0.037146173
0.30783916 0.36639923 0.037810773
0.31328219 0.36639714 0.037815545
0.30807912 0.37328762 0.037828017
0.29437074 0.38614279 0.037878785
0.21207899 0.39152157 0.037158608
0.2091653 0.39223379 0.037813477
0.21200931 0.39218122 0.037862606
0.27872172 0.39817536 0.037995368
0.27909279 0.39819276 0.037998661
0.26298681 0.40349227 0.03761857
0.25340334 0.4191851 0.037420448
0.23969832 0.42435563 0.037627209
0.23924631 0.43396026 0.037720263
0.24103487 0.43394679 0.037741762
0.24245256 0.43396014 0.037720259
0.24322534 0.43400311 0.037683323
0.22176728 0.44286329 0.037540849
0.22332463 0.4428491 0.037546661
0.23158503 0.44290113 0.037517507
0.23235005 0.44289249 0.037513852
0.2275984 0.44719321 0.037693828
0.21766895 0.45160788 0.037860706
0.22058061 0.45162344 0.037853889
0.21699917 0.45540833 0.037375368
0.13178235 0.46344483 0.037504155
0.20879948 0.46347338 0.037505221
0.20950416 0.46348375 0.037483722
0.19998607 0.4709875 0.037129022
0.1293548 0.47465485 0.037121188
0.18376178 0.47464103 0.037128866
0.12985468 0.4750976 0.037996031
0.14317921 0.47514784 0.037973162
0.17196041 0.47512925 0.037999742
0.19476935 0.47840595 0.037139259
0.18458244 0.48200923 0.037325855
0.18528366 0.48202288 0.037311293
0.14089385 0.48569345 0.037505191
0.18147087 0.48566008 0.037546292
0.15220916 0.48927563 0.037839733
0.16978714 0.48928887 0.037846189
0.17630935 0.48927027 0.037860669
0.17880636 0.48925263 0.03785846
0.16603577 0.49925303 0.037426747
0.16746575 0.49921763 0.037447888
0.1647622 0.50240684 0.037142772
0.16545123 0.50240332 0.03714991
0.16603231 0.50239927 0.037146635
0.15977228 0.50588459 0.037879091
0.16050339 0.50588912 0.037861686
0.38007292 0.29951 0.038067847
0.38829875 0.29950744 0.03806575
0.39053637 0.2995097 0.038054541
0.39296687 0.2995339 0.03804915
0.39048928 0.30028766 0.038580742
0.42067206 0.30027223 0.038592543
0.36884749 0.31051284 0.03880728
0.37244737 0.31052363 0.038790129
0.29290742 0.31923378 0.038204841
0.41437161 0.31959134 0.038498603
0.34802127 0.32780766 0.038003128
0.34012371 0.33636689 0.03804874
0.34589857 0.33636683 0.038036581
0.34358704 0.33710349 0.03861123
0.32895374 0.34484047 0.038386088
0.3292459 0.3448534 0.038378194
0.27991462 0.34557921 0.038967304
0.32752678 0.35258412 0.038324613
0.32677016 0.3532961 0.038936373
0.32746378 0.35329807 0.038939815
0.31331718 0.3602463 0.038561545
0.315433 0.36026716 0.038520295
0.30885458 0.36712956 0.038408116
0.31044883 0.36716515 0.038384132
0.31285599 0.3671056 0.038448628
0.31321383 0.3670969 0.038447574
0.25118536 0.37399668 0.038445465
0.29161286 0.38009453 0.03807262
0.29537019 0.38074845 0.038766373
0.28785235 0.38680303 0.038593955
0.28995085 0.38690847 0.038466673
0.28179112 0.3928808 0.038520861
0.27689272 0.39884859 0.038701214
0.27797523 0.39883262 0.038706772
0.27973258 0.39884132 0.038703334
0.26364779 0.40410399 0.038370714
0.26213831 0.41002178 0.038859326
0.25966558 0.41521305 0.038826454
0.24641821 0.41986853 0.03811058
0.25631166 0.41981876 0.038146704
0.24961275 0.42039192 0.038924683
0.17832804 0.43001115 0.038798917
0.23619685 0.43007332 0.03875038
0.18387499 0.4344762 0.038565241
0.23657441 0.43453985 0.038508084
0.19714868 0.43896365 0.038411189
0.22362244 0.43894261 0.038416535
0.23274589 0.43893921 0.038417201
0.17117062 0.44775742 0.038473871
0.21692798 0.44777262 0.038469169
0.22669971 0.44776595 0.03848242
0.21574795 0.45212507 0.038708389
0.21614251 0.45216632 0.038666472
0.22021222 0.45213741 0.038690824
0.2164737 0.45594776 0.038180068
0.21484959 0.45650703 0.038970862
0.21524972 0.4564898 0.038992085
0.15026969 0.46020603 0.038635928
0.18163553 0.46023381 0.038633414
0.20966482 0.46018803 0.038655527
0.14088702 0.46396792 0.038357962
0.17869321 0.46396488 0.038344551
0.20354906 0.46395165 0.038361516
0.20641151 0.46390188 0.038393728
0.20824656 0.46391517 0.038381353
0.13939106 0.46771324 0.03812018
0.15774366 0.46771371 0.038125001
0.16857338 0.46767241 0.038155627
0.18657142 0.46771842 0.038123235
0.20226103 0.46768332 0.038140219
0.20313326 0.46766388 0.03817413
0.13920853 0.4682011 0.038980853
0.14827216 0.46818793 0.038974989
0.14983222 0.46818459 0.03897744
0.15619162 0.46817774 0.03897319
0.16657117 0.46817583 0.038997486
0.17411816 0.46821493 0.038972963
0.1853151 0.46818447 0.03898086
0.18604332 0.46820813 0.038983177
0.19361022 0.46817607 0.038992681
0.19793537 0.46821702 0.038966306
0.17299041 0.47190171 0.038894936
0.1815072 0.47143203 0.038012076
0.18706444 0.47189111 0.03886693
0.18995026 0.47191286 0.038844921
0.19098982 0.47192484 0.038862683
0.19783667 0.47185576 0.038917277
0.19824329 0.47190326 0.038866125
0.13838351 0.47554129 0.038881488
0.1534259 0.47560674 0.038839906
0.16081965 0.47561336 0.038839553
0.16135439 0.47562194 0.038843971
0.16205385 0.4755823 0.038858745
0.16674167 0.47558314 0.038840074
0.1714195 0.47556239 0.038872447
0.1723167 0.47509867 0.03801059
0.18356746 0.47559202 0.038850352
0.18427756 0.47511148 0.038000636
0.19164962 0.47558314 0.038841341
0.19255179 0.47562349 0.038831282
0.19442329 0.47557342 0.038849026
0.15891123 0.47885078 0.038011301
0.1606876 0.47880405 0.038039871
0.17795232 0.47878021 0.038057353
0.18414363 0.47882921 0.038046721
0.13276407 0.47923869 0.038943537
0.13497165 0.47923583 0.038941607
0.14756018 0.47925967 0.038907692
0.14824846 0.4792527 0.038930792
0.14916795 0.47923088 0.038948793
0.15797263 0.47926426 0.038914964
0.15830863 0.47928268 0.038904879
0.14584169 0.48246837 0.038194433
0.15732351 0.48248672 0.038174033
0.16702104 0.4824276 0.03821509
0.16844171 0.48247743 0.038189255
0.17170966 0.48244303 0.038201634
0.17602092 0.48245662 0.038212717
0.18400139 0.48243821 0.038207557
0.18509808 0.48242927 0.038210295
0.15429544 0.48610395 0.038406182
0.16216925 0.48612297 0.038407497
0.18093929 0.48609239 0.038447779
0.1462464 0.48964202 0.038778838
0.14831841 0.48970193 0.03874306
0.15945473 0.48964673 0.038787454
0.16738671 0.48966104 0.038775448
0.16818628 0.48967332 0.038742177
0.16596568 0.49290401 0.038226053
0.16708785 0.49289012 0.038227055
0.16816145 0.49284899 0.03825219
0.17389104 0.49286908 0.038257133
0.17537573 0.49287271 0.038257081
0.17607635 0.49285388 0.038262051
0.15140665 0.49648887 0.038681883
0.15283349 0.49640954 0.038740329
0.16251811 0.49640733 0.038745478
0.16401955 0.49641812 0.038724896
0.17044413 0.49640661 0.038737833
0.17259148 0.49646336 0.038709726
0.15877643 0.4995904 0.038359772
0.15945208 0.499587 0.03837822
0.16003963 0.49956369 0.038390078
0.1664499 0.4996134 0.038351774
0.16844791 0.49954152 0.038401887
0.16935843 0.49959725 0.038366783
0.17009389 0.49964905 0.038332988
0.16000286 0.50274366 0.038072351
0.16862667 0.50276184 0.038068429
0.36518556 0.24271119 0.039553054
0.41698599 0.25555575 0.039355304
0.40165555 0.2907933 0.039166853
0.37833264 0.30103177 0.039130598
0.38051254 0.30103666 0.03912263
0.39160636 0.30104482 0.03910384
0.40208554 0.30181372 0.039616711
0.41105425 0.30183148 0.039613597
0.41274863 0.30112511 0.039011184
0.41672337 0.30189908 0.03952191
0.42002535 0.30182707 0.039599344
0.36527729 0.31128889 0.03932371
0.36716107 0.31128001 0.039338756
0.37067413 0.31127071 0.039344106
0.40197793 0.31129187 0.039300427
0.36923209 0.31202251 0.039899196
0.40198407 0.31204957 0.039845645
0.40276894 0.31204373 0.039839204
0.35725206 0.32067686 0.039389588
0.41077653 0.32069546 0.039348178
0.28499404 0.32147831 0.039888706
0.28575206 0.321459 0.039912339
0.28650808 0.32142341 0.039933335
0.2931872 0.32146406 0.039869487
0.4107646 0.32145107 0.039900236
0.41470984 0.32146335 0.039889716
0.34694475 0.3292625 0.039179713
0.35339117 0.32928073 0.039147392
0.34799224 0.330006 0.039742161
0.34870887 0.33003575 0.039706409
0.28525293 0.33786857 0.039174885
0.2903083 0.33780825 0.03923491
0.27956358 0.33855909 0.039775196
0.28060454 0.33855242 0.039792895
0.33541563 0.33855152 0.039814357
0.34079197 0.33854854 0.039839394
0.32099509 0.35325998 0.039003845
0.3224209 0.35397506 0.03959104
0.32521519 0.3539983 0.03957497
0.3263275 0.35400081 0.03957206
0.32885224 0.35401535 0.039559964
0.25033337 0.36091995 0.039220635
0.31287462 0.36091638 0.039237566
0.3147245 0.36097044 0.039162841
0.31509012 0.36096096 0.039158836
0.31940311 0.36092246 0.039219227
0.32016248 0.36092538 0.039209079
0.25207973 0.36161429 0.039861526
0.25888872 0.36163348 0.039832368
0.25921667 0.3616392 0.039840978
0.3038221 0.36783034 0.039053805
0.31024516 0.36785775 0.03902138
0.31204474 0.36783409 0.039052028
0.30302036 0.36854011 0.039685789
0.30701351 0.3684963 0.039715018
0.30985951 0.36855686 0.039655756
0.31022978 0.36855251 0.039659895
0.25291467 0.37463462 0.039147604
0.30178136 0.37466615 0.03914126
0.30272388 0.37466955 0.039124142
0.29192019 0.38144243 0.039414875
0.29476213 0.38147908 0.039376765
0.29517645 0.3814379 0.039421417
0.27887022 0.39352131 0.039235886
0.22871789 0.39416271 0.03996101
0.24822029 0.39418578 0.039912
0.25040016 0.39418417 0.03992172
0.26049724 0.39421183 0.039882228
0.27877086 0.39418334 0.039937288
0.25695711 0.39950472 0.039413858
0.2642251 0.3995555 0.039352871
0.20764494 0.40475273 0.03909428
0.27062604 0.40474284 0.039086457
0.27131194 0.40474796 0.03908978
0.19248667 0.40538347 0.039806284
0.22023281 0.40542728 0.039761856
0.24548769 0.40539533 0.039790474
0.24117485 0.41071397 0.039538968
0.25385565 0.41063863 0.03959053
0.25419596 0.41064578 0.039590292
0.26148525 0.41065311 0.039581675
0.24480435 0.41586816 0.039534587
0.25100291 0.41583383 0.039556157
0.21774611 0.42096573 0.039697114
0.21813655 0.42098784 0.039684895
0.25095344 0.42102796 0.039644003
0.25130796 0.4210304 0.039634351
0.25235206 0.42105317 0.039644465
0.23802164 0.42558074 0.039122168
0.20153743 0.4261719 0.039892137
0.20728204 0.42615247 0.039873306
0.2126849 0.42615366 0.039894324
0.22893357 0.4260928 0.039951973
0.23176432 0.42615247 0.03990671
0.23756033 0.42611092 0.039940476
0.24333706 0.42619157 0.039863188
0.24439779 0.42619067 0.039865106
0.17802364 0.43059725 0.039574049
0.19098562 0.43061239 0.039564904
0.19133139 0.43060851 0.039580703
0.19819728 0.43058932 0.0395808
0.20726842 0.43062043 0.039548252
0.22386551 0.43062252 0.039551791
0.22855097 0.43058854 0.039576989
0.17258355 0.43505353 0.039334185
0.18347633 0.43509209 0.039304238
0.19745275 0.43513525 0.039281033
0.20693123 0.43513346 0.039264355
0.21299601 0.43510872 0.039276868
0.22383502 0.43509626 0.03930695
0.23342943 0.4351027 0.039301697
0.23168612 0.43950337 0.03921473
0.17735347 0.44010091 0.039975192
0.20711055 0.44011241 0.039968327
0.2178725 0.44011933 0.039974395
0.22192433 0.44008791 0.039985873
0.22984713 0.44015968 0.039922006
0.23125634 0.44011569 0.03996399
0.1826323 0.44394058 0.039170839
0.18841758 0.44393814 0.039173335
0.1890583 0.44389272 0.039218277
0.20197418 0.44396931 0.039150383
0.20312449 0.44395351 0.03915089
0.21187291 0.44397902 0.039135069
0.21222746 0.44398612 0.039129604
0.22774091 0.44398612 0.039125517
0.17122799 0.4445017 0.039984256
0.18820712 0.44450957 0.039964274
0.21745807 0.44451475 0.039945193
0.15980789 0.44831187 0.039314795
0.1604735 0.44828969 0.039315227
0.16629353 0.44828814 0.039310895
0.1675685 0.44833755 0.039275158
0.16849691 0.44830143 0.039301969
0.17081726 0.44830847 0.039286695
0.20697635 0.44833195 0.039283916
0.21662122 0.4482882 0.039311837
0.22187543 0.44831657 0.039286416
0.15539363 0.45263243 0.039522864
0.15963912 0.45260888 0.039558496
0.18157604 0.45263988 0.039515503
0.18234736 0.45261329 0.039544228
0.19280204 0.45267665 0.039500102
0.21115267 0.45266199 0.039511576
0.21557462 0.45264846 0.039549891
0.21954063 0.45264822 0.039514206
0.1422461 0.45697325 0.039847743
0.15449324 0.45697087 0.039851021
0.16417673 0.45697081 0.039869968
0.17035094 0.45691669 0.039898988
0.17271963 0.45645863 0.039011255
0.1734069 0.45638973 0.039063949
0.17427537 0.45693344 0.039887063
0.18080583 0.45693755 0.0398729
0.18622512 0.45696253 0.039845627
0.19190371 0.45696062 0.039863199
0.19766113 0.45689332 0.039921705
0.19857857 0.4568767 0.039929286
0.19982117 0.45692885 0.039895773
0.20145142 0.45689386 0.039930288
0.20309782 0.45688033 0.039917484
0.2050887 0.45644361 0.039024793
0.21038675 0.45671403 0.039426159
0.14324623 0.46067667 0.039514773
0.15085357 0.46070725 0.039485525
0.15117672 0.46069038 0.039503094
0.15263122 0.46075755 0.039454494
0.15946919 0.46069235 0.039491504
0.16272792 0.46067578 0.039495505
0.18077308 0.46070796 0.039471116
0.18110129 0.46070933 0.039475586
0.19088179 0.46068561 0.039499633
0.19154805 0.4606719 0.039522085
0.13410413 0.4649924 0.039999079
0.15044197 0.46453196 0.03914116
0.17387548 0.46443439 0.039204266
0.17497164 0.4644261 0.039206691
0.1775049 0.46445519 0.039193958
0.18972099 0.46444857 0.03920646
0.19008729 0.46448368 0.039177004
0.19260561 0.46442842 0.039212529
0.19571939 0.46498013 0.039996628
0.19654825 0.46445191 0.039204236
0.2026543 0.46438527 0.039247785
0.20482346 0.46442211 0.039220456
0.20516095 0.46440971 0.039233889
0.13037699 0.46861428 0.039894029
0.13905174 0.46866637 0.039845619
0.14800838 0.46865976 0.039851017
0.14908355 0.46869397 0.039823521
0.15572384 0.46816212 0.039015409
0.16748148 0.46816844 0.039003987
0.1721192 0.46863079 0.039865818
0.18013474 0.46861434 0.039879024
0.18156338 0.46866816 0.039854538
0.18298212 0.46867996 0.039842293
0.18949303 0.46866047 0.039858095
0.19344905 0.46866828 0.039850894
0.19759184 0.46869922 0.039806146
0.19864497 0.46818054 0.039002892
0.19918573 0.46864057 0.039861493
0.20008025 0.4681555 0.039014012
0.14069176 0.47235489 0.039778814
0.14380941 0.47236657 0.039738167
0.15372658 0.47235578 0.039751589
0.16308802 0.47237939 0.039730679
0.17099917 0.47231507 0.039779227
0.17211983 0.47237515 0.039726466
0.17821929 0.47233218 0.039764166
0.18505061 0.47237545 0.039741311
0.18645477 0.47237617 0.039745193
0.18756282 0.4723531 0.039742433
0.18976519 0.47235703 0.039731331
0.19330734 0.47232282 0.039766829
0.13530225 0.47604388 0.039714202
0.13666394 0.47605556 0.039712917
0.15033698 0.47604597 0.03972996
0.15396041 0.47602063 0.039726857
0.15772814 0.47604215 0.039716549
0.1704677 0.47603357 0.039734516
0.1757046 0.47602135 0.039756048
0.18241718 0.47602677 0.039740425
0.18638158 0.47603333 0.039728008
0.14248854 0.4797132 0.039788734
0.14460772 0.47967875 0.039837714
0.14553881 0.47968477 0.039811905
0.14630497 0.47967511 0.039811954
0.15670449 0.47966808 0.039830036
0.1570563 0.4796502 0.039829183
0.16388875 0.47967803 0.039820727
0.16460893 0.47967571 0.039817423
0.16571206 0.47965568 0.039835885
0.1675061 0.47969276 0.03980948
0.16841042 0.47966647 0.039833058
0.17145255 0.47967696 0.039835267
0.17399484 0.47966182 0.039835066
0.17466697 0.4796437 0.039847448
0.17542356 0.47965777 0.039829899
0.17619231 0.47969854 0.039794404
0.17930907 0.47961652 0.039867226
0.18086445 0.47969604 0.03978784
0.18138301 0.47969729 0.039795227
0.18301892 0.47964793 0.039844919
0.13967142 0.48292446 0.039044153
0.14129388 0.48287052 0.039094441
0.14308369 0.48290849 0.039053682
0.15563482 0.48284745 0.039119456
0.15677011 0.48290855 0.039066989
0.16251701 0.48286366 0.039090715
0.16324353 0.48287857 0.039090693
0.16436666 0.48287374 0.039073844
0.17941397 0.48288399 0.039105631
0.18011791 0.4828521 0.039103437
0.13888279 0.48330057 0.039991371
0.15040529 0.48331153 0.039984774
0.15298054 0.48333508 0.039958518
0.15349329 0.48331022 0.039974321
0.15436697 0.48331088 0.039981168
0.16049787 0.48334885 0.039953273
0.1615788 0.48332518 0.039958961
0.16231894 0.48329604 0.039972797
0.17852271 0.48332524 0.039969675
0.14860812 0.48649168 0.039363835
0.14938316 0.48649842 0.039329659
0.150491 0.4864952 0.039324235
0.16035384 0.48649049 0.039336104
0.16773173 0.48649257 0.039337989
0.16847965 0.48648727 0.039330591
0.16953373 0.48646528 0.039358564
0.17023292 0.48649514 0.039341673
0.17426556 0.48648196 0.039330877
0.17673549 0.48648202 0.039343528
0.17764413 0.48647523 0.039349671
0.17852604 0.48646671 0.039360449
0.17944402 0.48647195 0.039349012
0.14362133 0.49011785 0.039622899
0.14431897 0.49011254 0.039637249
0.15479037 0.49005604 0.039680917
0.15783602 0.4900834 0.03966254
0.15853295 0.49008095 0.039664157
0.15925607 0.4900499 0.039690871
0.16467106 0.49014664 0.039621141
0.16572857 0.49007815 0.039646998
0.16646251 0.49006903 0.039660055
0.15156251 0.4932487 0.03917028
0.15461203 0.49325573 0.039151371
0.15517214 0.49325907 0.039148722
0.15786254 0.49325085 0.039159641
0.16521531 0.49322456 0.039186813
0.17151037 0.49324739 0.039170101
0.17241621 0.49324214 0.03916749
0.1735031 0.49322236 0.039191809
0.17456824 0.49326783 0.039155748
0.15869671 0.49675936 0.03967645
0.15902957 0.49678016 0.039682359
0.16050661 0.49679947 0.039643016
0.16156074 0.4967944 0.039652109
0.16332084 0.49674743 0.039691184
0.16767088 0.4968015 0.039646473
0.16876557 0.49682158 0.039631024
0.16948476 0.49678832 0.039643198
0.15366533 0.49998152 0.039266307
0.15562248 0.49993622 0.039313722
0.15649772 0.49993557 0.03931427
0.15761837 0.49992543 0.039302569
0.16122773 0.49991381 0.039325327
0.167647 0.49993736 0.039297726
0.15651396 0.50306785 0.039026547
0.36337554 0.24349952 0.040041622
0.36022356 0.24427354 0.040524404
0.36631855 0.24430621 0.040457528
0.36851978 0.24428254 0.040492937
0.4057481 0.24421978 0.040640075
0.35060927 0.25793976 0.040755183
0.32431567 0.28198564 0.040642764
0.33068359 0.28195405 0.040647227
0.33479562 0.28116471 0.040185709
0.33950651 0.2819885 0.040615037
0.39263627 0.28199297 0.040625062
0.39338616 0.28198475 0.040629666
0.3951444 0.28121275 0.040127888
0.40195358 0.28203291 0.04057974
0.40381455 0.28204721 0.04053393
0.43913034 0.29301506 0.040775176
0.37659264 0.30254841 0.040175214
0.37852505 0.30255872 0.04018379
0.37478256 0.30333138 0.040694669
0.37623075 0.30331475 0.040690508
0.2976228 0.31277734 0.040432855
0.36390468 0.3127563 0.040458512
0.40345111 0.31280553 0.040377278
0.36568403 0.31354815 0.040944327
0.36767927 0.31355143 0.040955745
0.29469293 0.32220894 0.040456455
0.3432174 0.32215405 0.04051102
0.35760671 0.32216543 0.040499382
0.3597241 0.3222369 0.040414657
0.34874749 0.3307631 0.040288985
0.35047966 0.33078462 0.040268756
0.34444612 0.33147782 0.040875487
0.27953514 0.33928126 0.040366098
0.33634925 0.33928239 0.040390301
0.33789569 0.3392638 0.040400412
0.34081689 0.33927417 0.040418178
0.33755183 0.34000874 0.040980086
0.32958633 0.34701693 0.040180076
0.32383093 0.35471356 0.040175963
0.32453293 0.35471094 0.040182106
0.32523471 0.35470992 0.040189199
0.2830469 0.35541481 0.040807899
0.2905522 0.35543364 0.040792774
0.29597104 0.35543543 0.040798698
0.24231946 0.36236954 0.04044025
0.25134096 0.36232173 0.040494036
0.30063203 0.36235267 0.040454429
0.30172229 0.36234421 0.040466055
0.31213361 0.36230505 0.040497262
0.24694917 0.36925846 0.040286329
0.25252807 0.36993665 0.040952723
0.27440095 0.3699199 0.040953439
0.28153351 0.369946 0.04093406
0.29035294 0.36920273 0.040350161
0.29828066 0.36921817 0.040332913
0.30551934 0.36990005 0.040976845
0.30649364 0.36967283 0.040768381
0.30702516 0.36919868 0.040336829
0.26179731 0.376055 0.040419731
0.26328093 0.37607855 0.040407937
0.26401564 0.37603527 0.040429823
0.28445217 0.37608159 0.040376179
0.23121828 0.38213933 0.040074434
0.2396757 0.38211888 0.040082965
0.24070916 0.38279212 0.040767141
0.24256423 0.38216114 0.040047541
0.24377662 0.38281167 0.040739655
0.24438563 0.38211727 0.04007313
0.25293759 0.38278455 0.040777214
0.25338215 0.38279706 0.040754646
0.25999951 0.38881719 0.040608022
0.27155033 0.38882554 0.040583752
0.28225392 0.38881218 0.040598564
0.2846553 0.38886786 0.040545832
0.28513971 0.38884795 0.04057128
0.29122218 0.38890755 0.040522341
0.25865966 0.39479619 0.040645581
0.25932527 0.39479429 0.040655546
0.26581287 0.39481944 0.040639196
0.26645762 0.39486307 0.040586188
0.28039104 0.39488262 0.040545508
0.28165013 0.39485943 0.040604606
0.21103016 0.40075177 0.040855303
0.22009706 0.40047848 0.040456194
0.23565021 0.40017372 0.040082768
0.23628396 0.40080231 0.040808309
0.23778319 0.40076905 0.040826097
0.23811963 0.40076137 0.040837981
0.23919955 0.40080231 0.040802468
0.24638209 0.40079749 0.040808056
0.25679827 0.40078467 0.040823892
0.26081657 0.40076762 0.040821187
0.2713064 0.40048373 0.040459245
0.27208897 0.40013009 0.040127169
0.20715767 0.40605891 0.040464442
0.23421422 0.40603071 0.040497635
0.24508449 0.40601492 0.040510174
0.24650824 0.40604144 0.04050675
0.2616502 0.40611196 0.040425349
0.26321518 0.40605098 0.040478807
0.27065411 0.40602916 0.040522125
0.19535336 0.41125983 0.040330224
0.21225664 0.41122675 0.040352162
0.24183765 0.41131121 0.040279552
0.25171378 0.41129249 0.040309299
0.25227749 0.41128767 0.040300548
0.25878495 0.41131723 0.040281173
0.25911695 0.4113248 0.040272314
0.22367966 0.41641974 0.040322144
0.22455043 0.41645479 0.040292248
0.22565269 0.41644388 0.040289428
0.24473336 0.41650277 0.040253676
0.24618223 0.41642237 0.040325455
0.25251311 0.41645765 0.040297821
0.19672647 0.41712445 0.040984489
0.20228761 0.41710901 0.040979031
0.20727175 0.41711378 0.040989578
0.2176604 0.41713047 0.040975984
0.23367834 0.41712761 0.040983725
0.23954934 0.41713154 0.040988222
0.18555412 0.42161614 0.040414032
0.19640389 0.42163527 0.040390462
0.20235586 0.42162001 0.040405598
0.20791999 0.42163384 0.040399272
0.20829555 0.42163694 0.040400296
0.22251937 0.42157924 0.040448915
0.23066145 0.42161828 0.040404435
0.23134086 0.42164916 0.040383652
0.24365073 0.42158729 0.040438768
0.19154581 0.42670614 0.040705588
0.20140308 0.4267233 0.040698647
0.20661247 0.42674273 0.040669661
0.20713219 0.42675418 0.04065749
0.21180299 0.42673182 0.040700935
0.21852064 0.42673528 0.0406521
0.22306699 0.42677629 0.040631216
0.22846165 0.4267565 0.040663101
0.22952712 0.42667466 0.040717889
0.23524573 0.42674392 0.040665571
0.23654562 0.4267292 0.040685806
0.17790923 0.43119389 0.040351924
0.19697595 0.431207 0.040310804
0.19734481 0.43122756 0.040321577
0.20175436 0.4312256 0.04030475
0.20663095 0.43118894 0.040348385
0.20717856 0.43118197 0.040343761
0.21255931 0.4312253 0.040318012
0.21745896 0.43119341 0.040345501
0.21805653 0.43116915 0.040357985
0.22771278 0.43116242 0.04036773
0.23601216 0.43120849 0.040318593
0.23997086 0.43120134 0.040340308
0.17205146 0.43565255 0.040089265
0.20204151 0.43569517 0.040067412
0.22810242 0.43571246 0.040039711
0.23240337 0.43568897 0.040065706
0.1720024 0.43621433 0.040876899
0.1760388 0.43618912 0.040911041
0.17710447 0.43620062 0.040902447
0.17817244 0.43623745 0.040870532
0.19574562 0.43621504 0.04090267
0.19664305 0.43620032 0.040913973
0.20596427 0.43622118 0.040895183
0.20667958 0.43623018 0.040891469
0.21096128 0.43624234 0.040879428
0.21673295 0.43623632 0.0408746
0.21707982 0.43623853 0.040893365
0.2276108 0.43630409 0.040820822
0.2319068 0.43622524 0.040873583
0.18778947 0.44059348 0.040833998
0.18899804 0.44000876 0.040049497
0.19064882 0.44062316 0.040809579
0.19139868 0.44060594 0.040816989
0.192276 0.44058961 0.040844552
0.19656238 0.4400726 0.040003795
0.20149565 0.44066244 0.040761024
0.21063653 0.44068104 0.040728636
0.21153277 0.44035852 0.04038595
0.2217868 0.44065559 0.040753998
0.22712535 0.44065273 0.040770557
0.2280069 0.44004518 0.040014461
0.17775121 0.44444674 0.040008716
0.18094876 0.44498849 0.040821914
0.1816248 0.44499516 0.04081988
0.18227482 0.44444579 0.040029738
0.18717504 0.44498646 0.040831018
0.17045385 0.44506633 0.040777385
0.17623538 0.4450255 0.04080382
0.18053228 0.44501412 0.040800985
0.18127617 0.44500995 0.040805966
0.18627307 0.44500339 0.040808123
0.2004742 0.44501972 0.04081234
0.20678183 0.44504368 0.040780686
0.21087468 0.44502038 0.040806539
0.21120551 0.44502902 0.040819556
0.21555221 0.44504315 0.040778618
