# .PCD v0.7 - Point Cloud Data file format
VERSION 0.7
FIELDS x y z normal_x normal_y normal_z curvature
SIZE 4 4 4 4 4 4 4
TYPE F F F F F F F
COUNT 1 1 1 1 1 1 1
WIDTH 1133
HEIGHT 1
VIEWPOINT 0 0 0 1 0 0 0
POINTS 1133
DATA ascii
-0.0254 -0.0029429779 0.075649969 -1 0 0 0
-0.0220343 0.025400002 0.075573288 0 1 0 0
-0.00021857442 0.025399998 0.075655282 0 1 0 0
0.0017732633 0.025400002 0.075643227 0 1 0 0
-0.025399998 -0.0098939119 0.075826138 -1 0 0 0
0.025400002 0.011596512 0.075773567 1 0 0 0
0.023316018 0.0254 0.075804569 0 1 0 0
0.0254 -0.0015533473 0.076235846 1 0 0 0
-0.0254 0.022007147 0.076048829 -1 0 0 0
0.0254 0.024989758 0.076221704 1 0 0 0
-0.017331714 0.025400002 0.076148033 0 1 0 0
-0.014114989 0.0254 0.076137826 0 1 0 0
0.0010806262 0.0254 0.076010495 0 1 0 0
0.0254 -0.01948336 0.076251611 1 0 0 0
0.0254 0.0045526586 0.076476291 1 0 0 0
-0.0254 0.013806206 0.076477148 -1 0 0 0
-0.0254 0.019832969 0.076487057 -1 0 0 0
0.0040819813 0.0254 0.076458193 0 1 0 0
0.016979717 0.0254 0.076405331 0 1 0 0
0.018621478 0.0254 0.076447979 0 1 0 0
0.0254 -0.0038531013 0.076632321 1 0 0 0
-0.025399998 -0.0014322526 0.076566234 -1 0 0 0
-0.007032509 0.025400002 0.076639235 0 1 0 0
0.011840353 0.0254 0.076510377 0 1 0 0
-0.025400002 0.022191349 0.076878652 -1 0 0 0
-0.0044139698 0.0254 0.076947719 0 1 0 0
0.0016437098 0.0254 0.076880157 0 1 0 0
0.0045485143 0.0254 0.076798879 0 1 0 0
-0.0254 -0.018387716 0.07718721 -1 0 0 0
-0.0254 -0.011485361 0.077231228 -1 0 0 0
-0.025399998 -0.0096773589 0.077205114 -1 0 0 0
-0.0254 0.0063159722 0.077059478 -1 0 0 0
-0.0254 0.0065417355 0.077214971 -1 0 0 0
-0.025399998 0.0087485276 0.077199273 -1 0 0 0
0.0254 0.020731317 0.07701651 1 0 0 0
-0.0254 0.024125785 0.077014208 -1 0 0 0
0.0071080183 0.025400002 0.077229746 0 1 0 0
-0.0254 -0.01848357 0.077453718 -1 0 0 0
-0.025399998 -0.015786711 0.077400602 -1 0 0 0
0.025399998 -0.015659466 0.077393994 1 0 0 0
-0.0254 -0.013340674 0.077376291 -1 0 0 0
-0.0254 -0.0018938459 0.077405043 -1 0 0 0
-0.0254 -0.0011756304 0.077435799 -1 0 0 0
-0.0189145 0.0254 0.07743223 0 1 0 0
-0.016647942 0.0254 0.077367425 0 1 0 0
-0.0084644631 0.025400002 0.077305347 0 1 0 0
-0.0254 -0.016000271 0.077603899 -1 0 0 0
0.025400002 -0.012367934 0.077526003 1 0 0 0
0.025399998 -0.011485804 0.077505603 1 0 0 0
0.025399998 -0.0083198799 0.077684149 1 0 0 0
-0.0254 0.021448879 0.077596217 -1 0 0 0
-0.0068647675 0.025399998 0.077646032 0 1 0 0
-0.0254 -0.021920491 0.077839464 -1 0 0 0
-0.0254 -0.0095646046 0.077819504 -1 0 0 0
-0.025399998 -0.003354908 0.077775538 -1 0 0 0
-0.0018334696 0.0254 0.07775709 0 1 0 0
0.0254 -0.019640701 0.078131162 1 0 0 0
-0.0254 -0.0045603472 0.07817895 -1 0 0 0
0.0254 -0.0020059422 0.078077421 1 0 0 0
-0.025399998 0.023715736 0.078036323 -1 0 0 0
-0.025400002 -0.0083573293 0.078397349 -1 0 0 0
-0.022979774 0.0254 0.078262448 0 1 0 0
-0.017975366 0.0254 0.078297257 0 1 0 0
0.0254 -0.022505464 0.078648254 1 0 0 0
0.0254 -0.020332081 0.078696504 1 0 0 0
-0.0254 -0.02008342 0.078538701 -1 0 0 0
0.025400002 0.0085350471 0.078552693 1 0 0 0
0.0254 0.021694526 0.078515798 1 0 0 0
-0.010334292 0.0254 0.078738399 0 1 0 0
-0.0014187996 0.0254 0.078720294 0 1 0 0
0.019986754 0.025399998 0.07859771 0 1 0 0
0.0254 -0.024705181 0.078798033 1 0 0 0
0.025399998 -0.017457344 0.078810878 1 0 0 0
0.025400002 -0.0083730221 0.078810222 1 0 0 0
-0.0254 0.014162162 0.078854546 -1 0 0 0
0.014905401 0.025400002 0.078857012 0 1 0 0
0.025400002 -0.021370474 0.07908342 1 0 0 0
-0.0254 -0.014665897 0.079227142 -1 0 0 0
0.025399998 -0.014655384 0.079061247 1 0 0 0
-0.0254 -0.005156978 0.079123072 -1 0 0 0
-0.025399998 -7.5531192e-05 0.079199344 -1 0 0 0
0.0254 -0.00011890568 0.079180926 1 0 0 0
0.025399998 0.014309086 0.079197809 1 0 0 0
-0.0254 0.017797107 0.079089671 -1 0 0 0
-0.0254 -0.022598539 0.079366177 -1 0 0 0
-0.0254 0.0037218039 0.079274148 -1 0 0 0
-0.0254 0.0066259038 0.079295844 -1 0 0 0
-0.0254 0.014927097 0.079470366 -1 0 0 0
0.0254 0.021496702 0.079326153 1 0 0 0
-0.020399779 0.0254 0.079377659 0 1 0 0
-0.00010975124 0.0254 0.079387367 0 1 0 0
0.00021382375 0.025399998 0.079488479 0 1 0 0
0.024541313 0.0254 0.079322964 0 1 0 0
0.0254 0.0019964073 0.079598784 1 0 0 0
0.025400002 0.018752726 0.079734452 1 0 0 0
-0.020510396 0.0254 0.07964319 0 1 0 0
0.0254 -0.020133732 0.079765782 1 0 0 0
-0.0254 -0.016811123 0.079764828 -1 0 0 0
-0.025399998 -0.014383601 0.079971209 -1 0 0 0
-0.0254 0.0024016118 0.079782613 -1 0 0 0
-0.0254 0.022886036 0.079948887 -1 0 0 0
-0.0254 0.023847889 0.079752915 -1 0 0 0
-0.025399998 0.025202017 0.079908967 -1 0 0 0
-0.025400002 0.02538459 0.079831235 -1 0 0 0
-0.01716047 0.0254 0.079816848 0 1 0 0
0.00012199534 0.0254 0.079980098 0 1 0 0
0.0254 -0.022534406 0.080223516 1 0 0 0
0.0254 -0.0053894762 0.080072224 1 0 0 0
-0.025400002 -7.6371245e-05 0.080182269 -1 0 0 0
0.025400002 0.0052148448 0.080029041 1 0 0 0
0.0254 -0.024516055 0.080376104 1 0 0 0
-0.0254 -0.015307074 0.080487952 -1 0 0 0
-0.025400002 -0.01008333 0.08049199 -1 0 0 0
0.0254 0.018948773 0.080317482 1 0 0 0
-0.017530873 0.0254 0.080277406 0 1 0 0
-0.015004827 0.025399998 0.080385461 0 1 0 0
0.012809725 0.025399998 0.080253124 0 1 0 0
-0.0254 -0.020682469 0.08052586 -1 0 0 0
0.0254 -0.017151503 0.080645785 1 0 0 0
-0.025399998 0.0029409956 0.080633037 -1 0 0 0
-0.0254 0.010142748 0.080614023 -1 0 0 0
-0.016689895 0.0254 0.080728389 0 1 0 0
-0.0036339373 0.0254 0.080564559 0 1 0 0
-0.0017417534 0.025399998 0.080588862 0 1 0 0
0.020598467 0.0254 0.080664359 0 1 0 0
0.025400002 -0.0069476264 0.080913968 1 0 0 0
0.0254 -0.00011940673 0.080901705 1 0 0 0
-0.025400002 0.0082231369 0.080866002 -1 0 0 0
0.0048843417 0.0254 0.080766708 0 1 0 0
-0.0254 -0.022461703 0.081052572 -1 0 0 0
0.0254 -0.021199865 0.081081882 1 0 0 0
-0.0254 -0.019758807 0.081065655 -1 0 0 0
-0.0254 -0.0041357186 0.081191473 -1 0 0 0
0.0254 0.017131981 0.081161618 1 0 0 0
-0.018001348 0.0254 0.081078231 0 1 0 0
-0.016752623 0.0254 0.081115812 0 1 0 0
0.00012043864 0.025399998 0.081181742 0 1 0 0
0.0072000609 0.025400002 0.081171304 0 1 0 0
0.0254 -0.0024598055 0.081252776 1 0 0 0
0.025399998 0.0040165978 0.081473209 1 0 0 0
0.0254 0.017067926 0.081452578 1 0 0 0
0.025399998 0.017425563 0.081290595 1 0 0 0
-0.0254 -0.019484106 0.081748873 -1 0 0 0
0.0254 -0.014674844 0.081686884 1 0 0 0
-0.016176296 0.0254 0.081724018 0 1 0 0
-0.0254 -0.022093719 0.081890255 -1 0 0 0
-0.0254 0.0051942337 0.081828929 -1 0 0 0
0.025400002 0.017487247 0.081884548 1 0 0 0
0.0254 0.022072211 0.081861183 1 0 0 0
-0.0093562584 0.0254 0.081995554 0 1 0 0
-0.025400002 -0.021105703 0.082192168 -1 0 0 0
-0.025399998 0.0077211475 0.082165331 -1 0 0 0
-0.024469687 0.0254 0.082199849 0 1 0 0
-0.023358172 0.0254 0.0820871 0 1 0 0
-0.0078803618 0.0254 0.082033247 0 1 0 0
0.0013877018 0.025400002 0.082224056 0 1 0 0
0.0055134567 0.0254 0.08215712 0 1 0 0
-0.0254 0.0095792515 0.08243683 -1 0 0 0
-0.0056914571 0.0254 0.08237727 0 1 0 0
0.004446893 0.0254 0.082326666 0 1 0 0
0.020748833 0.0254 0.082257211 0 1 0 0
0.022233972 0.025400002 0.082412593 0 1 0 0
0.025399998 -0.0099421432 0.082635529 1 0 0 0
0.0254 -0.0075043496 0.082744263 1 0 0 0
0.025400002 0.0041163238 0.082534596 1 0 0 0
-0.025400002 0.004497109 0.082723036 -1 0 0 0
0.0254 0.0065230336 0.082733124 1 0 0 0
-0.0254 -0.016130148 0.082765616 -1 0 0 0
0.025400002 -0.012649417 0.082884699 1 0 0 0
0.0254 -1.568161e-05 0.082966045 1 0 0 0
0.025400002 0.0012894524 0.082892522 1 0 0 0
-0.025399998 0.013347107 0.082779258 -1 0 0 0
0.0254 -0.021453554 0.083117485 1 0 0 0
-0.0254 0.0023101177 0.083029293 -1 0 0 0
-0.0254 0.0057866569 0.083171614 -1 0 0 0
0.0019972445 0.025400002 0.08303389 0 1 0 0
0.0254 -0.00094499066 0.083492748 1 0 0 0
0.0254 0.00041128183 0.083399147 1 0 0 0
-0.025399998 0.014818469 0.083441645 -1 0 0 0
0.025399998 0.016593989 0.083327353 1 0 0 0
0.0254 0.017098714 0.083470024 1 0 0 0
-0.019763783 0.025399998 0.083476871 0 1 0 0
-0.0024509728 0.025399998 0.083423719 0 1 0 0
0.022531532 0.025400002 0.083329268 0 1 0 0
-0.0254 -0.021995667 0.08354415 -1 0 0 0
-0.0254 -0.019184971 0.083558246 -1 0 0 0
-0.0254 -0.013939093 0.083611488 -1 0 0 0
0.0254 -0.012775587 0.083569139 1 0 0 0
-0.0254 0.00084376754 0.08351855 -1 0 0 0
-0.0254 0.001953504 0.083628088 -1 0 0 0
0.0254 0.0045967419 0.08362262 1 0 0 0
-0.0254 0.0083706416 0.083627984 -1 0 0 0
-0.02215353 0.0254 0.083588421 0 1 0 0
-0.019441454 0.0254 0.08353731 0 1 0 0
-0.025400002 -0.019649193 0.083756909 -1 0 0 0
0.0254 -0.018578162 0.083904192 1 0 0 0
0.025399998 -0.013194936 0.083893962 1 0 0 0
0.0254 -0.007255422 0.083779424 1 0 0 0
-0.025399998 0.00059494423 0.083990157 -1 0 0 0
0.025400002 0.0019051665 0.083828054 1 0 0 0
0.0254 0.011448709 0.083931811 1 0 0 0
0.0023741014 0.025399998 0.083798274 0 1 0 0
0.0065470748 0.0254 0.083928131 0 1 0 0
-0.0254 -0.0081388969 0.084182337 -1 0 0 0
-0.025399998 -0.0026059933 0.084069878 -1 0 0 0
0.0254 0.0031113829 0.084067553 1 0 0 0
0.0254 0.0038392246 0.084114335 1 0 0 0
0.0254 0.0053582489 0.084199779 1 0 0 0
-0.025399998 0.01448837 0.084158465 -1 0 0 0
0.025400002 0.018299675 0.084197946 1 0 0 0
-0.0029797168 0.0254 0.084044524 0 1 0 0
0.025399998 -0.00091501977 0.084358513 1 0 0 0
0.0254 0.0088620912 0.084351443 1 0 0 0
-0.0254 0.014174988 0.084492341 -1 0 0 0
-0.020490762 0.0254 0.084378123 0 1 0 0
-0.019247115 0.0254 0.084401295 0 1 0 0
0.022820003 0.025400002 0.084407583 0 1 0 0
-0.025400002 -0.022514289 0.084563099 -1 0 0 0
-0.0254 0.010150724 0.084523559 -1 0 0 0
-0.0254 0.024505453 0.084553741 -1 0 0 0
0.010079548 0.0254 0.084670499 0 1 0 0
-0.0254 -0.0085623898 0.084974706 -1 0 0 0
-0.025400002 0.019689532 0.084978305 -1 0 0 0
-0.022821985 0.0254 0.084848098 0 1 0 0
-0.01890034 0.025399998 0.084943183 0 1 0 0
0.025399998 -0.0075787371 0.085246004 1 0 0 0
0.0254 -0.0049350038 0.08513315 1 0 0 0
-0.025399998 -0.0046884948 0.085246295 -1 0 0 0
0.025400002 0.0098738149 0.085197426 1 0 0 0
-0.025400002 0.019058503 0.085192151 -1 0 0 0
-0.0254 0.021389021 0.08524406 -1 0 0 0
-0.023463152 0.0254 0.085226119 0 1 0 0
-0.016288515 0.0254 0.085116312 0 1 0 0
-0.012311251 0.0254 0.085172065 0 1 0 0
-0.0064707641 0.025399998 0.085081525 0 1 0 0
0.0090160947 0.0254 0.085140556 0 1 0 0
0.018058551 0.025400002 0.085109577 0 1 0 0
0.023054188 0.0254 0.085041359 0 1 0 0
-0.025400002 -0.01459928 0.085384339 -1 0 0 0
-0.0254 -0.010036187 0.085278384 -1 0 0 0
-0.0254 0.0032984102 0.085431889 -1 0 0 0
0.0088686412 0.025399998 0.085299976 0 1 0 0
0.0254 -0.0087904874 0.085689694 1 0 0 0
0.0254 0.0032854136 0.085708931 1 0 0 0
0.025400002 0.0062758876 0.085589103 1 0 0 0
0.0254 0.021255864 0.085685283 1 0 0 0
-0.023158539 0.025399998 0.085604295 0 1 0 0
-0.01230406 0.025399998 0.085534766 0 1 0 0
-0.0015350385 0.025400002 0.085606247 0 1 0 0
0.0067447438 0.0254 0.08564496 0 1 0 0
0.0254 -0.018114036 0.085989736 1 0 0 0
-0.025399998 -0.008251329 0.085946307 -1 0 0 0
-0.015039525 0.025399998 0.08580979 0 1 0 0
0.0029556057 0.0254 0.085754901 0 1 0 0
0.025399998 -0.022075918 0.086080134 1 0 0 0
0.0254 0.0067812409 0.08619763 1 0 0 0
0.025400002 0.011702226 0.086107239 1 0 0 0
0.0254 0.012102823 0.086089447 1 0 0 0
-0.0254 0.021340154 0.086155996 -1 0 0 0
0.00068659242 0.025400002 0.086060628 0 1 0 0
0.013497192 0.0254 0.086058192 0 1 0 0
0.01712114 0.0254 0.086031705 0 1 0 0
0.025400002 -0.012272559 0.086296014 1 0 0 0
-0.0254 -0.0030487995 0.086339884 -1 0 0 0
0.025399998 0.0092762774 0.086274326 1 0 0 0
-0.0254 0.019467441 0.086358055 -1 0 0 0
0.0047442806 0.0254 0.086415015 0 1 0 0
0.019842993 0.025400002 0.08634454 0 1 0 0
0.0254 -0.0053805429 0.086615399 1 0 0 0
0.0254 -0.0050687101 0.086699285 1 0 0 0
0.0254 0.0041667204 0.086679399 1 0 0 0
0.025399998 0.016611785 0.086670436 1 0 0 0
-0.025400002 0.025332727 0.086743057 -1 0 0 0
-0.0254 -0.019809458 0.086940184 -1 0 0 0
0.0254 -0.015812648 0.086979583 1 0 0 0
-0.0254 -0.009643713 0.086795226 -1 0 0 0
-0.023067253 0.0254 0.086865634 0 1 0 0
0.0254 -0.022467038 0.087157786 1 0 0 0
0.0254 -0.0075238626 0.087143824 1 0 0 0
-0.025399998 0.017117716 0.087076426 -1 0 0 0
0.0254 0.024184095 0.087247692 1 0 0 0
-0.024987286 0.0254 0.087236837 0 1 0 0
-0.02362942 0.0254 0.087122962 0 1 0 0
-0.018949969 0.0254 0.087072879 0 1 0 0
-0.016083624 0.025399998 0.087041318 0 1 0 0
-0.0039897505 0.025399998 0.087057933 0 1 0 0
0.0254 -0.025126928 0.087430403 1 0 0 0
0.0254 -0.021307955 0.087255552 1 0 0 0
0.025400002 -0.008846947 0.087387539 1 0 0 0
-0.0254 -0.003855126 0.087479927 -1 0 0 0
-0.0254 -0.0011496837 0.08730495 -1 0 0 0
-0.014513236 0.025399998 0.087285221 0 1 0 0
-0.0085233673 0.0254 0.087471537 0 1 0 0
0.010313475 0.0254 0.087323591 0 1 0 0
0.025228731 0.0254 0.087298229 0 1 0 0
-0.0254 -0.02271029 0.087722085 -1 0 0 0
-0.0254 -0.021316171 0.087649405 -1 0 0 0
0.025400002 -0.019626122 0.087581962 1 0 0 0
-0.025400002 -0.016843269 0.087561354 -1 0 0 0
0.025399998 -0.007751937 0.087703057 1 0 0 0
-0.025399998 -0.0062111514 0.087677687 -1 0 0 0
-0.0254 0.0051097637 0.087500885 -1 0 0 0
0.0254 0.0093846228 0.087725371 1 0 0 0
0.0254 0.011636267 0.087706447 1 0 0 0
-0.0254 0.018666076 0.087541543 -1 0 0 0
-0.020727068 0.025400002 0.087507203 0 1 0 0
-0.020404918 0.0254 0.087596804 0 1 0 0
0.0254 -0.025221171 0.087861098 1 0 0 0
-0.025400002 -0.011011336 0.087899476 -1 0 0 0
-0.0254 0.011993017 0.087774053 -1 0 0 0
-0.0254 0.02050795 0.087932803 -1 0 0 0
-0.0254 0.021682851 0.087993622 -1 0 0 0
-0.025399998 -0.018330056 0.088144898 -1 0 0 0
0.0254 -0.013107454 0.088052377 1 0 0 0
-0.025400002 -0.011515237 0.088079713 -1 0 0 0
-0.0254 -0.0044798763 0.088108189 -1 0 0 0
0.025400002 -0.00061327126 0.088157177 1 0 0 0
-0.025400002 0.012041805 0.088238947 -1 0 0 0
0.025400002 -0.0064316513 0.08849027 1 0 0 0
-0.025399998 -0.00061561447 0.088332251 -1 0 0 0
0.0254 0.0014398731 0.088335425 1 0 0 0
0.0254 0.013192436 0.088467173 1 0 0 0
-0.025400002 0.01791922 0.088456601 -1 0 0 0
-0.017803935 0.0254 0.0883362 0 1 0 0
0.0072319889 0.0254 0.088354051 0 1 0 0
0.019301128 0.0254 0.088256165 0 1 0 0
0.0254 -0.0047109462 0.088584259 1 0 0 0
-0.0254 -0.0023689466 0.088653356 -1 0 0 0
-0.0254 0.0044064843 0.088670254 -1 0 0 0
0.0254 0.022615882 0.088723682 1 0 0 0
-0.0096588321 0.0254 0.088625714 0 1 0 0
0.0012021014 0.0254 0.088745974 0 1 0 0
0.025399998 0.0033389619 0.088967294 1 0 0 0
-0.0254 0.0056312992 0.088897735 -1 0 0 0
-0.025399998 0.0093855448 0.088973835 -1 0 0 0
-0.023103172 0.0254 0.088933021 0 1 0 0
-0.022065934 0.0254 0.088755354 0 1 0 0
-0.0094257444 0.0254 0.088778555 0 1 0 0
0.0039974712 0.0254 0.088913739 0 1 0 0
0.0065701287 0.0254 0.088921539 0 1 0 0
0.0085555259 0.025399998 0.088806391 0 1 0 0
-0.0254 -0.02032849 0.089012943 -1 0 0 0
0.0254 -0.019057071 0.089122839 1 0 0 0
0.025399998 -0.0062426021 0.089228414 1 0 0 0
-0.0254 -0.0022853524 0.089118391 -1 0 0 0
-0.025399998 0.00051781209 0.089153573 -1 0 0 0
-0.0254 0.00092110457 0.089002021 -1 0 0 0
-0.025399998 0.014154524 0.089130126 -1 0 0 0
-0.025399998 0.025165506 0.089115508 -1 0 0 0
-0.0254 0.025346769 0.089190364 -1 0 0 0
-0.0084258197 0.025400002 0.089243978 0 1 0 0
0.012583003 0.025399998 0.089153677 0 1 0 0
-0.0254 -0.015761076 0.089339435 -1 0 0 0
0.025399998 -0.0087192832 0.089490421 1 0 0 0
0.025400002 -0.0083589712 0.089478552 1 0 0 0
-0.0254 0.011920195 0.089492455 -1 0 0 0
-0.025399998 0.012952881 0.089456514 -1 0 0 0
0.0254 0.021482341 0.089316472 1 0 0 0
0.0254 0.023387691 0.089386269 1 0 0 0
-0.023999831 0.0254 0.089302093 0 1 0 0
0.0056625046 0.025399998 0.089491911 0 1 0 0
0.015288188 0.025399998 0.089355394 0 1 0 0
0.020472912 0.0254 0.089401513 0 1 0 0
-0.0254 -0.024304546 0.089611366 -1 0 0 0
0.0254 -0.0058017056 0.089690298 1 0 0 0
0.0254 0.0074083935 0.089736529 1 0 0 0
-0.0254 0.010417349 0.089597248 -1 0 0 0
0.0254 0.011971848 0.089749262 1 0 0 0
-0.025400002 -0.022753917 0.089857385 -1 0 0 0
0.025400002 -0.014718161 0.089863092 1 0 0 0
-0.018286342 0.025399998 0.089750767 0 1 0 0
0.0040750792 0.0254 0.089848787 0 1 0 0
-0.025399998 0.0035804156 0.090239219 -1 0 0 0
0.0254 0.017154751 0.090051435 1 0 0 0
-0.0254 0.017641505 0.090139285 -1 0 0 0
-0.015218432 0.0254 0.0902282 0 1 0 0
0.025399998 -0.014372683 0.090298504 1 0 0 0
0.025399998 0.001263557 0.090253264 1 0 0 0
-0.0254 0.0086996276 0.090377502 -1 0 0 0
-0.0254 0.011429096 0.090749949 -1 0 0 0
0.0254 0.013731278 0.090625845 1 0 0 0
-0.0254 0.0224701 0.090545222 -1 0 0 0
-0.018019916 0.025400002 0.090537123 0 1 0 0
-0.013227548 0.0254 0.090656921 0 1 0 0
-0.00069176545 0.0254 0.090652965 0 1 0 0
-0.0254 -0.023301303 0.090928495 -1 0 0 0
-0.025399998 -0.0055108778 0.090819202 -1 0 0 0
0.0254 0.016872451 0.090809084 1 0 0 0
-0.024372758 0.0254 0.090751126 0 1 0 0
-0.023771245 0.0254 0.090964317 0 1 0 0
-0.014612926 0.0254 0.090920925 0 1 0 0
-0.0254 -0.0072219111 0.091152705 -1 0 0 0
-0.0254 -0.0050417809 0.091121919 -1 0 0 0
-0.0254 0.023025742 0.091057166 -1 0 0 0
-0.024530828 0.025400002 0.091227084 0 1 0 0
-0.019988582 0.0254 0.091241352 0 1 0 0
-0.0254 -0.0014644489 0.091343343 -1 0 0 0
-0.025399998 0.0014762376 0.091483824 -1 0 0 0
-0.025400002 0.0031522647 0.091461204 -1 0 0 0
0.0254 0.018604545 0.091263711 1 0 0 0
-0.0088251652 0.025399998 0.091343299 0 1 0 0
0.0091940416 0.0254 0.091286808 0 1 0 0
0.016912224 0.0254 0.091258764 0 1 0 0
0.017784299 0.025399998 0.09133251 0 1 0 0
0.01889018 0.025399998 0.091329016 0 1 0 0
0.023183886 0.025400002 0.091499902 0 1 0 0
0.0254 -0.021250656 0.091619529 1 0 0 0
0.025400002 -0.015886899 0.091536827 1 0 0 0
0.0254 0.004285004 0.091671385 1 0 0 0
-0.0254 0.019950589 0.091725565 -1 0 0 0
-0.023965852 0.0254 0.091635302 0 1 0 0
-0.007816691 0.0254 0.091510192 0 1 0 0
-0.0012405673 0.025400002 0.091735899 0 1 0 0
0.025400002 0.0093328068 0.091762841 1 0 0 0
-0.0254 0.019435707 0.091766655 -1 0 0 0
0.025399998 0.020588214 0.091958813 1 0 0 0
-0.01273797 0.0254 0.091807783 0 1 0 0
0.02047712 0.025400002 0.091909349 0 1 0 0
-0.0254 -0.0079438053 0.092102125 -1 0 0 0
0.0254 -0.0057319049 0.09216994 1 0 0 0
0.0254 -0.0011529326 0.092071131 1 0 0 0
0.025399998 0.00059894379 0.092094377 1 0 0 0
0.025400002 0.012280339 0.092191122 1 0 0 0
-0.0092598796 0.0254 0.092088506 0 1 0 0
0.024617845 0.0254 0.092053577 0 1 0 0
0.025400002 -0.020465463 0.09235014 1 0 0 0
-0.0254 -0.017271854 0.092380762 -1 0 0 0
-0.0254 -0.021875728 0.092537485 -1 0 0 0
-0.0254 -0.021435514 0.092637792 -1 0 0 0
-0.0254 -0.0048559913 0.092674538 -1 0 0 0
-0.0254 0.0046872096 0.092639133 -1 0 0 0
0.0254 0.0084248502 0.092590503 1 0 0 0
0.025400002 0.012078892 0.092500433 1 0 0 0
0.025400002 0.018765321 0.092700228 1 0 0 0
0.025399998 0.02165268 0.092503503 1 0 0 0
-0.025399998 0.024990309 0.092642806 -1 0 0 0
0.0087984055 0.0254 0.092633694 0 1 0 0
0.013398971 0.025399998 0.092653185 0 1 0 0
0.020744087 0.025400002 0.092555813 0 1 0 0
-0.0254 -0.018751081 0.092943929 -1 0 0 0
0.025399998 -0.018031895 0.092825256 1 0 0 0
0.0254 -0.012034418 0.0928571 1 0 0 0
0.025400002 -0.0055213096 0.092795521 1 0 0 0
0.025400002 -0.001378539 0.092812046 1 0 0 0
-0.0254 0.0032556173 0.092891619 -1 0 0 0
0.025399998 0.0079183085 0.092945285 1 0 0 0
0.025399998 0.0095296232 0.092834622 1 0 0 0
0.025400002 0.025027558 0.092891142 1 0 0 0
-0.01082393 0.0254 0.092860311 0 1 0 0
-0.0053740833 0.025399998 0.092990167 0 1 0 0
-0.0045981435 0.025400002 0.092919722 0 1 0 0
0.0007924512 0.025399998 0.092757195 0 1 0 0
0.018204192 0.025399998 0.092827938 0 1 0 0
0.0254 -0.023858937 0.093167014 1 0 0 0
-0.025399998 -0.0030726809 0.093181893 -1 0 0 0
-0.025399998 -0.0012852894 0.093138367 -1 0 0 0
-0.0055123568 0.0254 0.093181714 0 1 0 0
0.016593274 0.025399998 0.093097478 0 1 0 0
0.0254 -0.00092204846 0.093473434 1 0 0 0
-0.0254 0.00046464847 0.093442313 -1 0 0 0
-0.0254 0.0046360018 0.093467094 -1 0 0 0
0.025399998 0.0093650958 0.093440317 1 0 0 0
-0.0254 0.0161305 0.093304895 -1 0 0 0
0.016459659 0.0254 0.093436077 0 1 0 0
0.0254 -0.019459771 0.09372741 1 0 0 0
-0.025400002 -0.006772724 0.09373688 -1 0 0 0
-0.0254 0.0011051912 0.093590736 -1 0 0 0
-0.025399998 0.0062388242 0.093687639 -1 0 0 0
0.025399998 0.021920379 0.093726747 1 0 0 0
-0.0036249813 0.0254 0.093629569 0 1 0 0
-0.0254 -0.0162603 0.093827918 -1 0 0 0
0.0254 -0.011026954 0.09380389 1 0 0 0
0.025399998 0.017283706 0.093984254 1 0 0 0
9.9186786e-05 0.0254 0.094174713 0 1 0 0
0.0006943983 0.025399998 0.094086327 0 1 0 0
0.025399998 -0.024608023 0.094324745 1 0 0 0
0.0254 -0.020942988 0.094252266 1 0 0 0
0.0254 -0.010034794 0.09445332 1 0 0 0
-0.025400002 0.017353594 0.094370611 -1 0 0 0
-0.025400002 -0.0071363673 0.094654158 -1 0 0 0
0.0254 0.012309361 0.094550014 1 0 0 0
0.025399998 -0.0069697797 0.094757833 1 0 0 0
0.025400002 0.0083355242 0.094759203 1 0 0 0
0.025399998 0.013458921 0.094772235 1 0 0 0
-0.025399998 0.014063042 0.094974622 -1 0 0 0
-0.017123252 0.025400002 0.094898708 0 1 0 0
0.025400002 -0.022480331 0.095161602 1 0 0 0
0.0254 -0.010288531 0.095117286 1 0 0 0
0.025399998 -0.0077139875 0.095002942 1 0 0 0
-0.025399998 -0.001424659 0.095181957 -1 0 0 0
0.0254 0.014984232 0.095172137 1 0 0 0
-0.0254 0.024734851 0.095040128 -1 0 0 0
-0.024869842 0.0254 0.095109865 0 1 0 0
0.0021941904 0.0254 0.095108449 0 1 0 0
0.025399998 -0.01830247 0.095277525 1 0 0 0
-0.0254 -0.016337981 0.095372275 -1 0 0 0
0.0254 -0.015083728 0.095462278 1 0 0 0
0.025399998 -0.0079769595 0.095263079 1 0 0 0
-0.0254 0.019697281 0.095287591 -1 0 0 0
0.0064866552 0.025399998 0.095496595 0 1 0 0
0.0107267 0.025399998 0.095324539 0 1 0 0
0.011949001 0.0254 0.09534546 0 1 0 0
0.01686543 0.025400002 0.09548334 0 1 0 0
-0.025400002 -0.014314516 0.095724262 -1 0 0 0
0.0254 -0.0023616012 0.095593594 1 0 0 0
-0.025400002 -0.001127935 0.095522791 -1 0 0 0
-0.025400002 0.0040716538 0.095533714 -1 0 0 0
0.025399998 0.011919592 0.095663354 1 0 0 0
0.0254 0.017122492 0.095546395 1 0 0 0
-0.0078597432 0.025399998 0.095566027 0 1 0 0
0.024492692 0.025399998 0.095722899 0 1 0 0
0.024923295 0.025399998 0.095596828 0 1 0 0
-0.025400002 0.013869651 0.09587355 -1 0 0 0
0.0038748421 0.0254 0.095756188 0 1 0 0
0.021719538 0.025399998 0.095946439 0 1 0 0
-0.0254 -0.016150072 0.096208163 -1 0 0 0
-0.025399998 -0.0066869725 0.096005902 -1 0 0 0
0.0254 0.0069955271 0.096246749 1 0 0 0
-0.0062810732 0.0254 0.096074626 0 1 0 0
0.025400002 -0.021457959 0.096377268 1 0 0 0
0.0254 -0.020341711 0.09633562 1 0 0 0
0.0254 -0.019051185 0.096421905 1 0 0 0
-0.0254 -0.0066937814 0.096460812 -1 0 0 0
0.008251315 0.025399998 0.096358702 0 1 0 0
0.021578077 0.025400002 0.096397609 0 1 0 0
-0.0254 -0.019779697 0.096730545 -1 0 0 0
-0.0254 -0.0052260114 0.096554808 -1 0 0 0
0.0254 -0.0049120784 0.096526489 1 0 0 0
-0.025399998 0.016293943 0.096737489 -1 0 0 0
-0.010790462 0.0254 0.096683048 0 1 0 0
0.025399998 0.018399926 0.096991271 1 0 0 0
0.025399998 0.02136315 0.096861735 1 0 0 0
0.0062775798 0.025399998 0.096757606 0 1 0 0
0.011456818 0.025399998 0.096806787 0 1 0 0
0.015065182 0.025399998 0.096774869 0 1 0 0
0.017741159 0.025400002 0.096826792 0 1 0 0
-0.0254 -0.025000308 0.097180262 -1 0 0 0
0.025399998 -0.020981342 0.097117193 1 0 0 0
-0.0254 -0.011905841 0.097107142 -1 0 0 0
0.0254 0.0030565783 0.09717942 1 0 0 0
0.025400002 0.0051699234 0.09721797 1 0 0 0
-0.0015217876 0.0254 0.097228892 0 1 0 0
0.021106947 0.025400002 0.09709233 0 1 0 0
0.021342617 0.025400002 0.097009085 0 1 0 0
-0.025400002 -0.018434269 0.097377628 -1 0 0 0
-0.025399998 -0.0081206029 0.097463526 -1 0 0 0
0.0254 -0.0015202053 0.097338825 1 0 0 0
0.025400002 0.0059435926 0.097472996 1 0 0 0
-0.025399998 0.010669751 0.097393066 -1 0 0 0
0.025399998 0.010934493 0.097417392 1 0 0 0
-0.0025663152 0.0254 0.097405896 0 1 0 0
0.012912752 0.0254 0.097264022 0 1 0 0
0.0254 -0.017059995 0.097533792 1 0 0 0
0.0254 0.019460715 0.097554862 1 0 0 0
0.025400002 0.019610386 0.097589932 1 0 0 0
-0.018325435 0.025399998 0.097628847 0 1 0 0
-0.0028460519 0.0254 0.097675227 0 1 0 0
0.0069909161 0.025399998 0.097594343 0 1 0 0
0.016202204 0.0254 0.097553089 0 1 0 0
0.025303274 0.025399998 0.097649761 0 1 0 0
0.025400002 0.0048979735 0.097752199 1 0 0 0
-0.025400002 0.0095877275 0.097955935 -1 0 0 0
0.025400002 0.017048722 0.097862661 1 0 0 0
-0.025400002 0.023263756 0.097930312 -1 0 0 0
-0.0254 -0.021692712 0.098072834 -1 0 0 0
0.0254 -0.015552705 0.098161861 1 0 0 0
0.0254 -0.014453562 0.098244093 1 0 0 0
-0.0254 -0.0042593349 0.098071136 -1 0 0 0
-0.025400002 -0.00095875654 0.098177791 -1 0 0 0
-0.025400002 0.0094269887 0.09814018 -1 0 0 0
-0.011549853 0.0254 0.098010503 0 1 0 0
0.0035632174 0.0254 0.098124586 0 1 0 0
0.013870833 0.025400002 0.098012425 0 1 0 0
0.025400002 -0.0089777196 0.098328717 1 0 0 0
0.025399998 -0.0024153469 0.098278604 1 0 0 0
-0.025399998 0.0036192969 0.098473653 -1 0 0 0
0.025400002 0.0086482745 0.09832105 1 0 0 0
0.025400002 0.014223506 0.098441914 1 0 0 0
-0.023506721 0.0254 0.098404475 0 1 0 0
2.0360574e-05 0.025400002 0.098373763 0 1 0 0
-0.0254 -0.019447289 0.098561063 -1 0 0 0
0.025399998 -0.014433778 0.098652914 1 0 0 0
0.0254 -0.0014782231 0.098537646 1 0 0 0
0.0254 0.00622092 0.098639719 1 0 0 0
0.025400002 0.015068923 0.098605022 1 0 0 0
0.0254 0.023240678 0.098508 1 0 0 0
0.007214902 0.0254 0.098674826 0 1 0 0
-0.0254 -0.012235397 0.098882675 -1 0 0 0
-0.025400002 -0.0056985309 0.098987363 -1 0 0 0
0.025400002 -0.002326373 0.09878549 1 0 0 0
-0.025400002 0.0049161799 0.098772123 -1 0 0 0
0.025400002 0.011949943 0.098854013 1 0 0 0
-0.025399998 0.023617052 0.098811291 -1 0 0 0
0.0072114868 0.0254 0.09893328 0 1 0 0
0.016805101 0.025400002 0.098994568 0 1 0 0
-0.025399998 0.014954446 0.099066928 -1 0 0 0
-0.025399998 0.018134799 0.099230006 -1 0 0 0
0.0069559561 0.025399998 0.099126548 0 1 0 0
0.009323095 0.025400002 0.099213228 0 1 0 0
0.025133684 0.025400002 0.099091217 0 1 0 0
-0.0254 -0.024542971 0.099286743 -1 0 0 0
0.025400002 -0.012469837 0.099416032 1 0 0 0
-0.0254 -0.0028322218 0.099459328 -1 0 0 0
-0.0254 0.00076690409 0.099278316 -1 0 0 0
-0.0254 0.017773617 0.099379785 -1 0 0 0
-0.015506043 0.0254 0.09943305 0 1 0 0
-0.012338256 0.0254 0.099338852 0 1 0 0
-0.0048862062 0.025399998 0.099285692 0 1 0 0
0.0044939313 0.0254 0.099410355 0 1 0 0
0.016053639 0.025400002 0.099426843 0 1 0 0
0.0254 -0.023311058 0.099608526 1 0 0 0
0.0254 -0.012648521 0.099637933 1 0 0 0
0.0254 -0.0087073538 0.099558413 1 0 0 0
-0.0254 0.010765468 0.099657021 -1 0 0 0
-0.025399998 0.016002119 0.099587336 -1 0 0 0
-0.0034233704 0.025399998 0.099575303 0 1 0 0
0.00078925025 0.025399998 0.09956947 0 1 0 0
0.016658399 0.0254 0.09959767 0 1 0 0
0.0254 -0.019795245 0.099918135 1 0 0 0
0.0254 -0.0035383962 0.099969521 1 0 0 0
-0.01890404 0.0254 0.099960208 0 1 0 0
-0.012078708 0.025400002 0.099951267 0 1 0 0
0.025399998 0.011342553 0.10005081 1 0 0 0
0.025400002 0.014258016 0.10007654 1 0 0 0
-0.016692683 0.025400002 0.1000098 0 1 0 0
0.0040419302 0.0254 0.10015741 0 1 0 0
0.0055487556 0.025399998 0.10014766 0 1 0 0
0.0057919398 0.0254 0.10023556 0 1 0 0
0.014661396 0.025400002 0.10004923 0 1 0 0
0.019884311 0.025399998 0.1001546 0 1 0 0
0.0254 -0.0089400094 0.10043771 1 0 0 0
-0.025399998 -0.0067925258 0.10040241 -1 0 0 0
0.025400002 -0.002677069 0.10032517 1 0 0 0
-0.025400002 -0.0019743629 0.10032001 -1 0 0 0
-0.0254 0.0047873906 0.10044117 -1 0 0 0
-0.025400002 0.0056649381 0.10029548 -1 0 0 0
0.0254 0.0087461406 0.10046628 1 0 0 0
-0.025400002 0.022391183 0.10027781 -1 0 0 0
-0.0254 0.023838688 0.10031494 -1 0 0 0
0.0042263381 0.025400002 0.10043509 0 1 0 0
0.025400002 -0.021053087 0.10055837 1 0 0 0
0.0254 -0.017877629 0.10069184 1 0 0 0
-0.0254 -0.016805014 0.10052842 -1 0 0 0
-0.025400002 0.0048259073 0.10071921 -1 0 0 0
0.0254 0.0068309326 0.10064953 1 0 0 0
0.0254 0.0091170697 0.1007136 1 0 0 0
0.025400002 0.022954604 0.10058121 1 0 0 0
-0.0254 -0.021738665 0.10076012 -1 0 0 0
-0.020864626 0.025400002 0.10091925 0 1 0 0
-0.016127622 0.0254 0.10077327 0 1 0 0
0.0095882658 0.0254 0.10082535 0 1 0 0
0.019260066 0.025400002 0.10086507 0 1 0 0
0.023782875 0.0254 0.10091013 0 1 0 0
-0.0254 -0.018442245 0.10123839 -1 0 0 0
0.025400002 -0.016705278 0.10104318 1 0 0 0
0.025400002 -0.013731291 0.10124698 1 0 0 0
0.025400002 -0.011307453 0.10123648 1 0 0 0
-0.0254 0.0052428725 0.10110472 -1 0 0 0
0.025399998 0.021051466 0.1010569 1 0 0 0
0.025400002 0.024197128 0.10101558 1 0 0 0
-0.016590049 0.0254 0.10108525 0 1 0 0
-0.0254 -0.022581983 0.10129631 -1 0 0 0
0.0254 -0.012509147 0.10140847 1 0 0 0
0.0254 -0.0052154008 0.10148957 1 0 0 0
-0.018314945 0.025399998 0.10140365 0 1 0 0
-0.010391092 0.025400002 0.10127828 0 1 0 0
-0.0254 -0.019990642 0.1017195 -1 0 0 0
-0.0254 -0.018815694 0.10160608 -1 0 0 0
0.025400002 -0.011790075 0.10161335 1 0 0 0
0.025400002 -0.0071073407 0.10151206 1 0 0 0
0.0062499912 0.025400002 0.10157986 0 1 0 0
0.020906258 0.025399998 0.10174476 0 1 0 0
-0.025399998 -0.021360829 0.10184187 -1 0 0 0
0.025400002 -0.002800432 0.1018444 1 0 0 0
0.0254 0.01078473 0.10191227 1 0 0 0
-0.025399998 0.017577484 0.10187289 -1 0 0 0
-0.0067869136 0.025400002 0.10194674 0 1 0 0
-0.0066755041 0.0254 0.10176893 0 1 0 0
-0.0033759922 0.025400002 0.10198688 0 1 0 0
-0.0029086052 0.025400002 0.10178362 0 1 0 0
0.019860774 0.0254 0.10195021 0 1 0 0
0.0254 -0.0088108499 0.10201579 1 0 0 0
-0.025399998 -0.00067458488 0.10211823 -1 0 0 0
0.0254 0.0062624644 0.10220555 1 0 0 0
0.025400002 0.013473824 0.10211181 1 0 0 0
-0.010562551 0.025399998 0.10201511 0 1 0 0
-0.00050556939 0.025399998 0.10221642 0 1 0 0
0.0020021917 0.025400002 0.10205913 0 1 0 0
0.0254 -0.014114818 0.10242838 1 0 0 0
-0.0254 -0.00046453159 0.10245918 -1 0 0 0
0.025400002 0.0010535065 0.10236788 1 0 0 0
-0.025399998 0.015619739 0.10246996 -1 0 0 0
-0.025399998 0.018996434 0.10241548 -1 0 0 0
0.025399998 0.019453423 0.10228157 1 0 0 0
-0.025400002 0.020940542 0.10245556 -1 0 0 0
-0.013294466 0.025400002 0.10247464 0 1 0 0
0.0254 -0.020855134 0.10254809 1 0 0 0
-0.025399998 -0.016315056 0.10258295 -1 0 0 0
-0.025400002 -0.0059834709 0.10266785 -1 0 0 0
-0.025400002 0.017334454 0.10253862 -1 0 0 0
-0.023460118 0.0254 0.10268173 0 1 0 0
0.0011132741 0.025399998 0.10257324 0 1 0 0
0.014874794 0.025400002 0.10263254 0 1 0 0
-0.025399998 -0.023368008 0.10295863 -1 0 0 0
-0.0254 -0.021095837 0.102929 -1 0 0 0
-0.025400002 -0.0091331257 0.10278646 -1 0 0 0
-0.0254 0.010289945 0.10280009 -1 0 0 0
0.025399998 0.017340271 0.10298576 1 0 0 0
-0.0082634278 0.025399998 0.1028697 0 1 0 0
0.02012991 0.025400002 0.10280992 0 1 0 0
-0.0254 -0.0099867359 0.10320681 -1 0 0 0
0.0254 0.0021016877 0.10303724 1 0 0 0
-0.025399998 0.014948433 0.10307681 -1 0 0 0
-0.0254 0.017772676 0.10318935 -1 0 0 0
-0.003244522 0.025400002 0.10321433 0 1 0 0
0.0020004287 0.025400002 0.10311543 0 1 0 0
-0.025400002 -0.024380915 0.10331345 -1 0 0 0
-0.0254 -0.021410897 0.10346986 -1 0 0 0
0.0254 -0.015545523 0.10330523 1 0 0 0
0.0254 -0.014188355 0.10335188 1 0 0 0
-0.0254 -0.0072109983 0.10340739 -1 0 0 0
-0.0254 -0.005014916 0.10340191 -1 0 0 0
-0.025400002 0.0054006334 0.103324 -1 0 0 0
0.025400002 0.0056447433 0.10326898 1 0 0 0
-0.025400002 0.023724115 0.10345873 -1 0 0 0
-0.021687545 0.025400002 0.10346481 0 1 0 0
-0.025400002 0.0090195574 0.10366146 -1 0 0 0
-0.0254 0.017286841 0.10354269 -1 0 0 0
0.025399998 0.018241016 0.10358356 1 0 0 0
0.0040806844 0.0254 0.10355794 0 1 0 0
0.0254 -0.022479529 0.10397013 1 0 0 0
-0.0254 -0.011268296 0.1038812 -1 0 0 0
-0.025399998 0.024473015 0.10386443 -1 0 0 0
-0.0076382239 0.0254 0.10399202 0 1 0 0
0.0254 -0.016026178 0.10401183 1 0 0 0
-0.025400002 -0.0041876286 0.10421877 -1 0 0 0
-0.0254 0.0069788676 0.10419665 -1 0 0 0
-0.0254 0.0095975539 0.1040969 -1 0 0 0
-0.0254 0.012251512 0.10422202 -1 0 0 0
-0.0254 0.017331354 0.10416173 -1 0 0 0
0.0031829113 0.025399998 0.10421974 0 1 0 0
0.0254 -0.015723972 0.10436769 1 0 0 0
-0.025400002 -0.0043160515 0.10428283 -1 0 0 0
0.0254 0.0022682082 0.1043136 1 0 0 0
-0.025400002 0.014441698 0.1044342 -1 0 0 0
-0.017162859 0.025400002 0.10428397 0 1 0 0
-0.012090618 0.025399998 0.10430247 0 1 0 0
0.012799068 0.025399998 0.10432006 0 1 0 0
-0.0254 -0.016227853 0.10451026 -1 0 0 0
0.025399998 -0.010122023 0.1047145 1 0 0 0
-0.025400002 0.021225076 0.10459175 -1 0 0 0
-0.011218275 0.025399998 0.10455612 0 1 0 0
-0.0036279913 0.025399998 0.10454334 0 1 0 0
0.025400002 0.024798073 0.10488655 1 0 0 0
-0.025331715 0.0254 0.10486214 0 1 0 0
-0.021669872 0.0254 0.1047561 0 1 0 0
-0.021290258 0.0254 0.10477246 0 1 0 0
-0.0057039233 0.025400002 0.10478665 0 1 0 0
-0.0053879786 0.025399998 0.10487124 0 1 0 0
-0.0039520329 0.025399998 0.10482243 0 1 0 0
0.025399998 -0.017898202 0.1050927 1 0 0 0
0.0254 -0.015325656 0.1051629 1 0 0 0
0.025399998 -0.012615248 0.10517643 1 0 0 0
0.0254 -0.0053780302 0.10500374 1 0 0 0
-0.025400002 0.024836335 0.10515874 -1 0 0 0
-0.0254 -0.025104614 0.10536048 -1 0 0 0
-0.0254 -0.0094762687 0.10543706 -1 0 0 0
-0.025400002 0.0034768842 0.1054234 -1 0 0 0
0.0254 0.011910031 0.10530484 1 0 0 0
0.025400002 0.0064453185 0.1056466 1 0 0 0
-0.025400002 0.01644096 0.10551614 -1 0 0 0
-0.025400002 0.02220919 0.1056703 -1 0 0 0
-0.0019217217 0.025399998 0.10563564 0 1 0 0
0.021000843 0.0254 0.10554456 0 1 0 0
-0.0254 -0.016595414 0.10593904 -1 0 0 0
-0.025400002 -0.0069081215 0.1059803 -1 0 0 0
0.0254 0.015068718 0.10592037 1 0 0 0
-0.023635864 0.0254 0.10595029 0 1 0 0
0.025399998 -0.020088103 0.10612909 1 0 0 0
0.0254 -0.019848144 0.1060552 1 0 0 0
-0.025400002 -0.0025988175 0.10602582 -1 0 0 0
-0.0254 0.0030035498 0.1060991 -1 0 0 0
-0.025399998 0.014598896 0.10615179 -1 0 0 0
0.0254 0.014965446 0.10608433 1 0 0 0
0.025400002 0.019913638 0.10623506 1 0 0 0
0.011790741 0.0254 0.10616118 0 1 0 0
0.014980117 0.025399998 0.10624201 0 1 0 0
0.021133766 0.0254 0.10615879 0 1 0 0
-0.025399998 -0.022907462 0.1062933 -1 0 0 0
0.0254 -0.020445416 0.10635298 1 0 0 0
0.0254 -0.01556558 0.10628678 1 0 0 0
0.025400002 -0.0063422704 0.10643316 1 0 0 0
0.0254 -0.0034263507 0.10643862 1 0 0 0
0.025400002 -0.0023421934 0.10634081 1 0 0 0
0.025399998 0.0094715552 0.10630199 1 0 0 0
0.025399998 0.012685684 0.10648997 1 0 0 0
-0.025399998 0.015894692 0.10648986 -1 0 0 0
-0.0055827703 0.025399998 0.10645454 0 1 0 0
-0.0254 -0.019025074 0.10660013 -1 0 0 0
-0.025399998 -0.014187086 0.10662894 -1 0 0 0
-0.025400002 -0.011204488 0.10650137 -1 0 0 0
-0.025400002 0.023374427 0.10650641 -1 0 0 0
0.0254 0.024670459 0.10652372 1 0 0 0
0.0049999962 0.0254 0.10669186 0 1 0 0
0.0254 -0.013117978 0.10675546 1 0 0 0
-0.0254 -0.0041702027 0.10693516 -1 0 0 0
0.024984263 0.025400002 0.10696434 0 1 0 0
-0.0254 -0.013871959 0.10715352 -1 0 0 0
0.025400002 0.0013750233 0.10707046 1 0 0 0
0.0254 0.0065280553 0.10700125 1 0 0 0
0.025399998 0.0087260827 0.1072363 1 0 0 0
0.0013292208 0.0254 0.10718715 0 1 0 0
0.007273084 0.0254 0.10707043 0 1 0 0
0.0254 -0.024690153 0.1073473 1 0 0 0
0.0254 -0.015162209 0.10740785 1 0 0 0
0.0254 -0.010580162 0.10743688 1 0 0 0
-0.025399998 0.00087346137 0.10728859 -1 0 0 0
0.0254 0.0013392661 0.10733778 1 0 0 0
0.025399998 0.0060755862 0.10728732 1 0 0 0
-0.025399998 0.010450005 0.10740995 -1 0 0 0
-0.0254 0.016977422 0.10735007 -1 0 0 0
0.0254 0.021288078 0.10739832 1 0 0 0
0.0032122554 0.0254 0.10745443 0 1 0 0
0.0254 -0.014182663 0.1076392 1 0 0 0
0.025399998 -0.0043432834 0.10764197 1 0 0 0
0.025400002 0.00065246131 0.10751143 1 0 0 0
-0.0254 0.0031226128 0.10772664 -1 0 0 0
0.025400002 0.007374783 0.10766175 1 0 0 0
0.025400002 0.018285463 0.10760462 1 0 0 0
0.025400002 0.022430532 0.10761155 1 0 0 0
-0.020706858 0.025400002 0.10763457 0 1 0 0
-0.0061994316 0.025400002 0.10774359 0 1 0 0
0.02367178 0.025400002 0.10765926 0 1 0 0
-0.0254 -0.015101684 0.10789105 -1 0 0 0
0.0254 -0.011631915 0.1078228 1 0 0 0
0.0254 0.0061979378 0.10776988 1 0 0 0
0.025399998 0.0067906519 0.10795656 1 0 0 0
0.0254 0.010592999 0.10784095 1 0 0 0
-0.025399998 0.011865911 0.10786671 -1 0 0 0
0.0254 0.020177694 0.10782216 1 0 0 0
-0.025399998 0.014142639 0.10805021 -1 0 0 0
0.0057996982 0.025400002 0.10824773 0 1 0 0
0.011756514 0.0254 0.10816187 0 1 0 0
-0.0254 -0.02518234 0.10827126 -1 0 0 0
-0.0254 -0.017719295 0.10828498 -1 0 0 0
-0.0254 -0.014787249 0.10846561 -1 0 0 0
0.025399998 -0.0097861476 0.10831141 1 0 0 0
-0.025400002 0.0070386482 0.10843901 -1 0 0 0
0.025400002 0.010549435 0.10847998 1 0 0 0
-0.0254 0.02260044 0.10848662 -1 0 0 0
-0.0039759874 0.025399998 0.10844525 0 1 0 0
0.0052791475 0.025399998 0.10828556 0 1 0 0
0.025400002 0.00079924054 0.10866848 1 0 0 0
0.0254 0.0029703453 0.10854883 1 0 0 0
-0.013952693 0.0254 0.10867919 0 1 0 0
0.0254 0.0077285888 0.10895808 1 0 0 0
0.025399998 0.022214456 0.10888384 1 0 0 0
-0.014765231 0.025400002 0.10888711 0 1 0 0
-0.014466165 0.0254 0.10876995 0 1 0 0
-0.011476102 0.0254 0.10896669 0 1 0 0
-0.025399998 -0.02453148 0.10905273 -1 0 0 0
0.0254 -0.016582234 0.10913178 1 0 0 0
-0.025400002 0.02119145 0.10911106 -1 0 0 0
-0.0228393 0.0254 0.10904276 0 1 0 0
0.025399998 -0.0092667928 0.1092527 1 0 0 0
0.0254 -0.0013816804 0.10943194 1 0 0 0
0.025399998 0.015630975 0.10933749 1 0 0 0
-0.0083596222 0.0254 0.10945641 0 1 0 0
0.0254 -0.021186674 0.10969899 1 0 0 0
-0.0254 -0.020671148 0.1096494 -1 0 0 0
0.025399998 -0.0073985634 0.10950214 1 0 0 0
0.025400002 0.021180663 0.10950356 1 0 0 0
-0.014376175 0.0254 0.10966545 0 1 0 0
0.0022133365 0.0254 0.10969853 0 1 0 0
-0.0254 -0.01010098 0.10977818 -1 0 0 0
-0.023470242 0.0254 0.1097848 0 1 0 0
0.0022522234 0.0254 0.10980712 0 1 0 0
-0.0254 -0.015639512 0.11013085 -1 0 0 0
0.025399998 0.023654174 0.1100009 1 0 0 0
-0.0011415323 0.0254 0.11023119 0 1 0 0
0.011359995 0.0254 0.11019676 0 1 0 0
0.0254 -0.023690542 0.11039165 1 0 0 0
0.025400002 -0.021576099 0.11048008 1 0 0 0
0.0254 -0.0068759453 0.11032812 1 0 0 0
0.025399998 0.0027409429 0.11046989 1 0 0 0
0.0254 0.0088167973 0.11045525 1 0 0 0
0.025400002 0.01165251 0.11039823 1 0 0 0
-0.025399998 0.020150121 0.11030065 -1 0 0 0
-0.022273337 0.0254 0.11027068 0 1 0 0
-0.020283254 0.025400002 0.11041875 0 1 0 0
0.0096139917 0.0254 0.11032405 0 1 0 0
0.021282509 0.0254 0.11046054 0 1 0 0
0.0254 -0.017810451 0.11050745 1 0 0 0
0.025400002 -0.012041205 0.11050935 1 0 0 0
-0.0254 -0.0050217388 0.11074467 -1 0 0 0
0.025399998 -0.0038286475 0.11070824 1 0 0 0
-0.025399998 0.0013118666 0.1106822 -1 0 0 0
-0.0254 0.0031169024 0.11055534 -1 0 0 0
0.0254 0.0060535716 0.11065617 1 0 0 0
-0.025399998 0.014741195 0.11051066 -1 0 0 0
-0.0063475603 0.025399998 0.11065827 0 1 0 0
-0.025400002 -0.017242167 0.11089137 -1 0 0 0
-0.0254 -0.0168528 0.11080172 -1 0 0 0
-0.025399998 -0.013818934 0.1107878 -1 0 0 0
0.0254 -0.0014308896 0.11078309 1 0 0 0
-0.025399998 0.015773125 0.1109799 -1 0 0 0
0.018487247 0.025400002 0.11098675 0 1 0 0
0.0254 -0.024285303 0.11110649 1 0 0 0
0.025399998 -0.013890288 0.11105971 1 0 0 0
-0.025400002 -0.0086151883 0.11120725 -1 0 0 0
-0.0254 -0.0026833052 0.11118385 -1 0 0 0
0.0254 0.00065571256 0.11108994 1 0 0 0
-0.0254 0.007737889 0.11114544 -1 0 0 0
0.025400002 0.007610315 0.11102065 1 0 0 0
-0.010451992 0.025400002 0.11115853 0 1 0 0
0.021597048 0.0254 0.11102841 0 1 0 0
-0.0254 -0.018000329 0.11143246 -1 0 0 0
0.0254 -0.018232184 0.11130198 1 0 0 0
0.0254 -0.01682415 0.1113039 1 0 0 0
-0.0254 0.0029199636 0.11135241 -1 0 0 0
-0.0254 0.013925276 0.11148426 -1 0 0 0
0.022862345 0.0254 0.11132657 0 1 0 0
0.0254 -0.024818478 0.11162145 1 0 0 0
-0.025400002 -0.020556979 0.11161222 -1 0 0 0
0.0254 0.016102245 0.11150657 1 0 0 0
-0.0254 0.025370803 0.11159248 -1 0 0 0
-0.020338494 0.0254 0.1116105 0 1 0 0
-0.0050853509 0.0254 0.11169783 0 1 0 0
-0.0004413873 0.0254 0.11174496 0 1 0 0
0.0016494952 0.0254 0.11173061 0 1 0 0
0.022720255 0.0254 0.1115589 0 1 0 0
-0.0254 -0.024745848 0.11187048 -1 0 0 0
-0.025400002 -0.020051448 0.11179747 -1 0 0 0
0.025399998 -0.014930404 0.1117714 1 0 0 0
-0.0254 -0.0034974795 0.11177976 -1 0 0 0
0.0254 0.012477158 0.11182211 1 0 0 0
-0.0254 0.023223523 0.11179887 -1 0 0 0
-0.024421852 0.0254 0.11198083 0 1 0 0
-0.0237781 0.0254 0.11181126 0 1 0 0
0.0254 -0.018766603 0.11214475 1 0 0 0
-0.0254 -0.014139049 0.11219131 -1 0 0 0
0.025400002 -0.013162361 0.11221282 1 0 0 0
-0.0254 -0.0027764011 0.11204035 -1 0 0 0
0.0254 9.1816299e-05 0.11215717 1 0 0 0
0.025400002 0.0031273044 0.11216219 1 0 0 0
0.025399998 0.01206388 0.11205736 1 0 0 0
-0.0254 0.018615896 0.112218 -1 0 0 0
-0.0254 0.022425119 0.11209686 -1 0 0 0
-0.0091154054 0.0254 0.11207314 0 1 0 0
0.0254 -0.021681907 0.11242162 1 0 0 0
0.0254 -0.017315997 0.11245809 1 0 0 0
-0.0254 -0.015098266 0.11232602 -1 0 0 0
0.0254 -0.014018642 0.11229117 1 0 0 0
0.025400002 -0.012036543 0.11243625 1 0 0 0
0.025400002 0.00016425829 0.112385 1 0 0 0
0.0254 0.0066011669 0.11238623 1 0 0 0
-0.0254 0.0083634062 0.11235418 -1 0 0 0
-0.0254 0.02486877 0.11238156 -1 0 0 0
-0.00050738268 0.0254 0.11232629 0 1 0 0
0.00042658392 0.0254 0.11240023 0 1 0 0
0.0254 -0.01839372 0.11250398 1 0 0 0
0.0254 -0.013415532 0.11259267 1 0 0 0
-0.025400002 -0.0076611633 0.11269925 -1 0 0 0
0.0254 -0.0036192173 0.11262988 1 0 0 0
-0.0254 0.014931468 0.11263565 -1 0 0 0
-0.023690633 0.0254 0.11270418 0 1 0 0
-0.002361632 0.0254 0.11250277 0 1 0 0
0.0013051275 0.025400002 0.11274297 0 1 0 0
0.0066013262 0.025400002 0.11263532 0 1 0 0
0.020854279 0.0254 0.11265742 0 1 0 0
0.025018968 0.0254 0.11267862 0 1 0 0
-0.0254 -0.023602936 0.11292017 -1 0 0 0
0.025400002 -0.012273114 0.11276796 1 0 0 0
0.025400002 0.0026210425 0.11298057 1 0 0 0
-0.0254 0.0047494699 0.11289598 -1 0 0 0
-0.0254 0.0048502064 0.1129021 -1 0 0 0
0.0254 0.013063647 0.11298287 1 0 0 0
-0.024010208 0.0254 0.11279652 0 1 0 0
-0.0254 0.00085530989 0.11324871 -1 0 0 0
-0.017113857 0.025400002 0.11310317 0 1 0 0
-0.0045873914 0.0254 0.11313988 0 1 0 0
0.0254 -0.024471143 0.11347694 1 0 0 0
0.025400002 -0.015674137 0.1133469 1 0 0 0
0.020025827 0.025399998 0.11347576 0 1 0 0
0.022813108 0.0254 0.11346819 0 1 0 0
0.0254 -0.023999667 0.11350911 1 0 0 0
0.0254 -0.018411508 0.11351842 1 0 0 0
0.0254 -0.010375222 0.11352073 1 0 0 0
0.025399998 -0.0066535724 0.1136164 1 0 0 0
-0.0254 -0.0049062641 0.11353221 -1 0 0 0
-0.0254 0.007386066 0.11352389 -1 0 0 0
0.0254 0.0091444748 0.11358584 1 0 0 0
-0.021003019 0.0254 0.11361001 0 1 0 0
-0.018311212 0.0254 0.11361429 0 1 0 0
0.0254 -0.019636916 0.11386099 1 0 0 0
-0.0254 -0.0081060426 0.11382254 -1 0 0 0
-0.0254 0.00071763061 0.11387679 -1 0 0 0
-0.0254 0.0027151159 0.11378837 -1 0 0 0
-0.0254 0.011836546 0.11376007 -1 0 0 0
-0.012609281 0.0254 0.11377347 0 1 0 0
-0.0096643865 0.025399998 0.11397082 0 1 0 0
0.0042428714 0.0254 0.11388112 0 1 0 0
-0.0254 -0.020207841 0.11420676 -1 0 0 0
0.025399998 -0.014251314 0.11408739 1 0 0 0
0.025400002 0.0037124427 0.11406492 1 0 0 0
0.0254 0.019716429 0.11413011 1 0 0 0
-0.014293554 0.025399998 0.11423063 0 1 0 0
-0.0018364592 0.0254 0.11424898 0 1 0 0
0.016014012 0.025400002 0.1140008 0 1 0 0
0.0254 -0.022251865 0.11432001 1 0 0 0
0.0254 -0.0098660346 0.11436477 1 0 0 0
-0.0254 0.0071657724 0.1144674 -1 0 0 0
0.0254 0.012305052 0.11440896 1 0 0 0
-0.011592893 0.025399998 0.11432894 0 1 0 0
0.012150476 0.0254 0.11449803 0 1 0 0
0.016494358 0.0254 0.11439543 0 1 0 0
-0.025399998 -0.011031407 0.11470696 -1 0 0 0
-0.0254 -0.0066271294 0.11459461 -1 0 0 0
-0.025399998 0.015441995 0.11465553 -1 0 0 0
0.019036498 0.025400002 0.11461578 0 1 0 0
0.0254 -0.017604852 0.1148378 1 0 0 0
-0.025400002 -0.013167398 0.11498112 -1 0 0 0
0.025400002 -0.012158662 0.11496059 1 0 0 0
0.025400002 -0.0045882287 0.11481368 1 0 0 0
-0.025399998 0.0029647094 0.1148057 -1 0 0 0
0.0254 0.0047664484 0.11499322 1 0 0 0
0.0254 0.011770595 0.11480876 1 0 0 0
-0.0254 0.020752694 0.11496846 -1 0 0 0
-0.0058327364 0.0254 0.11491787 0 1 0 0
0.0038611693 0.0254 0.11489929 0 1 0 0
0.020778187 0.025400002 0.11497788 0 1 0 0
0.021136161 0.025400002 0.11485013 0 1 0 0
0.0254 0.014392854 0.11511377 1 0 0 0
0.025400002 0.024981882 0.11523528 1 0 0 0
-0.0074311038 0.0254 0.11518054 0 1 0 0
-0.0060051344 0.0254 0.11518464 0 1 0 0
0.0021296237 0.0254 0.11517752 0 1 0 0
0.016561016 0.025399998 0.11510975 0 1 0 0
-0.0254 -0.010439836 0.11527615 -1 0 0 0
0.0254 -0.0051595438 0.11534102 1 0 0 0
0.0254 0.00046112202 0.1154948 1 0 0 0
-0.0254 0.014490576 0.11545772 -1 0 0 0
0.025399998 0.016695045 0.11542098 1 0 0 0
-0.02155917 0.0254 0.11543481 0 1 0 0
0.00077948347 0.0254 0.11527499 0 1 0 0
0.0046172501 0.0254 0.11536877 0 1 0 0
0.0254 0.0057247402 0.11567357 1 0 0 0
-0.023355063 0.025399998 0.11550909 0 1 0 0
-0.017365962 0.025399998 0.11564392 0 1 0 0
0.00034826435 0.0254 0.11564717 0 1 0 0
-0.0254 -0.024188414 0.11592573 -1 0 0 0
-0.0254 -0.021042835 0.11599404 -1 0 0 0
-0.0254 -0.0052138357 0.11596918 -1 0 0 0
-0.0254 0.0050213728 0.11593518 -1 0 0 0
-0.025400002 0.0067702113 0.11597638 -1 0 0 0
0.025400002 0.0081201941 0.11578343 1 0 0 0
0.025400002 0.011436796 0.11591899 1 0 0 0
-0.0254 0.012182485 0.11577308 -1 0 0 0
0.025400002 0.025085621 0.11599276 1 0 0 0
0.00022901781 0.0254 0.11587781 0 1 0 0
-0.0254 -0.022684865 0.11621036 -1 0 0 0
-0.0254 -0.0055128084 0.11621702 -1 0 0 0
-0.02304196 0.025400002 0.116116 0 1 0 0
0.014366614 0.025399998 0.11605896 0 1 0 0
0.019953234 0.0254 0.11611485 0 1 0 0
0.025399998 -0.022608519 0.11635371 1 0 0 0
0.025399998 -0.020591736 0.11644201 1 0 0 0
-0.0254 -0.00020052772 0.11639085 -1 0 0 0
0.025400002 0.0055619683 0.1162662 1 0 0 0
0.0254 0.0061625009 0.11629894 1 0 0 0
-0.0254 0.016257172 0.11637544 -1 0 0 0
-0.00060220528 0.025400002 0.11635056 0 1 0 0
0.0055933404 0.0254 0.11628652 0 1 0 0
-0.025399998 -0.021832814 0.11672059 -1 0 0 0
-0.0254 -0.0064896937 0.11670401 -1 0 0 0
-0.0254 0.0077270945 0.11650017 -1 0 0 0
-0.025400002 0.012031231 0.11652175 -1 0 0 0
-0.0254 0.016677096 0.11655597 -1 0 0 0
0.0084179696 0.0254 0.11653927 0 1 0 0
0.0254 -0.024560941 0.11680768 1 0 0 0
-0.0254 0.013249226 0.11690631 -1 0 0 0
0.025400002 0.017789276 0.11683682 1 0 0 0
0.017445046 0.025400002 0.11683916 0 1 0 0
-0.0254 -0.018500922 0.11716664 -1 0 0 0
-0.0254 -0.016139744 0.11709727 -1 0 0 0
-0.025400002 -0.0079162968 0.11714149 -1 0 0 0
-0.0254 -0.0075393994 0.11701037 -1 0 0 0
0.0254 -0.0060540084 0.11720833 1 0 0 0
-0.0254 0.0054129059 0.11710452 -1 0 0 0
-0.0254 -0.025361553 0.11727196 -1 0 0 0
-0.0254 -0.0037296666 0.1174049 -1 0 0 0
-0.0254 -0.0014961194 0.11726728 -1 0 0 0
-0.0254 0.02360641 0.11748124 -1 0 0 0
0.0068577575 0.0254 0.11741687 0 1 0 0
0.011518644 0.0254 0.11729451 0 1 0 0
0.0254 -0.023468269 0.11774763 1 0 0 0
0.0254 -0.016422177 0.1175755 1 0 0 0
0.0254 -0.0039284937 0.11752794 1 0 0 0
0.025399998 0.00076014455 0.11759844 1 0 0 0
-0.025400002 0.002724939 0.11760671 -1 0 0 0
-0.010922514 0.025399998 0.11752595 0 1 0 0
0.010533545 0.0254 0.11754714 0 1 0 0
0.025400002 -0.017227199 0.11776245 1 0 0 0
0.0254 -0.013975469 0.1178884 1 0 0 0
-0.025399998 -0.012482069 0.11787574 -1 0 0 0
0.025399998 -0.0085340403 0.11787861 1 0 0 0
0.025400002 -0.0026263604 0.11784773 1 0 0 0
0.0254 0.016184114 0.11782387 1 0 0 0
-0.0254 0.019235756 0.11776175 -1 0 0 0
-0.015998503 0.0254 0.11778161 0 1 0 0
0.025112566 0.0254 0.11792454 0 1 0 0
-0.0254 -0.024282577 0.11810815 -1 0 0 0
-0.025399998 -0.015812756 0.11811199 -1 0 0 0
0.025400002 -0.0077673467 0.11813357 1 0 0 0
0.0254 -0.006575482 0.11803096 1 0 0 0
-0.025400002 -0.005251477 0.1181306 -1 0 0 0
-0.025400002 0.015724115 0.11818454 -1 0 0 0
0.0071933214 0.025399998 0.11804678 0 1 0 0
0.017800331 0.0254 0.11814014 0 1 0 0
0.020654052 0.0254 0.11821435 0 1 0 0
0.025308993 0.0254 0.11818022 0 1 0 0
0.025400002 -0.0083515504 0.11829533 1 0 0 0
-0.0254 0.014290842 0.11832177 -1 0 0 0
9.7474083e-05 0.0254 0.11830494 0 1 0 0
-0.0254 -0.015485238 0.11857419 -1 0 0 0
0.025399998 -0.001086724 0.11853525 1 0 0 0
-0.0254 0.02105926 0.11861832 -1 0 0 0
-0.017168116 0.025399998 0.11859594 0 1 0 0
-0.0044210278 0.0254 0.11866681 0 1 0 0
0.018788528 0.0254 0.11871652 0 1 0 0
0.0254 -0.01803389 0.11898784 1 0 0 0
0.025400002 -0.013016124 0.11891307 1 0 0 0
0.025399998 -0.009978123 0.11889997 1 0 0 0
