# .PCD v0.7 - Point Cloud Data file format
VERSION 0.7
FIELDS x y z normal_x normal_y normal_z curvature
SIZE 4 4 4 4 4 4 4
TYPE F F F F F F F
COUNT 1 1 1 1 1 1 1
WIDTH 999
HEIGHT 1
VIEWPOINT 0 0 0 1 0 0 0
POINTS 999
DATA ascii
0.057307981 0.0254 -0.025173174 0 1 0 0
0.060663398 0.025399998 -0.025224701 0 1 0 0
0.01572118 0.0254 -0.023767302 0 1 0 0
0.17035829 0.0254 -0.023939194 0 1 0 0
0.1562625 0.0254 -0.023673331 0 1 0 0
-0.033417914 0.0254 -0.023493892 0 1 0 0
-0.0066706324 0.0254 -0.023418581 0 1 0 0
0.098880924 0.0254 -0.022905087 0 1 0 0
0.12904014 0.0254 -0.022904629 0 1 0 0
0.18175401 0.0254 -0.022569584 0 1 0 0
0.15173529 0.025399998 -0.022402603 0 1 0 0
0.014770052 0.025399998 -0.022227794 0 1 0 0
0.17628486 0.0254 -0.022091107 0 1 0 0
0.10647939 0.025399998 -0.021984518 0 1 0 0
0.037771583 0.0254 -0.021501126 0 1 0 0
0.18293501 0.0254 -0.021734677 0 1 0 0
0.097198978 0.025400002 -0.021050867 0 1 0 0
-0.023862462 0.0254 -0.020814447 0 1 0 0
-0.022880835 0.0254 -0.020952171 0 1 0 0
0.14575219 0.0254 -0.020798838 0 1 0 0
0.10044657 0.025400002 -0.019909997 0 1 0 0
0.1302214 0.0254 -0.01934051 0 1 0 0
0.14255752 0.025400002 -0.018878687 0 1 0 0
0.036400862 0.0254 -0.018680094 0 1 0 0
0.16823116 0.0254 -0.018612927 0 1 0 0
0.056688368 0.0254 -0.018495293 0 1 0 0
0.088022679 0.0254 -0.018025218 0 1 0 0
0.12992769 0.025399998 -0.017930649 0 1 0 0
-0.044075724 0.0254 -0.017665287 0 1 0 0
0.17031002 0.0254 -0.017510828 0 1 0 0
0.040726077 0.025400002 -0.017112639 0 1 0 0
0.044837125 0.0254 -0.016910395 0 1 0 0
0.019440314 0.025400002 -0.016303565 0 1 0 0
0.034460906 0.0254 -0.016212219 0 1 0 0
-0.050048932 0.025400002 -0.015762538 0 1 0 0
0.082724452 0.0254 -0.015900297 0 1 0 0
0.17305334 0.0254 -0.015849443 0 1 0 0
-0.076006442 0.025400002 -0.015588948 0 1 0 0
0.099566042 0.0254 -0.015654774 0 1 0 0
-0.053026572 0.025400002 -0.01538301 0 1 0 0
0.063538261 0.0254 -0.015475845 0 1 0 0
-0.052641254 0.0254 -0.015197245 0 1 0 0
0.044825457 0.0254 -0.015087435 0 1 0 0
0.10578992 0.0254 -0.015203698 0 1 0 0
-0.05219321 0.0254 -0.014399694 0 1 0 0
0.13061276 0.025399998 -0.014316413 0 1 0 0
-0.059935395 0.0254 -0.014166029 0 1 0 0
0.12847833 0.025399998 -0.014182373 0 1 0 0
0.012011413 0.0254 -0.013709133 0 1 0 0
0.093754068 0.0254 -0.013527421 0 1 0 0
0.067368463 0.025399998 -0.012926165 0 1 0 0
0.156758 0.0254 -0.012860972 0 1 0 0
-0.0068503167 0.0254 -0.012534341 0 1 0 0
0.035268851 0.0254 -0.012725824 0 1 0 0
0.058527172 0.0254 -0.01271238 0 1 0 0
0.15598367 0.025399998 -0.012480022 0 1 0 0
0.17579757 0.025400002 -0.01216786 0 1 0 0
0.13369039 0.0254 -0.011638964 0 1 0 0
-0.071764201 0.025399998 -0.011255697 0 1 0 0
-0.016364198 0.025400002 -0.011167203 0 1 0 0
0.033745572 0.025399998 -0.011138606 0 1 0 0
0.10068949 0.025399998 -0.011151817 0 1 0 0
0.066769488 0.025400002 -0.010837932 0 1 0 0
0.031114697 0.0254 -0.01064294 0 1 0 0
-0.0018283203 0.025400002 -0.010368654 0 1 0 0
0.10724218 0.0254 -0.01042241 0 1 0 0
0.17767538 0.0254 -0.010004623 0 1 0 0
0.048526421 0.025399998 -0.009903267 0 1 0 0
0.13725176 0.025400002 -0.0095054526 0 1 0 0
-0.01347778 0.0254 -0.0092720594 0 1 0 0
0.065852866 0.025400002 -0.0093261758 0 1 0 0
-0.0062649231 0.0254 -0.0092183594 0 1 0 0
0.037517048 0.0254 -0.0090567637 0 1 0 0
-0.049767371 0.0254 -0.0089816544 0 1 0 0
0.08446642 0.0254 -0.0084245186 0 1 0 0
0.090183839 0.0254 -0.0084534381 0 1 0 0
0.11097301 0.025399998 -0.0072819768 0 1 0 0
0.025028016 0.025400002 -0.0072262036 0 1 0 0
0.018737461 0.025400002 -0.0067256726 0 1 0 0
0.046214245 0.025400002 -0.0065209018 0 1 0 0
0.16082931 0.025400002 -0.0062764841 0 1 0 0
0.16768555 0.025400002 -0.0064133643 0 1 0 0
-0.0011362797 0.025399998 -0.0060727177 0 1 0 0
0.0028348807 0.025399998 -0.0060463203 0 1 0 0
0.013402226 0.025399998 -0.0062027788 0 1 0 0
0.0032991152 0.0254 -0.0058069639 0 1 0 0
-0.066435963 0.0254 -0.0054051238 0 1 0 0
0.02449533 0.025399998 -0.0053798733 0 1 0 0
0.15533002 0.025400002 -0.0051405253 0 1 0 0
0.01330044 0.0254 -0.0048270095 0 1 0 0
-0.047175247 0.025400002 -0.0046545053 0 1 0 0
-0.019288681 0.0254 -0.0047012419 0 1 0 0
-0.015025688 0.025400002 -0.0046753725 0 1 0 0
-0.049507413 0.0254 -0.0044775899 0 1 0 0
0.11053543 0.0254 -0.0042857397 0 1 0 0
0.084769249 0.0254 -0.0039099753 0 1 0 0
-0.01626369 0.025400002 -0.0036767842 0 1 0 0
0.0056058317 0.0254 -0.0035696365 0 1 0 0
0.064300828 0.0254 -0.0035092458 0 1 0 0
0.17276914 0.0254 -0.0035100912 0 1 0 0
-0.047710083 0.0254 -0.003255019 0 1 0 0
-0.021210743 0.0254 -0.0033752602 0 1 0 0
0.15854348 0.025399998 -0.0034744563 0 1 0 0
0.020145832 0.025400002 -0.0029730843 0 1 0 0
0.1406163 0.025399998 -0.0029861191 0 1 0 0
0.020231571 0.0254 -0.0027005952 0 1 0 0
0.14186287 0.0254 -0.0022962834 0 1 0 0
0.013408227 0.0254 -0.0020537749 0 1 0 0
0.046248309 0.0254 -0.0020768996 0 1 0 0
0.17812303 0.0254 -0.0018168432 0 1 0 0
0.001073706 0.0254 -0.0015316382 0 1 0 0
0.0075234575 0.0254 -0.0016861409 0 1 0 0
0.10272146 0.0254 -0.0013047419 0 1 0 0
0.173719 0.0254 -0.0012690187 0 1 0 0
-0.031281151 0.0254 -0.00075807329 0 1 0 0
0.013045788 0.0254 -0.00019962713 0 1 0 0
0.022842538 0.025399998 9.9551864e-05 0 1 0 0
-0.001030718 0.0254 0.0010013264 0 1 0 0
0.020305555 0.025400002 0.0013754973 0 1 0 0
0.057141505 0.025399998 0.001618498 0 1 0 0
0.099189214 0.0254 0.0015359707 0 1 0 0
0.010196397 0.025400002 0.0021353811 0 1 0 0
-0.0041196104 0.025399998 0.002353969 0 1 0 0
0.11916756 0.0254 0.0022751996 0 1 0 0
0.049705435 0.0254 0.0026615448 0 1 0 0
0.061734043 0.0254 0.0029479824 0 1 0 0
0.11205093 0.025400002 0.0029575303 0 1 0 0
0.0011825245 0.0254 0.0032275915 0 1 0 0
0.040397029 0.025399998 0.0031969892 0 1 0 0
-0.061225001 0.0254 0.0033955562 0 1 0 0
-0.028547559 0.025400002 0.0034174914 0 1 0 0
0.065187432 0.0254 0.0033334456 0 1 0 0
0.071063727 0.0254 0.003329657 0 1 0 0
0.13132738 0.0254 0.0034460076 0 1 0 0
0.019039406 0.0254 0.0036077313 0 1 0 0
0.066076986 0.0254 0.0037278105 0 1 0 0
0.068020426 0.0254 0.0039549675 0 1 0 0
0.15480199 0.0254 0.00387329 0 1 0 0
-0.026908053 0.0254 0.0042832759 0 1 0 0
0.096786819 0.0254 0.0043628328 0 1 0 0
0.14468774 0.0254 0.0047305021 0 1 0 0
-0.021778958 0.025399998 0.0047833924 0 1 0 0
-0.066795319 0.0254 0.0054804157 0 1 0 0
-0.0062369108 0.025400002 0.0058416547 0 1 0 0
-0.035075545 0.0254 0.0061606853 0 1 0 0
0.14103194 0.0254 0.0060202591 0 1 0 0
-0.011546323 0.025400002 0.0063201981 0 1 0 0
0.030493736 0.0254 0.0063869562 0 1 0 0
0.17029463 0.025399998 0.0065791253 0 1 0 0
0.0084574446 0.025400002 0.007405404 0 1 0 0
0.10605244 0.025399998 0.0077577862 0 1 0 0
0.049158804 0.025400002 0.0082316743 0 1 0 0
0.084943734 0.025400002 0.0081495363 0 1 0 0
0.15758361 0.0254 0.0084244478 0 1 0 0
0.013833171 0.0254 0.0086064208 0 1 0 0
0.18122627 0.0254 0.0088527072 0 1 0 0
0.12449696 0.0254 0.0090519562 0 1 0 0
-0.033730187 0.0254 0.0095457742 0 1 0 0
0.078615882 0.025399998 0.009586744 0 1 0 0
0.11708678 0.0254 0.0096520977 0 1 0 0
0.039383516 0.0254 0.009943435 0 1 0 0
0.084518872 0.025399998 0.0099502485 0 1 0 0
0.17600891 0.025399998 0.0099336524 0 1 0 0
0.10236466 0.025399998 0.01028578 0 1 0 0
0.078756124 0.025400002 0.010694796 0 1 0 0
-0.024524683 0.025400002 0.010787437 0 1 0 0
-0.0023217108 0.025399998 0.010802823 0 1 0 0
0.1737137 0.025399998 0.010812267 0 1 0 0
-0.046279304 0.0254 0.011679289 0 1 0 0
-0.03542757 0.025400002 0.012188105 0 1 0 0
0.084553272 0.025400002 0.012049345 0 1 0 0
0.16285308 0.0254 0.012025246 0 1 0 0
-0.052281544 0.025400002 0.012432465 0 1 0 0
0.033115096 0.0254 0.01245079 0 1 0 0
0.13152245 0.025400002 0.012666171 0 1 0 0
-0.050917517 0.025400002 0.0127944 0 1 0 0
0.17640302 0.025399998 0.012953226 0 1 0 0
-0.067528799 0.0254 0.013197592 0 1 0 0
-0.04670234 0.0254 0.013423056 0 1 0 0
0.078095235 0.025400002 0.013356264 0 1 0 0
0.16693789 0.025399998 0.013497927 0 1 0 0
0.12564851 0.0254 0.013633347 0 1 0 0
0.15731558 0.025399998 0.013744153 0 1 0 0
-0.0094544254 0.025400002 0.013897576 0 1 0 0
0.061490808 0.0254 0.013939273 0 1 0 0
0.13149497 0.025400002 0.014270891 0 1 0 0
-0.00072040607 0.0254 0.01455413 0 1 0 0
-0.0078373812 0.025400002 0.014986837 0 1 0 0
0.035703409 0.0254 0.01513082 0 1 0 0
-0.035753746 0.0254 0.015467177 0 1 0 0
-0.075338446 0.025400002 0.015561424 0 1 0 0
-0.049297273 0.025399998 0.015900321 0 1 0 0
0.13490364 0.025399998 0.015834212 0 1 0 0
0.17697485 0.025400002 0.015817977 0 1 0 0
0.075778931 0.0254 0.016062962 0 1 0 0
0.11065029 0.0254 0.016407333 0 1 0 0
0.011139733 0.025400002 0.016747486 0 1 0 0
0.018865544 0.0254 0.016678331 0 1 0 0
0.080960028 0.025399998 0.016799442 0 1 0 0
0.10751646 0.025399998 0.016815742 0 1 0 0
-0.07394845 0.0254 0.017071113 0 1 0 0
-0.047001928 0.0254 0.017428566 0 1 0 0
-0.070787884 0.0254 0.018487435 0 1 0 0
0.014012977 0.0254 0.018279927 0 1 0 0
0.17901464 0.0254 0.018413922 0 1 0 0
0.023992095 0.0254 0.018584905 0 1 0 0
-0.043452553 0.025400002 0.018958895 0 1 0 0
0.14932223 0.025400002 0.018856306 0 1 0 0
0.15609786 0.0254 0.019006226 0 1 0 0
0.1810247 0.025399998 0.019124407 0 1 0 0
-0.066709511 0.0254 0.019539619 0 1 0 0
-0.0021883179 0.0254 0.019582029 0 1 0 0
-0.011967849 0.025400002 0.020132164 0 1 0 0
0.052177757 0.0254 0.020340869 0 1 0 0
0.15813203 0.0254 0.020254536 0 1 0 0
0.17983979 0.025400002 0.020384768 0 1 0 0
0.17788033 0.0254 0.020696085 0 1 0 0
0.12406776 0.0254 0.020969011 0 1 0 0
0.032178275 0.025399998 0.021494564 0 1 0 0
0.12596613 0.0254 0.0213685 0 1 0 0
-0.054912642 0.0254 0.021572795 0 1 0 0
-0.058144655 0.025400002 0.021880455 0 1 0 0
0.075945482 0.025399998 0.021754654 0 1 0 0
-0.058360476 0.025399998 0.022096217 0 1 0 0
0.082580283 0.025400002 0.022122182 0 1 0 0
0.11142991 0.0254 0.022243243 0 1 0 0
-0.0341869 0.025400002 0.02243839 0 1 0 0
0.081930429 0.0254 0.022374652 0 1 0 0
0.15068093 0.0254 0.022447865 0 1 0 0
-0.011912744 0.025399998 0.022673793 0 1 0 0
0.14097647 0.0254 0.02299366 0 1 0 0
-0.044357613 0.0254 0.023292869 0 1 0 0
0.061604157 0.0254 0.023326784 0 1 0 0
0.12885819 0.0254 0.023316042 0 1 0 0
0.03286162 0.0254 0.023573576 0 1 0 0
0.16670635 0.0254 0.023748817 0 1 0 0
-0.010062151 0.025400002 0.023911672 0 1 0 0
0.15129484 0.0254 0.023973022 0 1 0 0
0.11605401 0.025399998 0.024015047 0 1 0 0
0.052692559 0.0254 0.024641961 0 1 0 0
0.074016824 0.0254 0.024709847 0 1 0 0
-0.044194367 0.0254 0.024940614 0 1 0 0
-0.021822201 0.0254 0.025201529 0 1 0 0
-0.01661545 0.0254 0.025039431 0 1 0 0
0.17018223 -0.025030753 0.0254 0 0 1 0
-0.04145176 -0.024359439 0.025400002 0 0 1 0
0.033677164 -0.024490073 0.0254 0 0 1 0
0.066240527 -0.024227012 0.025400002 0 0 1 0
0.16060087 -0.024144214 0.025399998 0 0 1 0
-0.027163556 -0.023544183 0.025400002 0 0 1 0
0.075836197 -0.0236612 0.0254 0 0 1 0
0.17454565 -0.023529813 0.0254 0 0 1 0
0.095703706 -0.02329761 0.0254 0 0 1 0
0.099837191 -0.023428243 0.0254 0 0 1 0
-0.03311481 -0.022284269 0.0254 0 0 1 0
0.10632468 -0.022281766 0.0254 0 0 1 0
0.066496193 -0.021970892 0.0254 0 0 1 0
0.15616828 -0.021983773 0.0254 0 0 1 0
0.053028651 -0.021703094 0.025400002 0 0 1 0
-0.034182247 -0.021374945 0.0254 0 0 1 0
0.14376414 -0.021065384 0.0254 0 0 1 0
-0.037773002 -0.020760193 0.025399998 0 0 1 0
0.034864396 -0.020808166 0.0254 0 0 1 0
-0.070344798 -0.020745832 0.0254 0 0 1 0
0.028717866 -0.020306019 0.0254 0 0 1 0
0.030906076 -0.020245101 0.0254 0 0 1 0
0.068240657 -0.019804876 0.0254 0 0 1 0
-0.04546085 -0.019684222 0.0254 0 0 1 0
-0.061814152 -0.019118624 0.0254 0 0 1 0
0.14538249 -0.019005748 0.025399998 0 0 1 0
0.09079431 -0.018428544 0.0254 0 0 1 0
0.11945634 -0.018027991 0.0254 0 0 1 0
0.085536517 -0.017925035 0.0254 0 0 1 0
0.089211613 -0.017811071 0.0254 0 0 1 0
0.10638279 -0.017354796 0.025399998 0 0 1 0
0.040786438 -0.017084587 0.0254 0 0 1 0
0.061857071 -0.017228959 0.0254 0 0 1 0
0.11547332 -0.016805472 0.0254 0 0 1 0
0.14260213 -0.01686772 0.025400002 0 0 1 0
0.059810858 -0.01664789 0.025399998 0 0 1 0
-0.074649245 -0.016339883 0.0254 0 0 1 0
0.12432958 -0.016387764 0.025400002 0 0 1 0
-0.043890707 -0.015608246 0.0254 0 0 1 0
-0.031696562 -0.015437829 0.025399998 0 0 1 0
0.13448584 -0.014789275 0.0254 0 0 1 0
-0.072100729 -0.014408219 0.025400002 0 0 1 0
-0.033285126 -0.014405987 0.025399998 0 0 1 0
-0.029013917 -0.014254702 0.0254 0 0 1 0
0.14651957 -0.014401026 0.025400002 0 0 1 0
0.16691566 -0.013898477 0.0254 0 0 1 0
0.075540505 -0.013571168 0.025400002 0 0 1 0
0.036881089 -0.012519539 0.0254 0 0 1 0
0.15109794 -0.012610565 0.025399998 0 0 1 0
-0.067844488 -0.012354842 0.025400002 0 0 1 0
0.056304973 -0.012042046 0.0254 0 0 1 0
0.047346309 -0.011641175 0.0254 0 0 1 0
0.061949622 -0.01152673 0.0254 0 0 1 0
0.11015349 -0.011113784 0.025399998 0 0 1 0
0.086105041 -0.01092005 0.025399998 0 0 1 0
-0.055905242 -0.010511681 0.0254 0 0 1 0
0.18178695 -0.01057517 0.0254 0 0 1 0
-0.045403056 -0.010285352 0.025399998 0 0 1 0
0.026477832 -0.01031762 0.025399998 0 0 1 0
0.033876922 -0.010386956 0.025399998 0 0 1 0
0.089689575 -0.0097690085 0.025400002 0 0 1 0
-0.04580481 -0.0096520819 0.025399998 0 0 1 0
0.049705826 -0.0097056869 0.0254 0 0 1 0
0.074467495 -0.0095286975 0.025400002 0 0 1 0
0.11577851 -0.0095195677 0.0254 0 0 1 0
0.10569248 -0.0092728473 0.025400002 0 0 1 0
0.12710214 -0.0093628531 0.0254 0 0 1 0
0.040931128 -0.0091275591 0.0254 0 0 1 0
-0.048233669 -0.0089243399 0.025399998 0 0 1 0
-0.044144809 -0.0088607166 0.0254 0 0 1 0
0.046002667 -0.0089712758 0.0254 0 0 1 0
0.11823675 -0.0084503815 0.0254 0 0 1 0
0.15856797 -0.0084760925 0.025400002 0 0 1 0
0.060051214 -0.007952502 0.0254 0 0 1 0
-0.033887208 -0.0075279609 0.0254 0 0 1 0
-0.064089745 -0.0072500273 0.025399998 0 0 1 0
0.052115671 -0.0070827357 0.0254 0 0 1 0
-0.065596282 -0.0068950751 0.025399998 0 0 1 0
0.13954955 -0.0067633241 0.0254 0 0 1 0
0.037464269 -0.0066642496 0.025400002 0 0 1 0
-0.062486082 -0.0058973003 0.0254 0 0 1 0
0.11061336 -0.0059404094 0.0254 0 0 1 0
0.11226441 -0.0058200201 0.0254 0 0 1 0
0.043867782 -0.0056675267 0.0254 0 0 1 0
0.053427514 -0.0050798184 0.0254 0 0 1 0
0.11068235 -0.0052159149 0.0254 0 0 1 0
0.13531716 -0.0052339151 0.025399998 0 0 1 0
-0.044975661 -0.0040967232 0.0254 0 0 1 0
0.16415215 -0.0042471392 0.0254 0 0 1 0
0.11320604 -0.003808408 0.0254 0 0 1 0
0.1150873 -0.0037669011 0.0254 0 0 1 0
-0.063133202 -0.0034630261 0.025399998 0 0 1 0
0.030687544 -0.003257961 0.0254 0 0 1 0
-0.064041831 -0.0030582333 0.025399998 0 0 1 0
0.079019405 -0.0032152506 0.0254 0 0 1 0
0.12683567 -0.0031750584 0.025400002 0 0 1 0
-0.036125086 -0.0027184677 0.0254 0 0 1 0
0.12384318 -0.002425272 0.0254 0 0 1 0
0.097396575 -0.0015024589 0.0254 0 0 1 0
0.028936822 -0.0014401398 0.0254 0 0 1 0
0.038709458 -0.0013244636 0.0254 0 0 1 0
0.11957522 -0.0014698383 0.025399998 0 0 1 0
0.040183276 -0.0012132633 0.0254 0 0 1 0
-0.063481063 -0.00095522311 0.0254 0 0 1 0
0.10072079 -0.00062630605 0.0254 0 0 1 0
0.16842286 -0.00025267433 0.025399998 0 0 1 0
0.17778736 -0.00043322332 0.0254 0 0 1 0
-0.071717873 -3.9513689e-05 0.0254 0 0 1 0
0.1451024 -8.0882106e-05 0.025399998 0 0 1 0
-0.030659404 0.00012305193 0.0254 0 0 1 0
0.04075513 0.00013983995 0.0254 0 0 1 0
0.092081688 0.00042563956 0.0254 0 0 1 0
0.14721142 0.00041755429 0.025399998 0 0 1 0
0.10291042 0.00088302605 0.0254 0 0 1 0
0.08538413 0.0010684589 0.025399998 0 0 1 0
-0.065067485 0.0013759048 0.025399998 0 0 1 0
-0.043072797 0.0025383807 0.025400002 0 0 1 0
0.037323941 0.0027370902 0.0254 0 0 1 0
0.14605789 0.0027430095 0.025400002 0 0 1 0
0.17458589 0.0029323939 0.0254 0 0 1 0
-0.036777344 0.0036564581 0.025399998 0 0 1 0
0.1799674 0.0037391232 0.0254 0 0 1 0
0.06442745 0.0044735745 0.025399998 0 0 1 0
0.047637299 0.004569253 0.025399998 0 0 1 0
0.069471993 0.0050372612 0.0254 0 0 1 0
0.086456105 0.0051571289 0.025399998 0 0 1 0
0.16622037 0.0059446343 0.0254 0 0 1 0
0.040836304 0.006361044 0.025400002 0 0 1 0
0.11877137 0.0064286124 0.025400002 0 0 1 0
-0.058075573 0.00699839 0.025400002 0 0 1 0
-0.043785069 0.0070213359 0.0254 0 0 1 0
0.13179885 0.0070728916 0.0254 0 0 1 0
0.070453361 0.0072868788 0.025400002 0 0 1 0
0.14373562 0.0075747254 0.0254 0 0 1 0
0.061255481 0.007769167 0.025399998 0 0 1 0
0.12635157 0.0081871031 0.0254 0 0 1 0
0.14168307 0.0089763729 0.0254 0 0 1 0
0.14545424 0.0089893704 0.025399998 0 0 1 0
0.049624063 0.0090907821 0.0254 0 0 1 0
0.095187202 0.0090843141 0.0254 0 0 1 0
0.096825935 0.0090099964 0.0254 0 0 1 0
0.067541823 0.0098281344 0.025400002 0 0 1 0
0.14488497 0.010191265 0.0254 0 0 1 0
0.15590203 0.010046561 0.0254 0 0 1 0
0.082627162 0.010457902 0.0254 0 0 1 0
0.16494545 0.010728199 0.0254 0 0 1 0
-0.073613778 0.011478197 0.0254 0 0 1 0
-0.027931906 0.011269245 0.0254 0 0 1 0
0.10503019 0.011406763 0.025399998 0 0 1 0
0.08080674 0.01153743 0.025400002 0 0 1 0
0.055765636 0.012089798 0.025400002 0 0 1 0
0.1187303 0.012635746 0.025399998 0 0 1 0
0.10354964 0.013113506 0.0254 0 0 1 0
0.056100052 0.013907596 0.025400002 0 0 1 0
0.084281936 0.013842668 0.025400002 0 0 1 0
0.13808934 0.013899568 0.025400002 0 0 1 0
-0.038024649 0.015146405 0.0254 0 0 1 0
0.12936141 0.015062282 0.025399998 0 0 1 0
0.15800202 0.015388435 0.025400002 0 0 1 0
0.13310497 0.015592731 0.0254 0 0 1 0
-0.027416456 0.015936386 0.0254 0 0 1 0
0.16368449 0.016178781 0.0254 0 0 1 0
0.075989127 0.016455937 0.025400002 0 0 1 0
-0.073226087 0.016949112 0.0254 0 0 1 0
0.076812148 0.017022321 0.025399998 0 0 1 0
0.11811389 0.017264334 0.025399998 0 0 1 0
0.16898762 0.018616991 0.0254 0 0 1 0
-0.038285747 0.019016298 0.0254 0 0 1 0
0.098302826 0.019235061 0.025400002 0 0 1 0
0.11978186 0.019749293 0.025400002 0 0 1 0
-0.066349536 0.020231271 0.025399998 0 0 1 0
-0.051732063 0.02035398 0.0254 0 0 1 0
0.035039708 0.020259233 0.0254 0 0 1 0
0.11609069 0.020611819 0.0254 0 0 1 0
0.16317539 0.020583583 0.0254 0 0 1 0
0.16945502 0.02071622 0.0254 0 0 1 0
0.029120032 0.020991514 0.0254 0 0 1 0
0.052532237 0.021203391 0.025400002 0 0 1 0
0.17020522 0.021025237 0.025399998 0 0 1 0
0.16919287 0.021313587 0.025399998 0 0 1 0
0.10696827 0.02161192 0.0254 0 0 1 0
-0.051725894 0.021752831 0.025400002 0 0 1 0
0.058359981 0.021780724 0.025399998 0 0 1 0
0.099241108 0.021783553 0.0254 0 0 1 0
0.097387873 0.022218429 0.025400002 0 0 1 0
0.17247508 0.022473678 0.0254 0 0 1 0
0.17707232 0.022675348 0.0254 0 0 1 0
-0.045772284 0.022955542 0.025399998 0 0 1 0
-0.059768062 0.023231518 0.025400002 0 0 1 0
0.17849369 0.023538392 0.025399998 0 0 1 0
0.033167277 0.023919949 0.0254 0 0 1 0
0.13977526 0.023780437 0.025400002 0 0 1 0
-0.032124005 0.024027055 0.025400002 0 0 1 0
0.17512572 0.024403885 0.025400002 0 0 1 0
0.070457265 0.02501373 0.0254 0 0 1 0
0.0035961503 0.0254 0.025377706 0 1 0 0
0.025400002 0.0097487383 0.025523599 1 0 0 0
0.0024725017 0.0254 0.025913086 0 1 0 0
0.0039087017 0.025399998 0.025860708 0 1 0 0
-0.025399998 -0.0017554704 0.026027448 -1 0 0 0
-0.0254 0.020239541 0.026182067 -1 0 0 0
-0.016621213 0.025399998 0.026328946 0 1 0 0
0.0254 -0.024161899 0.026556492 1 0 0 0
-0.0254 -0.0013119177 0.026576141 -1 0 0 0
-0.025400002 0.0098666186 0.02663346 -1 0 0 0
-0.025399998 0.025219634 0.027094644 -1 0 0 0
-0.0254 0.023222955 0.028181685 -1 0 0 0
-0.0254 -0.019754205 0.028593674 -1 0 0 0
0.025400002 0.0012037111 0.028718879 1 0 0 0
0.016080465 0.025399998 0.029006679 0 1 0 0
-0.0254 0.012211071 0.029421668 -1 0 0 0
-0.019091569 0.0254 0.030987371 0 1 0 0
-0.0254 -0.021054128 0.031454887 -1 0 0 0
-0.0254 -0.00038799143 0.031576667 -1 0 0 0
-0.025400002 -0.012028703 0.032231886 -1 0 0 0
0.0254 0.011326166 0.032577135 1 0 0 0
0.0254 0.025390271 0.03264305 1 0 0 0
0.025400002 0.0088938074 0.033226583 1 0 0 0
-0.0254 -0.001565269 0.033477236 -1 0 0 0
0.0254 -0.012192445 0.033897832 1 0 0 0
0.0254 -0.0031861365 0.033781156 1 0 0 0
0.018204669 0.0254 0.034201559 0 1 0 0
0.0254 -0.0098255444 0.03446427 1 0 0 0
0.025400002 0.00030311849 0.034744579 1 0 0 0
-0.016512314 0.0254 0.034635887 0 1 0 0
-0.0254 -0.0080184639 0.035314929 -1 0 0 0
0.0254 0.019034931 0.035972297 1 0 0 0
-0.024010137 0.0254 0.035803445 0 1 0 0
-0.012167696 0.0254 0.035914402 0 1 0 0
0.0254 -0.0050869528 0.036103122 1 0 0 0
-0.0254 0.017668074 0.036093481 -1 0 0 0
-0.010829508 0.0254 0.036063008 0 1 0 0
-0.0254 0.011049516 0.036606517 -1 0 0 0
-0.0254 -0.021518219 0.03686443 -1 0 0 0
-0.0254 -0.0072580623 0.037241016 -1 0 0 0
-0.025399998 0.01938712 0.037625428 -1 0 0 0
0.0254 -0.024883071 0.038686689 1 0 0 0
0.0254 -0.016951473 0.03909849 1 0 0 0
0.025400002 -0.012248971 0.039263885 1 0 0 0
0.01330027 0.0254 0.03956382 0 1 0 0
0.017541407 0.0254 0.040215012 0 1 0 0
0.025400002 -0.0049609421 0.041106313 1 0 0 0
0.025400002 0.0065812515 0.041061886 1 0 0 0
0.025399998 -0.0082179969 0.042459957 1 0 0 0
-0.013525061 0.0254 0.042335339 0 1 0 0
0.018660335 0.0254 0.043050297 0 1 0 0
-0.025399998 0.018205479 0.043661751 -1 0 0 0
0.0078461561 0.0254 0.043724496 0 1 0 0
0.0254 -0.022924995 0.043957647 1 0 0 0
-0.025400002 0.022156529 0.044628456 -1 0 0 0
0.0254 0.00054842606 0.045494817 1 0 0 0
-0.020822082 0.0254 0.045329429 0 1 0 0
-0.0254 -0.010771976 0.046356097 -1 0 0 0
0.0254 0.0086023863 0.046978224 1 0 0 0
0.0254 -0.020816976 0.047406252 1 0 0 0
-0.0254 -0.0052206153 0.047804128 -1 0 0 0
-0.0254 0.011146614 0.047879174 -1 0 0 0
-0.011583747 0.025400002 0.048235938 0 1 0 0
0.0016622592 0.0254 0.048140127 0 1 0 0
-0.024447596 0.0254 0.048530564 0 1 0 0
-0.0254 0.00059758406 0.048960261 -1 0 0 0
-0.0254 0.022946125 0.048933402 -1 0 0 0
0.010485112 0.025399998 0.049348205 0 1 0 0
-0.0071432022 0.0254 0.049614694 0 1 0 0
-0.025399998 0.0069541316 0.050098076 -1 0 0 0
-0.025400002 -0.010065893 0.050473355 -1 0 0 0
-0.025399998 0.0025801221 0.050300989 -1 0 0 0
-0.0254 -0.012416037 0.050939083 -1 0 0 0
0.0254 0.0159807 0.051183973 1 0 0 0
0.0254 0.023067823 0.051468834 1 0 0 0
0.0254 -0.016359655 0.051556394 1 0 0 0
-0.0254 -0.0072920597 0.051636681 -1 0 0 0
-0.0254 -0.025110845 0.052077271 -1 0 0 0
0.0254 0.022126444 0.052265797 1 0 0 0
-0.016848123 0.0254 0.053133495 0 1 0 0
0.025399998 0.019293819 0.053259112 1 0 0 0
0.0254 0.016361991 0.053552464 1 0 0 0
0.0254 0.01165246 0.053773213 1 0 0 0
-0.0254 0.010049736 0.054670643 -1 0 0 0
-0.0254 0.02213192 0.05494047 -1 0 0 0
0.022538608 0.0254 0.05586157 0 1 0 0
0.025400002 0.0032917047 0.056350321 1 0 0 0
-0.0254 0.0088791307 0.056872673 -1 0 0 0
0.025400002 -0.017352432 0.058079045 1 0 0 0
-0.0254 -0.012586195 0.058179133 -1 0 0 0
0.025399998 -0.015779972 0.058811158 1 0 0 0
-0.014964171 0.0254 0.059056573 0 1 0 0
0.0254 0.02018328 0.05946967 1 0 0 0
-0.0254 -0.014566492 0.060262904 -1 0 0 0
-0.0254 -0.017614467 0.060537558 -1 0 0 0
-0.025400002 0.011926447 0.060585137 -1 0 0 0
0.0254 0.022392718 0.061946955 1 0 0 0
-0.0086715054 0.0254 0.062482361 0 1 0 0
0.025400002 0.0051872311 0.062685996 1 0 0 0
-0.0254 0.023239857 0.062624902 -1 0 0 0
0.025400002 -0.00058112759 0.063454181 1 0 0 0
0.01639815 0.0254 0.063411176 0 1 0 0
-0.0254 0.015619092 0.06361264 -1 0 0 0
0.025400002 -0.010519435 0.064376794 1 0 0 0
-0.0254 0.0034356252 0.064799204 -1 0 0 0
-0.023518182 0.0254 0.064971372 0 1 0 0
0.0051500876 0.0254 0.064812548 0 1 0 0
-0.0254 -0.011632673 0.065647848 -1 0 0 0
0.0254 -0.0023138057 0.06555108 1 0 0 0
-0.020559534 0.025400002 0.065930508 0 1 0 0
0.0254 -0.01583091 0.067143999 1 0 0 0
-0.0254 0.023494359 0.068419747 -1 0 0 0
0.0254 0.015988538 0.06862697 1 0 0 0
0.023094339 0.0254 0.068990894 0 1 0 0
-0.0254 -0.015687797 0.069046699 -1 0 0 0
-0.0036531207 0.0254 0.069159627 0 1 0 0
-0.0254 0.0046430514 0.069344901 -1 0 0 0
0.0254 -0.015133699 0.070159577 1 0 0 0
-0.025399998 0.0026666946 0.070006721 -1 0 0 0
-0.0254 0.018315719 0.070462495 -1 0 0 0
-0.00019561173 0.0254 0.070744514 0 1 0 0
-0.008129593 0.0254 0.071013138 0 1 0 0
-0.025400002 -0.0025884751 0.071443036 -1 0 0 0
0.0254 0.0013225544 0.072293043 1 0 0 0
-0.0031291926 0.0254 0.072499976 0 1 0 0
-0.0254 -0.016280293 0.072596505 -1 0 0 0
0.025400002 -0.016729299 0.07287842 1 0 0 0
0.025400002 0.016289441 0.072946891 1 0 0 0
-0.0254 -0.0088395393 0.073155314 -1 0 0 0
-0.0254 0.0061045592 0.07351023 -1 0 0 0
0.025399998 -0.023936767 0.074002936 1 0 0 0
-0.0254 0.025090668 0.074467339 -1 0 0 0
0.0254 0.0091215353 0.074592456 1 0 0 0
-0.0254 0.018894631 0.074628182 -1 0 0 0
-0.0254 0.023312822 0.075308055 -1 0 0 0
-0.00021857442 0.025399998 0.075655282 0 1 0 0
0.0254 0.024989758 0.076221704 1 0 0 0
-0.0254 0.0063159722 0.077059478 -1 0 0 0
-0.0254 0.024125785 0.077014208 -1 0 0 0
-0.0084644631 0.025400002 0.077305347 0 1 0 0
0.025400002 -0.012367934 0.077526003 1 0 0 0
-0.0254 0.021448879 0.077596217 -1 0 0 0
-0.0254 -0.005156978 0.079123072 -1 0 0 0
-0.0254 0.017797107 0.079089671 -1 0 0 0
0.00021382375 0.025399998 0.079488479 0 1 0 0
-0.025400002 0.02538459 0.079831235 -1 0 0 0
-0.025400002 -7.6371245e-05 0.080182269 -1 0 0 0
-0.0254 0.010142748 0.080614023 -1 0 0 0
-0.0254 -0.022461703 0.081052572 -1 0 0 0
-0.0254 -0.022093719 0.081890255 -1 0 0 0
0.0254 0.0065230336 0.082733124 1 0 0 0
0.025400002 -0.012649417 0.082884699 1 0 0 0
0.0254 -0.018578162 0.083904192 1 0 0 0
0.0254 0.0038392246 0.084114335 1 0 0 0
-0.019247115 0.0254 0.084401295 0 1 0 0
0.022820003 0.025400002 0.084407583 0 1 0 0
-0.01890034 0.025399998 0.084943183 0 1 0 0
-0.025399998 -0.0046884948 0.085246295 -1 0 0 0
-0.01230406 0.025399998 0.085534766 0 1 0 0
0.0029556057 0.0254 0.085754901 0 1 0 0
0.025399998 -0.022075918 0.086080134 1 0 0 0
0.019842993 0.025400002 0.08634454 0 1 0 0
0.025228731 0.0254 0.087298229 0 1 0 0
-0.0254 -0.0044798763 0.088108189 -1 0 0 0
-0.025400002 0.01791922 0.088456601 -1 0 0 0
-0.0096588321 0.0254 0.088625714 0 1 0 0
0.0012021014 0.0254 0.088745974 0 1 0 0
-0.023103172 0.0254 0.088933021 0 1 0 0
0.0254 0.021482341 0.089316472 1 0 0 0
0.0056625046 0.025399998 0.089491911 0 1 0 0
0.015288188 0.025399998 0.089355394 0 1 0 0
0.0254 0.0074083935 0.089736529 1 0 0 0
-0.025400002 -0.022753917 0.089857385 -1 0 0 0
-0.00069176545 0.0254 0.090652965 0 1 0 0
-0.024372758 0.0254 0.090751126 0 1 0 0
-0.0254 -0.0072219111 0.091152705 -1 0 0 0
0.017784299 0.025399998 0.09133251 0 1 0 0
-0.023965852 0.0254 0.091635302 0 1 0 0
-0.01273797 0.0254 0.091807783 0 1 0 0
-0.0254 -0.0079438053 0.092102125 -1 0 0 0
0.0254 -0.0057319049 0.09216994 1 0 0 0
0.024617845 0.0254 0.092053577 0 1 0 0
0.025400002 -0.020465463 0.09235014 1 0 0 0
-0.0254 -0.0048559913 0.092674538 -1 0 0 0
0.025400002 -0.001378539 0.092812046 1 0 0 0
0.016459659 0.0254 0.093436077 0 1 0 0
-0.0036249813 0.0254 0.093629569 0 1 0 0
0.0254 -0.020942988 0.094252266 1 0 0 0
0.0254 0.012316874 0.094514489 1 0 0 0
-0.025399998 -0.001424659 0.095181957 -1 0 0 0
0.024923295 0.025399998 0.095596828 0 1 0 0
-0.0254 -0.0066937814 0.096460812 -1 0 0 0
-0.0254 -0.025000308 0.097180262 -1 0 0 0
0.025400002 0.0051699234 0.09721797 1 0 0 0
0.012912752 0.0254 0.097264022 0 1 0 0
0.025400002 0.017048722 0.097862661 1 0 0 0
-0.0254 -0.021692712 0.098072834 -1 0 0 0
-0.0254 -0.0042593349 0.098071136 -1 0 0 0
0.025399998 -0.014433778 0.098652914 1 0 0 0
0.009323095 0.025400002 0.099213228 0 1 0 0
-0.015506043 0.0254 0.09943305 0 1 0 0
0.0057919398 0.0254 0.10023556 0 1 0 0
-0.025399998 -0.0067925258 0.10040241 -1 0 0 0
-0.025400002 0.0056649381 0.10029548 -1 0 0 0
-0.0254 0.023838688 0.10031494 -1 0 0 0
0.0254 -0.017877629 0.10069184 1 0 0 0
0.025400002 0.022954604 0.10058121 1 0 0 0
0.025399998 0.021051466 0.1010569 1 0 0 0
0.025400002 0.024197128 0.10101558 1 0 0 0
-0.018314945 0.025399998 0.10140365 0 1 0 0
-0.025399998 -0.016315056 0.10258295 -1 0 0 0
-0.025400002 0.017334454 0.10253862 -1 0 0 0
-0.023460118 0.0254 0.10268173 0 1 0 0
-0.025399998 -0.023368008 0.10295863 -1 0 0 0
-0.0254 0.017772676 0.10318935 -1 0 0 0
0.0254 -0.015545523 0.10330523 1 0 0 0
0.025400002 0.0056447433 0.10326898 1 0 0 0
-0.025400002 0.021225076 0.10459175 -1 0 0 0
0.025400002 0.024798073 0.10488655 1 0 0 0
0.011790741 0.0254 0.10616118 0 1 0 0
-0.025399998 -0.022907462 0.1062933 -1 0 0 0
0.0254 -0.015162209 0.10740785 1 0 0 0
-0.025399998 0.00087346137 0.10728859 -1 0 0 0
0.0254 0.021288078 0.10739832 1 0 0 0
0.025400002 0.010549435 0.10847998 1 0 0 0
0.025400002 0.00079924054 0.10866848 1 0 0 0
0.0254 0.0029703453 0.10854883 1 0 0 0
-0.0228393 0.0254 0.10904276 0 1 0 0
-0.0083596222 0.0254 0.10945641 0 1 0 0
-0.0254 -0.01010098 0.10977818 -1 0 0 0
-0.023470242 0.0254 0.1097848 0 1 0 0
0.0254 0.0088167973 0.11045525 1 0 0 0
0.025400002 0.007610315 0.11102065 1 0 0 0
0.022720255 0.0254 0.1115589 0 1 0 0
0.0254 0.00010372512 0.11209926 1 0 0 0
0.0254 0.0031065941 0.11222805 1 0 0 0
-0.025400002 -0.0076611633 0.11269925 -1 0 0 0
-0.023690633 0.0254 0.11270418 0 1 0 0
0.025400002 0.0026210425 0.11298057 1 0 0 0
0.0254 -0.018411508 0.11351842 1 0 0 0
0.0254 0.0091444748 0.11358584 1 0 0 0
0.016561016 0.025399998 0.11510975 0 1 0 0
0.0254 -0.0051595438 0.11534102 1 0 0 0
0.0254 0.0057247402 0.11567357 1 0 0 0
0.014366614 0.025399998 0.11605896 0 1 0 0
0.025400002 0.0055619683 0.1162662 1 0 0 0
-0.025399998 -0.021832814 0.11672059 -1 0 0 0
-0.025400002 -0.0079162968 0.11714149 -1 0 0 0
-0.0254 -0.0037296666 0.1174049 -1 0 0 0
-0.015998503 0.0254 0.11778161 0 1 0 0
-0.025400002 0.015724115 0.11818454 -1 0 0 0
9.7474083e-05 0.0254 0.11830494 0 1 0 0
-0.025399998 0.0070464131 0.11887767 -1 0 0 0
-0.0025057634 0.0254 0.11894516 0 1 0 0
-0.0254 -0.0017502615 0.11902127 -1 0 0 0
-0.024991356 0.0254 0.11945853 0 1 0 0
-0.0254 -0.010001979 0.11972471 -1 0 0 0
0.0254 0.024629835 0.11968411 1 0 0 0
-0.025399998 -0.022015985 0.12011816 -1 0 0 0
0.0254 0.0062579494 0.12012225 1 0 0 0
-0.0254 0.0010318048 0.12078169 -1 0 0 0
-0.025400002 0.013166213 0.12143236 -1 0 0 0
-0.0254 -0.023075202 0.12153064 -1 0 0 0
0.025400002 0.000961666 0.12156035 1 0 0 0
-0.024306055 0.0254 0.12151478 0 1 0 0
-0.012597446 0.0254 0.121581 0 1 0 0
0.025400002 0.0080117695 0.12199394 1 0 0 0
0.025400002 0.010329572 0.12218171 1 0 0 0
-0.0254 -0.0054940707 0.12328944 -1 0 0 0
-0.02230911 0.0254 0.12381626 0 1 0 0
0.00028286316 0.0254 0.12375037 0 1 0 0
0.020721328 0.0254 0.12376398 0 1 0 0
0.0254 -0.024998723 0.12445728 1 0 0 0
0.0254 0.019489277 0.12506399 1 0 0 0
-0.0254 0.0074794507 0.12548894 -1 0 0 0
-0.0254 0.0083166119 0.12559906 -1 0 0 0
-0.0254 0.020888168 0.1265915 -1 0 0 0
-0.0254 0.013389047 0.12746425 -1 0 0 0
0.025400002 0.017073922 0.12729231 1 0 0 0
0.025399998 0.0054559829 0.12792201 1 0 0 0
-0.0254 0.01054324 0.1278272 -1 0 0 0
-0.0254 0.0024134777 0.12830544 -1 0 0 0
-0.0012430084 0.0254 0.12951389 0 1 0 0
-0.0254 0.0088570956 0.13033247 -1 0 0 0
-0.025400002 -0.0019385836 0.13065228 -1 0 0 0
-0.0254 0.0212221 0.13135089 -1 0 0 0
0.0254 0.024926804 0.13174599 1 0 0 0
0.0056124269 0.025399998 0.1319581 0 1 0 0
-0.0254 0.010607619 0.1322595 -1 0 0 0
-0.0254 -0.021614781 0.13417059 -1 0 0 0
0.025400002 -0.0032264935 0.13471293 1 0 0 0
0.025399998 -0.008066698 0.13477811 1 0 0 0
-0.018480353 0.025399998 0.13512349 0 1 0 0
-0.025399998 0.0055427663 0.13551728 -1 0 0 0
0.014239535 0.025399998 0.13592291 0 1 0 0
-0.0254 -0.0033791503 0.1362322 -1 0 0 0
-0.025399998 0.006871229 0.13630742 -1 0 0 0
-0.025400002 0.0089500025 0.13629821 -1 0 0 0
-0.018075466 0.025399998 0.13626719 0 1 0 0
0.00072116393 0.0254 0.13664451 0 1 0 0
-0.0254 -0.019654088 0.13701274 -1 0 0 0
0.025399998 -0.0085651679 0.13711302 1 0 0 0
0.0254 -0.022333844 0.13811815 1 0 0 0
0.025400002 -0.0038435897 0.13835683 1 0 0 0
0.0065208296 0.0254 0.13963753 0 1 0 0
0.013269061 0.0254 0.13959356 0 1 0 0
0.025400002 -0.013178614 0.13997974 1 0 0 0
-0.0254 0.00011869409 0.14004691 -1 0 0 0
-0.0254 -0.019394962 0.14029157 -1 0 0 0
-0.0254 0.00075768807 0.14065135 -1 0 0 0
-0.025400002 -0.016903413 0.14077187 -1 0 0 0
-0.01741004 0.025399998 0.14089145 0 1 0 0
0.0254 0.020455327 0.14187665 1 0 0 0
-0.025399998 -0.013694827 0.14331953 -1 0 0 0
-0.025400002 -0.024113836 0.14377673 -1 0 0 0
-0.017067326 0.0254 0.14391945 0 1 0 0
-0.025400002 -0.022526441 0.14413135 -1 0 0 0
-0.0254 0.011555289 0.14522557 -1 0 0 0
0.0177618 0.0254 0.14582969 0 1 0 0
-0.025400002 -0.013613379 0.14723457 -1 0 0 0
-0.0254 -0.019189157 0.14749162 -1 0 0 0
0.0254 0.014104862 0.14755918 1 0 0 0
-0.00062137342 0.025400002 0.1477908 0 1 0 0
-0.0099720042 0.0254 0.149142 0 1 0 0
0.025399998 -0.01109841 0.14936322 1 0 0 0
0.0254 0.012875375 0.14930132 1 0 0 0
0.0067968899 0.025399998 0.14967689 0 1 0 0
-0.0254 0.017667532 0.14995958 -1 0 0 0
0.024376579 0.0254 0.1499005 0 1 0 0
-0.025399998 -0.021608159 0.15075339 -1 0 0 0
0.025399998 -0.011219705 0.15103792 1 0 0 0
0.021421162 0.0254 0.15120585 0 1 0 0
0.015932659 0.0254 0.15148336 0 1 0 0
-0.025400002 -0.002538404 0.15155631 -1 0 0 0
-0.0067717163 0.025400002 0.15165202 0 1 0 0
0.0254 -0.0069324616 0.15210341 1 0 0 0
-0.025399998 0.019773202 0.15218581 -1 0 0 0
-0.02271786 0.0254 0.15204565 0 1 0 0
-0.0254 0.0019876226 0.15270054 -1 0 0 0
-0.025399998 0.010091116 0.15251569 -1 0 0 0
-0.010204935 0.0254 0.15349829 0 1 0 0
-0.015978429 0.025399998 0.15354779 0 1 0 0
-0.0019720637 0.025400002 0.15353751 0 1 0 0
-0.0254 -0.018513717 0.15385933 -1 0 0 0
-0.0254 0.016569002 0.15395871 -1 0 0 0
-0.023651551 0.0254 0.15418449 0 1 0 0
-0.025400002 -0.0062726298 0.15528966 -1 0 0 0
-0.0254 -0.025399869 0.1555344 -1 0 0 0
0.019535869 0.025399998 0.1562079 0 1 0 0
-0.015136292 0.0254 0.15685524 0 1 0 0
-0.00097639486 0.0254 0.15675573 0 1 0 0
-0.025399998 0.0095420498 0.15771516 -1 0 0 0
0.0254 0.0097097643 0.15827926 1 0 0 0
0.0254 0.0068256566 0.15919553 1 0 0 0
-0.025400002 -0.023671333 0.15973583 -1 0 0 0
-0.0028920174 0.025399998 0.15959875 0 1 0 0
-0.0254 0.020937115 0.15987821 -1 0 0 0
0.025400002 0.010076045 0.16076383 1 0 0 0
-0.0254 -0.01262229 0.16112259 -1 0 0 0
0.025399998 -0.0062041553 0.16114531 1 0 0 0
-0.025399998 0.0085281841 0.16139884 -1 0 0 0
0.0043141032 0.0254 0.16168471 0 1 0 0
0.025400002 -0.019125544 0.16206928 1 0 0 0
0.0254 -0.020065969 0.16238932 1 0 0 0
0.0254 -0.015456608 0.16322203 1 0 0 0
0.025400002 -0.012039457 0.16345046 1 0 0 0
0.0254 0.0081962636 0.16337584 1 0 0 0
-0.0087244436 0.025399998 0.16367877 0 1 0 0
0.025400002 0.021656577 0.16457199 1 0 0 0
0.002123548 0.0254 0.16461092 0 1 0 0
0.025399998 0.0014420967 0.16497682 1 0 0 0
-0.025399998 0.012518195 0.16532356 -1 0 0 0
0.025399998 0.0196133 0.16545026 1 0 0 0
0.023055121 0.025400002 0.16536735 0 1 0 0
-0.0254 -0.022488125 0.16572854 -1 0 0 0
0.025399998 -0.023047559 0.16584089 1 0 0 0
0.010019174 0.0254 0.16578874 0 1 0 0
-0.0254 -0.01246887 0.16642959 -1 0 0 0
0.025400002 -0.002124303 0.16634806 1 0 0 0
0.025400002 0.014004581 0.16638313 1 0 0 0
0.013240661 0.025399998 0.16625063 0 1 0 0
-0.0022951062 0.0254 0.16663006 0 1 0 0
0.025400002 -0.021353405 0.16678277 1 0 0 0
9.1581605e-05 0.0254 0.16747464 0 1 0 0
-0.0051809037 0.0254 0.16773024 0 1 0 0
0.025400002 -0.0070363665 0.16783114 1 0 0 0
-0.025399998 -0.024063362 0.16808181 -1 0 0 0
0.0254 0.0012348802 0.16848281 1 0 0 0
-0.010433895 0.025400002 0.16851893 0 1 0 0
-0.025400002 0.017672757 0.16875271 -1 0 0 0
0.025399998 -0.014664762 0.16907078 1 0 0 0
0.0018129498 0.025399998 0.16903885 0 1 0 0
-0.017295968 0.025399998 0.16966185 0 1 0 0
0.010808295 0.025400002 0.16994402 0 1 0 0
-0.025400002 0.014474295 0.17050679 -1 0 0 0
-0.022471832 0.025399998 0.17094991 0 1 0 0
-0.0174086 0.025400002 0.17108235 0 1 0 0
0.0254 0.0034029149 0.1713905 1 0 0 0
-0.022619538 0.025400002 0.17181797 0 1 0 0
0.01069483 0.0254 0.171928 0 1 0 0
0.025399998 0.023722168 0.17200649 1 0 0 0
0.025400002 -0.0039658537 0.17241223 1 0 0 0
0.0254 0.016650055 0.17298375 1 0 0 0
-0.025400002 0.018696634 0.17293213 -1 0 0 0
-0.0254 0.0080990065 0.17313947 -1 0 0 0
0.0254 0.022681877 0.17301482 1 0 0 0
-0.025400002 -0.020440981 0.17346013 -1 0 0 0
-0.025399998 -0.020732142 0.17441407 -1 0 0 0
0.0254 -0.017467713 0.17432834 1 0 0 0
-0.0254 -0.013696933 0.17453438 -1 0 0 0
0.025399998 0.0033268114 0.17457379 1 0 0 0
-0.0254 0.020462673 0.17491527 -1 0 0 0
-0.025399998 -0.0051624635 0.17604211 -1 0 0 0
-0.0254 0.013435775 0.17648335 -1 0 0 0
0.012913097 0.025400002 0.17665426 0 1 0 0
-0.025399998 0.019644303 0.17720637 -1 0 0 0
-0.025399998 0.0006085881 0.17814668 -1 0 0 0
-0.025400002 -0.0227453 0.17837867 -1 0 0 0
0.025399998 0.021475689 0.17829008 1 0 0 0
-0.025400002 -0.020974914 0.17866641 -1 0 0 0
-0.025400002 -0.017899444 0.17852205 -1 0 0 0
0.0254 0.0049797036 0.17881911 1 0 0 0
0.00049705664 0.025400002 0.17881975 0 1 0 0
-0.0096409768 0.0254 0.17942822 0 1 0 0
-0.0254 -0.012651103 0.18020767 -1 0 0 0
-0.013326551 0.0254 0.18112206 0 1 0 0
-0.0020784819 0.025399998 0.18109396 0 1 0 0
-0.0085912505 0.025399998 0.18125698 0 1 0 0
0.025400002 0.015539779 0.18199255 1 0 0 0
0.0027108239 0.0254 0.18228382 0 1 0 0
-0.025400002 0.00013187155 0.1839018 -1 0 0 0
0.0254 0.0024118912 0.18439135 1 0 0 0
0.0254 -0.018452248 0.18478703 1 0 0 0
-0.010985023 0.0254 0.18493673 0 1 0 0
0.0254 -0.0033568586 0.18575326 1 0 0 0
0.0254 0.012959374 0.18596798 1 0 0 0
0.025399998 -0.019849379 0.18605249 1 0 0 0
-0.025399998 -0.022425655 0.18763474 -1 0 0 0
-0.012193802 0.025400002 0.18770817 0 1 0 0
-0.0254 0.011728859 0.18777773 -1 0 0 0
-0.025399998 0.022065734 0.18834695 -1 0 0 0
-0.025400002 -0.0039081867 0.18884414 -1 0 0 0
-0.025399998 0.0063289395 0.18958111 -1 0 0 0
0.0254 -0.0028737173 0.19014317 1 0 0 0
-0.0016054623 0.025400002 0.19036292 0 1 0 0
0.025400002 -0.022390202 0.19067642 1 0 0 0
0.015117927 0.0254 0.19110264 0 1 0 0
-0.0254 0.011595457 0.19139272 -1 0 0 0
-0.013817081 0.0254 0.19139981 0 1 0 0
0.0254 -0.0030504963 0.19190626 1 0 0 0
0.019327445 0.0254 0.19181731 0 1 0 0
-0.0254 0.014291189 0.19420369 -1 0 0 0
-0.0075545576 0.025400002 0.19449849 0 1 0 0
0.025400002 0.0012017563 0.19470862 1 0 0 0
0.010284397 0.0254 0.19459921 0 1 0 0
0.0254 0.0015728499 0.19525246 1 0 0 0
0.0044149845 0.025399998 0.1952804 0 1 0 0
-0.0254 0.015088934 0.19563857 -1 0 0 0
-0.010410681 0.025399998 0.19564247 0 1 0 0
-0.025400002 -0.013022732 0.19623278 -1 0 0 0
-0.0254 -0.023853133 0.19657317 -1 0 0 0
0.0254 0.0012301337 0.19747733 1 0 0 0
-0.0254 -0.023978088 0.19817248 -1 0 0 0
-0.018698061 0.0254 0.19919625 0 1 0 0
0.0254 0.0047439658 0.19987774 1 0 0 0
0.025400002 0.019982021 0.1998428 1 0 0 0
-0.025400002 -0.011032263 0.20010325 -1 0 0 0
-0.0254 0.016487876 0.20042261 -1 0 0 0
-0.025399998 0.00027530454 0.20087487 -1 0 0 0
0.025399998 -0.013397246 0.20188096 1 0 0 0
0.0254 0.021801453 0.20312844 1 0 0 0
-0.025399998 -0.01629902 0.20331936 -1 0 0 0
0.025399998 0.018895838 0.20340799 1 0 0 0
-0.025399998 -0.020426987 0.2036009 -1 0 0 0
0.02409381 0.025399998 0.20364036 0 1 0 0
-0.022130864 0.025400002 0.20438319 0 1 0 0
0.025399998 -0.010272436 0.20474869 1 0 0 0
0.0254 -0.018555311 0.20539229 1 0 0 0
-0.025399998 -0.00039898511 0.20602016 -1 0 0 0
-0.0254 0.015141254 0.2060972 -1 0 0 0
-0.0065882904 0.0254 0.20612144 0 1 0 0
-0.006084302 0.0254 0.20696586 0 1 0 0
0.0254 -0.013384597 0.20714313 1 0 0 0
0.0254 -0.014481053 0.20811911 1 0 0 0
0.025400002 0.020519497 0.20850417 1 0 0 0
0.0254 0.019434856 0.20927712 1 0 0 0
-0.011158753 0.0254 0.20993172 0 1 0 0
0.0254 -0.015320741 0.21099357 1 0 0 0
-0.011289164 0.0254 0.21099232 0 1 0 0
-0.0028879661 0.0254 0.2128877 0 1 0 0
-0.025400002 0.0053380751 0.2134939 -1 0 0 0
0.025399998 0.011947872 0.21328185 1 0 0 0
0.025399998 -0.0054505593 0.2136448 1 0 0 0
-0.025400002 -0.0081479046 0.21397877 -1 0 0 0
-0.025399998 -0.01550848 0.21521598 -1 0 0 0
-0.0254 -0.00053018611 0.21504031 -1 0 0 0
0.0254 -0.025296053 0.21645248 1 0 0 0
0.0254 -0.0075113904 0.21644779 1 0 0 0
0.012683516 0.0254 0.21707948 0 1 0 0
0.0254 -0.0035479318 0.21793042 1 0 0 0
-0.0016567446 0.025399998 0.2179061 0 1 0 0
0.025399998 0.0079989135 0.21853565 1 0 0 0
-0.015719267 0.0254 0.21890099 0 1 0 0
-0.020388996 0.0254 0.21901067 0 1 0 0
-0.0254 -0.020579826 0.2195527 -1 0 0 0
-0.0254 -0.0029711341 0.21972296 -1 0 0 0
-0.025400002 -0.00091227889 0.21977431 -1 0 0 0
0.0254 -0.0012886524 0.22006318 1 0 0 0
0.011294331 0.025400002 0.22009848 0 1 0 0
-0.025399998 -0.010172447 0.22039564 -1 0 0 0
0.0254 0.00019236933 0.22035688 1 0 0 0
0.0254 -0.018839926 0.22111771 1 0 0 0
0.0254 -0.01699397 0.22204314 1 0 0 0
0.015563471 0.025400002 0.22298352 0 1 0 0
0.0254 -0.0031088027 0.22317103 1 0 0 0
0.0254 -0.01198027 0.22332387 1 0 0 0
0.025399998 0.022257524 0.2233703 1 0 0 0
0.0254 0.013695123 0.22421569 1 0 0 0
0.012734495 0.0254 0.2245359 0 1 0 0
-0.0032647485 0.0254 0.22544865 0 1 0 0
0.018808549 0.025400002 0.22562702 0 1 0 0
-0.0254 -0.021580383 0.22634803 -1 0 0 0
-0.02497706 0.025399998 0.22792609 0 1 0 0
-0.014274969 0.025399998 0.22779083 0 1 0 0
-0.025400002 -0.017567091 0.22810103 -1 0 0 0
-0.0254 -0.025147887 0.22844365 -1 0 0 0
0.0254 0.00034446444 0.22827752 1 0 0 0
-0.025399998 0.008373389 0.22911777 -1 0 0 0
-0.025399998 0.025055282 0.22902773 -1 0 0 0
-0.0254 0.011604182 0.2293613 -1 0 0 0
0.021229057 0.025400002 0.22953901 0 1 0 0
-0.015529621 0.0254 0.23078786 0 1 0 0
-0.001474306 0.0254 0.2311981 0 1 0 0
-0.025399998 0.011105361 0.23131633 -1 0 0 0
-0.0254 -0.008473794 0.23152912 -1 0 0 0
-0.0254 0.011327544 0.23168004 -1 0 0 0
0.015614688 0.0254 0.23228729 0 1 0 0
-0.0254 0.014669538 0.23257479 -1 0 0 0
0.0047519282 0.025400002 0.232577 0 1 0 0
0.0254 0.004533371 0.23294538 1 0 0 0
0.0026805848 0.025400002 0.23311649 0 1 0 0
0.020866705 0.0254 0.23316729 0 1 0 0
-0.025399998 0.0069534248 0.23350522 -1 0 0 0
-0.024586488 0.0254 0.23370095 0 1 0 0
-0.0254 -0.0031533772 0.23431301 -1 0 0 0
-0.0254 -0.024388406 0.2356748 -1 0 0 0
-0.0254 -0.020532943 0.2357135 -1 0 0 0
0.0019889716 0.0254 0.23701319 0 1 0 0
-0.025399998 -0.020416789 0.23770985 -1 0 0 0
0.0254 0.011378299 0.23819743 1 0 0 0
0.025399998 0.01074382 0.23834077 1 0 0 0
-0.0254 -0.014486639 0.23868236 -1 0 0 0
-0.0254 0.013532234 0.23855819 -1 0 0 0
-0.013282394 0.025400002 0.23874979 0 1 0 0
-0.0254 0.012046978 0.23931786 -1 0 0 0
-0.0254 -0.018511171 0.23965906 -1 0 0 0
0.0254 0.021649601 0.24062684 1 0 0 0
0.0254 0.022404246 0.24060015 1 0 0 0
0.0254 -0.012570289 0.24098156 1 0 0 0
-0.0254 -0.025106071 0.24107099 -1 0 0 0
