# .PCD v0.7 - Point Cloud Data file format
VERSION 0.7
FIELDS x y z normal_x normal_y normal_z curvature
SIZE 4 4 4 4 4 4 4
TYPE F F F F F F F
COUNT 1 1 1 1 1 1 1
WIDTH 1170
HEIGHT 1
VIEWPOINT 0 0 0 1 0 0 0
POINTS 1170
DATA ascii
-0.014466165 0.0254 0.10876995 0 1 0 0
0.0254 0.0044943485 0.10909022 1 0 0 0
0.0254 0.022585565 0.10907574 1 0 0 0
-0.0228393 0.0254 0.10904276 0 1 0 0
0.025399998 -0.01204345 0.10939954 1 0 0 0
-0.022303682 0.0254 0.10932712 0 1 0 0
-0.016804243 0.0254 0.10932113 0 1 0 0
-0.0083596222 0.0254 0.10945641 0 1 0 0
0.0254 -0.0077807624 0.10959241 1 0 0 0
-0.023470242 0.0254 0.1097848 0 1 0 0
0.0254 -0.022273118 0.1100002 1 0 0 0
0.025400002 0.016245205 0.11046818 1 0 0 0
0.0254 0.021487508 0.11046367 1 0 0 0
0.0254 -0.019412296 0.11052889 1 0 0 0
0.025400002 0.004257963 0.11072077 1 0 0 0
0.0254 0.019876821 0.11073455 1 0 0 0
-0.019056614 0.0254 0.11061317 0 1 0 0
-0.0063475603 0.025399998 0.11065827 0 1 0 0
-0.0022432348 0.0254 0.11067997 0 1 0 0
0.0254 -0.021191774 0.11079121 1 0 0 0
0.025399998 0.0058604442 0.11085435 1 0 0 0
0.018487247 0.025400002 0.11098675 0 1 0 0
0.0254 -0.024275767 0.1111912 1 0 0 0
0.021597048 0.0254 0.11102841 0 1 0 0
0.0254 -0.023613686 0.11131877 1 0 0 0
0.025399998 -0.010192334 0.11140953 1 0 0 0
-0.00025126804 0.0254 0.11146973 0 1 0 0
0.025400002 -0.018642094 0.111527 1 0 0 0
-0.025141217 0.0254 0.11172425 0 1 0 0
-0.011332504 0.0254 0.11166725 0 1 0 0
-0.0050853509 0.0254 0.11169783 0 1 0 0
-0.0004413873 0.0254 0.11174496 0 1 0 0
0.022720255 0.0254 0.1115589 0 1 0 0
0.0254 -0.019471528 0.11216945 1 0 0 0
0.0254 0.0052146632 0.11217292 1 0 0 0
-0.02303178 0.0254 0.1120816 0 1 0 0
0.025399998 0.012493612 0.11274274 1 0 0 0
0.0254 0.023556434 0.1125397 1 0 0 0
-0.020626601 0.0254 0.11268914 0 1 0 0
-0.002361632 0.0254 0.11250277 0 1 0 0
0.0013051275 0.025400002 0.11274297 0 1 0 0
0.0066013262 0.025400002 0.11263532 0 1 0 0
0.020854279 0.0254 0.11265742 0 1 0 0
0.025018968 0.0254 0.11267862 0 1 0 0
0.0254 0.00069466792 0.11289461 1 0 0 0
0.025400002 0.019632105 0.11284798 1 0 0 0
-0.024010208 0.0254 0.11279652 0 1 0 0
0.0044690473 0.025399998 0.11279097 0 1 0 0
0.0254 -0.0039515365 0.11307169 1 0 0 0
0.025399998 0.019890698 0.11319148 1 0 0 0
0.0254 -0.01531654 0.11329532 1 0 0 0
0.020025827 0.025399998 0.11347576 0 1 0 0
0.022813108 0.0254 0.11346819 0 1 0 0
0.0254 -0.011238957 0.11373551 1 0 0 0
0.0254 0.0099619906 0.11350153 1 0 0 0
0.0254 0.024184443 0.1136888 1 0 0 0
-0.018311212 0.0254 0.11361429 0 1 0 0
0.0047524227 0.025399998 0.11350612 0 1 0 0
0.0042428714 0.0254 0.11388112 0 1 0 0
0.023474468 0.025400002 0.11377401 0 1 0 0
-0.014293554 0.025399998 0.11423063 0 1 0 0
-0.0018364592 0.0254 0.11424898 0 1 0 0
0.025400002 0.0064286124 0.11431492 1 0 0 0
0.016494358 0.0254 0.11439543 0 1 0 0
0.019036498 0.025400002 0.11461578 0 1 0 0
0.025399998 -0.005263553 0.11480589 1 0 0 0
0.0038611693 0.0254 0.11489929 0 1 0 0
0.020778187 0.025400002 0.11497788 0 1 0 0
0.021136161 0.025400002 0.11485013 0 1 0 0
0.0254 0.005335384 0.115001 1 0 0 0
0.025399998 0.017264334 0.1152091 1 0 0 0
0.0021296237 0.0254 0.11517752 0 1 0 0
0.0086716954 0.0254 0.11501993 0 1 0 0
0.016561016 0.025399998 0.11510975 0 1 0 0
-0.023355063 0.025399998 0.11550909 0 1 0 0
-0.017365962 0.025399998 0.11564392 0 1 0 0
0.00034826435 0.0254 0.11564717 0 1 0 0
0.0254 -0.02458396 0.11577014 1 0 0 0
0.025399998 -0.022559218 0.11605324 1 0 0 0
0.025399998 -0.002586999 0.11603785 1 0 0 0
0.0254 0.021833289 0.11607258 1 0 0 0
-0.02304196 0.025400002 0.116116 0 1 0 0
0.014366614 0.025399998 0.11605896 0 1 0 0
0.0254 -0.0048042703 0.11627936 1 0 0 0
0.0254 -0.001896698 0.11631438 1 0 0 0
-0.00060220528 0.025400002 0.11635056 0 1 0 0
0.0254 -0.024640886 0.11659145 1 0 0 0
0.0254 0.015212839 0.11654501 1 0 0 0
0.025400002 -0.015787669 0.11701212 1 0 0 0
0.0254 0.003032174 0.11717445 1 0 0 0
-0.015791293 0.0254 0.11757293 0 1 0 0
0.0254 0.020611819 0.11796067 1 0 0 0
-0.015998503 0.0254 0.11778161 0 1 0 0
0.025112566 0.0254 0.11792454 0 1 0 0
0.0254 -0.012434794 0.11805743 1 0 0 0
0.025400002 0.0023755329 0.11818847 1 0 0 0
0.025399998 0.017257452 0.11817674 1 0 0 0
0.025400002 0.020355718 0.11821641 1 0 0 0
0.017800331 0.0254 0.11814014 0 1 0 0
0.025308993 0.0254 0.11818022 0 1 0 0
-0.0071519623 0.0254 0.11843212 0 1 0 0
9.7474083e-05 0.0254 0.11830494 0 1 0 0
0.0254 -0.023852607 0.11861222 1 0 0 0
0.0254 -9.942241e-05 0.11872391 1 0 0 0
0.0254 0.0078921542 0.11850929 1 0 0 0
-0.011668541 0.025399998 0.11858356 0 1 0 0
-0.0044210278 0.0254 0.11866681 0 1 0 0
0.0254 -0.021342685 0.11898861 1 0 0 0
-0.0025057634 0.0254 0.11894516 0 1 0 0
0.0254 -0.021713676 0.11912184 1 0 0 0
0.025399998 0.017527714 0.11913238 1 0 0 0
0.0254 0.019843845 0.11922885 1 0 0 0
0.025399998 -0.019540943 0.11941454 1 0 0 0
-0.024991356 0.0254 0.11945853 0 1 0 0
0.018418515 0.0254 0.11938909 0 1 0 0
0.025399998 0.0049672527 0.11957589 1 0 0 0
0.018090818 0.025399998 0.11968044 0 1 0 0
0.025399998 -0.0063200323 0.11981258 1 0 0 0
0.0254 0.0015093796 0.11994815 1 0 0 0
-0.015083777 0.0254 0.12012075 0 1 0 0
-0.021404352 0.0254 0.12025782 0 1 0 0
-0.014411934 0.0254 0.12035051 0 1 0 0
0.0254 -0.024499444 0.12057411 1 0 0 0
0.0254 -0.021220608 0.12054003 1 0 0 0
0.0254 -0.0039758869 0.12053557 1 0 0 0
0.0254 -0.0021058191 0.12072267 1 0 0 0
-0.020746689 0.025400002 0.1205764 0 1 0 0
-0.016916905 0.025399998 0.12065899 0 1 0 0
-0.016682306 0.0254 0.12057129 0 1 0 0
0.011237083 0.025400002 0.1207203 0 1 0 0
0.024391335 0.0254 0.12061004 0 1 0 0
0.0254 0.004181046 0.12099156 1 0 0 0
0.025399998 0.007423793 0.12085669 1 0 0 0
0.025399998 0.015713103 0.1209419 1 0 0 0
0.025400002 0.022341806 0.12079322 1 0 0 0
-0.020347303 0.025399998 0.12080728 0 1 0 0
-0.017367141 0.025400002 0.12109931 0 1 0 0
-0.0044506104 0.0254 0.12111422 0 1 0 0
0.011228819 0.0254 0.12124027 0 1 0 0
0.0254 0.01965462 0.12131931 1 0 0 0
-0.020476632 0.025399998 0.12139787 0 1 0 0
0.0254 0.025132937 0.12168449 1 0 0 0
-0.024306055 0.0254 0.12151478 0 1 0 0
-0.012597446 0.0254 0.121581 0 1 0 0
0.025400002 -0.0088179894 0.12182246 1 0 0 0
0.010261613 0.0254 0.12190883 0 1 0 0
0.013787989 0.0254 0.12199334 0 1 0 0
-0.016800495 0.0254 0.12212715 0 1 0 0
-0.010216441 0.0254 0.12238862 0 1 0 0
0.025400002 -0.02392647 0.12266018 1 0 0 0
0.025400002 -0.018577758 0.12256178 1 0 0 0
0.025400002 -0.0052276617 0.12263919 1 0 0 0
0.025399998 -0.0087967142 0.12275572 1 0 0 0
0.0254 0.00016665272 0.12296551 1 0 0 0
0.025400002 0.00070405845 0.12298437 1 0 0 0
0.0254 0.021586681 0.12287844 1 0 0 0
0.025399998 0.00048226956 0.12314297 1 0 0 0
0.025400002 0.00082478207 0.12319659 1 0 0 0
0.025399998 -0.00011256244 0.12340219 1 0 0 0
0.0254 0.00075136498 0.12348931 1 0 0 0
-0.0064317854 0.0254 0.12342127 0 1 0 0
-0.011228153 0.0254 0.12369896 0 1 0 0
-0.014291832 0.0254 0.12389563 0 1 0 0
0.00028286316 0.0254 0.12375037 0 1 0 0
0.020721328 0.0254 0.12376398 0 1 0 0
0.0254 0.0050699431 0.12424518 1 0 0 0
0.0254 -0.02415383 0.12443278 1 0 0 0
0.025399998 0.014823341 0.1247059 1 0 0 0
-0.02149763 0.025399998 0.1246447 0 1 0 0
0.0031749075 0.0254 0.1245098 0 1 0 0
0.0044419821 0.0254 0.12470826 0 1 0 0
0.025399998 0.023347847 0.12478063 1 0 0 0
0.0036554681 0.0254 0.12488198 0 1 0 0
0.025400002 -0.024096176 0.12511103 1 0 0 0
0.010031271 0.0254 0.1251452 0 1 0 0
0.025399998 0.022898834 0.12542306 1 0 0 0
-0.013512211 0.025400002 0.1253328 0 1 0 0
-0.0037454711 0.0254 0.12562841 0 1 0 0
0.019892816 0.025400002 0.12574494 0 1 0 0
0.025399998 0.013667863 0.12581161 1 0 0 0
-0.012269177 0.0254 0.12589149 0 1 0 0
-0.016908858 0.0254 0.12615353 0 1 0 0
0.0254 0.015319114 0.12637141 1 0 0 0
0.025399998 0.00027428102 0.12665875 1 0 0 0
0.0254 0.017070455 0.12667775 1 0 0 0
0.011276666 0.0254 0.12659243 0 1 0 0
0.012378365 0.0254 0.12650017 0 1 0 0
0.0254 0.013473581 0.12676477 1 0 0 0
0.025399998 0.014249967 0.12692447 1 0 0 0
0.018409699 0.0254 0.1270034 0 1 0 0
0.023628667 0.025400002 0.12725541 0 1 0 0
0.0254 -0.021323735 0.12753223 1 0 0 0
0.0038447855 0.0254 0.12753284 0 1 0 0
-0.0082150269 0.0254 0.12781613 0 1 0 0
-0.0059997407 0.0254 0.12785849 0 1 0 0
-0.0046069357 0.0254 0.12795667 0 1 0 0
0.025399998 -0.01879935 0.12817289 1 0 0 0
0.0254 -0.01751445 0.12810917 1 0 0 0
0.0254 -0.0068678278 0.12824653 1 0 0 0
0.0254 0.0068415985 0.1282783 1 0 0 0
0.025400002 0.021654878 0.12845853 1 0 0 0
0.0254 -0.0070134867 0.12867638 1 0 0 0
0.018311996 0.0254 0.12868266 0 1 0 0
-0.015256042 0.0254 0.12875137 0 1 0 0
0.025399998 -0.023051903 0.12902287 1 0 0 0
0.0254 0.016258171 0.12907273 1 0 0 0
0.010137906 0.0254 0.1292147 0 1 0 0
0.025400002 -0.0041525913 0.12947282 1 0 0 0
0.0254 -0.0034273472 0.12949105 1 0 0 0
0.0048861816 0.025399998 0.12945415 0 1 0 0
0.025400002 -0.0064390944 0.12953269 1 0 0 0
0.025400002 0.01158425 0.12965912 1 0 0 0
0.0254 0.014968134 0.12951621 1 0 0 0
-0.0012430084 0.0254 0.12951389 0 1 0 0
0.023023082 0.0254 0.1295139 0 1 0 0
0.025400002 -0.0072497362 0.1298828 1 0 0 0
-0.013096928 0.025399998 0.12976663 0 1 0 0
0.025400002 -0.014815327 0.13020027 1 0 0 0
0.025399998 -0.0053349724 0.13020301 1 0 0 0
0.0067719948 0.025400002 0.13011648 0 1 0 0
0.0254 0.02161192 0.13036716 1 0 0 0
-0.023835883 0.0254 0.13071273 0 1 0 0
-0.012982971 0.0254 0.13069876 0 1 0 0
0.025399998 0.00035952311 0.13090967 1 0 0 0
0.025399998 0.018308125 0.1307534 1 0 0 0
-0.0093929814 0.0254 0.13094111 0 1 0 0
0.0254 -0.007096624 0.13109453 1 0 0 0
0.0254 -0.0056485627 0.13109671 1 0 0 0
0.0254 0.013554346 0.13103877 1 0 0 0
-0.00076791964 0.0254 0.13109161 0 1 0 0
0.0254 -0.010314645 0.13149343 1 0 0 0
0.021670271 0.0254 0.13137382 0 1 0 0
0.025400002 -0.013203017 0.13155115 1 0 0 0
0.025399998 -0.0079021519 0.13165431 1 0 0 0
0.0254 -0.0043250658 0.13198048 1 0 0 0
-0.012810655 0.0254 0.13192996 0 1 0 0
0.0056124269 0.025399998 0.1319581 0 1 0 0
0.025400002 0.0060035367 0.13217787 1 0 0 0
0.025400002 0.017213751 0.13211818 1 0 0 0
0.024755104 0.0254 0.13220567 0 1 0 0
0.025400002 0.0011904426 0.13234447 1 0 0 0
0.025400002 0.0088175833 0.13225722 1 0 0 0
-0.015770048 0.0254 0.13271013 0 1 0 0
-0.02232936 0.025399998 0.13279541 0 1 0 0
0.025399998 0.011406763 0.13300294 1 0 0 0
-0.0026796383 0.0254 0.13316853 0 1 0 0
0.0254 0.0076383748 0.13336354 1 0 0 0
0.025399998 0.0093084713 0.13330592 1 0 0 0
0.010590748 0.0254 0.13338542 0 1 0 0
0.0254 -0.0046080165 0.13372131 1 0 0 0
0.025400002 -0.013637331 0.13391046 1 0 0 0
-0.0018700438 0.0254 0.13391259 0 1 0 0
0.0254 -0.0011298396 0.13415563 1 0 0 0
-0.022840746 0.0254 0.13410845 0 1 0 0
-0.022654653 0.0254 0.1341538 0 1 0 0
0.021249391 0.025399998 0.13409273 0 1 0 0
0.0254 -0.02142003 0.13470501 1 0 0 0
0.025399998 -0.0097870976 0.13452004 1 0 0 0
-0.021349171 0.0254 0.13457328 0 1 0 0
0.018294053 0.0254 0.13470626 0 1 0 0
0.020266971 0.0254 0.13463321 0 1 0 0
0.0254 0.013113506 0.1350165 1 0 0 0
0.025399998 0.01623098 0.1351774 1 0 0 0
-0.018480353 0.025399998 0.13512349 0 1 0 0
0.0085439635 0.025399998 0.13521971 0 1 0 0
0.013591746 0.0254 0.13542359 0 1 0 0
0.024390768 0.025400002 0.13547523 0 1 0 0
0.0254 -0.0087231416 0.13565016 1 0 0 0
0.015413051 0.025400002 0.13560489 0 1 0 0
0.015677484 0.0254 0.1355975 0 1 0 0
0.021343078 0.025399998 0.13555941 0 1 0 0
0.02198647 0.025399998 0.13551424 0 1 0 0
0.025399998 -0.015468191 0.1359365 1 0 0 0
0.0254 -0.0094942506 0.13583943 1 0 0 0
0.0254 0.00088302605 0.13588583 1 0 0 0
0.0254 0.0010513794 0.13583408 1 0 0 0
-0.016059505 0.025399998 0.13575298 0 1 0 0
0.0035354001 0.0254 0.13587981 0 1 0 0
0.014239535 0.025399998 0.13592291 0 1 0 0
0.025400002 -0.016601227 0.13613744 1 0 0 0
0.00046411928 0.025399998 0.13607261 0 1 0 0
0.0254 -0.012063971 0.13634399 1 0 0 0
0.0066106995 0.025400002 0.13648333 0 1 0 0
0.01474643 0.025399998 0.13639584 0 1 0 0
0.0254 -0.024439724 0.13657019 1 0 0 0
0.025400002 -0.016432233 0.13651907 1 0 0 0
0.00072116393 0.0254 0.13664451 0 1 0 0
0.015684385 0.025399998 0.13651982 0 1 0 0
0.024693893 0.025400002 0.13674383 0 1 0 0
0.025400002 0.021610063 0.13687599 1 0 0 0
5.6592515e-05 0.025400002 0.13682707 0 1 0 0
0.014434567 0.0254 0.13693567 0 1 0 0
0.023589425 0.025400002 0.13696037 0 1 0 0
0.0254 -0.0088819396 0.13724984 1 0 0 0
0.0021083727 0.0254 0.13738705 0 1 0 0
0.0254 -1.2215227e-05 0.13762824 1 0 0 0
0.0254 0.007126098 0.13755465 1 0 0 0
0.0254 0.024046771 0.13753618 1 0 0 0
-0.0034647277 0.0254 0.13767238 0 1 0 0
0.0254 -0.0048798919 0.13799649 1 0 0 0
0.0254 0.011333061 0.13783485 1 0 0 0
0.020086028 0.0254 0.13794045 0 1 0 0
0.025399998 -0.019588687 0.13820697 1 0 0 0
0.0254 0.0095074708 0.13803881 1 0 0 0
0.025400002 0.017842092 0.13815556 1 0 0 0
-0.019469654 0.0254 0.13803917 0 1 0 0
-0.020412819 0.0254 0.13829693 0 1 0 0
-0.009402195 0.0254 0.13843171 0 1 0 0
0.0254 0.024675284 0.1387044 1 0 0 0
-0.017134152 0.025400002 0.13871102 0 1 0 0
-0.00411049 0.0254 0.13859047 0 1 0 0
-0.020143276 0.0254 0.1389616 0 1 0 0
0.0254 0.0015725652 0.13934401 1 0 0 0
0.0254 0.014828764 0.13929543 1 0 0 0
-0.016734343 0.025400002 0.13932656 0 1 0 0
0.0075347573 0.025399998 0.13936967 0 1 0 0
0.025399998 -0.0095053799 0.13955863 1 0 0 0
0.0065208296 0.0254 0.13963753 0 1 0 0
0.013269061 0.0254 0.13959356 0 1 0 0
0.017395329 0.0254 0.13977465 0 1 0 0
0.022045549 0.0254 0.13999136 0 1 0 0
0.025399998 -0.0097872047 0.14004628 1 0 0 0
0.025400002 -0.0036513591 0.14017138 1 0 0 0
0.0254 0.0025835056 0.14013562 1 0 0 0
0.0254 -0.01383811 0.14066805 1 0 0 0
0.0254 -0.0043542795 0.14066131 1 0 0 0
0.0254 -0.0018752702 0.14054877 1 0 0 0
-0.010399049 0.0254 0.14067508 0 1 0 0
0.0043989765 0.0254 0.14064656 0 1 0 0
0.0254 0.015601755 0.14076924 1 0 0 0
0.0254 0.021783553 0.1408761 1 0 0 0
-0.01741004 0.025399998 0.14089145 0 1 0 0
-0.0082033006 0.0254 0.1408025 0 1 0 0
0.025399998 0.016613511 0.14130484 1 0 0 0
0.0254 -0.022834556 0.14179741 1 0 0 0
-0.014507964 0.025399998 0.14193031 0 1 0 0
0.0082458612 0.0254 0.14191343 0 1 0 0
0.025400002 0.019235061 0.14215215 1 0 0 0
-0.005544214 0.0254 0.14215693 0 1 0 0
0.013172632 0.0254 0.14224611 0 1 0 0
0.0254 0.01900069 0.14249673 1 0 0 0
0.013125727 0.0254 0.14248748 0 1 0 0
-0.014739938 0.0254 0.14267996 0 1 0 0
0.0040465975 0.025400002 0.14250933 0 1 0 0
0.025400002 -0.021830622 0.14293973 1 0 0 0
-0.016276624 0.025400002 0.14294125 0 1 0 0
0.025400002 -0.011225143 0.1431345 1 0 0 0
0.0254 -0.00041823275 0.14300925 1 0 0 0
-0.018519178 0.0254 0.1430196 0 1 0 0
0.025400002 0.022218429 0.1433965 1 0 0 0
0.025400002 0.0076387441 0.14394607 1 0 0 0
0.025400002 0.020549607 0.14397204 1 0 0 0
-0.017067326 0.0254 0.14391945 0 1 0 0
0.012431889 0.0254 0.14388406 0 1 0 0
0.0254 -0.0033267681 0.14409071 1 0 0 0
0.0254 0.0090099964 0.14416072 1 0 0 0
0.025400002 -0.023882765 0.14446861 1 0 0 0
0.025400002 -0.013886727 0.14442694 1 0 0 0
0.025400002 -0.006766648 0.14436483 1 0 0 0
0.0254 0.00049589667 0.14449494 1 0 0 0
-0.00062167819 0.025400002 0.14441809 0 1 0 0
0.025399998 -0.011699598 0.14474195 1 0 0 0
0.0254 0.004698033 0.14471442 1 0 0 0
0.011038969 0.025399998 0.14458294 0 1 0 0
0.014909548 0.025399998 0.14468732 0 1 0 0
0.0254 0.0076708193 0.1449085 1 0 0 0
-0.023532907 0.0254 0.14483593 0 1 0 0
-0.015214821 0.025399998 0.1449376 0 1 0 0
-0.0027779096 0.025399998 0.14493743 0 1 0 0
0.0018942553 0.025400002 0.14496996 0 1 0 0
0.025400002 0.0062574674 0.14505777 1 0 0 0
-0.017594727 0.0254 0.14532992 0 1 0 0
-0.0064997985 0.0254 0.14532468 0 1 0 0
0.01461635 0.0254 0.1452821 0 1 0 0
0.025399998 -0.0065695113 0.14574516 1 0 0 0
0.0254 -0.005070854 0.1456511 1 0 0 0
0.0254 0.020868629 0.14565139 1 0 0 0
-0.023874693 0.025400002 0.1455583 0 1 0 0
0.0019853348 0.025399998 0.14576067 0 1 0 0
0.0177618 0.0254 0.14582969 0 1 0 0
0.018646546 0.0254 0.14589967 0 1 0 0
0.0254 0.0090843141 0.14638939 1 0 0 0
0.025399998 0.014482556 0.14629239 1 0 0 0
0.018406767 0.0254 0.14632234 0 1 0 0
0.0254 0.017534804 0.14662334 1 0 0 0
-0.01130217 0.025400002 0.14673148 0 1 0 0
0.0254 -0.018512791 0.14679073 1 0 0 0
0.025399998 0.0021995315 0.14701131 1 0 0 0
-0.0024985783 0.0254 0.14720184 0 1 0 0
0.0033071358 0.025399998 0.14717929 0 1 0 0
0.012528337 0.0254 0.14711417 0 1 0 0
-0.0091866655 0.0254 0.14743418 0 1 0 0
0.0254 -0.00043077208 0.14753781 1 0 0 0
0.025400002 0.021144055 0.14775713 1 0 0 0
-0.00062137342 0.025400002 0.1477908 0 1 0 0
0.0254 0.017002858 0.14817853 1 0 0 0
-0.022330614 0.025399998 0.14822979 0 1 0 0
-0.021194607 0.0254 0.14813268 0 1 0 0
0.0254 -0.0015800968 0.14844538 1 0 0 0
0.0254 0.02279496 0.14826566 1 0 0 0
-0.025282562 0.0254 0.1483821 0 1 0 0
0.0254 0.00052077323 0.14903453 1 0 0 0
-0.020342749 0.0254 0.14911313 0 1 0 0
-0.0099720042 0.0254 0.149142 0 1 0 0
0.025399998 0.01797324 0.1494758 1 0 0 0
0.005220104 0.025399998 0.14935 0 1 0 0
0.025400002 0.023476023 0.14968096 1 0 0 0
-0.015743874 0.0254 0.14961615 0 1 0 0
0.006893578 0.025399998 0.1496371 0 1 0 0
0.0254 -0.011251071 0.14988923 1 0 0 0
0.0254 0.0015244214 0.14977424 1 0 0 0
-0.016922174 0.0254 0.14999229 0 1 0 0
-0.00551807 0.0254 0.14981149 0 1 0 0
0.024376579 0.0254 0.1499005 0 1 0 0
0.0254 0.0013407506 0.15023929 1 0 0 0
0.0254 0.0019903118 0.15024664 1 0 0 0
0.0080295522 0.025399998 0.15023422 0 1 0 0
0.0090899486 0.0254 0.15016834 0 1 0 0
0.0254 0.0045931097 0.15039738 1 0 0 0
0.0254 0.009737229 0.1502946 1 0 0 0
-0.009724725 0.0254 0.15028806 0 1 0 0
0.0254 -0.02156041 0.15073057 1 0 0 0
0.0254 -0.01018049 0.15056674 1 0 0 0
0.0254 0.00042563956 0.15061289 1 0 0 0
-0.021316286 0.0254 0.15062472 0 1 0 0
-0.005065578 0.0254 0.1506597 0 1 0 0
0.010545556 0.0254 0.15070653 0 1 0 0
0.010506405 0.025399998 0.15084074 0 1 0 0
0.016391596 0.0254 0.15083657 0 1 0 0
0.0254 0.002372168 0.15121211 1 0 0 0
0.0012643383 0.0254 0.15118663 0 1 0 0
0.016589509 0.025399998 0.15111533 0 1 0 0
0.018268781 0.0254 0.15102127 0 1 0 0
0.021421162 0.0254 0.15120585 0 1 0 0
0.025399998 0.0052181017 0.15141319 1 0 0 0
0.0254 0.011352416 0.15145405 1 0 0 0
-0.024450105 0.0254 0.15139185 0 1 0 0
-0.018399317 0.025399998 0.15142161 0 1 0 0
0.015932659 0.0254 0.15148336 0 1 0 0
0.025399998 0.019446526 0.15165877 1 0 0 0
-0.0053970916 0.025399998 0.15154454 0 1 0 0
-0.0030395288 0.025400002 0.15174183 0 1 0 0
0.0254 0.0078073265 0.15188441 1 0 0 0
-0.012865985 0.025400002 0.15181805 0 1 0 0
0.025399998 -0.018385574 0.1521423 1 0 0 0
-0.0018567552 0.0254 0.15206346 0 1 0 0
0.010533163 0.025399998 0.15211262 0 1 0 0
0.0254 0.025280777 0.15220337 1 0 0 0
0.016144229 0.0254 0.15236804 0 1 0 0
0.019020537 0.0254 0.15241829 0 1 0 0
0.0254 0.016634649 0.15256201 1 0 0 0
0.0254 0.022176269 0.1525927 1 0 0 0
0.025399998 0.023451695 0.15272984 1 0 0 0
0.0021587692 0.0254 0.15251024 0 1 0 0
-0.0017151344 0.025399998 0.15295261 0 1 0 0
-0.0012038583 0.025399998 0.15299833 0 1 0 0
0.00844853 0.025400002 0.15292598 0 1 0 0
-0.0032921336 0.0254 0.15312266 0 1 0 0
0.0054371506 0.0254 0.15322545 0 1 0 0
0.0254 -0.0069991518 0.15347911 1 0 0 0
0.025399998 0.018598553 0.1534557 1 0 0 0
-0.025145123 0.025399998 0.15329169 0 1 0 0
-0.010204935 0.0254 0.15349829 0 1 0 0
-0.0078974208 0.0254 0.15345463 0 1 0 0
0.02248193 0.025400002 0.15332845 0 1 0 0
0.0254 -0.0021883799 0.1536911 1 0 0 0
0.025399998 0.020367321 0.15366502 1 0 0 0
0.014294912 0.0254 0.15351574 0 1 0 0
0.0254 -0.0012736944 0.15394081 1 0 0 0
-0.0045115119 0.0254 0.15391515 0 1 0 0
0.025399998 -0.0069559878 0.15407829 1 0 0 0
0.0254 -0.0033903932 0.15403749 1 0 0 0
0.0254 0.010226745 0.15413035 1 0 0 0
-0.024814293 0.0254 0.15420024 0 1 0 0
-0.023651551 0.0254 0.15418449 0 1 0 0
-0.016177334 0.0254 0.15422301 0 1 0 0
-0.0086716423 0.0254 0.15403479 0 1 0 0
0.025399998 -0.019033056 0.1543626 1 0 0 0
0.0254 0.0067312885 0.15445514 1 0 0 0
0.025400002 -0.019106839 0.15458924 1 0 0 0
0.025400002 -0.01133126 0.1545565 1 0 0 0
0.0254 -0.0070459303 0.15463357 1 0 0 0
0.0254 -0.0029028133 0.15462212 1 0 0 0
-0.017803799 0.0254 0.1548194 0 1 0 0
-0.0020851786 0.0254 0.15480022 0 1 0 0
-0.017856365 0.025399998 0.15520684 0 1 0 0
0.0254 0.003423465 0.15532702 1 0 0 0
0.0254 -0.0095714126 0.15572542 1 0 0 0
0.0254 -0.0057739504 0.15573265 1 0 0 0
0.018617067 0.025399998 0.15553822 0 1 0 0
-0.003050732 0.025399998 0.15592451 0 1 0 0
0.025400002 -0.011880692 0.15603684 1 0 0 0
0.025400002 -0.0085665109 0.15612997 1 0 0 0
0.025400002 -0.0071396357 0.15613458 1 0 0 0
-0.004233263 0.0254 0.15604512 0 1 0 0
-0.0021187342 0.0254 0.1562472 0 1 0 0
0.019535869 0.025399998 0.1562079 0 1 0 0
0.0254 -0.0011370322 0.15640551 1 0 0 0
-0.018767122 0.0254 0.15642357 0 1 0 0
0.0254 0.0098145138 0.15663414 1 0 0 0
-0.021581192 0.0254 0.15660335 0 1 0 0
0.0254 0.0066491961 0.15682474 1 0 0 0
-0.015136292 0.0254 0.15685524 0 1 0 0
-0.00097639486 0.0254 0.15675573 0 1 0 0
0.0254 -0.025119176 0.1572108 1 0 0 0
0.0254 -0.0099081229 0.15715027 1 0 0 0
-0.01016931 0.025400002 0.15707628 0 1 0 0
0.0096445205 0.0254 0.15717438 0 1 0 0
0.013075313 0.0254 0.15722445 0 1 0 0
0.025400002 -0.011381578 0.15745221 1 0 0 0
0.0029259459 0.0254 0.1573201 0 1 0 0
-0.0055452459 0.025400002 0.15763715 0 1 0 0
0.0254 0.0032634377 0.15783083 1 0 0 0
0.025399998 0.016642846 0.157883 1 0 0 0
0.0254 0.023041435 0.15775765 1 0 0 0
0.020689901 0.0254 0.15796359 0 1 0 0
0.0254 -0.02011078 0.15824394 1 0 0 0
0.025399998 -0.015433392 0.15820895 1 0 0 0
0.025400002 -0.015136682 0.15803243 1 0 0 0
0.025400002 -0.0033057574 0.1580174 1 0 0 0
0.0254 -0.011567501 0.15849006 1 0 0 0
0.025399998 0.0051571289 0.1582637 1 0 0 0
0.025400002 0.0075238738 0.15831642 1 0 0 0
0.025400002 0.011323465 0.15832931 1 0 0 0
-0.01877497 0.0254 0.15825769 0 1 0 0
0.025400002 0.0066430364 0.15854491 1 0 0 0
-0.0095783789 0.0254 0.15869883 0 1 0 0
0.0069808559 0.025400002 0.1586224 0 1 0 0
0.0254 0.022339487 0.15881985 1 0 0 0
0.0254 0.024800599 0.15881765 1 0 0 0
0.025400002 -0.0066332379 0.15914568 1 0 0 0
0.025400002 -0.0019103913 0.15914887 1 0 0 0
-0.0010745877 0.0254 0.15909831 0 1 0 0
0.025399998 0.0096325567 0.15927394 1 0 0 0
0.0254 0.017662115 0.15938678 1 0 0 0
0.0254 0.018084981 0.15948716 1 0 0 0
0.019940438 0.0254 0.15942359 0 1 0 0
0.025399998 0.0010684589 0.1597216 1 0 0 0
0.025399998 0.0076004984 0.15950072 1 0 0 0
-0.0051603513 0.0254 0.15967788 0 1 0 0
0.00399504 0.0254 0.15955302 0 1 0 0
0.020401478 0.025400002 0.15954213 0 1 0 0
0.0254 0.023824986 0.15976813 1 0 0 0
0.015634425 0.025400002 0.15987286 0 1 0 0
0.023278175 0.025399998 0.15999649 0 1 0 0
0.025399998 -0.018498089 0.160248 1 0 0 0
0.025399998 0.014224989 0.16011781 1 0 0 0
-0.0057456624 0.025399998 0.1603542 0 1 0 0
0.023154359 0.0254 0.160304 0 1 0 0
0.025399998 -0.020854767 0.16061306 1 0 0 0
0.025399998 -0.0031224359 0.16077593 1 0 0 0
0.0254 0.022126123 0.16080299 1 0 0 0
0.015968736 0.025400002 0.16095564 0 1 0 0
0.02479744 0.025400002 0.16088779 0 1 0 0
0.025400002 0.013842668 0.16122058 1 0 0 0
0.0254 0.023558266 0.16110232 1 0 0 0
0.0254 0.017258897 0.16129319 1 0 0 0
-0.020884117 0.0254 0.16133814 0 1 0 0
0.0021454087 0.025399998 0.16131128 0 1 0 0
0.009187201 0.025400002 0.1613937 0 1 0 0
0.025399998 -0.0092669986 0.16173203 1 0 0 0
0.025400002 0.013790976 0.16159198 1 0 0 0
-0.0059121116 0.025400002 0.16161293 0 1 0 0
0.0043141032 0.0254 0.16168471 0 1 0 0
0.0254 -0.019783398 0.16191648 1 0 0 0
0.025399998 -0.013775255 0.16189051 1 0 0 0
-0.019129965 0.025400002 0.16197097 0 1 0 0
-0.015471648 0.0254 0.16197591 0 1 0 0
-0.0057253828 0.025400002 0.16178229 0 1 0 0
0.0065133031 0.0254 0.16202453 0 1 0 0
0.023567475 0.025400002 0.1620425 0 1 0 0
0.0254 -0.0036318749 0.16246334 1 0 0 0
0.0254 0.0045128828 0.16230565 1 0 0 0
0.0254 0.010380446 0.16227156 1 0 0 0
0.025399998 -0.00051966589 0.16256271 1 0 0 0
-0.024184862 0.0254 0.16266324 0 1 0 0
0.025399998 -0.024704479 0.16298272 1 0 0 0
0.025399998 -0.0087874895 0.16290206 1 0 0 0
0.0254 -3.7462451e-05 0.16280442 1 0 0 0
0.0013480512 0.0254 0.16292319 0 1 0 0
0.0076047685 0.025400002 0.16295619 0 1 0 0
0.0090864953 0.025400002 0.16300365 0 1 0 0
0.011637581 0.0254 0.16313368 0 1 0 0
0.0254 0.010457902 0.16347106 1 0 0 0
0.016365571 0.0254 0.16328593 0 1 0 0
-0.0087244436 0.025399998 0.16367877 0 1 0 0
0.0032611033 0.0254 0.16368516 0 1 0 0
0.0254 -0.021784009 0.16398139 1 0 0 0
0.0254 -0.011801785 0.16377796 1 0 0 0
0.025400002 0.024112538 0.16385068 1 0 0 0
-0.023114972 0.025399998 0.16390589 0 1 0 0
0.022714157 0.0254 0.16395521 0 1 0 0
0.0254 -0.013816899 0.164424 1 0 0 0
-0.014677958 0.0254 0.16437504 0 1 0 0
0.0015750823 0.025399998 0.16431329 0 1 0 0
0.025399998 -0.022967659 0.16493852 1 0 0 0
0.025400002 -0.010306858 0.16489929 1 0 0 0
0.025400002 0.022853456 0.16479768 1 0 0 0
0.0254 -0.023909273 0.16516186 1 0 0 0
0.025399998 0.017766833 0.16511895 1 0 0 0
-0.018671969 0.0254 0.16511708 0 1 0 0
-0.016265787 0.025399998 0.165163 0 1 0 0
0.025399998 0.00051449239 0.16535553 1 0 0 0
0.0254 0.0081483731 0.16533498 1 0 0 0
0.0254 0.011127859 0.16526246 1 0 0 0
0.023055121 0.025400002 0.16536735 0 1 0 0
0.0254 -0.0063818702 0.16598414 1 0 0 0
0.025400002 0.01153743 0.16594684 1 0 0 0
0.010019174 0.0254 0.16578874 0 1 0 0
0.025399998 0.010066028 0.16621456 1 0 0 0
0.018188057 0.025400002 0.1661002 0 1 0 0
0.0020534825 0.025399998 0.16633292 0 1 0 0
0.013240661 0.025399998 0.16625063 0 1 0 0
0.022244232 0.025399998 0.16641115 0 1 0 0
0.025399998 -0.0038522109 0.16652113 1 0 0 0
0.0254 0.02259529 0.16667935 1 0 0 0
0.01703628 0.025399998 0.16661429 0 1 0 0
0.0254 -0.0078237914 0.16695035 1 0 0 0
0.025400002 0.0023611328 0.16691689 1 0 0 0
0.025400002 0.0075150407 0.16684036 1 0 0 0
0.025400002 0.00058895163 0.16724849 1 0 0 0
-0.013009897 0.0254 0.16705623 0 1 0 0
0.00039258436 0.0254 0.16724414 0 1 0 0
0.0018395232 0.025399998 0.16708033 0 1 0 0
0.0033964422 0.0254 0.16710101 0 1 0 0
0.014472442 0.025399998 0.1671602 0 1 0 0
0.0254 -0.0027329009 0.16726546 1 0 0 0
0.0254 -0.0010237871 0.16763714 1 0 0 0
0.025399998 0.017970957 0.16750297 1 0 0 0
-0.0051809037 0.0254 0.16773024 0 1 0 0
0.021491326 0.025400002 0.16758052 0 1 0 0
0.0254 -0.02413678 0.16777079 1 0 0 0
0.025400002 -0.022686917 0.16782823 1 0 0 0
-0.023596467 0.025400002 0.16798553 0 1 0 0
0.013222042 0.025399998 0.1677911 0 1 0 0
0.018917968 0.025400002 0.1678341 0 1 0 0
0.021019306 0.025400002 0.16794473 0 1 0 0
-0.0098847318 0.0254 0.16813314 0 1 0 0
0.022058213 0.0254 0.1682003 0 1 0 0
0.0254 -0.0032152506 0.16837761 1 0 0 0
0.025400002 0.0045546335 0.16827428 1 0 0 0
0.0254 0.021424327 0.16832829 1 0 0 0
0.025400002 0.010380991 0.16850407 1 0 0 0
0.025400002 0.020476034 0.16866246 1 0 0 0
-0.023231486 0.0254 0.16854686 0 1 0 0
-0.010433895 0.025400002 0.16851893 0 1 0 0
0.0010298248 0.025400002 0.16853593 0 1 0 0
0.025400002 -0.015149881 0.16891831 1 0 0 0
0.025399998 -0.011239797 0.16893691 1 0 0 0
0.025400002 -0.00048392359 0.16884138 1 0 0 0
0.0254 0.012335055 0.16890475 1 0 0 0
0.025400002 0.024931211 0.16890347 1 0 0 0
0.0011603769 0.0254 0.16898406 0 1 0 0
0.010383189 0.0254 0.16915891 0 1 0 0
0.0254 -0.019777486 0.16934182 1 0 0 0
0.0254 -0.018220434 0.16941741 1 0 0 0
0.0254 0.0046036066 0.16926026 1 0 0 0
-0.0075308038 0.025400002 0.16937277 0 1 0 0
-0.0056297085 0.025400002 0.16925433 0 1 0 0
-0.020568812 0.0254 0.16952261 0 1 0 0
0.0076162862 0.0254 0.16972409 0 1 0 0
0.020595431 0.0254 0.16969778 0 1 0 0
0.025400002 0.011911033 0.16999613 1 0 0 0
0.010808295 0.025400002 0.16994402 0 1 0 0
0.021235963 0.0254 0.17007659 0 1 0 0
0.0254 -0.0064714029 0.17075104 1 0 0 0
0.0254 0.0026497664 0.17076156 1 0 0 0
0.025400002 0.019065902 0.17094737 1 0 0 0
-0.022471832 0.025399998 0.17094991 0 1 0 0
0.0079171117 0.0254 0.17097402 0 1 0 0
0.025400002 -0.024476949 0.17119902 1 0 0 0
0.025400002 -0.018361703 0.17104009 1 0 0 0
0.0254 0.0071446868 0.17114295 1 0 0 0
-0.0174086 0.025400002 0.17108235 0 1 0 0
-0.0044294568 0.0254 0.17106275 0 1 0 0
0.0254 0.011835782 0.17140245 1 0 0 0
0.025399998 0.017022321 0.17137948 1 0 0 0
0.025400002 0.022866447 0.17126322 1 0 0 0
0.0068112202 0.0254 0.17134133 0 1 0 0
0.025400002 -0.01561235 0.17174515 1 0 0 0
0.025399998 0.011103905 0.17185034 1 0 0 0
0.0254 0.013535878 0.17175254 1 0 0 0
-0.022619538 0.025400002 0.17181797 0 1 0 0
-0.010037016 0.0254 0.17182082 0 1 0 0
0.0011061737 0.025400002 0.17179409 0 1 0 0
0.01069483 0.0254 0.171928 0 1 0 0
-0.0090093333 0.025399998 0.17223805 0 1 0 0
0.025399998 -0.02206276 0.17243762 1 0 0 0
0.025399998 -0.0095781637 0.17231601 1 0 0 0
0.025399998 -0.00037079677 0.17225049 1 0 0 0
0.025400002 0.016455937 0.17249879 1 0 0 0
0.025399998 0.017295707 0.17264301 1 0 0 0
0.025400002 0.015708882 0.17333655 1 0 0 0
0.025400002 0.0091987969 0.17374378 1 0 0 0
0.0099027883 0.025400002 0.17370704 0 1 0 0
-0.014779015 0.0254 0.17376204 0 1 0 0
-0.023057407 0.025400002 0.17422539 0 1 0 0
0.025400002 -0.013645854 0.17443076 1 0 0 0
0.025399998 0.005473109 0.17430486 1 0 0 0
0.0254 0.021597309 0.17437343 1 0 0 0
-0.013111847 0.0254 0.17439814 0 1 0 0
-0.011808132 0.0254 0.17437142 0 1 0 0
-0.0089636147 0.025400002 0.17433922 0 1 0 0
0.025400002 -0.0095286975 0.17456821 1 0 0 0
0.0254 -0.003462893 0.17473243 1 0 0 0
-0.010243068 0.0254 0.17473394 0 1 0 0
-0.016209844 0.0254 0.1747542 0 1 0 0
0.006026336 0.025399998 0.17479017 0 1 0 0
0.025399998 -0.012503075 0.17508149 1 0 0 0
0.00033570128 0.025400002 0.17512679 0 1 0 0
0.0012642667 0.025399998 0.17518046 0 1 0 0
-0.022859121 0.025400002 0.17563316 0 1 0 0
-0.021931706 0.025399998 0.17563856 0 1 0 0
0.0073285066 0.025399998 0.17556803 0 1 0 0
0.0254 -0.0029022037 0.17586768 1 0 0 0
0.0254 0.020267235 0.17575477 1 0 0 0
0.0254 0.023572402 0.17590629 1 0 0 0
0.025400002 0.012558672 0.1761242 1 0 0 0
-0.0065840804 0.025400002 0.17602149 0 1 0 0
0.0043935026 0.025399998 0.17609207 0 1 0 0
0.016497571 0.0254 0.1761727 0 1 0 0
0.014856413 0.0254 0.17642933 0 1 0 0
0.0254 -0.014958816 0.17652978 1 0 0 0
0.0254 0.024654984 0.17656977 1 0 0 0
0.012913097 0.025400002 0.17665426 0 1 0 0
-0.015885526 0.025399998 0.17706457 0 1 0 0
0.0066807279 0.0254 0.17707194 0 1 0 0
0.0254 0.0068443906 0.17746675 1 0 0 0
0.016366322 0.0254 0.17749511 0 1 0 0
0.02275533 0.0254 0.17727873 0 1 0 0
0.025399998 0.0097734928 0.1775185 1 0 0 0
0.010868067 0.0254 0.17770959 0 1 0 0
0.025400002 -0.016789101 0.1778814 1 0 0 0
-0.02101199 0.025399998 0.1778423 0 1 0 0
0.0254 -0.013193971 0.17810348 1 0 0 0
0.0254 -0.0046064998 0.17801894 1 0 0 0
0.025400002 0.015337941 0.17810199 1 0 0 0
-0.015001041 0.025400002 0.17820394 0 1 0 0
0.003839053 0.025399998 0.17814161 0 1 0 0
-0.014761996 0.0254 0.17837493 0 1 0 0
0.0093596913 0.025400002 0.17836607 0 1 0 0
0.0254 -0.021208381 0.17850879 1 0 0 0
0.0254 -0.01440488 0.17854536 1 0 0 0
0.025400002 -0.024161361 0.17878608 1 0 0 0
0.025400002 0.001130248 0.17876132 1 0 0 0
0.0254 0.010553309 0.17893124 1 0 0 0
-0.023031244 0.025400002 0.17880288 0 1 0 0
0.00049705664 0.025400002 0.17881975 0 1 0 0
0.018716624 0.0254 0.178803 0 1 0 0
0.0254 0.014378328 0.17909539 1 0 0 0
0.0254 0.022750823 0.17919996 1 0 0 0
0.0254 -0.021820167 0.1793648 1 0 0 0
-0.0096409768 0.0254 0.17942822 0 1 0 0
0.0074726576 0.025399998 0.17930214 0 1 0 0
0.0254 -0.014996266 0.17963707 1 0 0 0
0.025399998 -0.0063341707 0.17967623 1 0 0 0
0.025400002 -0.0045307763 0.17981178 1 0 0 0
0.025400002 0.014189439 0.17977592 1 0 0 0
0.025400002 0.022843104 0.17975244 1 0 0 0
0.0254 -0.009260416 0.18009669 1 0 0 0
0.025400002 0.0072868788 0.18002743 1 0 0 0
0.0254 0.02501373 0.18002214 1 0 0 0
0.020969562 0.0254 0.18027546 0 1 0 0
0.025399998 -0.013454459 0.18054779 1 0 0 0
0.025400002 0.022835746 0.18070954 1 0 0 0
0.022221372 0.025399998 0.18050946 0 1 0 0
0.0254 -0.021263788 0.18076144 1 0 0 0
0.0254 0.0070179175 0.18093385 1 0 0 0
0.025399998 0.013761047 0.18092759 1 0 0 0
-0.0164815 0.025400002 0.18097162 0 1 0 0
0.0254 -0.0032035233 0.18121512 1 0 0 0
0.0254 0.02499583 0.18105304 1 0 0 0
-0.013326551 0.0254 0.18112206 0 1 0 0
-0.0020784819 0.025399998 0.18109396 0 1 0 0
0.0254 -0.013591064 0.18149206 1 0 0 0
0.0254 0.0050372612 0.18136209 1 0 0 0
-0.0085912505 0.025399998 0.18125698 0 1 0 0
0.0060709231 0.0254 0.18125419 0 1 0 0
0.025399998 -0.01301498 0.18150555 1 0 0 0
0.0254 0.0045444621 0.18165152 1 0 0 0
0.0037875932 0.0254 0.18173884 0 1 0 0
0.025400002 0.017733179 0.18205684 1 0 0 0
-0.010128576 0.0254 0.1820468 0 1 0 0
0.0254 0.006547275 0.18227012 1 0 0 0
0.0254 0.023843545 0.18234877 1 0 0 0
-0.0042250562 0.025399998 0.18232648 0 1 0 0
0.0027108239 0.0254 0.18228382 0 1 0 0
0.0254 -0.023338342 0.18263069 1 0 0 0
0.0254 -0.014413288 0.18266778 1 0 0 0
0.0254 -0.0090256333 0.18256597 1 0 0 0
0.0254 -0.0033509019 0.18274719 1 0 0 0
-0.0015600435 0.025399998 0.18271746 0 1 0 0
0.012069514 0.025399998 0.18259677 0 1 0 0
0.0254 0.019662514 0.18299901 1 0 0 0
0.011300998 0.025399998 0.18299679 0 1 0 0
0.0254 -0.024322333 0.18319765 1 0 0 0
0.025399998 -0.016254473 0.18305026 1 0 0 0
0.0254 0.015782991 0.18309826 1 0 0 0
0.025400002 0.023907466 0.18314543 1 0 0 0
0.00058605988 0.0254 0.1831978 0 1 0 0
0.014201788 0.025399998 0.18346782 0 1 0 0
0.0254 -0.014777729 0.18374746 1 0 0 0
0.025399998 0.008523765 0.18371168 1 0 0 0
-0.019290904 0.025400002 0.1835562 0 1 0 0
0.0015860959 0.025399998 0.18370901 0 1 0 0
0.025400002 0.0098281344 0.18398713 1 0 0 0
-0.0014031935 0.0254 0.1839551 0 1 0 0
0.0254 0.014412451 0.1840696 1 0 0 0
0.0254 -0.013255479 0.18427037 1 0 0 0
0.0254 -0.010067325 0.18430613 1 0 0 0
-0.0075296015 0.0254 0.18447855 0 1 0 0
0.0052102339 0.0254 0.1844573 0 1 0 0
0.0254 -0.019280983 0.1846296 1 0 0 0
0.0254 -0.01251336 0.18454964 1 0 0 0
0.0254 0.00051246863 0.18451814 1 0 0 0
0.0254 0.0029642209 0.18470988 1 0 0 0
-0.02173508 0.025400002 0.1847208 0 1 0 0
-0.019821608 0.025400002 0.18455972 0 1 0 0
0.021828258 0.025400002 0.18469922 0 1 0 0
0.0254 -0.022720544 0.18488453 1 0 0 0
-0.010985023 0.0254 0.18493673 0 1 0 0
0.0254 -0.0069272746 0.18526462 1 0 0 0
0.025399998 0.013579654 0.18536109 1 0 0 0
0.025399998 -0.0023754318 0.18568462 1 0 0 0
0.0254 0.0035211272 0.18587705 1 0 0 0
0.025400002 0.019449089 0.18615037 1 0 0 0
0.012245024 0.0254 0.18620454 0 1 0 0
0.023655856 0.025399998 0.18618926 0 1 0 0
0.0254 0.0002663401 0.18631615 1 0 0 0
0.0254 0.012431499 0.18627678 1 0 0 0
-0.022661097 0.0254 0.18665142 0 1 0 0
-0.012286147 0.025400002 0.18664117 0 1 0 0
0.025400002 -0.012592652 0.18680327 1 0 0 0
0.0254 -0.0049802843 0.18676916 1 0 0 0
0.025399998 0.0017211186 0.18675166 1 0 0 0
0.0254 0.015934315 0.18696813 1 0 0 0
-0.011546482 0.025400002 0.18689615 0 1 0 0
0.0254 -0.0068515367 0.18717317 1 0 0 0
0.0254 0.0043077609 0.18707789 1 0 0 0
-0.012193802 0.025400002 0.18770817 0 1 0 0
0.0254 -0.011368297 0.18786253 1 0 0 0
0.025400002 -0.0033460716 0.18795754 1 0 0 0
-0.0074210572 0.0254 0.18781261 0 1 0 0
0.011238476 0.0254 0.18776938 0 1 0 0
0.025399998 0.0044735745 0.18822266 1 0 0 0
-0.0019913982 0.0254 0.18801039 0 1 0 0
0.0097214989 0.025399998 0.18801484 0 1 0 0
0.018844195 0.0254 0.18804826 0 1 0 0
0.0254 -0.019998727 0.188446 1 0 0 0
0.025399998 0.024384029 0.18832533 1 0 0 0
0.010474188 0.025399998 0.18840119 0 1 0 0
0.0254 0.0077974573 0.18859075 1 0 0 0
0.0254 0.010789892 0.18868074 1 0 0 0
-0.0014549992 0.025400002 0.18857966 0 1 0 0
0.0254 0.025271956 0.18870866 1 0 0 0
0.025400002 -0.0011014696 0.18886307 1 0 0 0
0.025399998 0.015843265 0.18918374 1 0 0 0
0.022579232 0.0254 0.18909813 0 1 0 0
-0.0010018549 0.0254 0.18949312 0 1 0 0
0.0064824135 0.0254 0.1894208 0 1 0 0
0.015616777 0.0254 0.189979 0 1 0 0
0.0254 -0.015277708 0.19018129 1 0 0 0
0.0254 0.01583731 0.19039237 1 0 0 0
-0.0016054623 0.025400002 0.19036292 0 1 0 0
0.0254 -0.014057161 0.1905667 1 0 0 0
0.025400002 -0.01233103 0.19074208 1 0 0 0
0.025399998 0.011315975 0.19061343 1 0 0 0
0.0079900539 0.025399998 0.19071619 0 1 0 0
0.0254 -0.014177369 0.190862 1 0 0 0
-0.017379023 0.025400002 0.19113807 0 1 0 0
-0.016877089 0.0254 0.19119927 0 1 0 0
-7.1999151e-05 0.0254 0.19106781 0 1 0 0
0.015117927 0.0254 0.19110264 0 1 0 0
0.024109667 0.025400002 0.19109417 0 1 0 0
0.0254 -0.0061563128 0.19128294 1 0 0 0
-0.016905397 0.025400002 0.19149229 0 1 0 0
-0.013817081 0.0254 0.19139981 0 1 0 0
-0.0031413087 0.025399998 0.19138524 0 1 0 0
0.0064679319 0.0254 0.19146514 0 1 0 0
0.0254 -0.025399795 0.19161423 1 0 0 0
0.0254 -0.01152673 0.19159251 1 0 0 0
0.0254 0.00065468065 0.19169152 1 0 0 0
0.0254 0.02024583 0.19158222 1 0 0 0
0.02095856 0.0254 0.19169995 0 1 0 0
0.0254 -0.0072574117 0.1919487 1 0 0 0
0.025400002 0.0032919939 0.19190082 1 0 0 0
0.005157141 0.025399998 0.19176266 0 1 0 0
0.019327445 0.0254 0.19181731 0 1 0 0
-0.02384147 0.025399998 0.1922396 0 1 0 0
0.0254 -0.015050801 0.19231167 1 0 0 0
0.025400002 0.00043326709 0.19244139 1 0 0 0
-0.0050909682 0.025400002 0.19241358 0 1 0 0
0.025399998 0.007769167 0.19253655 1 0 0 0
-0.0021926719 0.025399998 0.19272622 0 1 0 0
0.025400002 -0.010568372 0.19283606 1 0 0 0
-0.0033840453 0.025399998 0.19318379 0 1 0 0
0.012461731 0.0254 0.19321187 0 1 0 0
0.0254 0.0011698129 0.19326125 1 0 0 0
-0.01520669 0.025399998 0.19345295 0 1 0 0
0.01245506 0.025400002 0.19386302 0 1 0 0
0.0254 -0.025372675 0.19408756 1 0 0 0
0.0254 -0.0084845927 0.19402958 1 0 0 0
0.0254 -0.007952502 0.19417435 1 0 0 0
0.025399998 -0.0013519102 0.19423452 1 0 0 0
-0.0025787195 0.025400002 0.19400129 0 1 0 0
-0.0075545576 0.025400002 0.19449849 0 1 0 0
0.011425109 0.0254 0.19466394 0 1 0 0
0.0254 -0.022941364 0.19482657 1 0 0 0
0.0254 -0.016641198 0.19489449 1 0 0 0
0.0254 0.003907193 0.19499101 1 0 0 0
0.0254 0.0067357309 0.19524682 1 0 0 0
-0.016056729 0.025400002 0.1951322 0 1 0 0
-0.0021602064 0.025399998 0.1950677 0 1 0 0
0.020127036 0.025400002 0.19512059 0 1 0 0
0.0254 -0.021188674 0.1953316 1 0 0 0
0.0254 0.0078131258 0.19549891 1 0 0 0
0.0254 -0.016722528 0.19569555 1 0 0 0
0.0254 -0.01358111 0.19573991 1 0 0 0
0.0254 0.017268583 0.19566624 1 0 0 0
-0.010410681 0.025399998 0.19564247 0 1 0 0
0.023166964 0.0254 0.19597434 0 1 0 0
0.0254 0.0032091474 0.19621766 1 0 0 0
0.0254 0.0070126718 0.19624308 1 0 0 0
0.0254 0.017255325 0.19602664 1 0 0 0
-0.0031873411 0.0254 0.19600734 0 1 0 0
0.016548615 0.0254 0.19602396 0 1 0 0
0.0254 0.00083950581 0.1963084 1 0 0 0
0.0254 0.0062465384 0.19639084 1 0 0 0
0.025399998 0.021780724 0.19647442 1 0 0 0
-0.009764499 0.0254 0.19635946 0 1 0 0
-0.007642406 0.025399998 0.19636326 0 1 0 0
0.025400002 0.013210524 0.19681308 1 0 0 0
0.0048246891 0.0254 0.19697753 0 1 0 0
0.025400002 -0.023811892 0.19723105 1 0 0 0
0.025400002 -0.0095907338 0.19724028 1 0 0 0
-0.0055340426 0.0254 0.19710904 0 1 0 0
0.021179438 0.0254 0.19711718 0 1 0 0
0.025400002 -0.023523815 0.19739194 1 0 0 0
0.0254 -0.023118993 0.19729853 1 0 0 0
0.0254 -0.021608731 0.19728087 1 0 0 0
0.025399998 0.0085143652 0.19736546 1 0 0 0
0.025399998 0.01217369 0.19736777 1 0 0 0
0.0038119103 0.0254 0.19740757 0 1 0 0
0.016535923 0.0254 0.19733338 0 1 0 0
0.019839263 0.025400002 0.19734448 0 1 0 0
0.0254 -0.023424266 0.19770034 1 0 0 0
0.0254 -0.022883886 0.19774584 1 0 0 0
0.0254 -0.0032361262 0.19774581 1 0 0 0
0.02015545 0.0254 0.1977139 0 1 0 0
0.0254 -0.018449301 0.19787021 1 0 0 0
0.025400002 0.0070594186 0.19780347 1 0 0 0
0.0254 5.7391357e-05 0.1981163 1 0 0 0
0.0254 0.0085489368 0.19819307 1 0 0 0
0.0254 0.023448978 0.198213 1 0 0 0
0.0254 -0.019809494 0.19854094 1 0 0 0
0.025400002 0.004387639 0.19869101 1 0 0 0
0.025399998 -0.0088779349 0.19890514 1 0 0 0
-0.024947453 0.0254 0.19891146 0 1 0 0
0.0254 0.024949886 0.19919854 1 0 0 0
-0.018698061 0.0254 0.19919625 0 1 0 0
0.0254 -0.012042046 0.19926925 1 0 0 0
0.0254 -0.0039592134 0.19961014 1 0 0 0
0.025400002 0.013907596 0.19954795 1 0 0 0
-0.0071065715 0.0254 0.19961521 0 1 0 0
0.0254 -0.012249218 0.19998288 1 0 0 0
0.012878435 0.0254 0.19975169 0 1 0 0
0.025400002 -0.025075432 0.20014243 1 0 0 0
0.025400002 0.012089798 0.20000276 1 0 0 0
0.012743897 0.0254 0.20006412 0 1 0 0
0.0254 -0.0041365889 0.20045263 1 0 0 0
0.025399998 -0.00089237606 0.20037004 1 0 0 0
-0.0080086077 0.025400002 0.20037755 0 1 0 0
0.022091851 0.025400002 0.20039456 0 1 0 0
0.025400002 0.00029359525 0.20064263 1 0 0 0
0.0254 0.02357835 0.20068058 1 0 0 0
0.013521934 0.025400002 0.20057639 0 1 0 0
-0.02118456 0.0254 0.20090051 0 1 0 0
0.015178487 0.025400002 0.20077127 0 1 0 0
0.0254 -0.010180171 0.20107725 1 0 0 0
0.0254 0.0061694104 0.20123529 1 0 0 0
0.025399998 0.024685891 0.20107347 1 0 0 0
-0.0072506368 0.0254 0.20109081 0 1 0 0
-0.0057475944 0.0254 0.20101389 0 1 0 0
0.0254 0.0094371326 0.20137303 1 0 0 0
0.025400002 0.011195721 0.20126338 1 0 0 0
-0.010511981 0.0254 0.20139906 0 1 0 0
0.012962424 0.0254 0.20138501 0 1 0 0
-0.01861578 0.0254 0.20161758 0 1 0 0
-0.0067693237 0.025399998 0.20189111 0 1 0 0
0.0254 0.015350176 0.20217292 1 0 0 0
-0.016205555 0.0254 0.20203909 0 1 0 0
0.0254 -0.013498878 0.20243455 1 0 0 0
0.025399998 0.018493744 0.20246099 1 0 0 0
0.019286377 0.025399998 0.20246184 0 1 0 0
0.020248907 0.025400002 0.2024755 0 1 0 0
-0.024574649 0.025400002 0.20250891 0 1 0 0
0.022471486 0.0254 0.20265561 0 1 0 0
0.025400002 -0.00035578897 0.20283508 1 0 0 0
0.0254 0.011654947 0.20299824 1 0 0 0
-0.0030827476 0.025400002 0.20295687 0 1 0 0
-0.00050091371 0.025399998 0.20294124 0 1 0 0
0.0254 -0.0050798184 0.20318259 1 0 0 0
0.025400002 0.013537959 0.20319965 1 0 0 0
-0.020895761 0.0254 0.20313185 0 1 0 0
-0.0071125748 0.0254 0.20308118 0 1 0 0
0.0045642736 0.0254 0.20312271 0 1 0 0
0.0254 -0.022344476 0.20349064 1 0 0 0
0.025400002 -0.018813498 0.20344439 1 0 0 0
0.0254 0.00034179352 0.20347981 1 0 0 0
-0.00067777745 0.025400002 0.20357342 0 1 0 0
0.02409381 0.025399998 0.20364036 0 1 0 0
0.0254 -8.5225329e-05 0.20396408 1 0 0 0
0.0254 0.0078200176 0.20386523 1 0 0 0
0.0254 0.0027973829 0.20422539 1 0 0 0
0.0254 0.020225881 0.20407273 1 0 0 0
0.025400002 0.021203391 0.20440015 1 0 0 0
-0.022130864 0.025400002 0.20438319 0 1 0 0
0.025400002 0.00087330886 0.20462275 1 0 0 0
-0.016221348 0.025399998 0.20474763 0 1 0 0
-0.0082058515 0.025400002 0.20459788 0 1 0 0
0.0012983568 0.025399998 0.20461646 0 1 0 0
0.0254 -0.023996709 0.20491895 1 0 0 0
0.0254 -0.0070827357 0.20496668 1 0 0 0
0.025400002 -0.013526876 0.20509797 1 0 0 0
0.0254 0.019254548 0.20506302 1 0 0 0
0.0068931496 0.025399998 0.20521173 0 1 0 0
0.0254 -0.02452434 0.20538925 1 0 0 0
0.0254 0.01144398 0.20544949 1 0 0 0
-0.016282452 0.0254 0.20562764 0 1 0 0
0.0254 -0.017472556 0.20583634 1 0 0 0
-0.0030163531 0.0254 0.20597562 0 1 0 0
0.0046181255 0.0254 0.20597973 0 1 0 0
0.014906028 0.025400002 0.20583165 0 1 0 0
0.0254 0.015874257 0.20602508 1 0 0 0
-0.0065882904 0.0254 0.20612144 0 1 0 0
0.025399998 -0.014944393 0.20650798 1 0 0 0
0.0254 -0.011993313 0.20650762 1 0 0 0
0.025400002 0.0052268961 0.20672023 1 0 0 0
-0.018930312 0.0254 0.20662671 0 1 0 0
-0.01141205 0.025400002 0.2065382 0 1 0 0
0.0083421282 0.025400002 0.20653233 0 1 0 0
0.0254 -0.011690989 0.20681597 1 0 0 0
0.0254 -0.0064531104 0.20688805 1 0 0 0
-0.006084302 0.0254 0.20696586 0 1 0 0
0.0254 -0.0020443425 0.20715089 1 0 0 0
-0.0085961781 0.0254 0.20724396 0 1 0 0
0.025399998 -0.0039597852 0.20747703 1 0 0 0
0.025399998 0.002272055 0.20752887 1 0 0 0
0.025399998 -0.011782847 0.20794718 1 0 0 0
0.025399998 -0.010116355 0.20778205 1 0 0 0
0.0254 -0.0052616796 0.20787628 1 0 0 0
0.0254 -0.0097056869 0.20824407 1 0 0 0
0.025399998 -0.0025586565 0.20824184 1 0 0 0
0.0254 0.0018682766 0.20811309 1 0 0 0
-0.016265118 0.025399998 0.2080515 0 1 0 0
0.013795221 0.0254 0.20813857 0 1 0 0
0.0254 -0.0050193872 0.20832632 1 0 0 0
0.025399998 0.0082819816 0.20833443 1 0 0 0
0.0254 0.0090907821 0.20835526 1 0 0 0
0.0254 -0.016095366 0.20862313 1 0 0 0
0.0254 -0.011435282 0.20899193 1 0 0 0
0.025400002 -0.0052636182 0.2087678 1 0 0 0
0.0254 0.01970984 0.20895064 1 0 0 0
-0.023191368 0.0254 0.20896344 0 1 0 0
0.0254 -0.024623806 0.20914254 1 0 0 0
0.025399998 -0.021861449 0.20924564 1 0 0 0
0.025399998 -0.0036014274 0.20915297 1 0 0 0
0.0254 0.01162015 0.20913351 1 0 0 0
0.011713558 0.0254 0.20903248 0 1 0 0
0.0254 -0.010271015 0.20932442 1 0 0 0
0.025399998 -0.0081562558 0.2092825 1 0 0 0
0.0254 0.021324083 0.20934394 1 0 0 0
-0.0035462771 0.0254 0.20948952 0 1 0 0
0.0254 -0.017752776 0.20973842 1 0 0 0
0.0254 -0.00076265982 0.20971242 1 0 0 0
0.025400002 0.013711805 0.20963259 1 0 0 0
0.014842608 0.025399998 0.20952374 0 1 0 0
0.0254 0.0027899526 0.20983097 1 0 0 0
-0.011158753 0.0254 0.20993172 0 1 0 0
0.0254 0.016010759 0.21017608 1 0 0 0
0.025400002 0.016941303 0.21001481 1 0 0 0
-0.0090696886 0.025400002 0.21024999 0 1 0 0
0.025400002 0.017849162 0.21027857 1 0 0 0
-0.013564803 0.0254 0.21031016 0 1 0 0
0.0254 -0.0087982956 0.21056236 1 0 0 0
0.0254 0.0014735188 0.21055081 1 0 0 0
0.0254 -0.010924047 0.21109706 1 0 0 0
0.0254 0.0018903551 0.21109836 1 0 0 0
0.025399998 0.004569253 0.21105726 1 0 0 0
0.025399998 0.0087147066 0.21106996 1 0 0 0
0.019635271 0.0254 0.21107149 0 1 0 0
0.0254 -0.017976785 0.21141888 1 0 0 0
0.0254 -0.011641175 0.21145304 1 0 0 0
0.0254 0.0032999369 0.21126595 1 0 0 0
-0.022823012 0.0254 0.21139336 0 1 0 0
0.011865061 0.025400002 0.21146725 0 1 0 0
0.012196001 0.0254 0.21127102 0 1 0 0
0.0254 -0.023478122 0.21160564 1 0 0 0
0.0254 -0.00060892128 0.21158329 1 0 0 0
0.0254 0.0014616291 0.21159682 1 0 0 0
0.0254 0.019306473 0.21155736 1 0 0 0
0.016770611 0.0254 0.21160917 0 1 0 0
0.0254 0.01573908 0.21178709 1 0 0 0
-0.019338693 0.025400002 0.2118673 0 1 0 0
0.0254 -0.023797406 0.21222182 1 0 0 0
-0.011270886 0.025399998 0.21208581 0 1 0 0
0.011747408 0.025399998 0.21208653 0 1 0 0
0.0023320243 0.0254 0.21236756 0 1 0 0
0.0061603291 0.025400002 0.21245813 0 1 0 0
0.024862764 0.0254 0.21266501 0 1 0 0
0.0254 -0.0091589261 0.2128641 1 0 0 0
-0.0073913215 0.0254 0.21293469 0 1 0 0
-0.0028879661 0.0254 0.2128877 0 1 0 0
0.0057590138 0.0254 0.21278276 0 1 0 0
0.008149771 0.0254 0.21293199 0 1 0 0
0.021794247 0.0254 0.21276173 0 1 0 0
0.025400002 0.019376626 0.21303816 1 0 0 0
0.0060393889 0.0254 0.21318342 0 1 0 0
0.025399998 -0.014789369 0.21348949 1 0 0 0
0.025400002 0.015579061 0.21325731 1 0 0 0
-0.020823779 0.0254 0.21344565 0 1 0 0
0.0254 0.0026979321 0.21364807 1 0 0 0
0.025400002 0.0062824395 0.21359982 1 0 0 0
0.0254 -0.020006096 0.2138705 1 0 0 0
0.0254 0.0045318902 0.21399246 1 0 0 0
-0.021321634 0.0254 0.21387433 0 1 0 0
0.0254 -0.015758818 0.21415985 1 0 0 0
-0.010707408 0.025399998 0.21417312 0 1 0 0
0.01002954 0.0254 0.21412647 0 1 0 0
0.013471162 0.025400002 0.21413487 0 1 0 0
0.0254 0.016360654 0.21446511 1 0 0 0
-0.004200561 0.0254 0.2143141 0 1 0 0
0.0254 -0.019755585 0.21460834 1 0 0 0
0.025400002 -0.0030985898 0.2148518 1 0 0 0
0.025399998 0.0047360719 0.21492487 1 0 0 0
-0.01149615 0.0254 0.21483329 0 1 0 0
0.0254 0.021819666 0.21517022 1 0 0 0
-0.021362826 0.0254 0.21503311 0 1 0 0
-0.014563276 0.025400002 0.21500407 0 1 0 0
0.025400002 0.018521028 0.21531285 1 0 0 0
0.0061638076 0.025400002 0.21534584 0 1 0 0
0.025400002 0.0077342903 0.21560569 1 0 0 0
0.025399998 0.024049956 0.21559431 1 0 0 0
0.025400002 0.020586155 0.21583249 1 0 0 0
0.012901801 0.025399998 0.21578909 0 1 0 0
0.0254 -0.0056675267 0.21618381 1 0 0 0
0.025400002 0.014598021 0.21621022 1 0 0 0
0.025399998 0.018061871 0.21609642 1 0 0 0
-0.0078935139 0.025400002 0.21611367 0 1 0 0
-0.01992766 0.0254 0.21628258 0 1 0 0
0.0254 0.0098621454 0.21663007 1 0 0 0
0.0254 -0.0013232788 0.2168638 1 0 0 0
-0.013831604 0.0254 0.21687135 0 1 0 0
0.012072373 0.0254 0.21681297 0 1 0 0
0.0254 -0.024268137 0.21722759 1 0 0 0
0.0071016857 0.0254 0.2170766 0 1 0 0
0.012683516 0.0254 0.21707948 0 1 0 0
0.017462805 0.025399998 0.21700588 0 1 0 0
-0.018665319 0.0254 0.21749927 0 1 0 0
0.0254 -0.022846749 0.21751329 1 0 0 0
0.0254 -0.017012456 0.21755882 1 0 0 0
-0.016477784 0.025400002 0.21763633 0 1 0 0
0.025400002 0.005740609 0.21779457 1 0 0 0
-0.0060158568 0.0254 0.2179727 0 1 0 0
-0.0016567446 0.025399998 0.2179061 0 1 0 0
0.0254 0.0064258799 0.21811834 1 0 0 0
0.0254 0.0098598078 0.21804255 1 0 0 0
0.025399998 0.011737354 0.21810457 1 0 0 0
-0.0035140235 0.0254 0.21845731 0 1 0 0
0.0254 0.0087230643 0.21851058 1 0 0 0
