# .PCD v0.7 - Point Cloud Data file format
VERSION 0.7
FIELDS x y z normal_x normal_y normal_z curvature
SIZE 4 4 4 4 4 4 4
TYPE F F F F F F F
COUNT 1 1 1 1 1 1 1
WIDTH 1146
HEIGHT 1
VIEWPOINT 0 0 0 1 0 0 0
POINTS 1146
DATA ascii
0.070708007 0.025399998 -0.0038729189 0 1 0 0
0.073142834 0.025400002 -0.0039324546 0 1 0 0
0.084769249 0.0254 -0.0039099753 0 1 0 0
-0.057576038 0.0254 -0.0035587221 0 1 0 0
-0.04962787 0.0254 -0.0035286918 0 1 0 0
-0.01626369 0.025400002 -0.0036767842 0 1 0 0
0.0056058317 0.0254 -0.0035696365 0 1 0 0
0.014855526 0.025400002 -0.0036594467 0 1 0 0
0.052939136 0.0254 -0.0036955178 0 1 0 0
0.064300828 0.0254 -0.0035092458 0 1 0 0
0.069019929 0.025400002 -0.0036727292 0 1 0 0
0.099039681 0.0254 -0.0037278421 0 1 0 0
0.14640298 0.0254 -0.0037122532 0 1 0 0
0.17276914 0.0254 -0.0035100912 0 1 0 0
-0.071032152 0.0254 -0.0032856809 0 1 0 0
-0.066752009 0.0254 -0.0033095041 0 1 0 0
-0.064962745 0.0254 -0.0033368268 0 1 0 0
-0.047710083 0.0254 -0.003255019 0 1 0 0
-0.046813715 0.0254 -0.003328294 0 1 0 0
-0.022049259 0.025399998 -0.0033023981 0 1 0 0
-0.021210743 0.0254 -0.0033752602 0 1 0 0
0.016482899 0.0254 -0.0033089034 0 1 0 0
0.024193004 0.0254 -0.0034708604 0 1 0 0
0.15854348 0.025399998 -0.0034744563 0 1 0 0
-0.047024872 0.0254 -0.0032229954 0 1 0 0
0.037301715 0.0254 -0.0031970758 0 1 0 0
0.11694049 0.0254 -0.0031978013 0 1 0 0
0.1414139 0.0254 -0.0030067544 0 1 0 0
0.14674059 0.0254 -0.0031127664 0 1 0 0
0.14867114 0.0254 -0.0030587032 0 1 0 0
0.020145832 0.025400002 -0.0029730843 0 1 0 0
0.035407774 0.0254 -0.0029802807 0 1 0 0
0.042116806 0.0254 -0.0028081778 0 1 0 0
0.052452549 0.0254 -0.0027700439 0 1 0 0
0.092670612 0.0254 -0.0027915239 0 1 0 0
0.1003617 0.0254 -0.0028099902 0 1 0 0
0.12894885 0.025399998 -0.0028122654 0 1 0 0
0.13888554 0.025400002 -0.0028825179 0 1 0 0
0.1406163 0.025399998 -0.0029861191 0 1 0 0
0.010558937 0.0254 -0.0025726203 0 1 0 0
0.020231571 0.0254 -0.0027005952 0 1 0 0
0.020579956 0.0254 -0.0026115011 0 1 0 0
0.054903574 0.0254 -0.0025597569 0 1 0 0
0.090756334 0.0254 -0.0026596859 0 1 0 0
0.13990055 0.0254 -0.0026406734 0 1 0 0
-0.066177666 0.0254 -0.0023524822 0 1 0 0
-0.045325089 0.025399998 -0.0023750402 0 1 0 0
0.010322688 0.0254 -0.0024696533 0 1 0 0
0.047898125 0.0254 -0.0022879355 0 1 0 0
0.066867709 0.025399998 -0.0024349587 0 1 0 0
0.068033025 0.025400002 -0.0023758681 0 1 0 0
0.080784112 0.0254 -0.0023021605 0 1 0 0
0.11210228 0.0254 -0.0024870299 0 1 0 0
0.12437844 0.0254 -0.0024696663 0 1 0 0
0.14186287 0.0254 -0.0022962834 0 1 0 0
0.17135121 0.0254 -0.0023361722 0 1 0 0
-0.051522344 0.0254 -0.0021583019 0 1 0 0
0.013408227 0.0254 -0.0020537749 0 1 0 0
0.046248309 0.0254 -0.0020768996 0 1 0 0
0.072474957 0.025399998 -0.0020718528 0 1 0 0
0.12337086 0.025399998 -0.0020483052 0 1 0 0
0.15129302 0.0254 -0.0017549442 0 1 0 0
0.17526011 0.0254 -0.0018079357 0 1 0 0
0.17812303 0.0254 -0.0018168432 0 1 0 0
-0.047559597 0.025400002 -0.0015929621 0 1 0 0
0.001073706 0.0254 -0.0015316382 0 1 0 0
0.0075234575 0.0254 -0.0016861409 0 1 0 0
0.069129348 0.0254 -0.0016868785 0 1 0 0
0.094852403 0.0254 -0.0015201867 0 1 0 0
0.13660134 0.0254 -0.0016932874 0 1 0 0
-0.02790357 0.0254 -0.0013228562 0 1 0 0
-0.022574253 0.0254 -0.001440892 0 1 0 0
0.048848715 0.025400002 -0.0013383524 0 1 0 0
0.063936628 0.025399998 -0.0013905698 0 1 0 0
0.092428513 0.0254 -0.0014260188 0 1 0 0
0.10272146 0.0254 -0.0013047419 0 1 0 0
0.16254707 0.0254 -0.0013020893 0 1 0 0
0.173719 0.0254 -0.0012690187 0 1 0 0
-0.032521278 0.0254 -0.0010992282 0 1 0 0
0.010506212 0.0254 -0.0010576658 0 1 0 0
0.017828573 0.0254 -0.0011051409 0 1 0 0
0.048152521 0.0254 -0.0011467449 0 1 0 0
0.13985622 0.0254 -0.0010820311 0 1 0 0
0.17384262 0.0254 -0.0012292007 0 1 0 0
-0.036129709 0.025399998 -0.00088722119 0 1 0 0
-0.031281151 0.0254 -0.00075807329 0 1 0 0
0.098718144 0.0254 -0.00094214454 0 1 0 0
0.083643571 0.0254 -0.00056274422 0 1 0 0
0.12733321 0.0254 -0.00063478667 0 1 0 0
0.14552766 0.0254 -0.00062382407 0 1 0 0
0.020389853 0.0254 -0.00047265179 0 1 0 0
0.070142359 0.0254 -0.00030713715 0 1 0 0
0.11035312 0.0254 -0.000271786 0 1 0 0
0.14516085 0.0254 -0.00033412781 0 1 0 0
-0.03127398 0.0254 -0.00014607632 0 1 0 0
-0.029299302 0.0254 -1.5687896e-05 0 1 0 0
-0.025398228 0.0254 -7.5519085e-05 0 1 0 0
0.013045788 0.0254 -0.00019962713 0 1 0 0
0.11477854 0.025399998 -0.00013049413 0 1 0 0
0.1353391 0.0254 -0.000150559 0 1 0 0
0.022842538 0.025399998 9.9551864e-05 0 1 0 0
0.17789243 0.0254 0.00013237447 0 1 0 0
0.18312848 0.0254 6.2695472e-06 0 1 0 0
0.058902927 0.025399998 0.00031100493 0 1 0 0
0.11653437 0.0254 0.00028782897 0 1 0 0
-0.039741658 0.025399998 0.00073971739 0 1 0 0
-0.020119812 0.0254 0.00067726523 0 1 0 0
0.060530566 0.025399998 0.00057113636 0 1 0 0
0.14280266 0.025400002 0.00069956668 0 1 0 0
-0.046903517 0.0254 0.00090831798 0 1 0 0
0.04352276 0.025400002 0.00099272002 0 1 0 0
-0.0077672973 0.025399998 0.0011821715 0 1 0 0
-0.001030718 0.0254 0.0010013264 0 1 0 0
0.098065071 0.025400002 0.0010505337 0 1 0 0
0.11672249 0.0254 0.0011639819 0 1 0 0
0.141021 0.0254 0.0011903779 0 1 0 0
0.16745144 0.0254 0.0012330521 0 1 0 0
0.020305555 0.025400002 0.0013754973 0 1 0 0
0.048478879 0.0254 0.0013514794 0 1 0 0
0.09723556 0.025399998 0.0013127355 0 1 0 0
-0.074868798 0.0254 0.0017099241 0 1 0 0
0.057101302 0.0254 0.0016292827 0 1 0 0
0.082908832 0.025400002 0.0017089797 0 1 0 0
0.09579128 0.025399998 0.001717641 0 1 0 0
0.099189214 0.0254 0.0015359707 0 1 0 0
0.14626686 0.0254 0.0017235512 0 1 0 0
0.011810075 0.0254 0.0019278992 0 1 0 0
0.041663788 0.025399998 0.00191586 0 1 0 0
0.047225121 0.025400002 0.0018766867 0 1 0 0
0.15303491 0.0254 0.0017535284 0 1 0 0
-0.035614278 0.0254 0.0022223797 0 1 0 0
0.0071757692 0.0254 0.0022161864 0 1 0 0
0.010196397 0.025400002 0.0021353811 0 1 0 0
-0.045241982 0.0254 0.0022841161 0 1 0 0
-0.03680151 0.025400002 0.0022930629 0 1 0 0
-0.011666584 0.0254 0.0022706427 0 1 0 0
-0.0065664547 0.0254 0.0024586804 0 1 0 0
-0.0041196104 0.025399998 0.002353969 0 1 0 0
0.023704993 0.025399998 0.0022936342 0 1 0 0
0.11916756 0.0254 0.0022751996 0 1 0 0
0.12623316 0.025400002 0.0022567632 0 1 0 0
-0.037246596 0.0254 0.002532158 0 1 0 0
0.018532084 0.025399998 0.0026633041 0 1 0 0
0.049705435 0.0254 0.0026615448 0 1 0 0
0.07201615 0.0254 0.0025880318 0 1 0 0
0.10216413 0.0254 0.0027025715 0 1 0 0
0.17406894 0.025400002 0.0026042573 0 1 0 0
0.18152547 0.025400002 0.0027341084 0 1 0 0
-0.0055259336 0.0254 0.0029669013 0 1 0 0
0.061734043 0.0254 0.0029479824 0 1 0 0
0.10056491 0.025400002 0.0028725369 0 1 0 0
0.11125801 0.0254 0.0027938895 0 1 0 0
0.11205093 0.025400002 0.0029575303 0 1 0 0
0.1203577 0.0254 0.0028188075 0 1 0 0
0.18122865 0.025399998 0.0029201582 0 1 0 0
-0.06767258 0.0254 0.0032048738 0 1 0 0
-0.060539473 0.0254 0.0030191566 0 1 0 0
0.0011825245 0.0254 0.0032275915 0 1 0 0
0.040397029 0.025399998 0.0031969892 0 1 0 0
0.06912028 0.0254 0.0030334964 0 1 0 0
0.15349099 0.0254 0.0031381212 0 1 0 0
-0.07024873 0.025399998 0.0034166379 0 1 0 0
-0.061225001 0.0254 0.0033955562 0 1 0 0
-0.028547559 0.025400002 0.0034174914 0 1 0 0
0.026567593 0.0254 0.0033464078 0 1 0 0
0.029011279 0.0254 0.0033463016 0 1 0 0
0.065187432 0.0254 0.0033334456 0 1 0 0
0.071063727 0.0254 0.003329657 0 1 0 0
0.072581835 0.0254 0.0034903754 0 1 0 0
0.080585964 0.025399998 0.0033919206 0 1 0 0
0.13132738 0.0254 0.0034460076 0 1 0 0
0.14508566 0.0254 0.0033139212 0 1 0 0
0.012292452 0.025399998 0.0037421724 0 1 0 0
0.019039406 0.0254 0.0036077313 0 1 0 0
0.062553823 0.025400002 0.0037210723 0 1 0 0
0.066076986 0.0254 0.0037278105 0 1 0 0
-0.011905418 0.025399998 0.0038958387 0 1 0 0
0.001829844 0.025399998 0.003896269 0 1 0 0
0.0030028084 0.0254 0.0038147867 0 1 0 0
0.068020426 0.0254 0.0039549675 0 1 0 0
0.089243352 0.0254 0.0037844349 0 1 0 0
0.12298998 0.0254 0.0038273302 0 1 0 0
0.15480199 0.0254 0.00387329 0 1 0 0
-0.038212605 0.0254 0.0041645654 0 1 0 0
-0.0069482895 0.025400002 0.0041055148 0 1 0 0
0.08860784 0.025399998 0.0040568756 0 1 0 0
0.1048346 0.0254 0.00406464 0 1 0 0
-0.063543126 0.025400002 0.0044386894 0 1 0 0
-0.036334574 0.0254 0.0044404869 0 1 0 0
-0.026908053 0.0254 0.0042832759 0 1 0 0
-0.01102157 0.025399998 0.0044716084 0 1 0 0
0.084042542 0.025399998 0.0043545654 0 1 0 0
0.096786819 0.0254 0.0043628328 0 1 0 0
0.16112806 0.025400002 0.0043274909 0 1 0 0
0.0018160529 0.0254 0.0046617519 0 1 0 0
0.047647789 0.025399998 0.0046996837 0 1 0 0
0.065073609 0.0254 0.0047073737 0 1 0 0
0.14468774 0.0254 0.0047305021 0 1 0 0
0.15242918 0.0254 0.00462536 0 1 0 0
0.15932335 0.0254 0.0046523907 0 1 0 0
0.1643765 0.025399998 0.0046123802 0 1 0 0
-0.071275569 0.0254 0.004802255 0 1 0 0
-0.035402272 0.025399998 0.0047799819 0 1 0 0
-0.02636699 0.0254 0.0049330569 0 1 0 0
-0.021778958 0.025399998 0.0047833924 0 1 0 0
-0.020187795 0.0254 0.0047922772 0 1 0 0
-0.017191205 0.0254 0.0047910181 0 1 0 0
0.11824803 0.0254 0.0049112951 0 1 0 0
0.1841002 0.025399998 0.0049308673 0 1 0 0
-0.011595075 0.0254 0.0051696002 0 1 0 0
0.013873967 0.0254 0.0051148534 0 1 0 0
0.016800635 0.025399998 0.0051035294 0 1 0 0
0.026052121 0.0254 0.0051726196 0 1 0 0
-0.066795319 0.0254 0.0054804157 0 1 0 0
-0.058247544 0.025399998 0.0052516777 0 1 0 0
0.014527958 0.025399998 0.0053720744 0 1 0 0
0.026584689 0.0254 0.0054284818 0 1 0 0
0.037773021 0.025399998 0.0053102141 0 1 0 0
0.090696737 0.0254 0.0052964389 0 1 0 0
0.1335889 0.0254 0.0053120013 0 1 0 0
0.13423389 0.025399998 0.0054302849 0 1 0 0
0.16069277 0.0254 0.0053875782 0 1 0 0
0.17064893 0.025399998 0.0054469998 0 1 0 0
-0.074079916 0.025400002 0.0055469424 0 1 0 0
0.17566851 0.0254 0.0056400211 0 1 0 0
-0.069982663 0.0254 0.0057963883 0 1 0 0
-0.0062369108 0.025400002 0.0058416547 0 1 0 0
0.0073846327 0.025399998 0.0058994405 0 1 0 0
-0.035075545 0.0254 0.0061606853 0 1 0 0
-0.0062756874 0.0254 0.0060412157 0 1 0 0
0.0045011016 0.0254 0.006030729 0 1 0 0
0.052769884 0.025399998 0.0060028313 0 1 0 0
0.063448288 0.025400002 0.0061874921 0 1 0 0
0.14103194 0.0254 0.0060202591 0 1 0 0
0.14866516 0.0254 0.0061947964 0 1 0 0
-0.035750527 0.025399998 0.0063044168 0 1 0 0
-0.02712775 0.0254 0.0062662526 0 1 0 0
-0.022545801 0.0254 0.0062938747 0 1 0 0
-0.02148544 0.0254 0.0064570857 0 1 0 0
-0.011546323 0.025400002 0.0063201981 0 1 0 0
0.030493736 0.0254 0.0063869562 0 1 0 0
0.068419039 0.025400002 0.0063535878 0 1 0 0
0.070296168 0.025400002 0.006395624 0 1 0 0
0.14633878 0.025399998 0.0063539287 0 1 0 0
-0.054864358 0.0254 0.0065242187 0 1 0 0
0.023525199 0.0254 0.0065175463 0 1 0 0
0.098307624 0.0254 0.006585442 0 1 0 0
0.11312853 0.0254 0.0066453712 0 1 0 0
0.14535208 0.025400002 0.0066899536 0 1 0 0
0.17029463 0.025399998 0.0065791253 0 1 0 0
-0.015535103 0.0254 0.0069582872 0 1 0 0
-0.0052674394 0.025400002 0.0067993822 0 1 0 0
-0.0051732827 0.0254 0.0068510342 0 1 0 0
-0.0048826318 0.0254 0.0068821628 0 1 0 0
0.0086034937 0.0254 0.0069221575 0 1 0 0
0.050201982 0.025399998 0.0071944958 0 1 0 0
0.0084574446 0.025400002 0.007405404 0 1 0 0
0.032579109 0.025400002 0.0074736895 0 1 0 0
0.10244197 0.0254 0.007474605 0 1 0 0
0.1099275 0.025399998 0.0074854121 0 1 0 0
-0.037889343 0.0254 0.0075949472 0 1 0 0
-0.013122617 0.025399998 0.0075467415 0 1 0 0
0.027507838 0.025399998 0.007747761 0 1 0 0
0.082523808 0.025399998 0.0076557966 0 1 0 0
-0.046808708 0.025399998 0.0077994186 0 1 0 0
0.0014988128 0.025400002 0.0078348229 0 1 0 0
0.042397887 0.0254 0.007787643 0 1 0 0
0.10605244 0.025399998 0.0077577862 0 1 0 0
0.16045468 0.0254 0.0079750884 0 1 0 0
0.16509677 0.025399998 0.0079365466 0 1 0 0
0.16994694 0.0254 0.0079414165 0 1 0 0
-0.073670462 0.025400002 0.0081313811 0 1 0 0
0.049158804 0.025400002 0.0082316743 0 1 0 0
0.084943734 0.025400002 0.0081495363 0 1 0 0
-0.067405142 0.0254 0.0083310883 0 1 0 0
0.078431524 0.0254 0.0082893986 0 1 0 0
0.15758361 0.0254 0.0084244478 0 1 0 0
0.16149618 0.025400002 0.0082790432 0 1 0 0
0.16157468 0.0254 0.008384482 0 1 0 0
0.013833171 0.0254 0.0086064208 0 1 0 0
0.083904266 0.0254 0.0086332196 0 1 0 0
0.12113541 0.0254 0.0086789289 0 1 0 0
0.14982149 0.0254 0.0086616026 0 1 0 0
0.058909118 0.0254 0.0087650064 0 1 0 0
0.06461899 0.025399998 0.0089551955 0 1 0 0
0.10559281 0.025400002 0.0089664645 0 1 0 0
0.14257798 0.0254 0.0088735884 0 1 0 0
0.18122627 0.0254 0.0088527072 0 1 0 0
0.0045489054 0.025400002 0.0092327939 0 1 0 0
0.075244382 0.025399998 0.0090151196 0 1 0 0
0.084662199 0.0254 0.0092420038 0 1 0 0
0.12449696 0.0254 0.0090519562 0 1 0 0
0.12740168 0.025399998 0.0091501288 0 1 0 0
0.025947303 0.0254 0.0094544608 0 1 0 0
0.050593469 0.025400002 0.0093611898 0 1 0 0
0.057271719 0.0254 0.0093772206 0 1 0 0
0.13579385 0.0254 0.0093999375 0 1 0 0
-0.074220784 0.0254 0.0097390916 0 1 0 0
-0.045229975 0.025399998 0.0095765702 0 1 0 0
-0.033730187 0.0254 0.0095457742 0 1 0 0
-0.01799701 0.0254 0.0096290354 0 1 0 0
0.018127054 0.025399998 0.0096661253 0 1 0 0
0.02198185 0.0254 0.0097149629 0 1 0 0
0.031431582 0.025399998 0.0095753968 0 1 0 0
0.078615882 0.025399998 0.009586744 0 1 0 0
0.082040168 0.025400002 0.0096177403 0 1 0 0
0.10304996 0.0254 0.0097421659 0 1 0 0
0.10825085 0.0254 0.0095087141 0 1 0 0
0.11299302 0.0254 0.009658386 0 1 0 0
0.11708678 0.0254 0.0096520977 0 1 0 0
0.12171104 0.0254 0.0097373975 0 1 0 0
0.12599957 0.025400002 0.0096445214 0 1 0 0
-0.067225032 0.0254 0.0098663261 0 1 0 0
-0.02106821 0.0254 0.0099709937 0 1 0 0
0.039383516 0.0254 0.009943435 0 1 0 0
0.058829214 0.0254 0.0098404121 0 1 0 0
0.084518872 0.025399998 0.0099502485 0 1 0 0
0.15734312 0.025399998 0.0098424647 0 1 0 0
0.17600891 0.025399998 0.0099336524 0 1 0 0
-0.027357301 0.0254 0.010227049 0 1 0 0
-0.025928885 0.0254 0.010105364 0 1 0 0
0.018901508 0.025399998 0.010168913 0 1 0 0
0.02654697 0.0254 0.010237401 0 1 0 0
0.049515456 0.0254 0.010185836 0 1 0 0
0.071882069 0.025399998 0.010041698 0 1 0 0
0.12299872 0.0254 0.01005387 0 1 0 0
0.13219865 0.025400002 0.01004035 0 1 0 0
0.16645169 0.025399998 0.010056959 0 1 0 0
-0.033673443 0.025400002 0.010320942 0 1 0 0
-0.011538927 0.025399998 0.010265699 0 1 0 0
0.061335914 0.0254 0.010402909 0 1 0 0
0.10236466 0.025399998 0.01028578 0 1 0 0
-0.013311323 0.025399998 0.010625599 0 1 0 0
0.0017810762 0.0254 0.010696327 0 1 0 0
0.015966263 0.025400002 0.010618083 0 1 0 0
0.022626584 0.025399998 0.010515328 0 1 0 0
0.078756124 0.025400002 0.010694796 0 1 0 0
0.10429092 0.025400002 0.010553868 0 1 0 0
0.16907731 0.0254 0.010629958 0 1 0 0
0.180299 0.025400002 0.010592014 0 1 0 0
-0.024524683 0.025400002 0.010787437 0 1 0 0
-0.0023217108 0.025399998 0.010802823 0 1 0 0
-3.1210482e-05 0.0254 0.010884905 0 1 0 0
0.055414699 0.0254 0.0108373 0 1 0 0
0.11895748 0.0254 0.010847101 0 1 0 0
0.1737137 0.025399998 0.010812267 0 1 0 0
-0.057068814 0.025400002 0.011003662 0 1 0 0
0.030922689 0.0254 0.011170695 0 1 0 0
0.063026689 0.025400002 0.011016726 0 1 0 0
0.14115478 0.0254 0.011220286 0 1 0 0
-0.040769283 0.0254 0.011404473 0 1 0 0
-0.0096214404 0.025399998 0.011499924 0 1 0 0
-0.0080742966 0.025399998 0.011333674 0 1 0 0
0.16040622 0.0254 0.011385607 0 1 0 0
0.17611133 0.025400002 0.011259067 0 1 0 0
-0.046279304 0.0254 0.011679289 0 1 0 0
-0.014619355 0.025399998 0.011638928 0 1 0 0
0.13493457 0.025399998 0.011523878 0 1 0 0
0.14297524 0.025399998 0.011615872 0 1 0 0
0.15193264 0.025399998 0.01161146 0 1 0 0
-0.015036762 0.0254 0.011862253 0 1 0 0
0.018946225 0.0254 0.011959279 0 1 0 0
0.066390909 0.0254 0.011908146 0 1 0 0
0.086949624 0.025400002 0.011813219 0 1 0 0
0.087335899 0.0254 0.011897688 0 1 0 0
0.14255537 0.0254 0.011907082 0 1 0 0
0.15207787 0.025399998 0.011849178 0 1 0 0
-0.03542757 0.025400002 0.012188105 0 1 0 0
0.00056320056 0.025399998 0.012186411 0 1 0 0
0.025196785 0.0254 0.012219382 0 1 0 0
0.084553272 0.025400002 0.012049345 0 1 0 0
0.16285308 0.0254 0.012025246 0 1 0 0
-0.062696762 0.0254 0.012451118 0 1 0 0
-0.061188053 0.0254 0.01244658 0 1 0 0
-0.052281544 0.025400002 0.012432465 0 1 0 0
-0.022216929 0.0254 0.012479766 0 1 0 0
0.033115096 0.0254 0.01245079 0 1 0 0
0.038453691 0.0254 0.012419565 0 1 0 0
0.18355206 0.0254 0.01243636 0 1 0 0
-0.059269819 0.0254 0.012607184 0 1 0 0
-0.0081694331 0.0254 0.012653637 0 1 0 0
0.063927397 0.0254 0.012727691 0 1 0 0
0.074141845 0.0254 0.01254151 0 1 0 0
0.10869507 0.025400002 0.012599095 0 1 0 0
0.13152245 0.025400002 0.012666171 0 1 0 0
0.15706345 0.025399998 0.012601305 0 1 0 0
-0.050917517 0.025400002 0.0127944 0 1 0 0
0.045141444 0.0254 0.012879198 0 1 0 0
0.04912689 0.0254 0.012766385 0 1 0 0
0.14507473 0.0254 0.01288327 0 1 0 0
0.17640302 0.025399998 0.012953226 0 1 0 0
-0.067528799 0.0254 0.013197592 0 1 0 0
-0.0026973411 0.0254 0.013200658 0 1 0 0
0.026705671 0.0254 0.013240142 0 1 0 0
0.163179 0.0254 0.013193132 0 1 0 0
-0.04670234 0.0254 0.013423056 0 1 0 0
0.020629097 0.0254 0.013272727 0 1 0 0
0.02400293 0.0254 0.013498204 0 1 0 0
0.04322844 0.025400002 0.013403264 0 1 0 0
0.078095235 0.025400002 0.013356264 0 1 0 0
0.16693789 0.025399998 0.013497927 0 1 0 0
-0.053836994 0.025399998 0.013740598 0 1 0 0
-0.036972195 0.0254 0.013657199 0 1 0 0
-0.025737476 0.025400002 0.013572651 0 1 0 0
-0.017411467 0.025400002 0.013620635 0 1 0 0
0.029423364 0.0254 0.013600318 0 1 0 0
0.042159326 0.0254 0.013547426 0 1 0 0
0.088568948 0.025400002 0.013680538 0 1 0 0
0.12564851 0.0254 0.013633347 0 1 0 0
0.13166043 0.025399998 0.01365535 0 1 0 0
0.15731558 0.025399998 0.013744153 0 1 0 0
-0.0094544254 0.025400002 0.013897576 0 1 0 0
0.023114624 0.025399998 0.013776685 0 1 0 0
0.061490808 0.0254 0.013939273 0 1 0 0
0.078151658 0.0254 0.013885299 0 1 0 0
0.10797996 0.0254 0.013838985 0 1 0 0
-0.05901755 0.025399998 0.014081128 0 1 0 0
-0.047216784 0.0254 0.014123185 0 1 0 0
-0.031293631 0.0254 0.014027576 0 1 0 0
0.052545141 0.0254 0.014136372 0 1 0 0
0.12957941 0.025399998 0.01407854 0 1 0 0
0.16433419 0.025400002 0.014234814 0 1 0 0
0.17857718 0.025400002 0.01423836 0 1 0 0
0.017105734 0.025399998 0.014328535 0 1 0 0
0.12302615 0.0254 0.01445753 0 1 0 0
0.13149497 0.025400002 0.014270891 0 1 0 0
0.17476965 0.0254 0.014426812 0 1 0 0
-0.075443 0.0254 0.014605142 0 1 0 0
-0.067962483 0.025399998 0.014606214 0 1 0 0
-0.062192053 0.0254 0.014718764 0 1 0 0
-0.0518962 0.0254 0.014702194 0 1 0 0
-0.0097881109 0.025399998 0.014669022 0 1 0 0
-0.00072040607 0.0254 0.01455413 0 1 0 0
0.031735174 0.025400002 0.014511512 0 1 0 0
0.088544637 0.025400002 0.014536987 0 1 0 0
-0.068965934 0.0254 0.014841409 0 1 0 0
-0.037001502 0.0254 0.014849282 0 1 0 0
-0.0078373812 0.025400002 0.014986837 0 1 0 0
-0.00032831519 0.0254 0.014940036 0 1 0 0
0.051848628 0.025400002 0.014871433 0 1 0 0
0.056825392 0.025400002 0.014875461 0 1 0 0
0.15244223 0.0254 0.014971182 0 1 0 0
-0.0089290924 0.025400002 0.015249737 0 1 0 0
0.0027899961 0.0254 0.015167597 0 1 0 0
0.014020588 0.0254 0.015029108 0 1 0 0
0.031110838 0.0254 0.015209531 0 1 0 0
0.035703409 0.0254 0.01513082 0 1 0 0
0.17330265 0.0254 0.015175678 0 1 0 0
-0.035753746 0.0254 0.015467177 0 1 0 0
0.042832226 0.0254 0.015464803 0 1 0 0
-0.075338446 0.025400002 0.015561424 0 1 0 0
-0.048754238 0.0254 0.015727134 0 1 0 0
0.018134344 0.025400002 0.015662685 0 1 0 0
0.049815021 0.025400002 0.015672036 0 1 0 0
0.072626084 0.025399998 0.015736587 0 1 0 0
-0.061372235 0.025399998 0.015998632 0 1 0 0
-0.053830065 0.0254 0.015940834 0 1 0 0
-0.049297273 0.025399998 0.015900321 0 1 0 0
0.068931617 0.025399998 0.015827615 0 1 0 0
0.10983814 0.025400002 0.015771186 0 1 0 0
0.13490364 0.025399998 0.015834212 0 1 0 0
0.17485601 0.0254 0.015774768 0 1 0 0
0.17697485 0.025400002 0.015817977 0 1 0 0
-0.065416425 0.025399998 0.016035305 0 1 0 0
0.075778931 0.0254 0.016062962 0 1 0 0
0.083000943 0.0254 0.01616214 0 1 0 0
0.17463183 0.0254 0.016008236 0 1 0 0
0.056502093 0.025400002 0.016272683 0 1 0 0
0.11065029 0.0254 0.016407333 0 1 0 0
0.011139733 0.025400002 0.016747486 0 1 0 0
0.015734203 0.0254 0.016728254 0 1 0 0
0.018865544 0.0254 0.016678331 0 1 0 0
0.028250465 0.025400002 0.016594302 0 1 0 0
0.10166088 0.0254 0.016561897 0 1 0 0
-0.04541558 0.0254 0.016751217 0 1 0 0
0.080960028 0.025399998 0.016799442 0 1 0 0
0.10751646 0.025399998 0.016815742 0 1 0 0
0.15142784 0.0254 0.016931385 0 1 0 0
-0.07394845 0.0254 0.017071113 0 1 0 0
0.044471055 0.025400002 0.017192073 0 1 0 0
0.094672501 0.025400002 0.01722075 0 1 0 0
0.15640862 0.025400002 0.017219372 0 1 0 0
-0.072460376 0.025400002 0.017261259 0 1 0 0
-0.047001928 0.0254 0.017428566 0 1 0 0
0.0029993316 0.0254 0.017347218 0 1 0 0
0.10295313 0.0254 0.017386816 0 1 0 0
0.13537003 0.025400002 0.01727508 0 1 0 0
-0.042051494 0.025399998 0.017736113 0 1 0 0
0.078393921 0.025399998 0.017576827 0 1 0 0
0.12021222 0.025399998 0.017706931 0 1 0 0
0.021571625 0.0254 0.017764194 0 1 0 0
0.048020616 0.0254 0.017822241 0 1 0 0
0.10638868 0.0254 0.018100057 0 1 0 0
0.15334402 0.0254 0.018035796 0 1 0 0
-0.070787884 0.0254 0.018487435 0 1 0 0
0.014012977 0.0254 0.018279927 0 1 0 0
0.055443268 0.0254 0.018363142 0 1 0 0
0.056879181 0.0254 0.018367009 0 1 0 0
0.15294093 0.0254 0.018332226 0 1 0 0
0.15767202 0.025399998 0.018499667 0 1 0 0
0.16496764 0.0254 0.018334351 0 1 0 0
0.17901464 0.0254 0.018413922 0 1 0 0
-0.038388185 0.025400002 0.018744487 0 1 0 0
-0.031823412 0.0254 0.018606193 0 1 0 0
0.0069895275 0.0254 0.018517766 0 1 0 0
0.023992095 0.0254 0.018584905 0 1 0 0
0.037630413 0.0254 0.018604221 0 1 0 0
0.11272706 0.0254 0.018569637 0 1 0 0
0.14374048 0.0254 0.018690059 0 1 0 0
-0.043452553 0.025400002 0.018958895 0 1 0 0
-0.0120769 0.025400002 0.018764177 0 1 0 0
0.060181841 0.0254 0.018846033 0 1 0 0
0.14932223 0.025400002 0.018856306 0 1 0 0
0.1698655 0.0254 0.018843237 0 1 0 0
-0.068056382 0.025400002 0.019019557 0 1 0 0
0.06518589 0.0254 0.019205811 0 1 0 0
0.078600012 0.025400002 0.019212721 0 1 0 0
0.088310339 0.0254 0.019172538 0 1 0 0
0.091260567 0.025399998 0.019017207 0 1 0 0
0.11149082 0.0254 0.019050375 0 1 0 0
0.15609786 0.0254 0.019006226 0 1 0 0
0.18048184 0.0254 0.019180324 0 1 0 0
0.1810247 0.025399998 0.019124407 0 1 0 0
-0.056348976 0.025399998 0.019488653 0 1 0 0
-0.048749708 0.0254 0.019362707 0 1 0 0
-0.041451257 0.0254 0.01942878 0 1 0 0
-0.025880564 0.0254 0.019411784 0 1 0 0
-0.018470524 0.025399998 0.01938756 0 1 0 0
0.095810346 0.025399998 0.019417062 0 1 0 0
0.14312084 0.025400002 0.019293139 0 1 0 0
0.16345933 0.0254 0.019342266 0 1 0 0
0.1712684 0.0254 0.019462895 0 1 0 0
-0.066709511 0.0254 0.019539619 0 1 0 0
-0.042440079 0.025400002 0.019628759 0 1 0 0
-0.0021883179 0.0254 0.019582029 0 1 0 0
0.028197516 0.025400002 0.019570831 0 1 0 0
0.092566587 0.0254 0.019669224 0 1 0 0
-0.046282351 0.0254 0.019806888 0 1 0 0
0.063946404 0.0254 0.01979983 0 1 0 0
0.070681699 0.025400002 0.019832077 0 1 0 0
0.095565066 0.025399998 0.01998855 0 1 0 0
-0.011967849 0.025400002 0.020132164 0 1 0 0
0.050725594 0.0254 0.02011193 0 1 0 0
0.059288383 0.0254 0.020245356 0 1 0 0
0.13341781 0.025400002 0.020219509 0 1 0 0
0.1572445 0.025400002 0.02011133 0 1 0 0
0.17175271 0.0254 0.020098863 0 1 0 0
-0.022772666 0.0254 0.020457234 0 1 0 0
0.052177757 0.0254 0.020340869 0 1 0 0
0.10172364 0.025400002 0.020405514 0 1 0 0
0.15813203 0.0254 0.020254536 0 1 0 0
0.17983979 0.025400002 0.020384768 0 1 0 0
-0.065930404 0.025400002 0.020603066 0 1 0 0
0.0056565758 0.025400002 0.020654192 0 1 0 0
0.0062171812 0.025400002 0.020730056 0 1 0 0
0.042401772 0.0254 0.020701531 0 1 0 0
0.17788033 0.0254 0.020696085 0 1 0 0
-0.040516175 0.0254 0.020939181 0 1 0 0
-0.033536114 0.0254 0.020913536 0 1 0 0
0.041851252 0.0254 0.020829869 0 1 0 0
0.12354665 0.0254 0.020930061 0 1 0 0
0.12406776 0.0254 0.020969011 0 1 0 0
-0.049462538 0.025400002 0.021088686 0 1 0 0
-0.0036719469 0.0254 0.021235455 0 1 0 0
-0.00086987391 0.025399998 0.021062639 0 1 0 0
-0.033257395 0.0254 0.021382632 0 1 0 0
0.0066844742 0.0254 0.021379277 0 1 0 0
0.032178275 0.025399998 0.021494564 0 1 0 0
0.058963068 0.025400002 0.021400096 0 1 0 0
0.1062118 0.0254 0.021273565 0 1 0 0
0.12596613 0.0254 0.0213685 0 1 0 0
-0.054912642 0.0254 0.021572795 0 1 0 0
0.073549256 0.0254 0.021507913 0 1 0 0
0.091593519 0.025400002 0.021729194 0 1 0 0
0.11345688 0.0254 0.021526817 0 1 0 0
0.12276873 0.0254 0.021621961 0 1 0 0
-0.058144655 0.025400002 0.021880455 0 1 0 0
-0.053758107 0.0254 0.021752307 0 1 0 0
-0.050979108 0.0254 0.021935785 0 1 0 0
0.075945482 0.025399998 0.021754654 0 1 0 0
0.13664924 0.0254 0.021864325 0 1 0 0
-0.063829094 0.0254 0.022125835 0 1 0 0
-0.058360476 0.025399998 0.022096217 0 1 0 0
-0.050705068 0.0254 0.022153115 0 1 0 0
0.014317709 0.025399998 0.022017358 0 1 0 0
0.062714249 0.0254 0.022178436 0 1 0 0
0.082580283 0.025400002 0.022122182 0 1 0 0
0.11142991 0.0254 0.022243243 0 1 0 0
0.14523226 0.025400002 0.022160493 0 1 0 0
0.15865999 0.0254 0.022180818 0 1 0 0
0.16845177 0.025399998 0.022158638 0 1 0 0
-0.051692408 0.0254 0.022378564 0 1 0 0
-0.051453561 0.025399998 0.02225573 0 1 0 0
-0.0341869 0.025400002 0.02243839 0 1 0 0
0.081930429 0.0254 0.022374652 0 1 0 0
0.15068093 0.0254 0.022447865 0 1 0 0
-0.073989041 0.0254 0.022607347 0 1 0 0
-0.011912744 0.025399998 0.022673793 0 1 0 0
0.066254221 0.025399998 0.022664538 0 1 0 0
0.11056031 0.0254 0.022536814 0 1 0 0
0.15080944 0.025399998 0.022584355 0 1 0 0
0.15610099 0.0254 0.022679769 0 1 0 0
0.17479779 0.0254 0.022506841 0 1 0 0
0.17815661 0.0254 0.022650711 0 1 0 0
0.1171246 0.0254 0.022936881 0 1 0 0
0.12648115 0.0254 0.02299701 0 1 0 0
0.14097647 0.0254 0.02299366 0 1 0 0
-0.055520695 0.025400002 0.023053925 0 1 0 0
-0.042190924 0.0254 0.023206243 0 1 0 0
-0.038508162 0.025400002 0.023180988 0 1 0 0
-0.011064174 0.025400002 0.023116896 0 1 0 0
0.0014729472 0.025400002 0.023099435 0 1 0 0
0.046643294 0.025399998 0.023048861 0 1 0 0
0.12249737 0.0254 0.023035765 0 1 0 0
0.12644005 0.0254 0.023083687 0 1 0 0
0.15789354 0.025400002 0.023203682 0 1 0 0
-0.075376444 0.0254 0.023416849 0 1 0 0
-0.052656837 0.0254 0.023387775 0 1 0 0
-0.044357613 0.0254 0.023292869 0 1 0 0
0.061604157 0.0254 0.023326784 0 1 0 0
0.097228296 0.0254 0.023333767 0 1 0 0
0.12645486 0.0254 0.023378849 0 1 0 0
0.12885819 0.0254 0.023316042 0 1 0 0
0.1662748 0.025400002 0.023295177 0 1 0 0
0.18189557 0.0254 0.023321906 0 1 0 0
0.0068138335 0.0254 0.023643158 0 1 0 0
0.0079768542 0.0254 0.023535218 0 1 0 0
0.019397905 0.0254 0.023746017 0 1 0 0
0.028723195 0.0254 0.023501052 0 1 0 0
0.03286162 0.0254 0.023573576 0 1 0 0
0.052780315 0.0254 0.023650853 0 1 0 0
0.16670635 0.0254 0.023748817 0 1 0 0
-0.048627891 0.0254 0.023897167 0 1 0 0
-0.030701542 0.0254 0.023999149 0 1 0 0
-0.021248605 0.0254 0.023821596 0 1 0 0
-0.010062151 0.025400002 0.023911672 0 1 0 0
0.050364561 0.025400002 0.023904666 0 1 0 0
0.15129484 0.0254 0.023973022 0 1 0 0
0.0031176526 0.025399998 0.024016254 0 1 0 0
0.093567342 0.0254 0.024128739 0 1 0 0
0.11061405 0.0254 0.02423791 0 1 0 0
0.11605401 0.025399998 0.024015047 0 1 0 0
-0.075719841 0.0254 0.024421742 0 1 0 0
-0.041773416 0.025399998 0.024386793 0 1 0 0
-0.0085967388 0.025399998 0.024319194 0 1 0 0
-0.071578674 0.0254 0.024714878 0 1 0 0
-0.06647104 0.025400002 0.024568692 0 1 0 0
-0.050105583 0.0254 0.024644759 0 1 0 0
-0.00063658319 0.025399998 0.024566207 0 1 0 0
0.052692559 0.0254 0.024641961 0 1 0 0
0.074016824 0.0254 0.024709847 0 1 0 0
0.12034763 0.0254 0.024593666 0 1 0 0
-0.073482186 0.0254 0.024789974 0 1 0 0
-0.044194367 0.0254 0.024940614 0 1 0 0
-0.017868293 0.0254 0.024898527 0 1 0 0
0.045876097 0.025399998 0.024816776 0 1 0 0
0.11747928 0.0254 0.024799459 0 1 0 0
-0.060209371 0.0254 0.025183789 0 1 0 0
-0.021822201 0.0254 0.025201529 0 1 0 0
-0.01661545 0.0254 0.025039431 0 1 0 0
0.082415894 0.025400002 0.025103211 0 1 0 0
0.088491768 0.025399998 0.025020957 0 1 0 0
0.15790275 0.0254 0.025076054 0 1 0 0
-0.068951175 -0.025285773 0.025400002 0 0 1 0
-0.032140739 -0.025359405 0.025400002 0 0 1 0
0.048597552 -0.025007637 0.0254 0 0 1 0
0.17018223 -0.025030753 0.0254 0 0 1 0
0.11153498 -0.024784664 0.0254 0 0 1 0
0.12308888 -0.024832649 0.025399998 0 0 1 0
0.14431295 -0.02479047 0.0254 0 0 1 0
-0.064765826 -0.024660558 0.025399998 0 0 1 0
0.043311413 -0.024622845 0.0254 0 0 1 0
0.1063947 -0.024688005 0.0254 0 0 1 0
0.13770516 -0.024640296 0.025399998 0 0 1 0
-0.04266607 -0.024357717 0.0254 0 0 1 0
-0.04145176 -0.024359439 0.025400002 0 0 1 0
0.033677164 -0.024490073 0.0254 0 0 1 0
0.12144807 -0.024382029 0.0254 0 0 1 0
0.14796437 -0.02448532 0.0254 0 0 1 0
0.15869482 -0.024277946 0.0254 0 0 1 0
0.048845269 -0.024060437 0.0254 0 0 1 0
0.066240527 -0.024227012 0.025400002 0 0 1 0
0.14036171 -0.024033546 0.025400002 0 0 1 0
0.16060087 -0.024144214 0.025399998 0 0 1 0
0.1833922 -0.0241365 0.0254 0 0 1 0
-0.061460108 -0.023838939 0.0254 0 0 1 0
-0.053801492 -0.023754859 0.0254 0 0 1 0
0.054476984 -0.023784041 0.0254 0 0 1 0
0.10806055 -0.02376413 0.0254 0 0 1 0
-0.052335821 -0.023727151 0.0254 0 0 1 0
-0.027163556 -0.023544183 0.025400002 0 0 1 0
0.075836197 -0.0236612 0.0254 0 0 1 0
0.10346802 -0.02354547 0.0254 0 0 1 0
0.17454565 -0.023529813 0.0254 0 0 1 0
-0.059073754 -0.023468783 0.0254 0 0 1 0
0.035858177 -0.023307702 0.0254 0 0 1 0
0.095703706 -0.02329761 0.0254 0 0 1 0
0.099837191 -0.023428243 0.0254 0 0 1 0
0.17477128 -0.023446778 0.0254 0 0 1 0
0.18234213 -0.02337431 0.0254 0 0 1 0
-0.046117913 -0.023189304 0.0254 0 0 1 0
0.058073767 -0.023130748 0.025399998 0 0 1 0
0.03697589 -0.022961818 0.0254 0 0 1 0
0.18409757 -0.022845615 0.0254 0 0 1 0
-0.038648859 -0.022720831 0.0254 0 0 1 0
0.051611073 -0.022598615 0.0254 0 0 1 0
0.14016834 -0.022524104 0.025399998 0 0 1 0
-0.03311481 -0.022284269 0.0254 0 0 1 0
0.10342883 -0.022492465 0.0254 0 0 1 0
0.10632468 -0.022281766 0.0254 0 0 1 0
0.10968927 -0.02241708 0.0254 0 0 1 0
0.12061857 -0.022472367 0.0254 0 0 1 0
0.14310509 -0.022476345 0.025400002 0 0 1 0
0.17297314 -0.022438915 0.0254 0 0 1 0
0.18258421 -0.022371046 0.025400002 0 0 1 0
-0.044577207 -0.022244215 0.025399998 0 0 1 0
0.026496369 -0.02214268 0.0254 0 0 1 0
0.055528693 -0.022144737 0.0254 0 0 1 0
0.074314132 -0.022061633 0.0254 0 0 1 0
0.093425386 -0.022181675 0.0254 0 0 1 0
0.095017381 -0.022069277 0.025399998 0 0 1 0
0.18256377 -0.022219159 0.025399998 0 0 1 0
-0.071182027 -0.021751268 0.0254 0 0 1 0
-0.054127607 -0.021845493 0.025400002 0 0 1 0
0.054614183 -0.021909408 0.0254 0 0 1 0
0.066496193 -0.021970892 0.0254 0 0 1 0
0.15616828 -0.021983773 0.0254 0 0 1 0
0.16784897 -0.021859149 0.0254 0 0 1 0
0.053028651 -0.021703094 0.025400002 0 0 1 0
-0.034182247 -0.021374945 0.0254 0 0 1 0
-0.033316575 -0.021297351 0.0254 0 0 1 0
0.09273684 -0.021447239 0.025399998 0 0 1 0
0.11657389 -0.021463957 0.0254 0 0 1 0
0.14885104 -0.021254446 0.0254 0 0 1 0
-0.063149422 -0.02105047 0.0254 0 0 1 0
-0.060441058 -0.021137819 0.0254 0 0 1 0
-0.046524443 -0.021213112 0.025399998 0 0 1 0
0.098805025 -0.021240067 0.025400002 0 0 1 0
0.10122178 -0.021112207 0.0254 0 0 1 0
0.11284845 -0.021219878 0.0254 0 0 1 0
0.14376414 -0.021065384 0.0254 0 0 1 0
0.14915253 -0.021172628 0.0254 0 0 1 0
0.15267706 -0.021147978 0.025399998 0 0 1 0
-0.037773002 -0.020760193 0.025399998 0 0 1 0
0.034864396 -0.020808166 0.0254 0 0 1 0
0.084980719 -0.020833882 0.025399998 0 0 1 0
0.12797435 -0.020915803 0.025399998 0 0 1 0
-0.07382974 -0.020653652 0.025400002 0 0 1 0
-0.070344798 -0.020745832 0.0254 0 0 1 0
-0.056913055 -0.020549426 0.0254 0 0 1 0
-0.028090883 -0.02065355 0.0254 0 0 1 0
0.15938818 -0.020704316 0.0254 0 0 1 0
0.16830103 -0.02069317 0.0254 0 0 1 0
0.17170593 -0.020702183 0.0254 0 0 1 0
-0.076145031 -0.020271372 0.0254 0 0 1 0
-0.068653487 -0.020308696 0.0254 0 0 1 0
0.028717866 -0.020306019 0.0254 0 0 1 0
0.046909165 -0.020457173 0.0254 0 0 1 0
0.10101679 -0.020440076 0.025400002 0 0 1 0
0.030906076 -0.020245101 0.0254 0 0 1 0
0.17210697 -0.020104276 0.0254 0 0 1 0
0.17864141 -0.020003367 0.025400002 0 0 1 0
0.1804143 -0.02001681 0.025400002 0 0 1 0
-0.04112925 -0.019812804 0.025399998 0 0 1 0
0.068240657 -0.019804876 0.0254 0 0 1 0
0.074803956 -0.019957731 0.025400002 0 0 1 0
0.11164853 -0.019986041 0.025399998 0 0 1 0
-0.054296605 -0.019668875 0.025400002 0 0 1 0
-0.04546085 -0.019684222 0.0254 0 0 1 0
0.048433241 -0.019557418 0.0254 0 0 1 0
0.067973129 -0.019614395 0.025399998 0 0 1 0
0.14570895 -0.019686293 0.025400002 0 0 1 0
0.090379685 -0.019496158 0.0254 0 0 1 0
0.11099473 -0.019434009 0.0254 0 0 1 0
0.11821181 -0.019359207 0.025400002 0 0 1 0
0.15128639 -0.019302007 0.025399998 0 0 1 0
-0.067672081 -0.019150661 0.0254 0 0 1 0
-0.061814152 -0.019118624 0.0254 0 0 1 0
-0.054918107 -0.019199723 0.0254 0 0 1 0
0.05762041 -0.019092705 0.0254 0 0 1 0
0.09395346 -0.019125849 0.0254 0 0 1 0
0.14538249 -0.019005748 0.025399998 0 0 1 0
0.062092431 -0.018774604 0.0254 0 0 1 0
0.082095593 -0.018869482 0.0254 0 0 1 0
0.11653997 -0.018922798 0.025399998 0 0 1 0
0.051018644 -0.018580619 0.0254 0 0 1 0
0.10465793 -0.018507008 0.0254 0 0 1 0
0.14571857 -0.01859973 0.0254 0 0 1 0
0.03661805 -0.018458873 0.0254 0 0 1 0
0.09079431 -0.018428544 0.0254 0 0 1 0
0.095705606 -0.018298045 0.0254 0 0 1 0
0.10157567 -0.018356226 0.0254 0 0 1 0
-0.049237117 -0.018115584 0.0254 0 0 1 0
-0.03180461 -0.018012071 0.0254 0 0 1 0
-0.031685222 -0.01824362 0.025399998 0 0 1 0
0.028720867 -0.018085051 0.0254 0 0 1 0
0.070637353 -0.018030621 0.0254 0 0 1 0
0.11945634 -0.018027991 0.0254 0 0 1 0
0.16149631 -0.018209334 0.0254 0 0 1 0
0.048607044 -0.017752776 0.0254 0 0 1 0
0.072678074 -0.017794678 0.0254 0 0 1 0
0.085536517 -0.017925035 0.0254 0 0 1 0
0.089211613 -0.017811071 0.0254 0 0 1 0
0.12864491 -0.01775844 0.0254 0 0 1 0
0.13659911 -0.017761212 0.0254 0 0 1 0
0.14381754 -0.017755153 0.025399998 0 0 1 0
-0.052588291 -0.017560899 0.0254 0 0 1 0
-0.051722769 -0.0175063 0.0254 0 0 1 0
-0.068911493 -0.01727351 0.0254 0 0 1 0
0.094763987 -0.017341141 0.0254 0 0 1 0
0.10638279 -0.017354796 0.025399998 0 0 1 0
0.12704405 -0.017284576 0.0254 0 0 1 0
-0.036829479 -0.017002877 0.0254 0 0 1 0
0.040786438 -0.017084587 0.0254 0 0 1 0
0.061857071 -0.017228959 0.0254 0 0 1 0
0.094303429 -0.017128034 0.0254 0 0 1 0
0.11547332 -0.016805472 0.0254 0 0 1 0
0.14260213 -0.01686772 0.025400002 0 0 1 0
-0.061775781 -0.016532343 0.0254 0 0 1 0
0.032373451 -0.016651381 0.025399998 0 0 1 0
0.059810858 -0.01664789 0.025399998 0 0 1 0
0.10361625 -0.01661774 0.025399998 0 0 1 0
-0.075711206 -0.016309893 0.0254 0 0 1 0
-0.074649245 -0.016339883 0.0254 0 0 1 0
-0.05912365 -0.016343471 0.025400002 0 0 1 0
0.11497324 -0.016376367 0.0254 0 0 1 0
0.12432958 -0.016387764 0.025400002 0 0 1 0
0.15410897 -0.016384682 0.025399998 0 0 1 0
-0.063144639 -0.016026549 0.0254 0 0 1 0
0.077280328 -0.016030682 0.0254 0 0 1 0
0.11933921 -0.016157527 0.025399998 0 0 1 0
0.16599071 -0.016034329 0.025399998 0 0 1 0
0.17013395 -0.016235681 0.0254 0 0 1 0
-0.033657528 -0.015835453 0.0254 0 0 1 0
-0.028261594 -0.015769878 0.025400002 0 0 1 0
0.094318524 -0.015897237 0.025400002 0 0 1 0
0.12108156 -0.015931737 0.025399998 0 0 1 0
0.15806238 -0.015866322 0.025400002 0 0 1 0
-0.064215355 -0.015585192 0.025400002 0 0 1 0
-0.043890707 -0.015608246 0.0254 0 0 1 0
0.079286695 -0.015689783 0.025399998 0 0 1 0
-0.031696562 -0.015437829 0.025399998 0 0 1 0
0.071360447 -0.015368768 0.025400002 0 0 1 0
-0.042133041 -0.015189333 0.0254 0 0 1 0
0.072061494 -0.015088214 0.025399998 0 0 1 0
0.045848895 -0.014789369 0.025399998 0 0 1 0
0.13448584 -0.014789275 0.0254 0 0 1 0
-0.073517814 -0.014697632 0.0254 0 0 1 0
-0.073290333 -0.01452738 0.025399998 0 0 1 0
0.070196919 -0.014574723 0.0254 0 0 1 0
0.071811534 -0.014517142 0.0254 0 0 1 0
0.12952742 -0.01456431 0.025400002 0 0 1 0
0.14097577 -0.014684193 0.025400002 0 0 1 0
0.16448066 -0.014636083 0.025399998 0 0 1 0
0.16556032 -0.014605264 0.0254 0 0 1 0
-0.072100729 -0.014408219 0.025400002 0 0 1 0
-0.064776815 -0.014338878 0.025400002 0 0 1 0
-0.033285126 -0.014405987 0.025399998 0 0 1 0
-0.029013917 -0.014254702 0.0254 0 0 1 0
0.14651957 -0.014401026 0.025400002 0 0 1 0
0.16721812 -0.014285494 0.0254 0 0 1 0
-0.030279962 -0.01418798 0.0254 0 0 1 0
0.066962712 -0.014111079 0.0254 0 0 1 0
0.15231512 -0.014141277 0.0254 0 0 1 0
0.18117732 -0.014087643 0.0254 0 0 1 0
-0.067005798 -0.013838006 0.0254 0 0 1 0
-0.031060182 -0.013833066 0.0254 0 0 1 0
0.092402458 -0.013768592 0.0254 0 0 1 0
0.15752098 -0.013839548 0.0254 0 0 1 0
0.16691566 -0.013898477 0.0254 0 0 1 0
0.17231585 -0.013924742 0.0254 0 0 1 0
0.18168184 -0.013792187 0.0254 0 0 1 0
0.052019138 -0.013526876 0.025400002 0 0 1 0
0.058900066 -0.01358111 0.0254 0 0 1 0
0.075540505 -0.013571168 0.025400002 0 0 1 0
0.091848157 -0.013747737 0.0254 0 0 1 0
0.10830702 -0.013584737 0.025400002 0 0 1 0
0.12581028 -0.013702799 0.0254 0 0 1 0
0.14748707 -0.013505874 0.025399998 0 0 1 0
-0.06620615 -0.01337553 0.0254 0 0 1 0
-0.03052658 -0.013372792 0.025400002 0 0 1 0
0.053977534 -0.013498878 0.0254 0 0 1 0
0.10133291 -0.01343957 0.025400002 0 0 1 0
-0.071766146 -0.013070141 0.0254 0 0 1 0
-0.064256988 -0.013213536 0.0254 0 0 1 0
-0.059636213 -0.013130924 0.0254 0 0 1 0
-0.046550598 -0.013149088 0.025399998 0 0 1 0
0.036630254 -0.013198897 0.025399998 0 0 1 0
0.076466262 -0.013244946 0.0254 0 0 1 0
0.088332258 -0.013126079 0.0254 0 0 1 0
0.12555373 -0.01322734 0.0254 0 0 1 0
0.13531494 -0.013164626 0.0254 0 0 1 0
0.14019081 -0.013011683 0.0254 0 0 1 0
0.15993088 -0.01321254 0.0254 0 0 1 0
-0.028884526 -0.012816805 0.025399998 0 0 1 0
0.088326186 -0.012918253 0.025400002 0 0 1 0
0.094077915 -0.012987155 0.0254 0 0 1 0
-0.070660278 -0.012678361 0.0254 0 0 1 0
-0.062706865 -0.012547578 0.0254 0 0 1 0
-0.051601216 -0.012561083 0.025399998 0 0 1 0
-0.029865462 -0.012582142 0.0254 0 0 1 0
0.036881089 -0.012519539 0.0254 0 0 1 0
0.06883835 -0.012661226 0.025399998 0 0 1 0
0.1056073 -0.012671033 0.0254 0 0 1 0
0.14930615 -0.012661919 0.025399998 0 0 1 0
0.15109794 -0.012610565 0.025399998 0 0 1 0
0.15917099 -0.012594554 0.0254 0 0 1 0
0.16500646 -0.012647708 0.0254 0 0 1 0
-0.067844488 -0.012354842 0.025400002 0 0 1 0
-0.065911673 -0.012302846 0.0254 0 0 1 0
0.10055028 -0.01242614 0.025399998 0 0 1 0
0.11916126 -0.012346919 0.0254 0 0 1 0
0.14713234 -0.012389474 0.0254 0 0 1 0
0.032471132 -0.012076591 0.0254 0 0 1 0
0.056304973 -0.012042046 0.0254 0 0 1 0
0.072884098 -0.01204199 0.0254 0 0 1 0
0.124631 -0.012144273 0.025399998 0 0 1 0
0.049955156 -0.011789097 0.025399998 0 0 1 0
0.050982617 -0.011993313 0.0254 0 0 1 0
0.081586793 -0.011877137 0.0254 0 0 1 0
0.09240067 -0.011918132 0.025399998 0 0 1 0
0.18261316 -0.011994372 0.0254 0 0 1 0
0.047346309 -0.011641175 0.0254 0 0 1 0
0.061949622 -0.01152673 0.0254 0 0 1 0
0.13520384 -0.011675805 0.0254 0 0 1 0
0.15870452 -0.011712725 0.025399998 0 0 1 0
0.1809914 -0.011528296 0.025399998 0 0 1 0
-0.064822264 -0.011323225 0.0254 0 0 1 0
-0.060455196 -0.011252103 0.0254 0 0 1 0
0.049155928 -0.011435282 0.0254 0 0 1 0
0.064692251 -0.011368297 0.0254 0 0 1 0
0.083773881 -0.011425198 0.025400002 0 0 1 0
-0.045334257 -0.011056211 0.0254 0 0 1 0
-0.035046495 -0.011135329 0.025399998 0 0 1 0
-0.029279891 -0.011041908 0.025399998 0 0 1 0
0.025900243 -0.011132207 0.025400002 0 0 1 0
0.088991195 -0.011022289 0.0254 0 0 1 0
0.093520537 -0.011165437 0.025399998 0 0 1 0
0.10612896 -0.011062882 0.025400002 0 0 1 0
0.11015349 -0.011113784 0.025399998 0 0 1 0
0.1595491 -0.011217605 0.025399998 0 0 1 0
0.0754572 -0.010840997 0.0254 0 0 1 0
0.086105041 -0.01092005 0.025399998 0 0 1 0
0.17720817 -0.010938376 0.025400002 0 0 1 0
0.1832049 -0.010784788 0.0254 0 0 1 0
-0.055905242 -0.010511681 0.0254 0 0 1 0
-0.030740269 -0.010608341 0.025399998 0 0 1 0
0.027486905 -0.010570575 0.0254 0 0 1 0
0.061035257 -0.010568372 0.025400002 0 0 1 0
0.14488247 -0.010572253 0.0254 0 0 1 0
0.16575912 -0.010730891 0.0254 0 0 1 0
0.18178695 -0.01057517 0.0254 0 0 1 0
-0.045403056 -0.010285352 0.025399998 0 0 1 0
0.026477832 -0.01031762 0.025399998 0 0 1 0
0.033876922 -0.010386956 0.025399998 0 0 1 0
0.11403819 -0.010351103 0.0254 0 0 1 0
0.12187847 -0.010290451 0.025399998 0 0 1 0
0.13673358 -0.010283757 0.0254 0 0 1 0
0.16693342 -0.010252483 0.025399998 0 0 1 0
-0.039159983 -0.010099464 0.025399998 0 0 1 0
-0.037087843 -0.01016195 0.025399998 0 0 1 0
0.050045557 -0.010116355 0.025399998 0 0 1 0
0.054975554 -0.010180171 0.0254 0 0 1 0
0.067307264 -0.010067325 0.0254 0 0 1 0
0.098386422 -0.010079432 0.0254 0 0 1 0
0.12825949 -0.010004874 0.025400002 0 0 1 0
0.14415467 -0.010009244 0.0254 0 0 1 0
-0.070176445 -0.0099223861 0.025399998 0 0 1 0
0.035333637 -0.0097798426 0.0254 0 0 1 0
0.089689575 -0.0097690085 0.025400002 0 0 1 0
0.091556706 -0.009968183 0.0254 0 0 1 0
0.15812017 -0.0098994877 0.0254 0 0 1 0
-0.04580481 -0.0096520819 0.025399998 0 0 1 0
0.049705826 -0.0097056869 0.0254 0 0 1 0
0.074467495 -0.0095286975 0.025400002 0 0 1 0
0.11577851 -0.0095195677 0.0254 0 0 1 0
0.12509395 -0.0096537247 0.0254 0 0 1 0
0.13023865 -0.0097257486 0.0254 0 0 1 0
0.13487673 -0.0096676936 0.025399998 0 0 1 0
0.087779447 -0.0093740141 0.0254 0 0 1 0
0.095091909 -0.0093216952 0.025400002 0 0 1 0
0.10569248 -0.0092728473 0.025400002 0 0 1 0
0.11897644 -0.0094904732 0.0254 0 0 1 0
0.12710214 -0.0093628531 0.0254 0 0 1 0
0.17192346 -0.0092975125 0.0254 0 0 1 0
0.040931128 -0.0091275591 0.0254 0 0 1 0
0.046308752 -0.0091589261 0.0254 0 0 1 0
0.068586782 -0.0090256333 0.0254 0 0 1 0
0.091016658 -0.0091693783 0.0254 0 0 1 0
0.092203349 -0.0090167997 0.025399998 0 0 1 0
0.15111488 -0.0091723148 0.0254 0 0 1 0
-0.048233669 -0.0089243399 0.025399998 0 0 1 0
-0.045272645 -0.0089347325 0.0254 0 0 1 0
-0.044144809 -0.0088607166 0.0254 0 0 1 0
-0.031492926 -0.0088554975 0.025400002 0 0 1 0
0.046002667 -0.0089712758 0.0254 0 0 1 0
0.056572683 -0.0088779349 0.025399998 0 0 1 0
0.166787 -0.0088787787 0.0254 0 0 1 0
0.08898513 -0.0085961726 0.025399998 0 0 1 0
0.15549681 -0.008739043 0.025399998 0 0 1 0
0.16838661 -0.0086051282 0.025400002 0 0 1 0
0.1753549 -0.0085260253 0.0254 0 0 1 0
0.032279897 -0.0084536914 0.0254 0 0 1 0
0.060157657 -0.0084845927 0.0254 0 0 1 0
0.11823675 -0.0084503815 0.0254 0 0 1 0
0.15856797 -0.0084760925 0.025400002 0 0 1 0
0.17751136 -0.0083861668 0.025399998 0 0 1 0
-0.025522871 -0.008103366 0.0254 0 0 1 0
0.12616372 -0.0081752026 0.0254 0 0 1 0
0.060051214 -0.007952502 0.0254 0 0 1 0
0.080068871 -0.0078237914 0.0254 0 0 1 0
0.150033 -0.0078721773 0.025399998 0 0 1 0
0.18218791 -0.0077755731 0.0254 0 0 1 0
-0.033887208 -0.0075279609 0.0254 0 0 1 0
-0.064089745 -0.0072500273 0.025399998 0 0 1 0
-0.05784665 -0.0073572854 0.025399998 0 0 1 0
-0.031682678 -0.0072704251 0.0254 0 0 1 0
-0.028702913 -0.0070393165 0.025400002 0 0 1 0
0.027198581 -0.0070293271 0.0254 0 0 1 0
0.052115671 -0.0070827357 0.0254 0 0 1 0
0.10063975 -0.0070729731 0.0254 0 0 1 0
0.10869191 -0.0070995735 0.0254 0 0 1 0
0.18165416 -0.0072473856 0.025400002 0 0 1 0
-0.065596282 -0.0068950751 0.025399998 0 0 1 0
0.031077027 -0.0068916082 0.025399998 0 0 1 0
0.038921073 -0.0068957061 0.0254 0 0 1 0
0.065199137 -0.0068515367 0.0254 0 0 1 0
0.066602483 -0.0069272746 0.0254 0 0 1 0
0.11083468 -0.0069811493 0.025400002 0 0 1 0
0.11698497 -0.0069890437 0.0254 0 0 1 0
0.13954955 -0.0067633241 0.0254 0 0 1 0
-0.032186113 -0.006703231 0.025400002 0 0 1 0
0.037464269 -0.0066642496 0.025400002 0 0 1 0
0.1541779 -0.0065594944 0.025400002 0 0 1 0
-0.060556669 -0.00633155 0.025399998 0 0 1 0
-0.026418891 -0.0062783612 0.0254 0 0 1 0
0.0507029 -0.0064531104 0.0254 0 0 1 0
0.077274233 -0.0064714029 0.0254 0 0 1 0
0.080779314 -0.0063818702 0.0254 0 0 1 0
0.099382266 -0.0064539718 0.0254 0 0 1 0
0.099767268 -0.0064203176 0.0254 0 0 1 0
0.14310344 -0.0063247653 0.025399998 0 0 1 0
0.16053152 -0.0064271903 0.025400002 0 0 1 0
-0.050357644 -0.0062329257 0.0254 0 0 1 0
0.08496166 -0.0060925363 0.025399998 0 0 1 0
-0.062486082 -0.0058973003 0.0254 0 0 1 0
-0.061905187 -0.0058086617 0.025399998 0 0 1 0
-0.035813849 -0.0059900354 0.025400002 0 0 1 0
0.11061336 -0.0059404094 0.0254 0 0 1 0
0.11226441 -0.0058200201 0.0254 0 0 1 0
0.16894227 -0.005954687 0.0254 0 0 1 0
0.18035139 -0.0058417208 0.0254 0 0 1 0
-0.041117128 -0.0055105346 0.025400002 0 0 1 0
0.043867782 -0.0056675267 0.0254 0 0 1 0
0.084624715 -0.005557972 0.025399998 0 0 1 0
0.12952614 -0.0054328265 0.0254 0 0 1 0
-0.055024661 -0.0052118474 0.0254 0 0 1 0
0.049645364 -0.0050193872 0.0254 0 0 1 0
0.053427514 -0.0050798184 0.0254 0 0 1 0
0.11068235 -0.0052159149 0.0254 0 0 1 0
0.13141176 -0.0050264252 0.025399998 0 0 1 0
0.13531716 -0.0052339151 0.025399998 0 0 1 0
0.14787179 -0.0049638562 0.025400002 0 0 1 0
0.15790893 -0.0049080742 0.0254 0 0 1 0
0.17244649 -0.0048960578 0.025400002 0 0 1 0
-0.039747991 -0.004577823 0.0254 0 0 1 0
-0.033954863 -0.0046140468 0.0254 0 0 1 0
0.025874142 -0.0045878994 0.0254 0 0 1 0
0.070611931 -0.0045307763 0.025400002 0 0 1 0
0.11349361 -0.0046145283 0.0254 0 0 1 0
0.12914205 -0.0046047196 0.0254 0 0 1 0
-0.033060711 -0.0043900404 0.025400002 0 0 1 0
0.17393976 -0.0043048961 0.0254 0 0 1 0
-0.044975661 -0.0040967232 0.0254 0 0 1 0
0.092133895 -0.0040904949 0.0254 0 0 1 0
0.16415215 -0.0042471392 0.0254 0 0 1 0
0.11320604 -0.003808408 0.0254 0 0 1 0
0.1150873 -0.0037669011 0.0254 0 0 1 0
-0.036502011 -0.003652758 0.025400002 0 0 1 0
0.097289696 -0.0036867019 0.0254 0 0 1 0
0.10050809 -0.0035266839 0.0254 0 0 1 0
0.1235991 -0.0035150032 0.0254 0 0 1 0
0.16094136 -0.0036324537 0.025399998 0 0 1 0
-0.063133202 -0.0034630261 0.025399998 0 0 1 0
0.030687544 -0.003257961 0.0254 0 0 1 0
0.086637214 -0.0033057574 0.025400002 0 0 1 0
0.089563593 -0.0033903932 0.0254 0 0 1 0
0.10863338 -0.0034642331 0.0254 0 0 1 0
-0.064041831 -0.0030582333 0.025399998 0 0 1 0
-0.033739988 -0.0030302512 0.025399998 0 0 1 0
0.057425123 -0.0032361262 0.0254 0 0 1 0
0.079019405 -0.0032152506 0.0254 0 0 1 0
0.12683567 -0.0031750584 0.025400002 0 0 1 0
-0.050041679 -0.002547811 0.025400002 0 0 1 0
-0.036125086 -0.0027184677 0.0254 0 0 1 0
0.04970748 -0.0025586565 0.025399998 0 0 1 0
0.079837166 -0.0027329009 0.0254 0 0 1 0
0.11932416 -0.0025402675 0.0254 0 0 1 0
0.1399961 -0.0027402262 0.025400002 0 0 1 0
0.066293649 -0.0023754318 0.025399998 0 0 1 0
0.11618339 -0.0022702175 0.0254 0 0 1 0
0.12384318 -0.002425272 0.0254 0 0 1 0
0.030435102 -0.0021025583 0.0254 0 0 1 0
0.089818306 -0.0021883799 0.0254 0 0 1 0
-0.050504025 -0.0017758238 0.0254 0 0 1 0
0.025522631 -0.0019975284 0.0254 0 0 1 0
0.11893715 -0.0018934112 0.0254 0 0 1 0
0.13138239 -0.0018231757 0.025399998 0 0 1 0
0.097396575 -0.0015024589 0.0254 0 0 1 0
0.11346008 -0.0015274771 0.0254 0 0 1 0
0.13849342 -0.0015911111 0.0254 0 0 1 0
0.15870905 -0.001566235 0.0254 0 0 1 0
0.028936822 -0.0014401398 0.0254 0 0 1 0
0.038709458 -0.0013244636 0.0254 0 0 1 0
0.089634694 -0.0012736944 0.0254 0 0 1 0
0.11957522 -0.0014698383 0.025399998 0 0 1 0
0.14487433 -0.0013546566 0.025400002 0 0 1 0
0.040183276 -0.0012132633 0.0254 0 0 1 0
0.16129056 -0.0011650957 0.0254 0 0 1 0
-0.063481063 -0.00095522311 0.0254 0 0 1 0
-0.05854971 -0.00083006825 0.0254 0 0 1 0
-0.051153369 -0.0008952581 0.0254 0 0 1 0
0.04862617 -0.00076265982 0.0254 0 0 1 0
0.05549556 -0.00089237606 0.025399998 0 0 1 0
0.17085016 -0.00086603593 0.025400002 0 0 1 0
-0.026890449 -0.0005082516 0.025400002 0 0 1 0
0.04725052 -0.00060892128 0.0254 0 0 1 0
0.083295055 -0.00051966589 0.025399998 0 0 1 0
0.10072079 -0.00062630605 0.0254 0 0 1 0
0.14362344 -0.00051514385 0.0254 0 0 1 0
-0.067375124 -0.0003061234 0.0254 0 0 1 0
-0.063959271 -0.0004444737 0.0254 0 0 1 0
0.053683035 -0.00035578897 0.025400002 0 0 1 0
0.078678399 -0.00048392359 0.025400002 0 0 1 0
0.14911698 -0.00028681895 0.025400002 0 0 1 0
0.14970726 -0.00025805226 0.0254 0 0 1 0
0.16842286 -0.00025267433 0.025399998 0 0 1 0
0.17778736 -0.00043322332 0.0254 0 0 1 0
0.17992115 -0.00036824588 0.0254 0 0 1 0
-0.071717873 -3.9513689e-05 0.0254 0 0 1 0
-0.060694281 -0.00020829495 0.025399998 0 0 1 0
-0.058024675 -9.2134811e-05 0.0254 0 0 1 0
0.052852884 -8.5225329e-05 0.0254 0 0 1 0
0.10162923 -1.2215227e-05 0.0254 0 0 1 0
0.10854068 -0.00024335267 0.0254 0 0 1 0
0.1451024 -8.0882106e-05 0.025399998 0 0 1 0
