# .PCD v0.7 - Point Cloud Data file format
VERSION 0.7
FIELDS x y z
SIZE 4 4 4
TYPE F F F
COUNT 1 1 1
WIDTH 1250
HEIGHT 1
VIEWPOINT 0 0 0 1 0 0 0
POINTS 1250
DATA ascii
0.022905523 -0.12573533 -0.0014060518
0.02336162 -0.13749085 -0.0011784828
0.023806773 -0.14904583 -0.00044363379
0.024219386 -0.15954882 -0.001034647
0.024624957 -0.16993822 -0.0012027145
0.025022896 -0.18019749 -0.00095652137
0.025406212 -0.1899925 -0.0012535735
0.0257835 -0.19969223 -0.0011767679
0.026150553 -0.20903148 -0.0017011223
0.026335528 -0.21391545 -0.00086229458
0.026871365 -0.22753207 -0.0017258064
0.027224232 -0.23666877 -0.001235601
0.027397508 -0.24133489 0.00012416694
0.027912732 -0.25465527 0.00072284602
0.0280619 -0.25939378 0.0064021698
0.028407257 -0.26787612 0.00402311
0.028946485 -0.28092343 -0.00098545826
0.029303249 -0.28982481 -0.0026050939
0.02983276 -0.30328748 -0.0034438914
0.03018219 -0.31228787 -0.0032736885
0.030543664 -0.3214924 -0.0037669367
0.031087598 -0.33544543 -0.0038758717
0.031450629 -0.34482697 -0.003520841
0.03201266 -0.359303 -0.0032846141
0.032394588 -0.36916441 -0.0029798276
0.032777261 -0.37910667 -0.0022925371
0.033063769 -0.38589236 -0.0059316405
0.033633702 -0.40095407 -0.0033281522
0.034091096 -0.41260046 -0.0040329136
0.034578044 -0.42495292 -0.0050895093
0.035070717 -0.43754312 -0.0055865771
0.035721775 -0.45479289 -0.0023991622
0.036153127 -0.46511969 -0.0072553018
0.036927942 -0.48534617 -0.0054125595
0.037527274 -0.50077266 -0.0053881933
0.038466278 -0.52506465 -0.0046081101
0.039269682 -0.54541171 -0.0067249513
0.03998372 -0.56395459 -0.0057288404
0.041005727 -0.58968002 -0.0094709378
0.04207572 -0.61812055 -0.0039214953
0.043011129 -0.64243734 -0.0025399907
0.042977482 -0.64431798 0.014767128
0.042842813 -0.64372689 0.03290765
0.042864066 -0.64671981 0.048323508
0.043870769 -0.6806426 0.098620899
0.022191787 -0.16584252 0.39300343
0.021998752 -0.16031767 0.38988981
0.02174978 -0.15355548 0.38806143
0.020397348 -0.059342213 0.032107472
0.020813731 -0.070764177 0.03635551
0.021279212 -0.082346067 0.03386005
0.021253804 -0.07651826 0.0021927292
0.022302756 -0.10548378 0.014131473
0.022939846 -0.12132251 0.010660037
0.022830391 -0.11302759 -0.022964507
0.024075124 -0.14859234 -0.0013663723
0.024304599 -0.15473489 8.1538674e-05
0.024711585 -0.16515154 -0.0002824566
0.025292629 -0.17984007 -0.0019211689
0.025495857 -0.18526679 -0.00070925232
0.025874719 -0.19499947 -0.00081298396
0.026421886 -0.20877396 -0.00269733
0.026787527 -0.21830928 -0.001910908
0.02696839 -0.22312701 -0.0008947521
0.027321458 -0.23210496 -0.0015503535
0.027845042 -0.2455935 -0.0014392171
0.028014241 -0.25019208 8.4492269e-05
0.028336156 -0.2593258 0.0053757969
0.028671751 -0.26789737 0.004994439
0.029393505 -0.28535244 -0.0018629269
0.029741714 -0.29423821 -0.0023277975
0.029920714 -0.29874629 -0.0029403532
0.03043708 -0.31213543 -0.0023130137
0.030976612 -0.32592157 -0.0029363392
0.031533543 -0.34012371 -0.0037698881
0.032076623 -0.35425186 -0.0028469188
0.032475304 -0.36438355 -0.0036794071
0.032857455 -0.37430361 -0.0031780319
0.03328225 -0.38509196 -0.0041252188
0.033711404 -0.39606565 -0.0046227877
0.034144122 -0.40720624 -0.0046590236
0.034604054 -0.4189859 -0.0050937608
0.035093535 -0.43147531 -0.0058636731
0.035769571 -0.44921148 -0.0038879316
0.036323551 -0.46333402 -0.0048705121
0.036912821 -0.47835287 -0.0059512523
0.037688028 -0.4987838 -0.0031678388
0.038381692 -0.5164417 -0.0046174261
0.039243229 -0.53802335 -0.0086388756
0.039922621 -0.55574864 -0.007391796
0.041250505 -0.58967561 -0.0094988029
0.041905127 -0.60728091 -0.0050364309
0.043082677 -0.6371423 -0.0083734067
0.043166917 -0.64180285 0.0072119017
0.043045279 -0.6415658 0.02541901
0.042967644 -0.64225501 0.042319771
0.043662708 -0.67099398 0.11005824
0.022652321 -0.17070541 0.39163989
0.022373926 -0.16337411 0.39105731
0.022124313 -0.156608 0.38936946
0.021512132 -0.081017151 0.032339141
0.022541909 -0.10431878 0.012480516
0.023001848 -0.11604927 0.011682037
0.0237027 -0.13212045 -0.00053785689
0.024138188 -0.14328551 -0.00092479144
0.024553962 -0.15387028 -0.0017458036
0.024972687 -0.16474979 -0.0012218872
0.025373064 -0.17507628 -0.0011815419
0.025758505 -0.18493 -0.0016739586
0.026138172 -0.1946958 -0.0017886106
0.026511557 -0.20435941 -0.0015323173
0.026697559 -0.20927414 -0.00078334642
0.027234364 -0.22292469 -0.0018961232
0.027588546 -0.2321029 -0.0015718389
0.027937334 -0.24119529 -0.0009168018
0.028105926 -0.24593386 0.0015199663
0.028605452 -0.25926176 0.0043567833
0.028764784 -0.2636525 0.0061258101
0.02930974 -0.27652144 -0.0011076515
0.02948078 -0.28091574 -0.0010343316
0.029836671 -0.28981718 -0.0026538875
0.030185319 -0.2987445 -0.0029606407
0.030701386 -0.31213361 -0.0023331998
0.031254441 -0.32611793 -0.0039364528
0.031616241 -0.33543795 -0.0039242613
0.031994592 -0.34508559 -0.0045329314
0.03255691 -0.35961172 -0.0042813071
0.032938976 -0.36950606 -0.003964847
0.033362813 -0.38024375 -0.0051130229
0.033769645 -0.39076155 -0.0049057109
0.034382772 -0.40674374 -0.0037912081
0.034683194 -0.41402102 -0.0067181326
0.035303872 -0.4304308 -0.004176971
0.035796095 -0.44308671 -0.0044164741
0.036347486 -0.45710364 -0.0057046767
0.037085898 -0.47648704 -0.0036210793
0.03773845 -0.49301946 -0.0055430504
0.038461324 -0.51127142 -0.0080846865
0.038879603 -0.52295887 -0.002513458
0.03990452 -0.54830158 -0.0095270174
0.040994871 -0.5767321 -0.007831377
0.041850615 -0.59885645 -0.0077117262
0.042816095 -0.62373281 -0.0081352973
0.04356296 -0.64513141 0.0049837534
0.043291345 -0.64010036 0.0174112
0.043190055 -0.64027828 0.03489475
0.048686031 -0.77510077 -0.010391976
0.044413891 -0.68323135 0.10569109
0.022691909 -0.16398893 0.39024675
0.022443872 -0.15724975 0.38858101
0.021614715 -0.075876467 0.034249254
0.022641055 -0.10402007 0.044191252
0.023103001 -0.11076071 0.012809157
0.023735521 -0.12657 0.0096720867
0.024057494 -0.13587831 0.015737109
0.02442614 -0.14235258 -0.0027281467
0.024670796 -0.14902833 -0.00052485312
0.025265116 -0.16394266 -0.0030856535
0.025659468 -0.17396638 -0.0040022931
0.025881499 -0.18018028 -0.0010376449
0.02626312 -0.1899754 -0.0013346616
0.026638703 -0.1996752 -0.001257819
0.027007757 -0.20926571 -0.00081417261
0.027542576 -0.22271602 -0.0029069039
0.027722606 -0.22769839 -0.00082364026
0.028072475 -0.23680077 -0.00032761507
0.028591683 -0.25008479 -0.00096331257
0.028751763 -0.25479758 0.0026357104
0.029068533 -0.26368862 0.0070932326
0.029423637 -0.27215692 0.0028638146
0.030142657 -0.28980857 -0.0026857764
0.030658942 -0.30315921 -0.0025309052
0.031184291 -0.31669939 -0.0026561932
0.031543225 -0.32591119 -0.0029885895
0.031917982 -0.33542949 -0.0039565028
0.03227913 -0.34481108 -0.0036014647
0.032838292 -0.3592872 -0.0033652282
0.033056304 -0.36470583 -0.0046745664
0.033438481 -0.37465858 -0.004160997
0.034023091 -0.38992631 -0.0031179092
0.034474 -0.40138352 -0.0043039927
0.03490638 -0.41258499 -0.0041135042
0.035366051 -0.42443126 -0.0043081208
0.036008988 -0.44142652 -0.0019467452
0.036528844 -0.45477772 -0.0024797481
0.037139084 -0.47018644 -0.0047616754
0.037729379 -0.48533121 -0.0054931389
0.038356021 -0.50141919 -0.0062182304
0.039082244 -0.51986718 -0.0082994848
0.039898496 -0.54177642 -0.0033610002
0.04083642 -0.56543559 -0.0071358061
0.041889001 -0.59197694 -0.011461497
0.042782743 -0.61650115 -0.0028112223
0.043712348 -0.64077753 -0.0014864919
0.043676179 -0.64261955 0.015762376
0.043575883 -0.64285243 0.03333516
0.043705784 -0.64846122 0.047287136
0.044629488 -0.68062896 0.098540053
0.023019278 -0.16582662 0.39292178
0.022827232 -0.16030174 0.38980815
0.022609603 -0.15420087 0.38723034
0.021859478 -0.07519336 0.033484876
0.022175059 -0.083653443 0.035275687
0.022295425 -0.084284686 0.020258825
0.022868911 -0.097791351 0.012218407
0.02315392 -0.10546532 0.014050112
0.023788514 -0.12130411 0.01057856
0.02376694 -0.11605712 -0.017878653
0.024489136 -0.13746566 -0.0012881869
0.024736138 -0.14419422 0.00078987476
0.025331115 -0.15910855 -0.002054224
0.025563044 -0.16553266 0.00055243925
0.026132092 -0.17982186 -0.0020031063
0.026514299 -0.18964987 -0.0023118893
0.026890483 -0.19938296 -0.002245707
0.027082553 -0.20461155 -0.0006290832
0.02744383 -0.21389113 -0.00097280578
0.027976265 -0.2275079 -0.0018364479
0.028152378 -0.23225297 -0.00064659765
0.028671676 -0.24568978 -0.00052827742
0.029007342 -0.25471088 0.001608765
0.029662762 -0.2721692 0.0048333118
0.02986843 -0.27650562 -0.0011698357
0.030384401 -0.28974128 -0.0017182576
0.030730903 -0.29863381 -0.0020280341
0.030909309 -0.30315185 -0.0025618752
0.031267531 -0.31226435 -0.0033855254
0.03145976 -0.31701979 -0.0046602841
0.031987894 -0.33075351 -0.0040367935
0.032513287 -0.3445375 -0.0026696061
0.032890495 -0.35423398 -0.0029313876
0.033125143 -0.3599118 -0.0052946415
0.033669103 -0.37428567 -0.0032630183
0.034092728 -0.38507399 -0.0042104824
0.034520667 -0.39604765 -0.0047083381
0.034952138 -0.40718821 -0.0047448697
0.035566788 -0.42341089 -0.0026180085
0.036053956 -0.43591186 -0.0031700034
0.036572814 -0.44919342 -0.003974909
0.037125219 -0.46331593 -0.0049578594
0.037741676 -0.47895598 -0.0068220687
0.038485568 -0.49876571 -0.0032561531
0.039146159 -0.51573652 -0.0039802939
0.039908867 -0.5351572 -0.0059223352
0.040974677 -0.56161875 -0.01289084
0.042003792 -0.5888871 -0.0089527387
0.042689905 -0.60726291 -0.0051275711
0.043933932 -0.63875014 -0.0096279271
0.043947242 -0.64178509 0.0071197203
0.043789111 -0.64069676 0.025849737
0.043710545 -0.64136851 0.042720214
0.044880647 -0.68062252 0.098499224
0.044514328 -0.6728611 0.10929473
0.023448443 -0.1695087 0.39315751
0.023227056 -0.16336447 0.39096653
0.022978509 -0.1565983 0.38927889
0.020974219 -0.041080251 0.01346535
0.02241862 -0.081651159 0.032997526
0.023426892 -0.10428856 0.012388959
0.023902198 -0.11657137 0.012423113
0.024321299 -0.12707077 0.010461123
0.025021389 -0.14325429 -0.0010189803
0.025252994 -0.14945228 0.00030523745
0.025854712 -0.16471845 -0.0013175518
0.026254544 -0.17504489 -0.0012779295
0.026639497 -0.18489856 -0.0017710462
0.027018681 -0.19466428 -0.0018863991
0.027570155 -0.20874016 -0.0028180599
0.027754826 -0.21364114 -0.0019837255
0.02829108 -0.22749208 -0.0018758746
0.02864171 -0.23677762 -0.00039732593
0.029155718 -0.25025523 0.0009567489
0.029482916 -0.25923029 0.0042541595
0.029974768 -0.27216318 0.0057916697
0.0303568 -0.28088379 -0.0011386126
0.030711837 -0.28978512 -0.0027587542
0.030881116 -0.29420441 -0.0024532794
0.03140692 -0.30767977 -0.0030576056
0.031932667 -0.32127181 -0.0029390175
0.032126062 -0.32608593 -0.0040437258
0.032667529 -0.34008989 -0.0038980772
0.033028558 -0.34949753 -0.0033704429
0.033425365 -0.35957977 -0.0043908218
0.033643968 -0.36501482 -0.0056948657
0.034229401 -0.38021183 -0.0052239276
0.034635276 -0.39072967 -0.0050173267
0.035088405 -0.40224978 -0.0061741164
0.035704464 -0.41846097 -0.0043559992
0.036166016 -0.43039906 -0.0042912825
0.036683682 -0.44360563 -0.0053660031
0.037207454 -0.45707187 -0.0058208085
0.037915319 -0.47583425 -0.0029554386
0.03859552 -0.49298781 -0.005661645
0.039194405 -0.50854242 -0.0052532121
0.039734241 -0.52292752 -0.0026341167
0.040934097 -0.55350697 -0.005504624
0.041879054 -0.57745963 -0.0086057857
0.042665742 -0.59804356 -0.0072144787
0.043867864 -0.62979287 -0.0032874567
0.044337273 -0.64343554 0.0059598801
0.044029184 -0.6375441 0.018896373
0.044101786 -0.64309353 0.041679513
0.049827997 -0.78402132 -0.0039825868
0.045253646 -0.68320787 0.10555911
0.023537276 -0.16398692 0.3901512
0.023289273 -0.15724765 0.388486
0.02245559 -0.07584776 0.034161311
0.023539621 -0.10590156 0.046414301
0.023480104 -0.098958962 0.013763357
0.023942182 -0.11073034 0.012718492
0.024573931 -0.12653941 0.0095801745
0.025078509 -0.13791956 -0.00047411554
0.025519721 -0.14944381 0.00027599253
0.025928708 -0.15991539 -0.00030075465
0.026312713 -0.16950612 -0.0023027223
0.026898136 -0.18455559 -0.0027433732
0.0271047 -0.19026212 -0.00048355549
0.027652251 -0.20405149 -0.0026245776
0.028019406 -0.2136329 -0.0020142838
0.028201411 -0.21848467 -0.0010867063
0.02855514 -0.22748391 -0.0019067003
0.028731378 -0.23222907 -0.00071716559
0.029251071 -0.24566588 -0.00059974036
0.029586984 -0.2546871 0.0015367001
0.030070985 -0.26788336 0.005838383
0.030422347 -0.27645111 0.0027564457
0.030618727 -0.28087577 -0.0011705199
0.030965231 -0.28971717 -0.001792733
0.031500738 -0.30323973 -0.0036308696
0.03201551 -0.31666782 -0.0027636825
0.032374449 -0.32587963 -0.003096886
0.032568689 -0.33072931 -0.004113893
0.033110358 -0.3447794 -0.003711421
0.033651318 -0.3589395 -0.0025278586
0.033887509 -0.36467406 -0.004786273
0.034269661 -0.37462682 -0.0042735822
0.034694403 -0.38544735 -0.0052084266
0.035282273 -0.40090683 -0.0035236548
0.035737403 -0.41255319 -0.004229439
0.036197014 -0.42439944 -0.0044251019
0.036686182 -0.43695989 -0.004941483
0.037359577 -0.45474598 -0.0025994177
0.037969708 -0.47015452 -0.0048826984
0.038559869 -0.4852992 -0.005615497
0.039333433 -0.50583696 -0.0023403359
0.040058728 -0.5243184 -0.004100692
0.040921964 -0.54608905 -0.007622147
0.041831076 -0.56914181 -0.010581451
0.042824253 -0.59569108 -0.0053859926
0.043680951 -0.61807454 -0.0041361428
0.044505436 -0.63992298 -0.0010554797
0.044468522 -0.64174712 0.016164102
0.044367552 -0.64196324 0.033707045
0.044533625 -0.64843363 0.047150172
0.045456339 -0.68060571 0.098400004
0.023867283 -0.16582957 0.39282337
0.023675648 -0.16030441 0.38971025
0.023488658 -0.15486459 0.38638341
0.022705115 -0.074485563 0.032657169
0.023041865 -0.083621755 0.035183806
0.023300158 -0.088706814 0.025564181
0.024038205 -0.10601268 0.014769606
0.024493001 -0.11765689 0.014029049
0.024677048 -0.11754446 -0.015390359
0.025356062 -0.13743025 -0.0013855532
0.025602899 -0.14415903 0.00069182576
0.026014777 -0.1546813 -9.9319812e-05
0.02661079 -0.16987796 -0.0014134587
0.026990777 -0.17943536 -0.0030411293
0.02738671 -0.18993245 -0.0014665929
0.027761405 -0.19963229 -0.0013908892
0.028126009 -0.20897157 -0.0019163049
0.028486315 -0.21825574 -0.0020988607
0.028841875 -0.22747235 -0.0019430945
0.029192252 -0.23660921 -0.0014539304
0.029364161 -0.24127552 -9.4694973e-05
0.029533258 -0.24588284 0.0013501018
0.030027084 -0.2592732 0.0051831743
0.030194303 -0.26355731 0.0049545798
0.031080056 -0.28529912 -0.0020584876
0.031426553 -0.29418486 -0.0025243915
0.031604704 -0.29869288 -0.0031374719
0.031962581 -0.30778953 -0.0041210344
0.032655228 -0.32586825 -0.0031366423
0.032849073 -0.33071792 -0.0041537918
0.033209395 -0.34007037 -0.0039718626
0.033749595 -0.35419869 -0.0030505664
0.034146309 -0.36433032 -0.0038842533
0.034526441 -0.37425047 -0.0033840579
0.034949142 -0.38503879 -0.0043325247
0.035376132 -0.39601246 -0.0048313988
0.03596323 -0.41159055 -0.0025132583
0.036288626 -0.41942382 -0.0061758696
0.036931805 -0.43641302 -0.0041405833
0.037396599 -0.44859359 -0.0032783078
0.037974782 -0.46328112 -0.0050871605
0.038589973 -0.47892109 -0.006952832
0.039301801 -0.49807 -0.0026392378
0.039991181 -0.51570213 -0.0041144681
0.040720508 -0.53441077 -0.0053567872
0.041993372 -0.56688821 -0.0086385487
0.042371478 -0.5780679 -0.00017924335
0.043493092 -0.60643679 -0.004660889
0.044769179 -0.63871574 -0.0097736474
0.044745818 -0.64091969 0.0075264927
0.044586219 -0.63981456 0.02622729
0.044542734 -0.64133942 0.042574547
0.045400638 -0.67311454 0.10115849
0.024274858 -0.16951267 0.39306158
0.024053879 -0.16336823 0.3908712
0.023727497 -0.15420397 0.38710237
0.023249747 -0.081624903 0.032911353
0.022755494 -0.060259093 -0.018339593
0.023770221 -0.09178827 0.012842333
0.024271496 -0.10484209 0.01311463
0.024727473 -0.11654378 0.012334237
0.025409173 -0.13206083 -0.00072134665
0.02584202 -0.14322591 -0.0011099002
0.026266161 -0.15424185 -0.0010302925
0.026680943 -0.16508979 -0.00049342943
0.026889067 -0.17063673 0.00040452974
0.027272861 -0.1804803 -0.00026135982
0.02782969 -0.19463637 -0.0019812484
0.028200718 -0.20430008 -0.0017263845
0.028389012 -0.20946625 -1.0274055e-05
0.02874551 -0.21868266 -0.0001766263
0.029270936 -0.23204371 -0.0017700376
0.029617457 -0.24113625 -0.0011163629
0.029958162 -0.25013125 -0.00013756225
0.030604685 -0.26786467 0.0057696691
0.031150319 -0.28085688 -0.0012398602
0.031672817 -0.2941775 -0.0025556213
0.032007921 -0.3029969 -0.0017141028
0.032196753 -0.30765286 -0.0031610527
0.03255444 -0.31681287 -0.0038213367
0.033078603 -0.33049542 -0.0032093879
0.033452787 -0.34006307 -0.0040041753
0.033648975 -0.34502673 -0.0047479738
0.034189679 -0.35923705 -0.0035499502
0.034425654 -0.364988 -0.0058029937
0.034988351 -0.37980375 -0.0044090562
0.035571571 -0.39514691 -0.0030590689
0.035999138 -0.40622512 -0.0031280133
0.036478192 -0.4184345 -0.0044684601
0.03693793 -0.43037269 -0.0044047069
0.037427161 -0.44302866 -0.0046460927
0.037947882 -0.4564662 -0.0051217857
0.038558584 -0.47195888 -0.0073436033
0.039268609 -0.49101737 -0.003497137
0.039954148 -0.50851643 -0.0053729075
0.040742736 -0.52849835 -0.0084659802
0.041686617 -0.55348122 -0.0056279064
0.042561188 -0.57591558 -0.0074307574
0.043444969 -0.59879923 -0.0079645021
0.044538032 -0.628142 -0.0022539529
0.044913188 -0.63826066 -9.1203865e-06
0.044731721 -0.63667864 0.019304456
0.044699993 -0.63850689 0.035652328
0.050542004 -0.78399712 -0.004124118
0.045408607 -0.66906816 0.11044536
0.024368463 -0.16398738 0.39005643
0.024122059 -0.1572479 0.3883917
0.024137547 -0.10415217 0.077484675
0.023327619 -0.075819686 0.034071874
0.024444668 -0.10714763 0.047864612
0.021437433 -0.0066728522 -0.085624158
0.024545627 -0.10366944 0.011455484
0.025003705 -0.11542861 0.010635285
0.025275186 -0.12286518 0.01295099
0.025958279 -0.14092579 0.01490395
0.02595355 -0.13836715 0.00031002145
0.026379885 -0.14941366 0.00018087099
0.026968928 -0.16428033 -0.0023600687
0.027343309 -0.17353712 -0.0051250476
0.027579494 -0.1804699 -0.00029497946
0.02795754 -0.19023219 -0.00058180583
0.028329547 -0.19989882 -0.00049595453
0.028691523 -0.20920455 -0.0010123716
0.029049203 -0.21845487 -0.0011871192
0.029402137 -0.22763737 -0.0010247349
0.029750453 -0.23659106 -0.0015189906
0.030266078 -0.25002393 -0.0011679309
0.030744055 -0.26358435 0.0058874791
0.030925555 -0.26777244 0.0027353531
0.03197692 -0.29416707 -0.0025916419
0.032321941 -0.30309847 -0.0027438863
0.032678172 -0.31221098 -0.003568734
0.033201244 -0.32585058 -0.0032050917
0.033394452 -0.33070022 -0.0042224242
0.033933032 -0.34475049 -0.0038208906
0.03430932 -0.3544805 -0.0040740492
0.034866821 -0.36908838 -0.0032836257
0.035245303 -0.37903088 -0.0025978684
0.035667114 -0.38986614 -0.0033443111
0.036115579 -0.40132323 -0.0045321658
0.036545508 -0.41252485 -0.0043434091
0.037181735 -0.42932034 -0.00273647
0.037668157 -0.44191748 -0.0030154851
0.038158718 -0.45471814 -0.0027161739
0.038737368 -0.46951929 -0.0042066034
0.039323486 -0.48463669 -0.004962109
0.040121935 -0.50580955 -0.0024604741
0.040843476 -0.52429098 -0.0042220638
0.041638061 -0.54461354 -0.0063669444
0.042541068 -0.56761903 -0.0093792463
0.04338862 -0.58960617 -0.0098087899
0.044412002 -0.61724538 -0.0036681863
0.045266546 -0.63989675 -0.0011845379
0.045228735 -0.64172214 0.016035007
0.045090962 -0.64107913 0.034086347
0.04529155 -0.64841086 0.047020793
0.046206273 -0.68058676 0.098268762
0.024698697 -0.16582459 0.39273044
0.024507973 -0.16029917 0.38961768
0.02432188 -0.1548591 0.38629124
0.023408515 -0.07137619 0.036822606
0.024036404 -0.086732097 0.031036187
0.024300991 -0.092010573 0.021484388
0.024581805 -0.097729601 0.012037784
0.025060315 -0.11012469 0.011774885
0.025512202 -0.12178015 0.011237221
0.025491804 -0.11649905 -0.017200904
0.026182275 -0.13692425 -0.0023531879
0.026623536 -0.14851046 -0.0016364092
0.027043032 -0.15946047 -0.0013346145
0.027444029 -0.16985004 -0.0015043742
0.027649883 -0.17536439 -0.00050329161
0.02821642 -0.18990467 -0.0015584927
0.028584572 -0.19931966 -0.0024417858
0.028952386 -0.20894392 -0.0020091259
0.029311072 -0.21822815 -0.0021921264
0.029490123 -0.22304608 -0.0011767454
0.030013783 -0.23658179 -0.0015480677
0.030356947 -0.24562705 -0.00073138915
0.030694101 -0.25456893 0.00040748288
0.030840514 -0.25930849 0.0060860394
0.031010954 -0.26353043 0.0048591811
0.031547979 -0.27644295 -0.0013776214
0.032061964 -0.28967866 -0.0019280006
0.032406524 -0.29857129 -0.0022390282
0.032940231 -0.3122018 -0.0035984318
0.03311893 -0.31679332 -0.003887417
0.033642121 -0.33047596 -0.0032757786
0.034015663 -0.3400436 -0.004070784
0.034391616 -0.3497341 -0.0045032073
0.034769405 -0.35953364 -0.0045655565
0.035328288 -0.37422398 -0.0034845413
0.035728574 -0.38461491 -0.0035160847
0.036153063 -0.39555687 -0.0040298905
0.036604356 -0.40712669 -0.0049709408
0.037215427 -0.42334992 -0.0028463025
0.037520584 -0.43087471 -0.0053264601
0.03818918 -0.44856751 -0.0033821482
0.038737722 -0.46266162 -0.0043872702
0.039350107 -0.4782739 -0.0062748757
0.040118471 -0.49870548 -0.0034948338
0.040961392 -0.51979834 -0.0085773598
0.041502684 -0.53438509 -0.0054644858
0.042270031 -0.55419838 -0.0063756225
0.043011323 -0.5736196 -0.0055522649
0.044300802 -0.60720348 -0.0053812782
0.045434166 -0.63625187 -0.0081416946
0.045515001 -0.64089519 0.0074140611
0.04535538 -0.63979095 0.026114987
0.045238648 -0.63957834 0.043448709
0.025073111 -0.16890791 0.3937777
0.02488062 -0.16335675 0.39078319
0.024633165 -0.15659028 0.38909647
0.022772079 -0.044532474 0.016862273
0.02392849 -0.077832311 0.036228951
0.023380725 -0.054937851 -0.01541153
0.024616407 -0.091762558 0.012757692
0.025100132 -0.10423516 0.012216029
0.025395768 -0.11238627 0.01504401
0.0262681 -0.13252787 6.2730112e-05
0.026687292 -0.14319986 -0.0011960544
0.026940472 -0.15029192 0.0019164975
0.027516197 -0.16466425 -0.0014968935
0.027913883 -0.17499083 -0.001458352
0.028303659 -0.18517923 -0.0010101782
0.028679473 -0.19491202 -0.0011154428
0.028867472 -0.19988331 -0.00054967368
0.029233003 -0.20944038 -9.8284429e-05
0.029764386 -0.22303987 -0.0012016359
0.030114755 -0.23201782 -0.0018586472
0.030461181 -0.2411104 -0.0012052103
0.030969797 -0.25456274 0.00038271549
0.031124284 -0.25917792 0.0040651886
0.031442717 -0.2678664 0.0066797487
0.031643257 -0.27206165 0.00060176733
0.031993702 -0.2808311 -0.0013297449
0.032515872 -0.29415172 -0.0026458304
0.032683663 -0.29856512 -0.0022636838
0.033039432 -0.30762714 -0.0032515873
0.033562846 -0.3212193 -0.0031344374
0.03392059 -0.33046979 -0.0033004668
0.034278773 -0.33978838 -0.0031270806
0.03447422 -0.34473521 -0.0038755685
0.035030764 -0.3592115 -0.003641705
0.035408933 -0.36907315 -0.0033385281
0.035828806 -0.3797783 -0.0045012911
0.036253288 -0.39067757 -0.0052200328
0.036861978 -0.40666014 -0.0041082771
0.037136842 -0.41346121 -0.0061572017
0.03775125 -0.42982632 -0.0036450222
0.038291942 -0.44355401 -0.0055742026
0.038785782 -0.45644099 -0.0052157948
0.039517328 -0.47578317 -0.0031669673
0.040105246 -0.49099234 -0.0035919393
0.04075969 -0.50781715 -0.004730219
0.041515525 -0.52707422 -0.0071338825
0.042378057 -0.54894269 -0.010557449
0.043228727 -0.57209527 -0.0042767907
0.044244163 -0.59799314 -0.0074386066
0.045236908 -0.62365097 -0.0084896795
0.045744598 -0.63823617 -0.00010734457
0.04559797 -0.63749677 0.018668262
0.045493357 -0.63762301 0.036062576
0.051213976 -0.77856344 -0.012622717
0.04676896 -0.68222862 0.10566129
0.025191912 -0.16397253 0.38997269
0.024945866 -0.15723298 0.38830811
0.024190795 -0.076474912 0.034727365
0.025147703 -0.10267154 0.04238601
0.022157447 -0.0022893411 -0.091178335
0.025369568 -0.10306732 0.010560516
0.025828062 -0.11485524 0.0097203795
0.026114739 -0.12284441 0.012869352
0.026743123 -0.13893278 0.011342608
0.026792511 -0.13834628 0.00022823305
0.027400557 -0.15377939 -0.0020474605
0.027624389 -0.15986453 -0.00047869215
0.028014889 -0.16983868 -0.0015580198
0.028415309 -0.18044928 -0.00037719731
0.02896538 -0.19430377 -0.0030509592
0.029340891 -0.20426917 -0.0018429492
0.029701404 -0.21358256 -0.002196847
0.029882077 -0.21843447 -0.0012696841
0.030408381 -0.23201297 -0.0018874325
0.031088445 -0.25029457 0.0017350902
0.03173285 -0.26786172 0.0066508399
0.032080833 -0.27639446 0.0035685271
0.032282744 -0.28082651 -0.0013586599
0.032626528 -0.28966796 -0.0019815429
0.032980248 -0.29865521 -0.0032880034
0.033502724 -0.31219119 -0.0036519484
0.033859555 -0.32139584 -0.0041466807
0.034381252 -0.33511701 -0.0032853098
0.034738179 -0.34446502 -0.002940489
0.0349674 -0.35000631 -0.0055157612
0.035685923 -0.36906898 -0.0033672575
0.035904504 -0.37457874 -0.0044687106
0.036484178 -0.38984689 -0.0034280899
0.036751561 -0.39640489 -0.0058892807
0.037360381 -0.41250572 -0.0044273478
0.037816312 -0.42435211 -0.0046238787
0.038301621 -0.43691272 -0.0051411809
0.038969275 -0.45469925 -0.0028004041
0.039546523 -0.46950048 -0.0042909393
0.040131163 -0.48461795 -0.005046552
0.040927321 -0.50579095 -0.0025450606
0.041678436 -0.52497208 -0.005020706
0.042439766 -0.54459512 -0.006451814
0.043373492 -0.56834835 -0.010127587
0.044051796 -0.58650666 -0.0073468196
0.045137167 -0.61562222 -0.0025624761
0.045988075 -0.63823318 -0.00013574904
0.0460192 -0.6417045 0.015949493
0.045773748 -0.63722765 0.027631635
0.046079297 -0.64839363 0.04693532
0.046987288 -0.6805703 0.098183207
0.025506521 -0.16580923 0.39265081
0.025316594 -0.16028377 0.38953808
0.02510123 -0.15418239 0.38696125
0.024412353 -0.075118497 0.033229157
0.024745271 -0.084241994 0.035766989
0.024923883 -0.086754031 0.023085807
0.025415879 -0.097713567 0.011959306
0.025714947 -0.10596917 0.014603416
0.026165828 -0.11761353 0.013862285
0.026296519 -0.11546683 -0.019001601
0.026826626 -0.13251838 9.4642255e-06
0.027449911 -0.14849487 -0.0017147709
0.027857507 -0.15902951 -0.0023225127
0.02827551 -0.17021812 -0.00065917912
0.028650982 -0.17974316 -0.0022744874
0.02903573 -0.18988946 -0.0016367375
0.029407028 -0.19958946 -0.0015614728
0.029768398 -0.20892887 -0.0020873051
0.030125456 -0.2182132 -0.0022702708
0.030304976 -0.22323155 -0.00027516071
0.030652009 -0.23217531 -0.00092576066
0.03116636 -0.24561235 -0.00080942339
0.031332199 -0.25019392 0.00071544026
0.031647079 -0.25929394 0.006008063
0.03181212 -0.26356068 0.005780213
0.03252073 -0.2808229 -0.0013831395
0.033207186 -0.29855701 -0.0023171066
0.033726893 -0.31204104 -0.0026874389
0.034081884 -0.32121128 -0.003187899
0.034273598 -0.32602534 -0.0042931237
0.034631025 -0.33534554 -0.0042825537
0.035345804 -0.35415804 -0.0032283696
0.035720862 -0.36395729 -0.0031195942
0.03611676 -0.37421006 -0.0035628339
0.036515292 -0.38460106 -0.0035944073
0.036937937 -0.39554307 -0.0041082436
0.037387278 -0.40711293 -0.0050493237
0.037841387 -0.41889274 -0.0054860297
0.038451917 -0.43530145 -0.0026346038
0.038964715 -0.44855401 -0.003460648
0.039510772 -0.46264821 -0.0044658035
0.040149152 -0.47888166 -0.0071366117
0.04073846 -0.49422565 -0.0074507426
0.041569799 -0.51635027 -0.0050259847
0.04226258 -0.53437209 -0.0055431845
0.043058679 -0.55492151 -0.0071306261
0.044134066 -0.58342218 -0.0048252223
0.04501275 -0.606399 -0.0048506628
0.046209581 -0.63705242 -0.0088020414
0.04618318 -0.63921767 0.0084405402
0.046057433 -0.63892728 0.026559269
0.0459392 -0.63869691 0.043862872
0.047136489 -0.67784631 0.091088347
0.025842447 -0.16770522 0.39530486
0.025707316 -0.16334087 0.3907015
0.025461869 -0.15657432 0.38901478
0.02483353 -0.078488939 0.036883056
0.02447819 -0.059589382 -0.019287683
0.025996089 -0.10479711 0.012946816
0.026433045 -0.11594639 0.011332638
0.027127432 -0.1320156 -0.00089020311
0.027557088 -0.14318079 -0.0012791811
0.027978042 -0.15419684 -0.0011999909
0.028380318 -0.16464537 -0.0015802169
0.028587407 -0.17020847 -0.000689301
0.029162267 -0.18516053 -0.0010936968
0.02953548 -0.1948934 -0.0011990569
0.029726792 -0.2001497 0.00032517189
0.030085025 -0.2094219 -0.00018204324
0.030438937 -0.21863841 -0.00034873676
0.030960755 -0.23216563 -0.00095652073
0.031132733 -0.23670621 -0.00066810183
0.03164275 -0.25008732 -0.0003108271
0.032441754 -0.27210319 0.0065169404
0.032826222 -0.28081325 -0.0014142257
0.033344265 -0.29413399 -0.0027303647
0.034028798 -0.31203157 -0.0027186009
0.034205627 -0.31660593 -0.0030103067
0.034395963 -0.32138279 -0.0042024995
0.035092842 -0.33977112 -0.0032118044
0.035447985 -0.34914541 -0.0026945507
0.03583879 -0.35919446 -0.0037265134
0.036233176 -0.36940503 -0.0043603675
0.036630481 -0.37976146 -0.0045861918
0.03703003 -0.39024752 -0.0043946649
0.037632048 -0.40618321 -0.0033058804
0.038082767 -0.41790169 -0.0037758504
0.038537387 -0.42981002 -0.003730159
0.039047662 -0.44298726 -0.0048249941
0.039563861 -0.45642495 -0.0053010671
0.040260658 -0.4751462 -0.0024691662
0.040813509 -0.48968053 -0.0021553664
0.041522082 -0.50780165 -0.0048157647
0.042147309 -0.52426064 -0.0043639224
0.043269858 -0.55344129 -0.0058099693
0.044104028 -0.57511681 -0.0069633201
0.044979542 -0.59797859 -0.0075246748
0.045861486 -0.62122893 -0.0067891846
0.04646742 -0.6382221 -0.00019364987
0.04628418 -0.63664073 0.019120064
0.04635014 -0.64216584 0.041857842
0.051712371 -0.77412176 -0.010397049
0.047471326 -0.68221581 0.10557482
0.026015382 -0.16395554 0.38989177
0.025771176 -0.15721591 0.38822728
0.024525436 -0.062737845 0.035282325
0.025031595 -0.075777836 0.033911973
0.025982186 -0.10201423 0.041536063
0.023047471 -0.0022664117 -0.091256469
0.026046421 -0.098887548 0.013511891
0.026502226 -0.11065909 0.012465929
0.026964115 -0.12282357 0.012790367
0.027400048 -0.1342532 0.012806155
0.027638048 -0.1383255 0.00014919123
0.028060343 -0.14937219 1.9868759e-05
0.028644169 -0.16423902 -0.002521289
0.029031336 -0.17423059 -0.0034263027
0.029248543 -0.18042889 -0.00045644364
0.029622998 -0.19019131 -0.00074340834
0.029986756 -0.19957316 -0.0016162446
0.030349964 -0.20916396 -0.0011742344
0.030704208 -0.21841444 -0.0013491049
0.03105369 -0.22759709 -0.0011868407
0.03156665 -0.24134901 0.00066905917
0.031901028 -0.25027487 0.0016555247
0.032878894 -0.27636749 0.0044887825
0.033261646 -0.28524193 -0.0022881567
0.033946786 -0.30305931 -0.0029069646
0.034465238 -0.3165997 -0.0030345896
0.034819525 -0.32581162 -0.0033685735
0.03517447 -0.33509782 -0.0033655681
0.035367753 -0.34001395 -0.0042045768
0.035757836 -0.34998718 -0.0055961665
0.036133949 -0.3598201 -0.005648151
0.036670286 -0.37419462 -0.0036186392
0.037245307 -0.38941461 -0.0025985423
0.037510961 -0.39595684 -0.0050671585
0.038115036 -0.41201109 -0.0036291115
0.038592473 -0.42433333 -0.0047050104
0.039075382 -0.436894 -0.0052224309
0.039739564 -0.45468065 -0.0028818243
0.040342201 -0.47008932 -0.0051663839
0.0408957 -0.48459953 -0.0051282439
0.041543279 -0.50132239 -0.0066282703
0.042229436 -0.51908338 -0.0079866676
0.042860065 -0.53578115 -0.0070030848
0.043990713 -0.56533986 -0.0075567611
0.044762772 -0.58571857 -0.0067926231
0.0457725 -0.61319691 -0.00085856882
0.046721868 -0.63821572 -0.00021878655
0.046716645 -0.64084506 0.016404469
0.046613269 -0.64104444 0.033917766
0.046774242 -0.64749891 0.047330093
0.047711991 -0.68055362 0.098099649
0.02636799 -0.16578756 0.39256918
0.026179561 -0.160262 0.38945648
0.025965732 -0.15416053 0.38687965
0.025142064 -0.070643879 0.035937391
0.025642192 -0.08355166 0.034936618
0.025997713 -0.090098038 0.018977726
0.026334662 -0.097685978 0.011877086
0.026794253 -0.10951418 0.010790509
0.027259998 -0.12173671 0.01107634
0.027175808 -0.11391428 -0.021667426
0.027757933 -0.13298374 0.00079676474
0.028185237 -0.14408766 0.00044114707
0.02877482 -0.15900175 -0.0024053252
0.029003715 -0.16542637 0.00020031263
0.029574959 -0.18006644 -0.0014211437
0.029946091 -0.18954346 -0.0026678448
0.030146381 -0.19517687 -0.00029844386
0.030508267 -0.20450562 -0.00098741241
0.030868703 -0.21401973 -0.00036043674
0.031393502 -0.22740209 -0.0021983965
0.031567615 -0.23214743 -0.0010092969
0.032081872 -0.24558444 -0.00089309533
0.032247577 -0.25016603 0.00063172163
0.032393269 -0.25508356 0.0072234562
0.03272713 -0.26353279 0.0056963568
0.03326061 -0.27639306 -0.00053953152
0.03360213 -0.28518745 -0.0013177404
0.033786133 -0.28969631 -0.0030881336
0.034119703 -0.29852918 -0.0024010201
0.034638081 -0.31201333 -0.0027713857
0.034992192 -0.32118359 -0.0032718675
0.035347197 -0.3304342 -0.0034379347
0.035880283 -0.34443387 -0.0030492351
0.036252905 -0.35413057 -0.0033124106
0.036627024 -0.36392987 -0.0032036554
0.037022002 -0.37418267 -0.0036469169
0.037419576 -0.38457373 -0.0036785116
0.037863474 -0.39594492 -0.0050953543
0.038289655 -0.40708572 -0.0051334766
0.038871307 -0.42280301 -0.002146828
0.039199702 -0.43083403 -0.0054891109
0.039712328 -0.44407016 -0.006546522
0.040380545 -0.46202785 -0.0037456756
0.041045669 -0.47885478 -0.0072209253
0.041604158 -0.49355078 -0.0067740954
0.042463213 -0.51632357 -0.0051103821
0.043123003 -0.53363353 -0.004926078
0.043949399 -0.55489492 -0.0072151283
0.045022544 -0.58339572 -0.0049097952
0.045865487 -0.60558057 -0.004325808
0.046990443 -0.63458765 -0.007142385
0.047066715 -0.63919157 0.0083558466
0.046939485 -0.63890135 0.026474632
0.046819825 -0.6386711 0.043778293
0.047594912 -0.66759872 0.095044889
0.02656311 -0.16331725 0.39062169
0.026347302 -0.15719877 0.38817397
0.02536165 -0.069261491 0.034462225
0.025676662 -0.077790134 0.036067959
0.025123317 -0.054258633 -0.016343437
0.026363086 -0.091720454 0.012596685
0.026842918 -0.10419321 0.012054996
0.02711937 -0.11177748 0.014059386
0.027564358 -0.12334591 0.013579614
0.027990226 -0.13199313 -0.00096825772
0.028419262 -0.14315836 -0.0013571585
0.02865856 -0.14980358 0.00086087239
0.029241253 -0.16462304 -0.0016580395
0.029627627 -0.17458239 -0.0025495968
0.030021958 -0.18513829 -0.0011713632
0.030394591 -0.19487119 -0.0012766452
0.030580882 -0.19984256 -0.00071088533
0.031117842 -0.21378134 -0.0013572475
0.031294625 -0.21839887 -0.0014021863
0.031817675 -0.23197751 -0.0020199115
0.032160979 -0.24107021 -0.0013664895
0.032326259 -0.2458093 0.001069434
0.032484565 -0.25055015 0.0045884997
0.033121586 -0.2678813 0.0085176462
0.033847153 -0.28518391 -0.0013417953
0.034031115 -0.28969276 -0.0031121774
0.034364522 -0.29852563 -0.0024250441
0.034870662 -0.31186321 -0.0018062425
0.035059512 -0.31658411 -0.003087075
0.035413977 -0.32579607 -0.0034210028
0.035946708 -0.33974931 -0.0032885196
0.036140695 -0.34469619 -0.0040370161
0.036692679 -0.35917264 -0.0038031803
0.037067734 -0.36903438 -0.0035000222
0.037325345 -0.37527445 -0.0064629922
0.038039941 -0.39465392 -0.0024102491
0.038307793 -0.40126961 -0.0047489088
0.038936682 -0.41787988 -0.0038523553
0.039391305 -0.42978817 -0.0038066274
0.039875265 -0.44241488 -0.0040670652
0.040445227 -0.45698243 -0.0061920546
0.040967129 -0.47068119 -0.0060118525
0.041463375 -0.48394933 -0.0044074939
0.042376075 -0.50777984 -0.0048919618
0.043095089 -0.5263375 -0.0065817642
0.044091467 -0.55268347 -0.0052097198
0.044924963 -0.57433587 -0.0063890875
0.045833599 -0.59795672 -0.0076005016
0.046784315 -0.62281221 -0.008056039
0.047251001 -0.63655448 0.00086505071
0.047136795 -0.63661879 0.019044358
0.047065604 -0.63758719 0.035900578
0.052713044 -0.7776432 -0.012322332
0.048319548 -0.68219352 0.10549916
0.026829671 -0.16331039 0.39059418
0.026614325 -0.15719189 0.38814643
0.025394006 -0.062714763 0.035199665
0.025734579 -0.0720089 0.037332363
0.026993096 -0.10503758 0.037691537
0.027096741 -0.10302319 0.010399107
0.027374297 -0.110636 0.01238343
0.027821703 -0.12226254 0.011865051
0.028056156 -0.12853758 0.012652213
0.028499713 -0.13782452 -0.00081158429
0.028923795 -0.14890212 -0.00095698686
0.029338812 -0.15982081 -0.00064016855
0.029735565 -0.17017852 -0.00079600909
0.029946933 -0.17604412 0.0011416929
0.030499604 -0.19016811 -0.00082563265
0.03104068 -0.20395756 -0.0029678536
0.03122755 -0.20914072 -0.0012563961
0.031582281 -0.21839117 -0.0014312366
0.031759121 -0.2231921 -0.00041223929
0.032276973 -0.23667645 -0.0007744375
0.032618213 -0.24557295 -0.00094661221
0.032942228 -0.25475374 0.0031826976
0.033266209 -0.26347661 0.0046439432
0.033409249 -0.2678735 0.00848844
0.033968363 -0.28078356 -0.0015203741
0.034828149 -0.30303589 -0.0029887997
0.035181653 -0.31214848 -0.0038137394
0.035536502 -0.3213532 -0.0043084943
0.036055043 -0.33507448 -0.0034471585
0.036426257 -0.34468845 -0.0040662191
0.036781888 -0.35411924 -0.0033655011
0.037174188 -0.36425102 -0.0041996646
0.037706856 -0.37858805 -0.0019193105
0.03796776 -0.38495985 -0.0046489062
0.038389891 -0.39593369 -0.0051482925
0.038838658 -0.40753487 -0.0060738237
0.039470512 -0.42431024 -0.0047859363
0.039927207 -0.43633503 -0.0044593508
0.040440086 -0.44964591 -0.0052469247
0.041190676 -0.46945897 -0.0044530947
0.041801233 -0.48521128 -0.0059809224
0.04241934 -0.50129944 -0.0067086467
0.043166921 -0.52043456 -0.0095189214
0.043875277 -0.54021001 -0.0024799942
0.044799775 -0.56382185 -0.0063100648
0.045636833 -0.5856958 -0.0068724188
0.046548381 -0.60953003 -0.0074254279
0.04755915 -0.63737017 0.00026893948
0.04758703 -0.64082235 0.016325049
0.047481671 -0.64102173 0.033838354
0.047640987 -0.6474762 0.047250725
0.04800408 -0.66649723 0.1032867
0.027177554 -0.16576606 0.3924877
0.026989292 -0.16024053 0.38937497
0.026775651 -0.15413909 0.38679814
0.025985138 -0.071313798 0.036580831
0.026462078 -0.083532937 0.034855422
0.026835807 -0.090702452 0.019678626
0.026957253 -0.092925154 0.014126674
0.027611263 -0.10949579 0.010709522
0.027899088 -0.11756761 0.013698948
0.027966067 -0.11287975 -0.023470569
0.028571758 -0.13296558 0.00071595458
0.028997337 -0.14406958 0.00036041628
0.029403668 -0.15459205 -0.00043125419
0.029812383 -0.16540846 0.00011973506
0.030203216 -0.17567079 0.00018502084
0.030750819 -0.18952575 -0.0027482454
0.030950038 -0.19515921 -0.00037880533
0.03131032 -0.20448804 -0.0010677052
0.031669036 -0.21400222 -0.00044066034
0.032192029 -0.22756799 -0.0012954565
0.032536771 -0.23652181 -0.0017897773
0.032876417 -0.24556722 -0.00097308622
0.033041179 -0.25014883 0.00055176381
0.033349484 -0.25931111 0.0068424074
0.033845264 -0.27205801 0.0053844638
0.03438988 -0.2851705 -0.0013974478
0.034564774 -0.28961954 -0.0021696398
0.034916397 -0.29860684 -0.0034761301
0.035423473 -0.3119964 -0.002851014
0.035776779 -0.32116669 -0.0033514691
0.035967715 -0.32598078 -0.0044566905
0.036662746 -0.34441704 -0.0031287703
0.036856905 -0.34939301 -0.0037859005
0.037248261 -0.35947534 -0.0048073479
0.037643127 -0.36971885 -0.0054295864
0.038198385 -0.38455695 -0.0037579294
0.038619079 -0.39549902 -0.0042717555
0.039066412 -0.407069 -0.0052128248
0.03951842 -0.41884887 -0.0056495192
0.039974209 -0.43081734 -0.0055683851
0.04060927 -0.44794536 -0.002799463
0.041151952 -0.46201125 -0.0038248526
0.041815516 -0.47883824 -0.0073000398
0.042342924 -0.49288619 -0.0060921665
0.043229192 -0.51630712 -0.0051893713
0.043887187 -0.53361714 -0.0050050057
0.044711422 -0.55487859 -0.0072939736
0.045379981 -0.57280505 -0.0051442436
0.046622001 -0.60556442 -0.0044044675
0.047709204 -0.63375872 -0.0066394638
0.047783941 -0.6383428 0.0088299876
0.047655702 -0.63803363 0.026919333
0.04757135 -0.63865477 0.043699656
0.048304182 -0.66665286 0.095333613
0.027384114 -0.16329566 0.39053866
0.027169444 -0.15717714 0.38809091
0.026062312 -0.065504529 0.037994456
0.026709311 -0.081534997 0.032581791
0.026199028 -0.058920939 -0.020232432
0.027531929 -0.10004 0.014980453
0.028177533 -0.11645366 0.012003573
0.029314917 -0.15149356 0.041946936
0.029284416 -0.14313571 -0.001441387
0.029704096 -0.15415181 -0.0013621204
0.030114399 -0.16499995 -0.00082559133
0.030320099 -0.17054702 7.2197181e-05
0.030884823 -0.18511565 -0.0012556046
0.031256974 -0.19484855 -0.0013608926
0.031622808 -0.20447899 -0.0010963846
0.031979315 -0.21375871 -0.0014415088
0.032331258 -0.2229768 -0.0014471558
0.0325059 -0.22774215 -0.00034107539
0.032677893 -0.23245317 0.00085415301
0.033188317 -0.24567237 -8.3381592e-06
0.033676494 -0.25911537 0.0038195685
0.03381319 -0.26368561 0.0095837535
0.034185056 -0.27200916 0.001356053
0.034713414 -0.2852037 -0.0024251745
0.035221152 -0.29850307 -0.0025093162
0.035561781 -0.30743599 -0.0025056242
0.03607741 -0.32097667 -0.0023965829
0.036267556 -0.32577366 -0.0035051361
0.036798693 -0.33972698 -0.0033725831
0.03699217 -0.34467387 -0.0041210558
0.03752429 -0.35883445 -0.0029385241
0.037757583 -0.36456895 -0.0051973597
0.038311474 -0.37933618 -0.0038224626
0.038730387 -0.39020362 -0.0045550736
0.039153017 -0.40124756 -0.0048326845
0.039755672 -0.41736689 -0.0030652701
0.040233366 -0.42976627 -0.0038902792
0.040715992 -0.44239306 -0.0041506658
0.041257214 -0.45638135 -0.0054609925
0.041805007 -0.47065949 -0.0060953447
0.042443786 -0.48834094 -0.00079309574
0.04314914 -0.50640982 -0.0034995456
0.04409929 -0.5314728 -0.0029281054
0.044780884 -0.54816031 -0.010113461
0.045686144 -0.57279646 -0.0051719458
0.046658736 -0.59793556 -0.0076835742
0.047503896 -0.62038344 -0.0063523701
0.048036817 -0.63571066 0.001349234
0.047956288 -0.63659781 0.01896143
0.047847785 -0.63670588 0.036326017
0.048606578 -0.65892237 0.049579464
0.049090534 -0.68123126 0.10575115
0.027728947 -0.16575173 0.39243409
0.027433811 -0.15717088 0.38806525
0.026734674 -0.075734317 0.033749752
0.027663458 -0.10133423 0.040603019
0.024713945 -0.00035422723 -0.09376514
0.027732754 -0.098248832 0.012546566
0.028205156 -0.11061577 0.012304001
0.028666142 -0.12278029 0.012628535
0.029046735 -0.13217717 0.0091998791
0.029328015 -0.13780445 -0.00089087454
0.029750826 -0.14888211 -0.0010362295
0.030344976 -0.16419594 -0.0026827769
0.030560108 -0.17015861 -0.000875158
0.030947981 -0.18038586 -0.0006178036
0.031493481 -0.19424051 -0.0032915133
0.031689506 -0.19981514 -0.00081889547
0.032047484 -0.20912103 -0.0013353626
0.032401107 -0.21837153 -0.0015101581
0.032922599 -0.23195021 -0.0021278567
0.033431523 -0.24566777 -3.1966101e-05
0.033592544 -0.25032902 0.0024900085
0.033906031 -0.25929737 0.0067901281
0.034407653 -0.27203438 0.0043322835
0.03461235 -0.27636993 -0.0016714896
0.034955431 -0.28519917 -0.0024488952
0.035639293 -0.30301663 -0.0030676029
0.036143973 -0.31639332 -0.0022087458
0.036510233 -0.32576904 -0.0035290907
0.036701851 -0.33061877 -0.0045464821
0.03705734 -0.33997142 -0.0043650214
0.0376077 -0.35439941 -0.0043984023
0.037981767 -0.36423185 -0.0042786226
0.038376637 -0.37451738 -0.0047096401
0.038774006 -0.38494071 -0.0047279228
0.039350484 -0.40035325 -0.0030664306
0.03979769 -0.41196892 -0.0037892256
0.040274017 -0.42429119 -0.0048650694
0.040729813 -0.43631601 -0.0045385212
0.041268583 -0.45019194 -0.0061507472
0.041934207 -0.46822527 -0.0029445358
0.042629268 -0.48582709 -0.0068324506
0.043186907 -0.50061935 -0.0060384399
0.043993868 -0.52110273 -0.010324329
0.044701401 -0.54091531 -0.0032485058
0.045559265 -0.56305552 -0.0057263062
0.046493948 -0.58721781 -0.008225577
0.047501598 -0.61476082 -0.002209031
0.048344374 -0.63735175 0.00018917344
0.048264753 -0.63827753 0.017859457
0.048193093 -0.63928252 0.03477513
0.048423167 -0.6474579 0.047170766
0.048744146 -0.66554356 0.10355755
0.027989808 -0.16513994 0.39320025
0.027831061 -0.16022174 0.38929367
0.027618743 -0.15412025 0.38671684
0.026858199 -0.070601992 0.035774872
0.027314786 -0.082183808 0.033277422
0.0275748 -0.087321304 0.023612097
0.028503221 -0.10947254 0.010627817
0.02895084 -0.12115731 0.010070724
0.028860398 -0.11285606 -0.023552332
0.030067377 -0.14842582 -0.0019603802
0.030471765 -0.15896058 -0.0025682859
0.030698543 -0.16538531 3.7312115e-05
0.031080399 -0.1752803 -0.00082761422
0.03146337 -0.18543625 -0.00036732413
0.031832732 -0.19513616 -0.00046163297
0.032366935 -0.20886047 -0.002333889
0.03254706 -0.21374479 -0.0014959185
0.032898691 -0.22316332 -0.00052198884
0.033243068 -0.23210716 -0.0011727433
0.033753209 -0.24554434 -0.0010566419
0.03391733 -0.250126 0.00046813919
0.034224141 -0.2592884 0.0067586424
0.034387238 -0.26353779 0.006531653
0.034922291 -0.27635336 -0.00070332072
0.035269339 -0.28519019 -0.0024805495
0.035775002 -0.29848969 -0.0025648635
0.035950106 -0.30300781 -0.003099387
0.036289532 -0.31197396 -0.0029353034
0.036477864 -0.31671208 -0.0042134458
0.036993425 -0.33039501 -0.0036019548
0.037522435 -0.34439486 -0.0032133339
0.037715662 -0.34937087 -0.003870507
0.038263593 -0.36389104 -0.003367865
0.038655676 -0.37414393 -0.003811185
0.039205018 -0.38895082 -0.0018807662
0.039468877 -0.39547729 -0.0043567619
0.039890785 -0.40658697 -0.0044105113
0.040363826 -0.4188273 -0.0057347352
0.040967666 -0.4352363 -0.0028834366
0.041475702 -0.44848904 -0.0037095898
0.041988999 -0.46199003 -0.003910461
0.042649686 -0.47881711 -0.0073858113
0.043347508 -0.49796686 -0.0030732739
0.044056218 -0.51628631 -0.0052754986
0.044742562 -0.53430837 -0.0057928562
0.045531549 -0.55485803 -0.0073804832
0.046562899 -0.58258891 -0.0044385134
0.047364768 -0.60396016 -0.0032724589
0.048584219 -0.63536447 -0.0078897122
0.048552562 -0.63749045 0.0092953769
0.04842234 -0.6371628 0.02735533
0.048335969 -0.63776642 0.044105615
0.049057946 -0.66570526 0.095613517
0.028459754 -0.17001759 0.3918449
0.028215548 -0.16327938 0.39045927
0.027972259 -0.15651275 0.38877261
0.026918937 -0.065484501 0.037917677
0.027376551 -0.077071533 0.035170276
0.027188366 -0.063261338 -0.014835021
0.02808273 -0.091677718 0.01243554
0.028559227 -0.10415059 0.011893762
0.029040119 -0.11698639 0.012759835
0.029700566 -0.13195065 -0.00112967
0.030126618 -0.14311598 -0.0015186488
0.030543933 -0.15413219 -0.001439458
0.030951867 -0.16498043 -0.00090300315
0.031156315 -0.17052756 -5.253055e-06
0.031717934 -0.18509631 -0.0013331479
0.031912331 -0.19045207 -1.0487658e-05
0.032272834 -0.19980074 -0.00087277341
0.032806125 -0.21373965 -0.0015192325
0.033154931 -0.22275743 -0.0025046144
0.033500902 -0.23210208 -0.0011959062
0.033841938 -0.24102877 -0.0015286658
0.034176882 -0.25002402 -0.00055017672
0.034497079 -0.2590346 0.0027435063
0.034788586 -0.26786757 0.0093548838
0.035170402 -0.2763409 0.00027385299
0.03535068 -0.28075033 -0.0016535327
0.035690308 -0.28959197 -0.0022764925
0.035864856 -0.29407126 -0.0029697046
0.03636872 -0.30741772 -0.0025839843
0.036881752 -0.3209585 -0.0024750773
0.037071053 -0.32575551 -0.0035836776
0.037438534 -0.33527392 -0.0045532184
0.037951697 -0.34908333 -0.0029340349
0.038180459 -0.35468549 -0.0054071047
0.03873105 -0.36934319 -0.0045999037
0.039281026 -0.38413292 -0.0029479072
0.03967597 -0.39461422 -0.0025732808
0.040095344 -0.40566146 -0.0026580952
0.040565912 -0.41784045 -0.0040155184
0.040991612 -0.4292278 -0.0031167362
0.041523509 -0.44292629 -0.0050647291
0.042035799 -0.45636415 -0.0055408385
0.042783823 -0.4763279 -0.0042753387
0.04336359 -0.49156436 -0.0046782894
0.04394836 -0.50706726 -0.0043178014
0.044692528 -0.5262993 -0.0067456048
0.045616426 -0.55117375 -0.0040211645
0.046409383 -0.57202101 -0.0046027955
0.047410313 -0.59791934 -0.0077648372
0.048422456 -0.62438029 -0.0094116917
0.048780542 -0.6356948 0.0012675858
0.048663259 -0.63574004 0.019417843
0.048553068 -0.63583004 0.036752682
