# .PCD v0.7 - Point Cloud Data file format
VERSION 0.7
FIELDS x y z
SIZE 4 4 4
TYPE F F F
COUNT 1 1 1
WIDTH 1385
HEIGHT 1
VIEWPOINT 0 0 0 1 0 0 0
POINTS 1385
DATA ascii
0.15609607 -0.52616799 0.012834677
0.1582074 -0.52443588 0.014097154
0.16274463 -0.51729864 0.01205191
0.16684684 -0.51315272 0.013783934
0.17223071 -0.50718457 0.012448826
0.17549816 -0.50588757 0.013251638
0.17713603 -0.50442076 0.014471721
0.18107228 -0.50042295 0.01003491
0.17907438 -0.49903333 0.011625736
0.18277581 -0.49733019 0.012842903
0.18910053 -0.49100864 0.010579623
0.18851739 -0.48997411 0.011703004
0.19165075 -0.48836389 0.012944752
0.19734958 -0.48174149 0.011369667
0.19932717 -0.47826663 0.014780014
0.20193294 -0.4782235 0.014497353
0.20429549 -0.47296152 0.012161343
0.20783043 -0.47211337 0.012641556
0.21195373 -0.46691585 0.010151968
0.21635458 -0.46321827 0.013712609
0.21741556 -0.45896739 0.010744114
0.22137281 -0.45770368 0.011709249
0.042941179 -0.64290702 0.01562215
0.046101317 -0.64149302 0.016099041
0.048252489 -0.63813788 0.017949181
0.051046796 -0.63567913 0.019148499
0.052537661 -0.63437629 0.019779485
0.059113152 -0.62556142 0.015828682
0.062763169 -0.62237209 0.017470639
0.06573426 -0.62123066 0.017844006
0.064932242 -0.61874157 0.019584455
0.068025626 -0.61846125 0.019390536
0.075359032 -0.61032045 0.015285748
0.073579095 -0.60954642 0.016040567
0.077386223 -0.60744995 0.016985474
0.079117849 -0.60446912 0.018823568
0.082246818 -0.60371274 0.018968329
0.087190956 -0.59577918 0.015397852
0.089258164 -0.59370077 0.016614674
0.092385933 -0.59244722 0.017098276
0.094854109 -0.58864778 0.019431192
0.096728303 -0.5883103 0.019378209
0.10282857 -0.58127612 0.015498367
0.10403666 -0.5792436 0.016850624
0.10680188 -0.57768053 0.017670676
0.10918454 -0.57471555 0.019562911
0.11351888 -0.56907344 0.015084499
0.11584219 -0.56683594 0.01649604
0.11815718 -0.56327528 0.018926067
0.12495242 -0.55538404 0.016184511
0.12756526 -0.55532765 0.015918516
0.12847769 -0.55249017 0.018058795
0.13203678 -0.55091965 0.018861685
0.1332767 -0.54737711 0.017583877
0.13849378 -0.5424391 0.016957443
0.14075741 -0.54254973 0.016606193
0.14244327 -0.53903693 0.019287067
0.14840342 -0.53196001 0.016644031
0.15087041 -0.53076613 0.017362081
0.15326871 -0.5287357 0.018796004
0.15826839 -0.52206492 0.0161923
0.16202684 -0.5186609 0.018733108
0.16752195 -0.51123786 0.01701387
0.17011134 -0.51211232 0.015933055
0.16921018 -0.50917739 0.018698817
0.17170615 -0.50857353 0.018965639
0.17834051 -0.50185031 0.016751222
0.18219715 -0.49905109 0.01893466
0.18458983 -0.49320126 0.016655087
0.18757132 -0.49285904 0.016631361
0.19054855 -0.4909479 0.018140838
0.18919243 -0.48955309 0.019695058
0.19194053 -0.48822641 0.01814129
0.19549271 -0.485643 0.015270736
0.19402677 -0.48461518 0.01647998
0.19737753 -0.48307267 0.017660489
0.20300846 -0.47665325 0.016020779
0.20257264 -0.47408271 0.018772928
0.20644206 -0.47376868 0.018633047
0.21163888 -0.46807474 0.016575841
0.22203217 -0.4543187 0.015576028
0.039398182 -0.64632845 0.022891309
0.041000586 -0.6455884 0.023197168
0.04309807 -0.64390492 0.023965275
0.052830845 -0.6332708 0.020449197
0.056372534 -0.63112003 0.021361668
0.054579176 -0.62968814 0.022494353
0.058171161 -0.62774754 0.023286466
0.060488019 -0.62533021 0.024531353
0.067678422 -0.61673516 0.020571459
0.071011327 -0.61526603 0.021134263
0.072415486 -0.61217523 0.02299084
0.074958131 -0.60933548 0.024546249
0.076875001 -0.60928845 0.024326794
0.082774356 -0.60164183 0.020321237
0.085681953 -0.60020256 0.020944905
0.084461823 -0.59858429 0.02220952
0.087992378 -0.59662205 0.023117675
0.091672391 -0.59401745 0.024442315
0.09743695 -0.58612192 0.020835806
0.099350967 -0.58364564 0.02239231
0.10205699 -0.58207625 0.023252828
0.10306044 -0.57952487 0.024946466
0.10805454 -0.57314247 0.020886889
0.11183 -0.57167423 0.021485057
0.11337691 -0.56846654 0.023672072
0.11646841 -0.56691778 0.024421128
0.1222484 -0.5605402 0.020531613
0.12363225 -0.55879313 0.02170592
0.12594667 -0.55688679 0.022882253
0.12690401 -0.55448884 0.024607528
0.13336213 -0.54763144 0.021316588
0.13646568 -0.54690325 0.021489261
0.13766944 -0.54335374 0.024159092
0.14000903 -0.54251432 0.024532355
0.14358874 -0.53631514 0.021391593
0.14588976 -0.53600192 0.021368938
0.14771596 -0.53297883 0.023636986
0.15084216 -0.53229547 0.02381633
0.15458624 -0.52612686 0.020867106
0.15669748 -0.5253126 0.021299856
0.15488225 -0.52384311 0.022782102
0.15786539 -0.52240115 0.023639178
0.16040044 -0.5214321 0.024167033
0.16353211 -0.51622808 0.020682594
0.1676487 -0.51269102 0.023300372
0.17360683 -0.50594616 0.021111805
0.17746246 -0.50255251 0.023756638
0.1833467 -0.49678874 0.020932866
0.18696973 -0.4936462 0.023463251
0.19265679 -0.48714283 0.021627832
0.19479656 -0.48374683 0.024726497
0.19688374 -0.48314902 0.023232426
0.19986996 -0.47926557 0.02122581
0.20204473 -0.47772026 0.022509227
0.20772119 -0.4721472 0.022036478
0.20918351 -0.46878606 0.023539837
0.21454006 -0.4619402 0.022896741
0.21778353 -0.46244064 0.021941667
0.21931505 -0.45981663 0.024648773
0.043348461 -0.64155275 0.025356755
0.045069501 -0.6406576 0.025655862
0.047749143 -0.63860089 0.026572021
0.050536852 -0.6365425 0.02747024
0.052748881 -0.6336441 0.028948868
0.062709637 -0.62202346 0.026352758
0.066117577 -0.62041241 0.026944041
0.064317115 -0.61933678 0.02786007
0.067853339 -0.61713934 0.028812682
0.077680282 -0.60607362 0.026350895
0.080896914 -0.60502928 0.026663087
0.079886429 -0.60255116 0.028417069
0.082624577 -0.60221225 0.028305044
0.082430646 -0.59999061 0.029797956
0.086096451 -0.59907866 0.02994881
0.092393905 -0.59196329 0.025742864
0.095054775 -0.5900647 0.026646592
0.097525902 -0.5865894 0.028660756
0.10482717 -0.57786393 0.025917465
0.10705513 -0.57680082 0.026400659
0.10906792 -0.57370585 0.02835907
0.11057608 -0.57286024 0.02876474
0.11605133 -0.56572002 0.02535326
0.11809532 -0.56358111 0.026672777
0.12155201 -0.56173396 0.027626133
0.12331305 -0.55939001 0.029145567
0.12562867 -0.55826741 0.029692488
0.12922807 -0.55244994 0.025877537
0.13171172 -0.55120444 0.026530934
0.13308887 -0.54839563 0.028511088
0.13557588 -0.54661924 0.029560929
0.13892536 -0.54176444 0.025272612
0.14102606 -0.54093128 0.025679117
0.14296146 -0.53763098 0.028065717
0.14602217 -0.53612405 0.028909061
0.14858629 -0.53264952 0.02760197
0.15121257 -0.5307411 0.025053009
0.14970469 -0.52923232 0.026489999
0.15279432 -0.52794862 0.02715751
0.15580168 -0.52562398 0.028707096
0.15668462 -0.52444577 0.029567419
0.15925375 -0.51994014 0.025563573
0.16217123 -0.51819146 0.026680108
0.16519722 -0.51675677 0.027532909
0.16686544 -0.51405978 0.029637154
0.16934949 -0.50922102 0.026189724
0.17255327 -0.50736606 0.027421977
0.17513959 -0.50607651 0.028225942
0.17397277 -0.50462449 0.029670296
0.17742755 -0.50205553 0.027166244
0.1809642 -0.50008702 0.025605509
0.17919958 -0.49864411 0.027129276
0.18274528 -0.49746454 0.027762705
0.1881095 -0.49186617 0.02684363
0.19252639 -0.4876076 0.028514463
0.19737759 -0.48148313 0.026645778
0.20078723 -0.48009107 0.027587146
0.20380768 -0.47498834 0.025082143
0.20794113 -0.47232988 0.027285993
0.21277674 -0.4672716 0.027124865
0.21372357 -0.46421531 0.027808234
0.21611592 -0.4631927 0.028566223
0.21899217 -0.45869303 0.025896141
0.22130311 -0.45773423 0.026629521
0.039937682 -0.647232 0.031149283
0.039273147 -0.64466459 0.032721017
0.042892173 -0.64275187 0.033434246
0.046463378 -0.64104939 0.033959791
0.047569264 -0.6392988 0.034840934
0.054871865 -0.63103223 0.03027438
0.05577556 -0.63016629 0.030692333
0.057700939 -0.62793708 0.03181887
0.062373195 -0.62332439 0.034056026
0.072519131 -0.6127528 0.031021213
0.074189991 -0.60855949 0.033472747
0.077263907 -0.60735792 0.033841353
0.083978236 -0.59884554 0.030354111
0.088062935 -0.59681123 0.031202838
0.0891307 -0.59373188 0.033103216
0.091665387 -0.59227377 0.033743273
0.10213583 -0.58168364 0.031564835
0.10423138 -0.5786218 0.033410024
0.108148 -0.57661843 0.034311093
0.11260706 -0.57037497 0.030309767
0.113594 -0.56899315 0.03116186
0.11699641 -0.56674021 0.032328498
0.11828977 -0.56399798 0.034121942
0.12049586 -0.56367451 0.034088999
0.12466975 -0.55668092 0.030980621
0.12680942 -0.55615395 0.03111518
0.12913965 -0.55256218 0.033484038
0.13082492 -0.55232012 0.03345377
0.1376669 -0.54550195 0.030133644
0.13752492 -0.54326737 0.031876851
0.1398218 -0.53990752 0.034165185
0.14219925 -0.53985626 0.033929881
0.1447362 -0.53459466 0.030256173
0.14820717 -0.53229386 0.03167687
0.15110871 -0.53053451 0.032718576
0.15238388 -0.52842492 0.034247369
0.15805721 -0.52235961 0.031119844
0.1608898 -0.52127755 0.031683359
0.15997303 -0.51974428 0.033053543
0.16205996 -0.51815581 0.034075752
0.16725902 -0.51215523 0.031217236
0.17008282 -0.51058722 0.032259732
0.17221148 -0.50824559 0.033956207
0.17791162 -0.50153905 0.03192088
0.1822174 -0.49864131 0.033962663
0.18324389 -0.4941287 0.030754663
0.18777142 -0.49231327 0.031861186
0.19546206 -0.4852114 0.03045301
0.19841059 -0.48194775 0.033198446
0.20342135 -0.47618786 0.031107461
0.20283383 -0.47363645 0.033667549
0.206889 -0.4731355 0.03366081
0.2118284 -0.46761227 0.031609707
0.21383044 -0.4646216 0.034398146
0.21691361 -0.46244222 0.032762356
0.21846858 -0.45895648 0.032770067
0.22199962 -0.45434526 0.03022301
0.040178429 -0.64753151 0.039645225
0.047670901 -0.63800299 0.035589565
0.049580261 -0.6345129 0.037398294
0.052854683 -0.63288993 0.037926245
0.056271553 -0.6304704 0.03891629
0.057424381 -0.62958229 0.039304383
0.06206879 -0.62091637 0.035563946
0.065574072 -0.62055069 0.035344955
0.064840302 -0.61970782 0.035950191
0.068108603 -0.61830783 0.036409691
0.072446615 -0.61271298 0.039286315
0.078279234 -0.60382366 0.035963338
0.082081862 -0.60217315 0.03656451
0.084313713 -0.59863067 0.038541403
0.086603597 -0.59737486 0.039056126
0.093728162 -0.58887577 0.035684381
0.097367391 -0.58699089 0.036398228
0.098658606 -0.58373111 0.03839048
0.10151374 -0.58186466 0.039367255
0.10596385 -0.57583845 0.035101306
0.10860904 -0.57331288 0.036514279
0.11171248 -0.57221651 0.036895406
0.1129807 -0.56942856 0.03865315
0.1156984 -0.56820595 0.039147943
0.11966468 -0.56205904 0.035330851
0.12196537 -0.56136346 0.035563212
0.12326054 -0.55775499 0.037975878
0.12647682 -0.55682606 0.038249623
0.12738216 -0.55456871 0.039751701
0.13327938 -0.54831463 0.03611977
0.13776413 -0.54560554 0.037546605
0.13721773 -0.54393506 0.038851924
0.14111637 -0.54183656 0.039931048
0.14315712 -0.53726059 0.035807393
0.14561622 -0.53660703 0.036012501
0.14765063 -0.53309155 0.038462505
0.15076353 -0.53213298 0.038820364
0.15278158 -0.52685064 0.035449211
0.15583694 -0.52573222 0.03596288
0.15470707 -0.52498519 0.036700249
0.15758501 -0.52348 0.037540827
0.1607576 -0.5206688 0.039388772
0.16403864 -0.51604831 0.035565346
0.16585544 -0.5157519 0.035590746
0.16486949 -0.5138489 0.037276816
0.16797049 -0.51262146 0.037915617
0.17103852 -0.51050055 0.039312482
0.17366841 -0.50630957 0.035418633
0.17598906 -0.50512701 0.036154982
0.17400613 -0.50440454 0.037008569
0.17796877 -0.50219488 0.038419198
0.1837483 -0.49617803 0.035941578
0.18754397 -0.49260727 0.038642038
0.19307174 -0.48668909 0.036380108
0.19480139 -0.4843345 0.038348436
0.19741905 -0.48272967 0.038361754
0.19996749 -0.47933662 0.035482783
0.2028401 -0.47745991 0.036893293
0.20385206 -0.47490939 0.039208464
0.20726369 -0.47276539 0.037449989
0.2091811 -0.46850789 0.037933633
0.21787235 -0.46193585 0.036637705
0.21875925 -0.45835915 0.037934277
0.039516937 -0.64580774 0.040674228
0.042746037 -0.64334321 0.041702341
0.047740545 -0.63840312 0.043828599
0.058553811 -0.62668365 0.040863007
0.062551476 -0.6229111 0.042583164
0.06739559 -0.6192171 0.044150826
0.07328523 -0.61042053 0.040582579
0.074498326 -0.60840338 0.041665208
0.076698646 -0.60766536 0.041831605
0.078797162 -0.60488898 0.043275293
0.081665955 -0.60275644 0.044242997
0.091774985 -0.59204394 0.04179794
0.093824252 -0.588691 0.043626979
0.096800439 -0.58665341 0.044465177
0.10283449 -0.58033705 0.04021709
0.10324666 -0.57908309 0.040993545
0.10661464 -0.57657403 0.042249117
0.10855771 -0.57334566 0.044143196
0.114493 -0.56658536 0.040409073
0.11697467 -0.56591272 0.040560704
0.11862049 -0.56418288 0.041541643
0.12143475 -0.56168991 0.042924281
0.12345871 -0.55937725 0.04426783
0.12863253 -0.5529114 0.040774114
0.13206956 -0.55100125 0.041719325
0.13346773 -0.54886484 0.043071147
0.1388233 -0.54068613 0.041057199
0.14266159 -0.53818822 0.042442992
0.14784135 -0.53444773 0.044582877
0.15296794 -0.52794319 0.041762259
0.15598826 -0.52579975 0.043041553
0.15873581 -0.52375317 0.04427873
0.16259281 -0.51746249 0.041699123
0.16588433 -0.5153352 0.042989243
0.16736156 -0.51405108 0.043832824
0.16834849 -0.509525 0.040421132
0.172773 -0.50759828 0.041473281
0.17749643 -0.50392854 0.043934163
0.18259843 -0.49761081 0.041767292
0.18988284 -0.48931509 0.041268129
0.19237359 -0.48801872 0.042112593
0.19887061 -0.47983962 0.041967336
0.20825681 -0.47190714 0.041508667
0.21480064 -0.46481073 0.040867206
0.22131011 -0.45791134 0.041927252
0.051737137 -0.63507253 0.045187991
0.075073637 -0.61020213 0.048496991
0.074069388 -0.60894036 0.049361952
0.075717963 -0.60933137 0.048916046
0.084351383 -0.59879738 0.046326324
0.086858638 -0.59594476 0.047769461
0.089767426 -0.5935635 0.048877724
0.091583759 -0.59266102 0.049189243
0.098816335 -0.58328044 0.04637539
0.10109867 -0.5819968 0.047007516
0.10344081 -0.57878923 0.048762456
0.10558404 -0.57790285 0.049066532
0.11296208 -0.57095563 0.045191314
0.13924515 -0.54370642 0.046013542
0.14967409 -0.53320384 0.045300551
0.15799223 -0.52284706 0.045063961
0.16978738 -0.51213443 0.045104675
0.077858441 -0.60626364 0.050457206
0.07838963 -0.60341126 0.052071244
0.081986114 -0.60212386 0.052404247
0.083303459 -0.59894425 0.054108206
0.088265479 -0.59698802 0.054656249
0.093405187 -0.59047735 0.050265122
0.093566455 -0.58862263 0.051369306
0.09605974 -0.58740479 0.051740792
0.098888218 -0.58350033 0.053769827
0.10079181 -0.58135366 0.054944791
0.10763712 -0.57549912 0.050347865
0.10843375 -0.57362795 0.051441789
0.073915564 -0.61017936 0.05649212
0.074649751 -0.60841829 0.057393469
0.075859696 -0.60708374 0.057984918
0.07823994 -0.60441828 0.059200823
0.080915809 -0.60349149 0.059417576
0.087257929 -0.59615242 0.055269353
0.088400729 -0.59411663 0.056325663
0.091228858 -0.59243494 0.056967765
0.093719192 -0.58879894 0.058740754
0.096386753 -0.58756322 0.059064865
0.10214789 -0.5804776 0.055314422
0.10324023 -0.57807237 0.056652647
0.10623584 -0.57656211 0.057218853
0.10872941 -0.57352459 0.058775268
0.11038432 -0.57306331 0.058848657
0.074110776 -0.61082357 0.063803911
0.074244842 -0.60949671 0.06450519
0.08192879 -0.60107428 0.060655419
0.082806692 -0.59866244 0.061904486
0.086885519 -0.59639585 0.06269563
0.088578314 -0.59353113 0.064105242
0.090816163 -0.59238607 0.064481296
0.095634885 -0.58557862 0.060340926
0.09851066 -0.58343482 0.061224412
0.10133958 -0.58181107 0.061938327
0.10345149 -0.57811117 0.063860923
0.10617482 -0.57676309 0.064325176
0.07429599 -0.60818154 0.065205432
0.076936468 -0.60591877 0.066095382
0.082484156 -0.60125548 0.067970835
0.084405154 -0.59828568 0.069344714
0.085558198 -0.59826261 0.069218881
0.092753254 -0.59058976 0.065224312
0.093911849 -0.5879429 0.066545017
0.096349657 -0.5862667 0.067124836
0.098753698 -0.58389294 0.068177722
0.10124047 -0.58256084 0.068720974
0.10739289 -0.57501864 0.065223329
0.10857925 -0.57369959 0.065841377
0.074314021 -0.60746765 0.07307025
0.075902864 -0.6071927 0.073008925
0.078866847 -0.60366744 0.074488357
0.081541918 -0.60316622 0.074436173
0.086549573 -0.59619075 0.070223413
0.088650569 -0.59423959 0.071024343
0.091644332 -0.59158617 0.072085597
0.093568213 -0.58839011 0.073537208
0.096454158 -0.58671629 0.074013293
0.098754831 -0.5847401 0.074841939
0.10318484 -0.57904488 0.070471756
0.10654009 -0.5762217 0.071661673
0.10805891 -0.57372516 0.072892033
0.073948793 -0.60987765 0.079262979
0.075444855 -0.60894525 0.079530872
0.081728607 -0.60103261 0.075520381
0.083697468 -0.59801674 0.076842561
0.08667922 -0.59659046 0.077230886
0.088572614 -0.59347749 0.07862056
0.091454342 -0.59176022 0.079150602
0.093995683 -0.58955687 0.079935767
0.098329745 -0.58298105 0.075803854
0.10153586 -0.58118826 0.076494291
0.10319684 -0.57834464 0.077837564
0.10625386 -0.57582229 0.078835763
0.10786603 -0.57425255 0.079500146
0.074537724 -0.60717547 0.080526233
0.077184334 -0.605681 0.080941215
0.07888516 -0.60260248 0.082280941
0.081183188 -0.6016559 0.082483701
0.083449051 -0.59874249 0.083657347
0.086506076 -0.59676892 0.084272534
0.093456946 -0.58846194 0.080573976
0.096188396 -0.58593738 0.081484899
0.098837346 -0.58300084 0.082707681
0.10138024 -0.58141577 0.083300941
0.10337059 -0.57849801 0.084578514
0.10551756 -0.57867265 0.084227689
0.10819012 -0.5725618 0.080380045
0.1107822 -0.57221174 0.080255374
0.073479429 -0.6118685 0.08564654
0.074209116 -0.60794061 0.087418176
0.076065093 -0.60669404 0.087773733
0.078354731 -0.60399544 0.088789552
0.080974706 -0.60237235 0.089261763
0.08639767 -0.59527928 0.085027158
0.088284723 -0.59380609 0.085535422
0.0911505 -0.59122741 0.086464263
0.093749493 -0.58792776 0.087733746
0.096779272 -0.58630067 0.088105075
0.09897361 -0.5833233 0.089358777
0.10070448 -0.58240688 0.089674428
0.10363828 -0.57694018 0.085353985
0.10607741 -0.57600445 0.085549377
0.10888621 -0.57328445 0.086628735
0.073463671 -0.61009717 0.093638755
0.073668107 -0.60827196 0.094439819
0.083029307 -0.59914595 0.090546571
0.086658247 -0.59653354 0.091359206
0.088094272 -0.5933435 0.092704028
0.091613822 -0.59114581 0.093309633
0.09339723 -0.58853537 0.094296835
0.095959261 -0.58695084 0.094677165
0.099124387 -0.58153796 0.090258911
0.10048702 -0.58062387 0.090585008
0.1032597 -0.57865345 0.091233961
0.106109 -0.57604009 0.09220051
0.10860064 -0.5733034 0.093262099
0.074792914 -0.60642266 0.095135063
0.076678179 -0.60569704 0.095232226
0.078518599 -0.60342872 0.096054345
0.080988981 -0.60219204 0.096331179
0.083265729 -0.59850031 0.097735256
0.086593509 -0.59592837 0.098510541
0.088536456 -0.59301919 0.099602863
0.091042466 -0.59195459 0.099782497
0.096548147 -0.58512563 0.095454998
0.098673113 -0.58292371 0.096282944
0.10121303 -0.58174604 0.096614487
0.10259367 -0.5790146 0.097748481
0.10627037 -0.57593471 0.098781712
0.10802714 -0.57391173 0.099538781
0.07423196 -0.60782427 0.10156258
0.076548934 -0.60578209 0.10216435
0.078867845 -0.60288835 0.10315025
0.081410095 -0.60109055 0.10363565
0.083487697 -0.59920931 0.10420173
0.086021915 -0.59778023 0.10452615
0.093296193 -0.58855009 0.10100657
0.09601178 -0.5861907 0.10168108
0.098287165 -0.58288449 0.10293113
0.10211325 -0.58093071 0.10344396
0.10324025 -0.57882428 0.10426463
0.10599456 -0.57660776 0.1049449
0.10917773 -0.5719617 0.10032085
0.11001116 -0.571343 0.10051777
0.072995678 -0.61065543 0.10743734
0.073780872 -0.60848165 0.10823646
0.076229349 -0.6061455 0.10889206
0.078437299 -0.60406333 0.10949952
0.084559411 -0.59689307 0.10507676
0.085564934 -0.5953486 0.10562929
0.089036472 -0.59294546 0.10626476
0.091339126 -0.59141511 0.10663737
0.093283124 -0.58824021 0.10773791
0.095927611 -0.58604932 0.1083059
0.097736463 -0.58390105 0.10902826
0.10023884 -0.58184963 0.10970654
0.1044334 -0.57573187 0.10553122
0.10520571 -0.57571322 0.10544154
0.10789231 -0.57365924 0.10607176
0.074012965 -0.60930651 0.11468172
0.079008952 -0.60220504 0.11020745
0.081596285 -0.60091525 0.11043603
0.083193377 -0.59860164 0.11120176
0.086440623 -0.59649992 0.11168715
0.088472448 -0.59302408 0.11288451
0.091065772 -0.59115261 0.11333866
0.093273126 -0.58823937 0.1142301
0.096551903 -0.58605921 0.11465523
0.099404968 -0.58095264 0.11017875
0.10117033 -0.58000273 0.11039496
0.10285858 -0.57844108 0.11087219
0.10588906 -0.57624179 0.11146937
0.10872173 -0.57262915 0.11270467
0.074489638 -0.60743487 0.115355
0.076763138 -0.60598594 0.11564898
0.078254379 -0.60300761 0.11664856
0.080502003 -0.60171568 0.11690328
0.083233386 -0.59810483 0.11799332
0.086339295 -0.59601086 0.1184538
0.088443786 -0.59317058 0.1193226
0.090855218 -0.59124833 0.1197809
0.098351039 -0.58270586 0.11586656
0.1008032 -0.58137947 0.11619865
0.1032393 -0.57810074 0.11726309
0.10620879 -0.57573187 0.11789776
0.10747516 -0.57293403 0.11890294
0.073530637 -0.60858727 0.12173283
0.075632773 -0.6068539 0.12211462
0.077947445 -0.60399008 0.12291585
0.080601729 -0.60112411 0.12368295
0.083382472 -0.59801787 0.12451189
0.085809484 -0.59726667 0.12450925
0.091808654 -0.59029424 0.12003029
0.092998102 -0.58862734 0.12051301
0.09620139 -0.58643496 0.12091319
0.098179691 -0.58314288 0.12199729
0.10048121 -0.58171678 0.12236432
0.1022654 -0.5784958 0.12341698
0.10536253 -0.57557774 0.1242
0.10695665 -0.57384157 0.12470561
0.074151687 -0.60807866 0.12845446
0.076645851 -0.60589993 0.12892227
0.077827401 -0.60328197 0.12971215
0.081062078 -0.60226542 0.12970787
0.086339541 -0.59537935 0.12514964
0.088237308 -0.59315318 0.12575798
0.091014244 -0.59081703 0.12629145
0.09386678 -0.58795631 0.12695603
0.095637351 -0.58669817 0.12717649
0.098230422 -0.58301419 0.12825048
0.10084758 -0.58052182 0.12895033
0.10350935 -0.57812893 0.12952735
0.10647049 -0.57619733 0.12991415
0.10890328 -0.57193774 0.1252141
0.080446601 -0.60039729 0.13043571
0.082987748 -0.59821987 0.13090257
0.086214595 -0.5958755 0.13135599
0.087978497 -0.59323126 0.13208237
0.091140389 -0.59166831 0.13224873
0.092936657 -0.58867222 0.1330573
0.095570296 -0.58682448 0.13333517
0.097802535 -0.58324409 0.13435341
0.10153265 -0.58075124 0.1348664
0.10454042 -0.57529879 0.13046125
0.10568307 -0.57527554 0.13033585
0.10852548 -0.57264072 0.1309907
0.073787548 -0.6076479 0.13517199
0.076063849 -0.60579312 0.13550971
0.078710914 -0.60282183 0.13620576
0.081083402 -0.60141468 0.13640612
0.083887503 -0.59756172 0.13735706
0.085112818 -0.59564191 0.13785495
0.087856017 -0.59395427 0.13810316
0.090744056 -0.59139782 0.13861033
0.093120217 -0.58798707 0.13941376
0.095619015 -0.58588058 0.13976651
0.097758397 -0.58301008 0.13748828
0.10168902 -0.58011806 0.13506863
0.10294139 -0.57821029 0.13559601
0.10580445 -0.57579851 0.1361192
0.10784514 -0.57292861 0.13689475
0.072958119 -0.61014771 0.14093858
0.074072689 -0.60789776 0.14150211
0.075743318 -0.60579234 0.1419583
0.077797212 -0.603499 0.14244728
0.081090294 -0.6009056 0.14289196
0.083382227 -0.59792632 0.14355612
0.08648476 -0.59578449 0.14387305
0.088192776 -0.59346443 0.14440191
0.091204964 -0.59129703 0.14471608
0.098208308 -0.58271259 0.14053738
0.10062366 -0.58105397 0.14087942
0.10352793 -0.5779649 0.14156917
0.10558502 -0.5762161 0.141913
0.1077622 -0.57320869 0.14266908
0.072641328 -0.61004722 0.14742635
0.073886164 -0.60762185 0.14798762
0.07576669 -0.60566062 0.14833423
0.078712039 -0.60292518 0.14881425
0.080947012 -0.60075295 0.14920253
0.082949556 -0.59831351 0.14968592
0.085576646 -0.59730178 0.14968237
0.093356155 -0.58805561 0.14543588
0.095429517 -0.5862447 0.14571118
0.09795361 -0.58312923 0.14642017
0.10095861 -0.5809027 0.14683238
0.10324522 -0.57799858 0.14747608
0.10538875 -0.575414 0.14804007
0.10838802 -0.57274443 0.14853506
0.074036084 -0.60785985 0.15420812
0.075638883 -0.60589468 0.15455627
0.076605432 -0.60458761 0.15480959
0.086170033 -0.5953697 0.15018518
0.088220872 -0.5932458 0.15057553
0.090615861 -0.59110743 0.15092017
0.092652291 -0.58785319 0.15159652
0.096214555 -0.58598882 0.15164796
0.098045081 -0.58308172 0.15232073
0.10050315 -0.58113146 0.1526916
0.10306224 -0.57772702 0.15339732
0.1058231 -0.57575548 0.1536666
0.10815427 -0.57304335 0.15419859
0.072802603 -0.61043179 0.15995266
0.078751065 -0.60221285 0.15522715
0.080359913 -0.60161448 0.15521331
0.083213516 -0.59821254 0.15581901
0.085966744 -0.59539419 0.15628172
0.087925404 -0.59299374 0.1567191
0.090525068 -0.59110361 0.15693332
0.092870794 -0.5880301 0.1574614
0.096084237 -0.5861268 0.15753111
0.097941309 -0.58308542 0.15820016
0.10057158 -0.58075929 0.15860327
0.10278054 -0.57817155 0.15906164
0.10602421 -0.57567686 0.15938509
0.10788535 -0.57387012 0.15966816
0.074014463 -0.60717636 0.1606399
0.076302849 -0.60551101 0.16079219
0.078351364 -0.602754 0.16127881
0.080830179 -0.60057032 0.16156492
0.082836673 -0.59826893 0.16192232
0.085687913 -0.59562701 0.16227728
0.088270359 -0.59282625 0.16270418
0.092449881 -0.58855993 0.16326866
0.095556743 -0.58600801 0.16349511
0.097976036 -0.58292717 0.16403201
0.10085665 -0.58075696 0.16432843
0.10250304 -0.57846463 0.16472566
0.10508063 -0.57680118 0.16485828
0.10908661 -0.57143772 0.16019338
0.073594995 -0.60800141 0.166676
0.075924195 -0.60561436 0.16696651
0.07822746 -0.60289675 0.1673627
0.080810033 -0.60030639 0.16769013
0.083156332 -0.59782338 0.16801217
0.086233862 -0.59508622 0.16831592
0.088680819 -0.59211379 0.16874711
0.091121756 -0.59010202 0.16892524
0.09326636 -0.58766621 0.16921446
0.095463775 -0.5854407 0.16944176
0.098064959 -0.58263439 0.16983661
0.10034644 -0.5811432 0.16999662
0.10406268 -0.5763365 0.16509566
0.10570209 -0.57582057 0.16504562
0.10802146 -0.57327133 0.16543712
0.073761836 -0.60720885 0.17297448
0.076888651 -0.60538071 0.17301129
0.078492686 -0.60261184 0.17344798
0.080285646 -0.60042828 0.17372909
0.083225831 -0.59757388 0.1740208
0.085968591 -0.5959118 0.17407651
0.087940991 -0.59310251 0.1744711
0.090668678 -0.59042823 0.17473814
0.092027724 -0.58892703 0.17488505
0.098794602 -0.58117431 0.17015213
0.10119712 -0.58015561 0.17013466
0.10351092 -0.57719564 0.17057526
0.1054708 -0.57521236 0.17082171
0.10769363 -0.57322139 0.17105019
0.073598221 -0.60806888 0.17890444
0.075696997 -0.60591459 0.17908669
0.078029647 -0.60311377 0.17940001
0.08132425 -0.6006456 0.17953414
0.082309209 -0.59880561 0.17978868
0.093353547 -0.58703345 0.17511794
0.095638871 -0.58540499 0.17515948
0.098425291 -0.58254832 0.17552227
0.1006301 -0.58093011 0.17567256
0.10288951 -0.57795769 0.1760675
0.10544097 -0.57595545 0.17621967
0.10749236 -0.5734722 0.17654108
0.072557159 -0.60933709 0.18485169
0.08459466 -0.59567976 0.18016061
0.087926492 -0.59288371 0.18035024
0.090433799 -0.59096867 0.18043953
0.093246467 -0.58762449 0.18073861
0.095431924 -0.58560187 0.1808438
0.097834267 -0.58326799 0.18106413
0.10096661 -0.5806064 0.18131363
0.099668682 -0.57964981 0.18165523
0.10295088 -0.57824194 0.18156406
0.10536388 -0.57562321 0.1818171
0.10816189 -0.57306027 0.18202573
0.073758669 -0.60717899 0.18510318
0.075634047 -0.60582614 0.18512882
0.078081891 -0.60282171 0.18541369
0.080096826 -0.60130441 0.18547304
0.082885385 -0.59808272 0.18574479
0.085192129 -0.59579033 0.18590638
0.087374248 -0.59365022 0.18605565
0.090450913 -0.59074491 0.18623132
0.092561848 -0.58861256 0.18633991
0.095394194 -0.58569098 0.18648994
0.097856283 -0.58293962 0.18674445
0.10042275 -0.58167291 0.18674649
0.10259332 -0.57809198 0.18715933
0.10508089 -0.5756833 0.18731958
0.10788056 -0.57333195 0.18744309
0.073796734 -0.60788548 0.19098185
0.077454768 -0.60376048 0.19125041
0.080417544 -0.60083795 0.19140813
0.082673557 -0.5980978 0.19160765
0.08541929 -0.59579909 0.19168144
0.08482565 -0.59482926 0.19190526
0.08807411 -0.59300023 0.1918465
0.090532333 -0.59074521 0.191928
0.092989512 -0.58793861 0.19206609
0.095321864 -0.58567995 0.19212122
0.096845843 -0.5839203 0.19224265
0.10009847 -0.58066559 0.19250315
0.10247615 -0.57853913 0.19258487
0.1056627 -0.57562977 0.19271511
0.10763876 -0.57336813 0.19286495
0.073437564 -0.60803688 0.19698027
0.075166672 -0.60582078 0.19710173
0.077958085 -0.60297298 0.19721781
0.080086447 -0.60077173 0.19730969
0.082480915 -0.59808022 0.19743817
0.085487843 -0.59571075 0.19745103
0.087639809 -0.59326082 0.19757339
0.090337172 -0.59064782 0.19764605
0.092861742 -0.58786035 0.19772165
0.095031261 -0.58557349 0.19776602
0.097999245 -0.58294392 0.19785348
0.10050005 -0.58053333 0.19797859
0.10314599 -0.57801026 0.19805121
0.10813435 -0.57329291 0.19819583
0.07334359 -0.60807538 0.20293355
0.075463519 -0.60564953 0.20299196
0.077847615 -0.60295153 0.20309293
0.080304436 -0.60058731 0.20313002
0.079768926 -0.59960532 0.20332086
0.083071284 -0.59765083 0.20320177
0.08543168 -0.59551936 0.20321819
0.087978363 -0.59273744 0.20329338
0.090455174 -0.59077388 0.2032582
0.092450075 -0.58798087 0.20335615
0.095825411 -0.585334 0.20323682
0.09830901 -0.58221316 0.20343502
0.1011028 -0.58029318 0.20340917
0.10311539 -0.57791179 0.20349231
0.10562462 -0.57524955 0.20356777
0.10786203 -0.57307756 0.20359381
0.073815815 -0.60706812 0.20891254
0.075415596 -0.60537744 0.20891392
0.077779286 -0.60284066 0.2089441
0.080867581 -0.60028881 0.20889519
0.083078206 -0.5972634 0.2089828
0.085770167 -0.595218 0.20891692
0.087919615 -0.59285253 0.20894311
0.093094148 -0.58778101 0.20886505
0.095554203 -0.58552653 0.20878167
0.097595938 -0.58316976 0.20884882
0.10017176 -0.58098012 0.20887513
0.10224412 -0.57835722 0.20893832
0.10804154 -0.57320726 0.20887882
0.072338283 -0.61004382 0.21468833
0.073889174 -0.60669136 0.21481872
0.075357661 -0.60549927 0.21475333
0.078041069 -0.60294944 0.21471696
0.082153425 -0.59831196 0.21469995
0.085206747 -0.59583092 0.2145967
0.084614612 -0.59485173 0.21475126
0.087275147 -0.59313148 0.21462272
0.090408869 -0.5907318 0.21448953
0.092741072 -0.58796602 0.21444003
0.095098719 -0.5856244 0.2143444
0.097928397 -0.58269525 0.21434553
0.10010239 -0.5805608 0.2143521
0.10312903 -0.57751638 0.21430302
0.10551566 -0.57547975 0.21424003
0.10816571 -0.57293493 0.21418178
0.09336789 -0.58715612 0.21994922
0.09543141 -0.58510482 0.21982628
0.097954601 -0.58289963 0.21977001
0.10064638 -0.58003241 0.21973655
0.10320387 -0.57742119 0.21965255
0.10747678 -0.5735541 0.21948619
0.073577508 -0.60754871 0.22064352
0.07568495 -0.60551041 0.22055428
0.077740699 -0.60306966 0.22052696
0.08057186 -0.60041422 0.22042745
0.082936846 -0.59748721 0.22038382
0.085137784 -0.59533679 0.22030883
0.087832242 -0.59278357 0.22020634
0.090426028 -0.59022737 0.22010265
0.091838971 -0.58844352 0.22005427
0.10406405 -0.57660824 0.22494034
0.10785607 -0.57341182 0.2247228
0.073625676 -0.60696477 0.22652352
0.077632636 -0.60308421 0.22631247
0.082430229 -0.59804046 0.22608736
0.087645225 -0.5928697 0.22581992
0.093049347 -0.58755767 0.22546799
0.097757012 -0.5827325 0.22522642
0.10187852 -0.57856297 0.22506647
0.10867193 -0.57208401 -0.0037143312
0.11017871 -0.57528239 0.0022149847
0.11062273 -0.57547635 0.010516102
0.13749385 -0.60010463 0.03903655
0.1424281 -0.60742271 0.041946732
0.13047376 -0.59261435 0.044489574
0.11913194 -0.58222318 0.044665281
0.11390056 -0.57509917 0.042334855
0.14460173 -0.60851765 0.048871115
0.13789672 -0.60120124 0.046143334
0.13258691 -0.59681404 0.049370371
0.12317759 -0.5863058 0.049218748
0.11647505 -0.58081186 0.045892153
0.11369474 -0.57603675 0.049276546
0.14264391 -0.60552496 0.050804634
0.13769396 -0.60194367 0.053414345
0.14097382 -0.60367817 0.05204023
0.13196348 -0.59510249 0.050458133
0.13808644 -0.59997356 0.054469272
0.12749989 -0.59154975 0.053083219
0.12322803 -0.58719724 0.052437764
0.12636061 -0.58921361 0.05459363
0.11835347 -0.58193779 0.052453656
0.12158778 -0.58401507 0.050804604
0.11267754 -0.57730496 0.052308641
0.11592729 -0.57932228 0.054355934
0.11142869 -0.57440656 0.050589427
0.14274448 -0.60680598 0.057714585
0.1450211 -0.6091637 0.056163371
0.14116977 -0.6045692 0.059098076
0.13356359 -0.5978266 0.056242537
0.1288646 -0.59353298 0.059232697
0.13099104 -0.59406644 0.058682684
0.12349875 -0.58690619 0.056285214
0.11844978 -0.58272195 0.059335884
0.12136977 -0.5838725 0.058322128
0.11245222 -0.57618684 0.056702033
0.14410987 -0.60820848 0.064317532
0.13731551 -0.60161889 0.061163954
0.13344686 -0.59729344 0.063980043
0.1364879 -0.59912127 0.062621951
0.12762891 -0.59066439 0.061002053
0.12348525 -0.58675849 0.063694671
0.12614098 -0.5885222 0.062384605
0.1168526 -0.58168244 0.060143735
0.11294448 -0.57675862 0.063525923
0.11651468 -0.57925129 0.06161226
0.14187366 -0.60641158 0.065512106
0.13775747 -0.60215193 0.068212703
0.1406997 -0.60311985 0.067360923
0.13070461 -0.59545463 0.065300167
0.12849236 -0.59181625 0.06753929
0.13164432 -0.59367484 0.06615632
0.12434812 -0.58857983 0.069782667
0.12592305 -0.58912808 0.069296457
0.11799896 -0.58189982 0.067074619
0.12128985 -0.58385193 0.065594226
0.11449551 -0.5787909 0.069260046
0.11589278 -0.57876003 0.069105126
0.11124182 -0.57378453 0.065472335
0.14317624 -0.60752243 0.072163835
0.14503184 -0.60733271 0.072040528
0.13871256 -0.6038906 0.074479826
0.14090687 -0.6038456 0.074247092
0.13384925 -0.5969274 0.071400397
0.13577256 -0.5983606 0.07043235
0.12872581 -0.59285635 0.074125685
0.13148773 -0.59491944 0.072733335
0.12249926 -0.58657223 0.071083434
0.11833622 -0.58186722 0.074115463
0.12125903 -0.58425665 0.07248389
0.11355445 -0.57620972 0.070836455
0.11107337 -0.57322478 0.072815061
0.14351733 -0.60776436 0.079256415
0.14532083 -0.60750163 0.079165675
0.13770431 -0.60123986 0.075925834
0.13248922 -0.59699512 0.07867264
0.13617375 -0.59859908 0.07743486
0.12744954 -0.59058154 0.075460196
0.1229115 -0.58701211 0.077841923
0.12586725 -0.58928585 0.076315068
0.12111593 -0.58363473 0.079807334
0.11309961 -0.57684308 0.077479951
0.11606754 -0.57845336 0.076239392
0.1122566 -0.57446241 0.078868344
0.14259695 -0.60575414 0.080324396
0.13793764 -0.60210752 0.082593791
0.14107843 -0.60444278 0.081125274
0.13352816 -0.59875822 0.084722348
0.13577138 -0.5990029 0.084346674
0.12768053 -0.5916394 0.081902526
0.13074784 -0.59425056 0.080241576
0.12379412 -0.58755922 0.08438506
0.12620078 -0.58899462 0.083389856
0.11839188 -0.58179611 0.081067733
0.12068605 -0.58276087 0.080304444
0.11331853 -0.57628566 0.084550157
0.11635878 -0.57843083 0.083063819
0.14323919 -0.60742259 0.086581171
0.1388334 -0.60335112 0.088932231
0.14090106 -0.60380769 0.088488385
0.13254552 -0.59622341 0.086047113
0.12828371 -0.59196532 0.088576071
0.12306736 -0.58637905 0.085051417
0.12649868 -0.5899021 0.089769088
0.11790922 -0.58128375 0.088184752
0.12125985 -0.58356184 0.086669572
0.1128834 -0.5767712 0.087715507
0.11608682 -0.57938516 0.089345485
0.11136489 -0.57278639 0.086597517
0.14370579 -0.60729146 0.093596004
0.14524366 -0.60710758 0.093491636
0.13636465 -0.60137141 0.090136781
0.14260471 -0.60472161 0.094841138
0.12992352 -0.59516186 0.093723729
0.13313632 -0.59730482 0.092374392
0.13643973 -0.59894514 0.091228582
0.12863863 -0.59336227 0.094685867
0.13088602 -0.59399694 0.094137594
0.12375426 -0.58725697 0.091340303
0.11841556 -0.58174121 0.094572857
0.12122279 -0.58393431 0.093216307
0.1125267 -0.57625782 0.09134157
0.11225627 -0.57411587 0.092431769
0.1381326 -0.60168117 0.096668713
0.14088854 -0.60430562 0.095220983
0.13378917 -0.59722936 0.09912663
0.13566564 -0.59846842 0.09836787
0.12775293 -0.59120482 0.095777802
0.12317393 -0.58667272 0.098365828
0.12546206 -0.58912182 0.096986189
0.11497863 -0.58024919 0.095703214
0.11790265 -0.58279514 0.097449601
0.12153021 -0.58413547 0.0997127
0.11361781 -0.57577014 0.09799502
0.11570445 -0.57865137 0.096370563
0.11140781 -0.57424366 0.098989472
0.14307502 -0.6065827 0.10087121
0.1386022 -0.60231113 0.10313989
0.14109319 -0.60355026 0.10234775
0.13655983 -0.5996576 0.10448099
0.12823041 -0.59183735 0.10211404
0.13153167 -0.59444302 0.10060267
0.12412836 -0.5875535 0.10444146
0.1263231 -0.58952343 0.10334136
0.11855324 -0.5819295 0.10104692
0.11267545 -0.57578021 0.10454946
0.1163299 -0.57879704 0.10273218
0.14345558 -0.60697007 0.10746308
0.13896899 -0.60254753 0.10971517
0.14126512 -0.60423076 0.10879146
0.13331273 -0.59653133 0.10616791
0.13580519 -0.59813815 0.10520791
0.12759791 -0.59140033 0.10894865
0.13104257 -0.59432346 0.10733629
0.12227792 -0.58564383 0.10548649
0.12723476 -0.58910477 0.10994032
0.11825971 -0.58145601 0.10775248
0.1207872 -0.58323312 0.10670365
0.11383215 -0.57850838 0.10956366
0.11554579 -0.57831544 0.10943821
0.11089645 -0.57309455 0.10597678
0.14347272 -0.60670632 0.11426747
0.14549023 -0.60712898 0.11387747
0.1376929 -0.60096401 0.11047453
0.13382301 -0.5973379 0.11237331
0.13629498 -0.59951127 0.11121152
0.12913807 -0.59317011 0.11455313
0.13117333 -0.59405315 0.11397208
0.12326749 -0.58642256 0.11150014
0.1252853 -0.58868468 0.11033252
0.11779821 -0.58137763 0.11420468
0.12103064 -0.58370304 0.11288196
0.1129624 -0.5757789 0.11085036
0.11069934 -0.57339019 0.11215705
0.14272633 -0.60733443 0.11745329
0.13823275 -0.60190904 0.11664689
0.1412904 -0.6044203 0.11537408
0.13345759 -0.59734434 0.11892118
0.13608226 -0.5993911 0.11784386
0.12760654 -0.59088343 0.11562586
0.12359162 -0.58705229 0.11758958
0.12666053 -0.58919901 0.11639911
0.11938816 -0.58347464 0.11946978
0.12147137 -0.58404619 0.11901826
0.11352002 -0.57664675 0.11666895
0.11652789 -0.57849556 0.11554048
0.11121702 -0.5737775 0.1181272
0.14321043 -0.60650313 0.12097824
0.13750395 -0.601098 0.12353495
0.14080307 -0.60420263 0.12206732
0.13457988 -0.59885138 0.12469468
0.13611588 -0.59913003 0.12438846
0.12834427 -0.59179765 0.12157781
0.1310713 -0.59379709 0.12051652
0.12310617 -0.58611548 0.12429251
0.12584344 -0.58904994 0.12288757
0.11875893 -0.58178252 0.12020069
0.11337066 -0.57642454 0.12294339
0.11640133 -0.57839727 0.12180357
0.11236623 -0.57449591 0.12382174
0.14311422 -0.60687405 0.12739563
0.1387338 -0.60246897 0.12935379
0.14096734 -0.60432208 0.12849692
0.13314924 -0.59590179 0.1258864
0.1279998 -0.59146923 0.12804578
0.13069095 -0.59454668 0.12665325
0.12426271 -0.58762574 0.12982579
0.12570348 -0.58901131 0.12917744
0.11825518 -0.58191812 0.12640153
0.12070764 -0.58398682 0.12535931
0.11303009 -0.57605106 0.12920606
0.11624429 -0.57831371 0.12797762
0.11234578 -0.57419592 0.12997782
0.14333899 -0.60705292 0.13377185
0.13861084 -0.60247314 0.13257775
0.14170766 -0.60476899 0.13467693
0.1325679 -0.59629917 0.13214438
0.13601588 -0.59858936 0.13096826
0.12909202 -0.59274513 0.13372114
0.1314546 -0.59364319 0.13314474
0.12224676 -0.58578831 0.13070416
0.12631258 -0.58996701 0.13496937
0.11875739 -0.58200467 0.13242671
0.12089674 -0.58346152 0.13168685
0.11446027 -0.57733214 0.13457656
0.11703207 -0.57915562 0.13362475
0.11068257 -0.5736112 0.13039407
0.14412637 -0.60794771 0.13980132
0.13825504 -0.60135555 0.13613237
0.14023679 -0.60385472 0.13513055
0.13381629 -0.59719372 0.13796721
0.13594612 -0.59886903 0.13717808
0.12855989 -0.59268111 0.13998969
0.13112657 -0.59398776 0.13928202
0.12311267 -0.58687842 0.13635777
0.12598409 -0.58871174 0.13542253
0.11869024 -0.58192086 0.13850026
0.12106901 -0.58329135 0.13778457
0.11264114 -0.57541293 0.13546988
0.11652139 -0.57928884 0.13962901
0.11123341 -0.57363939 0.13626577
0.14285073 -0.60634649 0.14042762
0.13834617 -0.60184544 0.14225377
0.14066346 -0.60435683 0.14126569
0.13323097 -0.5959785 0.14459351
0.13585243 -0.59855688 0.14351872
0.12809594 -0.59126776 0.14048027
0.12341934 -0.58660543 0.14247215
0.12646022 -0.58911026 0.14134383
0.11918875 -0.58203024 0.14437953
0.12074929 -0.58332646 0.14381227
0.11371192 -0.57651168 0.14088508
0.11546269 -0.57788652 0.14021781
0.11161824 -0.57362318 0.1420984
0.14303493 -0.60642022 0.14669448
0.13856909 -0.60254586 0.14826229
0.14095195 -0.60297567 0.14788452
0.13668151 -0.59937811 0.14934723
0.12831551 -0.59177923 0.14638749
0.13132267 -0.59403008 0.14537902
0.12388898 -0.58732766 0.14819889
0.12654461 -0.58966583 0.14721309
0.11688595 -0.58055699 0.14509925
0.12152082 -0.58450562 0.14929895
0.11397282 -0.57681149 0.14661886
0.11629224 -0.57929951 0.14556126
0.11067851 -0.57364988 0.14800301
0.14341533 -0.60673934 0.15282153
0.14528289 -0.60782558 0.15233923
0.13874719 -0.60216653 0.15451562
0.14034945 -0.60407209 0.1538579
0.13369396 -0.59712231 0.15033525
0.12846927 -0.59177363 0.15240276
0.13138466 -0.59436536 0.15135427
0.12343316 -0.58651996 0.15441692
0.12540084 -0.58840537 0.15368004
0.11820767 -0.58084172 0.15074113
0.11315661 -0.57643318 0.1526306
0.11571223 -0.57840824 0.15174702
0.11072402 -0.57277912 0.15399754
0.14295472 -0.60672075 0.15907946
0.13679597 -0.60027498 0.15522519
0.14123166 -0.60453278 0.1597954
0.13331898 -0.59717935 0.15643775
0.13596711 -0.5990898 0.15562585
0.12869136 -0.59191483 0.15831161
0.13132152 -0.59460235 0.15732299
0.12429867 -0.58798081 0.15981698
0.12624688 -0.58890927 0.15936254
0.11886358 -0.58180702 0.15622349
0.12100449 -0.58416629 0.15534429
0.11342663 -0.57631415 0.15836367
0.11631382 -0.57897598 0.15728939
0.1112932 -0.57408524 0.15923254
0.13885829 -0.60186684 0.16069487
0.13310444 -0.59655726 0.16262789
0.13588275 -0.59882623 0.16174999
0.12805657 -0.59090656 0.1645451
0.13098729 -0.59359229 0.1635734
0.1235557 -0.58625948 0.16034229
0.11871058 -0.58181864 0.16201858
0.12176782 -0.58416677 0.1610809
0.11386633 -0.57725269 0.16374721
0.11623468 -0.57848769 0.16315486
0.11151558 -0.57440668 0.16475849
0.14323665 -0.60640103 0.16526379
0.13752475 -0.60141623 0.16699177
0.14032483 -0.60396183 0.16613312
0.13363151 -0.59695441 0.16844018
0.1360842 -0.59917861 0.16765244
0.12945575 -0.59249556 0.16988687
0.13077129 -0.59442204 0.16931732
0.12323988 -0.58712739 0.16598737
0.12550791 -0.58804876 0.16551532
0.11879984 -0.5817163 0.16776314
0.12097719 -0.58361226 0.16707964
0.1138448 -0.57697171 0.16946058
0.11685441 -0.57932985 0.16854294
0.11050977 -0.57378548 0.16503958
0.14292371 -0.6059618 0.17148431
0.14503601 -0.60803401 0.17083563
0.13879438 -0.60242015 0.17265658
0.14092305 -0.60420775 0.1720603
0.1333206 -0.5967443 0.17443052
0.13619587 -0.59917438 0.17359486
0.1274813 -0.59058589 0.17053063
0.1235911 -0.58677208 0.17180283
0.12622671 -0.58866692 0.17109543
0.11806375 -0.58140755 0.17359155
0.12089894 -0.58292824 0.17295621
0.11314917 -0.57610327 0.17161727
0.1159684 -0.57913953 0.17432892
0.11084449 -0.57347679 0.17064674
0.14340435 -0.60639977 0.17739126
0.13792565 -0.60123664 0.17894015
0.14107305 -0.60387397 0.17812049
0.1343426 -0.59812993 0.17993958
0.1357906 -0.59907907 0.1795782
0.12855093 -0.59200013 0.17592882
0.13080902 -0.59366798 0.17534032
0.12307184 -0.5862819 0.17768978
0.12572224 -0.58855778 0.17693911
0.11858594 -0.58145028 0.17915501
0.12058197 -0.58336347 0.17855915
0.1132844 -0.5765965 0.17519672
0.11626187 -0.57929802 0.17984599
0.11076359 -0.57364762 0.17614605
0.14297923 -0.60634506 0.18346077
0.13829854 -0.60210645 0.18467674
0.14089857 -0.60408598 0.18406613
0.13265374 -0.59644628 0.18043321
0.12798677 -0.59139317 0.18188246
0.13087919 -0.59403259 0.18107489
0.122865 -0.58593667 0.18345369
0.12583943 -0.58898407 0.18256809
0.11907352 -0.58249843 0.18449956
0.12117793 -0.58417332 0.18396878
0.11323266 -0.57655269 0.18075171
0.11538331 -0.57833982 0.18013865
0.11116997 -0.57386607 0.18153811
0.14363959 -0.60667157 0.18930723
0.14132605 -0.60435027 0.18991439
0.13322991 -0.59670383 0.18615718
0.13584745 -0.59910876 0.18544176
0.12867869 -0.59187585 0.18746516
0.13121742 -0.59428477 0.18677917
0.12364449 -0.58673185 0.18887235
0.12669766 -0.58995062 0.18800369
0.11802983 -0.58128661 0.1866972
0.12109161 -0.58415973 0.18958502
0.11372572 -0.57664031 0.18617785
0.1161202 -0.57838929 0.18558177
0.11100253 -0.57392007 0.18699689
0.13855606 -0.60218745 0.19053371
0.14027345 -0.60338801 0.19017577
0.13388488 -0.59726864 0.19180042
0.1355148 -0.59953862 0.19126043
0.12915459 -0.59251636 0.19302595
0.1310081 -0.59420478 0.19257179
0.12321366 -0.58659118 0.19455783
0.12591369 -0.58912563 0.19388877
0.11823783 -0.58159292 0.19031239
0.11327428 -0.57669473 0.19168597
0.11645242 -0.57933116 0.19088006
0.11112561 -0.57419735 0.19235019
0.14279033 -0.60613692 0.19542769
0.13835108 -0.60210329 0.19643591
0.14060602 -0.60420048 0.1959174
0.13294274 -0.59628111 0.19781213
0.13590333 -0.59915513 0.19708307
0.12810235 -0.59179652 0.19893178
0.13079335 -0.59451616 0.19827163
0.1246825 -0.58771491 0.19983813
0.12616289 -0.58966249 0.19942036
0.11832026 -0.58163238 0.19582081
0.12074882 -0.58404779 0.19520949
0.11347377 -0.57658631 0.19711198
0.11559177 -0.57922512 0.19648002
0.11066744 -0.57389796 0.19783793
0.1435755 -0.60684645 0.20116796
0.13830252 -0.60199726 0.20229076
0.14107007 -0.60491425 0.20166647
0.1329376 -0.59665674 0.20349967
0.13548976 -0.59908384 0.2029269
0.12816274 -0.59175205 0.20457983
0.13030422 -0.59324312 0.20417666
0.12261291 -0.58626866 0.20024973
0.11816864 -0.58176708 0.20131564
0.12050103 -0.58383811 0.20080602
0.11314024 -0.57635885 0.20258267
0.11635441 -0.57996684 0.20174409
0.11061642 -0.57415247 0.20316499
0.14262822 -0.60621506 0.20723842
0.13824999 -0.60181713 0.20812702
0.14018443 -0.60406685 0.20770729
0.1334998 -0.59715104 0.2091084
0.13607532 -0.59967911 0.2085592
0.13145454 -0.59480953 0.20955396
0.12321816 -0.58672732 0.20568514
0.12530899 -0.58904707 0.20520067
0.11827835 -0.58191806 0.20675828
0.12103761 -0.58425701 0.20620298
0.11351867 -0.57692444 0.20784998
0.11545101 -0.57867283 0.20743442
0.11086026 -0.57447124 0.2084343
0.14271063 -0.60624409 0.21309176
0.13804518 -0.60189003 0.21393377
0.14050341 -0.60407376 0.21350312
0.1337748 -0.59775078 0.21473756
0.13520806 -0.59921455 0.21444917
0.12764429 -0.59090859 0.21035288
0.12337307 -0.58652908 0.21122681
0.1260282 -0.58995563 0.21061353
0.11798032 -0.58177191 0.21225891
0.12058479 -0.58410233 0.21176738
0.11299762 -0.57664365 0.21329792
0.11512966 -0.57825613 0.21290049
0.1103794 -0.57438195 0.21381567
0.14265564 -0.6061579 0.21895979
0.13796259 -0.60188806 0.21971774
0.14014466 -0.60350496 0.21938674
0.1315615 -0.59564114 0.21514153
0.1282246 -0.59199584 0.21579342
0.13041204 -0.59334636 0.21544054
0.12330575 -0.58672124 0.21673572
0.12542999 -0.58913428 0.21632087
0.11825309 -0.58202308 0.21763995
0.12080487 -0.584185 0.21720509
0.11323471 -0.57677877 0.21859968
0.11628127 -0.57970113 0.21802939
0.1109625 -0.57433879 0.21905047
0.14295906 -0.60675424 0.22473001
0.13308588 -0.59667826 0.22058082
0.13554078 -0.59961939 0.22011328
0.12807573 -0.5917986 0.22142152
0.13036953 -0.59374738 0.22105131
0.12355412 -0.58724421 0.22218294
0.1260092 -0.58985198 0.22176233
0.11847594 -0.58203197 0.22303811
0.12113811 -0.58496547 0.22258137
0.11290015 -0.57645458 0.22398289
0.11560426 -0.57885408 0.22353467
0.11038139 -0.57423162 0.22440648
0.1379185 -0.6020146 0.22547927
0.14073417 -0.60430348 0.22508518
0.13274957 -0.59670812 0.22628058
0.13571376 -0.59892201 0.22584578
0.12814409 -0.59185201 0.22699292
0.13005061 -0.59406066 0.22669047
0.12261014 -0.58651543 0.22781594
0.12500633 -0.58817548 0.22749151
0.1181492 -0.58166617 0.2284953
0.12064144 -0.58377635 0.22814703
0.11332677 -0.57719386 0.22921221
0.11534692 -0.57940102 0.22889495
0.10883094 -0.57315242 0.22987945
0.11073025 -0.57450664 0.22962426
0.067421027 -0.66674107 0.04321048
0.071578436 -0.66811681 0.042005908
0.062116154 -0.65502846 0.041391689
0.063979283 -0.65059382 0.043556593
0.069971398 -0.65044731 0.04291518
0.072613448 -0.65125948 0.04214482
0.072637431 -0.64804095 0.043881636
0.047392085 -0.64257544 0.041525505
0.056418639 -0.64104736 0.04124647
0.052192971 -0.63788766 0.04355273
0.058534473 -0.63635737 0.043636337
0.061892953 -0.63569456 0.043594379
0.068199337 -0.63728404 0.041933514
0.067050293 -0.633829 0.044010036
0.067147963 -0.62124693 0.042991675
0.073012985 -0.62231392 0.041649494
0.070888616 -0.61834246 0.044246811
0.13914724 -0.60525155 0.043602135
0.13622576 -0.60361093 0.044946104
0.15018511 -0.60069907 0.044986781
0.12878336 -0.5960564 0.042582195
0.1385923 -0.59240484 0.043605328
0.14258051 -0.59260124 0.043023702
0.147691 -0.59191656 0.042845309
0.15300745 -0.5908007 0.042896286
0.14133598 -0.5897972 0.044896573
0.14943808 -0.58874774 0.044569727
0.15267783 -0.58782732 0.044759385
0.15722844 -0.58771771 0.044278905
0.16097896 -0.58678377 0.044412695
0.12216079 -0.58257282 0.044086196
0.12869462 -0.5824216 0.04341004
0.13327229 -0.58273411 0.042651281
0.13096735 -0.57983762 0.044775564
0.1390263 -0.57879931 0.044447545
0.14124572 -0.57874787 0.044208139
0.14753073 -0.57817805 0.043838542
0.15167601 -0.57681906 0.044207983
0.15806723 -0.57667285 0.043537248
0.16427913 -0.57568276 0.043409914
0.11189345 -0.5727855 0.04410835
0.11848711 -0.57192928 0.043853164
