# .PCD v0.7 - Point Cloud Data file format
VERSION 0.7
FIELDS x y z
SIZE 4 4 4
TYPE F F F
COUNT 1 1 1
WIDTH 1341
HEIGHT 1
VIEWPOINT 0 0 0 1 0 0 0
POINTS 1341
DATA ascii
0.11748178 -0.58323652 0.0037141233
0.056953173 -0.58204019 0.0036005739
0.12090506 -0.58236092 0.003963674
0.062283367 -0.58111763 0.0036431302
0.070629306 -0.57935286 0.0039932244
-0.044713344 -0.58554274 0.0044904482
0.031661019 -0.58500159 0.0044099954
0.10676563 -0.58428127 0.0042625549
0.10751545 -0.5842672 0.0041773673
0.050061394 -0.58220387 0.0043224655
0.11825131 -0.58242875 0.0042467699
0.12169157 -0.58155555 0.0044958778
0.12324264 -0.58152151 0.0043472555
0.12561749 -0.58146197 0.0040933192
-0.06494797 -0.58838093 0.0049355002
-0.047587626 -0.58561867 0.0047978326
0.048518721 -0.58224463 0.0045010732
0.11903154 -0.58161122 0.0047598691
0.1240323 -0.58069837 0.0048574754
0.06717357 -0.57864964 0.0049710167
0.069600463 -0.5785917 0.004727202
0.071446508 -0.57854426 0.0045203278
-0.045298103 -0.58479351 0.0051863459
0.10825375 -0.5826686 0.0053322436
0.10901236 -0.58265501 0.0052491035
0.11555332 -0.58169776 0.0051438408
0.1184753 -0.58083934 0.0054397634
0.11976209 -0.5808081 0.0052955034
0.12111678 -0.58077276 0.0051540919
0.066096179 -0.57867455 0.0050746677
-0.045559607 -0.58403409 0.0058554523
0.031375863 -0.58344114 0.0056805341
0.036071122 -0.58255327 0.0058277007
0.10980255 -0.58183515 0.0057499171
0.12028604 -0.57999802 0.0058420319
0.17870587 -0.58110052 0.0063409237
0.15132098 -0.58495277 0.0068369415
0.18026111 -0.58026278 0.0067596766
0.066080801 -0.58684093 0.0074183783
0.14521898 -0.5850966 0.0074505406
0.14811358 -0.58502907 0.0071661794
0.1539122 -0.58409119 0.007145938
0.15625119 -0.58323568 0.007493604
0.15864246 -0.58317786 0.0072511942
-0.013572642 -0.58768612 0.0079913214
0.061846714 -0.58694988 0.0078839008
0.07394281 -0.58506745 0.0077973753
0.13992672 -0.5852192 0.0079903463
0.15544629 -0.58325028 0.007576887
0.15783706 -0.58238888 0.007924404
-0.016238268 -0.58773625 0.0082355514
0.051828422 -0.58798814 0.0083439862
-0.011336133 -0.58684629 0.008352343
0.064989381 -0.58607799 0.0081424741
0.13338348 -0.58618248 0.0081140948
0.077366732 -0.58418471 0.008029459
0.14197189 -0.58437836 0.0083819162
0.078940898 -0.58335429 0.0084814066
0.1528156 -0.58250594 0.0084465891
0.15708005 -0.58240473 0.0080087604
-0.021329697 -0.58785224 0.0087656053
-0.019687751 -0.5878163 0.008607083
-0.013874384 -0.58690703 0.0086358478
0.06079134 -0.58618134 0.0086119464
0.066867411 -0.58523083 0.0085554505
0.072047234 -0.58432227 0.0086111017
0.13778882 -0.58447391 0.0088156695
0.07546974 -0.58344162 0.008837021
0.15987252 -0.58074063 0.0089003872
-0.034173355 -0.58893609 0.0094830412
-0.024771521 -0.58794105 0.0091223475
-0.018234253 -0.58699399 0.0090543982
0.064661264 -0.58449996 0.0093940692
0.065758213 -0.58447057 0.0092763454
0.071020767 -0.58354765 0.0093278242
0.072877787 -0.58350199 0.0091264257
0.13911544 -0.5836274 0.0092624398
0.14118902 -0.58358353 0.0090535674
0.15434717 -0.5808686 0.0094799232
-0.028730618 -0.5880295 0.0095347911
-0.025012035 -0.58716649 0.0097739119
-0.022875702 -0.5871132 0.0095505202
-0.018461496 -0.58622003 0.0097078094
-0.016588211 -0.58617651 0.009505935
0.054363698 -0.58554924 0.0098903812
0.05571463 -0.58551449 0.0097534833
0.12250511 -0.58564252 0.0098463371
-0.014566272 -0.58536142 0.0099393493
0.059431758 -0.58463031 0.009980659
0.060430031 -0.5846079 0.0098583344
0.061506018 -0.58458185 0.0097427936
0.06262923 -0.58454609 0.0096253362
0.1369309 -0.58369708 0.0095149716
0.073594593 -0.58269882 0.0096568866
0.1403493 -0.58280677 0.009735317
0.076223932 -0.58183277 0.0099678878
0.14401668 -0.5819186 0.0099535882
-0.041277811 -0.58909822 0.010225894
-0.03558721 -0.58816987 0.010220145
-0.035217397 -0.58816552 0.010193432
0.039957039 -0.5875054 0.010328654
-0.028970355 -0.58725697 0.010189939
0.047038581 -0.58652329 0.010086548
-0.025305936 -0.58639377 0.010424822
-0.023198849 -0.58633786 0.010199285
0.049893506 -0.5856576 0.010378904
0.051432271 -0.5856216 0.010206447
0.11644797 -0.58578455 0.010481989
0.058059182 -0.58466911 0.010125226
0.063656189 -0.58372986 0.010123268
0.12824853 -0.58390057 0.01043743
0.12989113 -0.58385813 0.010277879
0.13063733 -0.58384508 0.010183098
0.1314469 -0.58382356 0.010106289
0.066480704 -0.58286303 0.010407832
0.068873852 -0.5828144 0.010175654
0.069936983 -0.58278257 0.010057995
0.13612044 -0.58291698 0.010209338
0.14165866 -0.58197045 0.010190425
0.14246857 -0.58195263 0.010116652
0.14326671 -0.5819267 0.010029944
0.14609846 -0.58106488 0.010323374
-0.049755353 -0.59007251 0.010504171
-0.041812718 -0.58832258 0.010884325
0.034677774 -0.58761352 0.010775344
-0.03612344 -0.58741212 0.010902558
-0.035882682 -0.58740246 0.010872268
-0.029686559 -0.58649558 0.010885283
-0.029254509 -0.58648509 0.010846389
-0.021669686 -0.58550954 0.010653397
0.048338525 -0.58569783 0.010554219
-0.020053292 -0.5854823 0.010506794
-0.018803459 -0.58466387 0.010984311
-0.014853395 -0.5845871 0.01059002
0.051181462 -0.58483279 0.010843035
0.052781038 -0.58479315 0.010670787
0.11721144 -0.58496201 0.010992157
0.056706116 -0.58390719 0.010875138
0.12613234 -0.58395034 0.010656149
0.13216233 -0.58301109 0.010632713
0.13301101 -0.58298171 0.010526889
0.067518897 -0.58204925 0.010912816
0.13454248 -0.58213729 0.010934147
0.1353415 -0.58212239 0.010883229
0.13819285 -0.58205515 0.010546789
0.072470084 -0.58113873 0.010988608
0.074374408 -0.58108425 0.010784919
0.14082129 -0.5811826 0.010866741
-0.025736988 -0.58561742 0.011084236
0.18189922 -0.58500087 0.011469635
-0.023598935 -0.58478564 0.011476644
-0.020370582 -0.5847078 0.011157613
0.046719242 -0.58494657 0.011342282
0.18235876 -0.58499998 0.011410511
0.1834283 -0.58497381 0.011299407
-0.015124107 -0.58381039 0.011237562
0.054023456 -0.58397168 0.011138783
0.057723783 -0.58308953 0.011367382
0.059067965 -0.58305532 0.01122515
0.12531768 -0.58316815 0.011337394
0.063261859 -0.58215672 0.011372845
0.06433446 -0.58212888 0.011252668
0.13376115 -0.58216161 0.011027625
0.13951236 -0.58121258 0.01100149
0.14819448 -0.57940763 0.011315462
-0.053722419 -0.5894329 0.011670892
-0.050897326 -0.58854699 0.011887297
-0.045807194 -0.58763552 0.011930691
-0.042295206 -0.58754593 0.011538747
-0.037361272 -0.58665812 0.011663551
-0.036848992 -0.58664334 0.011606669
-0.036468279 -0.58663243 0.011559415
0.035904046 -0.58600247 0.01187162
-0.030761613 -0.58573711 0.01161792
-0.030316517 -0.58572453 0.011557925
0.037726507 -0.58596671 0.011717645
0.039599098 -0.58592987 0.011574959
0.042705636 -0.58504754 0.011767945
0.043813135 -0.58501667 0.011638439
0.11061902 -0.58512515 0.011693813
0.11140731 -0.58510858 0.011616726
0.11216456 -0.5850935 0.01154353
0.18135202 -0.58501065 0.01151144
0.047993504 -0.58412009 0.011803972
0.049611967 -0.58407474 0.01162162
0.11378114 -0.58424437 0.011968128
0.052478828 -0.58321249 0.011917835
0.055345543 -0.58314174 0.011609206
0.12055902 -0.58327544 0.011818322
0.12133665 -0.58326238 0.01173867
0.18807559 -0.58323377 0.011938737
0.19016457 -0.58319002 0.01172056
0.060089171 -0.58223623 0.01171233
0.12740588 -0.58231926 0.011722415
0.14528008 -0.57947534 0.01159783
-0.060297992 -0.5896033 0.012443597
-0.056928698 -0.58951056 0.012056396
-0.042615026 -0.58677328 0.012199586
0.028317099 -0.58697677 0.012069549
0.031199671 -0.5861097 0.012361478
0.032739755 -0.5860728 0.012185288
0.034323722 -0.58603507 0.012022776
0.097299017 -0.58618069 0.012440841
0.10022027 -0.58613729 0.012194827
-0.038102817 -0.58589631 0.012374298
-0.037843093 -0.58588892 0.012338761
0.037459355 -0.58517992 0.012351799
0.039346021 -0.58514088 0.012203993
0.041170899 -0.58509439 0.012002009
-0.031255584 -0.58496588 0.012289226
-0.026243908 -0.58406156 0.012372883
0.045141384 -0.58418995 0.012106655
-0.01908787 -0.5831089 0.012260113
-0.017565979 -0.58307117 0.012085108
0.1144905 -0.58343256 0.012475006
0.11528408 -0.5833931 0.012377485
0.1179203 -0.58334219 0.012100731
0.118715 -0.58332062 0.012014537
0.056383532 -0.58232796 0.012118237
0.12211499 -0.58244044 0.012260056
0.1228912 -0.58242381 0.0121859
0.12374461 -0.58239251 0.012086718
0.12450571 -0.58237976 0.012004352
0.12656887 -0.58153319 0.012390106
0.058752358 -0.58147794 0.012466594
0.12951222 -0.58145767 0.012091846
0.13263099 -0.58058554 0.01235011
0.014929469 -0.58808064 0.012851289
-0.051262196 -0.58776927 0.01254003
0.020944254 -0.58715695 0.012849416
-0.046225805 -0.58685988 0.012591341
0.02676289 -0.58622164 0.012848039
-0.043068316 -0.5859955 0.012864911
0.030938776 -0.58532161 0.012997618
0.034067556 -0.58524597 0.012656054
0.035597298 -0.58521795 0.012510678
0.099094026 -0.58532411 0.012815844
-0.032028988 -0.58420783 0.012995599
-0.031567387 -0.58419025 0.012939513
0.039036237 -0.58435464 0.012834905
0.040867448 -0.58430737 0.012636403
0.10536478 -0.58443743 0.012854164
0.10798471 -0.58437991 0.012585753
0.046430588 -0.58336633 0.01259058
0.11604546 -0.58258545 0.012902433
0.11945315 -0.58250219 0.012527372
0.049283501 -0.58249754 0.012874881
0.05088089 -0.5824576 0.012696966
0.055043422 -0.58156228 0.012856794
0.1917178 -0.58152664 0.012726835
0.19225709 -0.58151752 0.012676643
0.19332995 -0.58148998 0.012564005
0.12789693 -0.58069909 0.012859377
0.13106541 -0.58062279 0.012510974
0.1334215 -0.57976025 0.012853194
-0.060797311 -0.58883023 0.013106607
-0.057527181 -0.58796448 0.013358628
-0.051679172 -0.58700824 0.013216406
0.017999496 -0.58722556 0.013151082
-0.046494324 -0.58608568 0.013237969
0.022156907 -0.58633751 0.01332386
0.02508417 -0.58626807 0.013021743
0.092864521 -0.58633375 0.013017622
-0.038347505 -0.58512247 0.013028899
0.026411247 -0.58543944 0.013489945
0.02802445 -0.58539402 0.013308341
0.02958853 -0.58535677 0.013143037
0.094719775 -0.58546662 0.01338375
0.1009355 -0.58452731 0.013326754
0.032398753 -0.58449501 0.013434593
0.17094095 -0.58444017 0.0131591
0.10870115 -0.58356792 0.013111725
-0.027081259 -0.58330107 0.013072362
0.17682682 -0.58347684 0.013126973
0.044749614 -0.58261752 0.013360433
0.047700249 -0.58254009 0.013051865
0.11185411 -0.58268625 0.013347346
0.11681288 -0.58175838 0.013411006
0.18513781 -0.581689 0.013418079
-0.061241169 -0.58805871 0.013782341
-0.054675855 -0.58711624 0.013647337
-0.054424219 -0.58710396 0.013613274
0.012230636 -0.58736688 0.013764792
0.085552126 -0.58651471 0.013821831
-0.052225169 -0.58624697 0.013910238
0.016358813 -0.58647126 0.013925262
0.01926709 -0.58640498 0.013627104
0.023492467 -0.58551049 0.01379389
-0.047080819 -0.58531666 0.01391521
-0.046761062 -0.58531094 0.013886087
-0.043413412 -0.58521485 0.013512728
0.098060317 -0.58454096 0.013518726
-0.039231423 -0.58436328 0.01373118
-0.038652845 -0.58435136 0.013685092
0.033720039 -0.58366966 0.013905758
0.035291128 -0.58363676 0.013749264
0.037162442 -0.58359832 0.013589641
0.10353538 -0.58366686 0.013644086
0.10429761 -0.58365434 0.013561901
0.17310691 -0.58358186 0.013519662
-0.032653403 -0.58343381 0.013675401
0.1060855 -0.58281493 0.013963931
0.10686272 -0.58280087 0.013883077
0.1076147 -0.58278489 0.013800803
0.10944773 -0.58274174 0.013599667
0.1744206 -0.58271974 0.013947958
0.17729047 -0.58266664 0.013655958
0.11258382 -0.58187336 0.013879819
0.11340911 -0.58184963 0.013796708
0.1175734 -0.58094203 0.013912226
0.18622179 -0.58082241 0.013875163
-0.061649993 -0.58728826 0.014441358
-0.058149297 -0.58719659 0.014049411
-0.057859082 -0.58718789 0.014009589
0.0080383644 -0.58746904 0.014209175
0.011713274 -0.58658844 0.014433667
-0.054949258 -0.58634388 0.014302989
0.017693082 -0.58564377 0.014392762
0.020611916 -0.58557963 0.014103274
0.024769012 -0.5846867 0.014263494
0.091777824 -0.58475655 0.014337554
0.093606189 -0.58470142 0.014114195
0.15911469 -0.58471423 0.014399284
-0.043746296 -0.58444732 0.014173628
0.02923009 -0.58378065 0.014389225
0.095408253 -0.58383697 0.014465942
0.099902317 -0.58373243 0.014002203
0.038698439 -0.58277541 0.014073397
0.10169221 -0.58290559 0.014445754
0.16931209 -0.58284682 0.01447916
0.17225428 -0.5827831 0.014198699
0.11022113 -0.58191895 0.014104107
0.11103458 -0.58190459 0.014022635
0.17779766 -0.58185142 0.01419425
0.11413683 -0.58102882 0.014298484
0.18305013 -0.5809226 0.014236211
0.18357809 -0.58090484 0.014186142
0.18411432 -0.58088416 0.014133307
0.18773004 -0.57999611 0.014296649
0.18827091 -0.57996851 0.014236938
0.0072987918 -0.58669353 0.014889034
0.0077362624 -0.58668256 0.014843589
-0.058429997 -0.5864172 0.014705807
-0.055269945 -0.58556175 0.014951243
0.014278103 -0.58572227 0.01474407
0.080536053 -0.58582914 0.014960473
0.083436258 -0.5857591 0.014642438
0.084433198 -0.58574039 0.014531156
0.15175624 -0.58570284 0.014604095
-0.047639884 -0.58454919 0.014594664
0.018921209 -0.58482516 0.014866865
0.021829279 -0.58475912 0.014571321
0.086237222 -0.58489949 0.014934212
0.088102393 -0.58485395 0.014731236
0.089949742 -0.5848043 0.014546447
0.15514353 -0.58480775 0.014820632
0.15591843 -0.58479524 0.01473741
0.15673593 -0.58477461 0.014664453
0.026042996 -0.58386183 0.014732152
0.027653441 -0.58382022 0.014562709
0.092478819 -0.58393848 0.01484094
0.16195682 -0.58384973 0.014705051
0.16273756 -0.58382827 0.014611146
0.096123435 -0.58301121 0.014966001
0.032102406 -0.58291548 0.014679994
0.096905969 -0.58298075 0.01486508
0.098754101 -0.58291781 0.014619482
0.16719826 -0.5828985 0.014704235
0.10246332 -0.58208394 0.014949504
0.10505897 -0.58202726 0.014665676
0.17827921 -0.58102447 0.014727293
0.18146072 -0.58012742 0.014983708
0.18199623 -0.58012277 0.0149328
0.18250498 -0.58011961 0.014876168
-0.062653951 -0.58652669 0.01516408
-0.062265687 -0.5865159 0.015129365
0.0042348071 -0.58674836 0.015186769
-0.058715403 -0.58564889 0.015361585
0.011360701 -0.58580363 0.015072741
0.077107333 -0.58590668 0.01530248
0.081223279 -0.58501601 0.015472257
-0.052944902 -0.58470863 0.015243513
0.013945458 -0.58494025 0.015389016
0.016062154 -0.58488923 0.015158294
0.020301141 -0.58400136 0.015347253
0.087029286 -0.58407503 0.015443952
0.02314611 -0.58393353 0.015044674
0.15747577 -0.58394176 0.015157415
0.15825735 -0.58392423 0.015077057
0.094334766 -0.58306974 0.015204797
0.16118206 -0.58304393 0.015358563
0.030143183 -0.58217233 0.015492812
0.097679146 -0.58214515 0.015345517
0.10061026 -0.58212179 0.015137091
0.16562527 -0.58211672 0.01545217
0.16636981 -0.58210593 0.015364063
0.16852376 -0.5820533 0.015152341
0.10322022 -0.5812611 0.015456466
0.1713818 -0.58118206 0.015441572
0.17353469 -0.58113486 0.015222471
0.1748566 -0.58109033 0.015067254
0.17882645 -0.58018452 0.015237235
0.17934884 -0.58017391 0.015181328
0.18091734 -0.58014381 0.015028698
-0.0072728721 -0.58785391 0.015833044
-0.064037785 -0.58576769 0.015927946
-0.063731581 -0.58575797 0.01589229
-0.063290186 -0.58575422 0.015854275
-0.062939048 -0.58575249 0.015810639
0.0039699594 -0.58595836 0.015812756
0.0068569039 -0.58591485 0.015545757
0.011039272 -0.58501714 0.015704948
0.077877291 -0.58508438 0.015815359
-0.055599485 -0.58479059 0.015619086
0.015742138 -0.58410466 0.015797591
0.017403834 -0.58406574 0.015640503
0.085176229 -0.58411235 0.015637938
0.14982255 -0.58412033 0.015954558
0.021547949 -0.58317852 0.015816249
0.024444168 -0.5831098 0.015515075
0.088830434 -0.58323032 0.015843904
0.090668164 -0.58318371 0.015651438
0.09326753 -0.58229965 0.015931271
0.16324405 -0.58217871 0.015707348
0.16399994 -0.58216262 0.015614163
0.16475336 -0.5821529 0.015551204
0.099536747 -0.58132631 0.015812865
0.16771992 -0.58125091 0.015810899
0.17059948 -0.58119231 0.0155106
0.17273496 -0.58033472 0.015877269
0.17534873 -0.58027506 0.015598055
0.1798458 -0.57935703 0.015709832
-0.017027667 -0.58886677 0.016236
-0.012299259 -0.58797568 0.016369298
-0.0052195378 -0.58701998 0.016227229
-0.0016839878 -0.58613729 0.01646599
0.0015403345 -0.58602107 0.016071718
0.068653218 -0.5861178 0.016229512
0.0036637189 -0.58517063 0.016443269
0.0065615978 -0.58513004 0.016183203
0.075183786 -0.58515495 0.016099688
-0.059003711 -0.58487636 0.016016506
0.010663626 -0.58423233 0.016354427
0.013662589 -0.58415395 0.016025957
0.078602351 -0.58426821 0.016339773
0.07943143 -0.58424938 0.016260743
0.14907117 -0.58413595 0.0160472
0.018640602 -0.58324289 0.016108422
0.083015785 -0.5833649 0.016462283
0.08410833 -0.58333695 0.016346224
0.085945323 -0.58329761 0.016151268
0.1505843 -0.58329231 0.016459657
0.15322167 -0.58322501 0.016178332
0.022826541 -0.58235413 0.016286675
0.091440417 -0.58235538 0.016154042
0.15952979 -0.58226645 0.016100911
0.16033648 -0.58225155 0.016017474
0.095030911 -0.58143866 0.016295398
0.16240014 -0.58140129 0.016397158
0.16686872 -0.58046919 0.016480332
0.17401183 -0.57948625 0.016311204
0.17586654 -0.57944727 0.01610831
-0.021779237 -0.58897382 0.016732708
-0.005445872 -0.5862326 0.016862765
0.062366385 -0.58626848 0.01689887
0.065534972 -0.58619022 0.016549902
0.0011693918 -0.58524334 0.016724747
0.069734991 -0.58528495 0.016707957
0.070729725 -0.5852651 0.016597288
0.13742475 -0.58523154 0.016660236
-0.064717129 -0.58499491 0.016612763
0.0061570155 -0.58434236 0.016827507
0.14002031 -0.58435315 0.016960196
0.080169402 -0.58342797 0.016770393
0.082032792 -0.58338326 0.016572062
0.019985978 -0.58241957 0.01658603
0.087717384 -0.58245683 0.016553264
0.15137234 -0.5824613 0.016967939
0.15399151 -0.58240062 0.01668253
0.15479742 -0.5823772 0.016607234
0.024153724 -0.58153129 0.01676135
0.15716527 -0.58150834 0.01693063
0.15793903 -0.58149111 0.016853282
0.15872405 -0.58147454 0.016769428
0.16895553 -0.5796051 0.016839638
0.17190148 -0.57954007 0.016553918
-0.015233912 -0.5872559 0.017288882
-0.010024821 -0.58633441 0.017336143
-0.0076481905 -0.58627659 0.017079551
0.06124625 -0.58630151 0.01702041
-0.0021450608 -0.58535683 0.017116802
0.13034225 -0.58540332 0.017432284
0.00070095668 -0.58446914 0.017385073
0.0032612574 -0.58438474 0.017082015
0.13658984 -0.58444631 0.017342811
0.13872777 -0.5843817 0.017098298
0.075955644 -0.58352578 0.01720883
0.010211474 -0.58345127 0.017004738
0.14371412 -0.58345574 0.01716819
0.14451393 -0.58343446 0.017084146
0.015361519 -0.58252591 0.017039215
0.14741506 -0.58255124 0.017383637
0.084835142 -0.58171117 0.017453987
0.15209727 -0.58163428 0.017458932
0.15555175 -0.58154988 0.017086843
0.15635675 -0.58153355 0.01701488
-0.026308399 -0.58829743 0.017813565
0.042572699 -0.58837157 0.017865263
-0.020555317 -0.58737057 0.017830193
-0.01557916 -0.58646363 0.017918704
-0.012659436 -0.58639699 0.017614644
0.05383601 -0.58648032 0.017799625
-0.010363727 -0.5855515 0.017979391
-0.0079260105 -0.58548874 0.017712126
-0.0058129756 -0.58544809 0.017502718
0.12872794 -0.58544111 0.017596874
-0.0024669289 -0.58457422 0.017757067
0.066203438 -0.58456516 0.017651243
0.067279629 -0.58454025 0.017547602
0.13189864 -0.5845542 0.017856244
0.07042338 -0.58366585 0.017818391
0.071512252 -0.58363307 0.017692486
0.073292039 -0.58359522 0.017500678
0.0098549891 -0.58266693 0.017642079
0.074873552 -0.58274889 0.017914612
0.076702297 -0.58270329 0.017707396
0.14128959 -0.58269626 0.017996743
0.14207645 -0.58268398 0.017917607
0.14294401 -0.58265275 0.017827531
0.080866449 -0.58180988 0.017883351
0.14947222 -0.58168793 0.017740533
-0.032073982 -0.58844101 0.018436577
-0.031557079 -0.58842826 0.018380839
-0.026619853 -0.58751553 0.018451083
-0.023733148 -0.5874539 0.018154958
-0.020879121 -0.58658278 0.018466046
-0.012957346 -0.58561236 0.018257042
0.05749524 -0.58559376 0.018015042
0.12028606 -0.5856356 0.018459914
-0.0061558802 -0.58466029 0.018137557
0.05986914 -0.58472818 0.018354699
0.061958615 -0.58467579 0.018123128
0.12582061 -0.58469379 0.018480629
-0.0027611568 -0.58379138 0.018395897
0.00041096038 -0.58369011 0.018031623
0.064091057 -0.58381867 0.018485682
0.065129936 -0.58379316 0.018371765
0.068334788 -0.58371216 0.018044915
0.13421544 -0.58367884 0.018163757
0.13502343 -0.58365911 0.018084744
0.13579321 -0.58364695 0.01801222
0.072209902 -0.58281952 0.01820733
0.074116848 -0.58276594 0.018000033
0.13786204 -0.58278352 0.018350152
0.13920219 -0.58274078 0.018201841
0.07750456 -0.58187938 0.018222287
0.078235514 -0.58186567 0.018145533
0.14576066 -0.58178037 0.018100327
0.14657944 -0.58175284 0.018022459
0.14868553 -0.58089298 0.018403148
0.15917706 -0.57902068 0.018452274
0.15995358 -0.57900894 0.01837487
-0.024035713 -0.58667397 0.018798312
-0.022195308 -0.58660811 0.018589802
0.043551553 -0.58673745 0.018916544
-0.019279031 -0.58575261 0.018909877
-0.017719533 -0.58571482 0.018733008
-0.015841654 -0.58567506 0.01854967
0.050667804 -0.58575451 0.018744955
0.05228791 -0.58571219 0.018566556
-0.013224613 -0.58482617 0.018892726
-0.010632389 -0.58476877 0.018624395
0.056172539 -0.58482057 0.018753327
-0.0083007952 -0.58391136 0.018959347
0.060916957 -0.58389777 0.018833229
0.063032076 -0.58384383 0.01860201
0.12710032 -0.58385849 0.018935043
0.066982493 -0.58293879 0.018763769
0.069329783 -0.5828892 0.01852913
0.071171768 -0.58203501 0.018917194
0.14048192 -0.58190191 0.018658426
0.14416371 -0.58100569 0.018858446
0.14497359 -0.58098286 0.018771218
0.15104797 -0.58002651 0.018739861
-0.038675379 -0.58858806 0.019120812
-0.032682568 -0.58765942 0.019104527
-0.027340107 -0.58673596 0.019123999
0.040687725 -0.58681583 0.019306721
0.042265952 -0.58677369 0.019104932
-0.024340279 -0.58588523 0.019426432
-0.022454154 -0.58582515 0.019226044
0.046157811 -0.58587056 0.019240765
-0.01801376 -0.58492553 0.019366695
0.053552832 -0.5848791 0.01901844
0.11842213 -0.58487195 0.019249951
0.054832697 -0.58404469 0.019477408
0.057142869 -0.58399737 0.019240277
0.058479335 -0.58396375 0.019097004
0.12182257 -0.58397675 0.019469569
0.12260247 -0.58395964 0.019401921
0.12340646 -0.58393949 0.019321887
0.12419377 -0.58391637 0.019227533
0.12498172 -0.58390659 0.019144131
-0.003038557 -0.5830074 0.019031029
0.12839423 -0.58300972 0.019370079
0.12919779 -0.58298677 0.019281713
0.1299987 -0.58296907 0.019209765
0.13075419 -0.58295453 0.019118756
6.7695488e-05 -0.58211631 0.019284284
0.065822117 -0.58216816 0.019472392
0.067997627 -0.58211493 0.019265233
0.13707298 -0.58198547 0.019021183
0.075576939 -0.58112937 0.019028997
0.13834836 -0.581141 0.019451287
0.14708391 -0.58011729 0.019146675
-0.047162972 -0.58876848 0.019973913
-0.039327953 -0.58780628 0.019782245
0.030675082 -0.58784413 0.019672075
-0.033272143 -0.58688158 0.019759703
-0.032968786 -0.58687556 0.019736722
0.036983814 -0.58690125 0.019642808
0.040395156 -0.58602184 0.019938814
-0.027766522 -0.58594865 0.019770753
-0.021217139 -0.5850001 0.019701004
0.044520784 -0.58511138 0.019998422
0.045841265 -0.58507627 0.0198595
0.047447439 -0.58503419 0.019692943
0.04906762 -0.58498824 0.019509725
0.11500508 -0.58495456 0.019619845
-0.016171318 -0.58409822 0.019792745
-0.013496979 -0.58404464 0.01953603
0.050301164 -0.58415681 0.019961137
0.05193473 -0.58411568 0.019791605
0.11917372 -0.58403534 0.019739367
0.12103123 -0.58399326 0.019546265
0.18715578 -0.58383375 0.019783473
-0.010957512 -0.58319116 0.019874195
0.055800211 -0.58322322 0.019969953
0.061588675 -0.58227628 0.019937649
0.063767515 -0.58221811 0.019708324
0.064763784 -0.58219695 0.019586753
0.13156283 -0.58211946 0.019627938
0.13232286 -0.58210689 0.019549534
0.133865 -0.58125144 0.019938814
0.13464768 -0.5812279 0.01984993
0.13544539 -0.58121192 0.019789174
0.13623641 -0.58120286 0.019707346
0.073682435 -0.58037436 0.019823784
0.14172737 -0.58025402 0.019688427
0.14257079 -0.58022434 0.019602988
-0.052392274 -0.58971673 0.020015746
-0.044028975 -0.58789861 0.020252291
-0.04379154 -0.58789265 0.020226119
-0.040064149 -0.58702457 0.020455472
-0.039752159 -0.58701956 0.02042371
0.029000588 -0.58708847 0.020452464
-0.033534102 -0.58609241 0.020399854
0.035093591 -0.58613586 0.020399746
0.036697999 -0.58610058 0.020255415
-0.028198456 -0.585168 0.02042453
0.041964989 -0.58517683 0.020341568
0.108418 -0.58511287 0.02033804
0.10917238 -0.58509517 0.020241788
-0.022770219 -0.58425337 0.02047791
-0.019655257 -0.58417535 0.020161156
0.047128867 -0.5842402 0.020315984
0.048727401 -0.58419824 0.02014195
0.1157473 -0.584122 0.020118291
0.18038708 -0.58397084 0.020498576
0.051572997 -0.58332384 0.020411231
0.053209867 -0.58328199 0.020243658
0.11991457 -0.58320993 0.020242084
0.1887524 -0.58295202 0.020167543
0.18922669 -0.58295488 0.020120092
0.18978962 -0.58294261 0.020073112
0.056843504 -0.58239585 0.020458436
0.059543498 -0.58232456 0.020171296
0.060566198 -0.58229959 0.02005595
0.12625137 -0.58224469 0.020170579
0.19188623 -0.58206779 0.020425985
0.13311298 -0.58126545 0.02003075
-0.047717847 -0.58799088 0.020640118
-0.044372577 -0.58711255 0.020895904
0.031932775 -0.58620912 0.02072205
0.033480268 -0.58617139 0.020554516
0.038496356 -0.58526278 0.020701069
0.10399741 -0.5852021 0.020793665
0.10581123 -0.58516693 0.020597957
-0.024964098 -0.58430463 0.020698866
0.043170933 -0.58433598 0.020729046
0.044210371 -0.58431327 0.020612808
0.10995712 -0.58425581 0.020726098
0.11153894 -0.58422452 0.020564122
0.11651551 -0.58328539 0.020607848
0.054432709 -0.58245176 0.02069895
0.12070814 -0.58237249 0.020740231
0.19081761 -0.58209461 0.020539014
0.12541458 -0.58145297 0.020841764
0.12757823 -0.58140403 0.020630486
0.1934419 -0.5812068 0.020829575
-0.05557419 -0.58903229 0.021080481
-0.052997552 -0.58815318 0.021304447
-0.048625894 -0.58721852 0.021350345
-0.048175588 -0.58721149 0.021297304
-0.040704682 -0.5862447 0.021127999
-0.040417779 -0.58624297 0.021100583
0.025816461 -0.5863654 0.021389598
0.027469214 -0.58632004 0.021215087
-0.034115244 -0.58530343 0.021051766
-0.033849049 -0.5853011 0.021032611
0.036340106 -0.58450276 0.021472991
-0.02867114 -0.58438551 0.021080444
0.038161308 -0.58446789 0.02131938
0.040003579 -0.58442688 0.021162568
0.10658585 -0.58433211 0.021095416
0.042855565 -0.58354223 0.02135575
0.045515098 -0.58347768 0.021074528
0.11070732 -0.58343232 0.021230662
0.11229224 -0.58340067 0.021083567
0.1764257 -0.58322614 0.021470986
-0.01846779 -0.58255523 0.021226438
0.049960803 -0.58255839 0.021180386
0.1138518 -0.58254123 0.021486323
0.11726075 -0.58245581 0.021100834
0.11805748 -0.58243984 0.021023391
0.12304224 -0.58151203 0.02109579
0.19133253 -0.58126175 0.021050386
0.19286998 -0.5804047 0.021459844
-0.064036123 -0.58922082 0.021998757
-0.055862844 -0.58825111 0.021720827
-0.048919883 -0.5864324 0.021990195
-0.044669192 -0.58632684 0.021531705
0.027154593 -0.58552557 0.021842565
-0.041145287 -0.5854637 0.021782629
0.028684992 -0.58548838 0.02166854
0.031550854 -0.58461392 0.021946589
0.033159822 -0.5845713 0.021769354
0.034743961 -0.58453649 0.021611696
0.098492265 -0.58445293 0.021837495
0.10140271 -0.58444017 0.021657752
0.16978666 -0.58420658 0.021597004
0.037868347 -0.58366907 0.021932201
0.041584264 -0.58358467 0.021573683
0.10473876 -0.58355772 0.021877484
0.10730552 -0.58350563 0.021592218
0.11307319 -0.58256543 0.021579495
0.17694031 -0.58239675 0.021986103
0.1774033 -0.58239985 0.021941859
0.051209755 -0.58172822 0.021636212
0.11458592 -0.58171767 0.021979891
0.11536268 -0.58168769 0.021892464
0.11883661 -0.58160192 0.021508476
0.18377295 -0.58142447 0.021862689
0.18423089 -0.58142436 0.021817511
0.12383101 -0.58066863 0.021578005
-0.065672368 -0.58925068 0.022147246
-0.065267846 -0.58923626 0.022103421
-0.059055507 -0.58831531 0.022075718
-0.056158978 -0.58746421 0.022361042
0.013546512 -0.58745426 0.02208145
0.017196739 -0.58656776 0.022299163
-0.04962359 -0.5864529 0.022078596
-0.049232826 -0.58644146 0.022029812
-0.045128778 -0.58555031 0.022184255
0.021417815 -0.58566487 0.022451928
0.02270624 -0.58563125 0.022307999
0.089612283 -0.58555388 0.022371441
0.090416037 -0.58553219 0.022296099
0.092213333 -0.58548403 0.02207442
0.029983696 -0.58464932 0.02211486
0.094050936 -0.58460933 0.022425093
0.095847234 -0.58455122 0.022188235
0.096642628 -0.58451891 0.022090837
0.16163254 -0.58441412 0.022481533
-0.035311606 -0.58373696 0.022371145
0.032822948 -0.58377558 0.022393204
0.03445936 -0.58373952 0.022232506
0.10030726 -0.5836429 0.022333654
0.10214107 -0.58361441 0.022158008
0.17107995 -0.58336455 0.022040494
0.10543498 -0.58273786 0.02237842
0.10807136 -0.58267772 0.022109
0.17318939 -0.58250052 0.022389973
0.17454112 -0.5824486 0.022236319
0.046782579 -0.58183712 0.022125605
0.17790137 -0.58156884 0.022456432
0.17845777 -0.58154666 0.022404175
0.11617928 -0.58085603 0.022384042
0.18317191 -0.58062482 0.022489974
0.18470016 -0.58060229 0.022323849
0.18522649 -0.58058274 0.022253437
0.1863564 -0.5805366 0.0221272
-0.067029156 -0.58850443 0.022920927
-0.066640615 -0.58848614 0.02287006
-0.066206895 -0.58846927 0.022821855
-0.065978765 -0.58845943 0.022783462
-0.064915627 -0.58842748 0.022667727
-0.059431784 -0.58752799 0.022717342
0.0058775297 -0.58764178 0.022892747
-0.056486905 -0.58667022 0.022994345
-0.053373631 -0.58658171 0.022572076
0.013214891 -0.5866636 0.022713719
-0.050300453 -0.58567131 0.022749629
0.01844044 -0.58573145 0.022746906
0.083852105 -0.58568406 0.022985207
0.086764641 -0.58561951 0.022676371
-0.045516916 -0.58477443 0.022842059
0.024027193 -0.58479923 0.022768933
0.025514804 -0.58476603 0.022607697
0.028370956 -0.58388907 0.022890611
0.031299476 -0.58381361 0.022566363
0.097383931 -0.58367795 0.022561576
0.16369012 -0.58353215 0.02280337
0.1644177 -0.58352256 0.022727391
0.16524021 -0.58349812 0.022643805
0.16604063 -0.58347124 0.022544283
0.099231333 -0.58282828 0.02296279
0.10105726 -0.58282226 0.02284907
0.16817117 -0.58259809 0.022896484
0.1702797 -0.58254975 0.022677841
0.10622171 -0.58190006 0.022868915
0.1087997 -0.5818516 0.022607774
0.11037955 -0.58099854 0.022999611
0.11271473 -0.58095044 0.022774702
0.17924783 -0.58070195 0.022878159
0.18001157 -0.58068895 0.022794602
0.18164267 -0.58065176 0.022660136
0.18263307 -0.58064663 0.022545815
0.18677345 -0.57971936 0.022645578
0.18886161 -0.57884026 0.02298652
0.18938705 -0.578839 0.022947621
0.0031656374 -0.58768094 0.023135712
-0.059845746 -0.58674693 0.023368143
0.009760607 -0.58674735 0.023070334
-0.053648394 -0.58579808 0.023224376
0.012919119 -0.58586949 0.02333816
0.015218758 -0.58580273 0.023068491
0.079140596 -0.58579189 0.023490585
0.082784109 -0.58571225 0.023098368
-0.05077669 -0.58490574 0.023437768
0.019748142 -0.58489978 0.023212709
0.15293074 -0.58460313 0.023368703
0.026830938 -0.58392584 0.023058642
0.091120228 -0.58388603 0.023364289
0.09294761 -0.58382976 0.02314074
0.16078497 -0.58360702 0.023119939
0.094777256 -0.58295554 0.023489365
0.16288809 -0.58273339 0.023462348
0.10287458 -0.58196783 0.023237739
0.10364193 -0.58195335 0.023142179
0.17239322 -0.58168459 0.023036705
0.10958926 -0.58101165 0.023080643
0.17497516 -0.5808062 0.023319189
0.17552549 -0.58079278 0.023248997
0.18053377 -0.57985109 0.023321206
0.1820794 -0.57982832 0.023169177
-0.067676857 -0.58771873 0.023593429
-0.067314252 -0.58771884 0.023553817
0.0028974344 -0.58688372 0.023759957
0.005516524 -0.58684707 0.023518108
-0.056858394 -0.58587921 0.023630725
0.0095028095 -0.5859502 0.023691468
-0.053948857 -0.58501005 0.023868507
0.012549544 -0.58507556 0.023964383
0.014959709 -0.58500481 0.023690458
0.016844667 -0.5849663 0.023509929
0.079850666 -0.58496785 0.023995114
0.0817433 -0.58492076 0.023794381
0.14787687 -0.58473057 0.023911588
0.15024658 -0.58467966 0.023658479
0.018104209 -0.58413285 0.023966879
0.019437419 -0.58410257 0.023830432
0.021063704 -0.58406705 0.023674089
0.08563187 -0.5840174 0.023953943
0.088488847 -0.58395386 0.023646319
0.15366879 -0.58377314 0.023862902
0.02361449 -0.58320248 0.023989314
0.091907993 -0.58304811 0.023851367
0.15839353 -0.58283997 0.023939701
0.16204116 -0.58276719 0.023572586
0.030980922 -0.5822143 0.023790633
0.095489159 -0.58212203 0.023971219
0.096270472 -0.58209366 0.023874568
0.09812779 -0.58202219 0.023618352
0.16729562 -0.58180159 0.023553707
0.10182217 -0.58117747 0.023925556
0.10439656 -0.58112627 0.023645056
0.16938779 -0.58093041 0.023903981
0.17154478 -0.58088702 0.023690974
-0.0031336143 -0.58708441 0.024466379
-0.068765953 -0.58695483 0.02432014
-0.068257585 -0.58694327 0.024271
0.0026362261 -0.586088 0.024383776
-0.060232505 -0.5859651 0.024011167
0.0092175715 -0.5851537 0.024319435
0.14338516 -0.58483511 0.024366738
-0.051124398 -0.5841158 0.024072047
0.08067362 -0.58413064 0.024486732
0.022273012 -0.5832358 0.02413035
0.086346664 -0.58319288 0.024454117
0.087422185 -0.58316994 0.024342455
0.089265257 -0.5831216 0.024138272
0.15442897 -0.58293068 0.024357149
0.15520141 -0.58291215 0.024265369
0.15600538 -0.58289754 0.024182146
0.15685821 -0.58286899 0.024100879
0.028063733 -0.5822888 0.024107948
0.092626899 -0.58221555 0.024336856
0.093674116 -0.58218181 0.024210388
0.16130601 -0.58194649 0.024216108
0.1649002 -0.58103848 0.024369562
0.1657327 -0.58100832 0.024284769
0.16646278 -0.58100659 0.024208982
0.1760007 -0.57913285 0.024337614
-0.013586975 -0.58813435 0.024988191
-0.0063216258 -0.58715147 0.02478605
-2.9095894e-05 -0.58619118 0.02470809
-0.060680352 -0.58518147 0.024653133
0.0049561146 -0.58524954 0.024753382
0.0052064164 -0.5852474 0.02473533
0.073029272 -0.58512604 0.024713671
0.13969994 -0.58492041 0.024735887
-0.057456076 -0.58430612 0.024896048
0.0083268434 -0.58437079 0.0249938
0.0087498296 -0.58436072 0.024957098
0.0122868 -0.58427709 0.0245884
0.076400191 -0.58422983 0.024916865
0.016437426 -0.58337027 0.024731129
0.082410969 -0.58328217 0.024878316
0.08352419 -0.58324999 0.024759376
0.084561162 -0.58322591 0.024640555
0.1517832 -0.58299446 0.024624508
0.088171206 -0.58233494 0.024835832
0.090065204 -0.58228266 0.024647601
0.15758923 -0.58203071 0.024584573
0.16044176 -0.58114737 0.024853813
0.16856998 -0.58012855 0.024559636
0.17066377 -0.57925814 0.024903407
-0.011063932 -0.58726996 0.025304569
-0.0084403744 -0.58720094 0.025000282
0.058300734 -0.58712006 0.025151584
-0.0065960684 -0.5863542 0.025402607
-0.0037440583 -0.5862956 0.025115682
-0.0034547728 -0.58628798 0.025088303
0.062831216 -0.58618766 0.025236258
-0.00027393125 -0.58539587 0.025335243
0.0023557555 -0.58529252 0.025002033
0.07016167 -0.58519757 0.025033126
0.0081232246 -0.58437645 0.025022192
0.14098698 -0.58406669 0.025174439
0.077190012 -0.58339685 0.025416324
0.078001961 -0.58337629 0.0253319
0.1454201 -0.58314323 0.025278043
0.14624643 -0.58312029 0.025192246
0.017747868 -0.5825367 0.025189169
0.085315131 -0.58239567 0.025140796
0.14913705 -0.5822295 0.025478454
0.14988875 -0.5822168 0.025389139
0.15257381 -0.58214718 0.025106734
0.090763852 -0.58145607 0.025141278
0.16251057 -0.58028078 0.025204785
0.16332756 -0.58024758 0.025111198
0.16408348 -0.58023536 0.025017755
-0.016288377 -0.58738232 0.025827684
-0.011393416 -0.5864712 0.025916783
-0.0087246606 -0.58640248 0.02562082
-0.0042021046 -0.585504 0.025759244
-0.0039897375 -0.58549905 0.02573608
-0.0006025834 -0.5846042 0.025968455
0.06670256 -0.58446157 0.025970381
0.069061011 -0.58441573 0.025737425
0.13756453 -0.58415449 0.025532866
0.0045494852 -0.58364761 0.025968626
0.0078253448 -0.58358186 0.025651583
0.071876034 -0.58353287 0.025997955
0.074579254 -0.58345777 0.025705757
0.13888955 -0.58328801 0.025951251
0.078761309 -0.58254558 0.025840299
0.079521753 -0.58253342 0.025765961
0.081337616 -0.58249354 0.025566196
0.14462854 -0.58233559 0.025925076
0.14834858 -0.58224612 0.02554794
0.084196508 -0.58161098 0.025835954
0.08711569 -0.58154583 0.025525566
0.15069228 -0.58137035 0.025881648
0.15331373 -0.5813117 0.025599984
0.15412842 -0.58129191 0.025515396
0.088889144 -0.58069205 0.025916114
0.15489271 -0.58044738 0.025996508
0.15648478 -0.58041412 0.02584026
0.15886334 -0.58035421 0.02557529
-0.024471441 -0.58838212 0.026088094
-0.01973396 -0.58746153 0.026199194
-0.01660038 -0.58658266 0.026447479
-0.013928759 -0.58653146 0.026200267
0.053002689 -0.5864321 0.026284868
-0.0090658814 -0.58560652 0.026248459
-0.0068642711 -0.58555621 0.026019238
0.12465037 -0.58528739 0.02634057
-0.0045692483 -0.58470809 0.02638872
0.12886864 -0.58436376 0.026468709
0.001936509 -0.58369565 0.026223917
0.067719497 -0.58362919 0.026452307
0.13670747 -0.58335674 0.026203699
0.072704762 -0.58269215 0.026485303
0.075294346 -0.58263248 0.02619596
0.1401217 -0.58244681 0.026395705
0.14381105 -0.58236116 0.026017582
0.14672486 -0.5814597 0.02628606
0.1475469 -0.5814451 0.026212441
-0.034159422 -0.58940315 0.026507715
-0.021413319 -0.58669484 0.026952829
0.048532121 -0.58654177 0.026776999
-0.014317693 -0.58573747 0.026825771
-0.011715978 -0.58567566 0.026537895
0.12152839 -0.58536017 0.026669992
0.12229826 -0.58534098 0.026592115
-0.0093205217 -0.58480918 0.02687203
0.05793675 -0.58468926 0.026930502
0.059307888 -0.58465081 0.026785925
0.12673262 -0.58441645 0.026696542
-0.0012347841 -0.58381945 0.026625263
-0.00094209058 -0.58380741 0.02658744
0.064498134 -0.58370936 0.026780948
0.065593682 -0.58368033 0.026663262
0.12967499 -0.5835166 0.026966734
0.13042063 -0.58350396 0.026871977
0.13122937 -0.58348233 0.026795173
0.068737581 -0.58279532 0.026924837
0.070850104 -0.58273739 0.026686719
0.13514595 -0.5825637 0.026947403
0.13589717 -0.58255595 0.026869714
0.006643645 -0.58200651 0.02696025
0.074263528 -0.58183783 0.026896246
0.076078795 -0.5817951 0.026688958
0.1422383 -0.58157235 0.026748624
0.14303556 -0.58154672 0.02666196
0.14586435 -0.58066493 0.026926905
-0.071160577 -0.59510034 0.027049348
-0.035572615 -0.58861601 0.027217135
-0.034471896 -0.58860761 0.027129902
-0.028865648 -0.58767772 0.027143005
-0.025052866 -0.58678955 0.027338294
-0.022918686 -0.58673692 0.027114928
0.04398524 -0.58665776 0.027254956
-0.020062119 -0.58586633 0.02742062
-0.018511485 -0.585823 0.027244501
-0.01692318 -0.58578336 0.027068518
0.048228435 -0.58573675 0.027387664
0.049781505 -0.58569711 0.027212318
-0.014621882 -0.58494323 0.027448377
-0.011985939 -0.58487868 0.027159272
0.054212492 -0.58477712 0.02730535
0.05556174 -0.58474255 0.027168462
0.1196027 -0.58458173 0.027427418
0.18783434 -0.58419311 0.027395932
-0.0072466792 -0.58395869 0.027246451
-0.0048908144 -0.58391047 0.027010158
0.060271639 -0.58381605 0.027245242
0.061346099 -0.58379024 0.02712968
0.062468316 -0.5837549 0.02701222
0.12592098 -0.58360863 0.027345052
0.12803465 -0.58355898 0.027126309
-0.0014596662 -0.58302081 0.027247375
0.063493326 -0.58291799 0.027482135
0.13194363 -0.58264941 0.027293144
0.13279162 -0.58262062 0.027187349
0.13356797 -0.58260316 0.027091848
0.0039849062 -0.5820483 0.027210686
0.06976679 -0.58195114 0.027388802
0.071584113 -0.58191007 0.027187547
0.13796823 -0.58167487 0.02717883
0.13931239 -0.58163476 0.027037188
0.076838888 -0.58096403 0.027188884
0.14059325 -0.58078223 0.02747038
0.14140294 -0.58076775 0.027390409
0.148821 -0.57976496 0.027208604
-0.041614138 -0.58876646 0.027872117
-0.041296009 -0.58876175 0.027845697
-0.035868607 -0.58782732 0.027841499
-0.035379432 -0.58780849 0.027793344
-0.034756068 -0.5878107 0.027752016
0.036148313 -0.58765966 0.027522935
-0.029374272 -0.58689231 0.027800351
0.039821513 -0.58676887 0.027799563
0.041357819 -0.58673286 0.0276214
-0.025606267 -0.58599997 0.027986575
-0.025346974 -0.58599555 0.027961519
-0.023242377 -0.5859403 0.027736001
-0.021676634 -0.58589387 0.027567312
0.045304097 -0.58581042 0.02769926
-0.012247274 -0.58408499 0.027786678
0.056584667 -0.58390635 0.027652415
0.12038231 -0.58373564 0.027911121
-0.0075213518 -0.58316231 0.027870139
-0.0052121151 -0.58311641 0.027635051
0.12510681 -0.58280593 0.02799795
0.13432148 -0.58175659 0.027566304
0.070494331 -0.58112377 0.027887428
0.13717714 -0.58087027 0.027835814
0.077608645 -0.58013153 0.027687667
0.14507252 -0.57985729 0.027576698
-0.050317783 -0.58977699 0.028222067
-0.049761526 -0.58975536 0.028151592
-0.042005878 -0.5879662 0.028485633
-0.036150113 -0.58703429 0.028466938
-0.029905159 -0.58610004 0.028436119
0.039498422 -0.58596474 0.028408485
-0.023603886 -0.58514798 0.028362812
0.046610273 -0.58496428 0.028147638
0.11121292 -0.58478516 0.028334189
0.11196917 -0.58477002 0.028261045
-0.018854458 -0.58422434 0.028465645
-0.014909559 -0.58414763 0.028071355
0.18107212 -0.58434415 0.02813367
0.05263105 -0.58399987 0.028057694
0.11698172 -0.58381689 0.028277325
-0.0096259015 -0.58321315 0.028099667
0.18726093 -0.58338499 0.028011637
0.12113099 -0.58289993 0.028399285
0.12193596 -0.58288026 0.028324449
0.062132809 -0.58213663 0.028202863
0.12719254 -0.58193666 0.02835458
0.12850875 -0.58190161 0.028204277
0.065267585 -0.58124614 0.028435733
-0.045647442 -0.58805817 0.028887404
-0.042272851 -0.58796984 0.028508034
-0.036724556 -0.5870434 0.028533651
-0.036454268 -0.58703589 0.028500972
0.029811701 -0.58699161 0.028757822
0.034231104 -0.58607197 0.028856337
0.037628874 -0.58600271 0.028551204
0.10003946 -0.58583307 0.028940866
-0.025910705 -0.58519876 0.028604846
0.04106728 -0.58510911 0.028807495
0.04260144 -0.58506441 0.02857331
0.107037 -0.58487624 0.028778948
0.17366485 -0.58451986 0.028895006
-0.022024302 -0.58429199 0.028783526
0.045033466 -0.58418697 0.028884096
0.1135835 -0.58390087 0.028657194
-0.017581042 -0.58339214 0.028915869
-0.015180982 -0.58334976 0.028691236
0.049464494 -0.58325994 0.028980531
0.050998736 -0.58322626 0.028811485
0.11771807 -0.58297914 0.02876137
0.11851209 -0.5829578 0.0286751
0.055191573 -0.58230746 0.028940039
0.057566937 -0.5822553 0.028698232
0.058909852 -0.58222145 0.028555987
0.12268297 -0.58204091 0.028818134
0.12353554 -0.58201003 0.028718945
0.12429572 -0.58199739 0.028636586
0.19095926 -0.58162951 0.028738687
0.19198826 -0.58160496 0.028630013
0.19251145 -0.58159435 0.028569991
0.060979765 -0.58135664 0.028905919
0.063098945 -0.58130318 0.028675636
0.064169817 -0.58127576 0.028555475
0.12929647 -0.58105528 0.028695609
0.13009498 -0.58104122 0.028607536
-0.042688821 -0.58717841 0.029154161
-0.042498387 -0.58717358 0.029128252
0.02533691 -0.5871073 0.029243734
-0.037672359 -0.58626628 0.029233402
-0.03725864 -0.58625519 0.029186301
-0.036986478 -0.58624703 0.029157959
0.032648705 -0.58610946 0.029018851
-0.031522926 -0.58533245 0.02920296
-0.031250611 -0.58532679 0.029175403
-0.030797232 -0.5853169 0.029126935
-0.030352652 -0.5853045 0.029066969
0.035773586 -0.58522636 0.029286612
0.043672659 -0.58422136 0.029025361
0.10779358 -0.5840354 0.029274909
0.1142919 -0.58306891 0.029135684
0.115085 -0.58303022 0.029038236
0.052327763 -0.58237761 0.029248666
0.053837653 -0.58234507 0.029079201
0.11924917 -0.58211929 0.029159639
0.18436077 -0.58178777 0.02944489
0.056227446 -0.58147269 0.029421054
0.059929114 -0.58138198 0.029015148
0.19303727 -0.58074504 0.029071163
-0.05692824 -0.58916539 0.029676065
-0.054066259 -0.58829403 0.029924767
-0.051361736 -0.5881964 0.029529043
-0.046199456 -0.58726168 0.029532975
-0.045954503 -0.58725607 0.029507641
-0.043046657 -0.58637685 0.029778805
0.026678963 -0.58625668 0.02968166
-0.038231768 -0.58547872 0.029899199
0.097091846 -0.58505428 0.029754551
0.098915741 -0.58500105 0.029533673
-0.032024309 -0.58454728 0.029854111
0.035466589 -0.58442098 0.029897559
0.037325691 -0.58438236 0.029738665
0.039209381 -0.58434224 0.029590825
0.10260192 -0.58414197 0.02982294
0.10517664 -0.58409274 0.02954337
0.040728919 -0.58348846 0.029995175
0.042308372 -0.58344436 0.029777832
0.10850858 -0.58320296 0.029772393
-0.019141095 -0.58262676 0.029686078
0.046285793 -0.58252954 0.029921375
0.1765527 -0.58277059 0.029691793
0.047813561 -0.58249176 0.029744292
0.11165811 -0.58230203 0.029979764
0.11241541 -0.58229119 0.029916031
0.11584518 -0.58220172 0.029534684
0.050730754 -0.58160156 0.029999783
0.052056078 -0.5815689 0.029856073
0.053570542 -0.58153474 0.029684883
0.11739937 -0.58134079 0.029919969
0.12004081 -0.58127308 0.029635107
0.057229336 -0.58063799 0.029886223
0.18538021 -0.58091462 0.029858032
0.18596062 -0.58088982 0.029800013
0.19354121 -0.57990021 0.02955761
-0.051754896 -0.58741379 0.030172383
0.014678359 -0.58734876 0.030340407
0.019192979 -0.58643883 0.030460721
0.020831998 -0.58639902 0.030292451
-0.043684892 -0.5855884 0.030437024
-0.043392766 -0.58557492 0.030398984
0.024966311 -0.58548993 0.030436667
0.03081323 -0.58452421 0.030384552
0.15964246 -0.58484614 0.030367967
0.032307036 -0.58449012 0.030212075
0.033938471 -0.58444935 0.030043012
0.097882487 -0.58419734 0.03020802
0.10075274 -0.5841819 0.030015983
-0.032318484 -0.58374757 0.030473033
0.10334932 -0.58330166 0.030304819
0.10411081 -0.58328927 0.030222645
0.16989972 -0.58292711 0.030388672
0.17283657 -0.58287519 0.030084603
0.10925481 -0.58235717 0.030231979
0.11005647 -0.58233714 0.030140338
0.049135379 -0.58164096 0.030177627
0.17414919 -0.58199358 0.030484177
0.17701565 -0.58194053 0.030192101
0.11321122 -0.5814448 0.030400533
0.11396678 -0.58142686 0.030306209
0.11661153 -0.58135456 0.030014858
0.18331955 -0.58097142 0.030110961
0.11817656 -0.58049899 0.0304107
-0.061194759 -0.58847219 0.030751752
-0.060935926 -0.5884645 0.030713739
-0.057673287 -0.58757913 0.030937113
-0.0543878 -0.58749938 0.030554995
0.012165568 -0.58742034 0.030626561
-0.052072026 -0.58662027 0.030806564
0.016287895 -0.58650476 0.030758953
-0.046623558 -0.58566689 0.030759674
0.022042362 -0.58555889 0.030738821
0.023411911 -0.58552426 0.030599469
-0.03887745 -0.58469683 0.030562084
0.026291268 -0.58464074 0.030876812
0.027902123 -0.58459592 0.030695302
0.029464552 -0.58455896 0.030529954
0.093431547 -0.58435482 0.030803448
0.094513766 -0.58431816 0.030668983
-0.032648776 -0.58375192 0.03050622
0.099720724 -0.58336735 0.030663081
0.101538 -0.58334225 0.03051044
0.16615565 -0.58302385 0.030764434
0.16695866 -0.58300376 0.030686868
-0.027397264 -0.58282149 0.030521344
0.037027907 -0.58275932 0.030920465
0.03886456 -0.58272243 0.030774996
0.16779487 -0.58297187 0.03060561
0.10490014 -0.58244449 0.030702014
0.10589613 -0.58242977 0.030596314
0.10667259 -0.5824157 0.030515432
0.17198497 -0.58205622 0.030734804
0.043286957 -0.58179039 0.03080119
0.044606943 -0.58175993 0.030663166
0.17460844 -0.58115679 0.030992297
0.17512393 -0.58115399 0.030940577
0.17752203 -0.58110517 0.030701596
0.17802697 -0.58109087 0.03065224
0.18066233 -0.58019078 0.030924931
0.18120492 -0.58017433 0.030879956
0.18173903 -0.58016956 0.030828979
0.18224728 -0.5801664 0.030772347
0.18276878 -0.5801568 0.030714793
-0.061737575 -0.58768177 0.031396724
-0.061471041 -0.58767927 0.031369641
0.00447674 -0.58759075 0.031414062
0.0077141011 -0.58752745 0.031096108
-0.054681707 -0.58670872 0.031183837
0.011762727 -0.58661735 0.031252604
-0.052355286 -0.58582538 0.031436712
0.082180806 -0.58546132 0.031479012
0.083273321 -0.58543068 0.031360175
0.15150879 -0.5850333 0.031226648
-0.047097083 -0.58487332 0.031396523
0.020498138 -0.58478004 0.031490121
0.091605194 -0.58440918 0.031026797
0.1556668 -0.58410645 0.031331241
0.15724787 -0.58406574 0.031168917
0.15802839 -0.58404827 0.031088576
-0.039258249 -0.58389932 0.031184809
0.095231771 -0.58347136 0.031126836
0.095976807 -0.58344823 0.031030837
0.035159234 -0.58279842 0.03108014
0.096728146 -0.58259553 0.031497531
0.09857484 -0.5825339 0.031252075
0.16538773 -0.58220196 0.031406112
0.16904609 -0.58212006 0.031015454
0.040422242 -0.58186692 0.031190576
0.10739464 -0.58157718 0.03100091
0.17035611 -0.5812583 0.031435754
0.17113762 -0.58124787 0.031366661
0.17251348 -0.58121347 0.031219961
0.17328808 -0.58120084 0.031147482
0.10817327 -0.58073884 0.031498387
0.17857413 -0.58023137 0.031133434
0.1796155 -0.58021665 0.031023646
-0.071797177 -0.58869058 0.031842317
-0.058150787 -0.5867871 0.031585824
0.0073588677 -0.5867216 0.031706501
-0.054956134 -0.58591491 0.031811815
0.011295578 -0.58581537 0.031878378
0.014209079 -0.58573496 0.031549707
0.080376372 -0.58549994 0.031678166
0.017582661 -0.58484399 0.03177971
0.086070448 -0.5845511 0.031623539
0.14960319 -0.5842436 0.03196625
0.15224731 -0.58418721 0.031696748
0.021713367 -0.58393896 0.031930182
0.087902285 -0.58368337 0.031988114
0.089747839 -0.58363372 0.03180328
0.09052667 -0.58361816 0.031716384
0.092305139 -0.58357114 0.031501755
0.094159186 -0.58268297 0.031837285
0.033554643 -0.58201855 0.031817988
0.1609247 -0.58231592 0.031894937
0.16167328 -0.58230895 0.031823676
0.16451661 -0.58223766 0.031505045
