# .PCD v0.7 - Point Cloud Data file format
VERSION 0.7
FIELDS x y z
SIZE 4 4 4
TYPE F F F
COUNT 1 1 1
WIDTH 1281
HEIGHT 1
VIEWPOINT 0 0 0 1 0 0 0
POINTS 1281
DATA ascii
0.12369172 -0.21809918 -0.0016324723
0.12379238 -0.22274959 -0.00058475375
0.12401186 -0.23138788 -0.0011853826
0.12410659 -0.2359255 0.00011259532
0.12441695 -0.24879333 0.00052300846
0.12472674 -0.26147214 0.00061504997
0.12492348 -0.26988912 0.0013793339
0.12538455 -0.28686666 -0.0022054822
0.12558413 -0.29535601 -0.0015528696
0.12592344 -0.30847159 -0.0029870381
0.12605223 -0.31305537 -0.0042935307
0.12649758 -0.33101383 -0.0047508772
0.12682478 -0.34465712 -0.0042242119
0.12716486 -0.35873547 -0.0038789483
0.12739496 -0.36833343 -0.003509613
0.12764353 -0.37840623 -0.0036832553
0.12799004 -0.39330456 -0.0022777803
0.12817872 -0.3998363 -0.0045693982
0.1285865 -0.41657561 -0.0044623497
0.12889475 -0.42881346 -0.0051906686
0.1292436 -0.44497433 -0.0015566804
0.12959383 -0.45880842 -0.0025349467
0.12988101 -0.46862239 -0.0062972563
0.13036409 -0.4892444 -0.0046883887
0.13078412 -0.50593847 -0.0056885947
0.13135493 -0.53012729 -0.0041598561
0.13181716 -0.54900169 -0.0043094778
0.13241893 -0.57553977 -0.00072449725
0.1325075 -0.58130258 0.0033833594
0.13232286 -0.58210689 0.019549534
0.13212322 -0.5821681 0.035475221
0.1323472 -0.59512478 0.042744521
0.1331135 -0.62877297 0.046983302
0.11729368 -0.15535899 0.39464572
0.11724523 -0.15071371 0.38968912
0.11976612 -0.05385223 0.011792378
0.12013343 -0.069295891 0.012527134
0.12033196 -0.079175726 0.015848598
0.12064794 -0.091526449 0.014710116
0.12108724 -0.10770451 0.011242218
0.12124553 -0.1157192 0.014163105
0.12162096 -0.12205137 -0.003096292
0.12190422 -0.1346225 -0.0012411396
0.12217252 -0.14548583 -0.001472887
0.12243125 -0.15619475 -0.0012471461
0.12255476 -0.16211028 0.00039751295
0.12292452 -0.17633921 -0.0013279309
0.12315851 -0.18620592 -0.00076607458
0.12339325 -0.19530955 -0.0017218025
0.12349819 -0.20041947 -0.00015613345
0.12384007 -0.21362285 -0.0016503638
0.12394236 -0.21830782 -0.00068803463
0.1241558 -0.22715273 -0.00046373857
0.1244739 -0.24013028 -0.00051960256
0.12468296 -0.24868563 -0.00050418417
0.12487604 -0.25726369 0.0008106039
0.12517782 -0.26987937 0.0013467997
0.12529321 -0.27407342 0.00033913794
0.12552379 -0.28256348 -0.0014543553
0.12573929 -0.29110435 -0.0019492593
0.12595211 -0.29969212 -0.0021424382
0.12616193 -0.30831608 -0.0020312387
0.12638533 -0.31714553 -0.0025968696
0.12651353 -0.32178926 -0.0037393349
0.1266419 -0.32648638 -0.0047933864
0.12706067 -0.34436536 -0.0032990621
0.127294 -0.3538028 -0.0034850026
0.12754551 -0.36368796 -0.0042438572
0.12777461 -0.37334302 -0.0036817505
0.12814517 -0.3885963 -0.0034825513
0.1284115 -0.39936668 -0.0037168362
0.12869874 -0.41078269 -0.0043632379
0.12907879 -0.42719752 -0.0026935737
0.1293155 -0.43528223 -0.0057983189
0.12971115 -0.45273498 -0.0033730615
0.130036 -0.46612981 -0.0031991098
0.13048461 -0.48296446 -0.0061881067
0.13096131 -0.50386876 -0.0035461909
0.13140327 -0.52152377 -0.004445747
0.13186778 -0.54024816 -0.0050768349
0.13244781 -0.56586814 -0.001555366
0.13256563 -0.57240576 0.0017324757
0.13263099 -0.58058554 0.01235011
0.13245994 -0.58465636 0.033776246
0.13235608 -0.58745438 0.047421731
0.13314301 -0.61836416 0.044704951
0.13753426 -0.77117693 -0.0085653104
0.11767229 -0.15579917 0.38862768
0.1199173 -0.048466131 0.014189194
0.12028294 -0.063293748 0.013869952
0.1206205 -0.076560959 0.012781912
0.12095059 -0.090267196 0.013117082
0.12125712 -0.10251203 0.012516792
0.12141924 -0.11060464 0.015276671
0.12182038 -0.12318856 0.007958469
0.12208073 -0.12938209 -0.00055078242
0.12235367 -0.14077921 -0.00012891601
0.12248588 -0.14686495 0.0011544705
0.12274174 -0.15748028 0.0014269553
0.1231154 -0.17172463 -0.00056814071
0.12335612 -0.18127991 -0.0011275397
0.1234682 -0.18653023 0.00014445938
0.12381704 -0.20012206 -0.0011458966
0.12403674 -0.20938131 -0.0006186933
0.12425609 -0.21829639 -0.00071979169
0.12447762 -0.22695701 -0.0014784194
0.12457407 -0.23153377 -0.00026306303
0.12488802 -0.24445856 -8.5142405e-05
0.12497634 -0.2488701 0.0014539907
0.12528409 -0.26149669 0.0015493638
0.12550439 -0.26985708 0.00031461162
0.12585112 -0.28259343 -0.0024858345
0.12595227 -0.28684536 -0.0022708855
0.12616636 -0.29542843 -0.0026140055
0.12658565 -0.31270829 -0.0023866422
0.12680754 -0.32158062 -0.0027918126
0.12702715 -0.33052996 -0.0028720447
0.12726286 -0.33980942 -0.003586544
0.12740871 -0.34491771 -0.0052504363
0.12783401 -0.36332852 -0.0033396056
0.12806195 -0.37295112 -0.0027902713
0.12824936 -0.37917832 -0.0055865701
0.12857473 -0.39372754 -0.003241732
0.12895918 -0.40979061 -0.0026541217
0.12919439 -0.41756549 -0.0062562265
0.1294793 -0.42932761 -0.006104202
0.12985246 -0.44611084 -0.0032565533
0.13026468 -0.46425667 -0.00088166789
0.1305764 -0.47479618 -0.0052231792
0.1311062 -0.4968535 -0.0046292166
0.13162789 -0.51648605 -0.0080763493
0.13204256 -0.53372467 -0.0076799281
0.13257416 -0.55777919 -0.0034212789
0.13326845 -0.58411032 -0.0076605417
0.13301101 -0.58298171 0.010526889
0.13279162 -0.58262062 0.027187349
0.13315736 -0.60626578 0.043752395
0.13747349 -0.75521255 -0.011246274
0.11790192 -0.15455019 0.39016709
0.12038086 -0.056590103 0.014632856
0.12073743 -0.071267031 0.014714185
0.12106654 -0.084392399 0.013994211
0.12138273 -0.097316921 0.01390704
0.12168172 -0.10943042 0.013624608
0.12196311 -0.12023836 0.012238348
0.12223032 -0.12936872 0.0087694647
0.12248888 -0.13558967 0.00044071188
0.12275494 -0.14685526 0.0011283206
0.12301151 -0.1570383 0.00049908791
0.12326013 -0.16711028 0.00028380984
0.12362762 -0.18091814 -0.0020896753
0.12374002 -0.18618485 -0.00082366529
0.12396976 -0.19559114 -0.00082644355
0.12431645 -0.20886691 -0.0025801349
0.12441429 -0.21383727 -0.00073642493
0.12451598 -0.21850526 0.00022979827
0.12496144 -0.23559491 -0.0019546833
0.12516412 -0.24433367 -0.0011046657
0.12544471 -0.25730589 0.0017501126
0.12554981 -0.26148713 0.0015231242
0.12578236 -0.26983666 -0.00071149535
0.12620334 -0.28677699 -0.0012989971
0.12633215 -0.29115969 -0.0030050387
0.12656058 -0.29989329 -0.004188722
0.12697893 -0.31730479 -0.0036394768
0.12720045 -0.32625133 -0.0038759608
0.12750928 -0.33953503 -0.0026490511
0.12774269 -0.34890085 -0.0030195396
0.12797409 -0.35837334 -0.0030297958
0.12813988 -0.36401549 -0.0052407701
0.12857345 -0.38304839 -0.0028012844
0.12881753 -0.39327431 -0.0023728935
0.12902841 -0.40026569 -0.0055525042
0.12938961 -0.41603985 -0.0036957031
0.12969676 -0.42824793 -0.0044425968
0.13006845 -0.44494435 -0.0016534145
0.13032968 -0.45390067 -0.0050435462
0.13079074 -0.47351882 -0.0037049477
0.13118677 -0.48921448 -0.0047865105
0.13168408 -0.51088399 -0.0023878897
0.13217551 -0.53009748 -0.0042592501
0.13266337 -0.54971927 -0.0050733993
0.13319972 -0.57123858 -0.0060795657
0.13338348 -0.58618248 0.0081140948
0.13311298 -0.58126545 0.02003075
0.13294001 -0.58213991 0.035374317
0.13322929 -0.60023546 0.047288135
0.13395497 -0.62962282 0.046402231
0.11812031 -0.1553421 0.39455968
0.12062057 -0.054516897 0.012433138
0.12097968 -0.069270916 0.012443557
0.12131704 -0.083113328 0.012425743
0.12163021 -0.095482111 0.011502808
0.1218015 -0.10428758 0.014870991
0.12222152 -0.11968093 0.011377698
0.12247299 -0.12412305 0.00022553156
0.12261424 -0.13038701 0.0011164075
0.12301607 -0.1454609 -0.0015579308
0.12327433 -0.15616988 -0.0013323885
0.12352467 -0.16630536 -0.0015767523
0.12364186 -0.17209582 0.00030064626
0.12400416 -0.18584548 -0.0017937949
0.12423468 -0.19528486 -0.0018077468
0.12445805 -0.20461875 -0.0014622702
0.12456387 -0.20936814 -0.00067322631
0.12489768 -0.22251384 -0.001682122
0.12510864 -0.2313536 -0.001303614
0.12521182 -0.23574138 -0.00099446229
0.12530398 -0.24023847 0.00038480372
0.12560852 -0.25304532 0.0010248532
0.12580858 -0.26148382 0.0014945467
0.126041 -0.26983339 -0.00074011541
0.126361 -0.28253925 -0.0015416853
0.1264759 -0.2868326 -0.0023258373
0.12678827 -0.29966795 -0.0022301015
0.12690118 -0.30404028 -0.0027085841
0.12712575 -0.31285846 -0.0034284284
0.12725425 -0.31748155 -0.0046518999
0.12756868 -0.33074859 -0.0039003023
0.12780505 -0.34006184 -0.0046062265
0.12803978 -0.34949461 -0.0049570464
0.1284612 -0.36793524 -0.002702211
0.12862715 -0.37369972 -0.0046953782
0.1289757 -0.38857245 -0.0035719564
0.12924133 -0.39934286 -0.0038064525
0.12952787 -0.41075894 -0.004453077
0.12983623 -0.42289186 -0.0054483726
0.13014315 -0.43525851 -0.0058886362
0.13053757 -0.45271137 -0.0034637242
0.1308866 -0.4667269 -0.0040737083
0.13125844 -0.48164564 -0.0047562909
0.13181044 -0.50453186 -0.0043644207
0.13225165 -0.52221185 -0.0052399351
0.1327153 -0.54096037 -0.0058461134
0.13325411 -0.56231964 -0.0073844888
0.13346499 -0.57472569 -0.00023226335
0.1334215 -0.57976025 0.012853194
0.13324875 -0.58380139 0.034236375
0.133157 -0.58399934 0.041858878
0.13398375 -0.61921102 0.044117
0.13836914 -0.7720477 -0.0091099292
0.11831281 -0.15506962 0.40057528
0.11846034 -0.15516484 0.38932508
0.12074873 -0.048445866 0.014104929
0.12125673 -0.067272276 0.01016948
0.12145547 -0.077191658 0.013456156
0.12177312 -0.089623019 0.012250513
0.12208365 -0.10249195 0.012431346
0.12237407 -0.11398386 0.011577793
0.12263143 -0.11993463 0.0028186662
0.12290646 -0.12987112 0.0002237822
0.12317696 -0.14075904 -0.00021520848
0.12343805 -0.15150116 -0.00019298046
0.12369093 -0.16166225 -0.00062948413
0.12381031 -0.16750053 0.0011393643
0.124049 -0.17741299 0.0013426975
0.12428697 -0.18651026 5.7141715e-05
0.1245151 -0.19588353 6.5346801e-05
0.12474187 -0.20488131 -0.00053242809
0.12507883 -0.21805806 -0.001783643
0.12528421 -0.22712153 -0.0005838346
0.12561052 -0.2399665 -0.0016312615
0.12570082 -0.24443887 -0.00017377909
0.12600146 -0.25723267 0.00068948721
0.12631446 -0.26983756 0.00022538971
0.12653172 -0.27827093 -0.00071668922
0.12666017 -0.28257394 -0.0025753407
0.12686059 -0.29107341 -0.0020714286
0.1270874 -0.29977226 -0.0032585503
0.12729661 -0.30843091 -0.0031430684
0.12763001 -0.32175851 -0.0038623274
0.12784946 -0.33074197 -0.0039352649
0.12806624 -0.3397902 -0.0036772098
0.12838565 -0.35345715 -0.0026600158
0.12855057 -0.35902676 -0.0049805534
0.12888291 -0.37331265 -0.0038061151
0.12922919 -0.38813761 -0.0027040273
0.12937255 -0.39370862 -0.0033334789
0.12977827 -0.41026217 -0.00361738
0.1300381 -0.42132401 -0.0029233636
0.13036646 -0.43415225 -0.004254641
0.13066919 -0.44667092 -0.0041644713
0.1310682 -0.46180305 -0.006670109
0.13150021 -0.48099187 -0.0040307711
0.1318161 -0.49481365 -0.0025076084
0.13238698 -0.51576847 -0.0074560526
0.13285212 -0.53442991 -0.0084640961
0.13335468 -0.55776095 -0.0035163022
0.13399269 -0.58253008 -0.0065082498
0.13376115 -0.58216161 0.011027625
0.13356797 -0.58260316 0.027091848
0.13396558 -0.61051542 0.049020112
0.13825798 -0.76042396 -0.0033267115
0.11870366 -0.15454037 0.39008084
0.12099686 -0.046334121 0.011943662
0.12121864 -0.057264324 0.015272785
0.12156568 -0.071251616 0.014629854
0.12203148 -0.088370085 0.010662257
0.12220721 -0.09730164 0.01382228
0.12250443 -0.1094152 0.013539649
0.12278157 -0.11966961 0.011320437
0.12316932 -0.12884782 -0.001522788
0.12330825 -0.13557443 0.00035533844
0.12357274 -0.14637655 0.00015666769
0.12395537 -0.16124102 -0.0015637958
0.12407473 -0.16709523 0.00019793087
0.12431356 -0.17703994 0.00038790377
0.1246734 -0.19040655 -0.0023780076
0.12478005 -0.19557625 -0.00091277162
0.12500121 -0.20487675 -0.00055738748
0.12533708 -0.21805355 -0.0018085144
0.12554982 -0.22693272 -0.0015914656
0.12576552 -0.23558028 -0.0020416314
0.12596677 -0.24431911 -0.0011917481
0.12616153 -0.25295359 -3.0524854e-05
0.12623394 -0.25735465 0.0026607779
0.12654333 -0.26985496 0.0022006377
0.12679841 -0.27829057 -0.0017407296
0.12742077 -0.30390084 -0.0017761365
0.12754841 -0.3084265 -0.0031674416
0.12777077 -0.31729037 -0.0037276084
0.12808216 -0.33050621 -0.0029868721
0.12819032 -0.33500606 -0.0029037057
0.12852983 -0.34888643 -0.0031081063
0.1286747 -0.35408291 -0.0045820181
0.12892488 -0.36400101 -0.0053295474
0.12927593 -0.37875804 -0.0047846171
0.1295428 -0.38941827 -0.0054382472
0.12980808 -0.40025121 -0.0056417915
0.13016689 -0.4160254 -0.0037852139
0.13054055 -0.43249768 -0.0017743804
0.13080001 -0.44122875 -0.0055433754
0.13118894 -0.45876402 -0.0027222412
0.13158473 -0.47413862 -0.0045680152
0.13195331 -0.48920006 -0.0048770853
0.13257733 -0.51436538 -0.0060512628
0.13290976 -0.52935946 -0.0036607645
0.13344754 -0.55045223 -0.0058288435
0.13398097 -0.57199425 -0.0068088211
0.13405104 -0.58046728 0.0038006264
0.133865 -0.58125144 0.019938814
0.13369131 -0.58212614 0.035282377
0.1340047 -0.60108215 0.046686824
0.13469884 -0.62960929 0.046309572
0.11894604 -0.15593593 0.39368179
0.12146125 -0.05518534 0.01307668
0.12181103 -0.069249615 0.01236284
0.1220075 -0.079129614 0.015683951
0.1224627 -0.096071109 0.012213838
0.12276179 -0.10824063 0.011889555
0.12291794 -0.11624119 0.014820198
0.12330633 -0.12672253 0.0044020019
0.12357239 -0.13507017 -0.00053823454
0.12370707 -0.14170206 0.0014909663
0.12409487 -0.15614831 -0.0014143272
0.12421561 -0.16248049 0.0011392428
0.12445769 -0.17245887 0.0011415847
0.12481689 -0.18615964 -0.00093421782
0.1249253 -0.19135407 0.00044054826
0.1252723 -0.20459715 -0.0015448817
0.12549385 -0.21357663 -0.0018193587
0.12570964 -0.2224922 -0.0017649786
0.12591945 -0.23133196 -0.0013865916
0.12612307 -0.2400842 -0.00068940339
0.12633067 -0.24863958 -0.00067424
0.12639481 -0.25318488 0.0029349537
0.12659204 -0.26155373 0.0034089121
0.12693658 -0.2740275 0.00016833597
0.12705106 -0.27825591 -0.00076581415
0.12728009 -0.28681085 -0.0024096966
0.12739424 -0.29113466 -0.0031176836
0.12770326 -0.3040185 -0.0027927654
0.12802088 -0.31709966 -0.0027693012
0.12814833 -0.32174337 -0.0039119427
0.12845775 -0.33499539 -0.0029291362
0.12867212 -0.34403774 -0.0025132878
0.12892279 -0.35375708 -0.0036588439
0.1291725 -0.36364228 -0.0044180783
0.12950157 -0.3779541 -0.0029751365
0.1296887 -0.38426104 -0.0056483434
0.13005422 -0.39978087 -0.0047802581
0.13038918 -0.41500372 -0.0020866694
0.13069375 -0.42715222 -0.0028702498
0.13102071 -0.44008917 -0.0039199074
0.131346 -0.45328268 -0.0043556308
0.13169372 -0.46732593 -0.0049446933
0.13214609 -0.487207 -0.0026540235
0.1326396 -0.50588351 -0.0059055937
0.13302693 -0.52219039 -0.005328231
0.13351467 -0.54167449 -0.0066116531
0.13405111 -0.56305689 -0.0081243226
0.13432054 -0.58045667 0.0037722152
0.13421544 -0.58367884 0.018163757
0.13398758 -0.58294821 0.034700293
0.13401783 -0.5899654 0.045666587
0.13479945 -0.62092853 0.043038759
0.13919507 -0.77470773 -0.010546321
0.11908361 -0.1522896 0.39841729
0.11926155 -0.15321508 0.38639778
0.12159901 -0.049122896 0.014735063
0.12196072 -0.063925281 0.014439203
0.12230065 -0.077817373 0.014132894
0.12262103 -0.09084589 0.01373057
0.12292414 -0.10306314 0.013151011
0.12321236 -0.1145267 0.012317562
0.12345979 -0.11829223 0.00020833733
0.12374036 -0.12984565 0.00014016486
0.12400966 -0.14073357 -0.00029908042
0.12426955 -0.15147573 -0.00027710476
0.12464836 -0.16587254 -0.0026100634
0.12500019 -0.18158662 -0.00036361397
0.1251106 -0.18682064 0.00091413804
0.12545526 -0.20036274 -0.00036060845
0.12579457 -0.21356611 -0.0018556082
0.12601006 -0.2224817 -0.0018014758
0.12622815 -0.23115431 -0.002409223
0.12663014 -0.24862912 -0.00071147765
0.1268793 -0.2615892 0.0043701855
0.127133 -0.2698122 0.00013839742
0.12736268 -0.2782695 -0.0018035326
0.12767671 -0.29104802 -0.0021589112
0.12777479 -0.29528993 -0.0017958451
0.12801494 -0.30413654 -0.003822705
0.1284253 -0.321536 -0.002970228
0.12866099 -0.33071664 -0.004023572
0.1288767 -0.33976489 -0.0037657041
0.12910877 -0.34916422 -0.0041266554
0.12944265 -0.3632842 -0.0035197234
0.12966843 -0.37290692 -0.0029707802
0.129876 -0.37953067 -0.0066850823
0.13019878 -0.39412758 -0.0043187696
0.13058041 -0.41023707 -0.0037073253
0.13083892 -0.42129901 -0.0030135356
0.13116582 -0.43412724 -0.0043450776
0.13149144 -0.44722468 -0.0050703026
0.13187565 -0.46483392 -0.0018495994
0.13229407 -0.48096699 -0.0041221711
0.13276225 -0.49883148 -0.007030223
0.13315094 -0.51504445 -0.0068336604
0.13368528 -0.53872281 -0.0039444687
0.13416608 -0.5584951 -0.0042601391
0.13469441 -0.58016241 -0.0047299336
0.13454248 -0.58213729 0.010934147
0.13432148 -0.58175659 0.027566304
0.13478905 -0.60880607 0.04203514
0.13907354 -0.76218724 -0.0043196054
0.11951637 -0.15452197 0.3899973
0.1220661 -0.057928424 0.015915697
0.12241058 -0.071890071 0.015296166
0.12287312 -0.088968478 0.01136197
0.12318203 -0.10186508 0.011521299
0.12333848 -0.10938966 0.013457658
0.1236119 -0.11909045 0.010405498
0.12386896 -0.1251343 0.0017891881
0.12414048 -0.13604294 0.0011423045
0.12453283 -0.15057476 -0.0020889393
0.12465662 -0.15699756 0.00033061625
0.12502761 -0.17128973 -0.0016863608
0.12514013 -0.17701437 0.00030483041
0.12537326 -0.1864801 -5.1152911e-05
0.12560447 -0.19555071 -0.00099613657
0.12570722 -0.20064409 0.00057447958
0.12592857 -0.20958382 0.00015255337
0.12635413 -0.22727594 0.00029033038
0.12678535 -0.2442937 -0.0012758664
0.1268726 -0.2487227 0.00026128057
0.12715428 -0.26149324 0.0023502831
0.12771368 -0.28250286 -0.0016854241
0.12813698 -0.29963166 -0.0023742137
0.12836041 -0.30840132 -0.003252567
0.12867469 -0.32153177 -0.0029917941
0.12880141 -0.32621181 -0.0040496103
0.12892823 -0.33094367 -0.0050177891
0.12933815 -0.34886146 -0.0031938381
0.1294826 -0.35405797 -0.0046678255
0.12981458 -0.36826369 -0.0037787864
0.1301606 -0.38300914 -0.0029765521
0.13040215 -0.39323515 -0.0025484499
0.13058911 -0.3997668 -0.0048404625
0.13096869 -0.41600075 -0.0038719026
0.13127285 -0.42820886 -0.0046191411
0.13164014 -0.44490543 -0.0018304259
0.13198626 -0.45873958 -0.0028095169
0.13238046 -0.47411421 -0.0046555004
0.13274741 -0.48917571 -0.0049647735
0.13326488 -0.51154453 -0.0032812809
0.13375174 -0.53078264 -0.0051283147
0.13423477 -0.55042815 -0.0059173494
0.13476574 -0.57197022 -0.0068976129
0.13483442 -0.58044344 0.0037117349
0.13464768 -0.5812279 0.01984993
0.13444623 -0.58127034 0.035746966
0.13478401 -0.60105902 0.046597719
0.13547471 -0.62958628 0.046220098
0.11975086 -0.15327074 0.39154047
0.12234806 -0.054472458 0.012269814
0.12270938 -0.069890611 0.013027593
0.123042 -0.08370661 0.01303222
0.12335097 -0.096048184 0.01213083
0.12364838 -0.10821778 0.011806495
0.12380017 -0.11565036 0.013914126
0.12419251 -0.12722397 0.0051704533
0.12445618 -0.13504744 -0.000621396
0.12471987 -0.14634375 4.9209619e-05
0.1249758 -0.15612571 -0.0014975647
0.12522125 -0.16666186 -0.00082588231
0.12545967 -0.1766388 -0.00064938463
0.1255721 -0.18192685 0.00052436115
0.12592071 -0.19554357 -0.0010205365
0.12614657 -0.20457484 -0.0016282698
0.12624462 -0.20957667 0.00012828973
0.12634629 -0.21426085 0.0010127944
0.12679002 -0.2313098 -0.0014700455
0.12708116 -0.24451721 0.00068677281
0.12725118 -0.25324348 0.0038481317
0.12745811 -0.2615318 0.0033253962
0.12771207 -0.26978979 -0.00090714137
0.12802856 -0.28249568 -0.0017089042
0.12845051 -0.29962456 -0.0023974222
0.12856209 -0.30399692 -0.0028759292
0.12878399 -0.31281516 -0.0035958211
0.12900387 -0.32172194 -0.0039948677
0.12922139 -0.33070543 -0.0040677856
0.12954248 -0.34429833 -0.0035551446
0.12979211 -0.35405105 -0.0046901586
0.12999989 -0.36327308 -0.0035631843
0.13026674 -0.37365696 -0.0048630559
0.13061063 -0.38852984 -0.0037396923
0.13087302 -0.39930037 -0.0039742342
0.13122751 -0.414983 -0.0021682233
0.13152997 -0.42713156 -0.0029516299
0.1318306 -0.43950421 -0.0031760037
0.13217774 -0.45326221 -0.0044366424
0.13252306 -0.46730557 -0.0050255088
0.13297184 -0.48718676 -0.0027345384
0.1334108 -0.50449026 -0.0045326794
0.13384689 -0.52217036 -0.0054082908
0.13430512 -0.54091901 -0.0060145739
0.13490245 -0.56734377 -0.003091723
0.13510327 -0.57964522 0.0043031932
0.13502343 -0.58365911 0.018084744
0.1347945 -0.58292842 0.034621451
0.13474143 -0.58739185 0.047160085
0.13559952 -0.62090892 0.042960487
0.13994671 -0.77379537 -0.010175594
0.12007281 -0.15799025 0.3963933
0.12012362 -0.15574156 0.38838395
0.12246019 -0.049105842 0.014662218
0.12281995 -0.063908316 0.014366952
0.12315226 -0.077149577 0.01330205
0.12347186 -0.090205081 0.012878044
0.12377824 -0.10304644 0.01308039
0.12406499 -0.11451009 0.012247439
0.12431294 -0.11827611 0.00013844877
0.12472554 -0.13405524 -0.0023803129
0.12485985 -0.14071761 -0.00036796799
0.12511829 -0.15145983 -0.00034550214
0.12536873 -0.16162099 -0.0007817719
0.12548423 -0.16785988 0.0019034338
0.12584491 -0.18157092 -0.00043059088
0.12607472 -0.19100864 -0.00060924375
0.12642109 -0.20430189 -0.0026097617
0.12651941 -0.20932053 -0.00085764017
0.1267357 -0.21823573 -0.00095870497
0.12694611 -0.22708076 -0.00073447148
0.12704903 -0.23147327 -0.00050192059
0.12725021 -0.24019109 0.00020069211
0.12765594 -0.25719211 0.00053969672
0.12805448 -0.27399546 0.0010680578
0.12829545 -0.28249213 -0.001725416
0.12840909 -0.28678554 -0.0025095271
0.12881301 -0.30386499 -0.0019005223
0.1290341 -0.31264871 -0.002625379
0.12925318 -0.32152113 -0.0030305821
0.1294699 -0.33047056 -0.0031108481
0.12961417 -0.33546686 -0.0049646702
0.12993383 -0.34914947 -0.0041859853
0.13024572 -0.36292136 -0.0026412776
0.13040999 -0.36861756 -0.0047471798
0.13075565 -0.38341123 -0.0039241398
0.1309969 -0.39366877 -0.0034807855
0.13128062 -0.40497887 -0.0043746526
0.13163273 -0.42076376 -0.0022166788
0.13198191 -0.43411261 -0.0044013048
0.13225745 -0.44605255 -0.0034958245
0.13262826 -0.4605498 -0.0052274955
0.1331052 -0.48095244 -0.0041766991
0.13349479 -0.49679568 -0.0048687006
0.13398471 -0.51572925 -0.0076014246
0.13446397 -0.53797275 -0.0033200234
0.1349425 -0.55772191 -0.0036610302
0.13560219 -0.58327222 -0.0072764736
0.1353415 -0.58212239 0.010883229
0.13514595 -0.5825637 0.026947403
0.13496323 -0.5831123 0.042216599
0.13552791 -0.60706943 0.04300322
0.13977362 -0.75949222 -0.0030204642
0.12032535 -0.15449369 0.38992819
0.12291206 -0.057221238 0.015119618
0.12339699 -0.075191066 0.011000239
0.12358592 -0.084971651 0.014527123
0.12389213 -0.097258754 0.013669506
0.12431929 -0.11336821 0.010576759
0.12484945 -0.12880521 -0.0016752409
0.12498667 -0.13553183 0.00020294443
0.12524848 -0.14679754 0.00089047255
0.12562847 -0.16119854 -0.0017159552
0.12598298 -0.17699751 0.0002358802
0.1263357 -0.19068347 -0.0015822825
0.12656441 -0.19976924 -0.0023685524
0.12666473 -0.20483445 -0.0007091728
0.12699792 -0.21801132 -0.0019601893
0.12709622 -0.22266184 -0.0009126637
0.12730308 -0.23146735 -0.00052775221
0.12750374 -0.24018517 0.00017475024
0.12770852 -0.24870595 0.00019403287
0.12796517 -0.26156798 0.0042810771
0.12820509 -0.26980203 0.0010494943
0.12833211 -0.27400267 -0.00095813541
0.12854622 -0.28248623 -0.0017518542
0.1289677 -0.29961511 -0.0024402994
0.12919025 -0.30838484 -0.0033184774
0.12941092 -0.31724879 -0.0038786032
0.12962937 -0.32619542 -0.0041151689
0.12993336 -0.33947924 -0.0028883852
0.13016355 -0.34884515 -0.0032589592
0.13039161 -0.3583177 -0.0032693027
0.13055579 -0.36395988 -0.0054803225
0.13090374 -0.37871704 -0.0049353228
0.13114657 -0.38894892 -0.0046855956
0.13148268 -0.40402299 -0.0026431368
0.13169225 -0.41119757 -0.0055346088
0.13208963 -0.42819288 -0.0046827374
0.13239056 -0.44062382 -0.0048686611
0.13279949 -0.45872369 -0.002872536
0.13316704 -0.47346419 -0.0039454973
0.13365942 -0.49180317 -0.0080276532
0.13397077 -0.50585419 -0.0060280687
0.13445863 -0.52500725 -0.0082590887
0.1349854 -0.54891801 -0.0046506715
0.13554037 -0.57118475 -0.0063209655
0.13566054 -0.58121961 0.0030408739
0.13544539 -0.58121192 0.019789174
0.13524242 -0.58125407 0.03568612
0.13554066 -0.59674615 0.041353386
0.13626468 -0.62956995 0.04616015
0.12056763 -0.15528718 0.39431953
0.12319981 -0.055147309 0.012918237
0.123552 -0.069875769 0.012952107
0.1238776 -0.083054267 0.012186497
0.12418593 -0.095423162 0.011263433
0.12435298 -0.10422875 0.014631518
0.12476747 -0.11962222 0.011138066
0.1250252 -0.12616105 0.0033922354
0.12515886 -0.13083759 0.0017372962
0.1255537 -0.14586586 -0.00091175258
0.12580663 -0.15654375 -0.00067070284
0.12605196 -0.1666476 -0.00090064417
0.12616597 -0.17242211 0.00098356523
0.12640063 -0.18191265 0.00044969236
0.12674749 -0.19552945 -0.0010951289
0.1268549 -0.2003368 -0.00048266735
0.12695399 -0.2053685 0.0011863459
0.12740454 -0.22245601 -0.0019228682
0.12761185 -0.23129585 -0.0015444616
0.12781294 -0.2400482 -0.00084725505
0.12800761 -0.24870165 0.00016305567
0.12806955 -0.25322959 0.0037738031
0.12837698 -0.26566774 0.00309834
0.12851577 -0.26978689 1.8458539e-05
0.12884361 -0.282482 -0.0017831341
0.12906955 -0.29109931 -0.0032751854
0.12927878 -0.29972199 -0.0034652462
0.12957838 -0.31263882 -0.0026833504
0.12972166 -0.3174248 -0.0048933146
0.13011865 -0.33496067 -0.0030857616
0.13034911 -0.34428501 -0.0036289752
0.13057765 -0.35372266 -0.0038150852
0.13080384 -0.36325988 -0.0036368996
0.13104828 -0.37326324 -0.0040121838
0.13141097 -0.38851678 -0.0038132579
0.13164939 -0.39882767 -0.0031599642
0.13195337 -0.4107036 -0.0046943445
0.13223307 -0.42231616 -0.0048360638
0.13262348 -0.43949145 -0.0032492774
0.13294417 -0.45265663 -0.0037049297
0.13328709 -0.46667233 -0.0043149008
0.13375767 -0.48717424 -0.0028075448
0.13419421 -0.5044778 -0.0046055848
0.13462776 -0.52215803 -0.0054810951
0.13505697 -0.54017115 -0.0054103564
0.13558643 -0.56150752 -0.0069748554
0.1357678 -0.5764659 0.0066714138
0.13579321 -0.58364695 0.01801222
0.13559 -0.58374864 0.033995435
0.13545413 -0.58567703 0.048135586
0.13630749 -0.61915874 0.0438761
0.14063622 -0.7719968 -0.0093513215
0.12092688 -0.1591634 0.39470723
0.12090471 -0.15510827 0.38909137
0.12331465 -0.049094979 0.014586068
0.12366503 -0.063220575 0.01355485
0.12400138 -0.077138901 0.013225886
0.12431845 -0.090194494 0.012801872
0.1246223 -0.10303593 0.013004207
0.12490685 -0.11449966 0.012171246
0.12515491 -0.11826573 6.2260697e-05
0.12543167 -0.12981929 -5.4147577e-06
0.12556684 -0.13651578 0.0018903365
0.1259537 -0.15144967 -0.00042173121
0.12620215 -0.1616109 -0.00085801596
0.12644243 -0.17165339 -0.00088343775
0.12667429 -0.18156098 -0.00050686905
0.12678273 -0.18679503 0.00077111996
0.12724601 -0.20429212 -0.0026860835
0.12734316 -0.2093108 -0.00093397417
0.12755762 -0.21822608 -0.0010350592
0.12777457 -0.22688687 -0.0017936677
0.12797792 -0.23568444 -0.0012550142
0.12828162 -0.24860448 -0.00085147709
0.12863863 -0.2656686 0.0030792726
0.12887777 -0.27399281 -8.345316e-06
0.12900423 -0.27824536 -0.0019420238
0.12921678 -0.28677639 -0.0025860781
0.12931469 -0.29102397 -0.0022969767
0.12963358 -0.30398428 -0.0029687418
0.12974399 -0.30838165 -0.0033684019
0.12996334 -0.31724563 -0.00392847
0.1300896 -0.32190657 -0.0050676935
0.1305874 -0.34400398 -0.002688312
0.13081484 -0.35340828 -0.0028848108
0.13103993 -0.36291254 -0.0027181597
0.13128328 -0.37288341 -0.003106164
0.13146822 -0.37911066 -0.0059025008
0.1317856 -0.3936601 -0.0035577896
0.13213876 -0.40923303 -0.0020991294
0.1324164 -0.42075524 -0.0022937888
0.13269632 -0.42979598 -0.007264832
0.13303648 -0.44604415 -0.0035730232
0.13337995 -0.45993456 -0.0045103226
0.13377117 -0.47536409 -0.0063125733
0.13426431 -0.49678749 -0.0049460656
0.13475074 -0.51572114 -0.0076788426
0.1351822 -0.5336591 -0.0079970341
0.1357002 -0.55771399 -0.0037385805
0.13638172 -0.58404547 -0.0079780109
0.13612044 -0.58291698 0.010209338
0.13589717 -0.58255595 0.026869714
0.13571356 -0.58310455 0.042138871
0.13624644 -0.60620153 0.043434512
0.14044331 -0.75337839 -0.010638191
0.12116353 -0.15448357 0.38984898
0.12358664 -0.045577671 0.010998618
0.12395396 -0.061183527 0.011318853
0.12415209 -0.071197644 0.014396881
0.12447925 -0.084960751 0.014447136
0.12492164 -0.10183701 0.011370393
0.12507561 -0.10936159 0.013306922
0.12547238 -0.1214933 0.0050875796
0.1256023 -0.12458242 0.00078720209
0.12587179 -0.13552116 0.00012278141
0.12613146 -0.14678691 0.00081026973
0.12638259 -0.1569701 0.00018092972
0.1266257 -0.16704224 -3.4456425e-05
0.12698239 -0.18120241 -0.0014721527
0.12709537 -0.18611708 -0.0011421376
0.12731993 -0.19552352 -0.00114502
0.12753733 -0.20482409 -0.00078959489
0.12775439 -0.21376993 -0.0010552063
0.12807746 -0.22688027 -0.0018235787
0.12828054 -0.23567781 -0.0012850476
0.12836999 -0.24017496 9.4185627e-05
0.12857325 -0.24869579 0.00011343334
0.12872577 -0.2574288 0.0044246283
0.12895265 -0.26563355 0.002049278
0.1295034 -0.28671071 -0.0016186225
0.12982267 -0.2996051 -0.0025211037
0.13002691 -0.30822921 -0.0024101089
0.13024481 -0.31705877 -0.0029759475
0.13054925 -0.33022356 -0.0022459873
0.13077904 -0.33946934 -0.0029692962
0.13100711 -0.34883526 -0.0033398971
0.13123299 -0.35830787 -0.0033502693
0.13139606 -0.36395004 -0.0055613033
0.13171928 -0.37831059 -0.0040986161
0.13205598 -0.39320925 -0.0026938026
0.13233633 -0.40448841 -0.0036038717
0.13261515 -0.41597503 -0.0040168911
0.13289173 -0.42764795 -0.0039195963
0.13327666 -0.44487989 -0.0019749764
0.1336184 -0.45871416 -0.0029538462
0.13395776 -0.47282049 -0.0032541256
0.13442191 -0.49341181 -0.0012864368
0.13480541 -0.50653142 -0.0068361345
0.13526367 -0.52499795 -0.0083406363
0.13578509 -0.54890877 -0.0047323182
0.13633548 -0.57117563 -0.0064026942
0.13645284 -0.58121055 0.0029590849
0.13623641 -0.58120286 0.019707346
0.13605912 -0.58207744 0.035050813
0.13624591 -0.59418339 0.042843577
0.13701668 -0.62868351 0.04655683
0.12140092 -0.15527716 0.39423862
0.12391579 -0.051188238 0.016664855
0.12440903 -0.069862023 0.012872389
0.1247322 -0.08304055 0.012106647
0.1249074 -0.092052996 0.01508819
0.12520353 -0.10421512 0.014551449
0.1254824 -0.11505404 0.012935811
0.12573297 -0.11986875 0.0025306838
0.12613653 -0.1350193 -0.00077674846
0.12626776 -0.14165127 0.0012524024
0.12664944 -0.15609773 -0.0016529982
0.12676676 -0.16242996 0.00090052013
0.12700422 -0.17240848 0.00090278185
0.12724094 -0.18154688 -0.0005671095
0.12758145 -0.19551584 -0.001176169
0.12779826 -0.20481643 -0.00082089694
0.12802182 -0.21352676 -0.0020585144
0.12811334 -0.21843036 -0.00012056656
0.12821752 -0.22284533 -4.5293713e-05
0.12864821 -0.23990202 -0.0019199307
0.12872559 -0.2444898 0.00053080096
0.12898342 -0.25742123 0.0043924404
0.12920979 -0.26562595 0.0020169483
0.12943591 -0.27397841 -7.1418253e-05
0.12956192 -0.27823091 -0.0020051806
0.12987097 -0.29100955 -0.0023603898
0.1300936 -0.29970849 -0.003547576
0.13031465 -0.30851281 -0.0044213738
0.13051672 -0.31723121 -0.003992409
0.13092792 -0.33494711 -0.0031686702
0.13138402 -0.35370904 -0.0038983067
0.13160871 -0.36324629 -0.0037202823
0.1318516 -0.37324962 -0.004095735
0.13211402 -0.3838008 -0.0049770498
0.13239713 -0.39497817 -0.0063103321
0.13272801 -0.41019952 -0.0039073108
0.13309593 -0.42656976 -0.002265102
0.13339244 -0.43891332 -0.0025088289
0.13373518 -0.45264295 -0.0037898389
0.13407597 -0.46665865 -0.0044000475
0.13446428 -0.48222524 -0.0058444222
0.13490103 -0.49946851 -0.0079676304
0.13540816 -0.52214438 -0.0055671814
0.13580841 -0.53942192 -0.0048198374
0.13633446 -0.56073511 -0.0064107748
0.13650931 -0.57231593 0.0013113907
0.13658984 -0.58444631 0.017342811
0.1363591 -0.58373547 0.033908132
0.13619533 -0.58481276 0.048572227
0.13701677 -0.61740768 0.044776168
0.1412707 -0.76840872 -0.0076502152
0.12172578 -0.15509732 0.38900802
0.1241576 -0.048371419 0.013792616
0.12451339 -0.063199274 0.013472901
0.12484232 -0.07646668 0.012384444
0.12516311 -0.090173163 0.012719179
0.12546155 -0.10241819 0.012118505
0.12574819 -0.1144783 0.012087869
0.1259979 -0.11878303 0.00082109036
0.12613897 -0.12561542 0.0024353859
0.12653558 -0.14068563 -0.00052832032
0.1267904 -0.15142792 -0.00050618232
0.12691037 -0.15781944 0.0019287457
0.12715305 -0.1674275 0.00082602701
0.12738591 -0.17734009 0.0010292828
0.12773831 -0.19065766 -0.0017188353
0.1280756 -0.20427021 -0.0027721194
0.12838529 -0.21820419 -0.0011215243
0.12871183 -0.2311075 -0.0026369574
0.12880325 -0.23566251 -0.0013420254
0.1288922 -0.24015969 3.7128932e-05
0.12929207 -0.25716081 0.00037554416
0.12959787 -0.26976585 -8.8624445e-05
0.12982413 -0.27822331 -0.0020303759
0.1299372 -0.28250235 -0.0028894788
0.13024451 -0.29533744 -0.003018161
0.13046633 -0.30409044 -0.0040495051
0.13086949 -0.32148996 -0.0031970146
0.13108358 -0.33043936 -0.0032776056
0.13120806 -0.33518744 -0.0041630617
0.13152258 -0.34881973 -0.0033992263
0.1317682 -0.35862395 -0.0043529896
0.13209189 -0.37286103 -0.0031975368
0.13225485 -0.37869158 -0.0050763539
0.13249491 -0.38892347 -0.0048268908
0.13287216 -0.40494779 -0.0045440965
0.13315095 -0.41646478 -0.0049402369
0.13351698 -0.4329817 -0.0029020933
0.13383652 -0.44602162 -0.0036667341
0.13415372 -0.45930517 -0.0038100528
0.13451779 -0.47407302 -0.0048617003
0.13503294 -0.4960911 -0.0043028952
0.13551693 -0.51499933 -0.007060247
0.13594604 -0.53291279 -0.0074038454
0.13643442 -0.55617392 -0.0025342065
0.13716571 -0.58402282 -0.0080760643
0.1369309 -0.58369708 0.0095149716
0.13670747 -0.58335674 0.026203699
0.13649669 -0.58308309 0.042040695
0.13697298 -0.60445958 0.044353846
0.14118049 -0.75247008 -0.010278113
0.12197033 -0.15384737 0.39054513
0.12444025 -0.045546964 0.010913886
0.12466314 -0.057179645 0.01495456
0.12500347 -0.071167022 0.01431121
0.12532446 -0.084292531 0.013590622
0.12562838 -0.096606888 0.012710715
0.12592071 -0.10874852 0.012406888
0.12631638 -0.12038422 0.0033154285
0.12644969 -0.12455116 0.00069952954
0.12671833 -0.13548985 3.4695502e-05
0.12697709 -0.14675559 0.0007217573
0.12722744 -0.15693873 9.202896e-05
0.12746978 -0.16701081 -0.00012374259
0.12770724 -0.17658713 -0.00086372759
0.12793802 -0.18608557 -0.0012321586
0.12827972 -0.19972724 -0.0025395048
0.12837858 -0.20479251 -0.00088034157
0.12858789 -0.21397381 -0.00017446454
0.12880561 -0.22261989 -0.0010846005
0.12901023 -0.23142542 -0.0007000707
0.12921843 -0.24001059 -0.00098904863
0.12940069 -0.24876204 0.0010160881
0.12957463 -0.25733396 0.0033338689
0.12970017 -0.26138881 0.0011108114
0.13033845 -0.28667888 -0.0017125719
0.13046479 -0.29106161 -0.0034188086
0.13054611 -0.29522732 -0.0020587975
0.13076675 -0.30394566 -0.0030941446
0.13089275 -0.30848864 -0.0044832085
0.13120244 -0.3216708 -0.004213667
0.13150451 -0.33492303 -0.0032311203
0.13183685 -0.34880364 -0.0034359701
0.13195959 -0.35368502 -0.0039611924
0.13228443 -0.36784172 -0.0030902249
0.13252522 -0.37788242 -0.003277957
0.13278559 -0.38847923 -0.0039607631
0.13306662 -0.39970949 -0.0050835055
0.13341606 -0.41543812 -0.0032527167
0.13371482 -0.42761657 -0.0040183496
0.13401155 -0.44001842 -0.0042239516
0.13438953 -0.45746922 -0.0014647818
0.13477707 -0.47278929 -0.003354416
0.13513726 -0.48779777 -0.0037091644
0.13559638 -0.50581366 -0.0062109688
0.13607123 -0.52783203 -0.0026151002
0.13654563 -0.54738319 -0.0035072507
0.13709386 -0.56960464 -0.0052313898
0.13731636 -0.58276343 0.0016346703
0.13707298 -0.58198547 0.019021183
0.13686843 -0.58204794 0.034946844
0.13697329 -0.59160042 0.044311397
0.13779497 -0.62777704 0.046930045
0.12220461 -0.15465301 0.39494523
0.12233572 -0.15441933 0.38455799
0.1248959 -0.054414891 0.012030717
0.125098 -0.064532243 0.014885342
0.12557316 -0.083011761 0.012021882
0.12587824 -0.095380694 0.011098326
0.12604272 -0.10418647 0.014466053
0.12632076 -0.11502538 0.012850096
0.12657121 -0.1198398 0.0024448386
0.1268415 -0.13028564 0.00071019802
0.12723327 -0.1458232 -0.001078848
0.12748486 -0.15606877 -0.0017398974
0.12772842 -0.16620439 -0.0019847755
0.1278412 -0.17199504 -0.00010767808
0.12819478 -0.18574481 -0.0022028126
0.12851971 -0.20029446 -0.00065193418
0.1287383 -0.20926788 -0.0010834495
0.12883838 -0.21396907 -0.00020337469
0.12904747 -0.22281669 -0.00013410459
0.12936848 -0.23564151 -0.0014060364
0.12966993 -0.24856159 -0.0010032662
0.12974186 -0.25302646 0.0016090565
0.13003618 -0.26559755 0.0019269394
0.13026169 -0.27394998 -0.00016165781
0.13038768 -0.27820244 -0.0020955666
0.1305006 -0.28248146 -0.0029547643
0.13069612 -0.29098108 -0.0024512068
0.13091835 -0.29967999 -0.0036386852
0.13102891 -0.30406967 -0.0041152649
0.13134064 -0.31720275 -0.0040841065
0.13173245 -0.33467051 -0.0022923995
0.13196036 -0.34396121 -0.0028453823
0.1321028 -0.34909779 -0.0044201515
0.13234867 -0.35893515 -0.0053631412
0.13265164 -0.37284073 -0.0032647769
0.13293454 -0.38377243 -0.0050709625
0.13319492 -0.39450568 -0.0055089197
0.13352416 -0.40968087 -0.0031308862
0.13382384 -0.42175373 -0.0041620866
0.13412187 -0.43406162 -0.0046403306
0.13446596 -0.44773793 -0.006180977
0.13484214 -0.46538922 -0.0029292083
0.13522886 -0.48090184 -0.0044183726
0.13571499 -0.49944028 -0.0080652805
0.13619475 -0.52140474 -0.0049633384
0.13659367 -0.53865826 -0.0042418125
0.13711819 -0.55994827 -0.0058595301
0.13742469 -0.57541215 -0.0012843909
0.13742475 -0.58523154 0.016660236
0.13717714 -0.58087027 0.027835814
0.13768311 -0.60960317 0.041226994
0.14195922 -0.76480621 -0.0059647462
0.12254823 -0.15445963 0.38970125
0.12503532 -0.048343245 0.013703777
0.12538388 -0.062494073 0.012647641
0.12571841 -0.076438516 0.012294712
0.12603839 -0.090145037 0.012629012
0.12620284 -0.098425306 0.015028837
0.12649149 -0.11048301 0.014787302
0.12673777 -0.11459012 0.0034468907
0.12714413 -0.12925987 -0.0010412742
0.12727864 -0.13646576 0.0017146511
0.12766282 -0.15139952 -0.00059833931
0.12778394 -0.15735872 0.00093468284
0.12802456 -0.16739918 0.00073335075
0.12838164 -0.18115866 -0.001621298
0.12848508 -0.18674497 0.00059230928
0.12882872 -0.20000118 -0.0016408361
0.12904812 -0.2090082 -0.0020817982
0.12914145 -0.21396182 -0.00023416581
0.12946966 -0.22683665 -0.0019750344
0.12967137 -0.23563425 -0.0014369476
0.12976006 -0.24013148 -5.7942074e-05
0.1300223 -0.25318047 0.0035714132
0.13012449 -0.25732237 0.0032736873
0.13056417 -0.27394268 -0.00019277481
0.13088636 -0.28666729 -0.0017731327
0.13120364 -0.29956171 -0.0026761841
0.13151504 -0.31258959 -0.002888639
0.13171306 -0.32126495 -0.0023141301
0.13183732 -0.32592797 -0.0033756879
0.13213494 -0.33916116 -0.0021620886
0.13238035 -0.34879214 -0.0034971377
0.13260475 -0.3582648 -0.0035079233
0.13294683 -0.37283367 -0.0032959529
0.1330879 -0.37826762 -0.0042571435
0.13334806 -0.38889623 -0.0049256501
0.1337008 -0.40444559 -0.0037635395
0.13406874 -0.42070588 -0.0024861237
0.13436501 -0.43295488 -0.0030017861
0.13465889 -0.44541612 -0.0029515505
0.13499887 -0.45927849 -0.0039103199
0.13533638 -0.47341225 -0.0041895462
0.13574645 -0.48976889 -0.0060221385
0.13622743 -0.51147723 -0.0035891461
0.13670544 -0.53071553 -0.0054367227
0.13717926 -0.55036128 -0.0062263161
0.13781239 -0.57852972 -0.0038114912
0.13778882 -0.58447391 0.0088156695
0.13756453 -0.58415449 0.025532866
0.13735288 -0.58390063 0.04139901
0.13771941 -0.6018545 0.045777958
0.12280383 -0.15585835 0.39329985
0.12548915 -0.056472845 0.014148096
0.12582847 -0.070486002 0.013480935
0.12614858 -0.083638072 0.012737436
0.12645571 -0.096590132 0.012627754
0.12674633 -0.10873186 0.012323789
0.12700579 -0.11569329 0.0050877598
0.1272721 -0.12401028 -0.00023526707
0.12754035 -0.1354733 -4.8654576e-05
0.12779813 -0.14627557 -0.0002477862
0.12817398 -0.1607236 -0.0028779812
0.12852313 -0.17657098 -0.00094748125
0.12875246 -0.18606949 -0.0013159971
0.12896952 -0.19577871 -0.00036624007
0.12919635 -0.20450734 -0.0019273906
0.1294051 -0.21372251 -0.0012303737
0.12961431 -0.22260422 -0.0011687416
0.12982646 -0.23124267 -0.0017701593
0.12991679 -0.23578051 -0.00047260369
0.13033129 -0.25277361 -0.0014362303
0.13037755 -0.25731874 0.0032494734
0.13045463 -0.26155686 0.0050218953
0.13082917 -0.27394563 -0.0012168144
0.13103981 -0.28242919 -0.0020109855
0.13124827 -0.29097024 -0.0025065017
0.1315635 -0.30393055 -0.0031790081
0.13187248 -0.31701192 -0.0031559835
0.13208635 -0.32592437 -0.0033999132
0.13229761 -0.33490792 -0.003316419
0.13243978 -0.33995265 -0.0050785337
0.13266726 -0.34938553 -0.0054298481
0.13307363 -0.36782661 -0.0031759879
0.13331324 -0.37786734 -0.0033638615
0.13357237 -0.38846412 -0.0040468173
0.13382971 -0.39923474 -0.0042818803
0.13417645 -0.41491756 -0.0024766454
0.13440688 -0.42278403 -0.0059250407
0.13479216 -0.44000337 -0.004310736
0.13510902 -0.45319706 -0.0047469107
0.13544783 -0.46724051 -0.0053364546
0.13580875 -0.4821865 -0.0059976541
0.13626668 -0.50305241 -0.0033921942
0.13677169 -0.52281725 -0.0064240983
0.13722141 -0.54159015 -0.0070059947
0.13777958 -0.5672797 -0.0034075219
0.13799971 -0.58037335 0.003376516
0.13786204 -0.58278352 0.018350152
0.13765691 -0.58286607 0.034304529
0.1376261 -0.58818126 0.04631874
0.13844238 -0.62084728 0.042641658
0.14275473 -0.77462685 -0.010948984
0.12303177 -0.15524754 0.39406794
0.12306385 -0.1525043 0.38679349
0.1255713 -0.049033597 0.01436448
0.12607077 -0.068485998 0.011211459
0.12626024 -0.078379452 0.014520589
0.12670238 -0.094751321 0.010224503
0.12686604 -0.10357108 0.013581596
0.12714365 -0.11443834 0.011945169
0.12752953 -0.12400238 -0.00026246137
0.12779659 -0.13398272 -0.002683975
0.12805599 -0.14534049 -0.0020473166
0.12817906 -0.15183568 0.00024359353
0.12842348 -0.16196543 -0.00017832615
0.12853751 -0.16778795 0.0015973261
0.12889159 -0.18149897 -0.00073770754
0.12911661 -0.19093677 -0.00091706036
0.12921847 -0.19607344 0.00055874517
0.12943773 -0.20503791 -2.9476592e-05
0.12987551 -0.22239466 -0.0021765907
0.13007921 -0.23123458 -0.0017986705
0.13028654 -0.23985432 -0.0020930583
0.13036278 -0.24444222 0.00035747304
0.13045707 -0.2487386 0.00090300885
0.13084236 -0.26557854 0.0018427116
0.13096747 -0.26972595 -0.00023787157
0.13138843 -0.28665558 -0.0018264817
0.1314995 -0.29096204 -0.0025358393
0.13179868 -0.30379406 -0.0022168956
0.13201575 -0.31257784 -0.0029423931
0.13223073 -0.32145032 -0.0033482437
0.13253003 -0.33465156 -0.0023776903
0.13289857 -0.3490788 -0.004505659
0.13312307 -0.35858455 -0.0045055789
0.13344423 -0.37282181 -0.0033506451
0.13372578 -0.38375351 -0.0051569953
0.13394055 -0.39359862 -0.0038036935
0.13424166 -0.40538386 -0.005578022
0.13451897 -0.41693133 -0.0059574791
0.1348827 -0.43349287 -0.0038922757
0.13520044 -0.44656163 -0.0046376633
0.13559785 -0.4647499 -0.0022327595
0.13598226 -0.48023555 -0.0037443067
0.13638946 -0.49672648 -0.0051990184
0.13684493 -0.51496094 -0.0072185542
0.13729694 -0.53359812 -0.0082525006
0.13780764 -0.55765343 -0.0039956924
0.13842897 -0.58242279 -0.0069889915
0.13819285 -0.58205515 0.010546789
0.13796823 -0.58167487 0.02717883
0.13836282 -0.60700458 0.042664908
0.14264737 -0.76300085 -0.005160877
0.12335398 -0.15444471 0.38961866
0.12585458 -0.046917081 0.012199529
0.12607414 -0.058524903 0.016264141
0.12640429 -0.071796916 0.014920034
0.12672193 -0.084895983 0.01422173
0.12702659 -0.097793482 0.014155357
0.1273118 -0.10929687 0.013079885
0.12756202 -0.11401486 0.0025325101
0.12796895 -0.1292382 -0.0011231166
0.12823236 -0.14015661 -0.0015799673
0.12835869 -0.14672154 0.00058074377
0.12873265 -0.16112252 -0.002026696
0.12896776 -0.17158163 -0.0011438242
0.1290797 -0.17692176 -7.5976379e-05
0.12930776 -0.1863876 -0.00043239552
0.12952888 -0.195761 -0.00042471717
0.1298572 -0.2092391 -0.0011973439
0.13006137 -0.21837291 -0.00032334597
0.13048418 -0.23561272 -0.0015205027
0.13058217 -0.23997729 -0.0011326666
0.13086641 -0.25291705 0.00049754052
0.13126041 -0.26972717 0.00073107803
0.13139915 -0.27393422 -0.0022767375
0.13158202 -0.28236988 -0.0010721018
0.13181891 -0.2910285 -0.003563751
0.13211864 -0.30391261 -0.0032394137
0.13251649 -0.32124349 -0.0023989335
0.13264033 -0.32590649 -0.0034605621
0.13295542 -0.3394047 -0.0032112072
0.1331811 -0.34877065 -0.00358236
0.13332282 -0.35396713 -0.0050565642
0.13362539 -0.36780876 -0.0032370859
0.13396157 -0.38250619 -0.0024558385
0.13421853 -0.39314491 -0.0029388692
0.13447341 -0.40394902 -0.002969953
0.13474882 -0.41540527 -0.0034007509
0.1350691 -0.42811897 -0.0050110565
0.13536413 -0.44055003 -0.0051977541
0.13573948 -0.45804334 -0.0024082952
0.13609983 -0.47275656 -0.0035038658
0.136508 -0.4890866 -0.0053593228
0.1369091 -0.50865924 -0.00081865722
0.13741022 -0.52852315 -0.0034556089
0.13790761 -0.54884523 -0.0049865576
0.13848436 -0.57538426 -0.0014043088
0.13856629 -0.58114767 0.0027029573
0.13834836 -0.581141 0.019451287
0.13816947 -0.58201653 0.034794766
0.13840599 -0.59582549 0.041538656
0.13916749 -0.6303786 0.045340449
0.12359064 -0.15523185 0.39401218
0.12631939 -0.055066984 0.012619543
0.12666517 -0.069795564 0.012652585
0.12698516 -0.082974128 0.011886242
0.12715775 -0.091986768 0.014867364
0.12758274 -0.10812315 0.011429676
0.12770979 -0.11101125 0.0069531891
0.1281099 -0.1234595 -0.0011681891
0.12837817 -0.13495255 -0.00099944347
0.12850723 -0.14206362 0.0019072226
0.12888429 -0.15646343 -0.00097494764
0.12912792 -0.16616668 -0.0021216345
0.12923647 -0.172342 0.00067845604
0.1294671 -0.18183258 0.00014407537
0.12980829 -0.19544938 -0.0014014681
0.12991352 -0.20025682 -0.00078926468
0.13023716 -0.2136959 -0.0013127163
0.13042945 -0.22298057 0.0007077207
0.13085446 -0.23996846 -0.0011559461
0.13094032 -0.24442369 0.00030348377
0.13131894 -0.26139277 0.0019424139
0.13143167 -0.26553163 0.00078926497
0.13165686 -0.27391893 -0.001299801
0.13186704 -0.28240246 -0.0020940902
0.13197868 -0.28669584 -0.0028785286
0.13229606 -0.29964232 -0.0037773733
0.13268124 -0.31680506 -0.0022560805
0.13280542 -0.32143167 -0.0034022492
0.13294752 -0.32632592 -0.0054369266
0.13324596 -0.3396607 -0.0041984441
0.1334919 -0.34935859 -0.005513954
0.13379751 -0.36318022 -0.003953401
0.1340383 -0.37318355 -0.0043293736
0.13429853 -0.3837347 -0.0052112336
0.13455722 -0.39446795 -0.0056493939
0.13490669 -0.41013351 -0.0041428674
0.13520497 -0.42223644 -0.0051566269
0.13556471 -0.43884742 -0.0027458726
0.13581967 -0.44770017 -0.0063224598
0.13624234 -0.46659276 -0.0046385024
0.13657705 -0.48086414 -0.0045604883
0.13708411 -0.50302529 -0.0034784961
0.13748473 -0.51994407 -0.003701787
0.13795862 -0.53935623 -0.0050619747
0.13848002 -0.56066942 -0.0066539724
0.13865152 -0.5722506 0.001067572
0.13872777 -0.5843817 0.017098298
0.13849561 -0.58367163 0.03366356
0.13835703 -0.58560079 0.047803428
0.1391446 -0.61734444 0.044529859
0.14336878 -0.76834387 -0.0079036532
0.12394568 -0.15504564 0.38877898
0.12645636 -0.048298333 0.013567361
0.12680937 -0.063126199 0.013246821
0.12714124 -0.077044524 0.012916697
0.12745415 -0.090100095 0.012491588
0.12775382 -0.10294157 0.01269284
0.12803236 -0.11383715 0.011035917
0.12841941 -0.12292053 -0.0020520017
0.12855615 -0.12921454 -0.0011796572
0.12881915 -0.1406119 -0.0007587967
0.12907206 -0.15135421 -0.00073727639
0.1293152 -0.16193201 -0.00026535543
0.12955143 -0.1719425 -0.00027769007
0.12978326 -0.18146548 -0.00082505384
0.12988988 -0.18669963 0.00045247297
0.13011001 -0.19603993 0.00047116019
0.13044369 -0.20921521 -0.0012546318
0.13065545 -0.21813045 -0.0013565192
0.13086131 -0.22697555 -0.001133107
0.13117836 -0.2398206 -0.0021813738
0.13134873 -0.2487049 0.00081454194
