# .PCD v0.7 - Point Cloud Data file format
VERSION 0.7
FIELDS x y z
SIZE 4 4 4
TYPE F F F
COUNT 1 1 1
WIDTH 1111
HEIGHT 1
VIEWPOINT 0 0 0 1 0 0 0
POINTS 1111
DATA ascii
0.00071946869 -0.58369917 0.00037150315
0.0032828636 -0.58361334 6.8476096e-05
0.08103694 -0.58223039 0.00040229119
0.15188846 -0.58241659 0.00012904362
0.15501054 -0.58154923 0.00041355728
0.15579081 -0.58153403 0.00031077131
0.15659696 -0.58151793 0.00023882346
0.15740661 -0.58149248 0.00015462401
0.15818144 -0.58147526 7.7316792e-05
-0.010590784 -0.58477259 0.00097421539
0.064240456 -0.58419979 0.00094920315
-0.0027085629 -0.58381557 0.00077303685
-0.0024520231 -0.58380616 0.0007433797
0.070548415 -0.58326465 0.00090540375
0.14683361 -0.58252966 0.00063594279
0.076835059 -0.58232147 0.00082212314
0.0776705 -0.58229995 0.00074116362
0.15233216 -0.58161914 0.00068283977
-0.013186618 -0.58483011 0.0012424778
-0.0082559129 -0.58393586 0.0013364716
0.00043066518 -0.58294219 0.0010453366
0.14151114 -0.58266127 0.0011925334
0.14894228 -0.58169085 0.0010447646
-0.01584596 -0.58488697 0.0015085248
-0.01345839 -0.5840705 0.0019131696
-0.010876947 -0.58400887 0.0016422078
0.054971173 -0.58442783 0.0019408645
0.056279272 -0.58440125 0.0018124525
-0.0064469608 -0.58312309 0.001784376
0.13731636 -0.58276343 0.0016346703
-0.024356421 -0.58509839 0.0023852012
-0.022467643 -0.58503777 0.0021848932
-0.020929953 -0.58500326 0.0020339978
-0.018020255 -0.5841592 0.0023528736
-0.016136387 -0.58412391 0.0021698189
0.052069586 -0.58449954 0.0022551047
0.053656146 -0.5844599 0.0020775476
0.05858919 -0.58356518 0.0021839084
0.12730516 -0.58380508 0.0021024919
-0.011200204 -0.58324331 0.0023026597
0.063115314 -0.5826627 0.0023123052
0.12940493 -0.58295351 0.0024771742
0.13020703 -0.58293587 0.0024053366
0.13096313 -0.58292103 0.002314341
-0.033301983 -0.58607459 0.0026911544
-0.032997914 -0.58606875 0.0026681656
-0.028059788 -0.5851714 0.002761994
-0.027667999 -0.58516145 0.0027188933
0.045934867 -0.58465916 0.0029184693
0.047542781 -0.58461684 0.0027519851
-0.022743769 -0.58427995 0.0028550224
-0.021228021 -0.58423418 0.0026871152
-0.019624932 -0.58420181 0.002538271
0.053346891 -0.58368671 0.0027348176
-0.015129496 -0.58333695 0.0027134093
0.13177335 -0.58210695 0.00285152
0.13645284 -0.58121055 0.0029590849
-0.040103141 -0.58621806 0.0033869357
-0.039888732 -0.58621246 0.0033624195
-0.033562753 -0.58530724 0.0033586526
0.042054687 -0.58476222 0.003400577
0.043295588 -0.58472186 0.0031924539
0.044612609 -0.58469445 0.003057404
-0.02865259 -0.58441317 0.0034575555
-0.028339261 -0.58440554 0.0034229464
-0.024639994 -0.58432549 0.0030447608
0.04722476 -0.58384418 0.0034026783
0.048824966 -0.58380175 0.0032287312
0.049131609 -0.58378887 0.0031920264
0.050400782 -0.58375967 0.0030478579
-0.019364998 -0.58342433 0.0031415583
0.18951106 -0.58326918 0.0034036385
0.19007522 -0.58325714 0.0033568169
0.054571468 -0.58287758 0.0032177647
0.055907324 -0.5828464 0.0030844088
0.12645535 -0.58223259 0.0033940568
0.12857333 -0.58218485 0.0031757394
0.1325075 -0.58130258 0.0033833594
0.13566054 -0.58121961 0.0030408739
-0.044417877 -0.58630681 0.0038274007
-0.032829635 -0.58451962 0.0039177034
0.04012569 -0.5848161 0.0036260767
0.11014077 -0.5842042 0.0038933291
0.11172432 -0.5841729 0.003731377
-0.02416797 -0.58355439 0.0036390293
0.044302437 -0.5839175 0.0036994214
0.045643419 -0.58388442 0.0035656062
0.19055429 -0.58244169 0.0039075813
0.19375387 -0.58236402 0.0035735797
0.12778445 -0.58141309 0.0038820338
-0.048803061 -0.58641672 0.0042972267
-0.043399528 -0.58550251 0.0043386011
-0.040743601 -0.58546013 0.0040867515
-0.04045663 -0.5854584 0.0040594018
-0.034143906 -0.58453971 0.0040378189
-0.033877511 -0.58453757 0.0040186751
0.033272251 -0.58495837 0.0042327009
0.034858201 -0.58492351 0.0040750322
0.038246315 -0.58407485 0.0044059292
0.041708745 -0.58399445 0.0040648975
0.042946663 -0.58316821 0.0044700862
0.11247968 -0.58337021 0.0042788773
0.11329011 -0.58334744 0.0041927556
0.17957854 -0.58348328 0.0044565238
0.18273593 -0.58342922 0.0041514779
0.19161963 -0.58161682 0.0043908521
0.19267815 -0.58158904 0.0042746533
0.19318114 -0.58158243 0.0042321808
0.12482006 -0.58148211 0.0041665789
-0.053388845 -0.58657336 0.0048946505
-0.049184844 -0.58565283 0.0049706222
-0.045006808 -0.58555293 0.0045179827
0.027223786 -0.58511192 0.0049013887
0.028756626 -0.58507431 0.0047273287
0.030092617 -0.58503735 0.0045782072
-0.041183464 -0.58470106 0.0047687218
0.036422089 -0.58410889 0.0045595705
0.10234509 -0.58437717 0.0047432221
-0.034825698 -0.58378559 0.00473626
0.17669487 -0.58354145 0.0047543636
0.11404099 -0.58253092 0.0047096391
-0.056505799 -0.58666515 0.0053167599
-0.056219529 -0.58666682 0.0052921688
-0.049674977 -0.58567029 0.0050373147
-0.049381312 -0.58566421 0.0050064577
0.022769958 -0.58521819 0.0053667165
0.025618417 -0.58515531 0.0050710468
0.028478568 -0.58429897 0.0053816643
0.096809365 -0.58446848 0.0052579218
0.098660283 -0.58440113 0.005004568
0.10491633 -0.5835281 0.0050727399
0.17426342 -0.58360845 0.0050041
0.037953906 -0.58329707 0.0050463737
0.17721044 -0.58273244 0.0052978727
0.11477582 -0.5817281 0.0052312673
0.1845101 -0.58178037 0.0051578823
0.18552937 -0.58176106 0.0050256895
-0.059737854 -0.58673751 0.0056767454
-0.056876775 -0.58589584 0.0059804646
-0.053662263 -0.58581191 0.0055741868
0.018498203 -0.58531892 0.0058056391
0.019843983 -0.58528984 0.0056760744
0.021479907 -0.58525211 0.0055106585
-0.05035127 -0.58491069 0.0057356753
0.094215244 -0.58456028 0.0055921231
0.024093295 -0.58440727 0.0058553494
0.097551391 -0.58364767 0.0057567395
0.099431232 -0.58361036 0.0055756341
0.10047918 -0.58361346 0.0055287499
0.1654966 -0.58381498 0.0059270947
0.16920574 -0.58372778 0.0055326605
0.029790271 -0.58348054 0.0058579841
0.032900672 -0.58340269 0.005507431
0.10308019 -0.58277202 0.0058790334
0.10561384 -0.58272892 0.0056016846
0.17131941 -0.58287847 0.0059202611
0.17345515 -0.58283681 0.0057016835
0.17480853 -0.58278453 0.0055480683
0.17764999 -0.58193344 0.0058501321
0.17817257 -0.58192503 0.0057965708
0.18291007 -0.5810231 0.0059144786
0.18402813 -0.5809781 0.0057994351
0.18609785 -0.58091903 0.0055427295
-0.060147617 -0.58598065 0.0063506085
0.012969979 -0.58545822 0.0063968268
0.01527252 -0.58539051 0.0061272057
0.018199209 -0.58454424 0.0064578778
0.090545647 -0.58467215 0.006044968
-0.050727483 -0.58416116 0.006430231
0.021162175 -0.58447826 0.0061651212
0.022409014 -0.58444947 0.0060260082
0.026901463 -0.58355463 0.0061727692
0.093110912 -0.58380204 0.0063358252
0.16022694 -0.58394474 0.0064857402
0.16103616 -0.58392417 0.0064030848
0.16394499 -0.58384883 0.0060866126
0.16467358 -0.58383942 0.0060105496
0.098326199 -0.58282471 0.0062594563
0.10123079 -0.58281398 0.0060722367
0.16843107 -0.58293468 0.0062080887
0.10381906 -0.58196521 0.0063933544
0.1046043 -0.58195084 0.0063142721
0.10640174 -0.58191162 0.0061201751
0.10719819 -0.58189738 0.0060363743
0.17927705 -0.5810768 0.0062677059
0.009300895 -0.58554548 0.0067827762
0.0095493412 -0.58553928 0.0067501068
0.01501407 -0.58461386 0.0067768418
0.016901251 -0.58457536 0.0065962705
0.085817993 -0.58478332 0.0065390826
-0.054301538 -0.58428276 0.0069211028
0.019498279 -0.58373249 0.006944479
0.08761102 -0.58395642 0.0069556348
0.091281734 -0.58385909 0.0065593603
0.16314203 -0.5830707 0.0067739398
0.025270943 -0.58281648 0.0069667026
0.094943129 -0.58294767 0.00671246
0.095685922 -0.58292639 0.006612401
0.16755414 -0.58215874 0.006893768
0.17051786 -0.58208382 0.0065859868
0.17263393 -0.58123893 0.0069732862
0.17524283 -0.58118284 0.006687637
-0.068457775 -0.5861789 0.0072487281
0.0026733153 -0.58567727 0.0074423975
0.005285061 -0.58563983 0.0071986197
0.0088332817 -0.5847739 0.0074480716
0.012600396 -0.58468556 0.0070507657
0.079998292 -0.58492237 0.0071620182
-0.057472333 -0.58436614 0.0073004956
0.082594015 -0.58406967 0.0074915071
0.083708689 -0.58403707 0.0073725213
0.084746525 -0.58401263 0.0072536715
0.089425251 -0.58311564 0.0073612537
0.09207128 -0.58304167 0.0070744422
0.15942541 -0.5831542 0.0071595125
0.023681115 -0.58285314 0.0071311286
0.093839094 -0.58219546 0.0074615618
0.096437708 -0.58210593 0.0071257483
0.16226974 -0.58230281 0.0074805925
0.16964875 -0.58130771 0.0072724354
4.9768501e-06 -0.58578247 0.0077666752
0.0049973493 -0.58486044 0.0078396322
0.080823176 -0.58410561 0.0076816124
0.012338839 -0.58390838 0.0077024261
0.016494857 -0.583022 0.0078728963
0.086502783 -0.58318764 0.0076771374
0.15202448 -0.58333302 0.0079358872
0.090226829 -0.58229768 0.0078986324
0.16436334 -0.58143574 0.007817978
0.16515638 -0.58141631 0.0077378452
0.16598985 -0.58138585 0.0076531675
0.16672051 -0.5813843 0.0075773676
-0.0065704356 -0.5859468 0.0084610842
-0.0038182917 -0.58589125 0.008186793
-0.00023893151 -0.58500862 0.0084215216
0.070297934 -0.58515388 0.008199851
0.002393289 -0.584903 0.0080883121
0.0046282834 -0.58408237 0.0084872534
0.0082715861 -0.58400548 0.0081219822
0.07475356 -0.58424634 0.0083188983
0.076543845 -0.58420503 0.0081117693
0.011817588 -0.58313894 0.0083790878
0.081519708 -0.58330196 0.0082073361
0.088330336 -0.58235002 0.0080868555
0.1606929 -0.58152568 0.0082220966
0.1615335 -0.58150232 0.0081524532
-0.0090050036 -0.58600217 0.0087117944
-0.0045019314 -0.58512473 0.0088797528
-0.0041722665 -0.58511782 0.0088454382
0.0020117923 -0.58413011 0.0087425597
0.078148477 -0.58337212 0.0085547864
0.14648096 -0.58345914 0.0085035758
0.14858569 -0.5826053 0.0088876095
0.1493755 -0.58258885 0.0088182008
0.15012772 -0.58257586 0.0087289019
0.15095817 -0.58255219 0.0086534601
0.1535567 -0.58169085 0.0089681912
-0.014263337 -0.58613437 0.0092891036
-0.011658169 -0.58607191 0.0090012001
-0.0092583885 -0.58522612 0.0093630012
-0.006838012 -0.58517003 0.0091054169
-0.00071841641 -0.58424145 0.0090942495
0.067886375 -0.58441949 0.0090653962
0.0017182865 -0.5833596 0.0093992706
0.0043628081 -0.58330429 0.0091363806
0.079670846 -0.58255029 0.0090168882
0.14486098 -0.58269501 0.0092647448
0.14562751 -0.58267999 0.0091857594
-0.011927145 -0.58529615 0.0096502351
-0.0071816328 -0.5843966 0.0097651742
-0.0048225271 -0.58434844 0.009528812
0.14696017 -0.58183938 0.0096541243
0.14778383 -0.58182496 0.0095805442
-0.016910529 -0.58539838 0.010154678
-0.0051433989 -0.58357561 0.010181419
-0.012225994 -0.5837425 0.010928241
-0.0095623247 -0.58367282 0.010646073
0.086586669 -0.58490092 0.039242011
0.088371679 -0.58486104 0.039048269
0.15346436 -0.58436263 0.039189909
0.15579849 -0.58346796 0.039480008
0.15896513 -0.58338743 0.03914585
0.079712205 -0.58506066 0.039978955
0.15499543 -0.58348262 0.039563168
0.15662479 -0.58259749 0.039937668
0.15738028 -0.582582 0.039853387
0.15815839 -0.58256859 0.039776485
-0.059695374 -0.58671397 0.040132023
0.14155273 -0.58464736 0.040426284
-0.067689851 -0.58689773 0.040979698
-0.060213212 -0.58591717 0.040760867
-0.059999339 -0.58591229 0.04074027
0.13948588 -0.58468622 0.040631097
0.080500983 -0.58337134 0.040994946
-0.068102755 -0.58690649 0.041029342
0.073638901 -0.58437145 0.041167419
0.13735288 -0.58390063 0.04139901
0.078655086 -0.58341163 0.041184999
-0.068778783 -0.58611274 0.041678399
0.06657882 -0.58453256 0.041925661
0.068934038 -0.58448654 0.041692682
0.133157 -0.58399934 0.041858878
0.056800637 -0.58561528 0.042441722
-0.068439573 -0.58529538 0.042228945
0.12369534 -0.58505899 0.042316835
0.12866634 -0.58410841 0.042334903
0.13024378 -0.58407146 0.042170316
0.067324817 -0.58368617 0.042397287
0.067593768 -0.58368021 0.042378873
0.068643399 -0.58365917 0.042269737
0.070753761 -0.58360189 0.042031553
0.13571356 -0.58310455 0.042138871
0.13649669 -0.58308309 0.042040695
0.052860778 -0.58570713 0.042850584
0.059192143 -0.58471978 0.042741254
0.13102423 -0.58320791 0.042632326
-0.019819893 -0.58627081 0.04345566
0.11605973 -0.58524477 0.043123186
0.054102451 -0.58484542 0.043260783
0.055450056 -0.58481103 0.043123901
0.059912343 -0.58386993 0.043196987
0.1254859 -0.58333707 0.043207452
0.18962449 -0.58271605 0.04347254
0.19019385 -0.58270264 0.043434564
0.19121958 -0.58267796 0.043313704
-0.025093088 -0.58640063 0.043999538
0.045204781 -0.58589655 0.043683473
0.046000842 -0.58587641 0.043606833
0.046794564 -0.5858562 0.043513797
0.10948411 -0.58539927 0.043820161
0.049642194 -0.58495158 0.043749243
0.11342644 -0.58446616 0.043955833
0.17972608 -0.58378857 0.043996643
0.12096553 -0.58344716 0.043668743
0.19173491 -0.58181739 0.043787692
0.19280462 -0.58178991 0.043675143
0.19333012 -0.58177769 0.04360779
-0.029041795 -0.5864898 0.044415507
-0.025346223 -0.58640927 0.044027638
0.044647157 -0.58507746 0.044292759
0.046288427 -0.58503425 0.044132486
0.049393445 -0.58412033 0.044325758
0.050826199 -0.58408737 0.044169292
0.11492638 -0.58357704 0.044307847
0.17735547 -0.58385134 0.044257373
0.11908546 -0.58264709 0.044399999
0.11990444 -0.58262378 0.044307701
0.12251496 -0.58256871 0.044058468
0.18259482 -0.58288431 0.044241071
0.18312222 -0.58286643 0.044190861
-0.031201737 -0.58654207 0.044646379
0.035213713 -0.58613431 0.0447389
-0.025778363 -0.5855915 0.044631023
0.10225438 -0.58555174 0.044610735
0.042504486 -0.58512986 0.044528741
0.10399517 -0.58467603 0.044953726
0.10481292 -0.58465415 0.0448654
0.10993302 -0.58370572 0.04484221
0.111532 -0.58367068 0.044681679
0.11228807 -0.58365953 0.044617902
0.17097983 -0.58399343 0.044922661
0.1763173 -0.5830009 0.04487922
0.17680298 -0.58300316 0.0448259
0.11647947 -0.58270454 0.044687472
0.11726613 -0.58269101 0.044592623
0.17783663 -0.5829857 0.044732288
0.17840713 -0.58295894 0.04465973
0.1836331 -0.58199495 0.044662397
0.18411551 -0.58199942 0.044602785
0.18463172 -0.5819878 0.044529568
-0.035809219 -0.5866282 0.045083307
-0.031844363 -0.58573723 0.045280792
-0.03079091 -0.58570945 0.04516466
-0.029939657 -0.58569014 0.045068976
0.037043367 -0.58526212 0.045131974
0.10061123 -0.58474553 0.045314867
0.040935215 -0.5843398 0.045315631
0.16810389 -0.58405185 0.045216046
0.10655318 -0.58378345 0.045217372
0.1073039 -0.58376771 0.045135193
0.10835682 -0.58374786 0.045042027
0.1731039 -0.58309537 0.045227628
0.11308314 -0.58279383 0.045073222
0.17890431 -0.58209753 0.045128271
-0.037698299 -0.58585572 0.045866236
-0.03714937 -0.5858407 0.045804996
-0.036657557 -0.58582687 0.045745257
-0.036218911 -0.58582169 0.045694914
-0.030388432 -0.58487439 0.045671411
-0.029616071 -0.58486044 0.045607433
0.096653253 -0.58480507 0.045660909
0.039114542 -0.58438545 0.045517664
0.16521339 -0.58411473 0.045515925
0.098467499 -0.58390266 0.045954108
0.16884288 -0.58318204 0.045649465
0.17258114 -0.58225381 0.045796413
0.1739165 -0.582205 0.045642313
0.17439879 -0.58220053 0.045596693
0.092204399 -0.58495581 0.046233118
0.095096819 -0.58401555 0.046396717
0.16075617 -0.58422804 0.046004966
0.038805302 -0.58355892 0.046091761
0.0958414 -0.58399272 0.046300698
0.097715273 -0.58392054 0.046045568
0.16281341 -0.58332509 0.046295457
0.16431867 -0.58329874 0.046139009
-0.052038301 -0.58702844 0.046872716
-0.051764127 -0.58701956 0.04683356
-0.050956201 -0.58699012 0.046735559
0.086767487 -0.58509022 0.046836343
0.090396263 -0.58416021 0.046986364
0.15545446 -0.58435339 0.046548449
0.15624516 -0.58348113 0.046999518
0.15778846 -0.58344418 0.046829928
0.16354319 -0.58245814 0.046726406
-0.051589988 -0.58618325 0.04737138
-0.051322535 -0.58617043 0.047332067
0.082795471 -0.58518106 0.047258917
0.14864779 -0.58450484 0.04727621
0.14939758 -0.58449 0.047183588
0.1520133 -0.58358234 0.047438111
0.15278924 -0.58355665 0.047349159
0.15908302 -0.58256072 0.04721332
0.078361131 -0.58528048 0.047732435
0.14332947 -0.58463669 0.047815166
0.084887236 -0.58428514 0.047568891
0.14702144 -0.58369356 0.047972299
0.1509694 -0.5836044 0.047556426
0.15355718 -0.58269352 0.047795087
0.1441016 -0.58376431 0.048255082
0.13619533 -0.58481276 0.048572227
0.12832437 -0.58499295 0.0494086
-0.017201295 -0.58655345 0.050824985
-0.015204278 -0.58652306 0.050646916
-0.016459018 -0.58570123 0.073905513
-0.014068916 -0.58565193 0.073682807
-0.017054604 -0.58484721 0.074463777
-0.01677247 -0.5848437 0.074437916
-0.018015889 -0.58713591 0.080494374
-0.017761635 -0.58713299 0.08046978
-0.017227957 -0.5871172 0.080409221
-0.017537482 -0.58625704 0.080935717
-0.016483625 -0.5857451 0.088182144
-0.018009065 -0.5877831 0.094246045
-0.017798234 -0.58689445 0.094683595
-0.01805827 -0.58819658 0.1336365
-0.01789497 -0.5863353 0.13434573
-0.018140389 -0.58781284 0.1701954
-0.018070636 -0.58967602 0.18137679
-0.018114395 -0.58918333 0.19298197
-0.018130736 -0.58925235 0.2042944
-0.018143529 -0.58959097 0.22100693
-0.018159539 -0.58965713 0.23206435
-0.018194024 -0.58933568 0.24308248
-0.018521052 -0.58963227 0.25406995
-0.029101286 -0.75118864 0.00061244966
-0.02187307 -0.58655852 0.00085521594
-0.021079674 -0.57594764 0.00054653094
-0.022516638 -0.5796358 0.0066127013
-0.020532729 -0.62602335 0.042486891
-0.022227883 -0.62437594 0.04371522
-0.020511884 -0.61041123 0.043849848
-0.020610388 -0.59830296 0.043512274
-0.022068262 -0.61045682 0.044018954
-0.021922389 -0.59750277 0.044198692
-0.020526612 -0.62175757 0.045073912
-0.021868303 -0.60876673 0.045068301
-0.022136483 -0.62095863 0.045772087
-0.02045632 -0.60704094 0.045981199
-0.020515876 -0.59497064 0.045704726
-0.021909634 -0.59333062 0.046932973
-0.022743519 -0.63236272 0.047380716
-0.020398241 -0.6183418 0.047135517
-0.022391163 -0.63149357 0.047842804
-0.02204985 -0.61754274 0.047833689
-0.021818984 -0.60455096 0.047730062
-0.022236196 -0.62977546 0.048835684
-0.02047855 -0.58997029 0.048991792
-0.018128207 -0.59192514 0.085034773
-0.017435608 -0.58312553 0.089693069
-0.018056342 -0.60310161 0.093559913
-0.018130619 -0.59236467 0.098857492
-0.018033307 -0.60405773 0.10716344
-0.017909773 -0.60132539 0.10837791
-0.018071657 -0.59404927 0.11166792
-0.017960951 -0.58950055 0.11371138
-0.017960399 -0.60077268 0.12213358
-0.017733367 -0.61516625 0.12311998
-0.018171038 -0.59246278 0.12555066
-0.01797922 -0.6058681 0.12675868
-0.016592013 -0.5850457 0.12842019
-0.016906863 -0.58412576 0.12882762
-0.01723237 -0.58320683 0.12923658
-0.017882101 -0.60808897 0.13254192
-0.017900765 -0.60247034 0.13461484
-0.01772243 -0.61586344 0.13638817
-0.018161176 -0.59310997 0.13809027
-0.018084921 -0.62551022 0.13988751
-0.017951712 -0.62361073 0.14049986
-0.017748222 -0.62171012 0.14110239
-0.017229559 -0.58372635 0.14145152
-0.016949186 -0.58372259 0.14142567
-0.018256105 -0.59136868 0.14498596
-0.018099528 -0.63036776 0.14513874
-0.018200349 -0.58571541 0.14695944
-0.017955665 -0.60180277 0.14768453
-0.017735707 -0.61605334 0.1495402
-0.017898386 -0.60842729 0.15191878
-0.017909391 -0.61883998 0.15524215
-0.01792988 -0.58650064 0.15872663
-0.017756918 -0.584589 0.15930173
-0.017836208 -0.62056333 0.16124748
-0.018163489 -0.59391838 0.1625167
-0.017866336 -0.61382031 0.16309227
-0.018020237 -0.5900833 0.16362265
-0.017985154 -0.60707736 0.16493551
-0.017960491 -0.6289618 0.16558248
-0.017828871 -0.6270225 0.16606086
-0.018012825 -0.60129702 0.1665107
-0.017980324 -0.58588511 0.17070609
-0.018060846 -0.60573184 0.17148644
-0.018087849 -0.63148451 0.17155942
-0.017949449 -0.60282505 0.17220806
-0.018220622 -0.59315008 0.17468528
-0.017927323 -0.61300588 0.17588757
-0.016453179 -0.58440864 0.17672768
-0.0179793 -0.6290136 0.17861989
-0.017848169 -0.62705797 0.17903033
-0.017694609 -0.62412649 0.1796481
-0.018391414 -0.63132334 0.18465829
-0.018164475 -0.63033789 0.18482952
-0.018025838 -0.60168183 0.18454598
-0.017868504 -0.61465174 0.18791091
-0.018086193 -0.60583752 0.1896787
-0.018020842 -0.62859005 0.19154853
-0.017937617 -0.62563837 0.19207314
-0.017784916 -0.62268603 0.19258833
-0.018394927 -0.63166583 0.19744635
-0.018216463 -0.62968898 0.19774871
-0.017973382 -0.61291599 0.2004465
-0.018084716 -0.62769878 0.20435117
-0.018001886 -0.62472969 0.20477244
-0.017897643 -0.6207723 0.20533262
-0.01829071 -0.62857455 0.21053374
-0.017956177 -0.61369425 0.21238284
-0.01808784 -0.62336516 0.21732841
-0.017936334 -0.62038189 0.21763659
-0.018171772 -0.62898719 0.2229604
-0.018085187 -0.62852955 0.22919619
-0.014575964 -0.58226824 0.24300502
-0.015702998 -0.58129781 0.24315901
-0.015353644 -0.58147818 0.2484573
-0.013642763 -0.58143789 0.24827053
-0.013385099 -0.58143222 0.24823794
-0.014011599 -0.57844788 0.24837786
-0.014553487 -0.57746184 0.24846989
-0.014678874 -0.58055645 0.25373518
-0.014294427 -0.5775525 0.25370747
0.16350949 -0.62893009 0.043261904
0.16579258 -0.62799501 0.043489814
0.16946663 -0.6279096 0.043093722
0.17236845 -0.62696749 0.04328686
0.1744636 -0.62691474 0.043041788
0.17685425 -0.62597114 0.04327077
0.18947767 -0.62307036 0.043353502
0.16137774 -0.6281029 0.043967493
0.16497202 -0.62801951 0.04357408
0.094103135 -0.62795919 0.043993108
0.095167875 -0.62792695 0.04385804
0.16656476 -0.62709159 0.043868095
0.1762569 -0.62512171 0.043796375
0.12173948 -0.62210768 0.043931931
0.18898886 -0.62219006 0.043879766
0.13630749 -0.61915874 0.0438761
0.14858288 -0.61712492 0.04356315
0.16654289 -0.61322558 0.043601282
0.17447804 -0.61129099 0.043753732
0.17730607 -0.61036915 0.043955751
0.17025359 -0.59849763 0.043878146
0.17447692 -0.59753704 0.04394535
0.19062309 -0.59460425 0.043774467
0.059625529 -0.63488525 0.044348285
0.070594095 -0.63287854 0.044135824
0.15434161 -0.62914461 0.044234201
0.091533653 -0.62803406 0.044315241
0.16057236 -0.6281231 0.044050302
0.096915603 -0.62700158 0.044112232
0.16423082 -0.62715167 0.044128206
0.10239492 -0.6260224 0.044076338
0.16732548 -0.62620533 0.044275757
0.10490393 -0.62510383 0.044286598
0.10749896 -0.6250478 0.044005305
0.17020904 -0.6252498 0.044446267
0.11000134 -0.62412995 0.044226535
0.11575995 -0.62312245 0.044095896
0.11912265 -0.6221723 0.044218894
0.18789826 -0.62135041 0.044480249
0.18843944 -0.62132329 0.044419833
0.12641014 -0.62025863 0.044435397
0.13241407 -0.61925161 0.044303935
0.13398375 -0.61921102 0.044117
0.14566413 -0.61632365 0.044339892
0.094184406 -0.61318958 0.04438309
0.17232293 -0.61135286 0.044005457
0.10910924 -0.6102832 0.044307653
0.11483262 -0.60929084 0.044177745
0.18948831 -0.60749292 0.044148069
0.19000565 -0.60747594 0.044083055
0.12629195 -0.60642958 0.044479333
0.1283959 -0.6063804 0.044260323
0.13697298 -0.60445958 0.044353846
0.13914728 -0.60439199 0.044100489
0.1464175 -0.60250485 0.044358883
0.15528342 -0.60057771 0.044449184
0.15608545 -0.60056311 0.044366099
0.15846278 -0.60050589 0.044123355
0.16291445 -0.59954005 0.044154383
0.17730525 -0.59662819 0.044160109
0.19269033 -0.5936994 0.044068068
0.13067596 -0.59260619 0.044467926
0.17022333 -0.58485526 0.044467539
0.12001054 -0.63609684 0.044534143
0.060957022 -0.63397819 0.044696022
0.081121936 -0.62914687 0.044943266
0.15175052 -0.62920243 0.044523094
0.086852133 -0.62814307 0.044810869
0.087913312 -0.62812012 0.044696592
0.089684293 -0.62808079 0.044501893
0.093280211 -0.62711841 0.044585329
0.16214158 -0.62633222 0.044855643
0.10416432 -0.62424159 0.044858616
0.10666981 -0.6242004 0.044583958
0.041717891 -0.62394261 0.044639856
0.10922256 -0.6232779 0.044817951
0.045809902 -0.62298012 0.044605199
0.047368906 -0.62207675 0.044951309
0.11491525 -0.62227613 0.044684112
0.18013285 -0.62239963 0.044834081
0.1806667 -0.62238401 0.044781744
0.18117374 -0.62237382 0.044735461
0.11829238 -0.62132233 0.044789881
0.18735473 -0.62137067 0.044544164
0.056228448 -0.6201331 0.044983093
0.12847444 -0.61934435 0.044722427
0.13314301 -0.61836416 0.044704951
0.070611931 -0.61720169 0.044951163
0.071598299 -0.61718237 0.044839848
0.13701677 -0.61740768 0.044776168
0.1391446 -0.61734444 0.044529859
0.075985871 -0.61621493 0.044848632
0.078664392 -0.61614573 0.044563357
0.086895034 -0.61424369 0.044697627
0.15841278 -0.61254692 0.044975251
0.16208592 -0.61247283 0.044603117
0.09855108 -0.61131454 0.044800501
0.10140202 -0.61129814 0.044611353
0.16729476 -0.61146736 0.044512056
0.17019916 -0.61052215 0.044707391
0.10321122 -0.61039829 0.044926837
0.17309985 -0.60960174 0.044897046
0.17680165 -0.60949779 0.044503216
0.11407226 -0.60843945 0.044776287
0.1181847 -0.60748136 0.044820413
0.12080779 -0.60741597 0.044537108
0.18894514 -0.60662574 0.04468077
0.058584481 -0.60623682 0.044960588
0.12916999 -0.60550243 0.044679329
0.13000193 -0.60547781 0.044609766
0.13152122 -0.6045838 0.044946861
0.15187959 -0.60065925 0.044809129
0.15921709 -0.59962261 0.044540666
0.093216419 -0.5994302 0.044827655
0.15996496 -0.59875059 0.04497239
0.096836112 -0.59845829 0.044881731
0.10231185 -0.59751481 0.044891149
0.16812892 -0.59768546 0.044606399
0.11316863 -0.59557885 0.044777062
0.129923 -0.59262025 0.044559136
0.14637104 -0.58881617 0.044884328
0.18513505 -0.58110785 0.044986434
0.18571472 -0.5810833 0.044928502
0.18619938 -0.58108139 0.04486369
0.05302627 -0.63504213 0.045041453
0.11654222 -0.63530338 0.045399077
0.057234485 -0.63406873 0.045079943
0.07261309 -0.63021171 0.045373987
0.13916749 -0.6303786 0.045340449
0.076971732 -0.62924218 0.045380898
0.082965769 -0.6282317 0.045235153
0.083962247 -0.62821114 0.045120392
0.085026145 -0.62818342 0.045006458
0.1485462 -0.62840003 0.045332152
0.15089348 -0.62834984 0.045077831
0.15353611 -0.62739694 0.045265641
0.15845335 -0.62641168 0.045234464
0.096082442 -0.62528503 0.045205262
0.036458977 -0.62405813 0.045096435
0.10051872 -0.62430626 0.045214646
0.038264517 -0.62316 0.04544476
0.1730803 -0.62344021 0.045107432
0.043470226 -0.62217367 0.04541434
0.17959481 -0.62152654 0.045367319
0.048947457 -0.62117398 0.045283396
0.18168963 -0.62147981 0.045169923
0.18221825 -0.62147504 0.045119133
0.054883774 -0.62016839 0.045118406
0.12085768 -0.61951751 0.045491558
0.05851401 -0.61922508 0.045246024
0.13156274 -0.61753196 0.045360405
0.077833802 -0.61530501 0.045155257
0.14931184 -0.61362463 0.045453943
0.15005648 -0.61360985 0.04536064
0.15687758 -0.6125837 0.045145493
0.15763685 -0.61256421 0.045055661
0.092337735 -0.61238265 0.045116544
0.16808166 -0.6096977 0.045418829
0.17092098 -0.60964692 0.045119159
0.10573873 -0.60948962 0.045155484
0.10831169 -0.60857236 0.045395631
0.17620848 -0.6086536 0.045046043
0.054874875 -0.60632408 0.045335785
0.056219481 -0.6062898 0.045198768
0.18788669 -0.60578102 0.045289915
0.18847762 -0.60575587 0.045226976
0.061977584 -0.60530078 0.045100328
0.13071528 -0.60460538 0.045023587
0.067248143 -0.6043101 0.045044445
0.074217431 -0.60244721 0.045332033
0.076835684 -0.60237908 0.045035727
0.14112738 -0.6017673 0.045419227
0.088775977 -0.59955239 0.045334425
0.094253853 -0.59854662 0.045217223
0.10486858 -0.59660769 0.04513396
0.10739392 -0.59570551 0.04537224
0.11078355 -0.59563303 0.045010097
0.17095472 -0.59590894 0.04533688
0.11233125 -0.59474975 0.045387123
0.1767974 -0.59490484 0.045222905
0.11651263 -0.59378523 0.045434497
0.061023548 -0.59244251 0.045324944
0.1895089 -0.59204888 0.045404926
0.19000986 -0.59203565 0.045359343
0.12909707 -0.59178692 0.045155205
0.1931946 -0.59195864 0.045024652
0.065190889 -0.59149772 0.045401059
0.14107035 -0.58894557 0.045441028
0.15448779 -0.58692628 0.045098897
0.11007495 -0.63634121 0.045640431
0.044685356 -0.63524556 0.045957878
0.04706933 -0.63518757 0.045704901
0.048644494 -0.63514781 0.045534872
-0.063771695 -0.62959957 0.045739278
0.14046197 -0.62946582 0.045678686
0.079538129 -0.62830889 0.045585264
0.080355152 -0.62828892 0.04551423
0.14487399 -0.62848967 0.045704175
-0.053708863 -0.62768984 0.045698132
-0.053467888 -0.62767905 0.045666091
0.15008575 -0.62748313 0.045645837
0.086011864 -0.62641943 0.045878038
0.15766189 -0.62555122 0.045790922
0.090639174 -0.62544847 0.045871451
-0.042106602 -0.62479925 0.04578073
0.094270535 -0.62447256 0.045933794
-0.037352167 -0.62385476 0.045821521
0.098617233 -0.62345481 0.045834545
0.10151657 -0.6234296 0.045630172
-0.030814301 -0.62285888 0.045665495
0.040053815 -0.62226099 0.045804609
0.041901208 -0.62221366 0.045618899
-0.025215646 -0.62187606 0.045570288
-0.024957061 -0.62187016 0.045545753
0.1756238 -0.62162614 0.045784894
-0.019022994 -0.62002552 0.04596971
0.18682139 -0.61960745 0.045534331
0.052030612 -0.61937338 0.045943212
0.059836689 -0.61832976 0.0456089
0.061095525 -0.61743677 0.045971867
0.062141266 -0.61741173 0.045862235
0.064249352 -0.6173591 0.045630887
0.13076036 -0.61668068 0.045943763
0.075210705 -0.61450452 0.045954335
0.082964368 -0.61346948 0.045630671
0.15266189 -0.61268461 0.045584831
0.15526703 -0.6117481 0.045795925
0.15603793 -0.61173564 0.045712549
0.095167749 -0.61057246 0.045774207
0.15918992 -0.61078691 0.045867614
0.097669058 -0.6096276 0.045933727
0.099486142 -0.60957557 0.045711931
0.16278937 -0.60984474 0.045990735
0.03663164 -0.609321 0.045751918
0.040266734 -0.60839361 0.04598096
0.043388784 -0.60830945 0.045560621
0.112376 -0.60676491 0.04596629
0.11316229 -0.60674846 0.045891609
0.18118086 -0.60679996 0.04553486
0.0504319 -0.6064294 0.0458255
0.11736615 -0.60577571 0.045922186
0.11994546 -0.60571867 0.045639474
0.18170094 -0.60592061 0.045987535
0.12334714 -0.60478008 0.045810331
0.18680125 -0.60494357 0.045897517
0.18731499 -0.60493606 0.045846444
0.059883483 -0.60449612 0.045862369
0.12698866 -0.60383397 0.045925893
0.069527768 -0.60256153 0.045858756
0.070590846 -0.60253137 0.045735724
0.13771941 -0.6018545 0.045777958
0.14185272 -0.60089934 0.045852982
0.14269497 -0.60086989 0.045767233
0.085930526 -0.5996151 0.045642555
0.14715852 -0.59990346 0.045819771
0.15446372 -0.59887522 0.045559924
0.098618761 -0.59669191 0.045675091
0.16361491 -0.59693581 0.045591038
0.16433819 -0.59692597 0.045515388
0.036956523 -0.59639919 0.045788888
0.038781926 -0.59636265 0.045639653
0.16513531 -0.59604126 0.045940716
0.042203143 -0.59543538 0.045817539
0.043439992 -0.59540045 0.045608435
0.17623813 -0.5940513 0.0457853
0.11152491 -0.59391028 0.045973301
0.059911583 -0.59162778 0.045980345
0.061995924 -0.5915764 0.045748536
0.12249392 -0.59194517 0.045858081
0.12329631 -0.59192502 0.045777746
0.1269498 -0.5909937 0.045914877
0.071486406 -0.58965576 0.045798019
0.13401783 -0.5899654 0.045666587
0.075884841 -0.58870822 0.045852117
0.081910849 -0.58772534 0.045753602
0.083980739 -0.58767992 0.045527577
0.089681968 -0.58585978 0.045996323
-0.03181693 -0.6360085 0.046320096
-0.026437744 -0.63502645 0.046256006
0.043427724 -0.63528401 0.046182945
0.045688383 -0.63435245 0.046335608
0.064245544 -0.6304152 0.046280332
0.13547471 -0.62958628 0.046220098
0.13626468 -0.62956995 0.04616015
0.067269437 -0.62947351 0.04642437
0.069431275 -0.62942046 0.0462179
-0.062790498 -0.62871772 0.046141423
0.073534712 -0.62845635 0.046246558
0.07432358 -0.62843329 0.046157952
-0.05688097 -0.62775135 0.046055775
0.14565215 -0.6275897 0.046095248
0.078785919 -0.62745309 0.046155546
0.082077257 -0.62651563 0.046310041
0.14930947 -0.62662286 0.046205655
0.088802703 -0.6254949 0.046065677
-0.045503441 -0.6248849 0.046149883
0.092461556 -0.62452644 0.046158507
0.1591821 -0.62464029 0.046107732
-0.036919862 -0.6229955 0.04630452
-0.030408347 -0.62200022 0.046142053
0.10329255 -0.62165415 0.046429697
0.044673808 -0.62041938 0.046239663
0.1140794 -0.61968625 0.04626086
0.050448697 -0.61941183 0.04612194
0.057417847 -0.6175257 0.046379853
0.063223131 -0.61651903 0.046248633
0.12704566 -0.61676913 0.046331078
0.065277912 -0.61647195 0.046018541
0.066336274 -0.61558247 0.04640672
0.06943398 -0.61551088 0.046086054
0.072544843 -0.61457556 0.046247073
-0.056092367 -0.61379987 0.046201982
-0.052735545 -0.61287469 0.046333276
0.081141047 -0.61264706 0.046338983
0.14631933 -0.61283273 0.046233911
0.084977485 -0.61170042 0.04641683
0.089639075 -0.61073554 0.046422556
-0.040866762 -0.61002988 0.046498265
0.15991737 -0.6099056 0.046290301
-0.034042805 -0.60903275 0.046327554
0.16357869 -0.60894316 0.04639075
-0.02797194 -0.60806465 0.046246421
0.03840448 -0.60843265 0.046122074
0.10492623 -0.60778236 0.046254776
0.16876499 -0.60795605 0.046332452
0.045974348 -0.6065411 0.046313636
0.10746994 -0.60686994 0.046484832
0.11084103 -0.60679662 0.046116404
0.1116254 -0.60677999 0.04603919
0.17380534 -0.6069746 0.046297077
0.17563991 -0.60693061 0.046082098
-0.017569846 -0.60613036 0.046215296
0.18062185 -0.60594302 0.046080075
0.064287193 -0.60268188 0.046410695
0.065275751 -0.60266149 0.046288773
0.13979302 -0.60093808 0.046057694
0.080140993 -0.59975064 0.046266574
-0.043500405 -0.59798574 0.046444163
0.090569891 -0.59780282 0.046195135
0.092328154 -0.5969047 0.046496686
0.16069712 -0.5961495 0.046417452
0.035321437 -0.59559274 0.046470847
-0.026808193 -0.59511876 0.04634665
0.040602826 -0.59547615 0.046010885
0.10400975 -0.59492409 0.046261925
0.17171332 -0.59417027 0.046278603
0.047597989 -0.59361291 0.046243615
0.049212866 -0.59356803 0.046060175
0.10913587 -0.59396726 0.046233278
0.1099481 -0.59394145 0.046135344
0.11907659 -0.59202093 0.046195623
0.12168879 -0.59111142 0.046449695
0.12405315 -0.59105146 0.046207298
0.12483812 -0.59104174 0.046124026
0.18890417 -0.59034103 0.04647091
0.06616018 -0.58978409 0.046352781
0.073227905 -0.58877635 0.046144322
0.1376261 -0.58818126 0.04631874
0.1418023 -0.58723068 0.046410143
0.14266723 -0.58719999 0.046320003
0.043079976 -0.63442361 0.046710279
-0.020679103 -0.63317496 0.046662688
-0.020421771 -0.63316983 0.046636045
0.050128281 -0.63250023 0.046842501
0.053178575 -0.63155633 0.04698085
0.058399774 -0.63056421 0.046924166
0.063070625 -0.62957877 0.046893083
0.065237105 -0.62952179 0.046662372
0.066217557 -0.6295017 0.046539884
0.068357855 -0.628573 0.04680492
-0.062431455 -0.62785918 0.046628769
-0.050766412 -0.62503576 0.046806976
0.086981401 -0.62466335 0.046754275
-0.045301039 -0.62402427 0.046634544
0.089810468 -0.62372851 0.04693928
-0.041960299 -0.62309068 0.046800241
0.095238708 -0.62270308 0.046789467
-0.036726624 -0.62213701 0.046808913
-0.030199287 -0.6211459 0.046640977
0.036603343 -0.62147194 0.046594445
0.038423963 -0.62057221 0.046944629
-0.024772637 -0.62015736 0.046563167
0.045948155 -0.61952895 0.046609405
0.10830455 -0.6198172 0.046862755
0.1299419 -0.61582541 0.046526197
0.076945722 -0.61274225 0.046763189
0.083988108 -0.6117186 0.046528615
-0.049370829 -0.61108476 0.04693206
0.087845497 -0.61077613 0.04661455
-0.044189438 -0.61011577 0.046871219
0.091439113 -0.60982704 0.046738073
0.093259849 -0.60977507 0.046514168
-0.033734571 -0.60819191 0.046839453
0.034989346 -0.60765094 0.04694904
0.10051051 -0.60786301 0.046706531
-0.027816299 -0.60721421 0.046751544
0.042007584 -0.60664678 0.046820816
0.044589814 -0.60572386 0.046974186
0.11002602 -0.60594922 0.046706386
-0.018906223 -0.60532093 0.046898358
0.051889934 -0.60469186 0.04669917
0.053534906 -0.60465014 0.046525475
0.11654966 -0.60493523 0.046517335
0.057426967 -0.60370743 0.04663967
0.12175045 -0.60309374 0.046976734
0.12251664 -0.60307461 0.046898983
0.12410475 -0.60302973 0.046727814
0.12485932 -0.6030218 0.046646819
-0.065853313 -0.6018855 0.046860486
-0.065307513 -0.60186422 0.046792805
0.1340047 -0.60108215 0.046686824
0.13478401 -0.60105902 0.046597719
-0.058674492 -0.60088956 0.046650354
-0.055203494 -0.59999001 0.046813358
0.07334578 -0.5999071 0.046986155
0.079369649 -0.59891063 0.046867535
0.081993602 -0.59885299 0.046589136
-0.047175236 -0.59807712 0.046832196
0.08296489 -0.59798086 0.0469984
0.084030807 -0.59795314 0.046884976
0.086932115 -0.59788942 0.046575833
0.1510257 -0.59723252 0.046939936
0.15363021 -0.59717453 0.046652094
0.095950052 -0.59593624 0.046550922
-0.032320693 -0.59525073 0.046953056
0.10658825 -0.59401643 0.046505265
0.16877854 -0.59423506 0.046564344
-0.017999584 -0.59323937 0.04652388
0.17379323 -0.59325731 0.046544351
0.11566048 -0.59210622 0.046574965
0.17561692 -0.59235889 0.04685076
-0.061965957 -0.5889309 0.046962541
0.15020898 -0.58532554 0.046582308
-0.042357072 -0.63623762 0.047416829
-0.026718972 -0.63331383 0.047304496
-0.019016055 -0.63140547 0.047483776
-0.017649649 -0.63137764 0.047357868
0.056010511 -0.63061935 0.047164619
0.06104742 -0.62962538 0.04712851
0.062061913 -0.62960112 0.047012202
0.070653051 -0.62765461 0.047063734
-0.062215146 -0.62701195 0.047138352
-0.053399552 -0.62511069 0.047189809
-0.05053357 -0.62417281 0.047292132
-0.045079131 -0.62316889 0.047138926
-0.041781779 -0.62223166 0.047296513
-0.036509655 -0.62127596 0.047297951
-0.029983714 -0.62028497 0.047131762
0.053477477 -0.6167562 0.047298104
-0.06865263 -0.6149205 0.047029268
0.068338268 -0.61381298 0.047203474
-0.055927761 -0.61211038 0.047252789
0.094239861 -0.60802144 0.047404431
0.09682171 -0.60793549 0.047066491
-0.033535101 -0.60734421 0.047350008
0.10233929 -0.60697228 0.047044918
0.10408561 -0.60607612 0.047351658
0.049083035 -0.60475791 0.047018904
0.050580155 -0.60386747 0.047362745
0.11910767 -0.60314924 0.047240976
0.061066162 -0.60191029 0.047282744
0.063222378 -0.60185504 0.047045212
-0.064831033 -0.60102123 0.047282651
0.071555875 -0.59994769 0.047188476
-0.055003677 -0.59914625 0.047333386
0.075937554 -0.59899533 0.047227032
0.078517802 -0.59807932 0.047462523
-0.032124765 -0.59441221 0.047479469
0.1014241 -0.59412271 0.047068272
-0.026618982 -0.59344995 0.047428213
0.10323335 -0.59322852 0.047387797
0.044643965 -0.59284711 0.047087457
0.11486308 -0.59127444 0.047182336
0.11824159 -0.59034163 0.047336265
-0.061691131 -0.58810407 0.047491483
-0.061308604 -0.58809662 0.047452793
-0.060933463 -0.58808428 0.047403175
-0.057487272 -0.58800054 0.047017638
0.067166515 -0.58807492 0.04732573
0.072372004 -0.58711171 0.047303345
0.13235608 -0.58745438 0.047421731
0.13474143 -0.58739185 0.047160085
0.079220012 -0.58610368 0.047115084
0.14493373 -0.58544838 0.047120284
-0.046486456 -0.63633323 0.047871765
-0.038479093 -0.63529283 0.047523171
-0.032336786 -0.63343716 0.047884144
-0.026161406 -0.63243496 0.047730967
-0.05665255 -0.62518764 0.047574837
-0.053159997 -0.62425005 0.047666408
-0.044806767 -0.62231189 0.047632638
-0.041534219 -0.62136739 0.047780938
-0.029696342 -0.61942345 0.047616541
-0.02923541 -0.61941367 0.047567293
-0.024590915 -0.61844963 0.047585014
-0.018844564 -0.61746639 0.047514468
-0.017536385 -0.61657953 0.04789383
0.059947863 -0.61488158 0.047620561
-0.059330646 -0.61219466 0.047632676
-0.055715542 -0.6112566 0.047756266
-0.052571192 -0.61034167 0.04790521
-0.049268324 -0.60938883 0.047964718
-0.044057164 -0.60842115 0.047913317
0.036753271 -0.60590994 0.047825437
0.040443081 -0.60583043 0.047522753
-0.024004361 -0.6046012 0.047951568
0.06204721 -0.60103637 0.047687583
-0.064225137 -0.60016257 0.047761347
-0.058430642 -0.59921914 0.047720872
-0.047001697 -0.59640718 0.047917288
0.085022271 -0.59622455 0.047817122
-0.038944915 -0.59539622 0.047630884
0.089673795 -0.59527063 0.047841646
0.095111474 -0.59425539 0.047703288
0.099568002 -0.59329379 0.047744162
0.038896304 -0.59298915 0.047773566
0.10572689 -0.59233558 0.047637545
0.12084276 -0.58942544 0.047574289
-0.038227227 -0.63442701 0.048000902
-0.025810909 -0.63156646 0.048196733
-0.062004719 -0.62530667 0.048156187
-0.061810497 -0.62529796 0.048126936
-0.044628847 -0.62145412 0.048130158
-0.036265951 -0.61956292 0.048293173
-0.059062939 -0.61134571 0.048144706
-0.048756126 -0.60852593 0.04843124
-0.040328402 -0.60749626 0.048066501
-0.027692132 -0.60468078 0.048333399
-0.06400457 -0.59932816 0.048293136
-0.06374108 -0.59933233 0.04827993
-0.063436814 -0.59933007 0.048253018
-0.058230523 -0.5983814 0.048241358
-0.052241359 -0.59739137 0.048016552
-0.043393761 -0.59548199 0.0480747
0.042254679 -0.59121704 0.048461489
0.057372674 -0.58832121 0.048389509
0.065326281 -0.58727723 0.048057955
0.069515005 -0.58633322 0.048158452
-0.061551429 -0.62443727 0.04861341
-0.056383144 -0.6234678 0.048569329
-0.02886707 -0.61770022 0.048553299
-0.068493709 -0.61239636 0.048613485
-0.058861345 -0.61049783 0.048661444
-0.055551004 -0.60957229 0.048816673
-0.040154424 -0.60665131 0.048586264
-0.027423443 -0.60383171 0.048836447
-0.023790421 -0.60291129 0.048995685
-0.05492951 -0.59663397 0.048946202
-0.031879652 -0.59274268 0.048550773
-0.017827248 -0.589903 0.048700813
-0.068135634 -0.61154824 0.049122307
-0.06765338 -0.61153388 0.049066614
-0.063177012 -0.59765095 0.049309663
