# .PCD v0.7 - Point Cloud Data file format
VERSION 0.7
FIELDS x y z
SIZE 4 4 4
TYPE F F F
COUNT 1 1 1
WIDTH 1199
HEIGHT 1
VIEWPOINT 0 0 0 1 0 0 0
POINTS 1199
DATA ascii
-0.014654851 -0.20927195 -0.00070070458
-0.014239436 -0.21843849 -0.0018817834
-0.013815212 -0.22797221 -0.00076863635
-0.012997789 -0.24612822 -0.0014761906
-0.012793355 -0.25079465 4.072029e-05
-0.012394237 -0.2600022 0.0043240967
-0.011812316 -0.27315006 0.006856435
-0.011592447 -0.27752945 -0.00014623566
-0.011384521 -0.28202558 -0.0020709052
-0.010777014 -0.29552677 -0.0023727755
-0.010160563 -0.30920693 -0.0029530213
-0.0097408947 -0.31850275 -0.0035904974
-0.0093185296 -0.32788375 -0.0038901232
-0.0088940375 -0.33733764 -0.0038468123
-0.0082545727 -0.35162753 -0.0031285896
-0.0079912832 -0.35731241 -0.0055746287
-0.0073437993 -0.37186384 -0.0037412674
-0.0068725073 -0.38234732 -0.0039131055
-0.0063969004 -0.39295837 -0.0036630034
-0.00567711 -0.40907738 -0.0024780156
-0.0053390502 -0.4163996 -0.0053796354
-0.0046051219 -0.43294069 -0.0027582461
-0.0039779688 -0.44678316 -0.0046087094
-0.0032052938 -0.46426982 -0.00090850098
-0.002689359 -0.47538322 -0.0063026361
-0.0017772535 -0.49589446 -0.0038412074
-0.0009474337 -0.51422071 -0.0063116075
-0.00016896613 -0.53157711 -0.0063767117
0.0020323456 -0.58067828 -0.0064379578
0.0046726121 -0.63966048 -0.0055540781
0.0061613466 -0.6726647 -0.0086950157
0.0090563856 -0.73666316 -0.017504074
0.0092803137 -0.74221152 -0.0098987482
-0.017618118 -0.16797823 0.39532086
-0.022459168 -0.028830394 0.0039191679
-0.020290239 -0.079387888 0.033258721
-0.021416632 -0.049530111 -0.029117377
-0.019136382 -0.10359539 0.013955101
-0.018402737 -0.11964752 0.010338991
-0.018118683 -0.12602399 0.011063127
-0.017114876 -0.14736782 -0.0019423355
-0.016632063 -0.15805711 -0.0026223983
-0.016141558 -0.16901882 -0.0019492568
-0.015673725 -0.17943765 -0.0017659323
-0.015430875 -0.18492825 -0.00057731668
-0.014781271 -0.19925815 -0.0020948169
-0.014343822 -0.20901407 -0.0016968396
-0.013919487 -0.21843149 -0.0019099365
-0.013504177 -0.22759949 -0.0027630425
-0.013290878 -0.23242891 -0.0015877835
-0.01247226 -0.25059447 -0.0019780151
-0.012068049 -0.25974792 0.00030362987
-0.011285095 -0.27748275 0.0048254929
-0.011080101 -0.28189164 0.0028992821
-0.010656532 -0.29097167 -0.0017138353
-0.010249658 -0.30000103 -0.002011487
-0.010041754 -0.30458742 -0.0025375031
-0.0098329708 -0.30919957 -0.002981144
-0.0092020435 -0.32317597 -0.0038109908
-0.0089782812 -0.32807469 -0.0048982697
-0.0083671678 -0.34183115 -0.0027548305
-0.0077123004 -0.35640594 -0.0027409792
-0.0072667138 -0.3663348 -0.0025852178
-0.0067795864 -0.37708095 -0.0039073774
-0.0063058329 -0.38763025 -0.003869365
-0.0056110499 -0.40322751 -0.0021151041
-0.0052766101 -0.41045135 -0.0051679565
-0.0045454795 -0.42689824 -0.0029119849
-0.0039761732 -0.43954483 -0.0033711402
-0.0031514242 -0.45803529 -0.001752159
-0.0025074841 -0.47233769 -0.0023618606
-0.0018543106 -0.48689845 -0.0022761074
-0.00026055481 -0.52216542 -0.0057580667
0.0009519874 -0.54921067 -0.0055647781
0.0019625567 -0.57158136 -0.0077791926
0.0028435043 -0.59134239 -0.006186923
0.0039940206 -0.61688471 -0.0077880099
0.005807532 -0.65730298 -0.0082512386
0.0070332768 -0.68477046 -0.0065846378
0.0088716568 -0.72546995 -0.010926566
-0.017412454 -0.16615848 0.39260969
-0.019661577 -0.11838388 0.42668739
-0.020501344 -0.069466114 0.045233611
-0.020282462 -0.073519133 0.034480531
-0.019879889 -0.082690999 0.036974166
-0.019273231 -0.095587038 0.028737798
-0.019180637 -0.096438386 0.012950018
-0.018596167 -0.10951029 0.01343313
-0.018067669 -0.12125006 0.012840846
-0.017686989 -0.12927099 0.0067395568
-0.017106662 -0.14151523 -0.0023526694
-0.016812 -0.14825095 -0.00018038573
-0.016110843 -0.1637506 -0.0019114224
-0.015640421 -0.17423546 -0.0019369406
-0.015177489 -0.18458425 -0.0015472085
-0.014732995 -0.19447979 -0.0017052805
-0.014498623 -0.19981742 -0.00020510782
-0.014081256 -0.20900434 -0.0017244046
-0.013651554 -0.21863879 -0.00096137502
-0.013233966 -0.22795549 -0.00082442135
-0.012824375 -0.23704453 -0.0013394601
-0.01241511 -0.24622537 -0.00053854811
-0.012010979 -0.25554091 0.0035798785
-0.010602691 -0.28648713 -0.0019734264
-0.010196101 -0.29550996 -0.0024288518
-0.0095800515 -0.30919012 -0.0030091691
-0.0091713155 -0.31832188 -0.0026603143
-0.008750773 -0.32766858 -0.0029663462
-0.0083144587 -0.33732083 -0.0039031086
-0.007873646 -0.34710121 -0.0044759545
-0.007231392 -0.36150753 -0.0032132613
-0.0067843203 -0.37149796 -0.0028608746
-0.0063148593 -0.38194901 -0.0030455177
-0.0058195465 -0.39294162 -0.0037195967
-0.0053179958 -0.40410855 -0.0039341957
-0.004568351 -0.42089874 -0.0029348861
-0.0040295762 -0.43292397 -0.0028150519
-0.0036240113 -0.44168031 -0.0067749727
-0.0028504035 -0.45918545 -0.0034101452
-0.0021752045 -0.47415149 -0.0047721672
-0.0014576064 -0.49006391 -0.0061654742
-0.00040806545 -0.51352972 -0.0056310976
0.00033486023 -0.5301612 -0.0050065652
0.0025650833 -0.57990259 -0.005845543
0.0034836044 -0.60052538 -0.00439684
0.004750642 -0.628627 -0.0071716071
0.0067650862 -0.67348087 -0.0093054641
0.0080756703 -0.70288062 -0.0077935797
0.009720277 -0.73958796 -0.0084780315
-0.017062431 -0.16796336 0.39526325
-0.019621987 -0.11247846 0.42106321
-0.019712955 -0.079369508 0.033200912
-0.018384973 -0.10723565 0.010107307
-0.01802996 -0.11539081 0.013040367
-0.016546564 -0.14734951 -0.0020007463
-0.016065406 -0.15803885 -0.0026809035
-0.015576665 -0.16900063 -0.0020078595
-0.015316181 -0.17496088 -0.00010779951
-0.014663176 -0.18937655 -0.0021789584
-0.01442618 -0.19477269 -0.00078309939
-0.013785492 -0.20899613 -0.0017558082
-0.013566471 -0.21394642 -0.00093338231
-0.012948968 -0.22758166 -0.0028221868
-0.012736541 -0.23241112 -0.0016469734
-0.012325138 -0.24163903 -0.0010118246
-0.011718581 -0.25521615 -0.00043921577
-0.011327152 -0.26443648 0.006002272
-0.010937325 -0.27311593 0.005768809
-0.010521026 -0.28195024 -0.00015939459
-0.01031196 -0.28647926 -0.002005246
-0.0099063404 -0.29550216 -0.0024606471
-0.0096993493 -0.30007872 -0.0030666939
-0.0090829311 -0.31381893 -0.0034015677
-0.0086745536 -0.32297766 -0.0028874499
-0.0084523214 -0.32785934 -0.0039780759
-0.0078170262 -0.34206364 -0.0037830295
-0.0073918565 -0.35160327 -0.0032166021
-0.0069487439 -0.36150011 -0.0032448734
-0.0064840037 -0.3718397 -0.0038293335
-0.0059940931 -0.38270476 -0.0049252948
-0.0053018653 -0.39828256 -0.003465137
-0.0047758226 -0.4099746 -0.0043407958
-0.0042422558 -0.42187408 -0.0047076805
-0.0034835506 -0.43899292 -0.0025876726
-0.0028820706 -0.45238772 -0.0033138064
-0.0022426185 -0.46662059 -0.0042138132
-0.0015933767 -0.48112538 -0.004424992
-0.00068443909 -0.50167102 -0.0015384202
0.00017889828 -0.52077621 -0.0043670358
0.0011616846 -0.54247773 -0.008263913
0.0032646151 -0.58978719 -0.0049746493
0.0044839988 -0.6168704 -0.0078490349
0.0060288934 -0.65101767 -0.01378045
0.0073543461 -0.68138832 -0.0044945418
0.0094239367 -0.7271772 -0.012004321
-0.016867856 -0.16614471 0.39255345
-0.019298861 -0.11402228 0.42531148
-0.020418108 -0.057538323 0.033061221
-0.01973757 -0.072829351 0.033688623
-0.01923101 -0.08249981 0.012256758
-0.018051727 -0.10892989 0.012554419
-0.017523939 -0.12069886 0.011942878
-0.017262271 -0.12473644 -0.011491965
-0.016752491 -0.13703912 -2.8345996e-05
-0.016251529 -0.14823748 -0.00023523557
-0.015774546 -0.15886398 -0.00088520424
-0.015290077 -0.16976188 -0.00018421293
-0.01482817 -0.18011597 2.4720837e-05
-0.014395981 -0.18968958 -0.0012543062
-0.013956833 -0.19951999 -0.0012184038
-0.013320377 -0.21370785 -0.0019287628
-0.012900798 -0.22309366 -0.0019697044
-0.012489656 -0.23224099 -0.0026561688
-0.012279864 -0.23703204 -0.0013939863
-0.011872297 -0.24621297 -0.00059303438
-0.011271797 -0.25978786 0.0012194995
-0.010890402 -0.26882488 0.0078242458
-0.010271907 -0.28197145 -0.0011815518
-0.009868443 -0.29095021 -0.001795997
-0.0092486311 -0.30467844 -0.0036133237
-0.0090402085 -0.30930799 -0.0040548998
-0.008223596 -0.32765701 -0.0030204556
-0.0080004763 -0.33257404 -0.0040220059
-0.0073652314 -0.34682363 -0.0035661878
-0.0069238874 -0.35668504 -0.0037771882
-0.0064613316 -0.36697978 -0.0045532738
-0.0057979748 -0.38193789 -0.0030994141
-0.0055417549 -0.38761014 -0.0039517842
-0.0048052496 -0.40409765 -0.0039880117
-0.0043004816 -0.41542011 -0.0037318582
-0.003740343 -0.42789128 -0.0047184289
-0.0031449229 -0.44113365 -0.005984914
-0.0023194186 -0.4597545 -0.004278264
-0.0016755156 -0.47414121 -0.0048257513
-0.00077183533 -0.49457133 -0.0024302027
0.00082420075 -0.53015143 -0.0050599873
0.0029012831 -0.57685673 -0.0032990689
0.0039231088 -0.59973478 -0.0038270373
0.0049954951 -0.62380254 -0.0036526597
0.007111602 -0.67097443 -0.0077010947
0.0083749015 -0.69946676 -0.0057543754
0.010090906 -0.73784173 -0.0075449962
0.012112808 -0.78302276 -0.010187672
-0.016490897 -0.1692307 0.39867747
-0.016605945 -0.16613942 0.39252806
-0.018525789 -0.096776605 0.072950795
-0.019162076 -0.079357602 0.033150338
-0.017423181 -0.1204682 0.059944097
-0.018061085 -0.1024037 0.01221916
-0.017704315 -0.11062309 0.0149993
-0.016333912 -0.14245221 0.02905165
-0.016231546 -0.1424194 -0.00066067552
-0.015734827 -0.15355733 -0.00064074068
-0.015247078 -0.16452925 -0.00015927438
-0.014795346 -0.17458293 -0.0010882285
-0.014336494 -0.18489921 -0.00068626361
-0.013895947 -0.19476181 -0.00083326729
-0.01326578 -0.20873447 -0.0027738994
-0.012843279 -0.21818593 -0.0029952126
-0.012622459 -0.22328752 -0.0010169188
-0.012011213 -0.2368775 -0.0024099394
-0.011602704 -0.24609303 -0.0016136242
-0.011399663 -0.25075954 -9.6736323e-05
-0.011199205 -0.25568098 0.005491998
-0.010425294 -0.27311531 0.0067188712
-0.0097976178 -0.28646916 -0.0020553186
-0.0093931379 -0.29549211 -0.0025107644
-0.0091867112 -0.30006871 -0.0031168337
-0.0089793541 -0.30467248 -0.0036410526
-0.0083630458 -0.31846839 -0.003728658
-0.0077453451 -0.33235276 -0.0030734825
-0.0075212396 -0.33730352 -0.0039851139
-0.0068857181 -0.35159361 -0.0032669988
-0.0066403109 -0.35697892 -0.0047591748
-0.0061767641 -0.36730677 -0.0055242358
-0.0052969088 -0.38720688 -0.0030627009
-0.0050177844 -0.39333853 -0.0047119362
-0.0042770267 -0.40996537 -0.0043914644
-0.0039393781 -0.41731846 -0.0072767921
-0.0032325287 -0.43342915 -0.0037502463
-0.0026351139 -0.44675046 -0.0047478173
-0.0018094028 -0.4654246 -0.0026562288
-0.0011340831 -0.48049539 -0.0036929413
-0.00035390281 -0.497807 -0.0062631797
0.00059715461 -0.5193935 -0.0029664885
0.0013366402 -0.53606164 -0.0020026551
0.003445856 -0.58292472 -0.0085278451
0.0061140005 -0.64288163 -0.0080194725
0.0073245601 -0.67013705 -0.0071782046
0.010319186 -0.73663414 -0.017645126
-0.016235163 -0.16794707 0.39518166
-0.018763699 -0.1133252 0.42598215
-0.020444306 -0.042108849 0.01732314
-0.019160964 -0.072142057 0.032894779
-0.019275934 -0.06630192 -0.0081373015
-0.017448844 -0.10891815 0.012497073
-0.016921775 -0.12068716 0.011885439
-0.017129347 -0.11350562 -0.020072764
-0.016168848 -0.13654999 -0.00096445635
-0.01565033 -0.14822583 -0.00029292607
-0.015173914 -0.15885235 -0.00094298599
-0.014703929 -0.16936724 -0.0011657063
-0.014241089 -0.17975383 -0.00096968573
-0.013796949 -0.18967807 -0.0013123609
-0.013561727 -0.19505771 8.8966357e-05
-0.012933512 -0.20898008 -0.0018372799
-0.01250605 -0.21861468 -0.0010743032
-0.012095309 -0.22774866 -0.0019205599
-0.01148111 -0.24149209 -0.0020846531
-0.011075177 -0.25065774 -0.0011235448
-0.010675875 -0.25977659 0.0011607705
-0.010090428 -0.27308145 0.0036874558
-0.0096820304 -0.28193495 -0.00024079421
-0.0094736926 -0.28646404 -0.002086642
-0.0086648306 -0.30455512 -0.0026786479
-0.00824962 -0.31380397 -0.0034829387
-0.0078429505 -0.32296279 -0.0029688105
-0.0072138156 -0.33706611 -0.003043595
-0.0069888448 -0.34204894 -0.0038643652
-0.0065495605 -0.35187161 -0.0042569386
-0.0058933194 -0.36663646 -0.0036693686
-0.0054278215 -0.3770501 -0.0040487046
-0.0049577262 -0.38759962 -0.0040107127
-0.0044616107 -0.39869776 -0.0044492241
-0.0039833076 -0.4095 -0.003534707
-0.0032110158 -0.42686838 -0.0030534004
-0.0026192777 -0.44005129 -0.0043563275
-0.0017706441 -0.45916498 -0.0035226333
-0.0011886549 -0.4723087 -0.0025033469
-0.00041697 -0.48940903 -0.0055057923
0.0012946856 -0.52804285 -0.0029776702
0.0022449594 -0.54918301 -0.0057063941
0.0032126496 -0.57080638 -0.0072577479
0.0043776603 -0.59738147 -0.0020166659
0.0054832059 -0.62218815 -0.0025206388
0.00706422 -0.65727711 -0.0083930483
0.0085751731 -0.69179553 -0.0011054225
0.010362642 -0.73174924 -0.0041525904
0.012499465 -0.7794711 -0.008396917
-0.016068811 -0.1655075 0.39325485
-0.018397976 -0.11538001 0.42377785
-0.018666605 -0.079248741 0.055074986
-0.018794337 -0.074841879 0.035816602
-0.017497215 -0.10427461 0.039551232
-0.017705319 -0.097600468 0.014419635
-0.016952055 -0.11426789 0.01126713
-0.016428897 -0.12598705 0.010898912
-0.015916426 -0.13838308 0.022105923
-0.015673878 -0.14195047 -0.0016027251
-0.015176449 -0.15311967 -0.0015982249
-0.014702531 -0.16372426 -0.0020478659
-0.014222319 -0.17457618 -0.0011430717
-0.013775744 -0.18455827 -0.0016833653
-0.013129732 -0.19893819 -0.0032169116
-0.012898699 -0.20424896 -0.0016236571
-0.01247647 -0.21369517 -0.002009874
-0.01205812 -0.22308105 -0.0020507125
-0.011442211 -0.23687108 -0.0024637426
-0.011235197 -0.24162216 -0.0011155496
-0.010832504 -0.25065663 -0.001145604
-0.010631837 -0.25559539 0.0044416878
-0.010054258 -0.26881251 0.0077437572
-0.009437154 -0.28195927 -0.0012619094
-0.0088298377 -0.295486 -0.0025632621
-0.008416825 -0.30466643 -0.0036933618
-0.0078124474 -0.31829825 -0.0027943049
-0.0075925053 -0.32314304 -0.0039730123
-0.0069615706 -0.33729753 -0.0040367479
-0.0065389797 -0.34681186 -0.0036456173
-0.0058862711 -0.36148459 -0.0033464497
-0.0054423865 -0.37147516 -0.0029938763
-0.0049761799 -0.38192636 -0.0031783252
-0.0044842181 -0.39291915 -0.0038522012
-0.0037703072 -0.40903839 -0.0026669994
-0.0034585248 -0.41588473 -0.0046893982
-0.0026805345 -0.43342337 -0.0037998972
-0.002111359 -0.44619402 -0.0039629643
-0.0012888844 -0.46482527 -0.0019009935
-0.00061566394 -0.47986841 -0.0029586118
9.959146e-05 -0.49585679 -0.0040290607
0.00092355441 -0.51418334 -0.0064992295
0.0016625633 -0.53084034 -0.0058504133
0.0038448428 -0.57988274 -0.0059747933
0.0063487045 -0.63637358 -0.0034152225
0.0079405885 -0.67179704 -0.0083282031
0.01077494 -0.7349084 -0.016672762
0.011290588 -0.74760097 -0.0023671021
-0.015762953 -0.16732641 0.39592534
-0.018317271 -0.080008611 0.033818081
-0.016998263 -0.10777943 0.010800445
-0.016646041 -0.11592018 0.013743487
-0.016187482 -0.12598315 0.010874801
-0.015692849 -0.13606723 -0.0018912927
-0.015190223 -0.14732748 -0.0021302544
-0.014696148 -0.15843196 -0.0019004213
-0.01443075 -0.16451852 -0.00023805161
-0.01376145 -0.17939785 -0.0019532617
-0.013305503 -0.18967272 -0.0013592399
-0.012876667 -0.19921869 -0.0022817743
-0.012646263 -0.20451269 -0.00068363431
-0.012022422 -0.21839236 -0.0020965296
-0.011808136 -0.22327691 -0.0010942469
-0.011194075 -0.2370154 -0.0014980173
-0.010787446 -0.24619636 -0.00069688947
-0.010585417 -0.25084552 0.00082200358
-0.010000853 -0.26450431 0.0078740986
-0.0098037738 -0.2687543 0.0057215546
-0.0087868795 -0.2909337 -0.0018991769
-0.0083828727 -0.29996321 -0.0021967201
-0.0081763724 -0.30454966 -0.0027226806
-0.0077708429 -0.31365156 -0.0025377236
-0.0073539708 -0.32295719 -0.0030125682
-0.0069347676 -0.33234212 -0.0031481499
-0.0065138009 -0.34179389 -0.0029395618
-0.0058636717 -0.35636893 -0.0029255354
-0.0054213419 -0.3662979 -0.0027696546
-0.0049570296 -0.37667882 -0.0031610571
-0.0044881226 -0.38719606 -0.0031362311
-0.0039931601 -0.39826241 -0.0035890569
-0.0034689284 -0.40995452 -0.0044645243
-0.0029372654 -0.42185405 -0.0048312149
-0.0023730337 -0.43446085 -0.0055287802
-0.0016382041 -0.45123747 -0.0017878701
-0.00094506249 -0.46660081 -0.0043366137
-0.00029823204 -0.48110566 -0.0045475485
0.0003882795 -0.49649963 -0.0048127742
0.0014673135 -0.52075666 -0.0044889161
0.0024126389 -0.5417465 -0.0076840487
0.0046869274 -0.59284955 -0.0076416088
0.0057560154 -0.61685157 -0.0079691922
0.0074786306 -0.65562481 -0.0072979955
0.0085360119 -0.67968553 -0.003537856
0.010596646 -0.72543848 -0.011106221
-0.015587916 -0.16487126 0.39398426
-0.017763592 -0.11833816 0.42649522
-0.018804895 -0.062414195 0.037911534
-0.01829976 -0.073475257 0.034286372
-0.017744586 -0.085824408 0.032685548
-0.017570833 -0.088695675 0.019939644
-0.01720239 -0.096394993 0.01275604
-0.016644718 -0.10890057 0.012415526
-0.015899576 -0.1254486 0.0099898642
-0.015629344 -0.13061899 -0.0011904541
-0.015348575 -0.13700999 -0.00016709328
-0.014849399 -0.14820841 -0.00037391845
-0.014153243 -0.16370831 -0.002104826
-0.013673359 -0.1745602 -0.0012000886
-0.013443437 -0.17973644 -0.0010502434
-0.012785833 -0.19443795 -0.0018984353
-0.012350456 -0.20423289 -0.0016808612
-0.011928442 -0.21367905 -0.0020671461
-0.011712656 -0.21859731 -0.0011543432
-0.011096638 -0.23237795 -0.0018083078
-0.010687909 -0.24160594 -0.0011730409
-0.010483992 -0.24629818 0.00026216931
-0.0098888641 -0.25988278 0.0030774521
-0.0091048628 -0.27744833 0.0026051695
-0.0082842335 -0.29546973 -0.0026211024
-0.0078801224 -0.30453786 -0.0027576108
-0.0074656606 -0.31378672 -0.0035617976
-0.0070483293 -0.32312682 -0.0040309462
-0.0064318944 -0.33704892 -0.0031222014
-0.0059961434 -0.34679571 -0.0037036403
-0.0053616436 -0.36115223 -0.0024559819
-0.0051139379 -0.36661932 -0.0037476674
-0.0046493327 -0.37703303 -0.004126898
-0.0041593234 -0.38798016 -0.005006115
-0.00344669 -0.40407023 -0.0041248542
-0.0029440226 -0.41539279 -0.0038685813
-0.0021952188 -0.43236485 -0.0021523538
-0.0018196637 -0.44057044 -0.0052776248
-0.00094244099 -0.46030703 -0.0052290079
-0.00035936813 -0.47350687 -0.0041681104
0.00035146091 -0.48939222 -0.0055829161
0.0021264313 -0.52942538 -0.0044818535
0.0042284494 -0.57683074 -0.0034341339
0.0052462122 -0.59970897 -0.0039618728
0.0063519347 -0.62457961 -0.0043826103
0.0079707373 -0.66055238 -0.0107364
0.0096011264 -0.69773901 -0.0048420941
0.011228539 -0.73434061 -0.0057065045
0.013485464 -0.78477007 -0.01124535
-0.017495066 -0.087636694 0.063546248
-0.017936382 -0.075495601 0.036471263
-0.016224809 -0.11472583 0.045233946
-0.01665405 -0.10237456 0.012080958
-0.016101733 -0.11479811 0.012018315
-0.014895682 -0.14343876 0.030636407
-0.014622286 -0.14686298 -0.0030834156
-0.014334239 -0.15352863 -0.00077842979
-0.013848183 -0.16450062 -0.00029685581
-0.01339786 -0.17455436 -0.00122571
-0.012952084 -0.18453647 -0.0017660644
-0.01250149 -0.1947334 -0.00097054942
-0.012076671 -0.20422721 -0.0017064834
-0.011452065 -0.21815768 -0.0031322613
-0.011035089 -0.22754289 -0.0030091957
-0.0106228 -0.23684937 -0.0025468029
-0.01041625 -0.24160048 -0.0011986463
-0.0098143453 -0.2551778 -0.00062585482
-0.0096205948 -0.26006284 0.0060461224
-0.0092380019 -0.26879096 0.0076604388
-0.008819744 -0.27747473 -0.0014202569
-0.0084185153 -0.28644148 -0.0021914081
-0.0080156559 -0.29546452 -0.0026467154
-0.007817721 -0.29994619 -0.002257254
-0.0074052694 -0.30914497 -0.0032268527
-0.0069896821 -0.31844097 -0.0038642553
-0.0063746185 -0.33232546 -0.0032088649
-0.0059551108 -0.34177738 -0.0030003274
-0.0055185179 -0.35156649 -0.0034020846
-0.0050784633 -0.36146349 -0.0034302522
-0.0046168379 -0.37180322 -0.0040146038
-0.0041502905 -0.38228691 -0.0041863597
-0.0034873076 -0.39738777 -0.0018444149
-0.0031597356 -0.40451041 -0.0050458359
-0.0024400442 -0.42085591 -0.0031511018
-0.0018801285 -0.43340269 -0.0038840983
-0.0012849629 -0.44672412 -0.004881477
-0.00046280885 -0.46539837 -0.0027896126
0.00020999632 -0.48046929 -0.0038261132
0.00089328579 -0.4958365 -0.004113622
0.0017153801 -0.51416308 -0.0065838993
0.0029090284 -0.54101986 -0.0070446567
0.0049195848 -0.58667254 -0.0026113368
0.0073550292 -0.64123112 -0.0069880034
0.0086759739 -0.67094505 -0.007861332
0.011462631 -0.7331686 -0.0157426
-0.014857663 -0.16913173 0.39346233
-0.016051639 -0.14260483 0.39988613
-0.019311808 -0.036475584 0.0114897
-0.017225079 -0.085166074 0.031877074
-0.018091654 -0.061917815 -0.013743291
-0.016123375 -0.10832541 0.0115435
-0.01577328 -0.11645181 0.014496233
-0.015857706 -0.11144888 -0.023647595
-0.014825783 -0.13652419 -0.0010937084
-0.014326352 -0.14775363 -0.001316605
-0.0138355 -0.15882675 -0.0010717834
-0.013367712 -0.16934174 -0.0012942852
-0.012907092 -0.17972842 -0.0010980472
-0.012465039 -0.18965276 -0.0014405116
-0.011825125 -0.20395735 -0.0026919029
-0.01140257 -0.21343736 -0.0030868645
-0.011186562 -0.21837264 -0.0021779963
-0.010771579 -0.22772373 -0.0020478854
-0.010160374 -0.24146731 -0.0022116748
-0.0099562202 -0.24617691 -0.00077854621
-0.0097542889 -0.25092268 0.0017356237
-0.0091731288 -0.26448509 0.0077923145
-0.0087834699 -0.27307597 0.0055610202
-0.007962889 -0.29091468 -0.0019810896
-0.0073545221 -0.30453077 -0.0028046789
-0.0071478779 -0.30914304 -0.003248293
-0.0065350337 -0.32293847 -0.003094682
-0.0061173057 -0.33232349 -0.0032303226
-0.0056833709 -0.34202471 -0.0039900765
-0.0052453596 -0.35184741 -0.0043825693
-0.0046092132 -0.36627957 -0.0028520408
-0.0041270228 -0.37702599 -0.0041741361
-0.0034656341 -0.39206898 -0.0021372358
-0.0031637333 -0.39867371 -0.0045744861
-0.0024477646 -0.41490981 -0.0030368005
-0.0019171606 -0.42684442 -0.003178451
-0.0013539012 -0.4394913 -0.0036375287
9.8677156e-05 -0.47228491 -0.0026280486
0.00074474025 -0.48684603 -0.002542204
0.0023878359 -0.52348804 -0.0074755833
0.0035555945 -0.54988372 -0.0065192874
0.0044147009 -0.56928778 -0.0060554077
0.0053919759 -0.59129238 -0.0064523211
0.0067854533 -0.62296778 -0.0032394619
0.008285285 -0.65643162 -0.0079492349
0.0095355362 -0.68472254 -0.0068493821
0.011354413 -0.72542292 -0.011191008
0.013698372 -0.77856344 -0.0080566024
-0.017136628 -0.11312512 0.42010748
-0.017344955 -0.077113725 0.052801456
-0.017384265 -0.074809037 0.035681415
-0.016190482 -0.10175176 0.036287047
-0.016295591 -0.097567484 0.014284235
-0.015741808 -0.11001639 0.013984233
-0.015022342 -0.12595412 0.010763268
-0.014551545 -0.13733484 0.020247592
-0.01426783 -0.14191747 -0.0017385388
-0.013771771 -0.15308668 -0.0017341466
-0.013284683 -0.16409039 -0.0012671179
-0.012833199 -0.17417637 -0.00220938
-0.012363377 -0.18485962 -0.00087719585
-0.011934543 -0.19442111 -0.0019776588
-0.011500069 -0.20421611 -0.0017601333
-0.011078882 -0.21366234 -0.0021464643
-0.010661596 -0.22304824 -0.0021874185
-0.010248747 -0.23236135 -0.0018877167
-0.0096419388 -0.24593998 -0.0027977806
-0.0094384374 -0.25072044 -0.0002873613
-0.0088509209 -0.26434281 0.0047627641
-0.0084752264 -0.2730954 0.0085282186
-0.0082532363 -0.27744785 0.00052562018
-0.0080478089 -0.28192663 -0.0013993103
-0.0076469104 -0.29090551 -0.0020136826
-0.0070308726 -0.30463392 -0.0038308962
-0.0066258693 -0.31377053 -0.0036414852
-0.0060127238 -0.32761279 -0.0032378351
-0.0055946466 -0.33703282 -0.0032019431
-0.0051599154 -0.34677967 -0.0037834037
-0.0047047772 -0.35694084 -0.0049482496
-0.0040674969 -0.37144315 -0.0031318124
-0.0037968643 -0.37738252 -0.0051374128
-0.0031128598 -0.39288729 -0.0039902693
-0.0026166206 -0.40405446 -0.0042047314
-0.0020668001 -0.41632903 -0.0057067401
-0.0013422105 -0.43287051 -0.0030852344
-0.00077645818 -0.44561183 -0.0032670987
9.9045581e-05 -0.46538755 -0.0028437555
0.00049299299 -0.47409895 -0.0050418694
0.0014218012 -0.49517751 -0.0034069647
0.002976709 -0.53010988 -0.0052756369
0.0051479265 -0.57909316 -0.005464131
0.0077914838 -0.63878214 -0.0052985884
0.0093410853 -0.67343253 -0.0095730657
0.010637756 -0.70283288 -0.0080608893
0.012265563 -0.73954099 -0.0087449923
-0.014418634 -0.16668956 0.3965838
-0.016732752 -0.11591672 0.41722727
-0.016911434 -0.079311594 0.032935705
-0.018685671 -0.031302702 -0.063476481
-0.01556995 -0.10774504 0.01066645
-0.015241354 -0.11533385 0.012775927
-0.013975798 -0.14283647 1.2519145e-05
-0.013483593 -0.15394336 4.8220154e-05
-0.01281012 -0.16894494 -0.0022711605
-0.01234886 -0.17936407 -0.0020877102
-0.011906098 -0.18932129 -0.002441826
-0.011459685 -0.19946963 -0.0014577283
-0.011037657 -0.2089413 -0.0020182501
-0.010619266 -0.21835899 -0.0022312265
-0.010205052 -0.2277101 -0.0021011115
-0.0097985659 -0.23683377 -0.0026217361
-0.0095904684 -0.24171609 -0.00028217954
-0.008992699 -0.25524148 0.00029624981
-0.0088016167 -0.26017094 0.0079675838
-0.0084162056 -0.26874852 0.0065861712
-0.0076004802 -0.28642613 -0.0022659043
-0.0071986835 -0.2954492 -0.0027211627
-0.0070013162 -0.29993087 -0.0023316776
-0.0065899179 -0.30912969 -0.0033012265
-0.006175417 -0.31842574 -0.0039385785
-0.0055620791 -0.33231026 -0.0032831142
-0.0051437318 -0.34176221 -0.0030745261
-0.0049036602 -0.34704173 -0.0047673066
-0.0042694467 -0.36144838 -0.0035043443
-0.0036159225 -0.37628224 -0.0023653642
-0.0033235811 -0.38265345 -0.0051844264
-0.0028312721 -0.39371035 -0.0058305454
-0.0021171365 -0.40992382 -0.0045994925
-0.0016134279 -0.42133224 -0.004095498
-0.0010537213 -0.43390915 -0.0048107761
-0.00054085191 -0.44560787 -0.0032865985
0.00036266985 -0.46597728 -0.0036673651
0.0010348645 -0.48107591 -0.0046825437
0.0016860532 -0.49582189 -0.0041869651
0.0026912978 -0.51866615 -0.0024465104
0.0037305052 -0.54171747 -0.0078191143
0.0057376102 -0.58742875 -0.0033207124
0.0071293474 -0.61840767 -0.0093229357
0.0082824603 -0.64446861 -0.0093854154
0.0096231811 -0.67544764 -0.00098393229
0.012147908 -0.73143435 -0.014798309
-0.013935979 -0.17154254 0.39021069
-0.016381111 -0.11898345 0.42562902
-0.017816853 -0.052574452 0.027806003
-0.016916737 -0.073446862 0.034160063
-0.016332336 -0.084263593 0.0054858825
-0.015822968 -0.096366964 0.012630008
-0.015268177 -0.1088727 0.012289614
-0.014724243 -0.12117932 0.012521305
-0.014424286 -0.12615767 -0.0091464017
-0.013977542 -0.13698255 -0.00029268197
-0.013464476 -0.14862756 0.00039524763
-0.012993002 -0.1592228 -0.00023951099
-0.01252802 -0.16970587 -0.00044800903
-0.012070234 -0.18006013 -0.00023890482
-0.011428118 -0.19441123 -0.0020233651
-0.010995064 -0.2042063 -0.0018056702
-0.010777106 -0.20918711 -0.0010742184
-0.010360694 -0.21857092 -0.0012789703
-0.0099484725 -0.22788787 -0.0011418252
-0.0095439572 -0.23697717 -0.0016566752
-0.00894034 -0.25071093 -0.00033206237
-0.0085461568 -0.25979516 0.0019552808
-0.0079681342 -0.27304786 0.0044841454
-0.0071528251 -0.29089627 -0.0020578378
-0.0063491352 -0.30899513 -0.0023334508
-0.0059469016 -0.31809258 -0.0019895514
-0.005717047 -0.32310152 -0.0041546714
-0.0052989009 -0.33252072 -0.0042833211
-0.0046838997 -0.34650433 -0.0028635329
-0.0042306972 -0.35663211 -0.004038204
-0.0038077212 -0.36626157 -0.0029284796
-0.0031337992 -0.38150376 -0.0024359724
-0.0028383422 -0.38795528 -0.0051297266
-0.0023880037 -0.39822656 -0.0037479582
-0.0016275611 -0.41536808 -0.003992144
-0.00107155 -0.42783946 -0.0049785553
-0.00053389609 -0.44000983 -0.004557421
0.00088823849 -0.47226751 -0.0027040765
0.0015942837 -0.48809835 -0.0041622543
0.0033571562 -0.5280022 -0.0031777383
0.0043022097 -0.54914266 -0.0059061889
0.0052643614 -0.57076627 -0.007457268
0.0062409905 -0.59281629 -0.0078010364
0.007482952 -0.621346 -0.0021242327
0.0091311662 -0.65806091 -0.0091584092
0.010301414 -0.68470621 -0.0069245775
0.012410419 -0.73258007 -0.0048430888
0.014616773 -0.78209078 -0.0099807158
-0.016054299 -0.11965334 0.42486197
-0.016221469 -0.084102951 0.059850775
-0.01633345 -0.079298273 0.032880306
-0.015105085 -0.10795847 0.044030484
-0.015234311 -0.10234467 0.011949256
-0.01468349 -0.11476827 0.01188657
-0.014164038 -0.12645811 0.011537059
-0.013356336 -0.14585534 0.025622932
-0.013412837 -0.14236085 -0.00093035033
-0.012919084 -0.15349892 -0.00091035344
-0.012243102 -0.16854821 -0.0032512646
-0.011985033 -0.17452475 -0.0013577308
-0.01132515 -0.18930762 -0.0024985732
-0.011100766 -0.19440269 -0.0020561793
-0.010667036 -0.20419772 -0.0018386563
-0.010043758 -0.21812825 -0.0032645122
-0.0098299244 -0.22302993 -0.0022659483
-0.0094140172 -0.23250875 -0.00098010013
-0.0090105813 -0.24157116 -0.0013310333
-0.0086088693 -0.25070223 -0.0003659061
-0.0082175294 -0.26003364 0.0059136208
-0.00783596 -0.26876178 0.0075278794
-0.0074216244 -0.27743766 -0.00055289251
-0.0072155977 -0.2819339 -0.0024775511
-0.0068199388 -0.29088748 -0.0020922748
-0.0060070595 -0.30911598 -0.0033595026
-0.005603394 -0.31824797 -0.0030105449
-0.0049923672 -0.3320812 -0.002365134
-0.0047565587 -0.33724746 -0.0042531253
-0.0043361573 -0.34676191 -0.0038620648
-0.0038815583 -0.35692313 -0.0050269235
-0.0034391496 -0.36691844 -0.0048490046
-0.0027611649 -0.38225839 -0.0043191565
-0.0021002993 -0.39735934 -0.0019772451
-0.0014875499 -0.41083148 -0.0064331545
-0.0012712697 -0.41583559 -0.0049063675
-0.00052358641 -0.43285313 -0.003164019
0.00025662221 -0.45062882 -0.0011577196
0.00091569131 -0.46537036 -0.002922588
0.0015563965 -0.47982007 -0.0031760859
0.0022680294 -0.49580863 -0.0042466614
0.0030880044 -0.5141353 -0.0067169759
0.0040403302 -0.53600836 -0.002268177
0.0060652215 -0.58135378 -0.0074929488
0.0086352546 -0.6395784 -0.0059588985
0.010067199 -0.67175084 -0.0085472371
0.012727966 -0.73142129 -0.014859913
0.013519156 -0.75018847 -0.0040199831
-0.018316811 -0.025232181 -4.7568828e-05
-0.015993839 -0.08062055 0.034353159
-0.014682902 -0.10829531 0.011410496
-0.014355377 -0.11586969 0.013529669
-0.014625988 -0.10583331 -0.033254799
-0.0133871 -0.13649413 -0.0012268428
-0.012888884 -0.14772363 -0.0014497929
-0.012399274 -0.15879682 -0.0012050248
-0.011932611 -0.16931187 -0.0014275779
-0.011473139 -0.17969859 -0.0012313913
-0.011032124 -0.18962298 -0.0015739051
-0.010596629 -0.19945359 -0.0015379324
-0.010174813 -0.20892529 -0.0020985065
-0.0097506177 -0.21856004 -0.0013353713
-0.009141149 -0.23217517 -0.0029754634
-0.0087329047 -0.24143779 -0.0023453354
-0.0085293949 -0.24614742 -0.00091223227
-0.0083282217 -0.25089324 0.0016019116
-0.0079415012 -0.26021698 0.0088850986
-0.0075528366 -0.26870582 0.0055059325
-0.0065418556 -0.29088551 -0.0021148631
-0.0061404798 -0.29991513 -0.002412481
-0.0059352592 -0.30450165 -0.0029384792
-0.0055223815 -0.31375059 -0.0037427056
-0.005314861 -0.31841004 -0.0040195272
-0.0047018714 -0.33229458 -0.0033641732
-0.0044653891 -0.33747783 -0.005248243
-0.0036380086 -0.35632178 -0.0031417487
-0.0031986868 -0.3662509 -0.0029859457
-0.0029310232 -0.37212163 -0.0051069083
-0.0022508116 -0.38754702 -0.0042699999
-0.0017800106 -0.39821592 -0.0038055987
-0.0010685996 -0.41440552 -0.002291648
-0.00054104259 -0.42630985 -0.002450489
-0.00017053141 -0.43441489 -0.0057456088
0.0017883946 -0.47605994 -0.038282435
0.0012474876 -0.46655539 -0.0045536952
0.0021371902 -0.48681825 -0.0026762837
0.003709333 -0.52208626 -0.006158066
0.0046168147 -0.54241413 -0.0086031025
0.0059011811 -0.57150364 -0.008178941
0.0067688813 -0.59126532 -0.0065865722
0.0079033207 -0.61680835 -0.0081875259
0.0096907252 -0.65722781 -0.0086505432
0.010741618 -0.68132764 -0.0048324154
0.012591801 -0.72281563 -0.0098012267
0.01504665 -0.77853775 -0.0081912009
-0.015469385 -0.11964439 0.42480874
-0.016239772 -0.068674937 0.044117089
-0.015964922 -0.074104398 0.034813661
-0.015363319 -0.087726526 0.03475593
-0.014971442 -0.096120045 0.029116495
-0.014125874 -0.1136542 0.010167344
-0.013782327 -0.12169878 0.013280578
-0.0130579 -0.13796316 0.011650432
-0.01283386 -0.14188915 -0.0018690915
-0.012340573 -0.1530585 -0.0018646406
-0.011870489 -0.16366324 -0.0023143315
-0.011407238 -0.17414844 -0.0023397582
-0.010951514 -0.18449757 -0.0019499359
-0.010716173 -0.18993387 -0.00065414532
-0.010081808 -0.20418856 -0.0018903365
-0.0096630212 -0.21363489 -0.0022766092
-0.0092481701 -0.22302091 -0.002317505
-0.0090379417 -0.22787026 -0.0012267638
-0.0084323892 -0.24156231 -0.0013824614
-0.0080324868 -0.25069347 -0.00041726837
-0.007835418 -0.25553578 0.0041746791
-0.0070761731 -0.2730687 0.0083984621
-0.006862557 -0.27740541 0.0023958224
-0.0066495412 -0.28190005 -0.0015290894
-0.0060546305 -0.29534945 -0.0018335119
-0.0056467121 -0.30449528 -0.0029669895
-0.005235462 -0.31374428 -0.003771174
-0.0048330021 -0.32290328 -0.0032569424
-0.0042101494 -0.33700684 -0.003331569
-0.0037930491 -0.34648755 -0.0029492076
-0.0031486563 -0.36111054 -0.0026653362
-0.0028846003 -0.3669104 -0.0048998613
-0.0022297329 -0.38186887 -0.0034458321
-0.0019554966 -0.38793886 -0.0052154516
-0.00072595908 -0.41582787 -0.0049570245
-0.00019641749 -0.42782336 -0.0050643259
0.00058108813 -0.44558695 -0.0033964354
0.0013212713 -0.46200523 -0.0078817643
0.0018140861 -0.47346684 -0.0043773735
0.0025503403 -0.48998728 -0.0065642088
0.0043137828 -0.53008586 -0.0054047359
0.0064731012 -0.57906967 -0.0055930866
0.0085103624 -0.6253444 -0.0051870588
0.010837078 -0.6775732 -0.012464145
0.01205132 -0.70536488 -0.0097586345
0.01343204 -0.73691189 -0.0073945052
-0.015257513 -0.11806352 0.42058358
-0.015447971 -0.079945043 0.033551894
-0.013541368 -0.12599668 0.066637523
-0.014334096 -0.10349074 0.013500043
-0.013809752 -0.11530494 0.012643564
-0.012320848 -0.15257703 0.054075375
-0.012343396 -0.14726467 -0.0023968723
-0.012058618 -0.15391475 -8.4159736e-05
-0.011387954 -0.16891645 -0.0024035492
-0.011132002 -0.17487687 -0.00050337281
-0.010477524 -0.18961073 -0.0016261582
-0.010255032 -0.19468927 -0.0011782616
-0.0096235471 -0.20891315 -0.0021506702
-0.0092070103 -0.2183309 -0.0023636559
-0.0087946663 -0.22768208 -0.0022335504
-0.008389933 -0.23680584 -0.0027541853
-0.0079860017 -0.24602155 -0.0019577052
-0.0075877984 -0.25513452 -0.00083308929
-0.0072061555 -0.2643995 0.0066076061
-0.0068235556 -0.27304432 0.0063752746
-0.0063987053 -0.28192008 -0.0025520353
-0.0058083697 -0.29534414 -0.0018567302
-0.0056047789 -0.29990345 -0.0024642069
-0.0051949662 -0.30910236 -0.0034337379
-0.0049787764 -0.3138859 -0.0047834045
-0.0043790606 -0.32758144 -0.0033905355
-0.0037547313 -0.34173518 -0.0032069741
-0.0033210316 -0.35152444 -0.0036086594
-0.0028839593 -0.36142156 -0.0036367546
-0.0024253577 -0.37176144 -0.00422103
-0.0017495346 -0.38713846 -0.0034035561
-0.0012816561 -0.39777568 -0.0029534942
-0.00071671698 -0.41035804 -0.0056191408
-0.00026345236 -0.42081475 -0.0033571697
0.00050718471 -0.43838045 -0.0021344337
0.0023552913 -0.47718015 -0.039981537
0.0017294476 -0.46595141 -0.0037995891
0.002399039 -0.48105019 -0.0048147445
0.0032628325 -0.50093496 -0.0011784246
0.0040485561 -0.51864082 -0.0025786522
0.0048467456 -0.53670835 -0.0030416572
0.007082657 -0.58740395 -0.0034527599
0.0084693842 -0.61838317 -0.0094549488
0.0092766592 -0.63712859 -0.0042863633
0.011030324 -0.67710793 -0.0021915545
0.013269501 -0.72710884 -0.012389733
0.014578491 -0.75719869 -0.0079119131
-0.016765546 -0.042736124 0.017696328
-0.015458922 -0.070587024 -0.0030007688
-0.014381557 -0.096340232 0.012499609
-0.013828499 -0.10884606 0.012159254
-0.013286321 -0.12115277 0.012390983
-0.013349826 -0.117496 -0.01351994
-0.012540493 -0.1369561 -0.00042293893
-0.01204545 -0.14815474 -0.00062960637
-0.011368897 -0.16325587 -0.0032770659
-0.01090445 -0.17377329 -0.0033157601
-0.010436295 -0.18448932 -0.0019955854
-0.010211598 -0.18960786 -0.0016478492
-0.0097776484 -0.19943853 -0.0016117496
-0.0091484385 -0.21362673 -0.0023218221
-0.0087337671 -0.22301278 -0.0023625745
-0.008327201 -0.23216033 -0.003048853
-0.0081202965 -0.23695149 -0.0017865752
-0.0075191744 -0.25058883 -0.0014572192
-0.0071248654 -0.25970784 0.00082736986
-0.0065497872 -0.27302247 0.0043543838
-0.0061357007 -0.28189197 -0.0015732901
-0.0057365894 -0.2908709 -0.0021875794
-0.0053364164 -0.29990062 -0.0024850988
-0.0047302037 -0.31358927 -0.0028260662
-0.0043172194 -0.32289511 -0.0033008861
-0.0039020013 -0.33228022 -0.0034364427
-0.0032762233 -0.34647936 -0.0029930079
-0.0028579091 -0.35600787 -0.0022598382
-0.0023849681 -0.36656943 -0.004000695
-0.001943099 -0.37661788 -0.0034492307
-0.0014368444 -0.38793057 -0.0052589951
-0.0009437605 -0.39906061 -0.0056828759
-0.0002546164 -0.41486755 -0.0032421784
0.00029831388 -0.42730865 -0.004245671
0.0010472538 -0.44447711 -0.0017711887
0.0026413172 -0.47822246 -0.03073032
0.0023062143 -0.47285086 -0.0036266295
0.0029803372 -0.48807427 -0.0042910129
0.0046188524 -0.52482122 -0.0091316076
0.0057136579 -0.54984307 -0.0067234654
0.0066736792 -0.57149041 -0.0082487091
0.0077204723 -0.59510398 -0.0098389881
0.0088487677 -0.62132275 -0.0022523329
0.010453995 -0.657215 -0.0087194145
0.011619313 -0.68384129 -0.0065145488
0.013720002 -0.73168844 -0.0044776676
0.015837634 -0.7794112 -0.0087211188
-0.014607088 -0.12097438 0.4232578
-0.013960004 -0.10174489 0.043774568
-0.013986423 -0.098711997 0.015684512
-0.013460148 -0.11053776 0.014601449
-0.012942169 -0.1222198 0.014047896
-0.011979881 -0.14484383 0.023755271
-0.012183255 -0.13838027 0.0021832308
-0.01150436 -0.1534729 -0.0010378668
-0.011035629 -0.16404592 -0.0014730287
-0.010573755 -0.17449889 -0.001485005
-0.01011943 -0.18481536 -0.0010828698
-0.0096830297 -0.19467816 -0.0012297109
-0.0092606731 -0.20417207 -0.0019655831
-0.0086336732 -0.21831971 -0.002415135
-0.0084215328 -0.22320437 -0.0014128953
-0.0082164304 -0.22785373 -0.0013018817
-0.0076105758 -0.24154577 -0.0014575073
-0.0072105131 -0.2506769 -0.00049226714
-0.0066288612 -0.26434377 0.0055570314
-0.0056300792 -0.28634447 -0.0014509434
-0.0052312347 -0.29533276 -0.0019082861
-0.0048229368 -0.30447862 -0.0030417186
-0.0042153378 -0.31822294 -0.0031362593
-0.0039969375 -0.32306781 -0.0043149572
-0.0035803379 -0.33248708 -0.0044435738
-0.0027587959 -0.35122988 -0.0027012595
-0.0023055046 -0.36140993 -0.0036883389
-0.0018655349 -0.37140068 -0.0033357525
-0.0014032869 -0.381852 -0.0035201875
-0.00091537123 -0.39284497 -0.0041940487
0.00031616091 -0.42080292 -0.0034087868
0.00084658398 -0.43282852 -0.0032887175
0.0014369969 -0.44612068 -0.004304749
0.0021505977 -0.46198821 -0.0079557318
0.0028891405 -0.47917438 -0.0025173638
0.0036287331 -0.49578428 -0.0043707909
0.0044786404 -0.51478541 -0.0075786202
0.0053947731 -0.53598416 -0.0023919416
0.0074134422 -0.58132988 -0.007616288
0.0098228734 -0.63630337 -0.0037568014
0.011402132 -0.67172742 -0.0086697303
0.012572573 -0.6985364 -0.0056470274
0.014720832 -0.74753267 -0.0027085559
-0.013328992 -0.14187202 0.40036184
-0.017607274 -0.0076804957 -0.017997656
-0.014406306 -0.084455237 0.030854411
-0.015558709 -0.052562986 -0.035932675
-0.013500054 -0.10347223 0.013423037
-0.01273643 -0.12059981 0.011493238
-0.013276137 -0.10427894 -0.035968352
-0.011490104 -0.14769253 -0.0015791325
-0.011016812 -0.15835071 -0.0022439829
-0.0105366 -0.16928083 -0.0015567642
-0.01028124 -0.17522506 0.00034994193
-0.0096386969 -0.18959199 -0.0017029495
-0.0092044603 -0.19942261 -0.001666909
-0.0087763658 -0.20914526 -0.0012594421
-0.0081649963 -0.22279678 -0.0033976936
-0.0075459923 -0.23693542 -0.0018419706
-0.0069444743 -0.25057268 -0.0015127043
-0.0065570683 -0.26012427 0.00775846
-0.0059779487 -0.2730158 0.0052987011
-0.0051616128 -0.29085475 -0.002243151
-0.0049580834 -0.29540274 -0.0029301753
-0.0045655477 -0.30435872 -0.0020729897
-0.0041452395 -0.31371999 -0.0038707792
-0.0037425025 -0.32287896 -0.0033565059
-0.003327386 -0.3322641 -0.0034920771
-0.002717132 -0.34619704 -0.0020848718
-0.002492788 -0.35122234 -0.002726194
-0.0018289427 -0.36622062 -0.0031135476
-0.0013886335 -0.37623638 -0.0025742867
-0.00090474932 -0.38711923 -0.0034801071
-0.00045905187 -0.3973271 -0.0021272204
0.00031886922 -0.41485149 -0.0032979648
0.00063150638 -0.42177796 -0.0051750741
0.0011904726 -0.43438497 -0.0058726361
0.0033584333 -0.48110366 -0.034858711
0.0026042645 -0.46652564 -0.0046804654
0.0032752084 -0.48165208 -0.0056744004
0.0050264713 -0.52136976 -0.0055585969
0.0062167784 -0.54837888 -0.0054019573
0.0080019208 -0.58892512 -0.0048026852
0.0092053097 -0.6159873 -0.0077039031
0.010756856 -0.65143901 -0.0048073563
0.012033944 -0.68045682 -0.0044197612
0.013919087 -0.7227872 -0.0099261208
0.015790628 -0.76507711 -0.012288291
-0.014079162 -0.12096251 0.42320558
-0.015084114 -0.063739084 0.03900072
-0.014612229 -0.074074268 0.034686852
-0.014011902 -0.087696441 0.034629174
-0.01381573 -0.091109574 0.022732187
-0.013500342 -0.097508587 0.01402676
-0.012950689 -0.10995769 0.013726865
-0.012236034 -0.12589566 0.010506045
-0.011999746 -0.13118355 0.009654941
-0.011484675 -0.14185925 -0.0019955907
-0.010992453 -0.15302864 -0.0019910983
-0.010712633 -0.15959002 0.00045955455
-0.010251239 -0.17004122 0.00026493796
-0.0096064014 -0.18446782 -0.002076278
-0.009169573 -0.19436373 -0.0022342266
-0.0089399684 -0.19970156 -0.00073399011
-0.0083206827 -0.21360525 -0.0024028465
-0.008107312 -0.21852364 -0.0014900217
-0.0072971871 -0.23678158 -0.0028567796
-0.0070928121 -0.24153279 -0.0015086029
-0.0066938712 -0.25066397 -0.00054337981
-0.0063040443 -0.2598719 0.0037400783
-0.0059299152 -0.26875073 0.0083502289
-0.0055267438 -0.27737603 0.0022697961
-0.0049156453 -0.29084966 -0.0022694168
-0.0043119304 -0.30446595 -0.0030929891
-0.0037053507 -0.31821033 -0.0031876161
-0.0034989384 -0.32287395 -0.0033829673
-0.0028766859 -0.33697754 -0.0034576135
-0.0024600464 -0.34645829 -0.0030752653
-0.0021872567 -0.35234925 -0.0065888013
-0.0015705557 -0.36654845 -0.0040831012
-0.001110096 -0.37696233 -0.0044623371
-0.00043300894 -0.39241913 -0.0033356207
0.00057943631 -0.41532278 -0.0042040343
0.0013208127 -0.43229514 -0.002487811
0.0018541451 -0.44445649 -0.0018541614
0.0028764738 -0.4666121 -0.014523826
0.0031401203 -0.47343791 -0.0045035612
0.003875477 -0.48995835 -0.0066904025
0.0056026378 -0.52935743 -0.00481728
0.0077560227 -0.57828194 -0.0050693667
0.0098254932 -0.62531596 -0.0053132903
0.0120438 -0.67447561 -0.020709688
0.013045634 -0.69852561 -0.0057004481
0.014778426 -0.73775291 -0.0080136918
-0.013846201 -0.11940768 0.41900286
-0.013316451 -0.10017353 0.076037891
-0.01404116 -0.079912588 0.033421814
-0.01348226 -0.090904266 0.01397034
-0.012752249 -0.10711712 0.0095801875
-0.012404914 -0.11527257 0.012513377
-0.010965062 -0.15149969 0.052240543
-0.011145755 -0.14277549 -0.0002501267
-0.010467984 -0.15792213 -0.0032071297
-0.0099882511 -0.16888431 -0.0025338975
-0.0095304782 -0.17930359 -0.0023504859
-0.0092934147 -0.18479441 -0.0011618262
-0.0086569311 -0.1991249 -0.0026792039
-0.0084300488 -0.20441905 -0.0010811203
-0.0078137387 -0.21829905 -0.0024941631
-0.0076025645 -0.22318375 -0.0014919337
-0.006996288 -0.23692256 -0.001895854
-0.0067930501 -0.2416565 -0.00054522371
-0.0063963109 -0.25075307 0.00042401176
-0.0060119568 -0.26011166 0.0077044461
-0.0054384661 -0.27301285 0.0062445686
-0.0052192044 -0.27739236 -0.00075804658
-0.0048180856 -0.28636718 -0.0025291259
-0.0044266349 -0.29531282 -0.0019874081
-0.0042237979 -0.29987216 -0.0025948901
-0.0040113972 -0.30457103 -0.0041144686
-0.0034151927 -0.31820324 -0.0032154007
-0.0027960849 -0.33225209 -0.003546302
-0.0025749435 -0.33720297 -0.0044578263
-0.0019812819 -0.35092753 -0.0018214139
-0.00151394 -0.36139068 -0.003767509
-0.0010759961 -0.37138149 -0.003414928
-0.00040510052 -0.38671011 -0.0026170264
0.00010392877 -0.39817441 -0.0039871568
0.0006917108 -0.41124862 -0.0075245406
0.0010957497 -0.42078426 -0.003487986
0.0016498083 -0.43333131 -0.004220902
0.0037081169 -0.47714993 -0.040112384
0.0030804756 -0.46592125 -0.0039304472
0.0037474246 -0.48102015 -0.0049456148
0.0045753848 -0.50024372 -0.000559929
0.0054227142 -0.51929808 -0.0034353659
0.006150946 -0.53596669 -0.0024711937
0.008375369 -0.5866043 -0.00294715
0.0097562708 -0.617562 -0.0089766532
0.010747897 -0.64035112 -0.0067422506
0.01220835 -0.67337644 -0.0098540019
0.014296608 -0.72105783 -0.0089641353
0.015716 -0.75366032 -0.0061320416
-0.012356981 -0.14574306 0.40109634
-0.015655078 -0.034992412 0.009724047
-0.01424514 -0.069575533 0.037459515
-0.014116199 -0.067764193 -0.016185898
-0.012997006 -0.095711008 0.011564602
-0.012423561 -0.10881183 0.012027704
-0.012078826 -0.11692396 0.014990273
-0.012001108 -0.11593848 -0.016235404
-0.010647637 -0.14812078 -0.00076116843
-0.010178332 -0.15874763 -0.0014109286
-0.009702283 -0.16964589 -0.00070972496
-0.009248184 -0.18000033 -0.00050058833
-0.0088123027 -0.18989202 -0.00083129248
-0.0083819851 -0.19968952 -0.00078470656
-0.0077646095 -0.21359332 -0.0024534063
-0.0073519857 -0.22297944 -0.0024941619
-0.007143056 -0.22782883 -0.0014033495
-0.0067416281 -0.23691827 -0.0019181675
-0.0063411896 -0.24609952 -0.0011170337
-0.0057536522 -0.25979844 0.0026919637
-0.0053846701 -0.26876602 0.0092999535
-0.0049922392 -0.27734074 0.0052198828
-0.0043703336 -0.29083821 -0.0023191525
-0.0039724298 -0.29986799 -0.0026166618
-0.0031646413 -0.31819904 -0.0032371141
-0.0029590011 -0.32286265 -0.0034324259
-0.0025461554 -0.33224785 -0.0035679739
-0.0021170883 -0.34194928 -0.0043276325
-0.0010377502 -0.36653736 -0.004132201
-0.00059847842 -0.37658587 -0.0035807311
-0.00011576366 -0.38750106 -0.00447318
0.00089123775 -0.41032311 -0.00577142
0.0016048981 -0.42677072 -0.0035152028
0.0021884867 -0.43995398 -0.0048179016
0.0040209666 -0.47935024 -0.032490771
0.0035973468 -0.47221217 -0.002964389
0.0042667286 -0.48740843 -0.0036504522
0.0057962956 -0.5220421 -0.006359831
0.0070162271 -0.54981261 -0.0068549523
0.0079007605 -0.56996477 -0.0070539964
0.0091915503 -0.59963226 -0.0043446426
0.010133912 -0.62129295 -0.0023838489
0.011731555 -0.65718549 -0.0088509452
0.012890429 -0.68381202 -0.0066460953
0.014729462 -0.72535545 -0.01152523
0.017046507 -0.7784971 -0.0083904024
-0.013367966 -0.11870617 0.41967759
-0.013618303 -0.079835348 0.055316113
-0.013582082 -0.078572854 0.031873908
-0.012487391 -0.10416079 0.039079584
-0.012463082 -0.10228216 0.011691583
-0.012113187 -0.1105018 0.014471833
-0.011403183 -0.12639602 0.011279568
-0.010884351 -0.13928531 0.023356831
-0.010656724 -0.14229898 -0.0011876938
-0.010167859 -0.15343723 -0.0011676098
-0.009701998 -0.16401033 -0.0016028068
-0.0092430096 -0.17446341 -0.0016148185
-0.008791578 -0.18477999 -0.0012127188
-0.0083579151 -0.19464287 -0.0013595937
-0.00773681 -0.2086159 -0.0033000428
-0.0073150913 -0.21828465 -0.0025450997
-0.0071044145 -0.22316936 -0.0015428781
-0.0065021594 -0.23675971 -0.0029357246
-0.0062986487 -0.24151093 -0.0015875563
-0.0059008417 -0.25073874 0.00037301719
-0.0053315545 -0.26448679 0.0094229504
-0.0047303364 -0.27737013 0.00019084744
-0.0045263004 -0.281849 -0.0017340578
-0.0041291383 -0.29082802 -0.0023484528
-0.0033322885 -0.30892715 -0.0026241972
-0.0029226583 -0.31818885 -0.0032667699
-0.0025105802 -0.32753593 -0.003572714
-0.0018744819 -0.34193909 -0.0043575959
-0.0014894 -0.35091311 -0.0018731197
-0.0010222243 -0.3613762 -0.0038193185
-0.00058450387 -0.37136704 -0.0034668427
-0.00012457593 -0.38181847 -0.0036513917
0.00036092376 -0.39281154 -0.0043253712
0.0013970453 -0.41625366 -0.0060419138
0.0021136799 -0.43279546 -0.0034204773
0.0026465158 -0.44498628 -0.002768175
0.0034112998 -0.46195537 -0.0080877859
0.0041453568 -0.47914177 -0.0026496192
