# .PCD v0.7 - Point Cloud Data file format
VERSION 0.7
FIELDS x y z normal_x normal_y normal_z curvature
SIZE 4 4 4 4 4 4 4
TYPE F F F F F F F
COUNT 1 1 1 1 1 1 1
WIDTH 883
HEIGHT 1
VIEWPOINT 0 0 0 1 0 0 0
POINTS 883
DATA ascii
0.076200008 0.057654187 0.057570308 1 -0 0 2.3054947e-38
0 0.058325116 0.057490584 -1 0 0 2.3054947e-38
0.0031750002 0.058557205 0.057392765 1 -0 0 2.3054947e-38
0.076200008 0.05858884 0.057840884 1 -0 0 2.3054947e-38
0 0.059471622 0.057609785 -1 0 0 2.3054947e-38
0.0031750002 0.059523679 0.057633474 1 -0 0 2.3054947e-38
0.073025003 0.059766132 0.057078116 -1 0 0 2.3054947e-38
0.076200008 0.059502944 0.057735309 1 -0 0 2.3054947e-38
0 0.0605691 0.057506673 -1 0 0 2.3054947e-38
0.0031750002 0.060025342 0.057732616 1 -0 0 2.3054947e-38
0.076200008 0.060683951 0.057569586 1 -0 0 2.3054947e-38
0.0031750002 0.06170186 0.057347119 1 -0 0 2.3054947e-38
0.076200008 0.061331347 0.057938486 1 -0 0 2.3054947e-38
0 0.062550835 0.057470009 -1 0 0 2.3054947e-38
0.0031750002 0.062228054 0.057553969 1 -0 0 2.3054947e-38
0.073025003 0.062183004 0.057829715 -1 0 0 2.3054947e-38
0.076200008 0.062835097 0.057780918 1 -0 0 2.3054947e-38
0 0.063538015 0.057639692 -1 0 0 2.3054947e-38
0.0031750002 0.06303221 0.057022449 1 -0 0 2.3054947e-38
0.073025003 0.063611798 0.057178471 -1 0 0 2.3054947e-38
0.076200008 0.063584417 0.057531908 1 -0 0 2.3054947e-38
0 0.064591601 0.057179634 -1 0 0 2.3054947e-38
0.0031750004 0.064513713 0.057469752 1 -0 0 2.3054947e-38
0.076200008 0.064451583 0.057754967 1 -0 0 2.3054947e-38
0.0031750002 0.065614216 0.057596613 1 -0 0 2.3054947e-38
0.073025003 0.065045737 0.057177331 -1 0 0 2.3054947e-38
0 0.066672333 0.057753738 -1 0 0 2.3054947e-38
0.0031750002 0.066098131 0.057706788 1 -0 0 2.3054947e-38
0.073025003 0.066733003 0.057591733 -1 0 0 2.3054947e-38
0.076200008 0.066845544 0.057541359 1 -0 0 2.3054947e-38
0 0.067211404 0.057275657 -1 0 0 2.3054947e-38
0 0.068976104 0.057359945 -1 0 0 2.3054947e-38
0.0031750002 0.068032756 0.057468012 1 -0 0 2.3054947e-38
0.073025003 0.068553135 0.057346448 -1 0 0 2.3054947e-38
0.076200008 0.068279266 0.057263248 1 -0 0 2.3054947e-38
0.073025003 0.069782689 0.057218052 -1 0 0 2.3054947e-38
0.076200008 0.069914289 0.057664089 1 -0 0 2.3054947e-38
0 0.070080951 0.057568394 -1 0 0 2.3054947e-38
0.0031750002 0.07048028 0.057334878 1 -0 0 2.3054947e-38
0.073025003 0.07079874 0.057740234 -1 0 0 2.3054947e-38
0.076200008 0.070574149 0.057641622 1 -0 0 2.3054947e-38
0 0.071911775 0.057291981 -1 0 0 2.3054947e-38
0.0031750002 0.071711034 0.057680257 1 -0 0 2.3054947e-38
0.0031750002 0.072244987 0.057019427 1 -0 0 2.3054947e-38
0.073025003 0.072688863 0.057452813 -1 0 0 2.3054947e-38
0.076200008 0.072461449 0.057663366 1 -0 0 2.3054947e-38
0.003175 0.073489927 0.057823222 1 -0 0 2.3054947e-38
0.076200008 0.07316044 0.05742066 1 -0 0 2.3054947e-38
0 0.074487738 0.057647616 -1 0 0 2.3054947e-38
0.073025003 0.07497225 0.057084586 -1 0 0 2.3054947e-38
0.0031750002 0.075784169 0.057905335 1 -0 0 2.3054947e-38
0 0.076341853 0.057642877 -1 0 0 2.3054947e-38
0.0031750004 0.076290809 0.057278972 1 -0 0 2.3054947e-38
0 0.077747092 0.057176609 -1 0 0 2.3054947e-38
0.073025003 0.077919468 0.057284869 -1 0 0 2.3054947e-38
0.076200008 0.077618986 0.057438768 1 -0 0 2.3054947e-38
0 0.078444898 0.057094578 -1 0 0 2.3054947e-38
0.0031750002 0.078012452 0.057927724 1 -0 0 2.3054947e-38
0.073025003 0.078421146 0.05736367 -1 0 0 2.3054947e-38
0 0.079195075 0.057719026 -1 0 0 2.3054947e-38
0.0031750004 0.079119824 0.057851501 1 -0 0 2.3054947e-38
0.073025003 0.079954088 0.057672389 -1 0 0 2.3054947e-38
0.073025003 0.080821417 0.057937548 -1 0 0 2.3054947e-38
0 0.081429645 0.057477921 -1 0 0 2.3054947e-38
0.0031750004 0.082116425 0.057575867 1 -0 0 2.3054947e-38
0.073025003 0.082288831 0.057556849 -1 0 0 2.3054947e-38
0 0.083320729 0.057513379 -1 0 0 2.3054947e-38
0.0031750004 0.083142221 0.057255868 1 -0 0 2.3054947e-38
0.073025003 0.083081067 0.057809297 -1 0 0 2.3054947e-38
0.076200008 0.084514514 0.057030827 1 -0 0 2.3054947e-38
0.0031750002 0.085421577 0.057949249 1 -0 0 2.3054947e-38
0 0.086415291 0.057708092 -1 0 0 2.3054947e-38
0.073025003 0.086407036 0.057562936 -1 0 0 2.3054947e-38
0.076200016 0.087544985 0.05730921 1 -0 0 2.3054947e-38
0 0.088493079 0.057245098 -1 0 0 2.3054947e-38
0.0031750002 0.088340811 0.057673246 1 -0 0 2.3054947e-38
0.073025003 0.088200197 0.057554923 -1 0 0 2.3054947e-38
0.076200008 0.088292807 0.057944953 1 -0 0 2.3054947e-38
0.0031750002 0.089792334 0.057698213 1 -0 0 2.3054947e-38
0.073025003 0.089463308 0.057587504 -1 0 0 2.3054947e-38
0 0.09038204 0.057397112 -1 0 0 2.3054947e-38
0.003175 0.090188667 0.057325576 1 -0 0 2.3054947e-38
0.073025003 0.090567932 0.057689872 -1 0 0 2.3054947e-38
0 0.09117467 0.057731424 -1 0 0 2.3054947e-38
0.0031750004 0.091529064 0.05731868 1 -0 0 2.3054947e-38
0.073025003 0.091811046 0.057851061 -1 0 0 2.3054947e-38
0.076200008 0.091917321 0.057875484 1 -0 0 2.3054947e-38
0 0.092908755 0.05731814 -1 0 0 2.3054947e-38
0.073025003 0.092602298 0.057783447 -1 0 0 2.3054947e-38
0 0.093655735 0.057978678 -1 0 0 2.3054947e-38
0.003175 0.093442954 0.057326257 1 -0 0 2.3054947e-38
0.076200008 0.093611747 0.05780644 1 -0 0 2.3054947e-38
0 0.094446249 0.057421409 -1 0 0 2.3054947e-38
0.0031750002 0.094299033 0.057397891 1 -0 0 2.3054947e-38
0.073025003 0.094963066 0.05759427 -1 0 0 2.3054947e-38
0.076200008 0.094890408 0.0579748 1 -0 0 2.3054947e-38
0 0.09531042 0.057323169 -1 0 0 2.3054947e-38
0.0031750002 0.095654115 0.057353448 1 -0 0 2.3054947e-38
0 0.096562028 0.057411328 -1 0 0 2.3054947e-38
0.073025003 0.096179739 0.05766999 -1 0 0 2.3054947e-38
0.076200008 0.096579269 0.057900913 1 -0 0 2.3054947e-38
0 0.097863838 0.057270478 -1 0 0 2.3054947e-38
0.003175 0.097569473 0.057980519 1 -0 0 2.3054947e-38
0.073025003 0.097825609 0.057204187 -1 0 0 2.3054947e-38
0 0.098592713 0.057643756 -1 0 0 2.3054947e-38
0.0031750002 0.098593637 0.057031829 1 -0 0 2.3054947e-38
0.076200008 0.09888877 0.057385489 1 -0 0 2.3054947e-38
0.003175 0.099277981 0.05726647 1 -0 0 2.3054947e-38
0 0.10053751 0.057557959 -1 0 0 2.3054947e-38
0.073025003 0.10034778 0.057904497 -1 0 0 2.3054947e-38
0.076200008 0.10057876 0.057456028 1 -0 0 2.3054947e-38
0.0031750004 0.10158347 0.057720006 1 -0 0 2.3054947e-38
0.073025003 0.10159365 0.057624575 -1 0 0 2.3054947e-38
0 0.10201959 0.057067294 -1 0 0 2.3054947e-38
0 0.10374331 0.057589088 -1 0 0 2.3054947e-38
0.0031750002 0.10329902 0.057386212 1 -0 0 2.3054947e-38
0.076200008 0.10328788 0.057446118 1 -0 0 2.3054947e-38
0 0.10438241 0.057866748 -1 0 0 2.3054947e-38
0.0031750002 0.10446882 0.05713848 1 -0 0 2.3054947e-38
0 0.10546032 0.057127904 -1 0 0 2.3054947e-38
0.003175 0.10593958 0.057857953 1 -0 0 2.3054947e-38
0.076200008 0.10509399 0.057249114 1 -0 0 2.3054947e-38
0.0031750002 0.10656532 0.05749407 1 -0 0 2.3054947e-38
0 0.10749318 0.057078455 -1 0 0 2.3054947e-38
0.076200008 0.1076435 0.057103824 1 -0 0 2.3054947e-38
0 0.10849632 0.057282493 -1 0 0 2.3054947e-38
0.0031750004 0.10829777 0.057578862 1 -0 0 2.3054947e-38
0.073025003 0.10896807 0.057615314 -1 0 0 2.3054947e-38
0 0.10953506 0.057713944 -1 0 0 2.3054947e-38
0.073025003 0.10995291 0.057999149 -1 0 0 2.3054947e-38
0.076200008 0.10926977 0.057491772 1 -0 0 2.3054947e-38
0 0.11025088 0.057572063 -1 0 0 2.3054947e-38
0.003175 0.11086853 0.057153407 1 -0 0 2.3054947e-38
0.073025003 0.11010964 0.057508554 -1 0 0 2.3054947e-38
0.076200008 0.11010762 0.057789177 1 -0 0 2.3054947e-38
0 0.11110736 0.057314694 -1 0 0 2.3054947e-38
0.0031750002 0.11132177 0.05700621 1 -0 0 2.3054947e-38
0.073025003 0.1128246 0.057275604 -1 0 0 2.3054947e-38
0.076200008 0.1122615 0.057272077 1 -0 0 2.3054947e-38
0 0.11398838 0.057385128 -1 0 0 2.3054947e-38
0.003175 0.11398888 0.05785723 1 -0 0 2.3054947e-38
0.073025003 0.11370327 0.057361476 -1 0 0 2.3054947e-38
0.076200008 0.11345512 0.057622626 1 -0 0 2.3054947e-38
0 0.11460315 0.057185084 -1 0 0 2.3054947e-38
0.0031750004 0.11464857 0.057838175 1 -0 0 2.3054947e-38
0.073025003 0.11447245 0.057627819 -1 0 0 2.3054947e-38
0.0031750004 0.11502235 0.057357203 1 -0 0 2.3054947e-38
0.073025003 0.11529665 0.05775075 -1 0 0 2.3054947e-38
0.076200008 0.11527912 0.057497218 1 -0 0 2.3054947e-38
0.0031750004 0.1169496 0.057020031 1 -0 0 2.3054947e-38
0.073025003 0.11727444 0.05747788 -1 0 0 2.3054947e-38
0 0.11888906 0.057328478 -1 0 0 2.3054947e-38
0.0031750002 0.11840595 0.057476781 1 -0 0 2.3054947e-38
0.073025003 0.11889 0.057202917 -1 0 0 2.3054947e-38
0.076200008 0.11887813 0.057986315 1 -0 0 2.3054947e-38
0 0.1194865 0.057558328 -1 0 0 2.3054947e-38
0.0031750002 0.11950772 0.057818364 1 -0 0 2.3054947e-38
0.073025003 0.11904982 0.057091746 -1 0 0 2.3054947e-38
0.076200008 0.11943763 0.057189144 1 -0 0 2.3054947e-38
0 0.12066834 0.057257686 -1 0 0 2.3054947e-38
0.076200008 0.12076222 0.057965275 1 -0 0 2.3054947e-38
0.0031750002 0.12144452 0.057148736 1 -0 0 2.3054947e-38
0.076200008 0.12111425 0.057732336 1 -0 0 2.3054947e-38
0 0.12228777 0.057844911 -1 0 0 2.3054947e-38
0.073025003 0.1224194 0.057315428 -1 0 0 2.3054947e-38
0.076200008 0.12267531 0.05741889 1 -0 0 2.3054947e-38
0 0.12362786 0.057855457 -1 0 0 2.3054947e-38
0.073025003 0.12358696 0.057458226 -1 0 0 2.3054947e-38
0.0031750002 0.1241481 0.057456203 1 -0 0 2.3054947e-38
0.073025003 0.1243045 0.057317249 -1 0 0 2.3054947e-38
0.076200008 0.12454119 0.057389773 1 -0 0 2.3054947e-38
0 0.12502506 0.057664089 -1 0 0 2.3054947e-38
0.0031750002 0.12555371 0.057211973 1 -0 0 2.3054947e-38
0.073025003 0.1250252 0.05719956 -1 0 0 2.3054947e-38
0.076200008 0.12551814 0.057180099 1 -0 0 2.3054947e-38
0 0.12689269 0.05741825 -1 0 0 2.3054947e-38
0.073025003 0.12635714 0.057128198 -1 0 0 2.3054947e-38
0.076200008 0.12713161 0.057293501 1 -0 0 2.3054947e-38
0 0.12859841 0.057804137 -1 0 0 2.3054947e-38
0.073025003 0.12846577 0.057331532 -1 0 0 2.3054947e-38
0.076200008 0.12838683 0.057284143 1 -0 0 2.3054947e-38
0.073025003 0.12925962 0.057738468 -1 0 0 2.3054947e-38
0 0.13052806 0.057660796 -1 0 0 2.3054947e-38
0.073025011 0.13043861 0.05737314 -1 0 0 2.3054947e-38
0.076200008 0.13086918 0.057179861 1 -0 0 2.3054947e-38
0.003175 0.13106066 0.057667624 1 -0 0 2.3054947e-38
0.073025011 0.13123283 0.057595208 -1 0 0 2.3054947e-38
0.076200016 0.13169411 0.057555791 1 -0 0 2.3054947e-38
0 0.13355017 0.05728481 -1 0 0 2.3054947e-38
0.0031750002 0.13399963 0.057912111 1 -0 0 2.3054947e-38
0.073025003 0.13353078 0.057865154 -1 0 0 2.3054947e-38
0.076200001 0.13374288 0.057905298 1 -0 0 2.3054947e-38
0 0.13485709 0.057196371 -1 0 0 2.3054947e-38
0.003175 0.13442673 0.05771875 1 -0 0 2.3054947e-38
0.076200008 0.13484147 0.05726653 1 -0 0 2.3054947e-38
0 0.13555217 0.057470575 -1 0 0 2.3054947e-38
0.0031750002 0.13551933 0.057628453 1 -0 0 2.3054947e-38
0.076200001 0.13575916 0.057176389 1 -0 0 2.3054947e-38
0.0031750002 0.13658138 0.05755043 1 -0 0 2.3054947e-38
0.073025003 0.13639641 0.057611443 -1 0 0 2.3054947e-38
0.076200001 0.13691424 0.05741233 1 -0 0 2.3054947e-38
0.0031750002 0.13745642 0.057580817 1 -0 0 2.3054947e-38
0.073025003 0.13743345 0.057584904 -1 0 0 2.3054947e-38
0.076200008 0.13767214 0.057582669 1 -0 0 2.3054947e-38
0.076200008 0.13942735 0.057978325 1 -0 0 2.3054947e-38
0.0031750004 0.14006859 0.057749562 1 -0 0 2.3054947e-38
0.073025003 0.14066587 0.057229314 -1 0 0 2.3054947e-38
0 0.14125034 0.057727702 -1 0 0 2.3054947e-38
0.0031750002 0.14119042 0.057027884 1 0 0 2.3054947e-38
0.073025003 0.14129357 0.057551719 -1 0 0 2.3054947e-38
0 0.14215067 0.057526447 -1 0 0 2.3054947e-38
0.003175 0.14270321 0.057054911 1 0 0 2.3054947e-38
0.073025003 0.14214584 0.057100017 -1 0 0 2.3054947e-38
0.076200008 0.14212717 0.057502192 1 0 0 2.3054947e-38
0.0031750002 0.14388537 0.057139795 1 0 0 2.3054947e-38
0.076200008 0.14349166 0.057805717 1 0 0 2.3054947e-38
0.076200008 0.14409845 0.057473686 1 0 0 2.3054947e-38
0 0.14500912 0.05778686 -1 0 0 2.3054947e-38
0.0031750004 0.14578542 0.057633236 1 0 0 2.3054947e-38
0.076200008 0.14519884 0.057289489 1 0 0 2.3054947e-38
0.073025011 0.14671437 0.057591971 -1 0 0 2.3054947e-38
0 0.14747298 0.057233147 -1 0 0 2.3054947e-38
0.0031750002 0.1475668 0.057658292 1 0 0 2.3054947e-38
0.073024996 0.14774901 0.0579146 -1 0 0 2.3054947e-38
0 0.14802241 0.057516191 -1 0 0 2.3054947e-38
0.073025003 0.14862931 0.057976101 -1 0 0 2.3054947e-38
0.0031750002 0.14998268 0.057621609 1 0 0 2.3054947e-38
0.073025003 0.14932461 0.05734273 -1 0 0 2.3054947e-38
0.003175 0.15021241 0.057584852 1 0 0 2.3054947e-38
0.073025003 0.15045063 0.057408806 -1 0 0 2.3054947e-38
0 0.15193594 0.057834856 -1 0 0 2.3054947e-38
0.073025003 0.15114787 0.057969317 -1 0 0 2.3054947e-38
0.0031750004 0.15277122 0.057081018 1 0 0 2.3054947e-38
0.076200008 0.15269338 0.057138033 1 0 0 2.3054947e-38
0.073025003 0.1536431 0.057545338 -1 0 0 2.3054947e-38
0.0031750004 0.15469337 0.057813875 1 0 0 2.3054947e-38
0.073025011 0.15457773 0.057351328 -1 0 0 2.3054947e-38
0 0.15544373 0.057440199 -1 0 0 2.3054947e-38
0.0031750002 0.15580373 0.057326026 1 0 0 2.3054947e-38
0.073025003 0.15577327 0.057984076 -1 0 0 2.3054947e-38
0 0.15644945 0.057712771 -1 0 0 2.3054947e-38
0.076200001 0.15638411 0.057058834 1 0 0 2.3054947e-38
0.0031750004 0.15749289 0.05757235 1 0 0 2.3054947e-38
0.073025003 0.15797193 0.057726376 -1 0 0 2.3054947e-38
0.076200016 0.15767106 0.057586733 1 0 0 2.3054947e-38
0.0031750004 0.1583764 0.057607543 1 0 0 2.3054947e-38
0.073025003 0.15812203 0.057225239 -1 0 0 2.3054947e-38
0 0.15939176 0.057329617 -1 0 0 2.3054947e-38
0.073025003 0.15927054 0.057294734 -1 0 0 2.3054947e-38
0.076200001 0.15969124 0.057164785 1 0 0 2.3054947e-38
0 0.16004506 0.057675134 -1 0 0 2.3054947e-38
0.073025003 0.16008365 0.057664812 -1 0 0 2.3054947e-38
0.003175 0.16147563 0.057371307 1 0 0 2.3054947e-38
0.073025003 0.16162226 0.057388484 -1 0 0 2.3054947e-38
0 0.16242105 0.05754694 -1 0 0 2.3054947e-38
0.0031750002 0.16238087 0.057584211 1 0 0 2.3054947e-38
0.073024996 0.16254042 0.057305891 -1 0 0 2.3054947e-38
0.076200008 0.16276439 0.057028465 1 0 0 2.3054947e-38
0 0.16311984 0.05725535 -1 0 0 2.3054947e-38
0.003175 0.16337456 0.05747471 1 0 0 2.3054947e-38
0.073025003 0.16339891 0.057024073 -1 0 0 2.3054947e-38
0.0031750002 0.16441895 0.057928186 1 0 0 2.3054947e-38
0.076200008 0.16458982 0.057332635 1 0 0 2.3054947e-38
0 0.16565239 0.057592757 -1 0 0 2.3054947e-38
0.073025003 0.16551358 0.057837151 -1 0 0 2.3054947e-38
0.076200008 0.16511334 0.057327114 1 0 0 2.3054947e-38
0 0.16631086 0.057557315 -1 0 0 2.3054947e-38
0.076200008 0.16633077 0.057839062 1 0 0 2.3054947e-38
0.0031750002 0.16755894 0.057541806 1 0 0 2.3054947e-38
0.073025003 0.16753726 0.057453476 -1 0 0 2.3054947e-38
0.076200008 0.16864771 0.057794761 1 0 0 2.3054947e-38
0 0.16934368 0.057796035 -1 0 0 2.3054947e-38
0.076200016 0.16990401 0.057680108 1 0 0 2.3054947e-38
0.0031750002 0.1706356 0.057350222 1 0 0 2.3054947e-38
0.073025003 0.17012905 0.057675 -1 0 0 2.3054947e-38
0.0031750002 0.17173213 0.057592221 1 0 0 2.3054947e-38
0.073025003 0.17141652 0.057487637 -1 0 0 2.3054947e-38
0.076200008 0.17164147 0.057424486 1 0 0 2.3054947e-38
0 0.17282115 0.057613447 -1 0 0 2.3054947e-38
0.0031750002 0.17262246 0.057096586 1 0 0 2.3054947e-38
0.073025003 0.17240995 0.05747411 -1 0 0 2.3054947e-38
0 0.17303489 0.057062015 -1 0 0 2.3054947e-38
0.0031750002 0.17379591 0.057553761 1 0 0 2.3054947e-38
0.073025003 0.17352255 0.057417896 -1 0 0 2.3054947e-38
0 0.17445359 0.05767969 -1 0 0 2.3054947e-38
0.076200008 0.17420198 0.05764737 1 0 0 2.3054947e-38
0 0.17551765 0.057564206 -1 0 0 2.3054947e-38
0.0031750002 0.17541522 0.057682086 1 0 0 2.3054947e-38
0.073025003 0.17537302 0.057540283 -1 0 0 2.3054947e-38
0.00042201055 0.17621252 0.057604373 -0 1 0 2.3054947e-38
0.0015945361 0.17621252 0.057860874 -0 1 0 2.3054947e-38
0.0023640557 0.17621252 0.057468619 -0 1 0 2.3054947e-38
0.07311254 0.17621252 0.057883404 0 0.99999994 0 2.3054947e-38
0.075258158 0.17621252 0.057437271 0 0.99999994 0 2.3054947e-38
0.0031750002 0.00035349606 0.058506891 1 -0 0 2.3054947e-38
0.07327798 0.00015872317 0.058648985 -0.5 -0.49999997 0 2.3054947e-38
0.074601829 0 0.058094937 -0 -0.99999994 -0 2.3054947e-38
0.075383335 0 0.058762286 -0 -0.99999994 -0 2.3054947e-38
0.076182097 0.00041827047 0.05861187 0.66666669 -0.33333331 0 2.3054947e-38
0 0.0011356093 0.058598768 -1 0 0 2.3054947e-38
0.0031750002 0.0019836889 0.058488581 1 -0 0 2.3054947e-38
0.076200008 0.0018859478 0.058616497 1 -0 0 2.3054947e-38
0.0031750002 0.002335838 0.058697514 1 -0 0 2.3054947e-38
0.073025003 0.0024047045 0.058799848 -1 0 0 2.3054947e-38
0.076200008 0.0025488918 0.058859836 1 -0 0 2.3054947e-38
0 0.0039021857 0.058133449 -1 0 0 2.3054947e-38
0.0031750002 0.0031066234 0.058129422 1 -0 0 2.3054947e-38
0.076200008 0.0034505636 0.058538169 1 -0 0 2.3054947e-38
0 0.0045539276 0.058778681 -1 0 0 2.3054947e-38
0.076200008 0.0046399315 0.058827452 1 -0 0 2.3054947e-38
0.0031750002 0.0058378382 0.058919132 1 -0 0 2.3054947e-38
0.076200008 0.0054498799 0.058638107 1 -0 0 2.3054947e-38
0 0.0062736059 0.05803448 -1 0 0 2.3054947e-38
0.0031750002 0.0069155777 0.058576822 1 -0 0 2.3054947e-38
0.076200001 0.0061736619 0.058017112 1 -0 0 2.3054947e-38
0 0.0079783304 0.058743589 -1 0 0 2.3054947e-38
0.0031750002 0.0071684849 0.058666222 1 -0 0 2.3054947e-38
0.073025003 0.0077777607 0.058746044 -1 0 0 2.3054947e-38
0.073025003 0.0089901369 0.058037706 -1 0 0 2.3054947e-38
0.076200008 0.0086901663 0.058357343 1 -0 0 2.3054947e-38
0 0.0094746491 0.058395281 -1 0 0 2.3054947e-38
0.0031750002 0.0092418948 0.058036145 1 -0 0 2.3054947e-38
0.073025003 0.0095422622 0.058740344 -1 0 0 2.3054947e-38
0.076200008 0.0094772875 0.05833932 1 -0 0 2.3054947e-38
0 0.010602959 0.058584929 -1 0 0 2.3054947e-38
0.0031750002 0.010650584 0.058445711 1 -0 0 2.3054947e-38
0.073025003 0.010285534 0.058200784 -1 0 0 2.3054947e-38
0 0.011397623 0.058414716 -1 0 0 2.3054947e-38
0.0031750002 0.011716215 0.058815084 1 -0 0 2.3054947e-38
0.0031750002 0.012910421 0.058369815 1 -0 0 2.3054947e-38
0 0.013717603 0.058655046 -1 0 0 2.3054947e-38
0 0.01438252 0.058431953 -1 0 0 2.3054947e-38
0.076200008 0.014906066 0.0580124 1 -0 0 2.3054947e-38
0 0.015562765 0.058563944 -1 0 0 2.3054947e-38
0.0031750004 0.015407121 0.058856402 1 -0 0 2.3054947e-38
0.0031750002 0.016319105 0.058736268 1 -0 0 2.3054947e-38
0.0031750002 0.017502248 0.05817103 1 -0 0 2.3054947e-38
0.073025003 0.017354423 0.058689211 -1 0 0 2.3054947e-38
0 0.018779641 0.058290169 -1 0 0 2.3054947e-38
0.0031750002 0.018139884 0.058754224 1 -0 0 2.3054947e-38
0.073025003 0.018134691 0.058572497 -1 0 0 2.3054947e-38
0 0.019513825 0.058562908 -1 0 0 2.3054947e-38
0.073025003 0.019260634 0.058275327 -1 0 0 2.3054947e-38
0.076200008 0.019736458 0.058258425 1 -0 0 2.3054947e-38
0.076200008 0.020390296 0.05812544 1 -0 0 2.3054947e-38
0 0.021351675 0.058347922 -1 0 0 2.3054947e-38
0.0031750002 0.02115681 0.058904126 1 -0 0 2.3054947e-38
0.073025003 0.02111564 0.058023628 -1 0 0 2.3054947e-38
0.076200008 0.02133856 0.058344919 1 -0 0 2.3054947e-38
0 0.022668459 0.058222692 -1 0 0 2.3054947e-38
0.073025003 0.022625431 0.058408841 -1 0 0 2.3054947e-38
0.076200008 0.022044523 0.058421291 1 -0 0 2.3054947e-38
0 0.023397656 0.058130808 -1 0 0 2.3054947e-38
0.0031750002 0.023127085 0.058913633 1 -0 0 2.3054947e-38
0.073025003 0.02367088 0.058449786 -1 0 0 2.3054947e-38
0.076200008 0.02378184 0.05885363 1 -0 0 2.3054947e-38
0 0.024354313 0.058795951 -1 0 0 2.3054947e-38
0.073024996 0.024102708 0.058830317 -1 0 0 2.3054947e-38
0.076200008 0.024348047 0.05882182 1 -0 0 2.3054947e-38
0 0.02548434 0.058302224 -1 0 0 2.3054947e-38
0.0031750002 0.025845757 0.058185905 1 -0 0 2.3054947e-38
0.073025003 0.025109576 0.058109358 -1 0 0 2.3054947e-38
0.076200008 0.025772724 0.058176935 1 -0 0 2.3054947e-38
0 0.026990652 0.05809414 -1 0 0 2.3054947e-38
0.0031750002 0.026471807 0.058383889 1 -0 0 2.3054947e-38
0.0031750002 0.027712312 0.058775805 1 -0 0 2.3054947e-38
0.073025011 0.027324254 0.058605801 -1 0 0 2.3054947e-38
0 0.028531414 0.058794137 -1 0 0 2.3054947e-38
0.0031750004 0.028326353 0.058558069 1 -0 0 2.3054947e-38
0.076200008 0.028553288 0.058438193 1 -0 0 2.3054947e-38
0.0031750002 0.029251959 0.058559075 1 -0 0 2.3054947e-38
0.073025003 0.029573703 0.058558129 -1 0 0 2.3054947e-38
0.076200008 0.030811401 0.058702625 1 -0 0 2.3054947e-38
0.0031750002 0.031468317 0.058577687 1 -0 0 2.3054947e-38
0.073025003 0.031218363 0.058961138 -1 0 0 2.3054947e-38
0.076200008 0.031816497 0.058831006 1 -0 0 2.3054947e-38
0 0.032563444 0.058390219 -1 0 0 2.3054947e-38
0.073025003 0.032440994 0.058931198 -1 0 0 2.3054947e-38
0.073025003 0.033184558 0.058847539 -1 0 0 2.3054947e-38
0.076200008 0.033761408 0.058242328 1 -0 0 2.3054947e-38
0 0.035453185 0.058258917 -1 0 0 2.3054947e-38
0 0.036171112 0.058212169 -1 0 0 2.3054947e-38
0.003175 0.036596626 0.058409791 1 -0 0 2.3054947e-38
0.073025003 0.036524132 0.058195431 -1 0 0 2.3054947e-38
0.0031750002 0.037688844 0.05875117 1 -0 0 2.3054947e-38
0.076200008 0.037155896 0.058843117 1 -0 0 2.3054947e-38
0.003175 0.038598914 0.058184966 1 -0 0 2.3054947e-38
0 0.039937101 0.058634918 -1 0 0 2.3054947e-38
0.073025003 0.039779101 0.058392704 -1 0 0 2.3054947e-38
0 0.040353306 0.058647543 -1 0 0 2.3054947e-38
0.0031750004 0.040588569 0.058879476 1 -0 0 2.3054947e-38
0.073025003 0.040715549 0.058465667 -1 0 0 2.3054947e-38
0.076200008 0.040681142 0.058272086 1 -0 0 2.3054947e-38
0.0031750002 0.041257374 0.058541805 1 -0 0 2.3054947e-38
0.076200008 0.041070823 0.058894444 1 -0 0 2.3054947e-38
0 0.042268876 0.058057718 -1 0 0 2.3054947e-38
0.0031750004 0.042322259 0.058412913 1 -0 0 2.3054947e-38
0.073025003 0.042499356 0.058589321 -1 0 0 2.3054947e-38
0.076200008 0.042000961 0.058812331 1 -0 0 2.3054947e-38
0 0.043897916 0.058008287 -1 0 0 2.3054947e-38
0.0031750002 0.043366864 0.058875456 1 -0 0 2.3054947e-38
0.073025003 0.043478105 0.058143299 -1 0 0 2.3054947e-38
0.073025003 0.044252452 0.058563165 -1 0 0 2.3054947e-38
0.076200008 0.044371519 0.058773436 1 -0 0 2.3054947e-38
0 0.045516215 0.058622152 -1 0 0 2.3054947e-38
0.0031750002 0.045220587 0.058586724 1 -0 0 2.3054947e-38
0.073025003 0.045294996 0.058424152 -1 0 0 2.3054947e-38
0 0.04659348 0.058114111 -1 0 0 2.3054947e-38
0.0031750004 0.04696241 0.058680281 1 -0 0 2.3054947e-38
0.073025003 0.046847478 0.058649175 -1 0 0 2.3054947e-38
0.076200008 0.046400599 0.058578923 1 -0 0 2.3054947e-38
0.0031750004 0.047850195 0.058257427 1 -0 0 2.3054947e-38
0 0.048772998 0.058464654 -1 0 0 2.3054947e-38
0.073025003 0.048969783 0.058204539 -1 0 0 2.3054947e-38
0 0.049524151 0.058301847 -1 0 0 2.3054947e-38
0.073025003 0.049763881 0.05887986 -1 0 0 2.3054947e-38
0.076200008 0.049343307 0.058231182 1 -0 0 2.3054947e-38
0.0031750002 0.050272115 0.058492698 1 -0 0 2.3054947e-38
0.073025003 0.050498754 0.058434315 -1 0 0 2.3054947e-38
0.076200008 0.050436564 0.058283512 1 -0 0 2.3054947e-38
0 0.051714875 0.058402073 -1 0 0 2.3054947e-38
0.073025003 0.052419201 0.058944035 -1 0 0 2.3054947e-38
0.076200008 0.052794017 0.058852892 1 -0 0 2.3054947e-38
0.0031750002 0.053619143 0.058705218 1 -0 0 2.3054947e-38
0.076200008 0.053369913 0.058013901 1 -0 0 2.3054947e-38
0 0.054551303 0.058182199 -1 0 0 2.3054947e-38
0.0031750002 0.054582462 0.058183551 1 -0 0 2.3054947e-38
0.073025003 0.054532453 0.058735903 -1 0 0 2.3054947e-38
0.076200008 0.054311179 0.058504134 1 -0 0 2.3054947e-38
0 0.055649683 0.058117613 -1 0 0 2.3054947e-38
0.0031750002 0.055733673 0.058563191 1 -0 0 2.3054947e-38
0.073025003 0.055902306 0.058278225 -1 0 0 2.3054947e-38
0 0.056476794 0.058302581 -1 0 0 2.3054947e-38
0.073025003 0.056515515 0.058578782 -1 0 0 2.3054947e-38
0 0.057642978 0.058524419 -1 0 0 2.3054947e-38
0.0031750002 0.057456464 0.058558252 1 -0 0 2.3054947e-38
0.073025003 0.057659168 0.058332227 -1 0 0 2.3054947e-38
0.076200008 0.057048775 0.058352225 1 -0 0 2.3054947e-38
0 0.058445625 0.058213137 -1 0 0 2.3054947e-38
0.073025003 0.058858179 0.058421388 -1 0 0 2.3054947e-38
0 0.059362821 0.058704764 -1 0 0 2.3054947e-38
0.0031750002 0.05975787 0.05839349 1 -0 0 2.3054947e-38
0.073025003 0.059308413 0.058086701 -1 0 0 2.3054947e-38
0.076200008 0.059220411 0.058451794 1 -0 0 2.3054947e-38
0 0.060437642 0.058305632 -1 0 0 2.3054947e-38
0.0031750004 0.06023274 0.0581326 1 -0 0 2.3054947e-38
0.073025003 0.060010571 0.058524054 -1 0 0 2.3054947e-38
0.076200008 0.061331879 0.058319841 1 -0 0 2.3054947e-38
0.0031750002 0.062392898 0.058076508 1 -0 0 2.3054947e-38
0.076200008 0.062601015 0.058381218 1 -0 0 2.3054947e-38
0.0031750004 0.063877553 0.058545571 1 -0 0 2.3054947e-38
0.073025003 0.063733727 0.058413319 -1 0 0 2.3054947e-38
0.076200008 0.063533947 0.058707736 1 -0 0 2.3054947e-38
0.0031750002 0.064942099 0.058304694 1 -0 0 2.3054947e-38
0.073025003 0.064845189 0.058756012 -1 0 0 2.3054947e-38
0.076200008 0.064161129 0.058132727 1 -0 0 2.3054947e-38
0 0.065349273 0.058343481 -1 0 0 2.3054947e-38
0.076200008 0.065370023 0.058687594 1 -0 0 2.3054947e-38
0 0.066594258 0.058231641 -1 0 0 2.3054947e-38
0.0031750004 0.066784672 0.058346801 1 -0 0 2.3054947e-38
0.076200008 0.066246994 0.058734592 1 -0 0 2.3054947e-38
0.0031750002 0.067270838 0.058444746 1 -0 0 2.3054947e-38
0.073025003 0.068644643 0.058942731 -1 0 0 2.3054947e-38
0 0.069557205 0.058447886 -1 0 0 2.3054947e-38
0.0031750004 0.069098838 0.05865733 1 -0 0 2.3054947e-38
0.073025003 0.069790483 0.058447458 -1 0 0 2.3054947e-38
0 0.070532396 0.058656786 -1 0 0 2.3054947e-38
0.073025003 0.070407718 0.05830859 -1 0 0 2.3054947e-38
0.076200008 0.070801646 0.058439922 1 -0 0 2.3054947e-38
0.0031750004 0.071431518 0.058529567 1 -0 0 2.3054947e-38
0.073025003 0.071186617 0.058877662 -1 0 0 2.3054947e-38
0.076200008 0.071508117 0.058597278 1 -0 0 2.3054947e-38
0 0.072194904 0.058653437 -1 0 0 2.3054947e-38
0.073025003 0.072335608 0.058227271 -1 0 0 2.3054947e-38
0.076200008 0.072821438 0.058889251 1 -0 0 2.3054947e-38
0 0.073558457 0.05835152 -1 0 0 2.3054947e-38
0.0031750002 0.073230825 0.058913358 1 -0 0 2.3054947e-38
0.073025003 0.073473603 0.058614857 -1 0 0 2.3054947e-38
0.076200008 0.073564574 0.058514282 1 -0 0 2.3054947e-38
0 0.075700566 0.058256812 -1 0 0 2.3054947e-38
0.076200016 0.075764231 0.058217615 1 -0 0 2.3054947e-38
0 0.076942995 0.058831323 -1 0 0 2.3054947e-38
0.003175 0.076436296 0.058687508 1 -0 0 2.3054947e-38
0.073025003 0.076881453 0.058575682 -1 0 0 2.3054947e-38
0 0.077518106 0.058548018 -1 0 0 2.3054947e-38
0.076200008 0.077093244 0.058714218 1 -0 0 2.3054947e-38
0 0.078244515 0.058688305 -1 0 0 2.3054947e-38
0.0031750002 0.079398379 0.058184743 1 -0 0 2.3054947e-38
0.073025003 0.07905414 0.05814261 -1 0 0 2.3054947e-38
0.076200008 0.079587676 0.058899969 1 -0 0 2.3054947e-38
0.0031750004 0.080589496 0.058513936 1 -0 0 2.3054947e-38
0.073025003 0.080764696 0.058105092 -1 0 0 2.3054947e-38
0 0.081421405 0.058714792 -1 0 0 2.3054947e-38
0.0031750002 0.081428498 0.058512069 1 -0 0 2.3054947e-38
0.0031750004 0.082184665 0.058199778 1 -0 0 2.3054947e-38
0.073025003 0.0829456 0.058086801 -1 0 0 2.3054947e-38
0.076200008 0.082829863 0.058164991 1 -0 0 2.3054947e-38
0 0.083115451 0.058137413 -1 0 0 2.3054947e-38
0.0031750002 0.083654985 0.05852994 1 -0 0 2.3054947e-38
0.073025003 0.083067633 0.058844123 -1 0 0 2.3054947e-38
0.076200008 0.08337836 0.058723092 1 -0 0 2.3054947e-38
0 0.084504396 0.058366776 -1 0 0 2.3054947e-38
0.0031750002 0.08478827 0.058323164 1 -0 0 2.3054947e-38
0.073025003 0.08405827 0.05863753 -1 0 0 2.3054947e-38
0.076200008 0.084712431 0.058391392 1 -0 0 2.3054947e-38
0.073025003 0.085729487 0.058620568 -1 0 0 2.3054947e-38
0 0.086791322 0.058577631 -1 0 0 2.3054947e-38
0.0031750002 0.086126342 0.058415417 1 -0 0 2.3054947e-38
0 0.087112397 0.058711756 -1 0 0 2.3054947e-38
0.0031750002 0.087808982 0.05857683 1 -0 0 2.3054947e-38
0.073025003 0.087557375 0.058539502 -1 0 0 2.3054947e-38
0.0031750002 0.088578701 0.058331974 1 -0 0 2.3054947e-38
0.076200008 0.088495657 0.058211461 1 -0 0 2.3054947e-38
0.0031750002 0.089732409 0.058219209 1 -0 0 2.3054947e-38
0.076200001 0.089108214 0.058679774 1 -0 0 2.3054947e-38
0.0031750004 0.090392642 0.058062363 1 -0 0 2.3054947e-38
0.073025003 0.090814598 0.058128573 -1 0 0 2.3054947e-38
0.0031750002 0.091707811 0.058982834 1 -0 0 2.3054947e-38
0 0.092540711 0.058286406 -1 0 0 2.3054947e-38
0.073025003 0.092779957 0.058966458 -1 0 0 2.3054947e-38
0 0.093192309 0.058255844 -1 0 0 2.3054947e-38
0.0031750002 0.093901932 0.058852356 1 -0 0 2.3054947e-38
0.076200008 0.093897685 0.058392067 1 -0 0 2.3054947e-38
0.073025003 0.094515063 0.058910806 -1 0 0 2.3054947e-38
0.076200008 0.094628766 0.058397286 1 -0 0 2.3054947e-38
0 0.095444925 0.058397468 -1 0 0 2.3054947e-38
0.0031750004 0.09582223 0.058599304 1 -0 0 2.3054947e-38
0.073025003 0.095904224 0.058684971 -1 0 0 2.3054947e-38
0.076200008 0.09525986 0.058556888 1 -0 0 2.3054947e-38
0 0.096435487 0.058311865 -1 0 0 2.3054947e-38
0 0.097700901 0.058726154 -1 0 0 2.3054947e-38
0.0031750002 0.097621351 0.058561049 1 -0 0 2.3054947e-38
0.073025003 0.097257629 0.05857287 -1 0 0 2.3054947e-38
0.076200008 0.097042881 0.058691569 1 -0 0 2.3054947e-38
0 0.098826982 0.058108188 -1 0 0 2.3054947e-38
0.076200008 0.098919034 0.058426924 1 -0 0 2.3054947e-38
0.0031750002 0.099877268 0.058452342 1 -0 0 2.3054947e-38
0.076200008 0.099974051 0.058250807 1 -0 0 2.3054947e-38
0.0031750002 0.10044143 0.058409594 1 -0 0 2.3054947e-38
0 0.1015235 0.058402695 -1 0 0 2.3054947e-38
0.003175 0.10140835 0.058427982 1 -0 0 2.3054947e-38
0.073025003 0.10183149 0.058081843 -1 0 0 2.3054947e-38
0.076200008 0.10103084 0.058975831 1 -0 0 2.3054947e-38
0.003175 0.10261059 0.058552343 1 -0 0 2.3054947e-38
0.073025003 0.10284109 0.058757685 -1 0 0 2.3054947e-38
0.076200008 0.10230682 0.058216862 1 -0 0 2.3054947e-38
0 0.10318591 0.058528569 -1 0 0 2.3054947e-38
0.073025003 0.10376994 0.058893617 -1 0 0 2.3054947e-38
0.076200008 0.1032702 0.058107831 1 -0 0 2.3054947e-38
0 0.10434838 0.058570519 -1 0 0 2.3054947e-38
0.003175 0.10484093 0.058862019 1 -0 0 2.3054947e-38
0.073025003 0.10425305 0.058678683 -1 0 0 2.3054947e-38
0 0.1054491 0.0586344 -1 0 0 2.3054947e-38
0.003175 0.10562753 0.058827251 1 -0 0 2.3054947e-38
0.073025003 0.10507847 0.058738422 -1 0 0 2.3054947e-38
0.076200008 0.10540374 0.058266595 1 -0 0 2.3054947e-38
0.0031750004 0.10640615 0.058441442 1 -0 0 2.3054947e-38
0.076200008 0.10616089 0.058561571 1 -0 0 2.3054947e-38
0.0031750002 0.10752784 0.058154851 1 -0 0 2.3054947e-38
0.073025003 0.10775791 0.058275189 -1 0 0 2.3054947e-38
0.076200016 0.10773585 0.058378778 1 -0 0 2.3054947e-38
0 0.10827483 0.058376163 -1 0 0 2.3054947e-38
0.003175 0.10852496 0.058764838 1 -0 0 2.3054947e-38
0.073025003 0.10809372 0.058687892 -1 0 0 2.3054947e-38
0.076200008 0.10878796 0.058469702 1 -0 0 2.3054947e-38
0 0.10940792 0.058801167 -1 0 0 2.3054947e-38
0.073025003 0.1094552 0.058020566 -1 0 0 2.3054947e-38
0 0.11038883 0.058824345 -1 0 0 2.3054947e-38
0.073025003 0.11038626 0.058607057 -1 0 0 2.3054947e-38
0.076200008 0.11025371 0.058647223 1 -0 0 2.3054947e-38
0.003175 0.11180844 0.05822318 1 -0 0 2.3054947e-38
0.073025003 0.11163711 0.058435541 -1 0 0 2.3054947e-38
0 0.11250765 0.058426104 -1 0 0 2.3054947e-38
0.076200008 0.11202791 0.058004852 1 -0 0 2.3054947e-38
0.0031750002 0.11364435 0.058578759 1 -0 0 2.3054947e-38
0.073025003 0.11317362 0.058254626 -1 0 0 2.3054947e-38
0.076200008 0.11327746 0.05883953 1 -0 0 2.3054947e-38
0 0.11435707 0.05877386 -1 0 0 2.3054947e-38
0.073025003 0.1148804 0.058643475 -1 0 0 2.3054947e-38
0 0.11674747 0.058625918 -1 0 0 2.3054947e-38
0.003175 0.11666505 0.058463167 1 -0 0 2.3054947e-38
0.0031750002 0.11744426 0.058380969 1 -0 0 2.3054947e-38
0 0.11834899 0.058498889 -1 0 0 2.3054947e-38
0.003175 0.11841423 0.058183983 1 -0 0 2.3054947e-38
0.073025003 0.11823139 0.058198407 -1 0 0 2.3054947e-38
0.076200008 0.11846185 0.058499131 1 -0 0 2.3054947e-38
0 0.11925063 0.058767669 -1 0 0 2.3054947e-38
0.076200008 0.11919503 0.0586484 1 -0 0 2.3054947e-38
0 0.12057596 0.058487814 -1 0 0 2.3054947e-38
0.0031750004 0.12154613 0.058672287 1 -0 0 2.3054947e-38
0.073025003 0.12182373 0.058394093 -1 0 0 2.3054947e-38
0.076200008 0.12142651 0.058793139 1 -0 0 2.3054947e-38
0.0031750002 0.12212418 0.058283314 1 -0 0 2.3054947e-38
0.073025003 0.122292 0.058545809 -1 0 0 2.3054947e-38
0.076200008 0.12278635 0.058366138 1 -0 0 2.3054947e-38
0.0031750002 0.12345526 0.058728777 1 -0 0 2.3054947e-38
0.073025003 0.12326613 0.058212519 -1 0 0 2.3054947e-38
0 0.12459536 0.058666673 -1 0 0 2.3054947e-38
0.073024996 0.12418356 0.058644332 -1 0 0 2.3054947e-38
0 0.12540446 0.05884796 -1 0 0 2.3054947e-38
0.0031750002 0.12521461 0.058294363 1 -0 0 2.3054947e-38
0.073025003 0.12550414 0.058532305 -1 0 0 2.3054947e-38
0.076200008 0.12522104 0.058283061 1 -0 0 2.3054947e-38
0 0.12613191 0.058349557 -1 0 0 2.3054947e-38
0.0031750002 0.12677011 0.058316633 1 -0 0 2.3054947e-38
0.073025003 0.1264464 0.058779128 -1 0 0 2.3054947e-38
0 0.12726392 0.058613218 -1 0 0 2.3054947e-38
0.076200016 0.1277833 0.058813121 1 -0 0 2.3054947e-38
0 0.12835488 0.058355451 -1 0 0 2.3054947e-38
0.0031750002 0.12853858 0.058702897 1 -0 0 2.3054947e-38
0.073025003 0.12875296 0.058489103 -1 0 0 2.3054947e-38
0 0.12949952 0.058614176 -1 0 0 2.3054947e-38
0.0031750004 0.12995517 0.058323685 1 -0 0 2.3054947e-38
0.073025003 0.12962829 0.058537416 -1 0 0 2.3054947e-38
0.076200016 0.12998705 0.058260031 1 -0 0 2.3054947e-38
0.0031750004 0.13059083 0.058621578 1 -0 0 2.3054947e-38
0.073025003 0.1306455 0.058430694 -1 0 0 2.3054947e-38
0 0.13111717 0.058762234 -1 0 0 2.3054947e-38
0.003175 0.13190125 0.058318492 1 -0 0 2.3054947e-38
0.073024996 0.13149385 0.058164127 -1 0 0 2.3054947e-38
0.076200008 0.13136178 0.058387335 1 -0 0 2.3054947e-38
0 0.13267326 0.058387447 -1 0 0 2.3054947e-38
0.073025003 0.13201115 0.058211301 -1 0 0 2.3054947e-38
0.076200008 0.13256016 0.058287859 1 -0 0 2.3054947e-38
0.073025003 0.1338104 0.058339737 -1 0 0 2.3054947e-38
0.003175 0.13462549 0.058386121 1 -0 0 2.3054947e-38
0.076200008 0.13434991 0.058512788 1 -0 0 2.3054947e-38
0.0031750002 0.13543619 0.058769546 1 -0 0 2.3054947e-38
0.0031750004 0.13667065 0.058372639 1 -0 0 2.3054947e-38
0.076200001 0.13677606 0.058694534 1 -0 0 2.3054947e-38
0.0031750002 0.13771856 0.058359202 1 -0 0 2.3054947e-38
0.073025003 0.13783735 0.058049761 -1 0 0 2.3054947e-38
0.076200008 0.13746959 0.058254182 1 -0 0 2.3054947e-38
0.0031750004 0.13830096 0.058188777 1 -0 0 2.3054947e-38
0.073025003 0.13889171 0.058661312 -1 0 0 2.3054947e-38
0 0.13936591 0.058612928 -1 0 0 2.3054947e-38
0.0031750002 0.13968484 0.058596455 1 -0 0 2.3054947e-38
0.073025003 0.13957925 0.058117013 -1 0 0 2.3054947e-38
0.076200008 0.13913731 0.058525078 1 -0 0 2.3054947e-38
0 0.14027549 0.058625218 -1 0 0 2.3054947e-38
0.0031750002 0.14073825 0.058937136 1 -0 0 2.3054947e-38
0 0.14124444 0.058628805 -1 0 0 2.3054947e-38
0.073025003 0.14168021 0.058159985 -1 0 0 2.3054947e-38
0 0.1428398 0.058819521 -1 0 0 2.3054947e-38
0.003175 0.14255065 0.058815058 1 -0 0 2.3054947e-38
0.073025003 0.14270891 0.058430538 -1 0 0 2.3054947e-38
0.003175 0.14334974 0.058580238 1 -0 0 2.3054947e-38
0.073025003 0.14302157 0.058854662 -1 0 0 2.3054947e-38
0.003175 0.14413847 0.058519788 1 -0 0 2.3054947e-38
0.073024996 0.14436743 0.058275655 -1 0 0 2.3054947e-38
0.076200008 0.14482884 0.058323123 1 0 0 2.3054947e-38
0 0.1451672 0.058834083 -1 0 0 2.3054947e-38
0 0.14622639 0.058020286 -1 0 0 2.3054947e-38
0.0031750002 0.14674695 0.058353018 1 0 0 2.3054947e-38
0.073025003 0.14674908 0.058298625 -1 0 0 2.3054947e-38
0.073025003 0.14728352 0.058309875 -1 0 0 2.3054947e-38
0.0031750002 0.14863081 0.058706865 1 0 0 2.3054947e-38
0 0.14901789 0.058880601 -1 0 0 2.3054947e-38
0.073025003 0.1496065 0.058830224 -1 0 0 2.3054947e-38
0.076200008 0.14930481 0.058462735 1 0 0 2.3054947e-38
0.076200008 0.15034129 0.058204427 1 0 0 2.3054947e-38
0 0.15162483 0.058724083 -1 0 0 2.3054947e-38
0.0031750002 0.15157531 0.058022693 1 0 0 2.3054947e-38
0.076200008 0.1515874 0.058586985 1 0 0 2.3054947e-38
0 0.15224846 0.058035918 -1 0 0 2.3054947e-38
0.0031750002 0.15214527 0.058399148 1 0 0 2.3054947e-38
0.073025003 0.15245505 0.058216233 -1 0 0 2.3054947e-38
0.076200008 0.15221772 0.058192365 1 0 0 2.3054947e-38
0.0031750004 0.1536378 0.058280345 1 0 0 2.3054947e-38
0.076200008 0.15357739 0.05830035 1 0 0 2.3054947e-38
0 0.15458673 0.05846817 -1 0 0 2.3054947e-38
0.073025003 0.15465222 0.058468144 -1 0 0 2.3054947e-38
0.076200008 0.15434659 0.058630131 1 0 0 2.3054947e-38
0 0.15551293 0.058244906 -1 0 0 2.3054947e-38
0.0031750002 0.15585439 0.058884475 1 0 0 2.3054947e-38
0.076200008 0.15535533 0.058738187 1 0 0 2.3054947e-38
0.076200008 0.15624325 0.058508225 1 0 0 2.3054947e-38
0 0.15709166 0.058736186 -1 0 0 2.3054947e-38
0.0031750002 0.15779959 0.058952693 1 0 0 2.3054947e-38
0.073025003 0.15734294 0.058700528 -1 0 0 2.3054947e-38
0.076200008 0.15744394 0.058602624 1 0 0 2.3054947e-38
0.0031750002 0.15878758 0.058630504 1 0 0 2.3054947e-38
0.073025003 0.15822203 0.058195859 -1 0 0 2.3054947e-38
0.076200008 0.15849698 0.058337644 1 0 0 2.3054947e-38
0 0.15965787 0.058562458 -1 0 0 2.3054947e-38
0.073025003 0.15980764 0.058658838 -1 0 0 2.3054947e-38
0 0.16067874 0.058490198 -1 0 0 2.3054947e-38
0.076200008 0.16024904 0.058742557 1 0 0 2.3054947e-38
0 0.16142182 0.058535352 -1 0 0 2.3054947e-38
0.073025003 0.16130076 0.058487479 -1 0 0 2.3054947e-38
0.076200008 0.16161704 0.058390617 1 0 0 2.3054947e-38
0.076200008 0.1626786 0.058222637 1 0 0 2.3054947e-38
0 0.16319634 0.058243945 -1 0 0 2.3054947e-38
0.0031750002 0.16362028 0.058680672 1 0 0 2.3054947e-38
0.076200008 0.16359949 0.05844238 1 0 0 2.3054947e-38
0.076200016 0.1648507 0.058776088 1 0 0 2.3054947e-38
0.003175 0.16507559 0.058902867 1 0 0 2.3054947e-38
0.076200008 0.16549835 0.058140386 1 0 0 2.3054947e-38
0 0.16675514 0.058445778 -1 0 0 2.3054947e-38
0.073025003 0.16631222 0.058274694 -1 0 0 2.3054947e-38
0.076200001 0.16685541 0.058524985 1 0 0 2.3054947e-38
0 0.16724138 0.058278378 -1 0 0 2.3054947e-38
0.073025003 0.16744743 0.058265891 -1 0 0 2.3054947e-38
0 0.1684345 0.058331087 -1 0 0 2.3054947e-38
0.073025003 0.16800261 0.05813089 -1 0 0 2.3054947e-38
0.076200008 0.16833243 0.058437459 1 0 0 2.3054947e-38
0.073025003 0.16910303 0.058703274 -1 0 0 2.3054947e-38
0.076200008 0.16927177 0.058708932 1 0 0 2.3054947e-38
0 0.17041592 0.058584701 -1 0 0 2.3054947e-38
0.0031750002 0.17017685 0.058312681 1 0 0 2.3054947e-38
0 0.17143449 0.058503523 -1 0 0 2.3054947e-38
0.0031750004 0.17144804 0.05822847 1 0 0 2.3054947e-38
0.073025003 0.171471 0.058812167 -1 0 0 2.3054947e-38
0.076200008 0.17181151 0.058819793 1 0 0 2.3054947e-38
0 0.17210424 0.058424652 -1 0 0 2.3054947e-38
0.076200008 0.17220582 0.058621429 1 0 0 2.3054947e-38
0 0.17341457 0.058474235 -1 0 0 2.3054947e-38
0.0031750002 0.17376347 0.058324009 1 0 0 2.3054947e-38
0.073025003 0.17372061 0.058797441 -1 0 0 2.3054947e-38
0.076200008 0.17322743 0.05823468 1 0 0 2.3054947e-38
0.076200001 0.1746439 0.05851547 1 0 0 2.3054947e-38
0 0.17525114 0.058319174 -1 0 0 2.3054947e-38
0.0031750004 0.1750737 0.05858333 1 0 0 2.3054947e-38
0.073025003 0.1753061 0.058208808 -1 0 0 2.3054947e-38
0.076200008 0.17583457 0.05863687 1 0 0 2.3054947e-38
0.0014119211 0.17621252 0.058129117 -0 1 0 2.3054947e-38
0.0031750002 0.17612873 0.058888577 1 0 0 2.3054947e-38
0.074697442 0.17621252 0.058449015 0 0.99999994 0 2.3054947e-38
0.075463161 0.17621252 0.058675259 0 0.99999994 0 2.3054947e-38
6.0658433e-05 0 0.059633542 0 -1 0 2.3054947e-38
0.0017004831 0 0.059656803 0 -1 0 2.3054947e-38
0.0028496746 0 0.059677083 0 -1 0 2.3054947e-38
0.0031750002 0.00064529304 0.059247382 1 -0 0 2.3054947e-38
0.073229849 0 0.059984285 0 -0.99999994 0 2.3054947e-38
0.074335739 0 0.059216272 -0 -0.99999994 -0 2.3054947e-38
0.075138249 0 0.059757985 -0 -0.99999994 -0 2.3054947e-38
0 0.0016802789 0.059619565 -1 0 0 2.3054947e-38
0.0031750002 0.002376419 0.05947803 1 -0 0 2.3054947e-38
0.073025003 0.0023129391 0.059431911 -1 0 0 2.3054947e-38
0 0.0031471057 0.059351869 -1 0 0 2.3054947e-38
0.073025003 0.0035621303 0.059200916 -1 0 0 2.3054947e-38
0.076200008 0.0032115083 0.059424151 1 -0 0 2.3054947e-38
0.0031750002 0.0040837494 0.059892219 1 -0 0 2.3054947e-38
0.073025003 0.004515951 0.059585992 -1 0 0 2.3054947e-38
0.076200008 0.0046933903 0.05995068 1 -0 0 2.3054947e-38
0.0031750002 0.0053655715 0.059800889 1 -0 0 2.3054947e-38
0.073025003 0.0058294884 0.059221469 -1 0 0 2.3054947e-38
0 0.0064125508 0.059208989 -1 0 0 2.3054947e-38
0.073025003 0.0065894891 0.059392102 -1 0 0 2.3054947e-38
0.076200008 0.0062275822 0.059465218 1 -0 0 2.3054947e-38
0.073025003 0.0073714135 0.059203278 -1 0 0 2.3054947e-38
0.076200008 0.0072392058 0.059612274 1 -0 0 2.3054947e-38
0.0031750002 0.0087295752 0.059951011 1 -0 0 2.3054947e-38
0.073025003 0.0088602519 0.059313796 -1 0 0 2.3054947e-38
0.076200008 0.0086263213 0.059391253 1 -0 0 2.3054947e-38
0 0.0096294088 0.059409831 -1 0 0 2.3054947e-38
0.0031750004 0.0095133092 0.059697416 1 -0 0 2.3054947e-38
0.073025003 0.0095253708 0.059259877 -1 0 0 2.3054947e-38
0.076200008 0.0095916474 0.059390977 1 -0 0 2.3054947e-38
0.0031750002 0.010879407 0.059354793 1 -0 0 2.3054947e-38
0.073025003 0.010786572 0.059122507 -1 0 0 2.3054947e-38
0.0031750004 0.011187546 0.059820645 1 -0 0 2.3054947e-38
0.076200008 0.011665803 0.059792995 1 -0 0 2.3054947e-38
0 0.012012341 0.059694108 -1 0 0 2.3054947e-38
0.073025003 0.012264015 0.059728216 -1 0 0 2.3054947e-38
0.0031750002 0.013200491 0.05979941 1 -0 0 2.3054947e-38
0.073025003 0.013238493 0.059381448 -1 0 0 2.3054947e-38
0 0.014302567 0.059337929 -1 0 0 2.3054947e-38
0.0031750002 0.014473202 0.059615437 1 -0 0 2.3054947e-38
0.076200008 0.015448511 0.05917161 1 -0 0 2.3054947e-38
0 0.017041773 0.059784316 -1 0 0 2.3054947e-38
0.0031750002 0.017062396 0.059302785 1 -0 0 2.3054947e-38
0.073025003 0.017472778 0.059046745 -1 0 0 2.3054947e-38
0.076200008 0.017610881 0.059230767 1 -0 0 2.3054947e-38
0 0.018349413 0.059520841 -1 0 0 2.3054947e-38
0.073025003 0.018487651 0.059382685 -1 0 0 2.3054947e-38
0.076200008 0.01864554 0.059929684 1 -0 0 2.3054947e-38
0 0.019397264 0.059100892 -1 0 0 2.3054947e-38
0.0031750002 0.019314051 0.059373498 1 -0 0 2.3054947e-38
0.073025003 0.019498684 0.059859641 -1 0 0 2.3054947e-38
0.076200008 0.020124435 0.059565708 1 -0 0 2.3054947e-38
0 0.021937266 0.059158608 -1 0 0 2.3054947e-38
0.0031750002 0.021334557 0.05953211 1 -0 0 2.3054947e-38
0 0.022266425 0.0599172 -1 0 0 2.3054947e-38
0.073025003 0.022573641 0.05964518 -1 0 0 2.3054947e-38
0.076200008 0.022694403 0.059246562 1 -0 0 2.3054947e-38
0 0.023370704 0.059636403 -1 0 0 2.3054947e-38
0.0031750002 0.023342203 0.059321012 1 -0 0 2.3054947e-38
0.076200008 0.02339375 0.059252068 1 -0 0 2.3054947e-38
0 0.024528064 0.05964433 -1 0 0 2.3054947e-38
0.0031750002 0.02464948 0.059804462 1 -0 0 2.3054947e-38
0 0.025028877 0.05931532 -1 0 0 2.3054947e-38
0.0031750002 0.025325127 0.059066392 1 -0 0 2.3054947e-38
0.073025003 0.025590193 0.059569977 -1 0 0 2.3054947e-38
0.076200008 0.0251128 0.059365101 1 -0 0 2.3054947e-38
0 0.026751231 0.059684634 -1 0 0 2.3054947e-38
0.0031750002 0.026546324 0.059985068 1 -0 0 2.3054947e-38
0.073025003 0.026296735 0.059361495 -1 0 0 2.3054947e-38
0 0.027012005 0.059599701 -1 0 0 2.3054947e-38
0.0031750004 0.027373523 0.059349246 1 -0 0 2.3054947e-38
0.076200008 0.027628614 0.059706666 1 -0 0 2.3054947e-38
0 0.028342191 0.05938033 -1 0 0 2.3054947e-38
0.003175 0.028643349 0.059127189 1 -0 0 2.3054947e-38
0.076200008 0.028518073 0.059822489 1 -0 0 2.3054947e-38
0 0.029763073 0.05994248 -1 0 0 2.3054947e-38
0.0031750002 0.029205292 0.059657395 1 -0 0 2.3054947e-38
0.073025003 0.029757425 0.059238277 -1 0 0 2.3054947e-38
0.076200008 0.029783666 0.059192799 1 -0 0 2.3054947e-38
0 0.030431425 0.059028335 -1 0 0 2.3054947e-38
0.003175 0.030475013 0.059071973 1 -0 0 2.3054947e-38
0.073025003 0.030667122 0.059613116 -1 0 0 2.3054947e-38
0.0031750002 0.031322826 0.059656922 1 -0 0 2.3054947e-38
0.073025003 0.031869706 0.059117768 -1 0 0 2.3054947e-38
0.076200008 0.031795681 0.059036829 1 -0 0 2.3054947e-38
0 0.032779507 0.059819981 -1 0 0 2.3054947e-38
0.073025003 0.032700963 0.059248157 -1 0 0 2.3054947e-38
0 0.033379048 0.059573129 -1 0 0 2.3054947e-38
0.0031750004 0.033525877 0.059909284 1 -0 0 2.3054947e-38
0.076200008 0.033693738 0.059702333 1 -0 0 2.3054947e-38
0 0.034454331 0.059682265 -1 0 0 2.3054947e-38
0.0031750002 0.034433432 0.059340086 1 -0 0 2.3054947e-38
0.076200008 0.034962274 0.059510559 1 -0 0 2.3054947e-38
0 0.035305023 0.059912678 -1 0 0 2.3054947e-38
0.0031750004 0.035497893 0.059541423 1 -0 0 2.3054947e-38
0.073025003 0.035365887 0.059205405 -1 0 0 2.3054947e-38
0.0031750002 0.036195543 0.059019126 1 -0 0 2.3054947e-38
0.073025003 0.036091838 0.059423305 -1 0 0 2.3054947e-38
0.0031750002 0.037164196 0.059201475 1 -0 0 2.3054947e-38
0.076200008 0.037461307 0.05980105 1 -0 0 2.3054947e-38
0.0031750002 0.038828053 0.059769355 1 -0 0 2.3054947e-38
0.073025003 0.038861949 0.059589222 -1 0 0 2.3054947e-38
0.076200008 0.038233474 0.05979972 1 -0 0 2.3054947e-38
0 0.03979804 0.059021708 -1 0 0 2.3054947e-38
0.0031750002 0.039621774 0.059344556 1 -0 0 2.3054947e-38
0.076200008 0.039750986 0.059472613 1 -0 0 2.3054947e-38
0 0.040591396 0.059774153 -1 0 0 2.3054947e-38
0.073025003 0.040339001 0.05968086 -1 0 0 2.3054947e-38
0.076200008 0.040448628 0.059768744 1 -0 0 2.3054947e-38
0 0.041895967 0.059406769 -1 0 0 2.3054947e-38
0.0031750004 0.041289032 0.059268981 1 -0 0 2.3054947e-38
0.073025003 0.041320864 0.059915412 -1 0 0 2.3054947e-38
0.076200008 0.041557882 0.059176065 1 -0 0 2.3054947e-38
0 0.042454794 0.059317693 -1 0 0 2.3054947e-38
0.0031750004 0.042368647 0.059374761 1 -0 0 2.3054947e-38
0.073025003 0.042387407 0.059858587 -1 0 0 2.3054947e-38
0.0031750004 0.043645885 0.059647322 1 -0 0 2.3054947e-38
0.073025003 0.043660048 0.059508227 -1 0 0 2.3054947e-38
0.076200008 0.043621525 0.059943154 1 -0 0 2.3054947e-38
0 0.044498254 0.05945427 -1 0 0 2.3054947e-38
0.0031750002 0.044147331 0.059621293 1 -0 0 2.3054947e-38
0.073025003 0.044499505 0.059568949 -1 0 0 2.3054947e-38
0 0.045338016 0.059430193 -1 0 0 2.3054947e-38
0.073025003 0.045378696 0.059540771 -1 0 0 2.3054947e-38
0.076200008 0.045090314 0.059539381 1 -0 0 2.3054947e-38
0 0.046671107 0.059736528 -1 0 0 2.3054947e-38
0.073025003 0.046743255 0.059293922 -1 0 0 2.3054947e-38
0.0031750002 0.047908485 0.05975337 1 -0 0 2.3054947e-38
0 0.048310269 0.059254985 -1 0 0 2.3054947e-38
0.0031750002 0.048238859 0.05941375 1 -0 0 2.3054947e-38
0.073025003 0.048285276 0.059977889 -1 0 0 2.3054947e-38
0 0.04909803 0.059661403 -1 0 0 2.3054947e-38
0.0031750004 0.049014907 0.059815444 1 -0 0 2.3054947e-38
0.073025003 0.049612589 0.059349813 -1 0 0 2.3054947e-38
0.073025003 0.050111532 0.059149299 -1 0 0 2.3054947e-38
0.076200008 0.05047759 0.059669565 1 -0 0 2.3054947e-38
0 0.051385485 0.059089419 -1 0 0 2.3054947e-38
0.0031750002 0.051276956 0.059555963 1 -0 0 2.3054947e-38
0.073025003 0.05165093 0.059341203 -1 0 0 2.3054947e-38
0.076200008 0.051285673 0.059053376 1 -0 0 2.3054947e-38
0.073025003 0.052531868 0.05962836 -1 0 0 2.3054947e-38
0.076200008 0.05288868 0.059302043 1 -0 0 2.3054947e-38
0.0031750002 0.053948596 0.059623208 1 -0 0 2.3054947e-38
0.073025003 0.053664878 0.059401579 -1 0 0 2.3054947e-38
0.076200008 0.053490937 0.059466235 1 -0 0 2.3054947e-38
0 0.054439653 0.059954442 -1 0 0 2.3054947e-38
0.003175 0.0540745 0.059641019 1 -0 0 2.3054947e-38
0.073025003 0.0543455 0.059280924 -1 0 0 2.3054947e-38
0 0.055440973 0.059135433 -1 0 0 2.3054947e-38
0.073025003 0.055160966 0.059718587 -1 0 0 2.3054947e-38
0.076200008 0.055705491 0.059474416 1 -0 0 2.3054947e-38
0 0.056594566 0.059493449 -1 0 0 2.3054947e-38
0.073025003 0.056504451 0.059253603 -1 0 0 2.3054947e-38
0 0.057103228 0.059822116 -1 0 0 2.3054947e-38
