# .PCD v0.7 - Point Cloud Data file format
VERSION 0.7
FIELDS x y z normal_x normal_y normal_z curvature
SIZE 4 4 4 4 4 4 4
TYPE F F F F F F F
COUNT 1 1 1 1 1 1 1
WIDTH 679
HEIGHT 1
VIEWPOINT 0 0 0 1 0 0 0
POINTS 679
DATA ascii
0.32894331 0.30416489 0.16430512 0.13072224 0.99082786 0.034233805 0
0.2751869 0.30568129 0.16485484 -0.99141699 0.13071479 0.0024652458 0
0.31542662 0.30592978 0.16483653 0.13072224 0.99082786 0.034233805 0
0.31875068 0.30551887 0.16403604 0.13072224 0.99082786 0.034233805 0
0.32105443 0.30520859 0.16422017 0.13072224 0.99082786 0.034233805 0
0.27535254 0.30694121 0.1646648 -0.99141699 0.13071479 0.0024652458 0
0.30773267 0.30696237 0.16432959 0.13072224 0.9908278 0.034233801 0
0.3090744 0.3067711 0.16474281 0.13072224 0.99082786 0.034233805 0
0.31175315 0.30641332 0.16486856 0.13072224 0.99082786 0.034233805 0
0.31388134 0.30615029 0.16435504 0.13072224 0.99082786 0.034233805 0
0.31407893 0.30612105 0.16444819 0.13072224 0.99082786 0.034233805 0
0.27547342 0.30785218 0.16497689 -0.99141699 0.13071479 0.0024652458 0
0.30052298 0.30791301 0.16434626 0.13072224 0.99082786 0.034233805 0
0.30150998 0.3077656 0.16484389 0.13072224 0.99082786 0.034233805 0
0.30316061 0.30756986 0.16420627 0.13072224 0.99082786 0.034233805 0
0.30513 0.30731323 0.16411363 0.13072224 0.99082786 0.034233805 0
0.30614096 0.30718136 0.16406977 0.13072224 0.99082786 0.034233805 0
0.30719894 0.30702502 0.16455418 0.13072224 0.99082786 0.034233805 0
0.27550703 0.30811188 0.16473173 -0.99141699 0.13071479 0.0024652458 0
0.29280156 0.3089276 0.16446544 0.13072224 0.99082786 0.034233805 0
0.29388213 0.30879158 0.16427551 0.13072224 0.9908278 0.034233801 0
0.29470396 0.30868381 0.16425614 0.13072224 0.99082786 0.034233805 0
0.29665077 0.30841988 0.1644613 0.13072224 0.99082786 0.034233805 0
0.29710153 0.3083511 0.16473144 0.13072224 0.99082786 0.034233805 0
0.29846328 0.30816746 0.16484626 0.13072224 0.9908278 0.034233801 0
0.29941213 0.30805066 0.1646035 0.13072224 0.99082786 0.034233805 0
0.2860876 0.30982441 0.16414627 0.13072224 0.99082786 0.034233805 0
0.28719133 0.30965763 0.16475815 0.13072224 0.99082786 0.034233805 0
0.28849804 0.309495 0.16447532 0.13072224 0.9908278 0.034233801 0
0.29060867 0.30921659 0.16447426 0.13072224 0.9908278 0.034233801 0
0.27581149 0.31043223 0.16413809 -0.99141699 0.13071479 0.0024652458 0
0.2803705 0.31057405 0.16427942 0.13072224 0.99082786 0.034233805 0
0.28118646 0.31045613 0.1645778 0.13072224 0.9908278 0.034233801 0
0.28263661 0.31025589 0.16483471 0.13072224 0.99082786 0.034233805 0
0.28357166 0.31014293 0.16453317 0.13072224 0.99082786 0.034233805 0
0.2842586 0.31006202 0.16425347 0.13072224 0.99082786 0.034233805 0
0.27589202 0.31103227 0.16470999 -0.99141699 0.13071479 0.0024652458 0
0.36151439 0.19888726 0.16588834 -0.13072233 -0.99082786 -0.034233663 0
0.3535974 0.19993705 0.16573559 -0.13072231 -0.9908278 -0.034233663 0
0.3548739 0.19978681 0.1652098 -0.13072233 -0.99082786 -0.034233663 0
0.35671496 0.19953378 0.16550329 -0.13072233 -0.99082786 -0.034233663 0
0.35775352 0.19938894 0.16572961 -0.13072233 -0.99082786 -0.034233663 0
0.35849613 0.19930321 0.16537473 -0.13072233 -0.99082786 -0.034233663 0
0.35958755 0.19915865 0.16539156 -0.13072233 -0.99082786 -0.034233663 0
0.3493185 0.20050552 0.1656214 -0.13072233 -0.99082786 -0.034233663 0
0.35161406 0.20021588 0.16523834 -0.13072233 -0.99082786 -0.034233663 0
0.33811805 0.20198931 0.16544576 -0.13072233 -0.99082786 -0.034233663 0
0.33918673 0.20185755 0.16517819 -0.13072233 -0.99082786 -0.034233663 0
0.34150285 0.20154241 0.16545525 -0.13072233 -0.99082786 -0.034233663 0
0.34250364 0.20141201 0.1654081 -0.13072233 -0.99082786 -0.034233663 0
0.34354234 0.20128322 0.16516891 -0.13072233 -0.99082786 -0.034233663 0
0.3444837 0.20115502 0.16528456 -0.13072231 -0.9908278 -0.034233663 0
0.33118075 0.20290607 0.16540202 -0.13072233 -0.99082786 -0.034233663 0
0.33252782 0.2027328 0.16527313 -0.13072233 -0.99082786 -0.034233663 0
0.33330691 0.20263806 0.16503979 -0.13072233 -0.99082786 -0.034233663 0
0.33789045 0.20203172 0.16508734 -0.13072233 -0.99082786 -0.034233663 0
0.32303184 0.20397496 0.1655813 -0.13072233 -0.99082786 -0.034233663 0
0.3240273 0.20386006 0.16510597 -0.13072233 -0.99082786 -0.034233663 0
0.32770908 0.20336753 0.16530226 -0.13072233 -0.99082786 -0.034233663 0
0.32893384 0.20320645 0.16528764 -0.13072233 -0.99082786 -0.034233663 0
0.36260188 0.20365414 0.16532451 0.99141693 -0.13071509 -0.0024652472 0
0.31655979 0.20482326 0.16574299 -0.13072233 -0.99082786 -0.034233663 0
0.31711638 0.20476514 0.1653 -0.13072233 -0.99082786 -0.034233663 0
0.31980914 0.2043999 0.16558845 -0.13072233 -0.99082786 -0.034233663 0
0.36272106 0.20455009 0.16575538 0.99141693 -0.13071509 -0.0024652472 0
0.30856901 0.20589602 0.16520748 -0.13072233 -0.99082786 -0.034233663 0
0.30921713 0.20580128 0.16547404 -0.13072233 -0.99082786 -0.034233663 0
0.31044692 0.20563361 0.16563082 -0.13072233 -0.99082786 -0.034233663 0
0.31154081 0.20547953 0.16591406 -0.13072233 -0.99082786 -0.034233663 0
0.31251007 0.20535913 0.16569746 -0.13072233 -0.99082786 -0.034233663 0
0.31391639 0.20517778 0.16557582 -0.13072233 -0.99082786 -0.034233663 0
0.36281413 0.20525348 0.16588217 0.99141693 -0.13071509 -0.0024652472 0
0.30353785 0.20655577 0.16532364 -0.13072233 -0.99082786 -0.034233663 0
0.3043642 0.20645139 0.16518876 -0.13072233 -0.99082786 -0.034233663 0
0.30633247 0.20619126 0.16520232 -0.13072233 -0.99082786 -0.034233663 0
0.29375756 0.20783766 0.16556822 -0.13072231 -0.9908278 -0.034233663 0
0.29412612 0.20778425 0.16570584 -0.13072233 -0.99082786 -0.034233663 0
0.29526585 0.20763671 0.1656241 -0.13072233 -0.99082786 -0.034233663 0
0.29653138 0.2074718 0.16556479 -0.13072233 -0.99082786 -0.034233663 0
0.297151 0.20740435 0.16515185 -0.13072233 -0.99082786 -0.034233663 0
0.28653395 0.20880133 0.16526005 -0.13072233 -0.99082786 -0.034233663 0
0.28868628 0.20849617 0.16587341 -0.13072233 -0.99082786 -0.034233663 0
0.28968865 0.20837809 0.16546322 -0.13072231 -0.9908278 -0.034233663 0
0.29081273 0.20822778 0.16552071 -0.13072233 -0.99082786 -0.034233663 0
0.36318636 0.20808919 0.16521476 0.99141693 -0.13071509 -0.0024652472 0
0.27827209 0.20987071 0.16585717 -0.13072237 -0.9908278 -0.034233697 0
0.27965859 0.20969169 0.1657442 -0.13072237 -0.9908278 -0.034233697 0
0.28060728 0.20958604 0.16517943 -0.13072237 -0.9908278 -0.034233697 0
0.28296143 0.20925559 0.16575406 -0.13072233 -0.99082786 -0.034233663 0
0.28435129 0.20907885 0.16556212 -0.13072233 -0.99082786 -0.034233663 0
0.36331362 0.20905645 0.16510829 0.99141693 -0.13071509 -0.0024652472 0
0.27046186 0.21090961 0.16561201 -0.13072237 -0.9908278 -0.034233697 0
0.27149543 0.21079075 0.16510449 -0.13072237 -0.9908278 -0.034233697 0
0.27364427 0.21049336 0.16550738 -0.13072237 -0.9908278 -0.034233697 0
0.276811 0.21007566 0.16550441 -0.13072237 -0.9908278 -0.034233697 0
0.26665425 0.21142322 0.16528568 -0.13072237 -0.9908278 -0.034233697 0
0.26804534 0.21124163 0.16522951 -0.13072237 -0.9908278 -0.034233697 0
0.26973873 0.21100216 0.1656948 -0.13072237 -0.9908278 -0.034233697 0
0.36361989 0.21136925 0.16566104 0.99141693 -0.13071509 -0.0024652472 0
0.26283735 0.21200615 0.16535112 -0.99141693 0.1307151 0.0024649515 0
0.36374474 0.21232824 0.16501026 0.99141693 -0.13071509 -0.0024652472 0
0.2629897 0.21315107 0.16591083 -0.99141693 0.1307151 0.0024649515 0
0.36384225 0.21306705 0.16504417 0.99141693 -0.13071509 -0.0024652472 0
0.2631931 0.21470623 0.1652444 -0.99141693 0.1307151 0.0024649515 0
0.36404416 0.21458501 0.16576725 0.99141693 -0.13071509 -0.0024652472 0
0.36415789 0.21545118 0.1655592 0.99141693 -0.13071509 -0.0024652472 0
0.26343915 0.21657065 0.16534762 -0.99141693 0.1307151 0.0024649515 0
0.36430854 0.2165931 0.1656175 0.99141693 -0.13071509 -0.0024652472 0
0.26350057 0.21703096 0.16562575 -0.99141693 0.1307151 0.0024649515 0
0.36443612 0.21756721 0.16527227 0.99141693 -0.13071509 -0.0024652472 0
0.26370621 0.21859276 0.16552119 -0.99141693 0.1307151 0.0024649515 0
0.2639128 0.2201637 0.1653116 -0.99141693 0.1307151 0.0024649515 0
0.26401982 0.2209678 0.16570862 -0.99141693 0.1307151 0.0024649515 0
0.26412934 0.22180283 0.16548246 -0.99141693 0.1307151 0.0024649515 0
0.36496246 0.22155797 0.1653493 0.99141693 -0.13071479 -0.0024649198 0
0.26424679 0.22269191 0.1655713 -0.99141693 0.1307151 0.0024649515 0
0.36510128 0.22259992 0.16591173 0.99141693 -0.13071479 -0.0024649198 0
0.26455688 0.225052 0.16514102 -0.99141693 0.1307151 0.0024649515 0
0.36562109 0.22654997 0.16552512 0.99141699 -0.1307148 -0.00246492 0
0.26481819 0.22702029 0.16585436 -0.99141693 0.1307151 0.0024649515 0
0.36572462 0.2273448 0.16500968 0.99141693 -0.13071479 -0.0024649198 0
0.26495069 0.22802967 0.16561803 -0.99141693 0.1307151 0.0024649515 0
0.36587811 0.22850096 0.16543037 0.99141693 -0.13071479 -0.0024649198 0
0.26517269 0.22971256 0.16566646 -0.99141693 0.1307151 0.0024649515 0
0.26532587 0.23086822 0.16599645 -0.99141693 0.1307151 0.0024649515 0
0.36613798 0.23047255 0.16539377 0.99141699 -0.1307148 -0.00246492 0
0.26537746 0.23127784 0.16502117 -0.99141693 0.1307151 0.0024649515 0
0.26553875 0.2324899 0.16561094 -0.99141693 0.1307151 0.0024649515 0
0.36638233 0.2323288 0.16524462 0.99141693 -0.13071479 -0.0024649198 0
0.26586419 0.23495291 0.16590175 -0.99141693 0.1307151 0.0024649515 0
0.36661348 0.2340695 0.16590928 0.99141693 -0.13071479 -0.0024649198 0
0.26595098 0.23562188 0.16533571 -0.99141693 0.1307151 0.0024649515 0
0.36676821 0.2352511 0.16547783 0.99141693 -0.13071479 -0.0024649198 0
0.36690968 0.23632964 0.16519168 0.99141693 -0.13071479 -0.0024649198 0
0.26625639 0.23792878 0.16583934 -0.99141693 0.1307151 0.0024649515 0
0.26627976 0.23811039 0.16561109 -0.99141693 0.1307151 0.0024649515 0
0.26643789 0.23931366 0.16540381 -0.99141693 0.1307151 0.0024649515 0
0.36730725 0.23933956 0.16547984 0.99141693 -0.13071479 -0.0024649198 0
0.26661807 0.24067503 0.16568047 -0.99141693 0.1307151 0.0024649515 0
0.36742347 0.24021524 0.16579053 0.99141693 -0.13071479 -0.0024649198 0
0.26671845 0.24143669 0.16564798 -0.99141693 0.1307151 0.0024649515 0
0.26697567 0.24339029 0.16551782 -0.99141693 0.1307151 0.0024649515 0
0.26703525 0.24385093 0.16505285 -0.99141693 0.1307151 0.0024649515 0
0.36779273 0.24302016 0.16555138 0.99141693 -0.13071479 -0.0024649198 0
0.26712537 0.24452001 0.16581151 -0.99141693 0.1307151 0.0024649515 0
0.36793625 0.2441119 0.16538678 0.99141693 -0.13071479 -0.0024649198 0
0.36802357 0.24476784 0.16572653 0.99141693 -0.13071479 -0.0024649198 0
0.26727781 0.24568999 0.16508666 -0.99141693 0.1307151 0.0024649515 0
0.36810943 0.24543145 0.16506502 0.99141693 -0.13071479 -0.0024649198 0
0.36824307 0.2464366 0.16552061 0.99141693 -0.13071479 -0.0024649198 0
0.26759776 0.24811457 0.16519469 -0.99141693 0.1307151 0.0024649515 0
0.36845404 0.24804643 0.16501047 0.99141693 -0.13071479 -0.0024649198 0
0.26782298 0.24980897 0.16593291 -0.99141693 0.1307151 0.0024649515 0
0.2679098 0.25047588 0.16547355 -0.99141693 0.1307151 0.0024649515 0
0.36874145 0.25022638 0.1650067 0.99141693 -0.13071479 -0.0024649198 0
0.26800179 0.25116587 0.16588843 -0.99141693 0.1307151 0.0024649515 0
0.3689419 0.25173664 0.16553384 0.99141693 -0.13071479 -0.0024649198 0
0.26821777 0.25281739 0.16516818 -0.99141693 0.1307151 0.0024649515 0
0.3689788 0.25201631 0.16554286 0.99141693 -0.13071479 -0.0024649198 0
0.36909443 0.2529 0.16518839 0.99141693 -0.13071479 -0.0024649198 0
0.26832628 0.25363284 0.16558422 -0.99141693 0.1307151 0.0024649515 0
0.36913332 0.25318787 0.16557069 0.99141693 -0.13071479 -0.0024649198 0
0.26844305 0.25452226 0.16537735 -0.99141693 0.1307151 0.0024649515 0
0.26854569 0.25529361 0.165766 -0.99141693 0.1307151 0.0024649515 0
0.36943874 0.25550786 0.1653605 0.99141699 -0.1307148 -0.00246492 0
0.26866609 0.25621095 0.16554105 -0.99141693 0.1307151 0.0024649515 0
0.36955237 0.25637007 0.16535005 0.99141693 -0.13071479 -0.0024649198 0
0.36965561 0.25714934 0.16555697 0.99141693 -0.13071479 -0.0024649198 0
0.36982867 0.25845617 0.16587263 0.99141693 -0.13071479 -0.0024649198 0
0.26914757 0.25987059 0.1651316 -0.99141693 0.1307151 0.0024649515 0
0.36998266 0.25963292 0.16539937 0.99141693 -0.13071479 -0.0024649198 0
0.2691704 0.26004237 0.16519108 -0.99141693 0.1307151 0.0024649515 0
0.26935479 0.26142734 0.16591001 -0.99141693 0.1307151 0.0024649515 0
0.37021351 0.26138201 0.16548632 0.99141699 -0.1307148 -0.00246492 0
0.37054232 0.26387948 0.16530769 0.99141693 -0.13071479 -0.0024649198 0
0.26977566 0.2646302 0.16535851 -0.99141693 0.1307151 0.0024649515 0
0.37061802 0.26445341 0.16530976 0.99141693 -0.13071479 -0.0024649198 0
0.27002269 0.26650095 0.16549993 -0.99141693 0.1307151 0.0024649515 0
0.37091121 0.26667547 0.16539812 0.99141693 -0.13071479 -0.0024649198 0
0.37099811 0.26733762 0.16524757 0.99141693 -0.13071479 -0.0024649198 0
0.37105712 0.26777768 0.16564193 0.99141699 -0.1307148 -0.00246492 0
0.27028307 0.26847088 0.16575341 -0.99141693 0.1307151 0.0024649515 0
0.37110588 0.26814926 0.16555792 0.99141693 -0.13071479 -0.0024649198 0
0.27039906 0.26935133 0.1657159 -0.99141693 0.1307151 0.0024649515 0
0.37127262 0.26941535 0.16547702 0.99141693 -0.13071479 -0.0024649198 0
0.27051604 0.27024463 0.1654045 -0.99141693 0.1307151 0.0024649515 0
0.27072969 0.27185678 0.16583899 -0.99141693 0.1307151 0.0024649515 0
0.371521 0.27130342 0.16524844 0.99141693 -0.13071479 -0.0024649198 0
0.27085015 0.27277383 0.16566265 -0.99141693 0.1307151 0.0024649515 0
0.3716206 0.27204782 0.16582602 0.99141693 -0.13071479 -0.0024649198 0
0.27093595 0.27342424 0.16566867 -0.99141693 0.1307151 0.0024649515 0
0.3718718 0.27395368 0.16580325 0.99141693 -0.13071479 -0.0024649198 0
0.27111045 0.27475113 0.16549863 -0.99141693 0.1307151 0.0024649515 0
0.37193531 0.27443534 0.16579135 0.99141693 -0.13071479 -0.0024649198 0
0.37212062 0.27584663 0.16549248 0.99141693 -0.13071479 -0.0024649198 0
0.27134371 0.27651486 0.16578674 -0.99141693 0.1307151 0.0024649515 0
0.37220886 0.27651501 0.16554004 0.99141693 -0.13071479 -0.0024649198 0
0.27146265 0.27741936 0.16565458 -0.99141693 0.13071512 0.0024649517 0
0.37234282 0.27753434 0.16536777 0.99141699 -0.1307148 -0.00246492 0
0.27157253 0.27825895 0.16532686 -0.99141693 0.1307151 0.0024649515 0
0.37243214 0.27820468 0.16574964 0.99141693 -0.13071479 -0.0024649198 0
0.27175492 0.27963883 0.1655167 -0.99141693 0.1307151 0.0024649515 0
0.37260565 0.2795262 0.1654522 0.99141699 -0.1307148 -0.00246492 0
0.27190223 0.28075957 0.16532749 -0.99141693 0.1307151 0.0024649515 0
0.37285298 0.28140134 0.16549209 0.99141693 -0.13071479 -0.0024649198 0
0.27216569 0.28275767 0.16534366 -0.99141693 0.1307151 0.0024649515 0
0.3731519 0.2836628 0.16578043 0.99141693 -0.13071479 -0.0024649198 0
0.27258983 0.28597313 0.16543056 -0.99141693 0.1307151 0.0024649515 0
0.37356132 0.28676659 0.1658846 0.99141693 -0.13071479 -0.0024649198 0
0.27284768 0.28791815 0.16597679 -0.99141693 0.1307151 0.0024649515 0
0.3736206 0.28722769 0.16526894 0.99141693 -0.13071479 -0.0024649198 0
0.27297702 0.28890231 0.16581059 -0.99141693 0.1307151 0.0024649515 0
0.27308685 0.28974026 0.16555165 -0.99141699 0.13071479 0.0024652458 0
0.27321231 0.29069281 0.16549173 -0.99141699 0.13071479 0.0024652458 0
0.37408563 0.29074758 0.16565098 0.99141693 -0.13071479 -0.0024649198 0
0.27333859 0.29165879 0.16506055 -0.99141699 0.13071479 0.0024652458 0
0.37422216 0.29178232 0.16567603 0.99141693 -0.13071479 -0.0024649198 0
0.3742674 0.2921311 0.16539682 0.99141693 -0.13071479 -0.0024649198 0
0.27357075 0.29341429 0.16534373 -0.99141699 0.13071479 0.0024652458 0
0.37444043 0.2934384 0.16566506 0.99141699 -0.1307148 -0.00246492 0
0.27372152 0.29455888 0.16529423 -0.99141699 0.13071479 0.0024652458 0
0.37465566 0.2950806 0.16514006 0.99141693 -0.13071479 -0.0024649198 0
0.27392837 0.2961235 0.16551682 -0.99141699 0.13071479 0.0024652458 0
0.37481505 0.29627988 0.16565396 0.99141693 -0.13071479 -0.0024649198 0
0.27412277 0.29759929 0.16544281 -0.99141699 0.13071479 0.0024652458 0
0.37498748 0.29759532 0.16523759 0.99141693 -0.13071479 -0.0024649198 0
0.36788651 0.29897028 0.16594611 0.13072249 0.9908278 0.034233559 0
0.36825526 0.29893246 0.16563305 0.13072249 0.9908278 0.034233559 0
0.36990565 0.29872853 0.1652339 0.13072249 0.9908278 0.034233559 0
0.37001398 0.29870772 0.16542189 0.13072249 0.9908278 0.034233559 0
0.37162381 0.29848623 0.16568564 0.13072249 0.9908278 0.034233559 0
0.37289679 0.29832682 0.1654385 0.13072249 0.9908278 0.034233559 0
0.37352604 0.29825744 0.16504379 0.13072249 0.9908278 0.034233559 0
0.37479931 0.29805773 0.16596113 0.13072249 0.9908278 0.034233559 0
0.2744166 0.29982597 0.16554502 -0.99141699 0.13071479 0.0024652458 0
0.36174291 0.29979002 0.16568059 0.13072249 0.9908278 0.034233559 0
0.36228839 0.29973865 0.16508485 0.13072249 0.9908278 0.034233559 0
0.363493 0.29956263 0.16557899 0.13072249 0.9908278 0.034233559 0
0.27452704 0.30066264 0.16559544 -0.99141699 0.13071479 0.0024652458 0
0.35382563 0.30085301 0.16514641 0.13072249 0.9908278 0.034233559 0
0.35532159 0.30064178 0.16554831 0.13072249 0.9908278 0.034233559 0
0.35704988 0.3004005 0.16593187 0.13072249 0.9908278 0.034233559 0
0.35885417 0.30019328 0.16503885 0.13072249 0.9908278 0.034233559 0
0.3594436 0.30009907 0.16551559 0.13072249 0.9908278 0.034233559 0
0.27460766 0.3012771 0.16543241 -0.99141699 0.13071479 0.0024652458 0
0.34559289 0.30192101 0.16567072 0.13072224 0.99082786 0.034233805 0
0.34654224 0.30180904 0.16528812 0.13072224 0.99082786 0.034233805 0
0.34735927 0.30170274 0.16524488 0.13072224 0.99082786 0.034233805 0
0.34871066 0.30152297 0.16528794 0.13072224 0.99082786 0.034233805 0
0.34949821 0.30141515 0.16540016 0.13072224 0.99082786 0.034233805 0
0.35077095 0.30124542 0.16545404 0.13072224 0.99082786 0.034233805 0
0.35220113 0.30105773 0.16542383 0.13072233 0.9908278 0.034233723 0
0.27481169 0.30282396 0.16546257 -0.99141699 0.13071479 0.0024652458 0
0.33773959 0.30294982 0.16588295 0.13072224 0.99082786 0.034233805 0
0.3382223 0.30288839 0.16581908 0.13072224 0.99082786 0.034233805 0
0.33977553 0.30269819 0.16539136 0.13072224 0.99082786 0.034233805 0
0.34026659 0.30263281 0.1654091 0.13072224 0.99082786 0.034233805 0
0.34156948 0.30247247 0.16507521 0.13072224 0.99082786 0.034233805 0
0.27485424 0.30315149 0.16521317 -0.99141699 0.13071479 0.0024652458 0
0.33186829 0.30374336 0.16533583 0.13072224 0.99082786 0.034233805 0
0.33517939 0.30329099 0.1657854 0.13072224 0.99082786 0.034233805 0
0.27498931 0.30416763 0.16566116 -0.99141699 0.13071479 0.0024652458 0
0.32306588 0.30491197 0.16512457 0.13072224 0.99082786 0.034233805 0
0.32404652 0.30475944 0.16579473 0.13072224 0.99082786 0.034233805 0
0.32590383 0.30452809 0.16539867 0.13072224 0.99082786 0.034233805 0
0.32682389 0.30439752 0.16566423 0.13072224 0.99082786 0.034233805 0
0.32778153 0.30426344 0.16588816 0.13072224 0.99082786 0.034233805 0
0.3294726 0.30404428 0.16577347 0.13072224 0.99082786 0.034233805 0
0.2751213 0.30517071 0.16554889 -0.99141699 0.13071479 0.0024652458 0
0.3167308 0.30571938 0.16594598 0.13072224 0.99082786 0.034233805 0
0.31840032 0.30552739 0.16512826 0.13072224 0.99082786 0.034233805 0
0.31954932 0.30536333 0.1654893 0.13072224 0.99082786 0.034233805 0
0.32064709 0.30520704 0.1658202 0.13072224 0.9908278 0.034233801 0
0.32169059 0.30507293 0.16571783 0.13072224 0.9908278 0.034233801 0
0.32204238 0.30505049 0.16502318 0.13072224 0.99082786 0.034233805 0
0.30810857 0.30688673 0.16508418 0.13072224 0.99082786 0.034233805 0
0.31169567 0.30638888 0.16579524 0.13072224 0.99082786 0.034233805 0
0.31377539 0.30612355 0.16553342 0.13072224 0.99082786 0.034233805 0
0.31438792 0.30604982 0.16532899 0.13072224 0.99082786 0.034233805 0
0.2998603 0.30796242 0.16544598 0.13072224 0.99082786 0.034233805 0
0.30058214 0.30786341 0.1655557 0.13072224 0.9908278 0.034233801 0
0.30112535 0.30777726 0.16597514 0.13072224 0.99082786 0.034233805 0
0.30211449 0.30764946 0.16589645 0.13072224 0.99082786 0.034233805 0
0.30373612 0.30743819 0.16581918 0.13072224 0.99082786 0.034233805 0
0.30459288 0.30733615 0.1655007 0.13072224 0.9908278 0.034233801 0
0.30547851 0.30722171 0.16543162 0.13072224 0.99082786 0.034233805 0
0.27560291 0.3088153 0.16597971 -0.99141699 0.13071479 0.0024652458 0
0.29198444 0.3089945 0.16564915 0.13072224 0.99082786 0.034233805 0
0.2943812 0.30867231 0.16582273 0.13072224 0.99082786 0.034233805 0
0.29599577 0.3084816 0.16517597 0.13072224 0.99082786 0.034233805 0
0.29654175 0.30840752 0.16523567 0.13072224 0.99082786 0.034233805 0
0.2983636 0.3081595 0.16545762 0.13072224 0.99082786 0.034233805 0
0.29913038 0.30805016 0.16569428 0.13072224 0.99082786 0.034233805 0
0.27569836 0.30955416 0.16520439 -0.99141699 0.13071479 0.0024652458 0
0.28475821 0.30995986 0.16530205 0.13072224 0.99082786 0.034233805 0
0.28535381 0.30986378 0.16580877 0.13072224 0.9908278 0.034233801 0
0.28766438 0.309567 0.16557525 0.13072224 0.9908278 0.034233801 0
0.29067913 0.30915585 0.16596329 0.13072224 0.99082786 0.034233805 0
0.29138345 0.30909511 0.16503222 0.13072224 0.99082786 0.034233805 0
0.2758449 0.31065953 0.16551557 -0.99141699 0.13071479 0.0024652458 0
0.27779469 0.31087944 0.16527656 0.13072224 0.99082786 0.034233805 0
0.27889779 0.31073081 0.1653662 0.13072224 0.99082786 0.034233805 0
0.27914095 0.31069174 0.16556793 0.13072224 0.9908278 0.034233801 0
0.28088537 0.31045884 0.16564763 0.13072224 0.99082786 0.034233805 0
0.28283563 0.3101964 0.16579702 0.13072224 0.99082786 0.034233805 0
0.28348932 0.31013423 0.16510053 0.13072224 0.99082786 0.034233805 0
0.28404388 0.31004736 0.16549721 0.13072224 0.99082786 0.034233805 0
0.27641615 0.31105137 0.16556439 0.13072224 0.99082786 0.034233805 0
0.36149907 0.19885157 0.16697979 -0.13072233 -0.99082786 -0.034233663 0
0.3538087 0.1998786 0.16662091 -0.13072233 -0.99082786 -0.034233663 0
0.35455027 0.19977638 0.16674688 -0.13072233 -0.99082786 -0.034233663 0
0.35528594 0.19967549 0.16685814 -0.13072233 -0.99082786 -0.034233663 0
0.35662627 0.1995059 0.16664879 -0.13072233 -0.99082786 -0.034233663 0
0.36211422 0.19993713 0.16630854 0.99141693 -0.13071509 -0.0024652472 0
0.34690565 0.20079753 0.16638316 -0.13072233 -0.99082786 -0.034233663 0
0.34884998 0.20053247 0.1666306 -0.13072233 -0.99082786 -0.034233663 0
0.35045302 0.20032173 0.16660865 -0.13072233 -0.99082786 -0.034233663 0
0.36225188 0.20098668 0.16602176 0.99141693 -0.13071509 -0.0024652472 0
0.33795244 0.20196703 0.16672224 -0.13072233 -0.99082786 -0.034233663 0
0.3395375 0.20175914 0.16668688 -0.13072233 -0.99082786 -0.034233663 0
0.34081131 0.2015847 0.16687167 -0.13072233 -0.99082786 -0.034233663 0
0.34122732 0.20154302 0.16648978 -0.13072233 -0.99082786 -0.034233663 0
0.34331942 0.201269 0.16643193 -0.13072233 -0.99082786 -0.034233663 0
0.34494752 0.20106012 0.16626051 -0.13072233 -0.99082786 -0.034233663 0
0.36229739 0.20131966 0.16665907 0.99141693 -0.13071509 -0.0024652472 0
0.33025217 0.20298074 0.16678609 -0.13072233 -0.99082786 -0.034233663 0
0.33159417 0.20281014 0.16659975 -0.13072233 -0.99082786 -0.034233663 0
0.33330297 0.20258705 0.16653122 -0.13072233 -0.99082786 -0.034233663 0
0.33459711 0.20241055 0.16669843 -0.13072233 -0.99082786 -0.034233663 0
0.33521044 0.20234042 0.1663855 -0.13072233 -0.99082786 -0.034233663 0
0.33655828 0.20215347 0.16665 -0.13072233 -0.99082786 -0.034233663 0
0.3371022 0.2020798 0.16670528 -0.13072233 -0.99082786 -0.034233663 0
0.36244386 0.20242904 0.16674635 0.99141693 -0.13071509 -0.0024652472 0
0.32358253 0.20386688 0.16660705 -0.13072233 -0.99082786 -0.034233663 0
0.32470319 0.2037335 0.16618787 -0.13072231 -0.9908278 -0.034233663 0
0.32524085 0.20363638 0.16694584 -0.13072233 -0.99082786 -0.034233663 0
0.32684556 0.20343824 0.16655359 -0.13072231 -0.9908278 -0.034233663 0
0.3285192 0.20322679 0.16628206 -0.13072233 -0.99082786 -0.034233663 0
0.36257306 0.20341307 0.16652881 0.99141693 -0.13071509 -0.0024652472 0
0.31530404 0.20497806 0.16605753 -0.13072233 -0.99082786 -0.034233663 0
0.31608671 0.20485568 0.16661102 -0.13072233 -0.99082786 -0.034233663 0
0.31967229 0.20439333 0.16630095 -0.13072233 -0.99082786 -0.034233663 0
0.32153931 0.20415311 0.16612457 -0.13072233 -0.99082786 -0.034233663 0
0.3224425 0.2040045 0.1669772 -0.13072233 -0.99082786 -0.034233663 0
0.36270726 0.20443015 0.16657245 0.99141693 -0.13071509 -0.0024652472 0
0.30753344 0.20598039 0.16671959 -0.13072233 -0.99082786 -0.034233663 0
0.31146723 0.20546344 0.16666007 -0.13072233 -0.99082786 -0.034233663 0
0.31387988 0.20513508 0.1669514 -0.13072233 -0.99082786 -0.034233663 0
0.31436706 0.20507713 0.16676834 -0.13072233 -0.99082786 -0.034233663 0
0.3003701 0.20693292 0.16650386 -0.13072233 -0.99082786 -0.034233663 0
0.30133009 0.2068094 0.16641286 -0.13072233 -0.99082786 -0.034233663 0
0.3028993 0.20659837 0.16652882 -0.13072233 -0.99082786 -0.034233663 0
0.30371571 0.206496 0.16637379 -0.13072233 -0.99082786 -0.034233663 0
0.36300924 0.20671313 0.16695763 0.99141693 -0.13071509 -0.0024652472 0
0.29547694 0.20757826 0.16651031 -0.13072233 -0.99082786 -0.034233663 0
0.29699546 0.20737058 0.166723 -0.13072233 -0.99082786 -0.034233663 0
0.29715738 0.20736508 0.16626379 -0.13072233 -0.99082786 -0.034233663 0
0.29823285 0.20720953 0.16665919 -0.13072233 -0.99082786 -0.034233663 0
0.28511348 0.20894867 0.16641946 -0.13072233 -0.99082786 -0.034233663 0
0.28707021 0.20867477 0.16687518 -0.13072233 -0.99082786 -0.034233663 0
0.28869671 0.20846801 0.16664906 -0.13072233 -0.99082786 -0.034233663 0
0.28945425 0.20837556 0.16643189 -0.13072231 -0.9908278 -0.034233663 0
0.29051816 0.20823395 0.16646805 -0.13072233 -0.99082786 -0.034233663 0
0.29115629 0.20816065 0.16615269 -0.13072233 -0.99082786 -0.034233663 0
0.36324829 0.20852773 0.16687472 0.99141693 -0.13071509 -0.0024652472 0
0.2775861 0.20994279 0.16639018 -0.13072237 -0.9908278 -0.034233697 0
0.2784656 0.20982443 0.1664575 -0.13072237 -0.9908278 -0.034233697 0
0.2816608 0.20940536 0.16638575 -0.13072233 -0.99082786 -0.034233663 0
0.2826229 0.20926495 0.16677561 -0.13072233 -0.99082786 -0.034233663 0
0.28361905 0.20914908 0.16632515 -0.13072231 -0.9908278 -0.034233663 0
0.27366138 0.21044904 0.16672418 -0.13072237 -0.9908278 -0.034233697 0
0.2741732 0.21038365 0.16666245 -0.13072237 -0.9908278 -0.034233697 0
0.36350119 0.21045065 0.16660976 0.99141693 -0.13071509 -0.0024652472 0
0.26372409 0.21177292 0.16635296 -0.13072237 -0.9908278 -0.034233697 0
0.26439995 0.21167335 0.16665414 -0.13072237 -0.9908278 -0.034233697 0
0.26556996 0.21152394 0.16651054 -0.13072237 -0.9908278 -0.034233697 0
0.26643258 0.21140665 0.16661152 -0.13072237 -0.9908278 -0.034233697 0
0.26828733 0.21115299 0.16687113 -0.13072237 -0.9908278 -0.034233697 0
0.26940069 0.21101257 0.16668369 -0.13072237 -0.9908278 -0.034233697 0
0.36358348 0.2110683 0.16696382 0.99141693 -0.13071509 -0.0024652472 0
0.26287353 0.21225904 0.16647804 -0.99141693 0.1307151 0.0024649515 0
0.36379254 0.21266168 0.16656624 0.99141693 -0.13071509 -0.0024652472 0
0.26302069 0.21337084 0.16671102 -0.99141693 0.1307151 0.0024649515 0
0.36396885 0.21399921 0.16653998 0.99141693 -0.13071509 -0.0024652472 0
0.26319042 0.21466398 0.16641033 -0.99141693 0.1307151 0.0024649515 0
0.36397806 0.21406697 0.16664174 0.99141693 -0.13071509 -0.0024652472 0
0.3640824 0.21485902 0.16661216 0.99141693 -0.13071509 -0.0024652472 0
0.26346332 0.21673232 0.16648492 -0.99141693 0.1307151 0.0024649515 0
0.36431792 0.21664949 0.16639441 0.99141693 -0.13071509 -0.0024652472 0
0.26355997 0.21746397 0.16656649 -0.99141693 0.1307151 0.0024649515 0
0.36451155 0.21812239 0.16615097 0.99141693 -0.13071479 -0.0024649198 0
0.36471474 0.21966112 0.16630143 0.99141693 -0.13071479 -0.0024649198 0
0.26409972 0.22155815 0.16653679 -0.99141693 0.1307151 0.0024649515 0
0.36491901 0.2212141 0.16610008 0.99141693 -0.13071479 -0.0024649198 0
0.26420438 0.22234447 0.16692892 -0.99141693 0.1307151 0.0024649515 0
0.36525378 0.22374463 0.166547 0.99141693 -0.13071479 -0.0024649198 0
0.26450095 0.22459763 0.16673377 -0.99141693 0.1307151 0.0024649515 0
0.36564875 0.22674295 0.16639887 0.99141693 -0.13071479 -0.0024649198 0
0.36571673 0.22725141 0.16678943 0.99141693 -0.13071479 -0.0024649198 0
0.26497704 0.22821778 0.16624668 -0.99141693 0.1307151 0.0024649515 0
0.36592823 0.22886232 0.16644324 0.99141693 -0.13071479 -0.0024649198 0
0.3660953 0.23012482 0.16667967 0.99141693 -0.13071479 -0.0024649198 0
0.36626661 0.23143141 0.16629392 0.99141693 -0.13071479 -0.0024649198 0
0.26549262 0.23212847 0.16624144 -0.99141693 0.1307151 0.0024649515 0
0.36639819 0.23242575 0.16647251 0.99141699 -0.1307148 -0.00246492 0
0.36656147 0.23366548 0.16642044 0.99141693 -0.13071479 -0.0024649198 0
0.26580215 0.23446484 0.16682827 -0.99141693 0.1307151 0.0024649515 0
0.36672217 0.23487893 0.16668789 0.99141693 -0.13071479 -0.0024649198 0
0.2659108 0.23528999 0.16677821 -0.99141693 0.1307151 0.0024649515 0
0.36686927 0.23599717 0.16655536 0.99141693 -0.13071479 -0.0024649198 0
0.36692226 0.23639707 0.16668071 0.99141693 -0.13071479 -0.0024649198 0
0.26617512 0.23730071 0.16644731 -0.99141693 0.1307151 0.0024649515 0
0.36707568 0.23756121 0.16665415 0.99141693 -0.13071479 -0.0024649198 0
0.26632136 0.23840253 0.16685185 -0.99141693 0.1307151 0.0024649515 0
0.36724365 0.23883459 0.16667752 0.99141693 -0.13071479 -0.0024649198 0
0.26647687 0.23958756 0.16655245 -0.99141693 0.1307151 0.0024649515 0
0.36739209 0.23996116 0.1666356 0.99141693 -0.13071479 -0.0024649198 0
0.36751741 0.24091168 0.16662802 0.99141693 -0.13071479 -0.0024649198 0
0.26673272 0.24153745 0.1660651 -0.99141693 0.1307151 0.0024649515 0
0.36761415 0.24164397 0.16672362 0.99141693 -0.13071479 -0.0024649198 0
0.26687163 0.24258196 0.16653337 -0.99141693 0.1307151 0.0024649515 0
0.36768824 0.24220866 0.16656736 0.99141693 -0.13071479 -0.0024649198 0
0.26696649 0.2433048 0.16635501 -0.99141693 0.1307151 0.0024649515 0
0.36782116 0.24321152 0.16684316 0.99141693 -0.13071479 -0.0024649198 0
0.26706991 0.2440847 0.16659391 -0.99141693 0.1307151 0.0024649515 0
0.3679662 0.2443264 0.16606008 0.99141693 -0.13071479 -0.0024649198 0
0.26722497 0.24526983 0.16612199 -0.99141693 0.1307151 0.0024649515 0
0.26734927 0.24621227 0.16613153 -0.99141693 0.1307151 0.0024649515 0
0.26752368 0.24752721 0.16655101 -0.99141693 0.1307151 0.0024649515 0
0.36835179 0.24724014 0.16662773 0.99141693 -0.13071479 -0.0024649198 0
0.36848345 0.24824691 0.16620432 0.99141693 -0.13071479 -0.0024649198 0
0.36870277 0.24989781 0.16685647 0.99141693 -0.13071479 -0.0024649198 0
0.36882222 0.2508131 0.16637488 0.99141693 -0.13071479 -0.0024649198 0
0.26808107 0.25175029 0.16678356 -0.99141693 0.1307151 0.0024649515 0
0.36892152 0.25156415 0.16649288 0.99141693 -0.13071479 -0.0024649198 0
0.36899912 0.25215092 0.16657063 0.99141693 -0.13071479 -0.0024649198 0
0.36910498 0.25295478 0.16652089 0.99141693 -0.13071479 -0.0024649198 0
0.26830274 0.253445 0.16606514 -0.99141693 0.1307151 0.0024649515 0
0.36914685 0.25327232 0.1665287 0.99141693 -0.13071479 -0.0024649198 0
0.36929068 0.25436628 0.16636156 0.99141693 -0.13071479 -0.0024649198 0
0.36959246 0.2566517 0.16655144 0.99141693 -0.13071479 -0.0024649198 0
0.26882756 0.25742197 0.1662644 -0.99141693 0.1307151 0.0024649515 0
0.36973667 0.25774559 0.16653906 0.99141699 -0.1307148 -0.00246492 0
0.26897857 0.25855541 0.16688319 -0.99141693 0.1307151 0.0024649515 0
0.26905304 0.25913548 0.1660943 -0.99141693 0.1307151 0.0024649515 0
0.37013584 0.26078123 0.1661161 0.99141693 -0.13071479 -0.0024649198 0
0.2695595 0.26296085 0.1669337 -0.99141693 0.1307151 0.0024649515 0
0.3703295 0.26225039 0.16609907 0.99141693 -0.13071479 -0.0024649198 0
0.37049627 0.26349947 0.16694172 0.99141693 -0.13071479 -0.0024649198 0
0.3706196 0.26445207 0.16602698 0.99141693 -0.13071479 -0.0024649198 0
0.26988643 0.26544213 0.16684721 -0.99141693 0.1307151 0.0024649515 0
0.26998287 0.26617604 0.16672131 -0.99141693 0.1307151 0.0024649515 0
0.37120417 0.26887703 0.16648325 0.99141693 -0.13071479 -0.0024649198 0
0.37130669 0.26965794 0.16629678 0.99141693 -0.13071479 -0.0024649198 0
0.37135506 0.27002957 0.16606003 0.99141693 -0.13071479 -0.0024649198 0
0.27066392 0.27135128 0.16618875 -0.99141693 0.1307151 0.0024649515 0
0.37156528 0.27161047 0.1667729 0.99141693 -0.13071479 -0.0024649198 0
0.27077869 0.27222019 0.1662716 -0.99141693 0.1307151 0.0024649515 0
0.37164241 0.27219525 0.16677555 0.99141693 -0.13071479 -0.0024649198 0
0.27090871 0.2732043 0.16638775 -0.99141693 0.1307151 0.0024649515 0
0.37181714 0.27351978 0.16683048 0.99141693 -0.13071479 -0.0024649198 0
0.27110481 0.274681 0.16694865 -0.99141693 0.1307151 0.0024649515 0
0.27138543 0.2768195 0.16641593 -0.99141693 0.1307151 0.0024649515 0
0.3722288 0.2766428 0.16677226 0.99141693 -0.13071479 -0.0024649198 0
0.37236226 0.27766502 0.16624999 0.99141693 -0.13071479 -0.0024649198 0
0.27161372 0.27855286 0.16631345 -0.99141693 0.1307151 0.0024649515 0
0.27170557 0.27925339 0.16610603 -0.99141693 0.1307151 0.0024649515 0
0.37256128 0.27917498 0.16623525 0.99141693 -0.13071479 -0.0024649198 0
0.27182922 0.28019062 0.16613336 -0.99141693 0.1307151 0.0024649515 0
0.37290907 0.28180543 0.16664042 0.99141699 -0.1307148 -0.00246492 0
0.37302014 0.28264871 0.16658172 0.99141693 -0.13071479 -0.0024649198 0
0.2722874 0.28365758 0.16657215 -0.99141693 0.1307151 0.0024649515 0
0.37310085 0.28326523 0.16634381 0.99141693 -0.13071479 -0.0024649198 0
0.27239299 0.28445327 0.16684812 -0.99141693 0.1307151 0.0024649515 0
0.37326032 0.28447083 0.16655374 0.99141693 -0.13071479 -0.0024649198 0
0.37336767 0.28529364 0.16609053 0.99141693 -0.13071479 -0.0024649198 0
0.37352031 0.28645116 0.16610086 0.99141693 -0.13071479 -0.0024649198 0
0.27282339 0.28772187 0.16661602 -0.99141693 0.1307151 0.0024649515 0
0.3736937 0.28775847 0.16651626 0.99141699 -0.1307148 -0.00246492 0
0.2728965 0.28827655 0.16661043 -0.99141693 0.1307151 0.0024649515 0
0.27316123 0.29028699 0.16646522 -0.99141699 0.13071479 0.0024652458 0
0.37418807 0.29151282 0.16626784 0.99141693 -0.13071479 -0.0024649198 0
0.27344829 0.29246211 0.1665765 -0.99141699 0.13071479 0.0024652458 0
0.37431884 0.29249918 0.16655695 0.99141699 -0.1307148 -0.00246492 0
0.27363995 0.29390958 0.16690983 -0.99141699 0.13071479 0.0024652458 0
0.37451231 0.29396078 0.16685709 0.99141693 -0.13071479 -0.0024649198 0
0.27370593 0.29442066 0.16635363 -0.99141699 0.13071479 0.0024652458 0
0.37455744 0.29430509 0.16675675 0.99141693 -0.13071479 -0.0024649198 0
0.27389914 0.29587409 0.16698313 -0.99141699 0.13071479 0.0024652458 0
0.37472382 0.29557893 0.16612449 0.99141693 -0.13071479 -0.0024649198 0
0.27393091 0.29612648 0.1663769 -0.99141699 0.13071479 0.0024652458 0
0.37485331 0.29655743 0.16631109 0.99141693 -0.13071479 -0.0024649198 0
0.27410889 0.29747826 0.16628146 -0.99141699 0.13071479 0.0024652458 0
0.3750048 0.29770672 0.16629967 0.99141693 -0.13071479 -0.0024649198 0
0.36870071 0.2988354 0.16674066 0.13072249 0.9908278 0.034233559 0
0.36966431 0.29871267 0.16661373 0.13072249 0.9908278 0.034233559 0
0.37040129 0.29860422 0.16693795 0.13072249 0.9908278 0.034233559 0
0.37138051 0.29849678 0.16630937 0.13072249 0.9908278 0.034233559 0
0.37250531 0.29834166 0.1665033 0.13072249 0.9908278 0.034233559 0
0.37368315 0.29818606 0.16650885 0.13072249 0.9908278 0.034233559 0
0.36088055 0.29987788 0.16643029 0.13072249 0.9908278 0.034233559 0
0.36150992 0.29979688 0.16637169 0.13072249 0.9908278 0.034233559 0
0.3625046 0.29966876 0.16628107 0.13072249 0.9908278 0.034233559 0
0.3638176 0.29948342 0.16663224 0.13072249 0.9908278 0.034233559 0
0.36426917 0.29941821 0.16679442 0.13072249 0.9908278 0.034233559 0
0.36644915 0.29914293 0.16643789 0.13072249 0.9908278 0.034233559 0
0.36735311 0.2990087 0.16687101 0.13072249 0.9908278 0.034233559 0
0.3529264 0.30092409 0.16652329 0.13072224 0.99082786 0.034233805 0
0.35340285 0.30085051 0.16683269 0.13072224 0.99082786 0.034233805 0
0.35586715 0.30053121 0.16666447 0.13072249 0.9908278 0.034233559 0
0.35692641 0.30038217 0.16693337 0.13072249 0.9908278 0.034233559 0
0.35728869 0.30034217 0.16670793 0.13072249 0.9908278 0.034233559 0
0.35871124 0.30015999 0.16654861 0.13072249 0.9908278 0.034233559 0
0.27469119 0.3018837 0.16686827 -0.99141699 0.13071479 0.0024652458 0
0.34682661 0.30173168 0.1664409 0.13072224 0.99082786 0.034233805 0
0.34780556 0.30160606 0.16633929 0.13072224 0.99082786 0.034233805 0
0.34859353 0.30150115 0.16636643 0.13072224 0.99082786 0.034233805 0
0.35023776 0.30128163 0.16644074 0.13072224 0.99082786 0.034233805 0
0.35205308 0.30103439 0.16666457 0.13072224 0.99082786 0.034233805 0
0.27479249 0.30266628 0.16610728 -0.99141699 0.13071479 0.0024652458 0
0.33735889 0.30298692 0.16626284 0.13072224 0.99082786 0.034233805 0
0.33936 0.30270451 0.16679606 0.13072224 0.99082786 0.034233805 0
0.34231719 0.30230871 0.16695879 0.13072224 0.99082786 0.034233805 0
0.34363002 0.3021467 0.16663536 0.13072224 0.99082786 0.034233805 0
0.34428251 0.30206695 0.16645178 0.13072224 0.99082786 0.034233805 0
0.27487454 0.30327335 0.16691729 -0.99141699 0.13071479 0.0024652458 0
0.32978094 0.30396777 0.16681057 0.13072224 0.99082786 0.034233805 0
0.33162197 0.30373335 0.16656618 0.13072224 0.99082786 0.034233805 0
0.33241212 0.30362794 0.16659908 0.13072224 0.9908278 0.034233801 0
0.33374411 0.30345914 0.16639885 0.13072224 0.99082786 0.034233805 0
0.33554304 0.3032099 0.16674262 0.13072224 0.99082786 0.034233805 0
0.27498323 0.30409813 0.16690126 -0.99141699 0.13071479 0.0024652458 0
0.27502593 0.3044219 0.16689867 -0.99141699 0.13071479 0.0024652458 0
0.32221809 0.30496332 0.16687554 0.13072224 0.99082786 0.034233805 0
0.32447296 0.30469003 0.16617516 0.13072224 0.99082786 0.034233805 0
0.32634121 0.30443376 0.16645847 0.13072224 0.99082786 0.034233805 0
0.32848144 0.30413669 0.16688341 0.13072224 0.99082786 0.034233805 0
0.27512866 0.30521023 0.16641895 -0.99141699 0.13071479 0.0024652458 0
0.3144733 0.30598259 0.16694936 0.13072224 0.99082786 0.034233805 0
0.31527963 0.30589783 0.16632283 0.13072224 0.99082786 0.034233805 0
0.31615344 0.3057766 0.16649587 0.13072224 0.99082786 0.034233805 0
0.31757712 0.30557519 0.16688761 0.13072224 0.99082786 0.034233805 0
0.31833863 0.3054761 0.16684826 0.13072224 0.99082786 0.034233805 0
0.31990227 0.30526477 0.16699427 0.13072224 0.99082786 0.034233805 0
0.32140768 0.30507311 0.16679236 0.13072224 0.99082786 0.034233805 0
0.27525857 0.30619851 0.16626358 -0.99141699 0.13071479 0.0024652458 0
0.30694756 0.30698419 0.16669589 0.13072224 0.99082786 0.034233805 0
0.30713812 0.30695081 0.16693568 0.13072224 0.99082786 0.034233805 0
0.30865014 0.30676931 0.16641364 0.13072224 0.99082786 0.034233805 0
0.30973342 0.30662665 0.16640623 0.13072224 0.9908278 0.034233801 0
0.31065935 0.30650452 0.16640583 0.13072224 0.99082786 0.034233805 0
0.31119409 0.30642429 0.16668595 0.13072224 0.99082786 0.034233805 0
0.31249937 0.30624828 0.16679639 0.13072224 0.99082786 0.034233805 0
0.31331775 0.30613974 0.16681321 0.13072224 0.99082786 0.034233805 0
0.31409824 0.30603614 0.1668309 0.13072224 0.99082786 0.034233805 0
0.27544728 0.30763042 0.16621765 -0.99141699 0.13071479 0.0024652458 0
0.29939491 0.30797783 0.16677789 0.13072224 0.99082786 0.034233805 0
0.30069691 0.30780762 0.1667311 0.13072224 0.99082786 0.034233805 0
0.30119789 0.30775666 0.16629389 0.13072224 0.99082786 0.034233805 0
0.30252749 0.30757606 0.16644379 0.13072224 0.99082786 0.034233805 0
0.30348915 0.30745119 0.16638647 0.13072224 0.9908278 0.034233801 0
0.30497181 0.30724719 0.16662839 0.13072224 0.99082786 0.034233805 0
0.30524486 0.30722719 0.16616431 0.13072224 0.99082786 0.034233805 0
0.29327333 0.30880284 0.16627368 0.13072224 0.99082786 0.034233805 0
0.29461128 0.30860955 0.16675934 0.13072224 0.99082786 0.034233805 0
0.29504728 0.30857164 0.16619247 0.13072224 0.99082786 0.034233805 0
0.27570221 0.3095578 0.16655192 -0.99141699 0.13071479 0.0024652458 0
0.28451261 0.30996266 0.16615857 0.13072224 0.99082786 0.034233805 0
0.28659678 0.30968848 0.16613582 0.13072224 0.99082786 0.034233805 0
0.28870851 0.30940399 0.16630644 0.13072224 0.99082786 0.034233805 0
0.28980252 0.30924854 0.16662751 0.13072224 0.99082786 0.034233805 0
0.29067665 0.30912271 0.16693178 0.13072224 0.99082786 0.034233805 0
0.27577686 0.3101221 0.16664654 -0.99141699 0.13071479 0.0024652458 0
0.27723935 0.31091392 0.16640036 0.13072224 0.99082786 0.034233805 0
0.27874804 0.31071013 0.16653651 0.13072224 0.99082786 0.034233805 0
0.28149274 0.31034842 0.16652478 0.13072224 0.9908278 0.034233801 0
0.28256619 0.31020865 0.16647114 0.13072224 0.99082786 0.034233805 0
0.36064327 0.1989598 0.16711538 -0.13072233 -0.99082786 -0.034233663 0
0.36109808 0.19889751 0.16718169 -0.13072233 -0.99082786 -0.034233663 0
0.35312444 0.19993305 0.16765761 -0.13072233 -0.99082786 -0.034233663 0
0.35457668 0.19975272 0.1673312 -0.13072233 -0.99082786 -0.034233663 0
0.35516009 0.19966002 0.16778664 -0.13072231 -0.9908278 -0.034233663 0
0.35628569 0.19952194 0.1674848 -0.13072231 -0.9908278 -0.034233663 0
0.35762095 0.19933833 0.16770022 -0.13072233 -0.99082786 -0.034233663 0
0.35860321 0.19921006 0.16766207 -0.13072233 -0.99082786 -0.034233663 0
0.36205164 0.19943884 0.16755262 0.99141693 -0.13071509 -0.0024652472 0
0.3465355 0.20080441 0.16759767 -0.13072233 -0.99082786 -0.034233663 0
0.34737116 0.20069113 0.16768511 -0.13072233 -0.99082786 -0.034233663 0
0.34832752 0.20056348 0.16772814 -0.13072231 -0.9908278 -0.034233663 0
0.34901804 0.20046625 0.1679053 -0.13072233 -0.99082786 -0.034233663 0
0.35075557 0.2002604 0.1672284 -0.13072233 -0.99082786 -0.034233663 0
0.35139287 0.20016795 0.16747002 -0.13072233 -0.99082786 -0.034233663 0
0.35262468 0.20001772 0.16711512 -0.13072233 -0.99082786 -0.034233663 0
0.36224365 0.20088725 0.16798529 0.99141693 -0.13071509 -0.0024652472 0
0.34009039 0.20166352 0.16734296 -0.13072233 -0.99082786 -0.034233663 0
0.34116006 0.20150176 0.16794099 -0.13072233 -0.99082786 -0.034233663 0
0.34294668 0.2012755 0.16766688 -0.13072233 -0.99082786 -0.034233663 0
0.33093357 0.20285064 0.16795006 -0.13072233 -0.99082786 -0.034233663 0
0.33125997 0.20282382 0.16748016 -0.13072233 -0.99082786 -0.034233663 0
0.33218306 0.20270213 0.16747624 -0.13072233 -0.99082786 -0.034233663 0
0.33618227 0.20217741 0.16739246 -0.13072233 -0.99082786 -0.034233663 0
0.36242765 0.20229135 0.16752836 0.99141693 -0.13071509 -0.0024652472 0
0.3235234 0.20385405 0.16720442 -0.13072233 -0.99082786 -0.034233663 0
0.32698339 0.20340285 0.167051 -0.13072233 -0.99082786 -0.034233663 0
0.32720184 0.20336199 0.16739956 -0.13072233 -0.99082786 -0.034233663 0
0.32817551 0.20323795 0.16727209 -0.13072233 -0.99082786 -0.034233663 0
0.32926992 0.20307907 0.16769089 -0.13072233 -0.99082786 -0.034233663 0
0.3161065 0.204832 0.16722119 -0.13072233 -0.99082786 -0.034233663 0
0.31708696 0.20469455 0.16745459 -0.13072231 -0.9908278 -0.034233663 0
0.32080966 0.20419687 0.16764438 -0.13072233 -0.99082786 -0.034233663 0
0.32159835 0.20410269 0.1673584 -0.13072233 -0.99082786 -0.034233663 0
0.36272103 0.20451474 0.16760141 0.99141693 -0.13071509 -0.0024652472 0
0.30863881 0.20580693 0.16751941 -0.13072231 -0.9908278 -0.034233663 0
0.31033823 0.20559748 0.16709197 -0.13072233 -0.99082786 -0.034233663 0
0.31244242 0.20531091 0.16735134 -0.13072233 -0.99082786 -0.034233663 0
0.3135308 0.20517823 0.16703531 -0.13072233 -0.99082786 -0.034233663 0
0.31425393 0.20506966 0.16741653 -0.13072233 -0.99082786 -0.034233663 0
0.36285225 0.20552078 0.16705707 0.99141693 -0.13071509 -0.0024652472 0
0.30303818 0.2065345 0.16784707 -0.13072233 -0.99082786 -0.034233663 0
0.30599296 0.20617262 0.16703793 -0.13072233 -0.99082786 -0.034233663 0
0.29242057 0.20794551 0.16755177 -0.13072233 -0.99082786 -0.034233663 0
0.29340106 0.2078115 0.16768594 -0.13072233 -0.99082786 -0.034233663 0
0.29460332 0.20765199 0.16771203 -0.13072231 -0.9908278 -0.034233663 0
0.29509845 0.20758303 0.16781722 -0.13072233 -0.99082786 -0.034233663 0
0.29631704 0.20744373 0.16719647 -0.13072233 -0.99082786 -0.034233663 0
0.29893464 0.2070961 0.16726243 -0.13072233 -0.99082786 -0.034233663 0
0.29900169 0.20709203 0.1671235 -0.13072233 -0.99082786 -0.034233663 0
0.36304915 0.20700225 0.16768295 0.99141693 -0.13071509 -0.0024652472 0
0.28560087 0.20883821 0.16775544 -0.13072233 -0.99082786 -0.034233663 0
0.28624827 0.20876497 0.16740322 -0.13072233 -0.99082786 -0.034233663 0
0.28812414 0.2085149 0.16747791 -0.13072233 -0.99082786 -0.034233663 0
0.28991979 0.20826539 0.16784243 -0.13072233 -0.99082786 -0.034233663 0
0.29025954 0.20824373 0.16717234 -0.13072233 -0.99082786 -0.034233663 0
0.29162458 0.20805646 0.16738039 -0.13072233 -0.99082786 -0.034233663 0
0.27761352 0.20989634 0.16762985 -0.13072237 -0.9908278 -0.034233697 0
0.2795279 0.20964563 0.1675761 -0.13072234 -0.9908278 -0.034233682 0
0.28056172 0.20950954 0.16756719 -0.13072233 -0.99082786 -0.034233663 0
0.28240132 0.20927143 0.16743413 -0.13072233 -0.99082786 -0.034233663 0
0.28328228 0.20915246 0.16751319 -0.13072233 -0.99082786 -0.034233663 0
0.27074844 0.21082282 0.16702899 -0.13072237 -0.9908278 -0.034233697 0
0.27145952 0.21072793 0.16706023 -0.13072237 -0.9908278 -0.034233697 0
0.27335405 0.21047893 0.16703296 -0.13072237 -0.9908278 -0.034233697 0
0.27417418 0.21035093 0.16760609 -0.13072237 -0.9908278 -0.034233697 0
0.27572304 0.21014157 0.16775101 -0.13072237 -0.9908278 -0.034233697 0
0.3634491 0.21004304 0.16729885 0.99141693 -0.13071509 -0.0024652472 0
0.26339015 0.21179217 0.16707149 -0.13072237 -0.9908278 -0.034233697 0
0.2647942 0.21159227 0.16749525 -0.13072237 -0.9908278 -0.034233697 0
0.26620257 0.21140431 0.16755809 -0.13072237 -0.9908278 -0.034233697 0
0.26775706 0.21120387 0.16742305 -0.13072237 -0.9908278 -0.034233697 0
0.36365518 0.21159737 0.16774258 0.99141693 -0.13071509 -0.0024652472 0
0.3638083 0.21276209 0.16758022 0.99141693 -0.13071509 -0.0024652472 0
0.26317129 0.21449734 0.16755101 -0.99141693 0.1307151 0.0024649515 0
0.36406103 0.21468186 0.1674239 0.99141693 -0.13071509 -0.0024652472 0
0.36417392 0.21553442 0.16760489 0.99141693 -0.13071509 -0.0024652472 0
0.36426926 0.2162549 0.16774321 0.99141693 -0.13071509 -0.0024652472 0
0.36443651 0.21753159 0.16730559 0.99141693 -0.13071479 -0.0024649198 0
0.26367801 0.21833748 0.16771442 -0.99141693 0.1307151 0.0024649515 0
0.36456537 0.21851417 0.16703893 0.99141693 -0.13071479 -0.0024649198 0
0.26381636 0.21939003 0.16754787 -0.99141693 0.1307151 0.0024649515 0
0.36467987 0.21937013 0.16770071 0.99141693 -0.13071479 -0.0024649198 0
0.36478257 0.22015798 0.16723673 0.99141693 -0.13071479 -0.0024649198 0
0.36494792 0.2214058 0.16756299 0.99141693 -0.13071479 -0.0024649198 0
0.36502552 0.22199263 0.16764514 0.99141693 -0.13071479 -0.0024649198 0
0.26436919 0.22358419 0.16748188 -0.99141693 0.1307151 0.0024649515 0
0.36518943 0.22323933 0.16746835 0.99141693 -0.13071479 -0.0024649198 0
0.26453814 0.22487146 0.16716923 -0.99141693 0.1307151 0.0024649515 0
0.36539185 0.22477607 0.16738826 0.99141699 -0.1307148 -0.00246492 0
0.2646004 0.22533648 0.16755626 -0.99141693 0.1307151 0.0024649515 0
0.36567748 0.22694178 0.16741028 0.99141693 -0.13071479 -0.0024649198 0
0.26492643 0.22781155 0.16742818 -0.99141693 0.1307151 0.0024649515 0
0.36576512 0.22761223 0.16711348 0.99141693 -0.13071479 -0.0024649198 0
0.26497573 0.22817683 0.16789059 -0.99141693 0.1307151 0.0024649515 0
0.2650418 0.22867617 0.16798137 -0.99141693 0.1307151 0.0024649515 0
0.36591449 0.22873332 0.16775414 0.99141693 -0.13071479 -0.0024649198 0
0.36598027 0.22924373 0.1671273 0.99141693 -0.13071479 -0.0024649198 0
0.36613274 0.23039767 0.16725996 0.99141693 -0.13071479 -0.0024649198 0
0.26535895 0.23108238 0.16794623 -0.99141693 0.1307151 0.0024649515 0
0.36633849 0.23195681 0.16733795 0.99141693 -0.13071479 -0.0024649198 0
0.26548031 0.2320154 0.16727865 -0.99141693 0.1307151 0.0024649515 0
