# .PCD v0.7 - Point Cloud Data file format
VERSION 0.7
FIELDS x y z normal_x normal_y normal_z curvature
SIZE 4 4 4 4 4 4 4
TYPE F F F F F F F
COUNT 1 1 1 1 1 1 1
WIDTH 732
HEIGHT 1
VIEWPOINT 0 0 0 1 0 0 0
POINTS 732
DATA ascii
-0.02170747 0.012319945 0.018106891 -0.88788509 0.46006528 0 0
-0.015492464 0.012556608 0.018526331 0.77148908 -0.63624257 0 0
0.015402828 0.012720038 0.018360905 -0.75495964 -0.65577126 0 0
0.021560514 0.012618728 0.018473018 0.87166524 0.49010155 -0.00030603638 0
-0.021320626 0.013046067 0.018432295 -0.81697005 0.57668012 0 0
-0.020866189 0.013689857 0.01835748 -0.81697005 0.57668012 0 0
-0.014776795 0.01342441 0.018313689 0.77148908 -0.63624257 0 0
0.014811714 0.013367064 0.01868475 -0.72052169 -0.69343245 0 0
0.015001642 0.013169717 0.018665547 -0.72052175 -0.69343245 0 0
0.020852745 0.013728062 0.018401897 0.81696993 0.57668 -0.00060037751 0
0.021315668 0.013057927 0.018663764 0.83618271 0.54845101 0 0
-0.020342967 0.014431094 0.018390035 -0.81697005 0.57668012 0 0
-0.014238287 0.014022065 0.018358471 0.6653257 -0.74655324 0 0
-0.013547953 0.014637289 0.018408341 0.6653257 -0.74655324 0 0
0.01364551 0.014578826 0.018860847 -0.72052169 -0.69343245 0 0
0.014067034 0.014140835 0.018353393 -0.72052175 -0.69343245 0 0
0.020462593 0.014280622 0.018250376 0.81696993 0.57668 -0.00060037751 0
-0.019664023 0.015384445 0.018498793 -0.80558443 0.59248102 0 0
-0.013014426 0.015112764 0.018273257 0.6653257 -0.74655324 0 0
-0.012533261 0.01554158 0.018525198 0.6653257 -0.74655324 0 0
0.011989147 0.015935251 0.018296046 -0.60622567 -0.79529274 0 0
0.012522187 0.015528932 0.018537628 -0.60622567 -0.79529274 0 0
0.019426446 0.015714109 0.018377068 0.77950686 0.62639362 -0.00030077147 0
-0.018846745 0.016361862 0.018608969 -0.7308358 0.68255341 0 0
-0.011590545 0.016251648 0.018471941 0.54356736 -0.83936554 0 0
0.010643538 0.01691119 0.018779559 -0.47771955 -0.87851238 0 0
0.011324517 0.016441874 0.018751256 -0.60622567 -0.79529274 0 0
0.018638818 0.016593572 0.018257011 0.73083574 0.68255335 -0.00033921722 0
-0.01025469 0.017116738 0.018830931 0.54356736 -0.83936554 0 0
-0.0094212899 0.017626915 0.018496694 0.43678823 -0.89956439 0 0
-0.0087665617 0.017923424 0.018492328 0.4090687 -0.91250366 0 0
0.0095913308 0.017483363 0.01855777 -0.47771955 -0.87851238 0 0
0.017812567 0.017478203 0.018121071 0.73083568 0.68255329 -0.00033921719 0
0.018211078 0.017051708 0.018537212 0.73083574 0.68255335 -0.00033921722 0
-0.016880928 0.0184197 0.018393308 -0.63108838 0.77571094 0 0
-0.0081656482 0.018192809 0.0189566 0.4090687 -0.9125036 0 0
-0.0077760387 0.018367469 0.018673338 0.4090687 -0.9125036 0 0
-0.0065212636 0.0188885 0.018274685 0.26498184 -0.96425343 0 0
0.006443786 0.018874139 0.018491844 -0.33801684 -0.94114 0 0
0.0074694175 0.018505776 0.018464638 -0.33801687 -0.94114012 0 0
0.0083310315 0.018159701 0.018464506 -0.43227926 -0.90173984 0 0
0.016435545 0.018782046 0.018493932 0.63108832 0.775711 0 0
0.017154826 0.018180223 0.018763682 0.7047435 0.70946217 -0.00011311213 0
-0.015510258 0.019534821 0.018393351 -0.63108844 0.77571094 0 0
-0.0060942019 0.019005857 0.018208014 0.26498184 -0.96425343 0 0
-0.0053416118 0.019212674 0.018462999 0.26498184 -0.96425343 0 0
-0.0046137385 0.019412696 0.018397009 0.26498184 -0.96425343 0 0
-0.0014322168 0.019908419 0.018422145 0.11468337 -0.99340212 0 0
-0.00048351995 0.019963246 0.018359248 0.012725902 -0.99991906 0 0
0.00053512189 0.019935448 0.018216375 -0.038302612 -0.99926621 0 0
0.0015077363 0.019898169 0.018200651 -0.038302612 -0.99926621 0 0
0.0023620536 0.019840734 0.018707313 -0.089231536 -0.99601096 0 0
0.003446874 0.019644391 0.01843562 -0.19039129 -0.98170829 0 0
0.004127536 0.019512385 0.018393643 -0.1903913 -0.98170835 0 0
0.0056523914 0.019149188 0.018731644 -0.30907184 -0.95103872 0 0
0.014947833 0.019992391 0.018785134 0.63108838 0.77571094 0 0
0.015626334 0.019440388 0.01854239 0.63108838 0.77571094 0 0
-0.014097048 0.020618821 0.018395513 -0.51958376 0.85441953 0 0
-0.013916266 0.020728756 0.018417878 -0.51958376 0.85441953 0 0
0.013777846 0.020812931 0.018458756 0.51958376 0.85441953 0 0
0.014492678 0.020347981 0.018344572 0.60969669 0.79263473 0 0
-0.013143898 0.021198442 0.018502071 -0.51958376 0.85441953 0 0
-0.012356021 0.021677563 0.01837934 -0.51958376 0.85441953 0 0
0.012575968 0.021543808 0.018355405 0.51958376 0.85441953 0 0
0.0133247 0.021088496 0.018215761 0.51958376 0.85441953 0 0
-0.011219385 0.022316284 0.018328246 -0.43970627 0.89814168 0 0
-0.010521909 0.022622682 0.018644463 -0.3984009 0.91721135 0 0
0.0097796824 0.022945076 0.018994851 0.39840093 0.91721141 0 0
0.010592129 0.022592181 0.018707005 0.39840093 0.91721141 0 0
0.011539985 0.022157446 0.018482475 0.48018438 0.87716758 0 0
-0.0092395917 0.023179671 0.018133575 -0.39840093 0.91721141 0 0
-0.0082575213 0.023588596 0.018461861 -0.2697967 0.96291733 0 0
-0.007314425 0.02385284 0.018466733 -0.26979673 0.96291733 0 0
-0.0069850907 0.023945116 0.018948454 -0.26979673 0.96291733 0 0
0.007256283 0.023869131 0.01837785 0.26979673 0.96291733 0 0
0.0086358692 0.02344013 0.018300297 0.36689115 0.93026388 0 0
0.0092057921 0.023194352 0.018449228 0.39840093 0.91721141 0 0
-0.0062819971 0.024142109 0.018441327 -0.26979673 0.96291733 0 0
-0.0054127574 0.024385259 0.018684974 -0.22572114 0.97419202 0 0
-0.0034067074 0.024707971 0.018673254 -0.13616697 0.99068588 0 0
-0.0025351648 0.024827762 0.018473519 -0.13616699 0.99068594 0 0
-0.0016576247 0.024927346 0.018355828 -0.068242587 0.9976688 0 0
-0.00053493422 0.02494172 0.018488372 0 1 0 0
0.00052841648 0.02494172 0.018462824 0 1 0 0
0.0016243266 0.024928719 0.018630927 0.068242587 0.9976688 0 0
0.0023354143 0.024855217 0.018583214 0.13616697 0.99068588 0 0
0.0035075969 0.024694104 0.018380422 0.13616699 0.99068594 0 0
0.0046215211 0.024540998 0.018412568 0.13616697 0.99068588 0 0
0.0056217937 0.02432709 0.01853513 0.26979673 0.96291733 0 0
0.0062705874 0.024145309 0.018322008 0.26979673 0.96291733 0 0
-0.0063902708 -0.024111774 0.01968939 -0.26979673 -0.96291733 0 0
-0.0051996727 -0.024444809 0.019574519 -0.20345613 -0.97908407 0 0
-0.0044797426 -0.024560485 0.019540103 -0.13616699 -0.99068594 0 0
-0.0034062851 -0.024708027 0.019534089 -0.13616697 -0.99068588 0 0
-0.0021412091 -0.024881909 0.019536069 -0.13616697 -0.99068588 0 0
-0.0015111546 -0.024935246 0.019444069 -0.022723913 -0.99974179 0 0
-0.00051780307 -0.02494172 0.019052573 0 -1 0 0
0.00018803927 -0.02494172 0.0196712 0 -1 0 0
0.0014852654 -0.024937471 0.019479597 0.045483235 -0.99896508 0 0
0.0024837931 -0.024834823 0.019838406 0.13616699 -0.99068594 0 0
0.0036329664 -0.024676872 0.019517146 0.13616697 -0.99068588 0 0
0.0045539318 -0.024550287 0.019459454 0.13616699 -0.99068594 0 0
0.0054958006 -0.024362391 0.019472811 0.26979673 -0.96291733 0 0
0.0062836278 -0.024141654 0.019309623 0.26979673 -0.96291733 0 0
-0.0093852654 -0.023116395 0.019289479 -0.39840093 -0.91721141 0 0
-0.008529189 -0.023485493 0.019467538 -0.37323669 -0.92773616 0 0
-0.0075025237 -0.023800137 0.019408742 -0.2697967 -0.96291733 0 0
0.007535289 -0.023790954 0.019471738 0.26979673 -0.96291733 0 0
0.0084512057 -0.023506492 0.019674661 0.31331396 -0.94964957 0 0
0.0093932645 -0.023112923 0.019344259 0.39840093 -0.91721141 0 0
-0.011232385 -0.022308946 0.019632125 -0.42326871 -0.90600413 0 0
-0.010375223 -0.022686396 0.019644383 -0.39840093 -0.91721141 0 0
-0.0098088905 -0.02293239 0.019095778 -0.39840093 -0.91721141 0 0
0.009895023 -0.022894977 0.019616012 0.39840093 -0.91721141 0 0
0.011485974 -0.022189755 0.019486731 0.46871859 -0.88334757 0 0
-0.012457928 -0.021615593 0.019765278 -0.51958376 -0.85441953 0 0
0.012459731 -0.021614496 0.019438259 0.51958376 -0.85441953 0 0
0.013299882 -0.021103587 0.019644961 0.51958376 -0.85441953 0 0
-0.014512073 -0.020330794 0.019514196 -0.57668048 -0.81696981 0 0
-0.013765269 -0.02082058 0.019427806 -0.51958376 -0.85441953 0 0
0.013506041 -0.02097822 0.019682722 0.51958376 -0.85441953 0 0
0.014224485 -0.020534363 0.019458402 0.55249339 -0.83351725 0 0
-0.015562462 -0.019492354 0.019589279 -0.63108838 -0.77571094 0 0
-0.0060026357 -0.019031022 0.019268304 0.26498184 0.96425343 0 0
-0.005239611 -0.019240703 0.019379029 0.26498184 0.96425343 0 0
-0.0046066116 -0.019414656 0.019384975 0.26498184 0.96425343 0 0
-0.0033497037 -0.019687053 0.019516023 0.11468336 0.99340206 0 0
-0.0023907481 -0.019797761 0.019491991 0.11468337 0.99340212 0 0
-0.0011247025 -0.019943919 0.019553661 0.11468337 0.99340212 0 0
-0.00072077836 -0.01998359 0.019906033 -0.038302612 0.99926621 0 0
0.00037502547 -0.019941585 0.019570123 -0.038302612 0.99926615 0 0
0.0012080962 -0.019909654 0.019681888 -0.038302608 0.99926615 0 0
0.0022214751 -0.01987081 0.019337853 -0.038302612 0.99926621 0 0
0.0037824428 -0.019579312 0.019031197 -0.1903913 0.98170835 0 0
0.0044418518 -0.019451426 0.019238068 -0.19039129 0.98170829 0 0
0.0055273599 -0.019194692 0.019671883 -0.29654825 0.95501786 0 0
0.01499455 -0.019954383 0.019049892 0.63108838 -0.77571094 0 0
0.015453451 -0.019581039 0.019096691 0.63108838 -0.77571094 0 0
0.016027415 -0.019114083 0.019442607 0.63108838 -0.77571094 0 0
-0.017148534 -0.018180201 0.019760482 -0.7308358 -0.68255341 0 0
-0.016572831 -0.018670352 0.019482283 -0.63108832 -0.775711 0 0
-0.0083240457 -0.018121801 0.019227171 0.4090687 0.9125036 0 0
-0.0077102878 -0.018396944 0.019596506 0.40906873 0.9125036 0 0
-0.0065845065 -0.018863434 0.01940993 0.31382915 0.94947946 0 0
0.0064520095 -0.018871183 0.019274116 -0.33801684 0.94114 0 0
0.0075526782 -0.018475872 0.019541154 -0.33801684 0.94114 0 0
0.0083376551 -0.018160298 0.019535685 -0.40906847 0.91250366 0 0
0.016645811 -0.01861098 0.019591779 0.63108838 -0.77571094 0 0
0.017168082 -0.01816361 0.019410474 0.70464367 -0.70956129 -0.00027420066 0
-0.01804626 -0.017218972 0.019813022 -0.7308358 -0.68255341 0 0
-0.017516945 -0.017785732 0.019477198 -0.73083574 -0.68255335 0 0
-0.010116769 -0.017206054 0.019789234 0.54356736 0.83936554 0 0
-0.0093872482 -0.017630123 0.019599743 0.44366938 0.89619058 0 0
-0.0088325888 -0.017893825 0.01964803 0.4090687 0.9125036 0 0
0.0089114476 -0.01785307 0.019316263 -0.47771955 0.87851238 0 0
0.0095874127 -0.017485492 0.019401621 -0.47771955 0.87851238 0 0
0.010379127 -0.017054973 0.019970527 -0.47771955 0.87851238 0 0
0.017518494 -0.017785745 0.019232452 0.73618132 -0.67678434 -0.00027353448 0
0.018176813 -0.017079186 0.019640554 0.7308358 -0.68255341 0 0
-0.019108344 -0.016081758 0.019049713 -0.7308358 -0.68255341 0 0
-0.018329827 -0.016915346 0.019995291 -0.7308358 -0.68255341 0 0
-0.011425366 -0.016358618 0.019548483 0.54356736 0.83936554 0 0
-0.010661583 -0.016853236 0.019105202 0.54356736 0.83936554 0 0
0.010824968 -0.016799023 0.019530719 -0.56486332 0.82518446 0 0
0.011282018 -0.016474271 0.019664157 -0.60622555 0.79529274 0 0
0.018490488 -0.016743321 0.019586576 0.73083568 -0.68255341 0 0
0.019017376 -0.016179161 0.019174451 0.7308358 -0.68255341 0 0
-0.019783918 -0.015223088 0.019514304 -0.81697005 -0.57668012 0 0
-0.012433983 -0.015630055 0.019579656 0.6653257 0.74655324 0 0
0.012610426 -0.015461667 0.019739859 -0.60622567 0.79529274 0 0
0.013104293 -0.015085211 0.019497097 -0.60622567 0.79529274 0 0
0.019527705 -0.015599272 0.019610321 0.79680479 -0.60423678 0 0
-0.020366518 -0.01439773 0.019467164 -0.81696999 -0.57668012 0 0
-0.014254194 -0.01400789 0.019504027 0.6653257 0.74655324 0 0
-0.013408312 -0.014761736 0.019325776 0.66532564 0.74655318 0 0
0.013491292 -0.014732237 0.019418068 -0.68420726 0.72928762 0 0
0.014106981 -0.014099326 0.01940058 -0.72052175 0.69343245 0 0
0.019960705 -0.014972635 0.01936952 0.81697005 -0.57668018 0 0
0.020308917 -0.014479331 0.019648569 0.81696999 -0.57668018 0 0
-0.021079693 -0.013387389 0.019835724 -0.81697005 -0.57668012 0 0
-0.020762995 -0.013836049 0.019593669 -0.81697005 -0.57668012 0 0
-0.014913935 -0.013258117 0.019891739 0.77148908 0.63624257 0 0
0.014578878 -0.013608996 0.019589972 -0.72052175 0.69343245 0 0
0.020878777 -0.013672022 0.019715657 0.81697005 -0.57668018 0 0
0.02123419 -0.013168517 0.019635716 0.81697005 -0.57668018 0 0
-0.021620801 -0.012487213 0.01949293 -0.88788509 -0.46006528 0 0
-0.015735287 -0.012262167 0.019403547 0.77148908 0.63624257 0 0
0.015569009 -0.012512759 0.0195392 -0.78751379 0.61629707 0 0
0.021585295 -0.012565851 0.019257467 0.87827301 -0.47815946 0 0
-0.02215815 -0.011450176 0.019329034 -0.88788509 -0.46006528 0 0
-0.021880925 -0.0119852 0.019492805 -0.88788509 -0.46006528 0 0
-0.016370965 -0.011485556 0.01914816 0.85956991 0.51101822 0 0
0.016230367 -0.011586661 0.019883597 -0.81792939 0.57531863 0 0
0.022189248 -0.011390158 0.019211553 0.88788509 -0.46006531 0 0
-0.022770038 -0.010269286 0.019646358 -0.88788509 -0.46006528 0 0
-0.017069142 -0.010311168 0.01955476 0.85956991 0.51101822 0 0
-0.016861102 -0.010661108 0.019021962 0.85956991 0.51101822 0 0
0.016703045 -0.010914654 0.019370036 -0.81792939 0.57531863 0 0
0.017111724 -0.010332973 0.01913891 -0.83095515 0.55633944 0 0
0.022627339 -0.010544684 0.01958045 0.88788509 -0.46006531 0 0
-0.022914043 -0.0099913711 0.019907428 -0.88788509 -0.46006528 0 0
-0.017542664 -0.0095146718 0.019806888 0.85956991 0.51101822 0 0
0.017524716 -0.0095639322 0.019637465 -0.89616537 0.44372007 0.00037880629 0
0.022945516 -0.0099208783 0.019506389 0.9102757 -0.41400257 0 0
-0.023405522 -0.0086228298 0.019609476 -0.94226098 -0.33487943 0 0
-0.018091558 -0.0084569482 0.019847246 0.92750233 0.37381747 0 0
0.017920196 -0.0087653585 0.019824455 -0.89616537 0.44372007 0.00037880629 0
0.018230094 -0.0081393253 0.019653315 -0.89616537 0.44372007 0.00037880629 0
0.023370165 -0.0087223183 0.01954161 0.94226098 -0.33487943 0 0
-0.023738571 -0.0076857242 0.019832093 -0.94226098 -0.33487943 0 0
-0.018519061 -0.0073962421 0.019335819 0.92750233 0.37381747 0 0
0.018519551 -0.0075317151 0.019347144 -0.91667819 0.39962617 0 0
0.023939129 -0.0071214098 0.019852767 0.94226098 -0.33487943 0 0
-0.024065431 -0.006709686 0.019190688 -0.95913661 -0.28294331 0 0
-0.023989301 -0.0069802376 0.019695615 -0.94226098 -0.33487943 0 0
-0.018821506 -0.0066458252 0.019362478 0.92750233 0.37381747 0 0
0.018900931 -0.0064067435 0.019808723 -0.95339626 0.30172038 0.00059618807 0
0.019006483 -0.0060732733 0.019841237 -0.95339626 0.30172038 0.00059618807 0
0.024121227 -0.0065091774 0.019810736 0.97418064 -0.22576857 -0.00083497219 0
-0.024345197 -0.0054347133 0.019537456 -0.97908407 -0.20345622 0 0
-0.019132651 -0.0057578287 0.019458193 0.97369546 0.22785325 0 0
0.01919388 -0.005480343 0.019445915 -0.95339632 0.30172041 0.00059618813 0
0.024323706 -0.0055381283 0.019346887 0.97908407 -0.20345622 0 0
-0.024500387 -0.0046878881 0.019567452 -0.97908401 -0.20345621 0 0
-0.019444808 -0.0044238693 0.019470992 0.97369546 0.22785325 0 0
0.01949132 -0.0044672829 0.019454526 -0.98170841 0.19039083 0 0
0.024578709 -0.0043109842 0.019211506 0.97908407 -0.20345622 0 0
-0.024734275 -0.003506483 0.019925542 -0.99068594 -0.13616672 0 0
-0.019679436 -0.0034212235 0.019171828 0.97369552 0.22785328 0 0
0.019658662 -0.0034382567 0.019656004 -0.98828024 0.15264954 0.00060043432 0
0.024739077 -0.0035392609 0.019855091 0.97908407 -0.20345622 0 0
-0.024836877 -0.002384783 0.019534502 -0.99766874 -0.068242341 0 0
-0.01978782 -0.0027636576 0.019524407 0.99706578 0.076549254 0 0
0.01981622 -0.002417068 0.019370055 -0.9882803 0.15264954 0.00060043437 0
0.024849532 -0.002199776 0.019741498 0.9976688 -0.068242349 0 0
-0.024883356 -0.0017052505 0.019446563 -0.99766886 -0.068242349 0 0
-0.019877279 -0.0015984579 0.019713152 0.99706584 0.076549262 0 0
0.019933023 -0.0015319795 0.019471835 -0.99577546 0.09182138 0.00012021389 0
0.024886411 -0.0016606231 0.019500736 0.9976688 -0.068242349 0 0
-0.024961254 -0.00056645513 0.019715048 -0.99766874 -0.068242349 0 0
-0.01996759 -0.00042212935 0.019372568 0.99706584 0.076549262 0 0
0.019980704 -0.00050339126 0.019345827 -0.99926621 0.038301867 0 0
0.024968736 -0.00045705272 0.019541625 0.9976688 -0.068242349 0 0
-0.024952216 0.00069858297 0.019443775 -0.99766874 0.068242341 0 0
-0.019988656 0.00014775427 0.019532783 0.99706584 -0.076549262 -3.7498322e-18 0
0.019978343 0.00056498911 0.019353332 -0.99926621 -0.038301863 -1.9243594e-18 0
0.024972992 0.00055790215 0.019280087 0.9982149 0.059723485 -0.00047230368 0
-0.024897549 0.0014977946 0.019541364 -0.99766886 0.068242349 0 0
-0.019902054 0.0012757652 0.019344583 0.99706584 -0.076549262 0 0
0.019914873 0.0016042672 0.019689556 -0.99541658 -0.095633589 -4.8188534e-19 0
0.024907805 0.0015245244 0.019148918 0.99766856 0.068242334 -0.00062966935 0
-0.024832467 0.0024492713 0.019366948 -0.9976688 0.068242349 0 0
-0.019801933 0.0025798371 0.019670341 0.99706584 -0.076549262 0 0
0.019766307 0.0026640417 0.019431593 -0.98828036 -0.15264955 0 0
0.024848536 0.0023940608 0.019478528 0.99766856 0.068242334 -0.00062966929 0
-0.024751114 0.0034247735 0.01951573 -0.99068594 0.13616672 0 0
-0.01972477 0.0032275086 0.019307047 0.97369546 -0.22785325 0 0
0.019629905 0.0035471271 0.019359993 -0.98828036 -0.15264957 0 0
0.024750926 0.0034838885 0.019649642 0.98907119 0.14743842 0 0
-0.024519075 0.004597961 0.019654904 -0.97908401 0.20345621 0 0
-0.019383421 0.0046862019 0.019372014 0.97369546 -0.22785325 0 0
0.019410819 0.0047281804 0.019259049 -0.96421629 -0.26511648 0.00024027108 0
0.024518792 0.0046592145 0.0194476 0.97908384 0.20345613 -0.00062651478 0
-0.024272969 0.0057822885 0.019101292 -0.97908407 0.20345622 0 0
-0.019239299 0.0053020827 0.019408887 0.97369552 -0.22785328 0 0
0.019225864 0.0053408584 0.01945715 -0.95339644 -0.30172047 0 0
0.024325624 0.0055894605 0.019666225 0.97908384 0.20345615 -0.00062651478 0
-0.02411535 0.0065149805 0.019393366 -0.97317082 0.23008402 0 0
-0.019015728 0.0061639296 0.019088382 0.92750233 -0.37381747 0 0
-0.018788584 0.0067275139 0.019367719 0.92750233 -0.37381747 0 0
0.018820964 0.0066254921 0.019363109 -0.95895624 -0.28355363 0.00059341756 0
0.024134476 0.0064821029 0.019457793 0.97546774 0.22014233 -0.00031330308 0
-0.023914309 0.0071912403 0.019398965 -0.94226098 0.33487943 0 0
-0.018384038 0.0077312537 0.019280769 0.92750233 -0.37381747 0 0
0.018543102 0.0074633709 0.019411007 -0.92942649 -0.36900729 0 0
0.023910388 0.0072384523 0.019530127 0.94226086 0.33487937 -0.00062037801 0
-0.023398224 0.0086433617 0.019907415 -0.94226098 0.33487943 0 0
-0.017997276 0.0086908732 0.019194745 0.92750233 -0.37381747 0 0
0.017988898 0.0086264797 0.019675625 -0.89616537 -0.44372007 0.00037880574 0
0.018161621 0.0082777543 0.019815722 -0.89616537 -0.44372007 0.00037880577 0
0.023452068 0.0085280407 0.019528531 0.9422608 0.33487934 -0.00062037801 0
-0.023066122 0.0095778126 0.019364873 -0.94226098 0.33487943 0 0
-0.017610412 0.0094007179 0.019528024 0.85956991 -0.51101822 0 0
0.017657973 0.0092947073 0.019526469 -0.89616537 -0.44372007 0.00037880574 0
0.022992041 0.0098034199 0.019499872 0.9302786 0.36685386 0 0
0.023130052 0.0094319358 0.019507604 0.93838829 0.34558231 -0.00041363892 0
-0.02281855 0.010175659 0.019460052 -0.88788509 0.46006528 0 0
-0.017250385 0.010006304 0.019544406 0.85956991 -0.51101822 0 0
-0.016901296 0.010593498 0.019366976 0.85956991 -0.51101822 0 0
0.017111789 0.010333542 0.019423831 -0.81792939 -0.57531863 0 0
0.022786351 0.010257649 0.019576544 0.89812785 0.43973431 -0.00020387229 0
-0.022131735 0.011501148 0.019326393 -0.88788509 0.46006528 0 0
-0.021938927 0.011873253 0.019581741 -0.88788509 0.46006528 0 0
-0.016304331 0.011530336 0.019566523 0.80294323 -0.59605545 0 0
0.01638012 0.011373757 0.019503323 -0.81792939 -0.57531863 0 0
0.021947704 0.011882062 0.019368734 0.88788491 0.46006522 -0.0006115376 0
0.022231204 0.011335323 0.019662511 0.88788497 0.46006522 -0.00061153766 0
-0.021758616 0.012221238 0.019469969 -0.88788509 0.46006528 0 0
-0.015581944 0.012448108 0.019438215 0.77148908 -0.63624257 0 0
0.015556324 0.012539826 0.019726684 -0.78751379 -0.61629707 0 0
0.021641999 0.012472209 0.019489784 0.88788497 0.46006522 -0.00061153766 0
-0.021095712 0.013364699 0.019640742 -0.81697005 0.57668012 0 0
-0.020946547 0.013576016 0.019262794 -0.81697005 0.57668012 0 0
-0.015101517 0.013030661 0.019666972 0.77148908 -0.63624257 0 0
-0.014577569 0.013662823 0.019436665 0.75502515 -0.6556958 0 0
0.014471408 0.013720665 0.019216681 -0.72052175 -0.69343245 0 0
0.015113711 0.013053268 0.019620584 -0.72052175 -0.69343245 0 0
0.020899277 0.013663277 0.019493282 0.81696993 0.57668 -0.00060037751 0
-0.020276524 0.01452522 0.019551326 -0.81697005 0.57668012 0 0
-0.019949052 0.014989145 0.019492704 -0.81697005 0.57668012 0 0
-0.014124144 0.014123789 0.019179855 0.6653257 -0.74655324 0 0
-0.013410079 0.014760162 0.019607937 0.6653257 -0.74655324 0 0
0.01382372 0.014393655 0.019627389 -0.72052169 -0.69343233 0 0
0.014105964 0.014100384 0.019377073 -0.72052169 -0.69343245 0 0
0.020288965 0.01452781 0.019415736 0.81696987 0.57667994 -0.00060037745 0
-0.01942217 0.015707972 0.019692797 -0.77571136 0.63108796 0 0
-0.012720078 0.015375087 0.019550877 0.66532564 -0.74655324 0 0
0.01244293 0.015589346 0.019375732 -0.60622567 -0.79529274 0 0
0.013107761 0.015082568 0.019505011 -0.60622561 -0.79529268 0 0
0.01964826 0.015429758 0.019687418 0.80145061 0.59806079 -0.00040066789 0
-0.019100036 0.016090654 0.019617377 -0.7308358 0.68255341 0 0
-0.018735448 0.016481033 0.019427299 -0.73083574 0.68255335 0 0
-0.011508795 0.01630459 0.019765217 0.54356736 -0.8393656 0 0
-0.010643216 0.016865131 0.019552367 0.54356736 -0.83936554 0 0
0.010634124 0.016916309 0.01947909 -0.47771955 -0.87851238 0 0
0.011454095 0.016343106 0.019611422 -0.60622561 -0.79529279 0 0
0.018649865 0.016582387 0.019556055 0.73083568 0.68255329 -0.00033921719 0
0.019106781 0.016090943 0.019386861 0.73902327 0.67367995 0 0
-0.018143062 0.017115321 0.019981718 -0.7308358 0.68255341 0 0
-0.017387854 0.017923951 0.019659257 -0.7308358 0.68255341 0 0
-0.010260439 0.017113015 0.019475291 0.54356736 -0.83936554 0 0
-0.0094478345 0.017607486 0.019711724 0.50003844 -0.86600322 0 0
0.0087946597 0.017916579 0.019399058 -0.47771955 -0.87851238 0 0
0.009621257 0.017467089 0.019155724 -0.47771955 -0.87851238 0 0
0.010019805 0.017250367 0.019120347 -0.47771955 -0.87851238 0 0
0.017720932 0.017576884 0.019259857 0.73083574 0.68255335 -0.00033921722 0
0.018072184 0.017200693 0.019077612 0.73083574 0.68255335 -0.00033921722 0
-0.017108569 0.018217195 0.019525768 -0.66571677 0.7462045 0 0
-0.016704848 0.01856295 0.019203626 -0.63108838 0.77571094 0 0
-0.0082168803 0.018169843 0.019968422 0.4090687 -0.9125036 0 0
-0.0074126609 0.018530367 0.01958376 0.4090687 -0.9125036 0 0
-0.006596724 0.01886325 0.019555457 0.31382915 -0.94947946 0 0
0.006336973 0.018912502 0.01980629 -0.33801687 -0.94114012 0 0
0.0074119843 0.018526405 0.019727996 -0.33801684 -0.94114 0 0
0.0083825737 0.018140662 0.019605583 -0.47771955 -0.87851238 0 0
0.016508991 0.018722294 0.019231834 0.63108838 0.77571094 0 0
0.017106025 0.018228972 0.01973678 0.68549323 0.72807908 -0.00011325025 0
-0.016100198 0.019054871 0.01938558 -0.63108838 0.77571094 0 0
-0.015464715 0.019571876 0.01954131 -0.63108832 0.775711 0 0
-0.006006428 0.019029979 0.019298024 0.26498184 -0.96425343 0 0
-0.0054949122 0.019170547 0.019496204 0.26498184 -0.96425343 0 0
-0.0045507732 0.01943 0.019438023 0.26498181 -0.96425343 0 0
-0.0034360157 0.019675579 0.019056395 0.19039123 -0.98170829 0 0
-0.0026173133 0.019771604 0.019436708 0.11468337 -0.99340212 0 0
-0.001457822 0.019905463 0.019604467 0.11468337 -0.99340212 0 0
-0.00072487909 0.019965522 0.019471237 0.063854553 -0.9979592 0 0
0.0006528832 0.019930935 0.019606449 -0.038302612 -0.99926621 0 0
0.0014375119 0.01990086 0.019611208 -0.038302608 -0.99926615 0 0
0.0024918322 0.019820172 0.019680042 -0.12992175 -0.99152416 0 0
0.0037839024 0.019579027 0.019439382 -0.1903913 -0.98170835 0 0
0.0045805364 0.01942453 0.019601384 -0.19039129 -0.98170835 0 0
0.0054690912 0.019214878 0.019541694 -0.28956342 -0.9571588 0 0
0.015539773 0.019510811 0.0194932 0.63108844 0.77571094 0 0
-0.014650842 0.020228876 0.019571314 -0.60969669 0.79263479 0 0
-0.013664771 0.020881694 0.019416377 -0.51958376 0.85441953 0 0
0.013509101 0.020976359 0.019478804 0.51958376 0.85441953 0 0
0.014570027 0.020281035 0.019390559 0.57668048 0.81696981 0 0
-0.013469151 0.021000654 0.019008731 -0.51958376 0.85441953 0 0
-0.012638503 0.021505781 0.019026274 -0.51958376 0.85441953 0 0
-0.011978937 0.021906873 0.019454777 -0.51958376 0.85441953 0 0
0.011969086 0.021912863 0.019378455 0.51958376 0.85441947 0 0
0.012400843 0.021650305 0.019557364 0.51958376 0.85441947 0 0
0.013107633 0.021220498 0.019261122 0.51958376 0.85441953 0 0
-0.01139323 0.022233291 0.019442279 -0.43970621 0.89814168 0 0
-0.01043928 0.022658572 0.019276679 -0.39840093 0.91721141 0 0
0.0098039648 0.02293453 0.019586299 0.39840093 0.91721141 0 0
0.010357368 0.022694152 0.019284613 0.39840093 0.91721141 0 0
0.011510181 0.022187874 0.019460166 0.48018438 0.87716758 0 0
-0.0095693627 0.023036432 0.019612014 -0.39840093 0.91721141 0 0
-0.0084168566 0.023537036 0.019730633 -0.39840093 0.91721141 0 0
-0.0072372989 0.023874449 0.019619521 -0.26979673 0.96291733 0 0
-0.0069849887 0.023945143 0.01962465 -0.26979673 0.96291733 0 0
0.0077083609 0.023742462 0.019229092 0.2697967 0.96291733 0 0
0.008622258 0.023446942 0.019319814 0.37323669 0.92773616 0 0
0.0092809722 0.023161696 0.01917755 0.39840093 0.91721141 0 0
-0.005934956 0.02423935 0.019500295 -0.26979673 0.96291733 0 0
-0.0042202538 0.024596151 0.019095261 -0.13616699 0.99068594 0 0
-0.0036457716 0.024675112 0.019118318 -0.13616699 0.99068594 0 0
-0.0025286998 0.024828652 0.019561609 -0.13616699 0.99068594 0 0
-0.0015324722 0.024936162 0.019587811 -0.068242587 0.9976688 0 0
0.00071331277 0.02494172 0.019723505 0 1 0 0
0.0014834893 0.024937702 0.019352481 0.034101352 0.99941838 0 0
0.0024641978 0.024837514 0.019469423 0.13616697 0.99068588 0 0
0.0036720864 0.024671495 0.019579446 0.13616697 0.99068588 0 0
0.0044816071 0.024560228 0.019256903 0.13616699 0.99068594 0 0
0.0054566781 0.024371132 0.019672908 0.22572114 0.97419202 0 0
0.0063323532 0.024128001 0.019534249 0.26979673 0.96291733 0 0
-0.0064302818 -0.024100563 0.020465842 -0.2697967 -0.96291733 0 0
-0.00563215 -0.02432419 0.020758238 -0.26979673 -0.96291733 0 0
-0.0041625649 -0.02460408 0.020130014 -0.13616699 -0.99068594 0 0
-0.0033493382 -0.024715856 0.020847296 -0.13616699 -0.99068594 0 0
-0.0025604726 -0.024824284 0.02047593 -0.13616697 -0.99068588 0 0
-0.0013282396 -0.02494172 0.020468548 0 -1 0 0
-0.00070809119 -0.02494172 0.020436971 0 -1 0 0
0.00061856478 -0.02494172 0.020123031 0 -1 0 0
0.0014779249 -0.02494172 0.020469395 0 -1 0 0
0.0023063309 -0.024859214 0.020524107 0.13616697 -0.99068588 0 0
0.0037321993 -0.024663232 0.020384591 0.13616699 -0.99068594 0 0
0.0045776092 -0.024547033 0.020526178 0.13616697 -0.99068588 0 0
0.0054765353 -0.024365582 0.020700825 0.2368032 -0.97155768 0 0
0.0060480293 -0.024207667 0.020214831 0.26979673 -0.96291733 0 0
-0.0092186369 -0.023188774 0.020283017 -0.39840093 -0.91721141 0 0
-0.0084303562 -0.023513746 0.020664258 -0.34773743 -0.93759197 0 0
-0.0072520087 -0.023870327 0.020361645 -0.26979673 -0.96291733 0 0
0.0073779062 -0.023835052 0.020329634 0.26979673 -0.96291733 0 0
0.0086491322 -0.023418995 0.020681171 0.35627106 -0.93438268 0 0
0.0094089806 -0.023106096 0.020403177 0.39840093 -0.91721135 0 0
-0.011346421 -0.022250846 0.020723069 -0.43970627 -0.89814168 0 0
-0.010465044 -0.022647381 0.020372398 -0.39840093 -0.91721135 0 0
-0.0097562801 -0.022955241 0.020769561 -0.39840093 -0.91721141 0 0
0.0098216422 -0.02292685 0.020532258 0.39840093 -0.91721141 0 0
0.010907148 -0.02245535 0.020613546 0.39840093 -0.91721141 0 0
0.01139395 -0.022231249 0.020538939 0.4478763 -0.89409554 0 0
-0.013067325 -0.02124501 0.020648375 -0.51958376 -0.85441953 0 0
0.01188343 -0.021964952 0.020615026 0.51958376 -0.85441953 0 0
0.012252461 -0.021740539 0.020693745 0.51958376 -0.85441953 0 0
0.013344053 -0.021076726 0.020038506 0.51958376 -0.85441953 0 0
-0.014585715 -0.020268137 0.020616876 -0.59515333 -0.80361223 0 0
-0.013712147 -0.020852884 0.020373363 -0.51958376 -0.85441953 0 0
0.013731902 -0.02084087 0.020551978 0.51958376 -0.85441947 0 0
0.014754367 -0.020149788 0.020528689 0.63108844 -0.77571094 0 0
-0.015425669 -0.019603642 0.020869419 -0.63108838 -0.77571094 0 0
-0.0056639812 -0.019124085 0.020387072 0.26498184 0.96425343 0 0
-0.0044376608 -0.019461082 0.020617079 0.26498184 0.96425343 0 0
-0.0032362989 -0.019700147 0.020445861 0.11468337 0.99340212 0 0
-0.0025517882 -0.01977917 0.020715144 0.11468337 0.99340212 0 0
-0.0015622673 -0.019893406 0.020461677 0.11468337 0.99340212 0 0
-0.00053738226 -0.019976102 0.020495772 0.038302764 0.99926621 0 0
0.00043096585 -0.019939441 0.020520654 -0.038302612 0.99926621 0 0
0.0014823838 -0.019899137 0.020515839 -0.038302608 0.99926615 0 0
0.0025089863 -0.01981809 0.020410581 -0.15270504 0.98827177 0 0
0.0033367092 -0.019665757 0.020636417 -0.1903913 0.98170835 0 0
0.0047219652 -0.019397102 0.020729 -0.19039129 0.98170829 0 0
0.0056350087 -0.019160476 0.020616876 -0.30907184 0.95103872 0 0
0.015414706 -0.01961256 0.020561416 0.63108838 -0.77571094 0 0
0.016139481 -0.019022912 0.020758444 0.63108838 -0.77571094 0 0
-0.017066868 -0.018260935 0.020639254 -0.66571677 -0.7462045 0 0
-0.016766673 -0.018512651 0.020640031 -0.63108838 -0.77571094 0 0
-0.0083813472 -0.018096114 0.02056904 0.4090687 0.91250366 0 0
-0.0077122403 -0.018396068 0.020412631 0.4090687 0.9125036 0 0
-0.0065606027 -0.018870709 0.020552546 0.31382912 0.94947946 0 0
0.0066381972 -0.018804314 0.020847863 -0.33801684 0.94114 0 0
0.0079044215 -0.018349541 0.020661971 -0.33801687 0.94114012 0 0
0.0081950771 -0.01823803 0.020558439 -0.40906847 0.91250366 0 0
0.016603829 -0.018645136 0.020670777 0.63108832 -0.775711 0 0
0.017217442 -0.018112423 0.020639248 0.71549529 -0.69861752 -0.00020526639 0
-0.018141963 -0.0171165 0.020527467 -0.7308358 -0.68255341 0 0
-0.017762337 -0.01752298 0.020385098 -0.7308358 -0.68255341 0 0
-0.010237532 -0.017127849 0.020442378 0.54356736 0.83936554 0 0
-0.0096912719 -0.017467488 0.020511655 0.51106697 0.85954094 0 0
0.0087854164 -0.017921604 0.020849764 -0.47771955 0.87851238 0 0
0.0094208149 -0.017576085 0.020313812 -0.47771955 0.87851238 0 0
0.010345313 -0.017073361 0.02078006 -0.47771955 0.87851238 0 0
0.01767878 -0.017613821 0.020675533 0.73351425 -0.67967409 -0.00013676724 0
0.018010316 -0.017257458 0.020827627 0.7308358 -0.68255341 0 0
-0.019067999 -0.016124956 0.020871932 -0.7308358 -0.68255341 0 0
-0.018427799 -0.016810443 0.020472098 -0.73083568 -0.68255341 0 0
-0.011582747 -0.016256699 0.020582836 0.54356736 0.83936554 0 0
-0.010933869 -0.016676908 0.020637708 0.54356736 0.83936554 0 0
0.010805509 -0.016822567 0.020124003 -0.54356754 0.83936542 0 0
0.011627913 -0.016210608 0.020714639 -0.60622567 0.79529274 0 0
0.018642556 -0.016580496 0.020454668 0.7308358 -0.68255341 0 0
0.019168753 -0.016017076 0.020593474 0.7308358 -0.68255341 0 0
-0.01967708 -0.015374438 0.020217335 -0.81697005 -0.57668012 0 0
-0.012621278 -0.015463139 0.020637168 0.6653257 0.74655324 0 0
0.012552513 -0.015505815 0.020301277 -0.60622567 0.79529274 0 0
0.01319588 -0.015015397 0.020266782 -0.60622567 0.79529274 0 0
0.01990643 -0.015049526 0.020769427 0.81697005 -0.57668018 0 0
-0.020345733 -0.014427177 0.020628847 -0.81697005 -0.57668012 0 0
-0.019986404 -0.014936228 0.020533687 -0.81697005 -0.57668012 0 0
-0.013696185 -0.014505185 0.020526208 0.66532564 0.74655318 0 0
0.013509053 -0.014720614 0.020634288 -0.72052169 0.69343245 0 0
0.014142595 -0.014062322 0.020322608 -0.72052169 0.69343245 0 0
0.020078287 -0.014806057 0.020290667 0.81697005 -0.57668018 0 0
-0.021164188 -0.013267691 0.020445777 -0.81697005 -0.57668012 0 0
-0.020938125 -0.013587948 0.020700509 -0.81697005 -0.57668012 0 0
-0.014737474 -0.013472089 0.020502185 0.77148908 0.63624257 0 0
0.014448293 -0.013744683 0.020442449 -0.72052169 0.69343233 0 0
0.015110472 -0.013056634 0.020640943 -0.72052175 0.69343245 0 0
0.020867225 -0.013688389 0.020396182 0.81697005 -0.57668018 0 0
-0.021619925 -0.012488901 0.020373942 -0.88788509 -0.46006531 0 0
-0.015591718 -0.012436257 0.020612825 0.77148908 0.63624257 0 0
0.015554938 -0.012525606 0.020633586 -0.78751379 0.61629707 0 0
0.021562852 -0.012619467 0.020455223 0.89543837 -0.44518456 -0.0009101805 0
-0.022296689 -0.011182807 0.020581584 -0.88788509 -0.46006528 0 0
-0.016365744 -0.011463189 0.020399379 0.83238029 0.55420494 0 0
0.016428353 -0.011305185 0.020449009 -0.81792939 0.57531863 0 0
0.021950219 -0.011851465 0.020282179 0.88788509 -0.46006531 0 0
0.022311408 -0.011154399 0.020331554 0.88788509 -0.46006531 0 0
-0.022462647 -0.010862525 0.020495478 -0.88788509 -0.46006528 0 0
-0.017083205 -0.010287511 0.020332424 0.85956991 0.51101822 0 0
-0.016857374 -0.010667376 0.020285286 0.85956991 0.51101822 0 0
0.016804196 -0.010770852 0.020429153 -0.81792939 0.57531863 0 0
0.017158963 -0.010266479 0.02046098 -0.81792939 0.57531863 0 0
0.02256687 -0.010661386 0.020847436 0.88788509 -0.46006531 0 0
-0.023118731 -0.0094297882 0.020452049 -0.94226098 -0.33487946 0 0
-0.017479395 -0.009621094 0.020607946 0.85956991 0.51101822 0 0
0.01766591 -0.0092793768 0.020346828 -0.89616537 0.44372007 0.00037880629 0
0.02293241 -0.0099546351 0.0206395 0.9302786 -0.36685386 0 0
0.023168102 -0.009301153 0.020564469 0.94223595 -0.3349497 -0.00024671064 0
-0.023403963 -0.0086272219 0.02050644 -0.94226098 -0.33487946 0 0
-0.018185843 -0.0082230093 0.020312143 0.92750233 0.37381747 0 0
-0.017877482 -0.0089514833 0.020782687 0.85956991 0.51101822 0 0
0.018125689 -0.0083508361 0.020413008 -0.89616537 0.44372007 0.00037880629 0
0.023429511 -0.0085553322 0.020528503 0.94226098 -0.33487943 0 0
-0.023721825 -0.0077328421 0.02048438 -0.94226098 -0.33487943 0 0
-0.018555257 -0.0073064296 0.020470757 0.92750227 0.37381744 0 0
0.018555151 -0.0074516339 0.020445928 -0.93423814 0.35664988 0 0
0.023863286 -0.007334806 0.020627012 0.94226098 -0.33487943 0 0
-0.024087852 -0.0066424748 0.020477466 -0.96291733 -0.26979679 0 0
-0.018831233 -0.0066216867 0.020480139 0.92750233 0.37381747 0 0
0.018932287 -0.0063095116 0.020740518 -0.9533962 0.30172038 0.00059618807 0
0.024107343 -0.0065758028 0.02067792 0.968795 -0.24786292 -0.00041716217 0
-0.024297982 -0.0056619183 0.020414744 -0.97908401 -0.20345621 0 0
-0.019226728 -0.0053558042 0.020048527 0.97369546 0.22785325 0 0
0.019293573 -0.005166851 0.02021727 -0.95339626 0.30172038 0.00059618807 0
0.024433913 -0.0050077876 0.020547831 0.97908407 -0.20345622 0 0
-0.024460573 -0.0048794928 0.02066795 -0.97908407 -0.20345622 0 0
-0.019492362 -0.0042206654 0.020690929 0.97369546 0.22785325 0 0
0.019407859 -0.0047631157 0.02056969 -0.9642486 0.26499939 0.00039804279 0
0.024565935 -0.004372451 0.020342482 0.97908407 -0.20345621 0 0
-0.024718937 -0.0036067353 0.020835049 -0.99068594 -0.13616672 0 0
-0.019674994 -0.0034402106 0.020461179 0.97369546 0.22785325 0 0
0.019657385 -0.0034503732 0.020633033 -0.98828024 0.15264954 0.00060043432 0
0.024805963 -0.0030266147 0.020956289 0.99475729 -0.10226429 0 0
-0.024817657 -0.0026657907 0.020474706 -0.9976688 -0.068242349 0 0
-0.019825893 -0.0022677872 0.02035678 0.99706578 0.076549254 0 0
0.019847367 -0.0022210716 0.020805918 -0.9882803 0.15264954 0.00060043437 0
0.024834206 -0.0024238254 0.020432353 0.99766874 -0.068242349 0 0
-0.024897318 -0.0015011365 0.020544587 -0.99766886 -0.068242349 0 0
-0.019903535 -0.0012564751 0.020425126 0.99706578 0.076549254 0 0
0.019933745 -0.0015418384 0.020627547 -0.99706584 0.076549254 0 0
0.02489383 -0.0015521371 0.020617209 0.9976688 -0.068242349 0 0
-0.024960602 -0.00057597784 0.020471562 -0.99766886 -0.068242349 0 0
-0.019978832 -0.00027569794 0.020388804 0.99706584 0.076549262 0 0
0.019981615 -0.00047961046 0.020469174 -0.99926621 0.038301867 0 0
-0.024952561 0.00069353118 0.020461993 -0.99766874 0.068242349 0 0
0.01998472 0.00039863921 0.020413624 -0.99926621 -0.038301863 -1.9243594e-18 0
0.024968922 0.00064231275 0.020371344 0.99766862 0.068242334 -0.00062966935 0
-0.024900019 0.0014616773 0.020534113 -0.99766874 0.068242341 0 0
-0.019873662 0.0016455749 0.020627456 0.99706578 -0.076549254 0 0
0.019935235 0.0014828284 0.020479819 -0.99706727 -0.076530054 0 0
0.024880793 0.0019289148 0.020176372 0.99766862 0.068242334 -0.00062966935 0
-0.024816904 0.0026767573 0.020626826 -0.9976688 0.068242349 0 0
-0.019786503 0.0027808349 0.020484131 0.99706584 -0.076549262 0 0
0.019831263 0.0022434974 0.020757521 -0.98828036 -0.15264957 0 0
0.024831815 0.0026473233 0.020431338 0.99766862 0.068242334 -0.00062966935 0
-0.024755707 0.0033741652 0.020417193 -0.98930812 0.14584047 0 0
-0.019681374 0.0034129426 0.020663148 0.97369552 -0.22785328 0 0
0.019671533 0.0032776103 0.020723794 -0.98828042 -0.15264957 0 0
0.024751319 0.003428102 0.020349724 0.99068695 0.13615897 -0.00012541993 0
-0.024511881 0.004632581 0.020607691 -0.97908407 0.20345622 0 0
-0.019388348 0.0046651522 0.020568881 0.97369546 -0.22785325 0 0
0.019457268 0.0045714811 0.020544671 -0.97369975 -0.227835 0 0
0.024540875 0.0045570144 0.020771068 0.97908384 0.20345613 -0.00062651478 0
-0.024253944 0.0058738394 0.020666135 -0.97908407 0.20345622 0 0
-0.019166123 0.0056147822 0.020764183 0.97369546 -0.22785325 0 0
0.019167338 0.0055257929 0.020521868 -0.95339644 -0.30172047 0 0
0.02425836 0.0059162877 0.020684987 0.97908384 0.20345615 -0.00062651478 0
-0.019058887 0.0060568452 0.020276701 0.92750233 -0.37381747 0 0
-0.018794829 0.0067120134 0.02045879 0.92750233 -0.37381747 0 0
0.01884076 0.0065587037 0.020418184 -0.95566154 -0.29446733 0.00023735159 0
0.024093751 0.0066475272 0.020558544 0.96291727 0.2697967 0 0
-0.023880776 0.0072855935 0.020058183 -0.94226098 0.33487943 0 0
-0.018553939 0.0073097013 0.020560881 0.92750227 -0.37381747 0 0
0.018548261 0.0074511319 0.020480514 -0.93257052 -0.36098763 0.00023786121 0
0.023889709 0.0072962455 0.02057527 0.94508511 0.32682386 -0.00046533436 0
-0.023506761 0.0083379764 0.020574505 -0.94226098 0.33487943 0 0
-0.018122047 0.0083813006 0.02062385 0.92750233 -0.37381747 0 0
0.017978739 0.0086477725 0.020585367 -0.89616537 -0.44372007 0.00037880574 0
0.018045962 0.0085120648 0.020659754 -0.89616537 -0.44372007 0.00037880574 0
0.023454513 0.0085228551 0.020442601 0.94226086 0.33487937 -0.00062037801 0
-0.023160663 0.009311798 0.020534195 -0.94226098 0.33487943 0 0
-0.017377462 0.0097925542 0.020188563 0.85956991 -0.51101822 0 0
0.017486647 0.0096414341 0.020355586 -0.89616537 -0.44372007 0.00037880574 0
0.022982169 0.0098284502 0.020933973 0.9302786 0.36685386 0 0
0.023152614 0.0093727279 0.020663481 0.9422608 0.33487934 -0.00062037801 0
-0.022649359 0.010502189 0.020490829 -0.88788509 0.46006528 0 0
-0.017107142 0.01024725 0.020774068 0.85956991 -0.51101822 0 0
-0.016835488 0.010704193 0.020707265 0.85956991 -0.51101822 0 0
0.016714023 0.010899046 0.020749111 -0.81792939 -0.57531863 0 0
0.017175023 0.010240993 0.020141423 -0.84355372 -0.53704476 0 0
0.022620345 0.01058142 0.020424733 0.8930639 0.44992959 -0.00040774458 0
-0.022254327 0.011264562 0.02047413 -0.88788509 0.46006528 0 0
-0.021881662 0.011983775 0.020617574 -0.88788509 0.46006528 0 0
-0.016368922 0.011451231 0.020307982 0.82666606 -0.56269288 0 0
0.016292144 0.011498831 0.020465788 -0.81792939 -0.57531863 0 0
0.022200476 0.01139571 0.020476745 0.88788491 0.46006519 -0.0006115376 0
-0.021578753 0.012567411 0.020474907 -0.86604106 0.49997276 0 0
-0.015352951 0.012725778 0.0204353 0.77148908 -0.63624257 0 0
0.015377675 0.012761828 0.020515606 -0.75913763 -0.65093011 0 0
0.02164495 0.012468262 0.020806622 0.88788497 0.46006522 -0.00061153766 0
-0.021184582 0.013238795 0.020621497 -0.81697005 0.57668012 0 0
-0.020864304 0.013692524 0.020656263 -0.81697005 0.57668012 0 0
-0.015111055 0.013019094 0.020055275 0.77148908 -0.63624257 0 0
-0.014648782 0.013579633 0.020641483 0.77148908 -0.63624257 0 0
0.014648844 0.013536297 0.020284453 -0.72052175 -0.69343245 0 0
0.015018499 0.0131522 0.020832265 -0.72052175 -0.69343245 0 0
0.020839933 0.013748178 0.02029 0.81696987 0.57667994 -0.00060037745 0
0.021194855 0.013241001 0.020489903 0.82988602 0.55793291 -0.00020015176 0
-0.020380646 0.014377714 0.020447448 -0.81697005 0.57668012 0 0
-0.014122418 0.014125328 0.020078326 0.6653257 -0.74655324 0 0
-0.01361097 0.014581126 0.020472189 0.6653257 -0.74655324 0 0
0.013708319 0.014513564 0.020426229 -0.72052169 -0.69343233 0 0
0.02042404 0.014337527 0.020445609 0.81696993 0.57667994 -0.00060037756 0
-0.019717051 0.015313924 0.020505661 -0.80365461 0.59509599 0 0
-0.012415107 0.015640907 0.020488786 0.63628584 -0.77145344 0 0
0.012314034 0.015687598 0.020672657 -0.60622561 -0.79529268 0 0
0.019626236 0.015461531 0.02023902 0.79827595 0.60229182 -0.00036064591 0
-0.019146752 0.016040633 0.020492537 -0.7308358 0.68255341 0 0
-0.018398507 0.016841808 0.020560455 -0.73083568 0.68255341 0 0
-0.011515558 0.016300211 0.020553673 0.54356736 -0.83936554 0 0
-0.010918625 0.016686779 0.020373728 0.54356736 -0.83936554 0 0
0.010584699 0.016943187 0.020883281 -0.47771955 -0.87851238 0 0
0.011563309 0.016259853 0.020618562 -0.60622561 -0.79529279 0 0
0.018804215 0.016417589 0.020503011 0.73083574 0.68255335 -0.00033921722 0
-0.018062651 0.01720142 0.020098759 -0.7308358 0.68255341 0 0
-0.017801346 0.01748121 0.020654343 -0.7308358 0.68255341 0 0
-0.010246255 0.017122202 0.020689411 0.54356736 -0.83936554 0 0
-0.0097201299 0.017462917 0.02046255 0.54356736 -0.83936554 0 0
0.0089878915 0.017811503 0.020108461 -0.47771955 -0.87851238 0 0
0.0096731894 0.017438849 0.020497877 -0.47771955 -0.87851238 0 0
0.010347139 0.017072367 0.02056927 -0.47771955 -0.87851238 0 0
0.017624112 0.01768112 0.020396067 0.73083568 0.68255329 -0.00033921719 0
0.018176194 0.017090011 0.020459281 0.73083574 0.68255335 -0.00033921722 0
-0.016299631 0.01889262 0.020375036 -0.63108838 0.77571094 0 0
-0.008326944 0.018120503 0.020779623 0.4090687 -0.91250366 0 0
-0.0076710372 0.01841454 0.020112496 0.4090687 -0.91250366 0 0
-0.0062722052 0.018956941 0.020603009 0.26498184 -0.96425343 0 0
0.0065269978 0.018844254 0.02039993 -0.33801687 -0.94114012 0 0
0.0074077644 0.018527919 0.020509148 -0.33801687 -0.94114012 0 0
0.0083893519 0.018136978 0.020320296 -0.47771955 -0.87851238 0 0
0.01629799 0.018893955 0.020290172 0.63108844 0.77571094 0 0
0.017250909 0.018080944 0.020848092 0.73083574 0.68255335 -0.00033921722 0
-0.016075475 0.019074984 0.020621914 -0.63108838 0.77571094 0 0
-0.015582602 0.019475969 0.020598529 -0.63108844 0.77571094 0 0
-0.0060301479 0.019023459 0.020695418 0.26498184 -0.96425343 0 0
-0.0054669282 0.019178234 0.020337129 0.26498184 -0.96425343 0 0
-0.0044438858 0.019459374 0.020305978 0.26498184 -0.96425343 0 0
-0.0036903727 0.01963916 0.020492598 0.19039123 -0.98170829 0 0
-0.0025556225 0.019778725 0.020483837 0.11468337 -0.99340212 0 0
-0.001264222 0.019927813 0.020312285 0.11468336 -0.99340206 0 0
-0.00038442248 0.019970696 0.020329189 -0.038302608 -0.99926615 0 0
0.00058169058 0.019933665 0.020584377 -0.038302608 -0.99926615 0 0
0.0016457924 0.019892877 0.020281237 -0.038302612 -0.99926621 0 0
0.0026438273 0.01979452 0.020591421 -0.1689069 -0.985632 0 0
0.0035854673 0.019617513 0.020467645 -0.19039129 -0.98170829 0 0
0.0045417571 0.019432051 0.020454854 -0.1903913 -0.98170835 0 0
0.0050869561 0.019326314 0.020197708 -0.1903913 -0.98170835 0 0
0.0060896156 0.01900134 0.020166595 -0.33801687 -0.94114012 0 0
0.01533712 0.019675681 0.020539843 0.63108832 0.775711 0 0
-0.014570519 0.020277517 0.020642731 -0.6003722 0.79972076 0 0
-0.013548556 0.020952366 0.020622967 -0.51958376 0.85441947 0 0
0.014363334 0.0204414 0.020512706 0.56867003 0.82256573 0 0
-0.013246007 0.021136351 0.020981938 -0.51958376 0.85441953 0 0
-0.012483004 0.021600343 0.020244617 -0.51958376 0.85441953 0 0
0.012773158 0.021423895 0.020310082 0.51958376 0.85441953 0 0
0.013196093 0.021166703 0.020687336 0.51958376 0.85441953 0 0
-0.011205284 0.022325849 0.020161528 -0.39840093 0.91721141 0 0
-0.010512545 0.02262675 0.020485897 -0.39840093 0.91721141 0 0
-0.0097863702 0.022942171 0.020072563 -0.39840093 0.91721141 0 0
0.0097880885 0.022941425 0.020483036 0.39840093 0.91721141 0 0
0.010616388 0.022581644 0.020783881 0.39840093 0.91721141 0 0
0.011302992 0.022275725 0.020402519 0.41914061 0.90792131 0 0
-0.0094710989 0.023079114 0.020576846 -0.39840093 0.91721141 0 0
-0.0085321134 0.023475759 0.020638604 -0.35627106 0.93438268 0 0
-0.0074346685 0.023819149 0.020716833 -0.26979673 0.96291733 0 0
0.0075251809 0.023793787 0.020518489 0.26979673 0.96291733 0 0
0.0086684413 0.023427755 0.020561412 0.3984009 0.91721135 0 0
0.00920563 0.023194425 0.020771042 0.39840093 0.91721141 0 0
-0.0063725915 0.024116728 0.020681754 -0.26979673 0.96291733 0 0
-0.0055310265 0.024350675 0.020246496 -0.22572114 0.97419202 0 0
-0.0045475182 0.02455117 0.020382578 -0.13616697 0.99068588 0 0
-0.0035037652 0.024694633 0.020681532 -0.13616699 0.99068594 0 0
-0.0022376098 0.02486866 0.020556821 -0.13616697 0.99068588 0 0
-0.0012217087 0.02494172 0.020736685 0 1 0 0
-0.00010943296 0.02494172 0.0200423 0 1 0 0
0.00012781016 0.02494172 0.020383304 0 1 0 0
0.0013540965 0.024941718 0.020412806 0 1 0 0
0.0024655464 0.02483733 0.020560363 0.13616699 0.99068594 0 0
0.0036045469 0.024680778 0.020624226 0.13616699 0.99068594 0 0
0.0047196597 0.024527509 0.020640632 0.13616699 0.99068594 0 0
0.0057455082 0.02429243 0.020507852 0.2697967 0.96291733 0 0
0.0063950047 0.024110448 0.020698462 0.26979673 0.96291733 0 0
-0.0065612826 -0.024063861 0.021300735 -0.2697967 -0.96291733 0 0
-0.0056765303 -0.024311753 0.021424197 -0.26979673 -0.96291733 0 0
-0.0044243438 -0.0245681 0.021756276 -0.13616699 -0.99068594 0 0
-0.0033878689 -0.024710558 0.021639083 -0.13616699 -0.99068594 0 0
-0.0024271791 -0.024842605 0.021547813 -0.13616699 -0.99068594 0 0
-0.001927393 -0.024911299 0.021273289 -0.13616699 -0.99068594 0 0
-0.00041157744 -0.02494172 0.02134732 0 -1 0 0
0.00045169634 -0.02494172 0.021285737 0 -1 0 0
0.0017966798 -0.024928147 0.021700514 0.10230406 -0.99475318 0 0
0.0024858431 -0.02483454 0.02149637 0.13616697 -0.99068588 0 0
0.0033769347 -0.024712063 0.021564625 0.13616697 -0.99068588 0 0
0.0043424871 -0.02457935 0.021742862 0.13616699 -0.99068594 0 0
0.0053959261 -0.02438944 0.021398136 0.23680319 -0.97155768 0 0
0.0063596843 -0.024120342 0.021377791 0.26979673 -0.96291733 0 0
-0.008283345 -0.02357284 0.021337736 -0.30247647 -0.95315683 0 0
-0.0075369654 -0.023790486 0.021494139 -0.26979673 -0.96291733 0 0
-0.00694679 -0.023955844 0.021857429 -0.26979673 -0.96291733 0 0
0.006810063 -0.023994155 0.021166783 0.26979673 -0.96291733 0 0
0.0079164477 -0.023684161 0.02171885 0.26979673 -0.96291733 0 0
-0.011568303 -0.022149963 0.021469532 -0.46006483 -0.88788533 0 0
-0.0096773244 -0.022989538 0.021785146 -0.39840093 -0.91721141 0 0
0.0098726656 -0.022904688 0.021710984 0.39840093 -0.91721141 0 0
0.010499414 -0.022632455 0.021490872 0.39840093 -0.91721135 0 0
0.011349688 -0.022249034 0.021471156 0.43970627 -0.89814168 0 0
-0.01316869 -0.021183366 0.021228829 -0.51958376 -0.85441947 0 0
-0.012133911 -0.021812629 0.021479618 -0.51958376 -0.85441953 0 0
-0.011924763 -0.021939816 0.021040548 -0.51958376 -0.85441953 0 0
0.012421226 -0.021637911 0.021923311 0.51958376 -0.85441953 0 0
0.013197348 -0.021165941 0.021006046 0.51958376 -0.85441953 0 0
-0.014419821 -0.020421464 0.021507658 -0.57668048 -0.81696981 0 0
-0.013915131 -0.020729449 0.021545744 -0.51958376 -0.85441953 0 0
0.013695791 -0.020862831 0.021365119 0.51958376 -0.85441947 0 0
0.014681042 -0.020209441 0.021614494 0.63108838 -0.77571094 0 0
-0.015443586 -0.019589063 0.021939261 -0.63108838 -0.77571094 0 0
-0.014964825 -0.019978566 0.021244649 -0.63108838 -0.77571094 0 0
-0.0061015422 -0.019003842 0.021655452 0.26498184 0.96425343 0 0
-0.0051316819 -0.019270362 0.02177137 0.26498184 0.96425343 0 0
-0.0044249762 -0.019464571 0.021576334 0.26498184 0.96425343 0 0
