# .PCD v0.7 - Point Cloud Data file format
VERSION 0.7
FIELDS x y z
SIZE 4 4 4
TYPE F F F
COUNT 1 1 1
WIDTH 1401
HEIGHT 1
VIEWPOINT 0 0 0 1 0 0 0
POINTS 1401
DATA ascii
-0.12543371 0.087028451 0.22820537
-0.12365343 0.087456316 0.2282071
-0.11717579 0.087210953 0.22852154
-0.11997695 0.088302113 0.22820744
-0.15868929 0.15066296 0.22899058
-0.15602426 0.15189964 0.22887233
-0.15421301 0.15121871 0.22899558
-0.14628793 0.15391116 0.22875249
-0.14819978 0.15545027 0.2284981
-0.13780391 0.15661088 0.22851469
-0.11651474 0.15645911 0.22876206
-0.11169151 0.15671366 0.22876179
-0.10715903 0.1560296 0.22889245
-0.13987529 0.15728225 0.22838926
-0.12538452 0.15858042 0.22839777
-0.10379201 0.1580206 0.22864425
-0.13188396 0.15986468 0.22815096
-0.12260933 0.15968189 0.22827213
-0.11798128 0.15907477 0.22840074
-0.11322122 0.159411 0.22839247
-0.10823148 0.15964167 0.22840065
-0.12677746 0.16119255 0.22803052
-0.11957233 0.16169217 0.22802539
-0.086851344 0.048359811 0.22947338
-0.16615884 0.067333668 0.22975674
-0.16336845 0.070669644 0.22928731
-0.1596147 0.072686486 0.2291321
-0.10025985 0.08264754 0.22993609
-0.10331283 0.083851017 0.22962159
-0.10170294 0.083263159 0.22977936
-0.1077329 0.085662231 0.22915131
-0.10620255 0.085059449 0.22930792
-0.16516779 0.14634383 0.22947104
-0.09263701 0.14908816 0.22986299
-0.094411798 0.15090366 0.22962029
-0.098609 0.15264428 0.22937846
-0.10250257 0.15530135 0.22901024
-0.17386523 0.059039898 0.23084946
-0.1704617 0.064275227 0.23006672
-0.16855973 0.064904712 0.23006891
-0.096530348 0.078910753 0.23071949
-0.095118113 0.078257911 0.23087737
-0.099169962 0.081096344 0.23024993
-0.097277381 0.081415832 0.23025014
-0.17294884 0.13719381 0.23056079
-0.085837066 0.14078718 0.23095658
-0.087604567 0.14264904 0.23071307
-0.091026485 0.14634307 0.23022754
-0.17793749 0.051920358 0.23194659
-0.090176821 0.072802216 0.23197357
-0.092835598 0.075082317 0.23150398
-0.094000183 0.076662309 0.23119096
-0.1777344 0.13031623 0.23141062
-0.081231974 0.13418213 0.23181112
-0.082329959 0.13699755 0.23144953
-0.088284135 0.068626747 0.23275986
-0.089060247 0.07119187 0.2322879
-0.077970609 0.12848328 0.23254092
-0.087057509 0.062571906 0.23385547
-0.087571524 0.066061571 0.23322789
-0.14620185 0.083322249 0.23385857
-0.14449504 0.083808437 0.23385932
-0.14239161 0.085216545 0.23368622
-0.14061704 0.085703172 0.23368719
-0.13920937 0.085260093 0.23386073
-0.13693789 0.086692944 0.23368877
-0.13517222 0.087158151 0.23368843
-0.13345318 0.087612718 0.23368891
-0.12848848 0.087994248 0.23386419
-0.12991667 0.088491589 0.23369139
-0.12476223 0.08887215 0.23386689
-0.12298159 0.089299925 0.23386858
-0.077321269 0.12377526 0.23315026
-0.086221628 0.060022138 0.2343256
-0.16235226 0.073457308 0.23489554
-0.16030551 0.074925102 0.23472169
-0.15859933 0.075471431 0.23472311
-0.15616147 0.077867337 0.2343758
-0.15372097 0.080237016 0.2340291
-0.15196659 0.080763035 0.23403063
-0.14834763 0.081878781 0.23403214
-0.11348785 0.087985411 0.23456596
-0.10882613 0.087193996 0.23491496
-0.10705512 0.087522104 0.23491609
-0.12148627 0.088805683 0.23404253
-0.11505674 0.088509075 0.23439188
-0.11165949 0.088345945 0.23456772
-0.11964242 0.089220546 0.23404273
-0.11650164 0.089059852 0.23421748
-0.077642776 0.11625212 0.23412471
-0.13716468 0.16472806 0.23496102
-0.12985161 0.16544467 0.23496616
-0.12474626 0.16677059 0.2348284
-0.1178808 0.16633926 0.23496273
-0.086249903 0.054676011 0.23526499
-0.16910274 0.068001457 0.23558721
-0.16720074 0.068630934 0.2355894
-0.16480164 0.071054451 0.23524281
-0.099914625 0.083595827 0.23596075
-0.10296966 0.084793888 0.23561178
-0.10135871 0.084208786 0.2357868
-0.10552438 0.086922199 0.23508993
-0.10405997 0.086328827 0.23526376
-0.14989534 0.15793678 0.23577353
-0.15827896 0.15870644 0.23551007
-0.15331025 0.15935384 0.23551336
-0.15115961 0.15960579 0.23551479
-0.14168538 0.15977877 0.23564981
-0.1004649 0.16089618 0.23594671
-0.14582828 0.16196743 0.23522674
-0.143574 0.16136296 0.23537625
-0.10512191 0.16162254 0.23581134
-0.13339975 0.162421 0.23538159
-0.11414072 0.16298078 0.23552479
-0.13543098 0.16312817 0.23524269
-0.12815641 0.16378625 0.23524569
-0.1236904 0.16323462 0.23538649
-0.11628766 0.16372928 0.23538938
-0.10931749 0.16323522 0.23552462
-0.1017564 0.16360916 0.23552866
-0.11118741 0.16499531 0.23524226
-0.10653707 0.16429558 0.2353895
-0.12057757 0.16526467 0.23510453
-0.095842473 0.080797605 0.2366564
-0.098485306 0.082975157 0.23613518
-0.096929871 0.082369335 0.2363092
-0.16852881 0.14933009 0.23674941
-0.090593889 0.15469824 0.23692042
-0.095136903 0.15551488 0.23678423
-0.092709199 0.15557897 0.23678203
-0.096230425 0.15917641 0.23622772
-0.098404676 0.16004306 0.23607948
-0.17589372 0.057530206 0.23732598
-0.090950668 0.075394265 0.23787519
-0.092142537 0.076982632 0.23752695
-0.093309306 0.078557305 0.23717952
-0.17263162 0.14432864 0.23744249
-0.16775262 0.14503695 0.2374514
-0.085554607 0.14827365 0.23789154
-0.087273978 0.15012307 0.23761494
-0.088641047 0.15288967 0.23719786
-0.088699833 0.072180651 0.23857075
-0.089818455 0.073785581 0.23822199
-0.17811686 0.13558288 0.2386945
-0.080615819 0.14170498 0.23887087
-0.084463939 0.14455517 0.23844765
-0.08208517 0.14455132 0.23845054
-0.08720535 0.067066677 0.23961399
-0.087920867 0.069623768 0.23909432
-0.15126136 0.082699291 0.23965703
-0.14927457 0.083312973 0.23965839
-0.14730506 0.084736861 0.23946758
-0.14549696 0.08525525 0.23946781
-0.141688 0.087146632 0.2392783
-0.13991348 0.087633304 0.23927926
-0.13816822 0.088115282 0.23927902
-0.1362344 0.088623077 0.23928085
-0.13274944 0.089542784 0.23928097
-0.13098665 0.089992739 0.23928306
-0.12744784 0.09084966 0.23928246
-0.12600443 0.090348825 0.23947611
-0.12405811 0.090805419 0.23947611
-0.11759076 0.090609163 0.23986164
-0.12227709 0.091233104 0.23947781
-0.11893677 0.091156699 0.23966911
-0.079515509 0.13889593 0.23928437
-0.086687393 0.063587859 0.24031042
-0.1637516 0.07393346 0.2407984
-0.15755287 0.078341641 0.24022719
-0.10987531 0.088800065 0.24062672
-0.10668032 0.088550992 0.24081925
-0.1127786 0.089930423 0.24024382
-0.10811484 0.089145012 0.24062715
-0.11613103 0.090076692 0.24005197
-0.11434871 0.090451077 0.2400526
-0.11095048 0.090291053 0.24024557
-0.075935394 0.12758222 0.24095282
-0.076927602 0.13134897 0.24039596
-0.078796454 0.13328014 0.24012242
-0.086185865 0.060120992 0.24100602
-0.17077188 0.067524351 0.24174979
-0.16614862 0.071515985 0.24117933
-0.099197395 0.085565016 0.2417759
-0.10064257 0.086175062 0.24158476
-0.10368323 0.087363772 0.24120124
-0.1505632 0.16689886 0.2418941
-0.14116505 0.1679772 0.24189597
-0.14342229 0.16857941 0.2417298
-0.1333614 0.16881214 0.24190135
-0.12608612 0.16946983 0.24190445
-0.1350971 0.17040725 0.24158512
-0.1188475 0.17001837 0.24190217
-0.13724819 0.171967 0.24126646
-0.086545676 0.053866014 0.2422225
-0.17382355 0.063212477 0.24251455
-0.095120274 0.082778558 0.2425402
-0.096546166 0.083422065 0.24234964
-0.098102875 0.08402501 0.24215846
-0.077266701 0.11728439 0.24248263
-0.15491579 0.16102591 0.24282816
-0.14908837 0.16529468 0.24220788
-0.14714868 0.16548599 0.24219048
-0.098728485 0.16566369 0.24284813
-0.10338618 0.16638792 0.24269527
-0.10758438 0.16799584 0.24237415
-0.13132799 0.16810693 0.2420575
-0.12162057 0.16892126 0.2420624
-0.11206981 0.16866967 0.24221799
-0.10514256 0.1681256 0.24237798
-0.11421842 0.16941625 0.24206519
-0.17796993 0.056137349 0.2438494
-0.091751099 0.078056268 0.2436875
-0.092920177 0.079624996 0.24330576
-0.094378397 0.080286957 0.24311437
-0.1639785 0.1553998 0.2436052
-0.16104297 0.15765071 0.24329066
-0.09339574 0.16029735 0.24378908
-0.090629712 0.16128947 0.24363059
-0.094830349 0.16302095 0.24331971
-0.088301912 0.073272265 0.24483426
-0.089422777 0.074871257 0.2444512
-0.14095226 0.089164816 0.24481659
-0.1391778 0.089651525 0.24481753
-0.1374324 0.090133429 0.2448173
-0.13549879 0.090641305 0.24481912
-0.13373302 0.091106467 0.24481879
-0.13025074 0.092010878 0.24482134
-0.17264521 0.15060823 0.24422219
-0.085525416 0.15491939 0.24472326
-0.086895861 0.15767895 0.24425441
-0.089189276 0.15855482 0.24409872
-0.087519772 0.070724495 0.24540929
-0.160227 0.079287283 0.24584965
-0.15647604 0.081295095 0.24564292
-0.15437815 0.082759641 0.24543515
-0.15261298 0.083279148 0.24543606
-0.1505238 0.084724233 0.24522951
-0.14853659 0.08533781 0.24523085
-0.14656781 0.086758241 0.24502295
-0.14475983 0.087276652 0.24502319
-0.14305291 0.087762848 0.24502392
-0.13234881 0.090642087 0.2450273
-0.12881266 0.091521077 0.24502979
-0.12704742 0.091949038 0.24502879
-0.11394329 0.091563463 0.24586734
-0.1120367 0.091964915 0.2458676
-0.12526801 0.092370518 0.24503149
-0.12332176 0.092827111 0.24503149
-0.12187543 0.092335746 0.24524124
-0.12004256 0.092766531 0.2452414
-0.11685127 0.092637159 0.2454512
-0.11539035 0.092107944 0.24565865
-0.17714475 0.14465341 0.24515897
-0.081008069 0.14750606 0.24597502
-0.082710788 0.14936624 0.2456596
-0.083804682 0.15307494 0.24503441
-0.086278751 0.064709477 0.24674553
-0.16506563 0.074485645 0.24668057
-0.16267085 0.076896586 0.24626543
-0.15885292 0.078911051 0.24605763
-0.10627029 0.089676507 0.24670237
-0.10913118 0.090841174 0.24628469
-0.10440318 0.09000209 0.24670242
-0.11054394 0.091406733 0.2460774
-0.07843402 0.14186564 0.24691236
-0.086109042 0.060332384 0.24770072
-0.17239845 0.067124568 0.24792741
-0.16763817 0.072018467 0.24709448
-0.097349457 0.086092405 0.24795325
-0.10022796 0.087313809 0.2475363
-0.098446704 0.08762601 0.24753648
-0.10150658 0.088811643 0.24711898
-0.077371255 0.13719232 0.24769774
-0.17586675 0.061910301 0.24896593
-0.093618482 0.082370505 0.24899466
-0.094699353 0.08393348 0.24857725
-0.096126392 0.084573664 0.2483696
-0.1450443 0.1712693 0.24869221
-0.14664553 0.17200443 0.24853477
-0.12259939 0.17266518 0.24889043
-0.12922159 0.17388789 0.24854071
-0.110301 0.17352852 0.24889192
-0.13872345 0.17468114 0.24818856
-0.11951616 0.17470296 0.2485456
-0.11505977 0.17408885 0.24871317
-0.13092043 0.17551638 0.24819387
-0.1239813 0.17524825 0.24837053
-0.11211462 0.17519829 0.24854828
-0.13299523 0.17618074 0.24801666
-0.12568066 0.17689659 0.248022
-0.11640757 0.176723 0.24819468
-0.17798531 0.060410019 0.24917261
-0.091322862 0.07923077 0.24982718
-0.092494473 0.080792978 0.24941121
-0.161189 0.16305877 0.24991375
-0.15858908 0.16437767 0.24973822
-0.15544924 0.16647744 0.24939765
-0.15246888 0.16774628 0.24922407
-0.099599704 0.16952921 0.24976306
-0.097292013 0.16960748 0.2497645
-0.10869772 0.17183052 0.24923432
-0.10615142 0.17193179 0.24923882
-0.10161355 0.17125461 0.24942076
-0.088989921 0.076058887 0.25065926
-0.089791223 0.078573808 0.25003588
-0.15184215 0.08539509 0.25097007
-0.14975433 0.086836718 0.25074649
-0.14776668 0.087450176 0.2507478
-0.14399089 0.089385249 0.25052312
-0.14228389 0.089871451 0.25052384
-0.1401848 0.091269962 0.25029945
-0.13841037 0.091756716 0.25030041
-0.13666485 0.092238538 0.2503002
-0.13473146 0.092746496 0.25030202
-0.13296564 0.093211628 0.25030169
-0.13124599 0.093666077 0.25030214
-0.12804404 0.093629815 0.25052971
-0.12483343 0.093564004 0.25075653
-0.11960642 0.093963444 0.25098348
-0.12288722 0.094020583 0.25075653
-0.12110558 0.094448127 0.2507582
-0.11776266 0.094378531 0.25098363
-0.16809009 0.15679803 0.2509456
-0.16500719 0.15899761 0.25060043
-0.087407991 0.16344588 0.25097919
-0.091953844 0.16425768 0.2508086
-0.095903821 0.16690843 0.25027865
-0.093391098 0.16697311 0.25028759
-0.087080985 0.071928598 0.25170287
-0.087866575 0.074466422 0.25107655
-0.16189413 0.079026505 0.25186762
-0.15774412 0.081952952 0.25141767
-0.10835461 0.092971213 0.25188684
-0.11641369 0.093837626 0.2512103
-0.11461754 0.094227232 0.25120971
-0.11126255 0.094087787 0.25143567
-0.17614897 0.15380226 0.25128314
-0.084075846 0.15889543 0.25184602
-0.085786976 0.16072172 0.251499
-0.086358748 0.069390237 0.25232536
-0.16890283 0.072651826 0.25298971
-0.16618852 0.075993255 0.25231466
-0.16395247 0.077538006 0.25209177
-0.1024901 0.090640374 0.2527889
-0.10549138 0.091813751 0.25233862
-0.10692798 0.092400759 0.25211242
-0.080581643 0.15520935 0.25253877
-0.082353458 0.15705654 0.25219157
-0.086166739 0.065017536 0.25336689
-0.17373978 0.067748509 0.25388926
-0.098330192 0.087946661 0.25369108
-0.096896552 0.087335557 0.25391683
-0.099444278 0.089465417 0.25324067
-0.10105915 0.090040699 0.25301439
-0.077741176 0.14959918 0.25358573
-0.079888143 0.15057833 0.25340903
-0.086326227 0.059737891 0.25461569
-0.095670678 0.085823789 0.25436726
-0.076972224 0.14587998 0.25427616
-0.14417186 0.17879899 0.2546331
-0.14257134 0.17806607 0.25480935
-0.13692296 0.17962447 0.25463393
-0.12912039 0.18045995 0.25463918
-0.12674622 0.18068174 0.25463915
-0.11494397 0.18074438 0.25483063
-0.12184364 0.18111688 0.25464249
-0.13086072 0.18204388 0.25425422
-0.086334854 0.054445654 0.25586393
-0.17983101 0.059236415 0.25568643
-0.090524003 0.081421025 0.25571901
-0.092032321 0.082060888 0.25549406
-0.093158774 0.083631277 0.25504345
-0.14319055 0.091579907 0.25596607
-0.14148347 0.092066109 0.25596678
-0.13938606 0.093460843 0.25572547
-0.13619855 0.093517885 0.25596824
-0.13393286 0.094937421 0.25572801
-0.13249943 0.094491012 0.25596973
-0.13077965 0.094945438 0.25597018
-0.12901674 0.095395319 0.25597227
-0.12724404 0.095824614 0.25597265
-0.075903982 0.14122005 0.25514758
-0.15836988 0.17079915 0.25595897
-0.15543085 0.17303592 0.25557563
-0.15263443 0.17420921 0.25539142
-0.14766535 0.17485678 0.25539449
-0.1496549 0.17547503 0.25520059
-0.14052825 0.17653114 0.25519648
-0.1068908 0.17679179 0.25578266
-0.099805385 0.17621891 0.25598621
-0.10400949 0.17781572 0.25559664
-0.13503027 0.17805745 0.25501049
-0.12045907 0.17854302 0.25521386
-0.10849699 0.17848413 0.25540593
-0.11771452 0.17965269 0.25502527
-0.1132573 0.17904095 0.25521058
-0.1103135 0.18014832 0.25502786
-0.08851999 0.077348135 0.25684434
-0.089325048 0.079852365 0.25616983
-0.15693864 0.084163047 0.25692853
-0.15489918 0.085620649 0.25668785
-0.15280417 0.087077886 0.25644606
-0.15070745 0.088509224 0.2562049
-0.14696531 0.089648813 0.2562077
-0.14533092 0.090149976 0.25620791
-0.1258115 0.095341139 0.25621372
-0.12403248 0.095762759 0.25621644
-0.11729228 0.095669486 0.25670257
-0.11594173 0.095132336 0.25694621
-0.11414558 0.095521905 0.25694564
-0.11236348 0.095896386 0.25694624
-0.12208634 0.096219346 0.25621647
-0.11880359 0.096165881 0.25646037
-0.075380974 0.13559797 0.25618395
-0.16492873 0.16547874 0.25690326
-0.16184777 0.16767226 0.25652376
-0.094090372 0.17188732 0.2569302
-0.10257474 0.17517801 0.25617227
-0.097453393 0.17542179 0.2561723
-0.087393977 0.075762726 0.25729573
-0.16537714 0.078218512 0.25789341
-0.16314246 0.079759449 0.25765353
-0.1589801 0.082708746 0.25717068
-0.1064505 0.093710758 0.25791621
-0.10929415 0.094835632 0.2574324
-0.10787851 0.094277427 0.25767368
-0.11078917 0.095386274 0.25718859
-0.16837195 0.162341 0.25747564
-0.090137742 0.16924608 0.25751144
-0.086212344 0.069792591 0.25887185
-0.1680875 0.074888706 0.25861934
-0.10200889 0.091962047 0.25864363
-0.10057656 0.091366246 0.2588861
-0.10501266 0.093127646 0.2581594
-0.10314664 0.093453571 0.25815946
-0.17185019 0.15918739 0.25804648
-0.082587183 0.16297874 0.25884235
-0.083965078 0.1657216 0.25827041
-0.088716388 0.16654268 0.25808093
-0.086261995 0.16659224 0.25808036
-0.086013868 0.065437637 0.25999859
-0.17258728 0.070912533 0.25934476
-0.17046116 0.072443575 0.25910431
-0.096408069 0.088676274 0.2598564
-0.09751112 0.090195321 0.25937158
-0.17999381 0.15004827 0.25975585
-0.079425298 0.15838237 0.25979435
-0.080862962 0.16114591 0.25922221
-0.17569788 0.066684127 0.26031157
-0.093749546 0.08653935 0.26058242
-0.078726158 0.15376601 0.26075053
-0.13475432 0.18557884 0.26071039
-0.12491159 0.18571678 0.2609233
-0.1266177 0.18733378 0.26050785
-0.092995532 0.084079534 0.26130992
-0.091201387 0.084339857 0.26131037
-0.15197025 0.089365654 0.26186433
-0.15020621 0.089885563 0.26186523
-0.14845224 0.090411864 0.26186675
-0.14613289 0.09193258 0.26160905
-0.14449799 0.09243352 0.26160926
-0.14235926 0.09385933 0.26135054
-0.14065212 0.094345532 0.26135123
-0.13888748 0.094828837 0.261352
-0.13711314 0.095315672 0.26135293
-0.13536739 0.095797345 0.26135272
-0.13166845 0.09677054 0.26135421
-0.12994845 0.097224921 0.26135463
-0.1281855 0.097674772 0.26135674
-0.12497925 0.097624935 0.26161507
-0.12320051 0.09804666 0.26161778
-0.076141573 0.14816071 0.26189402
-0.15585813 0.17769548 0.26194748
-0.1532532 0.17900547 0.26173761
-0.15012717 0.18109602 0.26132867
-0.14748321 0.18143937 0.26132837
-0.14515793 0.18174364 0.26133159
-0.13835791 0.18249546 0.26132473
-0.14073813 0.18310387 0.26111174
-0.11175557 0.18316649 0.26175421
-0.10665914 0.18353271 0.26175851
-0.13285984 0.1840187 0.26112103
-0.1230526 0.18411142 0.26134047
-0.1182873 0.18450733 0.26134163
-0.11587922 0.1846949 0.26134357
-0.090356551 0.081880793 0.26203641
-0.08882226 0.081231281 0.26227909
-0.16196974 0.082975008 0.26289734
-0.15991403 0.084455527 0.26263928
-0.15814172 0.085008822 0.26263961
-0.15577093 0.087366484 0.26212162
-0.12191585 0.096688218 0.26213574
-0.11218833 0.096377522 0.26291624
-0.11028145 0.096778899 0.26291648
-0.1201337 0.097115658 0.26213738
-0.11645687 0.097961456 0.26213771
-0.1151045 0.097428255 0.26239824
-0.075067595 0.14351563 0.26285121
-0.1620765 0.17331053 0.26276967
-0.1589977 0.17549744 0.26235592
-0.10073199 0.18023954 0.26259336
-0.10504982 0.1818466 0.26216951
-0.10283954 0.18102908 0.26238179
-0.087216765 0.076249324 0.26373193
-0.08834561 0.077827096 0.2632466
-0.16690917 0.078120865 0.26393074
-0.16420296 0.081438191 0.26315412
-0.10449921 0.094536804 0.26395491
-0.1073679 0.095678315 0.26343536
-0.10878509 0.096232437 0.26317719
-0.10560738 0.096023157 0.26343584
-0.16865532 0.16795792 0.26380736
-0.1651814 0.17110188 0.26318541
-0.094976097 0.17596534 0.26363349
-0.092576951 0.17604229 0.26362753
-0.096279263 0.17864485 0.26300868
-0.086423263 0.073733926 0.26446024
-0.16928068 0.075684331 0.26444945
-0.10005897 0.092787862 0.26473227
-0.098441035 0.092220522 0.26499239
-0.10149278 0.093379512 0.26447293
-0.074874498 0.13698912 0.26418123
-0.1751159 0.16344428 0.26463208
-0.17180279 0.16573051 0.26421466
-0.087195963 0.1707177 0.26488063
-0.084406793 0.17168632 0.2646724
-0.091403253 0.17243114 0.26446685
-0.088621259 0.17341134 0.26425987
-0.17417799 0.070852414 0.26548228
-0.17892531 0.15934078 0.26545939
-0.081060521 0.16716629 0.26571041
-0.082777463 0.16898048 0.26529494
-0.17714188 0.066615969 0.26651594
-0.093220927 0.087989531 0.26654688
-0.094321005 0.089525461 0.26602939
-0.1452699 0.094300129 0.26695034
-0.1436345 0.094800845 0.26695055
-0.14182697 0.095319331 0.26695082
-0.14011978 0.095805548 0.2669515
-0.13658102 0.096775763 0.26695317
-0.13802592 0.097191907 0.26667646
-0.13483518 0.097257368 0.26695299
-0.13290228 0.09776552 0.26695481
-0.13113634 0.0982306 0.26695448
-0.12765321 0.099134788 0.26695698
-0.077893309 0.16258645 0.26674804
-0.079334266 0.16534016 0.26612449
-0.12508805 0.19153464 0.26681998
-0.085630596 0.061646372 0.26784915
-0.17985448 0.063276738 0.26729357
-0.090668261 0.085802332 0.26732552
-0.092131168 0.086449355 0.26706609
-0.15352675 0.089385711 0.26777372
-0.151435 0.090834484 0.26749825
-0.14934202 0.092257597 0.26722336
-0.14758816 0.092783958 0.26722485
-0.12621035 0.098661259 0.26723316
-0.12444569 0.099089459 0.26723215
-0.12105022 0.099064678 0.26751068
-0.11926761 0.099491999 0.26751232
-0.11776367 0.099019445 0.26778832
-0.11591999 0.099434756 0.26778841
-0.077187926 0.15798619 0.26778978
-0.15612228 0.18339229 0.26792258
-0.15331876 0.18466766 0.26770476
-0.15071164 0.18597291 0.26747781
-0.1432898 0.18687427 0.2674872
-0.14147288 0.18621132 0.26771289
-0.1479259 0.18714222 0.2672596
-0.14528176 0.18748556 0.26725924
-0.11947707 0.18761288 0.26794723
-0.1361578 0.18854167 0.26725611
-0.12850016 0.1885269 0.26749054
-0.11675239 0.18872224 0.26772198
-0.1122436 0.18816377 0.2679446
-0.10988572 0.18830383 0.26794446
-0.13853972 0.18914591 0.26702687
-0.1233784 0.18992433 0.26726952
-0.12118401 0.18924183 0.26749611
-0.13065974 0.19006151 0.26703474
-0.11367846 0.19074143 0.26727438
-0.088614047 0.0818028 0.26862079
-0.15727235 0.08739382 0.2680482
-0.10824177 0.097723216 0.26889518
-0.11456581 0.098905846 0.26806575
-0.11131711 0.098766871 0.2683416
-0.10973953 0.098265223 0.26861763
-0.11276967 0.099295318 0.26806521
-0.076044828 0.15425697 0.26862371
-0.16230097 0.17901111 0.26881999
-0.15919872 0.18121254 0.26837042
-0.10794421 0.18665923 0.26840067
-0.10350953 0.18607563 0.26861805
-0.09608791 0.1864253 0.26863077
-0.10512206 0.18775493 0.26817292
-0.16986562 0.078383856 0.26969841
-0.16807164 0.079003461 0.26969993
-0.08780051 0.07932245 0.26939693
-0.16570246 0.081430852 0.2691476
-0.10539176 0.096615233 0.26944643
-0.10395119 0.096040763 0.26972333
-0.10208609 0.096366964 0.26972342
-0.1068229 0.097173445 0.26917017
-0.075266786 0.1505627 0.26945126
-0.17122652 0.17412533 0.26971149
-0.1682481 0.17548795 0.26948556
-0.16543686 0.17679325 0.26926813
-0.099522948 0.18356007 0.26930076
-0.09440022 0.18380357 0.26930061
-0.091759831 0.18479708 0.26907778
-0.1726322 0.075091712 0.27052429
-0.085539818 0.076157339 0.27043602
-0.099835582 0.093401976 0.27082694
-0.097886898 0.093742184 0.27082807
-0.10094193 0.094892345 0.270275
-0.073851757 0.14685303 0.27028623
-0.17503089 0.1700359 0.27060726
-0.089515626 0.17761488 0.27087808
-0.087068602 0.17767599 0.27087882
-0.091027632 0.18029587 0.27019551
-0.17559049 0.070873052 0.27162525
-0.085797869 0.07093101 0.27198818
-0.093759947 0.091064379 0.27193236
-0.096763797 0.092247985 0.27137986
-0.094995707 0.092551932 0.27138051
-0.17875989 0.16594464 0.27150914
-0.081217103 0.17326251 0.271999
-0.085639067 0.17499292 0.27155063
-0.092327371 0.090440296 0.27220768
-0.1505385 0.093293875 0.27281147
-0.14844763 0.094712436 0.27251989
-0.14669389 0.095238864 0.27252135
-0.14470445 0.095851861 0.2725226
-0.14274086 0.097250745 0.2722303
-0.1392262 0.09825547 0.27223125
-0.13568781 0.099225819 0.27223292
-0.13394183 0.099707335 0.27223277
-0.13200916 0.10021558 0.27223459
-0.13024317 0.10068063 0.27223423
-0.12885053 0.10023658 0.27252719
-0.1270875 0.10068639 0.27252927
-0.12387864 0.10064586 0.27282119
-0.12531555 0.10111598 0.27252966
-0.12210026 0.10106772 0.27282387
-0.080164306 0.16962424 0.27289811
-0.14305219 0.193609 0.27299204
-0.136645 0.19435294 0.27298555
-0.085254073 0.067523248 0.27302527
-0.088915311 0.085832454 0.27386397
-0.16052435 0.086939149 0.27397871
-0.090428628 0.086460173 0.27358836
-0.15847178 0.088410579 0.27368712
-0.091563582 0.088005781 0.27303633
-0.15637247 0.089862511 0.27339494
-0.15433607 0.091303766 0.27310234
-0.15262844 0.091849692 0.27310371
-0.11399331 0.10047614 0.27370498
-0.11219717 0.10086556 0.27370444
-0.11074297 0.10034181 0.27399755
-0.11869878 0.10105306 0.27311805
-0.11686543 0.10148346 0.27311829
-0.11534942 0.10100047 0.27341089
-0.15662968 0.18826662 0.27394646
-0.15421987 0.18861511 0.2739481
-0.15108576 0.19079851 0.27347153
-0.1460284 0.19235386 0.27323416
-0.1413908 0.19208977 0.27347866
-0.13924065 0.19234261 0.27347946
-0.13232225 0.19225538 0.27372232
-0.13426131 0.19375326 0.27323106
-0.12660135 0.19374251 0.27348197
-0.11961652 0.19354533 0.27372932
-0.11518382 0.19302969 0.27397218
-0.12909545 0.19435765 0.27323392
-0.12147958 0.19513561 0.27324399
-0.11211324 0.19504154 0.27349058
-0.16683479 0.082398869 0.27485448
-0.088036887 0.083385542 0.27469194
-0.16275433 0.085411415 0.27426904
-0.1091636 0.099844791 0.27429032
-0.10591601 0.099660739 0.27458379
-0.1628616 0.18386269 0.27491167
-0.16006109 0.1851612 0.27467149
-0.10637251 0.19097869 0.27470163
-0.10193517 0.19039825 0.27493611
-0.099391617 0.19050026 0.27494079
-0.11790666 0.19192393 0.27421442
-0.1106744 0.19247539 0.2742117
-0.10831659 0.1926147 0.27421209
-0.085754052 0.080260538 0.27579546
-0.10183147 0.097066909 0.27575552
-0.10481085 0.098208807 0.27516931
-0.074464805 0.15859608 0.27560043
-0.076279007 0.16047944 0.27514794
-0.17178419 0.17895198 0.27586946
-0.16831727 0.18211444 0.27514735
-0.16567129 0.18256067 0.27514672
-0.093153529 0.18722589 0.2759113
-0.097613052 0.18880615 0.27542809
-0.094845437 0.18983625 0.2751905
-0.17401387 0.075199269 0.27660447
-0.09762536 0.094460867 0.27692711
-0.09924677 0.095019087 0.2766335
-0.10035649 0.096500106 0.27604809
-0.08944352 0.184645 0.27663258
-0.1770436 0.070988618 0.27777523
-0.085939653 0.075061835 0.27745229
-0.093163669 0.092699841 0.27780586
-0.094403118 0.094178222 0.27722055
-0.14214361 0.098888502 0.27775627
-0.1403363 0.099407025 0.27775654
-0.13686505 0.10037672 0.277758
-0.13509084 0.10086369 0.2777589
-0.13141227 0.10185345 0.27776057
-0.12964621 0.10231848 0.27776021
-0.1261626 0.10322254 0.27776274
-0.087927543 0.1819759 0.27736583
-0.085480846 0.1820371 0.27736661
-0.17994972 0.067619175 0.27864993
-0.083991557 0.070986815 0.27883074
-0.085200228 0.072570942 0.27827793
-0.15926456 0.090393312 0.27898628
-0.15753964 0.090966411 0.27898717
-0.15544257 0.09241353 0.27867836
-0.091729455 0.092080481 0.2780979
-0.15340802 0.093849912 0.2783691
-0.15170018 0.094395779 0.27837044
-0.14961217 0.095835038 0.2780616
-0.14609554 0.096881814 0.27806395
-0.12825161 0.10187934 0.27806979
-0.11809654 0.1027058 0.27869394
-0.12295251 0.10318714 0.27807125
-0.11955415 0.10317216 0.27838317
-0.082256019 0.17759123 0.27857226
-0.084046744 0.17936544 0.27808931
-0.16557093 0.085868396 0.27991194
-0.16385867 0.08648894 0.27991125
-0.16181873 0.087977104 0.27960238
-0.091288149 0.088761523 0.27926928
-0.10855383 0.10151711 0.2799328
-0.11658893 0.10224269 0.27900335
-0.11474531 0.10265815 0.27900341
-0.11338717 0.10213865 0.27931416
-0.1101351 0.10200922 0.27962339
-0.18198384 0.16346928 0.27973428
-0.077897467 0.17584249 0.27905512
-0.15713309 0.19320117 0.27980611
-0.15469772 0.19357108 0.27980644
-0.14145705 0.19798961 0.27904299
-0.13731223 0.19763927 0.27930546
-0.13913189 0.19829401 0.27904612
-0.13006125 0.19846348 0.27930668
-0.12259089 0.1983922 0.27957037
-0.11768605 0.19884574 0.27957234
-0.11325221 0.19833435 0.27983209
-0.13233545 0.19904561 0.27904069
-0.12716848 0.19965017 0.27904305
-0.12467307 0.19903918 0.27930799
-0.11955135 0.20042764 0.27905315
-0.17011903 0.081984542 0.28083649
-0.16834183 0.082568027 0.28083798
-0.088634759 0.086602196 0.28014711
-0.10705296 0.10098486 0.28024369
-0.077596374 0.13657109 0.28099543
-0.077495456 0.1703846 0.28050411
-0.16604744 0.18834735 0.28083295
-0.16307004 0.1897005 0.28057426
-0.16026197 0.19099899 0.28032169
-0.14787064 0.19376001 0.28007132
-0.1047679 0.19538857 0.28087074
-0.11597299 0.1972325 0.28009126
-0.10874224 0.19778462 0.28008845
-0.10638447 0.19792324 0.28008947
-0.17241313 0.079591684 0.28145266
-0.086928077 0.08171612 0.28190205
-0.087751247 0.084169298 0.28102529
-0.10121356 0.098764189 0.28148124
-0.099736661 0.098202266 0.28179044
-0.10452167 0.09900254 0.28117087
-0.10275213 0.09933126 0.28117201
-0.074663192 0.16491254 0.28195828
-0.076378964 0.16674128 0.28147146
-0.096333638 0.19232005 0.28190669
-0.10260814 0.19466008 0.28112662
-0.10032781 0.19481152 0.28112227
-0.17543536 0.075400688 0.28268999
-0.085461646 0.08106292 0.28219572
-0.097000048 0.096177869 0.2827194
-0.13767467 0.10250957 0.2829262
-0.090224929 0.18901011 0.28294295
-0.087825708 0.18908672 0.28293723
-0.091870546 0.19074792 0.28242368
-0.17800948 0.072939187 0.28330547
-0.084981889 0.077689037 0.28336787
-0.092858262 0.093537949 0.28395724
-0.094427206 0.094113052 0.28364781
-0.15448308 0.095045604 0.28389701
-0.095544346 0.095596291 0.28302878
-0.15074247 0.0970226 0.28357255
-0.14721777 0.098088868 0.28357375
-0.14514041 0.099503718 0.2832495
-0.14315006 0.10011648 0.28325072
-0.14151339 0.10061663 0.28325096
-0.13623509 0.10210491 0.28325272
-0.13446091 0.10259192 0.28325361
-0.13271472 0.10307329 0.28325346
-0.1307824 0.10358167 0.28325525
-0.12901631 0.10404669 0.28325492
-0.1272956 0.10450093 0.28325531
-0.12408507 0.10449225 0.28358352
-0.12264474 0.10403237 0.28390822
-0.12086676 0.10445438 0.28391093
-0.07417535 0.15939033 0.28341153
-0.17704429 0.17704251 0.28367198
-0.17421982 0.17841485 0.28341916
-0.086305447 0.18643034 0.28372094
-0.084565088 0.07431373 0.2845363
-0.16256765 0.090030059 0.28487042
-0.16085327 0.090624653 0.28487071
-0.15862694 0.092142239 0.28454721
-0.091748156 0.092030101 0.2845751
-0.15657783 0.093603514 0.28422236
-0.11595144 0.10399172 0.28456426
-0.11443178 0.10351899 0.28489003
-0.11274756 0.10389287 0.28489161
-0.11924462 0.10402261 0.2842367
-0.11746104 0.1044497 0.28423828
-0.11095142 0.10428219 0.2848911
-0.1836717 0.17164651 0.28496373
-0.1803 0.17474425 0.28418964
-0.082750596 0.18292451 0.28475371
-0.13750571 0.20276007 0.28496432
-0.13535571 0.20301318 0.28496492
0.20550044 0.44569454 0.28494582
0.20320217 0.44639808 0.28493798
0.1849167 0.45149481 0.28496531
0.18030657 0.45268676 0.28496739
0.17796633 0.45325962 0.28496468
0.16837345 0.455549 0.28499705
0.16626541 0.4560357 0.28497899
0.15667121 0.45812723 0.2849983
0.14972286 0.45955262 0.28499532
-0.18164405 0.066949934 0.28516096
-0.16704607 0.086125098 0.2858468
-0.16492827 0.087633297 0.28552246
-0.089506023 0.088991329 0.28581348
-0.090647697 0.09051767 0.28519472
-0.10640784 0.10275475 0.28587079
-0.10949367 0.10376862 0.2852174
-0.074382432 0.1529901 0.28510031
-0.078982569 0.17939416 0.28578708
-0.081287295 0.18025078 0.28552908
-0.15796903 0.19729336 0.28577289
-0.14818624 0.19875839 0.28578359
-0.14590597 0.1991457 0.28578135
-0.14313304 0.20030555 0.28551257
-0.12129034 0.20196374 0.28579763
-0.1337548 0.20229447 0.28523183
-0.12843303 0.2029338 0.28524169
-0.11638518 0.20241708 0.28579968
-0.11162113 0.20281349 0.28580078
-0.12304545 0.20350978 0.28524294
-0.10921552 0.20300227 0.28580251
0.21239521 0.44289932 0.28565586
0.20987861 0.44366398 0.28566405
0.20764448 0.44435546 0.28566009
0.19596125 0.44778547 0.28568444
0.17164908 0.45073712 0.28532299
0.1870265 0.45023715 0.28570312
0.18235473 0.45143691 0.28570062
0.16027193 0.45331323 0.28536317
0.15308473 0.45483544 0.28534657
0.17039609 0.4543989 0.28572631
0.14375685 0.45669472 0.28535441
0.14613169 0.4562431 0.28534645
0.15909868 0.45693177 0.28572589
0.15182666 0.45843548 0.28571951
0.11232174 0.46178615 0.28537056
0.11709664 0.46109357 0.28536952
0.12826526 0.46270373 0.28574005
0.13066287 0.46231678 0.28574681
0.12583756 0.46307471 0.28574654
0.12094649 0.46449044 0.28501686
0.12367009 0.46408665 0.28500915
0.10678091 0.46574372 0.28575838
0.10912597 0.46544126 0.28575116
0.10437392 0.46604061 0.2857585
-0.085318409 0.067348495 0.28687772
-0.17143698 0.082270741 0.28682029
-0.088314883 0.087479711 0.28643164
-0.10354678 0.1016762 0.28652194
-0.10210145 0.10111679 0.28684875
-0.10498334 0.10221969 0.28619573
-0.16077536 0.19599871 0.28604281
-0.15131408 0.19659184 0.28632766
-0.10313154 0.19988579 0.28690654
-0.11433987 0.20171581 0.28607675
-0.10711039 0.2022685 0.28607386
0.22318591 0.4386743 0.28637341
0.21436474 0.44155657 0.28638592
0.22227982 0.44245243 0.28668237
0.19194086 0.44477865 0.28606442
0.18904363 0.44899949 0.28642699
0.17378971 0.44949815 0.28604016
0.16653584 0.45050025 0.28679022
0.16466507 0.45164013 0.28605333
0.16238888 0.45215234 0.28606203
0.15507126 0.45373145 0.28607243
0.14812304 0.45515686 0.28606963
0.1242326 0.45866734 0.28680879
0.12183221 0.45903814 0.28680268
0.14239316 0.45957577 0.28645596
0.11934669 0.46009466 0.28609115
0.13500817 0.46089229 0.28648221
0.13739368 0.46048206 0.28646782
0.13978426 0.46004197 0.28646269
0.10277016 0.46163279 0.28682074
0.13256076 0.46128333 0.28647786
0.10037551 0.46258622 0.28611311
0.11550679 0.46392125 0.2864736
0.11127411 0.46449208 0.28648439
0.10263537 0.46879536 0.28680825
0.093221143 0.46979028 0.28680292
0.095607564 0.46954286 0.2867938
0.10041542 0.46903804 0.28679979
0.081073873 0.47084492 0.28680435
0.08346346 0.4706381 0.28680021
0.086087525 0.47044942 0.28680775
0.088444836 0.47022128 0.2867988
0.09089499 0.47000086 0.28679642
0.061699014 0.4720431 0.28679767
-0.17412756 0.078988791 0.28779811
-0.087425977 0.085061669 0.28735974
-0.097641878 0.099426076 0.28782633
-0.10056155 0.1005551 0.28717455
-0.075852647 0.17489199 0.28707883
-0.16819637 0.18880351 0.28796774
-0.10162707 0.19735463 0.28773025
-0.094361335 0.1977376 0.28773454
-0.099017449 0.19840916 0.28745049
0.25767007 0.42868391 0.28736368
0.23850316 0.43180713 0.28781673
0.22521269 0.43723816 0.28709492
0.23534465 0.43719926 0.28739509
0.216152 0.43953529 0.28784636
0.2011269 0.44069657 0.2874507
0.19994682 0.44452086 0.28786242
0.19782142 0.44581977 0.28715444
0.17823218 0.44698486 0.28747997
0.17589085 0.44755819 0.28747746
0.1910007 0.44775259 0.28714675
0.1264236 0.45764312 0.28752166
0.10493904 0.46068314 0.28753978
0.096435525 0.46490869 0.28795764
0.098821476 0.46466082 0.28795549
0.086851038 0.46584401 0.28795457
0.089301094 0.46562365 0.28795227
0.09162768 0.46541286 0.28795856
0.094013773 0.46516559 0.28794962
0.081869021 0.46626109 0.287956
0.084493957 0.46607205 0.28796339
0.060105357 0.46766582 0.28795359
0.06786149 0.46792659 0.28723031
0.074856848 0.46746883 0.28723627
0.073559664 0.47074905 0.28755203
0.078431547 0.47040492 0.28754777
0.059026655 0.47152475 0.28755614
0.066592216 0.47116959 0.2875466
-0.086597495 0.082623348 0.28828642
-0.0948826 0.09741319 0.28880483
-0.14799386 0.10027476 0.2887089
-0.14623167 0.10079534 0.28870982
-0.14447819 0.10132193 0.28871125
-0.13872118 0.1038358 0.28837088
-0.13733582 0.10343935 0.28871366
-0.13557234 0.10392292 0.28871447
-0.13205191 0.10489127 0.28871521
-0.13011977 0.10539973 0.28871703
-0.12486961 0.10676867 0.28871918
-0.075061157 0.17035751 0.28837243
-0.17667007 0.18471821 0.28879172
-0.1737463 0.18610446 0.28851563
-0.17092264 0.18747209 0.2882461
-0.092911176 0.19514592 0.2885648
-0.090223104 0.1952707 0.28856051
-0.097132631 0.19670476 0.2880061
0.26380539 0.42544734 0.28809056
0.25502226 0.42830878 0.28885797
0.22689618 0.43524376 0.28855237
0.23738176 0.43575883 0.28814656
0.20294873 0.43868738 0.28889653
0.23043784 0.43823317 0.28815499
0.18027459 0.44572356 0.28820112
0.18260318 0.44514048 0.28819698
0.16807894 0.44803223 0.28894562
0.13915145 0.45067397 0.28842562
0.15678048 0.45056573 0.28894565
0.13654238 0.4511402 0.28843215
0.14974646 0.45272231 0.28822032
0.13047633 0.45555815 0.28896648
0.1329242 0.45516685 0.28897059
0.1285834 0.45660326 0.28824741
0.11366192 0.45884839 0.28824323
0.10680822 0.45907518 0.28897122
0.075686999 0.46286616 0.28826764
0.079245888 0.46582696 0.28869131
0.064994238 0.46678016 0.28869066
0.071962476 0.46635932 0.28869596
0.063677825 0.47067061 0.28828979
0.071023382 0.47026461 0.28829843
0.041525524 0.47135258 0.28829414
0.044323064 0.47130352 0.28829646
0.053982146 0.47106636 0.28829628
0.056451883 0.47100455 0.28829056
0.030953687 0.47446865 0.28853786
0.033324994 0.47448972 0.28853571
0.035750244 0.47450048 0.28853899
0.03815306 0.47448677 0.28854918
-0.17967278 0.07235603 0.28975001
-0.085781053 0.080188207 0.28921509
-0.092190199 0.095370196 0.28978294
-0.0934375 0.096828528 0.28913122
-0.15349455 0.097757332 0.28904954
-0.15210794 0.097417563 0.28939161
-0.15007779 0.098846078 0.28905079
-0.12867561 0.10498193 0.28905886
-0.12695481 0.10543618 0.28905925
-0.12197828 0.10586146 0.2894029
-0.11857644 0.10585724 0.28974783
-0.12342045 0.10631578 0.28906175
-0.12020051 0.10628355 0.28940558
-0.1167925 0.10628425 0.28974941
-0.17937751 0.18343975 0.28906497
-0.088574514 0.19354154 0.28911361
0.24027683 0.42971832 0.28926763
0.23116471 0.43301794 0.28928021
0.21790418 0.43752211 0.28931308
0.16882192 0.44296595 0.28981367
0.18447159 0.44321769 0.28964174
0.15744114 0.4455429 0.28985304
0.15049592 0.44773018 0.2891303
0.14117008 0.44958866 0.28913802
0.14354435 0.44913736 0.28913027
0.11451019 0.45398739 0.28915319
0.10949256 0.45401576 0.28986129
0.13507076 0.45410427 0.28967556
0.095562682 0.45571172 0.28987619
0.10895132 0.45811424 0.2896921
0.057194844 0.46649444 0.28943127
0.031737216 0.47013253 0.28977269
0.034162749 0.47014314 0.28977594
0.04653012 0.47064418 0.28903964
0.048909381 0.47058871 0.2890355
0.051327292 0.47051823 0.28903958
0.02829572 0.47384503 0.2892938
0.040314093 0.47385302 0.28929922
-0.084968172 0.077727564 0.29014465
-0.16393046 0.090372749 0.29075721
-0.15985844 0.09335272 0.29007259
-0.15795614 0.093982086 0.2900748
-0.090752393 0.094761066 0.29010817
-0.1152808 0.10583168 0.29009184
-0.11060059 0.10524482 0.29077727
-0.073507369 0.16122432 0.29096493
-0.083190843 0.18832657 0.29076898
-0.084979311 0.19007187 0.29021731
-0.13369961 0.20756179 0.29074895
-0.12644754 0.20838536 0.29075038
0.2523399 0.42792839 0.29034698
0.2070846 0.43599236 0.29032224
0.21975386 0.43551075 0.29076302
0.20485097 0.43668368 0.2903184
0.19316895 0.4401131 0.29034242
0.092934385 0.45529518 0.29058537
0.068954341 0.46458101 0.29089293
0.054383595 0.46532077 0.29088524
0.024016967 0.46944308 0.29052129
0.026703781 0.46947542 0.29051918
0.029136386 0.46948275 0.29051784
0.036336105 0.46950069 0.29052901
0.012917416 0.47226173 0.2908152
0.018040314 0.47302642 0.29005334
0.009286385 0.4757764 0.29024136
0.016673945 0.47605732 0.29025102
0.024050649 0.47625363 0.29024106
0.026513698 0.47629982 0.29024199
-0.16846558 0.086520344 0.29178086
-0.16604629 0.088869959 0.29109806
-0.088826627 0.090854838 0.29173851
-0.10605112 0.10373387 0.29180631
-0.10914089 0.10473676 0.29112005
-0.1072335 0.10513801 0.29112029
-0.079620965 0.18482621 0.29186776
-0.081418037 0.18658361 0.29131731
-0.15173185 0.20171353 0.29190174
-0.14932166 0.20206194 0.29190335
-0.15812954 0.20326105 0.29101774
-0.14619726 0.20421921 0.29132581
-0.14358659 0.20550406 0.29103136
-0.14114648 0.205762 0.29103807
-0.13003586 0.20536353 0.29162011
-0.12486755 0.20596887 0.2916218
-0.11757629 0.20584708 0.29192415
-0.13850175 0.20610538 0.29103753
-0.13209824 0.20684677 0.29103372
-0.11267633 0.20628266 0.29192784
-0.11930195 0.20742486 0.29133973
-0.10995977 0.20737585 0.2916351
-0.12138776 0.20806301 0.29104379
0.24967484 0.42755359 0.2918337
0.20936462 0.43457443 0.29103333
0.17047296 0.44038668 0.29193258
0.18624578 0.44131568 0.29107302
0.16134781 0.44252881 0.2919457
0.15931271 0.4437058 0.29124722
0.15175474 0.44461957 0.29196432
0.14504872 0.44670975 0.29125503
0.11875295 0.45057958 0.2919758
0.12115248 0.45020902 0.29198182
0.11627246 0.45164746 0.29127643
0.099692397 0.45317358 0.29199374
0.090271376 0.4548873 0.29128453
0.097301133 0.45413879 0.29129797
0.072055131 0.45977303 0.29187039
0.065297365 0.4608838 0.29114538
0.042019751 0.46497938 0.29162234
0.039223064 0.46502811 0.29162002
0.038494185 0.46885416 0.2912676
0.020016449 0.47186223 0.29156446
-0.0034377857 0.47392118 0.29176387
0.0041373009 0.47494259 0.29100773
0.011757941 0.47529575 0.29100668
-0.0048984359 0.47683138 0.29193047
0.0025461065 0.47732767 0.29189986
-0.085847288 0.070798084 0.29261631
-0.17279342 0.082649127 0.29280588
-0.1704309 0.085031912 0.29212087
-0.087631479 0.089353554 0.29238978
-0.10286403 0.10354897 0.2921482
-0.18564114 0.17127392 0.29264095
-0.077971965 0.18216722 0.29269347
-0.16274133 0.19742513 0.29276994
-0.15482156 0.19954668 0.29248556
-0.10407148 0.20427687 0.29280326
-0.1014645 0.20446736 0.2928077
-0.10610214 0.20503847 0.29250929
0.24353577 0.42482203 0.29294446
0.24606989 0.42457598 0.29218805
0.24140657 0.42638677 0.29220048
0.18796097 0.43940407 0.29250017
0.12888366 0.44406599 0.29270914
0.10185608 0.45221257 0.29270047
0.088821925 0.45770499 0.29258057
0.057299323 0.45995834 0.29257607
0.061142281 0.46370503 0.29234689
0.051445957 0.46410102 0.29235333
0.0074826702 0.4708232 0.29231367
0.014870323 0.47110394 0.29232302
0.022247236 0.4713003 0.29231334
-0.0011267612 0.47348118 0.29253426
0.0061470354 0.4738611 0.29254362
-0.014623547 0.47552171 0.29268056
-0.0098930271 0.4759286 0.29267737
-0.17568065 0.079325736 0.29382959
-0.08673691 0.086951151 0.29336751
-0.10019722 0.10155623 0.29317591
-0.098716207 0.10100492 0.2935181
-0.14147244 0.10471898 0.2937811
-0.076899879 0.17857775 0.29379523
-0.1707605 0.1943085 0.29334855
-0.16793782 0.19567117 0.29306233
-0.16553971 0.19609906 0.29305944
-0.099954277 0.20194976 0.29368171
0.22602211 0.42609969 0.29388535
0.21967562 0.4290317 0.29317716
0.21085377 0.43191421 0.2931897
0.18814337 0.43433568 0.29336902
0.19430546 0.4361653 0.29394555
0.16297309 0.44071192 0.29337656
0.13101947 0.44298115 0.29338983
0.12309913 0.44850799 0.29338965
0.078823768 0.45790115 0.29329744
0.081450336 0.45771137 0.29330459
0.083807014 0.45748359 0.29329595
0.086256891 0.45726341 0.29329383
0.048553944 0.4628996 0.29381609
0.04399123 0.46366608 0.29308489
0.0097250957 0.46971345 0.29382217
0.00097516831 0.47301325 0.29329786
-0.022153484 0.47428775 0.29344878
-0.026262965 0.47683921 0.29351342
-0.016091596 0.47783968 0.29353163
-0.086226895 0.083640285 0.29466954
-0.15488717 0.098239265 0.29485121
-0.094508149 0.098441698 0.29488844
-0.15279731 0.099670395 0.29449305
-0.097595148 0.099555306 0.29420274
-0.095646046 0.099895529 0.29420382
-0.15108883 0.10021342 0.29449296
-0.14938043 0.10075913 0.2944943
-0.14553683 0.10270276 0.294137
-0.14015481 0.10434175 0.29413989
-0.13834779 0.10486032 0.29414019
-0.13487706 0.10583019 0.29414165
-0.13310297 0.10631729 0.29414251
-0.13135654 0.10679851 0.2941424
-0.1294246 0.10730705 0.29414421
-0.12449413 0.10779892 0.29450488
-0.12304302 0.10735186 0.29486376
-0.12593733 0.10822619 0.29414424
-0.11950152 0.10820252 0.29486543
-0.075162999 0.17678373 0.29434472
-0.091559723 0.19885615 0.2948586
-0.095785223 0.20040578 0.29426658
0.16509667 0.31728357 0.2949276
0.14200164 0.32199869 0.29493549
0.14722614 0.32105127 0.29493478
0.13120098 0.32377815 0.29493597
0.12768364 0.32429928 0.29493928
0.19523922 0.43158326 0.29402506
0.17442493 0.43651989 0.29476145
0.17232355 0.4377588 0.29405239
0.13552758 0.44072279 0.29476792
0.13291828 0.44118893 0.2947742
0.15344557 0.44140768 0.29478881
0.14617427 0.44291151 0.29478306
0.12714201 0.44639999 0.29480973
0.12525433 0.44745639 0.29410282
0.11033522 0.44970092 0.29409912
0.10371593 0.45058173 0.29410776
0.064936221 0.45354345 0.29483742
0.072357237 0.45371968 0.29412329
0.068678506 0.4573333 0.29474446
0.076196171 0.45745513 0.29402068
0.061946332 0.45840779 0.29402018
0.045903269 0.46232891 0.29454327
0.015529099 0.46612853 0.29423919
0.0018811243 0.46874321 0.29457769
-0.0069079828 0.47130787 0.29485971
-0.019927079 0.47389325 0.29422709
-0.012692497 0.4745433 0.29423293
-0.0079014339 0.47491944 0.29422662
-0.085080668 0.08210893 0.29532218
-0.16290362 0.09319187 0.29592392
-0.16086957 0.09468855 0.29556483
-0.1591547 0.095282897 0.29556516
-0.1569324 0.096789226 0.29520887
-0.093060896 0.097862408 0.29523125
-0.11489706 0.10688493 0.2959429
-0.11787541 0.10778197 0.29522404
-0.11305353 0.10730061 0.2959429
-0.11609111 0.10820889 0.29522559
-0.074034579 0.17317438 0.29544699
-0.087547034 0.19636221 0.29573321
0.16828299 0.31592071 0.29572296
0.17194794 0.31504714 0.29572177
0.23164599 0.42704132 0.29512039
0.17968445 0.43006513 0.29543886
0.17878905 0.4346647 0.29546613
0.17646044 0.43524778 0.29547024
0.11088378 0.44402394 0.2954827
0.1056118 0.4489446 0.29552302
0.028723478 0.46186185 0.29526871
0.031149542 0.46187222 0.2952719
0.010172448 0.46472263 0.29573223
-0.011907402 0.47039285 0.29559618
-0.030575359 0.47166768 0.29577783
-0.017869314 0.47295737 0.29578656
-0.034644257 0.47478876 0.29514873
-0.032120232 0.47451821 0.29590255
-0.023867313 0.47598177 0.29509678
-0.044761676 0.47646853 0.29510689
-0.037515685 0.4774341 0.29511449
-0.035575479 0.4771232 0.29590842
-0.18160294 0.070991814 0.29656574
-0.084262289 0.079664074 0.29630134
-0.16743164 0.089356333 0.29699665
-0.16501738 0.091694742 0.29628119
-0.090691634 0.094928563 0.29659975
-0.092131428 0.095532179 0.29625809
-0.11168871 0.1067973 0.296303
-0.11021252 0.10630955 0.29666102
-0.073299631 0.16865247 0.29682764
-0.18409134 0.1817912 0.29684871
-0.18099461 0.18404111 0.29626453
-0.083618 0.19381005 0.29661161
-0.085802227 0.19464129 0.29631186
-0.14418265 0.2097504 0.29669914
-0.14189693 0.21013576 0.29669684
-0.13945974 0.21039471 0.29670361
-0.13681486 0.21073811 0.29670304
-0.1320146 0.21218981 0.29639772
-0.12508745 0.21211934 0.29670805
0.15940188 0.31737095 0.29652622
0.1522309 0.31884623 0.29653153
0.14506795 0.32023072 0.29653236
0.13985626 0.32117262 0.29653314
0.13434109 0.32211372 0.29653406
0.12001155 0.32415575 0.2965363
0.11080939 0.3252407 0.29653785
0.1175556 0.32773891 0.2964952
0.11372098 0.32817569 0.29649648
0.097529553 0.32966176 0.2965019
0.10467003 0.32907 0.29649851
0.22098352 0.42562571 0.2960445
0.19683424 0.42890319 0.29614639
0.21215706 0.42856345 0.29606462
0.15356109 0.43489245 0.29686362
0.14661987 0.43709201 0.29615444
0.16426171 0.4375439 0.29620185
0.13729712 0.43894923 0.29616195
0.13967052 0.43849847 0.29615456
0.10586087 0.44404134 0.29617855
0.091684379 0.44506115 0.29688758
0.047167916 0.45235205 0.29695651
0.057107233 0.45262033 0.29624319
0.05366632 0.45680451 0.29618689
0.033084329 0.46057686 0.2967442
-0.0059218509 0.46709245 0.29607737
-0.050060011 0.47463945 0.29670241
-0.056222767 0.47663671 0.29664531
-0.088433877 0.091932461 0.29797018
-0.089583009 0.093437366 0.29728538
-0.10875077 0.10580724 0.29702014
-0.10533702 0.10569291 0.2973806
-0.10390829 0.10516901 0.29773834
-0.10684332 0.10620847 0.29702038
-0.18780088 0.17851092 0.29772311
-0.08004988 0.19034046 0.29777852
-0.16039257 0.20387492 0.29791749
-0.15526658 0.20471081 0.29792336
-0.15247445 0.20599143 0.29761654
-0.14971378 0.20725454 0.29730844
-0.14697799 0.20849663 0.29700124
-0.13481513 0.2101489 0.29701492
-0.1307378 0.21058486 0.29700884
-0.12802128 0.21089989 0.29701054
-0.1109835 0.21092995 0.2976433
-0.1228518 0.21150534 0.29701167
-0.11555744 0.21138793 0.29733074
-0.11303265 0.21162173 0.29733282
-0.11761329 0.21206266 0.29702181
0.16162716 0.31282833 0.29727575
0.15614296 0.31408596 0.29727653
0.14914814 0.31547278 0.29728243
0.12515318 0.32288542 0.29733506
0.12883845 0.32233056 0.2973344
0.12273346 0.3264758 0.29730573
0.095553212 0.32923797 0.29731122
0.23177427 0.42036182 0.29747233
0.18119393 0.42744151 0.29751572
0.16470084 0.43163827 0.29751986
0.11263381 0.44164938 0.29756853
0.086631283 0.44488984 0.29757681
0.089051522 0.44463331 0.29758441
0.093662314 0.44414043 0.29758954
0.074483529 0.44598636 0.29758301
0.077112451 0.44579557 0.29758981
0.081918135 0.44534811 0.29757956
0.084246665 0.44513616 0.29758489
0.06170838 0.45102599 0.29765898
0.050848689 0.45560643 0.29761711
0.023219267 0.45991051 0.29746583
0.025650414 0.45991844 0.29746452
0.017039012 0.46368173 0.29721317
0.0034327863 0.46640351 0.29760003
-0.017079178 0.4687781 0.29713109
-0.044255789 0.47194374 0.29746154
-0.041602585 0.4722842 0.29745826
-0.058896318 0.47569013 0.29747334
-0.046661053 0.47755605 0.29747671
-0.08755669 0.089559391 0.29899648
-0.10246762 0.10463671 0.29809734
-0.10101858 0.10408865 0.29845697
-0.073123254 0.16227858 0.2987586
-0.078576535 0.18769367 0.29865465
-0.16873455 0.19987471 0.29883832
-0.16591316 0.20123225 0.29853553
-0.16318922 0.20255367 0.29822382
-0.10716581 0.20863271 0.29857087
-0.10009304 0.2082364 0.2988818
-0.10440703 0.20969622 0.29825795
0.17336483 0.30876347 0.29884851
0.16459218 0.31087521 0.29885039
0.141755 0.31625259 0.29807019
0.13742538 0.3197906 0.29892999
0.1321312 0.32125241 0.29813263
0.10840218 0.32374305 0.29893389
0.11397722 0.32372633 0.29812917
0.11786584 0.32324651 0.29813477
0.097563297 0.32472694 0.29893863
0.10480947 0.32408145 0.29893801
0.1079668 0.32761583 0.2981168
0.091439441 0.32840371 0.29892886
0.09342052 0.32884151 0.29811636
0.10247151 0.32812572 0.29811823
0.080521703 0.32950822 0.29811814
0.086251922 0.32924688 0.29812038
0.065209016 0.33240771 0.2988407
0.066999011 0.33238369 0.29884249
0.068773024 0.33237791 0.29884318
