# .PCD v0.7 - Point Cloud Data file format
VERSION 0.7
FIELDS x y z normal_x normal_y normal_z curvature
SIZE 4 4 4 4 4 4 4
TYPE F F F F F F F
COUNT 1 1 1 1 1 1 1
WIDTH 1402
HEIGHT 1
VIEWPOINT 0 0 0 1 0 0 0
POINTS 1402
DATA ascii
0.11374427 0.47653189 0 0 0 -1 0
0.1179291 0.47606695 0 0 0 -1 0
0.12397248 0.4761759 0 0 0 -1 0
0.12640458 0.47623733 0 0 0 -1 0
0.13518378 0.47633964 0 0 0 -1 0
0.13605407 0.47674271 0 0 0 -1 0
0.13719591 0.47634467 0 0 0 -1 0
0.1386172 0.47677517 0 0 0 -1 0
0.14246531 0.47614831 0 0 0 -1 0
0.14446025 0.47657049 0 0 0 -1 0
0.14592156 0.47613943 0 0 0 -1 0
0.15397517 0.47678679 0 0 0 -1 0
0.16127807 0.47645679 0 0 0 -1 0
0.16420926 0.47603539 0 0 0 -1 0
0.16678333 0.47661543 0 0 0 -1 0
0.16860461 0.47672123 0 0 0 -1 0
0.17016576 0.47643128 0 0 0 -1 0
0.17504045 0.4766984 0 0 0 -1 0
0.17873746 0.47604543 0 0 0 -1 0
0.17943509 0.47629845 0 0 0 -1 0
0.19712257 0.47628769 0 0 0 -1 0
0.1984812 0.4763273 0 0 0 -1 0
0.0023370979 0.47726405 0 0 0 -1 0
0.0059976303 0.47711453 0 0 0 -1 0
0.0063982145 0.47768632 0 0 0 -1 0
0.0086870492 0.47718191 0 0 0 -1 0
0.0090170344 0.47705212 0 0 0 -1 0
0.010376298 0.47715223 0 0 0 -1 0
0.012385543 0.47773814 0 0 0 -1 0
0.015909648 0.47797036 0 0 0 -1 0
0.01697504 0.4777579 0 0 0 -1 0
0.017124647 0.47787726 0 0 0 -1 0
0.021476774 0.47715896 0 0 0 -1 0
0.036030602 0.47780219 0 0 0 -1 0
0.03715834 0.47775856 0 0 0 -1 0
0.051440448 0.47732162 0 0 0 -1 0
0.053353969 0.47799081 0 0 0 -1 0
0.056420498 0.47738713 0 0 0 -1 0
0.06049845 0.47726765 0 0 0 -1 0
0.065797538 0.47733077 0 0 0 -1 0
0.070024416 0.47757715 0 0 0 -1 0
0.074143179 0.47775418 0 0 0 -1 0
0.079082742 0.47759098 0 0 0 -1 0
0.090340152 0.47706741 0 0 0 -1 0
0.092071153 0.47753355 0 0 0 -1 0
0.09727674 0.47735101 0 0 0 -1 0
0.10659617 0.47772723 0 0 0 -1 0
0.11014089 0.47743678 0 0 0 -1 0
0.11559707 0.47760919 0 0 0 -1 0
0.11684904 0.47724694 0 0 0 -1 0
0.12145722 0.47750643 0 0 0 -1 0
0.12262256 0.47751528 0 0 0 -1 0
0.12353855 0.47771361 0 0 0 -1 0
0.12652205 0.47772124 0 0 0 -1 0
0.12925899 0.47761139 0 0 0 -1 0
0.1311298 0.47796217 0 0 0 -1 0
0.13953313 0.47728392 0 0 0 -1 0
0.14359544 0.4776457 0 0 0 -1 0
0.14431575 0.47715849 0 0 0 -1 0
0.15276453 0.47742546 0 0 0 -1 0
0.16935979 0.47757804 0 0 0 -1 0
0.17068094 0.47780833 0 0 0 -1 0
0.17181781 0.47764087 0 0 0 -1 0
0.1741778 0.47754663 0 0 0 -1 0
0.17594421 0.47721779 0 0 0 -1 0
0.17722622 0.47710267 0 0 0 -1 0
0.17847788 0.47782332 0 0 0 -1 0
0.17987968 0.47797319 0 0 0 -1 0
0.18229018 0.47745129 0 0 0 -1 0
0.18641046 0.47799912 0 0 0 -1 0
0.18982661 0.47719625 0 0 0 -1 0
0.19083774 0.47710565 0 0 0 -1 0
0.19471599 0.47790426 0 0 0 -1 0
0.19683824 0.47740251 0 0 0 -1 0
0.0018203207 0.4786222 0 0 0 -1 0
0.0021031967 0.47822213 0 0 0 -1 0
0.0080570122 0.47862455 0 0 0 -1 0
0.015839275 0.47836125 0 0 0 -1 0
0.016599964 0.4784672 0 0 0 -1 0
0.018517967 0.47848806 0 0 0 -1 0
0.019002311 0.47812372 0 0 0 -1 0
0.02339031 0.47840887 0 0 0 -1 0
0.029495321 0.4782899 0 0 0 -1 0
0.030634457 0.4781366 0 0 0 -1 0
0.033546325 0.47826636 0 0 0 -1 0
0.035805658 0.47837394 0 0 0 -1 0
0.036262415 0.47889796 0 0 0 -1 0
0.037466705 0.47847247 0 0 0 -1 0
0.043762952 0.47849756 0 0 0 -1 0
0.045113817 0.47807041 0 0 0 -1 0
0.046959866 0.47879112 0 0 0 -1 0
0.052420698 0.47876668 0 0 0 -1 0
0.05456328 0.47874337 0 0 0 -1 0
0.057314098 0.47842991 0 0 0 -1 0
0.059969205 0.47845668 0 0 0 -1 0
0.063240856 0.47848752 0 0 0 -1 0
0.066206694 0.47857159 0 0 0 -1 0
0.0697065 0.47865283 0 0 0 -1 0
0.071861647 0.47825629 0 0 0 -1 0
0.072624527 0.47868952 0 0 0 -1 0
0.073397599 0.47814918 0 0 0 -1 0
0.077935174 0.47803438 0 0 0 -1 0
0.086182833 0.47872239 0 0 0 -1 0
0.088923499 0.47811973 0 0 0 -1 0
0.090613008 0.47874004 0 0 0 -1 0
0.091185085 0.47829118 0 0 0 -1 0
0.096761696 0.47839946 0 0 0 -1 0
0.09747079 0.478578 0 0 0 -1 0
0.10172559 0.47812194 0 0 0 -1 0
0.10359795 0.47811124 0 0 0 -1 0
0.10423072 0.47834468 0 0 0 -1 0
0.10602434 0.47824761 0 0 0 -1 0
0.1088507 0.47897398 0 0 0 -1 0
0.10901684 0.4782688 0 0 0 -1 0
0.11111198 0.47878495 0 0 0 -1 0
0.11723682 0.47818145 0 0 0 -1 0
0.11831833 0.47858819 0 0 0 -1 0
0.11958516 0.47826678 0 0 0 -1 0
0.1204746 0.47849786 0 0 0 -1 0
0.12106387 0.4782353 0 0 0 -1 0
0.12243224 0.47855571 0 0 0 -1 0
0.12958744 0.47879681 0 0 0 -1 0
0.13036779 0.47868934 0 0 0 -1 0
0.13142651 0.47849652 0 0 0 -1 0
0.13391446 0.47807896 0 0 0 -1 0
0.13525356 0.47894996 0 0 0 -1 0
0.13766681 0.47872138 0 0 0 -1 0
0.13893946 0.47870749 0 0 0 -1 0
0.13947006 0.47840512 0 0 0 -1 0
0.14177687 0.47853497 0 0 0 -1 0
0.14273307 0.47811678 0 0 0 -1 0
0.14571463 0.47854757 0 0 0 -1 0
0.14625663 0.478089 0 0 0 -1 0
0.14777987 0.47845644 0 0 0 -1 0
0.14900358 0.47838831 0 0 0 -1 0
0.15159465 0.47857201 0 0 0 -1 0
0.15435509 0.47872403 0 0 0 -1 0
0.15601045 0.47809657 0 0 0 -1 0
0.16094518 0.47886765 0 0 0 -1 0
0.16524561 0.47857237 0 0 0 -1 0
0.17395318 0.47867173 0 0 0 -1 0
0.17649506 0.47862241 0 0 0 -1 0
0.1776994 0.47831973 0 0 0 -1 0
0.17806402 0.47856545 0 0 0 -1 0
0.18091212 0.4787311 0 0 0 -1 0
0.18708062 0.47875178 0 0 0 -1 0
0.190336 0.47838333 0 0 0 -1 0
0.19578043 0.4784264 0 0 0 -1 0
0 0.47964638 0.00054224581 -1 0 0 0
0.0050307498 0.4797343 0 0 0 -1 0
0.0078321779 0.47929341 0 0 0 -1 0
0.010856161 0.47906521 0 0 0 -1 0
0.012048268 0.47926912 0 0 0 -1 0
0.018864345 0.47942981 0 0 0 -1 0
0.020845896 0.47906956 0 0 0 -1 0
0.026737118 0.47986156 0 0 0 -1 0
0.031489227 0.4791348 0 0 0 -1 0
0.033412684 0.47949114 0 0 0 -1 0
0.036834165 0.47936946 0 0 0 -1 0
0.040885426 0.4796952 0 0 0 -1 0
0.044480722 0.47916037 0 0 0 -1 0
0.056873292 0.47955585 0 0 0 -1 0
0.05829633 0.47978726 0 0 0 -1 0
0.061789788 0.47958037 0 0 0 -1 0
0.062581263 0.47935665 0 0 0 -1 0
0.063003168 0.47964787 0 0 0 -1 0
0.064029761 0.47929034 0 0 0 -1 0
0.065758616 0.47946215 0 0 0 -1 0
0.069943503 0.47931057 0 0 0 -1 0
0.08430624 0.47979143 0 0 0 -1 0
0.088498145 0.47940254 0 0 0 -1 0
0.090662271 0.4793503 0 0 0 -1 0
0.096272677 0.47957358 0 0 0 -1 0
0.097925022 0.47940969 0 0 0 -1 0
0.10288037 0.47905529 0 0 0 -1 0
0.10432345 0.47945493 0 0 0 -1 0
0.10631365 0.47951084 0 0 0 -1 0
0.10926209 0.4792349 0 0 0 -1 0
0.11021338 0.47913611 0 0 0 -1 0
0.11559083 0.47933823 0 0 0 -1 0
0.11766725 0.47998366 0 0 0 -1 0
0.12054381 0.47978333 0 0 0 -1 0
0.12356652 0.47959653 0 0 0 -1 0
0.1241731 0.47985956 0 0 0 -1 0
0.12735641 0.4794569 0 0 0 -1 0
0.12855087 0.47970098 0 0 0 -1 0
0.12971555 0.47941864 0 0 0 -1 0
0.13848206 0.47915715 0 0 0 -1 0
0.13904275 0.47943991 0 0 0 -1 0
0.14499551 0.47957394 0 0 0 -1 0
0.14787559 0.47988373 0 0 0 -1 0
0.14880709 0.47989511 0 0 0 -1 0
0.15258189 0.47971469 0 0 0 -1 0
0.15355173 0.47963202 0 0 0 -1 0
0.15546079 0.47979832 0 0 0 -1 0
0.15972354 0.47960049 0 0 0 -1 0
0.1631453 0.47960532 0 0 0 -1 0
0.16657314 0.47995359 0 0 0 -1 0
0.17153952 0.47993866 0 0 0 -1 0
0.17909983 0.47924793 0 0 0 -1 0
0.18045601 0.47985244 0 0 0 -1 0
0.18172865 0.47923768 0 0 0 -1 0
0.1831623 0.479844 0 0 0 -1 0
0.18426263 0.47933143 0 0 0 -1 0
0.18869396 0.47917834 0 0 0 -1 0
0.19039354 0.47928932 0 0 0 -1 0
0.19239971 0.47954917 0 0 0 -1 0
0.19445708 0.47979558 0 0 0 -1 0
0.00043274753 0.48005405 0 0 0 -1 0
0.0049543618 0.48016801 0 0 0 -1 0
0.0061071031 0.48030478 0 0 0 -1 0
0.0075088008 0.48052844 0 0 0 -1 0
0.011684006 0.48020679 0 0 0 -1 0
0.013466856 0.48073336 0 0 0 -1 0
0.015293896 0.4809691 0 0 0 -1 0
0.019988358 0.48067522 0 0 0 -1 0
0.026150588 0.48011783 0 0 0 -1 0
0.033794764 0.48055401 0 0 0 -1 0
0.037887692 0.48058906 0 0 0 -1 0
0.04155352 0.48093286 0 0 0 -1 0
0.042129323 0.48053855 0 0 0 -1 0
0.044564694 0.48002458 0 0 0 -1 0
0.045597255 0.48006776 0 0 0 -1 0
0.051758576 0.48001438 0 0 0 -1 0
0.059365213 0.48084444 0 0 0 -1 0
0.06106526 0.48079005 0 0 0 -1 0
0.070671678 0.48089844 0 0 0 -1 0
0.074448049 0.48059946 0 0 0 -1 0
0.075012423 0.48093408 0 0 0 -1 0
0.085411139 0.4802776 0 0 0 -1 0
0.087640144 0.48075238 0 0 0 -1 0
0.088421077 0.48056501 0 0 0 -1 0
0.098156154 0.48070538 0 0 0 -1 0
0.1016563 0.48078626 0 0 0 -1 0
0.10228049 0.48006326 0 0 0 -1 0
0.10414197 0.48073503 0 0 0 -1 0
0.11226323 0.48069298 0 0 0 -1 0
0.11348513 0.48023093 0 0 0 -1 0
0.11937793 0.48053169 0 0 0 -1 0
0.12624837 0.48086241 0 0 0 -1 0
0.12762326 0.48082945 0 0 0 -1 0
0.12827833 0.48084128 0 0 0 -1 0
0.13022965 0.48025808 0 0 0 -1 0
0.13664179 0.48047212 0 0 0 -1 0
0.13908295 0.4809193 0 0 0 -1 0
0.14394817 0.48022461 0 0 0 -1 0
0.14513862 0.48029095 0 0 0 -1 0
0.15254739 0.48039389 0 0 0 -1 0
0.15914033 0.48005772 0 0 0 -1 0
0.16165467 0.48036021 0 0 0 -1 0
0.16324817 0.48089737 0 0 0 -1 0
0.16650382 0.48093301 0 0 0 -1 0
0.18037125 0.48012015 0 0 0 -1 0
0.18498556 0.48023272 0 0 0 -1 0
0.18691288 0.48006475 0 0 0 -1 0
0.19187972 0.48085552 0 0 0 -1 0
0.19291329 0.48012114 0 0 0 -1 0
0 0.48141766 0.0004120298 -1 0 0 0
0.0038380167 0.4819195 0 0 0 -1 0
0.004878981 0.48138106 0 0 0 -1 0
0.0064481935 0.48136327 0 0 0 -1 0
0.0079670995 0.48121813 0 0 0 -1 0
0.0089669181 0.48111802 0 0 0 -1 0
0.011410383 0.48147091 0 0 0 -1 0
0.015857574 0.481875 0 0 0 -1 0
0.022392817 0.48173374 0 0 0 -1 0
0.0257848 0.48179433 0 0 0 -1 0
0.027430456 0.48136342 0 0 0 -1 0
0.028063482 0.48167878 0 0 0 -1 0
0.031303298 0.48169771 0 0 0 -1 0
0.032736182 0.48123848 0 0 0 -1 0
0.034552999 0.48132941 0 0 0 -1 0
0.035637558 0.48181885 0 0 0 -1 0
0.036472991 0.48108262 0 0 0 -1 0
0.037099421 0.48145485 0 0 0 -1 0
0.045623925 0.48136067 0 0 0 -1 0
0.046336938 0.48168325 0 0 0 -1 0
0.047743969 0.4811407 0 0 0 -1 0
0.049596101 0.48131233 0 0 0 -1 0
0.054305471 0.48133916 0 0 0 -1 0
0.056487978 0.48130822 0 0 0 -1 0
0.057591569 0.48121831 0 0 0 -1 0
0.058918756 0.48196518 0 0 0 -1 0
0.059319772 0.48192412 0 0 0 -1 0
0.060575288 0.48160729 0 0 0 -1 0
0.061339863 0.4815923 0 0 0 -1 0
0.063207202 0.48195165 0 0 0 -1 0
0.064084448 0.48127428 0 0 0 -1 0
0.065011457 0.48154861 0 0 0 -1 0
0.069170967 0.48111248 0 0 0 -1 0
0.070379384 0.48166066 0 0 0 -1 0
0.072782889 0.48139441 0 0 0 -1 0
0.077205546 0.48140365 0 0 0 -1 0
0.078820951 0.48165661 0 0 0 -1 0
0.080728933 0.48126978 0 0 0 -1 0
0.081340149 0.48128343 0 0 0 -1 0
0.090367101 0.48162329 0 0 0 -1 0
0.092501789 0.48170358 0 0 0 -1 0
0.096249491 0.48102009 0 0 0 -1 0
0.10186884 0.48108962 0 0 0 -1 0
0.10301404 0.4811604 0 0 0 -1 0
0.10562099 0.48149669 0 0 0 -1 0
0.11145373 0.48194817 0 0 0 -1 0
0.1194439 0.48139274 0 0 0 -1 0
0.12101864 0.48153025 0 0 0 -1 0
0.12583889 0.48143235 0 0 0 -1 0
0.13150355 0.48147631 0 0 0 -1 0
0.13223574 0.48133448 0 0 0 -1 0
0.13373941 0.48146826 0 0 0 -1 0
0.13574618 0.48100573 0 0 0 -1 0
0.13673662 0.48133251 0 0 0 -1 0
0.13779804 0.48109153 0 0 0 -1 0
0.14220388 0.48122397 0 0 0 -1 0
0.1438846 0.48112524 0 0 0 -1 0
0.14917861 0.48159251 0 0 0 -1 0
0.1548056 0.48111808 0 0 0 -1 0
0.1629575 0.48181728 0 0 0 -1 0
0.16350804 0.48124731 0 0 0 -1 0
0.16507331 0.4818438 0 0 0 -1 0
0.17018415 0.48131004 0 0 0 -1 0
0.17263508 0.48163176 0 0 0 -1 0
0.17430192 0.48156339 0 0 0 -1 0
0.17523123 0.48152807 0 0 0 -1 0
0.17853656 0.48129913 0 0 0 -1 0
0.18213055 0.48155782 0 0 0 -1 0
0.18387003 0.48169091 0 0 0 -1 0
0.18578811 0.48126405 0 0 0 -1 0
0.1925855 0.48108003 0 0 0 -1 0
0.19326928 0.4817307 0.00035634227 0.70710671 0.70710689 0 0
0.00069753791 0.48240528 0 0 0 -1 0
0.0056080092 0.48239481 0 0 0 -1 0
0.0083293524 0.4826473 0 0 0 -1 0
0.010912013 0.48289055 0 0 0 -1 0
0.012819601 0.48242557 0 0 0 -1 0
0.013864939 0.4822301 0 0 0 -1 0
0.016948795 0.48270819 0 0 0 -1 0
0.023812188 0.48252365 0 0 0 -1 0
0.024024965 0.48283029 0 0 0 -1 0
0.027554618 0.48296478 0 0 0 -1 0
0.030628826 0.48246482 0 0 0 -1 0
0.034546606 0.48250315 0 0 0 -1 0
0.040079098 0.48261017 0 0 0 -1 0
0.04130508 0.48248017 0 0 0 -1 0
0.044115338 0.48230237 0 0 0 -1 0
0.045429382 0.48260158 0 0 0 -1 0
0.049342323 0.48228002 0 0 0 -1 0
0.058482796 0.48258993 0 0 0 -1 0
0.068465225 0.48265004 0 0 0 -1 0
0.074176267 0.48250794 0 0 0 -1 0
0.079098031 0.4829241 0 0 0 -1 0
0.08068338 0.48299128 0 0 0 -1 0
0.082134962 0.48282698 0 0 0 -1 0
0.084707461 0.48262641 0 0 0 -1 0
0.08544568 0.48258746 0 0 0 -1 0
0.088976555 0.48286146 0 0 0 -1 0
0.090838507 0.48222247 0 0 0 -1 0
0.094397388 0.48245916 0 0 0 -1 0
0.096098982 0.48281994 0 0 0 -1 0
0.10654844 0.48209989 0 0 0 -1 0
0.10935366 0.48245129 0 0 0 -1 0
0.1148249 0.48270094 0 0 0 -1 0
0.12264694 0.48224822 0 0 0 -1 0
0.12433997 0.48248452 0 0 0 -1 0
0.12859876 0.4826951 0 0 0 -1 0
0.1298521 0.48275924 0 0 0 -1 0
0.13009252 0.48254526 0 0 0 -1 0
0.1363399 0.48249853 0 0 0 -1 0
0.13823104 0.48240352 0 0 0 -1 0
0.14129382 0.48233584 0 0 0 -1 0
0.1442765 0.48243341 0 0 0 -1 0
0.1455375 0.48257053 0 0 0 -1 0
0.15306583 0.48216492 0 0 0 -1 0
0.15633754 0.48242086 0 0 0 -1 0
0.16021065 0.48282084 0 0 0 -1 0
0.16519278 0.48255959 0 0 0 -1 0
0.16707629 0.48279878 0 0 0 -1 0
0.17067316 0.48255044 0 0 0 -1 0
0.17281641 0.4825913 0 0 0 -1 0
0.17379451 0.48232499 0 0 0 -1 0
0.17663416 0.48240179 0 0 0 -1 0
0.17767745 0.48221529 0 0 0 -1 0
0.18619856 0.48293853 0 0 0 -1 0
0.19147517 0.48266312 0 0 0 -1 0
0.0071925679 0.48357514 0 0 0 -1 0
0.014060696 0.48363402 0 0 0 -1 0
0.017291715 0.48311213 0 0 0 -1 0
0.018686332 0.48352778 0 0 0 -1 0
0.019444672 0.48365587 0 0 0 -1 0
0.027458986 0.48344702 0 0 0 -1 0
0.028060582 0.48312944 0 0 0 -1 0
0.02995709 0.48396263 0 0 0 -1 0
0.030946957 0.48316988 0 0 0 -1 0
0.031151719 0.48397744 0 0 0 -1 0
0.032658622 0.48331031 0 0 0 -1 0
0.055853598 0.4832809 0 0 0 -1 0
0.056663025 0.48338616 0 0 0 -1 0
0.057826027 0.48366958 0 0 0 -1 0
0.059824385 0.48342848 0 0 0 -1 0
0.060588598 0.48394269 0 0 0 -1 0
0.06371168 0.4834314 0 0 0 -1 0
0.064322002 0.48349598 0 0 0 -1 0
0.065637521 0.48344374 0 0 0 -1 0
0.073237792 0.48302591 0 0 0 -1 0
0.084582292 0.4836272 0 0 0 -1 0
0.088146187 0.48359978 0 0 0 -1 0
0.093880482 0.4839406 0 0 0 -1 0
0.096745394 0.48344138 0 0 0 -1 0
0.10235951 0.48370174 0 0 0 -1 0
0.10595546 0.48350507 0 0 0 -1 0
0.11091416 0.48359802 0 0 0 -1 0
0.11118691 0.48333484 0 0 0 -1 0
0.1133704 0.48354167 0 0 0 -1 0
0.11821972 0.48324943 0 0 0 -1 0
0.12090889 0.48300204 0 0 0 -1 0
0.12151837 0.48373538 0 0 0 -1 0
0.12216261 0.48319784 0 0 0 -1 0
0.12342984 0.48386601 0 0 0 -1 0
0.12486345 0.48391548 0 0 0 -1 0
0.12555394 0.48352748 0 0 0 -1 0
0.12653299 0.48342261 0 0 0 -1 0
0.1285913 0.48348853 0 0 0 -1 0
0.13210231 0.48397559 0 0 0 -1 0
0.14492276 0.48355517 0 0 0 -1 0
0.14838488 0.48334852 0 0 0 -1 0
0.1518341 0.48318994 0 0 0 -1 0
0.15234934 0.48359093 0 0 0 -1 0
0.16224426 0.48326737 0 0 0 -1 0
0.16659553 0.48314267 0 0 0 -1 0
0.16954696 0.48348159 0 0 0 -1 0
0.17255366 0.48383337 0 0 0 -1 0
0.17380255 0.48348472 0 0 0 -1 0
0.17547935 0.48365796 0 0 0 -1 0
0.17792739 0.48357502 0 0 0 -1 0
0.17895104 0.48329097 0 0 0 -1 0
0.18171452 0.48393947 0 0 0 -1 0
0.18407108 0.48350164 0 0 0 -1 0
0.19183479 0.4831652 0.00091964542 0.70710671 0.70710689 0 0
0.00013812871 0.48467579 0 0 0 -1 0
0.0029314309 0.48445511 0 0 0 -1 0
0.004425697 0.48401779 0 0 0 -1 0
0.0069208238 0.48448387 0 0 0 -1 0
0.008806888 0.48404106 0 0 0 -1 0
0.016392207 0.48447445 0 0 0 -1 0
0.017531503 0.4844628 0 0 0 -1 0
0.027218552 0.48452783 0 0 0 -1 0
0.029133052 0.48428112 0 0 0 -1 0
0.032600712 0.48428923 0 0 0 -1 0
0.03353627 0.48471382 0 0 0 -1 0
0.038892388 0.48433036 0 0 0 -1 0
0.03940469 0.48480171 0 0 0 -1 0
0.042956579 0.48498073 0 0 0 -1 0
0.043123294 0.48404524 0 0 0 -1 0
0.044883553 0.48478478 0 0 0 -1 0
0.047058947 0.48449582 0 0 0 -1 0
0.050590005 0.48489124 0 0 0 -1 0
0.055539928 0.48495862 0 0 0 -1 0
0.058897119 0.48479134 0 0 0 -1 0
0.060884751 0.48477939 0 0 0 -1 0
0.061407588 0.48426715 0 0 0 -1 0
0.064848393 0.48427588 0 0 0 -1 0
0.066261686 0.48498401 0 0 0 -1 0
0.07227499 0.48499745 0 0 0 -1 0
0.077370986 0.48477557 0 0 0 -1 0
0.083568513 0.48436561 0 0 0 -1 0
0.085991398 0.4844054 0 0 0 -1 0
0.088424094 0.48475838 0 0 0 -1 0
0.090614848 0.48420566 0 0 0 -1 0
0.09174443 0.48462036 0 0 0 -1 0
0.093614653 0.48442984 0 0 0 -1 0
0.099776313 0.48480794 0 0 0 -1 0
0.10889837 0.48463276 0 0 0 -1 0
0.10984912 0.48428735 0 0 0 -1 0
0.11614294 0.48463967 0 0 0 -1 0
0.12251131 0.48447806 0 0 0 -1 0
0.1236834 0.48467049 0 0 0 -1 0
0.12559684 0.48472333 0 0 0 -1 0
0.12711531 0.48408717 0 0 0 -1 0
0.1283986 0.48461151 0 0 0 -1 0
0.13060418 0.48453367 0 0 0 -1 0
0.13132715 0.4847002 0 0 0 -1 0
0.13712324 0.48481289 0 0 0 -1 0
0.13820915 0.48471099 0 0 0 -1 0
0.13919497 0.4842425 0 0 0 -1 0
0.14155668 0.48479912 0 0 0 -1 0
0.14589462 0.48421076 0 0 0 -1 0
0.14935185 0.48470694 0 0 0 -1 0
0.15228772 0.48459604 0 0 0 -1 0
0.15309201 0.4847908 0 0 0 -1 0
0.15633333 0.48430055 0 0 0 -1 0
0.15854502 0.48434046 0 0 0 -1 0
0.15924472 0.48457727 0 0 0 -1 0
0.16070236 0.48450622 0 0 0 -1 0
0.16168417 0.4849456 0 0 0 -1 0
0.1632871 0.48488 0 0 0 -1 0
0.17062588 0.48451406 0 0 0 -1 0
0.17330067 0.48459697 0 0 0 -1 0
0.17528041 0.48464793 0 0 0 -1 0
0.176413 0.48452759 0 0 0 -1 0
0.1779599 0.48479718 0 0 0 -1 0
0.17858611 0.48485973 0 0 0 -1 0
0.18750417 0.48437816 0 0 0 -1 0
0.18994927 0.48431632 0 0 0 -1 0
1.8186702e-05 0.48528659 0 0 0 -1 0
0.0028435055 0.48589307 0 0 0 -1 0
0.0060083433 0.48558623 0 0 0 -1 0
0.010555747 0.48521101 0 0 0 -1 0
0.014391725 0.4857823 0 0 0 -1 0
0.017651152 0.48578712 0 0 0 -1 0
0.019574476 0.48592255 0 0 0 -1 0
0.032807097 0.48548186 0 0 0 -1 0
0.0357382 0.48523265 0 0 0 -1 0
0.039202921 0.48571998 0 0 0 -1 0
0.045261644 0.48590788 0 0 0 -1 0
0.04636753 0.48524523 0 0 0 -1 0
0.054803729 0.48518085 0 0 0 -1 0
0.06093451 0.48510659 0 0 0 -1 0
0.061312202 0.4851734 0 0 0 -1 0
0.062411886 0.48516518 0 0 0 -1 0
0.063117512 0.48589426 0 0 0 -1 0
0.064326122 0.48557803 0 0 0 -1 0
0.065732099 0.48525462 0 0 0 -1 0
0.075946458 0.48568517 0 0 0 -1 0
0.076672189 0.48504817 0 0 0 -1 0
0.080231994 0.48593286 0 0 0 -1 0
0.083780609 0.48592955 0 0 0 -1 0
0.088342793 0.48530793 0 0 0 -1 0
0.09121421 0.48542267 0 0 0 -1 0
0.097726099 0.48567331 0 0 0 -1 0
0.099920295 0.48586479 0 0 0 -1 0
0.10095577 0.48574114 0 0 0 -1 0
0.10210782 0.48546427 0 0 0 -1 0
0.10331855 0.48553684 0 0 0 -1 0
0.10534846 0.48576123 0 0 0 -1 0
0.10611781 0.48581922 0 0 0 -1 0
0.11226241 0.4855043 0 0 0 -1 0
0.11681075 0.48523214 0 0 0 -1 0
0.13375567 0.48556596 0 0 0 -1 0
0.13482501 0.48500645 0 0 0 -1 0
0.14203605 0.48565575 0 0 0 -1 0
0.15183274 0.48573315 0 0 0 -1 0
0.15907191 0.48553264 0 0 0 -1 0
0.16541043 0.48575437 0 0 0 -1 0
0.16988069 0.4856745 0 0 0 -1 0
0.17184168 0.48581061 0 0 0 -1 0
0.17219959 0.48547241 0 0 0 -1 0
0.17383009 0.48530605 0 0 0 -1 0
0.17584211 0.48560107 0 0 0 -1 0
0.17967117 0.48555362 0 0 0 -1 0
0.18043137 0.48574001 0 0 0 -1 0
0.18135934 0.48582518 0 0 0 -1 0
0.0047429092 0.48606181 0 0 0 -1 0
0.010856865 0.48690018 0 0 0 -1 0
0.012450963 0.48682809 0 0 0 -1 0
0.013079961 0.48630387 0 0 0 -1 0
0.018319141 0.48633659 0 0 0 -1 0
0.021369783 0.48695919 0 0 0 -1 0
0.023728956 0.48637682 0 0 0 -1 0
0.025428895 0.48644754 0 0 0 -1 0
0.029565403 0.4868941 0 0 0 -1 0
0.030484227 0.48678222 0 0 0 -1 0
0.032379087 0.48656043 0 0 0 -1 0
0.03532546 0.48626122 0 0 0 -1 0
0.039295226 0.486009 0 0 0 -1 0
0.043464951 0.48628274 0 0 0 -1 0
0.04885684 0.48669654 0 0 0 -1 0
0.050518479 0.48670685 0 0 0 -1 0
0.051529385 0.48615026 0 0 0 -1 0
0.054840665 0.48618323 0 0 0 -1 0
0.056868993 0.48688418 0 0 0 -1 0
0.058262162 0.48609453 0 0 0 -1 0
0.059808839 0.48631448 0 0 0 -1 0
0.060532317 0.48600864 0 0 0 -1 0
0.061563261 0.48602891 0 0 0 -1 0
0.062256318 0.48685643 0 0 0 -1 0
0.065654315 0.48697591 0 0 0 -1 0
0.067317419 0.48635429 0 0 0 -1 0
0.074494153 0.48626468 0 0 0 -1 0
0.075652801 0.48697564 0 0 0 -1 0
0.076480456 0.48670036 0 0 0 -1 0
0.081502207 0.48673996 0 0 0 -1 0
0.083119199 0.48645404 0 0 0 -1 0
0.085671395 0.48698694 0 0 0 -1 0
0.088710994 0.48638737 0 0 0 -1 0
0.090094499 0.48693246 0 0 0 -1 0
0.098825112 0.48692423 0 0 0 -1 0
0.099329025 0.4868972 0 0 0 -1 0
0.10391205 0.48684737 0 0 0 -1 0
0.1277886 0.48624432 0 0 0 -1 0
0.13597213 0.4864262 0 0 0 -1 0
0.13625598 0.48681194 0 0 0 -1 0
0.14123726 0.48636109 0 0 0 -1 0
0.1484752 0.486343 0 0 0 -1 0
0.15048271 0.48651806 0 0 0 -1 0
0.15685165 0.48683906 0 0 0 -1 0
0.15969431 0.48650038 0 0 0 -1 0
0.16171339 0.48691285 0 0 0 -1 0
0.16307722 0.48622829 0 0 0 -1 0
0.17004345 0.48677808 0 0 0 -1 0
0.17561428 0.48685092 0 0 0 -1 0
0.18327942 0.48657849 0 0 0 -1 0
0.18890619 0.48609382 0.00046718994 0.70710671 0.70710689 0 0
0.0048945532 0.4877829 0 0 0 -1 0
0.0077630761 0.4871349 0 0 0 -1 0
0.0080118179 0.48792416 0 0 0 -1 0
0.0095429141 0.48765525 0 0 0 -1 0
0.015632775 0.48744231 0 0 0 -1 0
0.018566342 0.48787761 0 0 0 -1 0
0.019426478 0.48727354 0 0 0 -1 0
0.022152303 0.48746961 0 0 0 -1 0
0.023348575 0.48796451 0 0 0 -1 0
0.024417773 0.48732144 0 0 0 -1 0
0.027494457 0.48719269 0 0 0 -1 0
0.028505424 0.48780781 0 0 0 -1 0
0.030165875 0.48718601 0 0 0 -1 0
0.03680484 0.48726594 0 0 0 -1 0
0.039118282 0.48794442 0 0 0 -1 0
0.047158085 0.48713183 0 0 0 -1 0
0.055523559 0.48713368 0 0 0 -1 0
0.056982756 0.48714525 0 0 0 -1 0
0.057537526 0.48736173 0 0 0 -1 0
0.058209132 0.4870072 0 0 0 -1 0
0.061093818 0.48708394 0 0 0 -1 0
0.065331236 0.48705369 0 0 0 -1 0
0.078156956 0.4870711 0 0 0 -1 0
0.079561234 0.48712197 0 0 0 -1 0
0.082076341 0.48720345 0 0 0 -1 0
0.084296733 0.48752171 0 0 0 -1 0
0.090934031 0.48796305 0 0 0 -1 0
0.092720151 0.48799756 0 0 0 -1 0
0.10386355 0.48738515 0 0 0 -1 0
0.10765973 0.48760512 0 0 0 -1 0
0.10991155 0.48717481 0 0 0 -1 0
0.11175712 0.487241 0 0 0 -1 0
0.11533055 0.48725066 0 0 0 -1 0
0.12133104 0.48730335 0 0 0 -1 0
0.12740502 0.48746684 0 0 0 -1 0
0.12877403 0.4874585 0 0 0 -1 0
0.13080779 0.48771113 0 0 0 -1 0
0.13364273 0.48732519 0 0 0 -1 0
0.13662961 0.4871366 0 0 0 -1 0
0.13757069 0.48741847 0 0 0 -1 0
0.13807762 0.48710996 0 0 0 -1 0
0.14027563 0.48769835 0 0 0 -1 0
0.14452673 0.48741442 0 0 0 -1 0
0.15230323 0.4878397 0 0 0 -1 0
0.15360346 0.48705626 0 0 0 -1 0
0.15586062 0.48764238 0 0 0 -1 0
0.15818985 0.48726112 0 0 0 -1 0
0.15988116 0.48769489 0 0 0 -1 0
0.16053097 0.48789808 0 0 0 -1 0
0.16481718 0.48745307 0 0 0 -1 0
0.16920754 0.4870171 0 0 0 -1 0
0.17031057 0.48774496 0 0 0 -1 0
0.17481937 0.48756528 0 0 0 -1 0
0.17633887 0.4874897 0 0 0 -1 0
0.18347019 0.48731038 0 0 0 -1 0
0.18744315 0.48735985 2.3774379e-05 0.31622773 0.31622782 -0.89442718 0
0.005670914 0.48886633 0 0 0 -1 0
0.0095164739 0.48840612 0 0 0 -1 0
0.010028213 0.48891601 0 0 0 -1 0
0.012947852 0.4884232 0 0 0 -1 0
0.015732598 0.48871848 0 0 0 -1 0
0.019757105 0.48800093 0 0 0 -1 0
0.021902764 0.48839518 0 0 0 -1 0
0.022180226 0.48818552 0 0 0 -1 0
0.026771873 0.48869312 0 0 0 -1 0
0.027412804 0.48867071 0 0 0 -1 0
0.033887781 0.48876336 0 0 0 -1 0
0.036702074 0.4888978 0 0 0 -1 0
0.038221128 0.48855186 0 0 0 -1 0
0.050665505 0.48826122 0 0 0 -1 0
0.053742651 0.48806471 0 0 0 -1 0
0.054339461 0.48831868 0 0 0 -1 0
0.055195939 0.48864383 0 0 0 -1 0
0.062340148 0.48891178 0 0 0 -1 0
0.063746303 0.48874146 0 0 0 -1 0
0.065322898 0.48891515 0 0 0 -1 0
0.067835972 0.48805279 0 0 0 -1 0
0.075210661 0.48826885 0 0 0 -1 0
0.079070225 0.48866099 0 0 0 -1 0
0.089885861 0.48851267 0 0 0 -1 0
0.092840038 0.48832273 0 0 0 -1 0
0.094132915 0.48828435 0 0 0 -1 0
0.099485852 0.4885416 0 0 0 -1 0
0.10089573 0.48816988 0 0 0 -1 0
0.10202142 0.48877904 0 0 0 -1 0
0.10362685 0.48887122 0 0 0 -1 0
0.10493966 0.48893437 0 0 0 -1 0
0.1056593 0.48828739 0 0 0 -1 0
0.10834542 0.4884184 0 0 0 -1 0
0.11064898 0.48801863 0 0 0 -1 0
0.11276691 0.48818696 0 0 0 -1 0
0.11711853 0.4883813 0 0 0 -1 0
0.12136152 0.48893473 0 0 0 -1 0
0.12282559 0.48831436 0 0 0 -1 0
0.12730196 0.48875782 0 0 0 -1 0
0.13211599 0.48850301 0 0 0 -1 0
0.13529201 0.4884108 0 0 0 -1 0
0.14115876 0.48820269 0 0 0 -1 0
0.1428024 0.48815957 0 0 0 -1 0
0.14368826 0.48839989 0 0 0 -1 0
0.14491303 0.48860002 0 0 0 -1 0
0.14636546 0.48844078 0 0 0 -1 0
0.16014208 0.48846269 0 0 0 -1 0
0.16325514 0.48831463 0 0 0 -1 0
0.1659458 0.48841664 0 0 0 -1 0
0.16675968 0.48819926 0 0 0 -1 0
0.16772363 0.48864862 0 0 0 -1 0
0.17046313 0.4886277 0 0 0 -1 0
0.17729993 0.4882715 0 0 0 -1 0
0.17854503 0.48899385 0 0 0 -1 0
0.18099788 0.48885456 0 0 0 -1 0
0.18574981 0.48826998 0 0 0 -1 0
0.006605749 0.48955828 0 0 0 -1 0
0.010348502 0.48941946 0 0 0 -1 0
0.012420908 0.48929095 0 0 0 -1 0
0.015743826 0.48903346 0 0 0 -1 0
0.020524036 0.48990408 0 0 0 -1 0
0.021083172 0.4894082 0 0 0 -1 0
0.022014832 0.48962951 0 0 0 -1 0
0.026507964 0.48917496 0 0 0 -1 0
0.031063262 0.48976365 0 0 0 -1 0
0.036945619 0.48928145 0 0 0 -1 0
0.039548337 0.48945943 0 0 0 -1 0
0.047288071 0.48992902 0 0 0 -1 0
0.054813635 0.48943585 0 0 0 -1 0
0.055811882 0.48947513 0 0 0 -1 0
0.064802051 0.48913771 0 0 0 -1 0
0.065674715 0.48924017 0 0 0 -1 0
0.066410221 0.48988068 0 0 0 -1 0
0.067497328 0.48948851 0 0 0 -1 0
0.070913747 0.48916203 0 0 0 -1 0
0.072416343 0.48927975 0 0 0 -1 0
0.078610182 0.48947152 0 0 0 -1 0
0.079880118 0.48913142 0 0 0 -1 0
0.082965568 0.48916507 0 0 0 -1 0
0.086517058 0.48995572 0 0 0 -1 0
0.092367224 0.48935437 0 0 0 -1 0
0.098418586 0.48971352 0 0 0 -1 0
0.10072848 0.48976821 0 0 0 -1 0
0.10820241 0.48934814 0 0 0 -1 0
0.11176126 0.48923883 0 0 0 -1 0
0.11728509 0.48926368 0 0 0 -1 0
0.11834878 0.48948061 0 0 0 -1 0
0.12403143 0.48942581 0 0 0 -1 0
0.13417374 0.48935965 0 0 0 -1 0
0.13846795 0.48910052 0 0 0 -1 0
0.14472768 0.489443 0 0 0 -1 0
0.14763893 0.48993945 0 0 0 -1 0
0.15085676 0.48926917 0 0 0 -1 0
0.15438984 0.48965541 0 0 0 -1 0
0.16152479 0.48962513 0 0 0 -1 0
0.1635481 0.48999006 0 0 0 -1 0
0.16730252 0.489393 0 0 0 -1 0
0.17142262 0.48960096 0 0 0 -1 0
0.17669432 0.48965845 0 0 0 -1 0
0.17844936 0.48939598 0 0 0 -1 0
0.17993626 0.48998624 0 0 0 -1 0
0.18072116 0.48956257 0 0 0 -1 0
0.18539837 0.48944375 0.00028268687 0.67082036 0.67082053 -0.31622776 0
0.0013819695 0.49045926 0 0 0 -1 0
0.004539534 0.49094802 0 0 0 -1 0
0.0053788563 0.49087542 0 0 0 -1 0
0.0095249554 0.49055079 0 0 0 -1 0
0.015219887 0.49049288 0 0 0 -1 0
0.022085756 0.4903945 0 0 0 -1 0
0.028226599 0.49074364 0 0 0 -1 0
0.031674575 0.49069023 0 0 0 -1 0
0.034663927 0.49045748 0 0 0 -1 0
0.035201065 0.49034265 0 0 0 -1 0
0.039516423 0.49057084 0 0 0 -1 0
0.046453666 0.490165 0 0 0 -1 0
0.047481731 0.49019873 0 0 0 -1 0
0.050229456 0.490715 0 0 0 -1 0
0.053667709 0.4900023 0 0 0 -1 0
0.060576048 0.49060094 0 0 0 -1 0
0.066731811 0.49020448 0 0 0 -1 0
0.069825709 0.4901661 0 0 0 -1 0
0.072695144 0.49079913 0 0 0 -1 0
0.079488009 0.49035284 0 0 0 -1 0
0.080259122 0.49038911 0 0 0 -1 0
0.082729064 0.49099851 0 0 0 -1 0
0.083478197 0.4905574 0 0 0 -1 0
0.085350603 0.49009877 0 0 0 -1 0
0.087929592 0.49028194 0 0 0 -1 0
0.091153659 0.4903799 0 0 0 -1 0
0.096387953 0.49049389 0 0 0 -1 0
0.097099788 0.4906252 0 0 0 -1 0
0.10528395 0.49052238 0 0 0 -1 0
0.10637997 0.49069074 0 0 0 -1 0
0.10727765 0.49073267 0 0 0 -1 0
0.10820648 0.49087614 0 0 0 -1 0
0.10998495 0.49009115 0 0 0 -1 0
0.11028206 0.49040514 0 0 0 -1 0
0.11311342 0.49021012 0 0 0 -1 0
0.11839962 0.49008793 0 0 0 -1 0
0.12821247 0.49055311 0 0 0 -1 0
0.13199705 0.49025229 0 0 0 -1 0
0.13211201 0.49040145 0 0 0 -1 0
0.13343148 0.49008542 0 0 0 -1 0
0.14656915 0.49067181 0 0 0 -1 0
0.1504484 0.4900189 0 0 0 -1 0
0.15239944 0.49067694 0 0 0 -1 0
0.15553655 0.4909206 0 0 0 -1 0
0.16007802 0.49086109 0 0 0 -1 0
0.16572259 0.49031541 0 0 0 -1 0
0.16679367 0.49094555 0 0 0 -1 0
0.16770446 0.49038288 0 0 0 -1 0
0.17577133 0.49046978 0 0 0 -1 0
0.17750266 0.49029928 0 0 0 -1 0
0.17965972 0.49092409 0 0 0 -1 0
0.18316522 0.49042633 0 0 0 -1 0
0.006256666 0.49169156 0 0 0 -1 0
0.0072230794 0.49121031 0 0 0 -1 0
0.01004463 0.49131277 0 0 0 -1 0
0.012495035 0.49132705 0 0 0 -1 0
0.014261637 0.49155343 0 0 0 -1 0
0.018570662 0.49134097 0 0 0 -1 0
0.020628955 0.49199286 0 0 0 -1 0
0.022643261 0.49143571 0 0 0 -1 0
0.026270691 0.4912551 0 0 0 -1 0
0.038547475 0.49175495 0 0 0 -1 0
0.040312514 0.49128383 0 0 0 -1 0
0.041231409 0.49120522 0 0 0 -1 0
0.04237185 0.49186 0 0 0 -1 0
0.04365873 0.49142277 0 0 0 -1 0
0.04463277 0.49198511 0 0 0 -1 0
0.056712437 0.49160504 0 0 0 -1 0
0.060994286 0.491503 0 0 0 -1 0
0.069667935 0.49104816 0 0 0 -1 0
0.071868278 0.49187773 0 0 0 -1 0
0.072421879 0.4919889 0 0 0 -1 0
0.077361107 0.49112752 0 0 0 -1 0
0.080343328 0.49193829 0 0 0 -1 0
0.08684317 0.49148905 0 0 0 -1 0
0.090122946 0.49175748 0 0 0 -1 0
0.092572138 0.49168208 0 0 0 -1 0
0.09380132 0.49154273 0 0 0 -1 0
0.095218495 0.49125338 0 0 0 -1 0
0.10858037 0.49169862 0 0 0 -1 0
0.11297727 0.49148348 0 0 0 -1 0
0.11450389 0.49156207 0 0 0 -1 0
0.12250024 0.49170664 0 0 0 -1 0
0.12383227 0.49115181 0 0 0 -1 0
0.12464209 0.49191394 0 0 0 -1 0
0.12961636 0.49181944 0 0 0 -1 0
0.13296691 0.49155053 0 0 0 -1 0
0.13419056 0.49190882 0 0 0 -1 0
0.13538159 0.49125397 0 0 0 -1 0
0.13934152 0.49165785 0 0 0 -1 0
0.14025639 0.49181193 0 0 0 -1 0
0.14298928 0.49152988 0 0 0 -1 0
0.15274355 0.49144173 0 0 0 -1 0
0.16145816 0.49141094 0 0 0 -1 0
0.16422746 0.49119607 0 0 0 -1 0
0.16792177 0.49171376 0 0 0 -1 0
0.16965401 0.4910627 0 0 0 -1 0
0.17122731 0.49193457 0 0 0 -1 0
0.17218295 0.49172792 0 0 0 -1 0
0.17587432 0.49150038 0 0 0 -1 0
0.17657398 0.49124736 0 0 0 -1 0
0.18143602 0.49101582 0 0 0 -1 0
0.0023276915 0.49238876 0 0 0 -1 0
0.0034457915 0.49214488 0 0 0 -1 0
0.0059623485 0.49205104 0 0 0 -1 0
0.0077335951 0.49243808 0 0 0 -1 0
0.013533061 0.49285844 0 0 0 -1 0
0.018227158 0.49268627 0 0 0 -1 0
0.020306675 0.49244955 0 0 0 -1 0
0.026938858 0.49296466 0 0 0 -1 0
0.030456834 0.49249208 0 0 0 -1 0
0.032732278 0.4920032 0 0 0 -1 0
0.036428239 0.49292836 0 0 0 -1 0
0.040496685 0.49299246 0 0 0 -1 0
0.041689046 0.49261442 0 0 0 -1 0
0.04664113 0.49288845 0 0 0 -1 0
0.051121201 0.49250159 0 0 0 -1 0
0.052545615 0.49258399 0 0 0 -1 0
0.053000279 0.49293047 0 0 0 -1 0
0.056219824 0.49267066 0 0 0 -1 0
0.057364561 0.49234673 0 0 0 -1 0
0.060398292 0.49268341 0 0 0 -1 0
0.061911542 0.49247766 0 0 0 -1 0
0.062621325 0.49238074 0 0 0 -1 0
0.066878192 0.4923352 0 0 0 -1 0
0.0677986 0.49222633 0 0 0 -1 0
0.074388742 0.49238348 0 0 0 -1 0
0.080799744 0.49221903 0 0 0 -1 0
0.084731676 0.49292898 0 0 0 -1 0
0.089340657 0.49224925 0 0 0 -1 0
0.09164311 0.4920342 0 0 0 -1 0
0.094437927 0.49275088 0 0 0 -1 0
0.09948153 0.49295038 0 0 0 -1 0
0.10627768 0.49210075 0 0 0 -1 0
0.10735878 0.492192 0 0 0 -1 0
0.10894858 0.49226964 0 0 0 -1 0
0.11176945 0.49220932 0 0 0 -1 0
0.11473464 0.49274251 0 0 0 -1 0
0.11646436 0.49293742 0 0 0 -1 0
0.12366549 0.49231297 0 0 0 -1 0
0.12774917 0.49266118 0 0 0 -1 0
0.13238415 0.4926382 0 0 0 -1 0
0.13375171 0.49226433 0 0 0 -1 0
0.13420589 0.49210343 0 0 0 -1 0
0.13741809 0.49219197 0 0 0 -1 0
0.14622106 0.49202701 0 0 0 -1 0
0.15082788 0.49214119 0 0 0 -1 0
0.1538294 0.4922398 0 0 0 -1 0
0.1556344 0.49207348 0 0 0 -1 0
0.15908663 0.49204251 0 0 0 -1 0
0.16174474 0.49272257 0 0 0 -1 0
0.1625278 0.49276876 0 0 0 -1 0
0.1649774 0.4928171 0 0 0 -1 0
0.16577083 0.49288744 0 0 0 -1 0
0.16622306 0.49248347 0 0 0 -1 0
0.16771263 0.49224475 0 0 0 -1 0
0.16925251 0.49213406 0 0 0 -1 0
0.17801711 0.49219626 0 0 0 -1 0
0.18277457 0.49222541 0.00098355173 0.70710671 0.70710689 0 0
0.004187284 0.49322435 0 0 0 -1 0
0.014303312 0.49397796 0 0 0 -1 0
0.028999312 0.49339259 0 0 0 -1 0
0.031586826 0.49303257 0 0 0 -1 0
0.036989901 0.49396336 0 0 0 -1 0
0.04112358 0.4933241 0 0 0 -1 0
0.042239577 0.49386448 0 0 0 -1 0
0.047863498 0.49354899 0 0 0 -1 0
0.058300778 0.49323344 0 0 0 -1 0
0.068092875 0.4931798 0 0 0 -1 0
0.071240045 0.49369645 0 0 0 -1 0
0.075408429 0.49384058 0 0 0 -1 0
0.082673609 0.49372339 0 0 0 -1 0
0.087985829 0.49312389 0 0 0 -1 0
0.090366878 0.49329188 0 0 0 -1 0
0.10034852 0.49302694 0 0 0 -1 0
0.10499487 0.49362594 0 0 0 -1 0
0.10567202 0.49360275 0 0 0 -1 0
0.10826312 0.49314737 0 0 0 -1 0
0.11282361 0.493954 0 0 0 -1 0
0.1162611 0.49345326 0 0 0 -1 0
0.11793994 0.49321938 0 0 0 -1 0
0.1214398 0.49307656 0 0 0 -1 0
0.12371011 0.49368921 0 0 0 -1 0
0.12728602 0.4935672 0 0 0 -1 0
0.13345371 0.49323264 0 0 0 -1 0
0.13411695 0.49365026 0 0 0 -1 0
0.14384158 0.4930214 0 0 0 -1 0
0.1484172 0.49347073 0 0 0 -1 0
0.15302931 0.49309915 0 0 0 -1 0
0.16176754 0.49301261 0 0 0 -1 0
0.16616982 0.49358696 0 0 0 -1 0
0.17654829 0.49374673 0 0 0 -1 0
0.18081492 0.49328905 0 0 0 -1 0
0.18100402 0.49305767 0 0 0 -1 0
0.0073276148 0.49451834 0 0 0 -1 0
0.009620796 0.49463162 0 0 0 -1 0
0.011267935 0.49451762 0 0 0 -1 0
0.015272392 0.49493486 0 0 0 -1 0
0.016190879 0.49412638 0 0 0 -1 0
0.018390814 0.4943974 0 0 0 -1 0
0.02151894 0.49408266 0 0 0 -1 0
0.032638356 0.49417189 0 0 0 -1 0
0.033089489 0.49409238 0 0 0 -1 0
0.035739113 0.49445486 0 0 0 -1 0
0.038529932 0.49426267 0 0 0 -1 0
0.042595074 0.4945237 0 0 0 -1 0
0.043778088 0.49402562 0 0 0 -1 0
0.046113711 0.49452353 0 0 0 -1 0
0.058483396 0.49404535 0 0 0 -1 0
0.06187696 0.49403816 0 0 0 -1 0
0.062564485 0.49447644 0 0 0 -1 0
0.063188493 0.49406195 0 0 0 -1 0
0.064158276 0.49459863 0 0 0 -1 0
0.066889651 0.49443436 0 0 0 -1 0
0.068591304 0.49492773 0 0 0 -1 0
0.075432368 0.49408841 0 0 0 -1 0
0.081099615 0.4941594 0 0 0 -1 0
0.084111899 0.49410069 0 0 0 -1 0
0.089713186 0.4949609 0 0 0 -1 0
0.094777957 0.49490002 0 0 0 -1 0
0.097423948 0.49469924 0 0 0 -1 0
0.10026489 0.49401712 0 0 0 -1 0
0.10245753 0.49455228 0 0 0 -1 0
0.1046589 0.49493864 0 0 0 -1 0
0.10556805 0.49401814 0 0 0 -1 0
0.10651584 0.49418864 0 0 0 -1 0
0.10732447 0.49496016 0 0 0 -1 0
0.10840895 0.49445209 0 0 0 -1 0
0.1098811 0.49429175 0 0 0 -1 0
0.11435442 0.49415228 0 0 0 -1 0
0.12399749 0.494596 0 0 0 -1 0
0.12664387 0.49428961 0 0 0 -1 0
0.1291723 0.49416044 0 0 0 -1 0
0.13387759 0.49414954 0 0 0 -1 0
0.13455561 0.49427822 0 0 0 -1 0
0.13738237 0.49406856 0 0 0 -1 0
0.13806377 0.49443331 0 0 0 -1 0
0.14137068 0.49429512 0 0 0 -1 0
0.14532432 0.49443972 0 0 0 -1 0
0.14916702 0.49466681 0 0 0 -1 0
0.15000495 0.49402806 0 0 0 -1 0
0.15438308 0.4942537 0 0 0 -1 0
0.15835431 0.49439764 0 0 0 -1 0
0.16950074 0.49447209 0 0 0 -1 0
0.17282596 0.49440736 0 0 0 -1 0
0.17344919 0.4942418 0 0 0 -1 0
0.17695025 0.49411216 0 0 0 -1 0
0.17993392 0.49482194 0 0 0 -1 0
0.0036538308 0.49553221 0 0 0 -1 0
0.0098296218 0.4958967 0 0 0 -1 0
0.01077198 0.49520984 0 0 0 -1 0
0.020937832 0.49560627 0 0 0 -1 0
0.023742935 0.49540895 0 0 0 -1 0
0.028676746 0.49548939 0 0 0 -1 0
0.030660994 0.49592388 0 0 0 -1 0
0.040095776 0.49563667 0 0 0 -1 0
0.041755978 0.49516922 0 0 0 -1 0
0.045739803 0.49561435 0 0 0 -1 0
0.046031117 0.49509078 0 0 0 -1 0
0.049224965 0.49571264 0 0 0 -1 0
0.063642107 0.49549407 0 0 0 -1 0
0.068510398 0.49528226 0 0 0 -1 0
0.079129867 0.49529782 0 0 0 -1 0
0.082110971 0.49517438 0 0 0 -1 0
0.086978957 0.4959808 0 0 0 -1 0
0.091297299 0.49557298 0 0 0 -1 0
0.097583383 0.49531963 0 0 0 -1 0
0.0995996 0.49537325 0 0 0 -1 0
0.10245273 0.49573475 0 0 0 -1 0
0.10373635 0.49542016 0 0 0 -1 0
0.10566644 0.49575487 0 0 0 -1 0
0.10729725 0.4957566 0 0 0 -1 0
0.10974289 0.49518475 0 0 0 -1 0
0.11007839 0.49556533 0 0 0 -1 0
0.1128765 0.49533102 0 0 0 -1 0
0.11647781 0.49584755 0 0 0 -1 0
0.11908431 0.49596763 0 0 0 -1 0
0.12098762 0.49554408 0 0 0 -1 0
0.12107848 0.49502108 0 0 0 -1 0
0.12321742 0.49514312 0 0 0 -1 0
0.12404492 0.49500784 0 0 0 -1 0
0.13277246 0.49599168 0 0 0 -1 0
0.13423428 0.49504235 0 0 0 -1 0
0.13833584 0.49505594 0 0 0 -1 0
0.1437631 0.49554905 0 0 0 -1 0
0.1492483 0.49512526 0 0 0 -1 0
0.15247193 0.49576867 0 0 0 -1 0
0.15349938 0.49570572 0 0 0 -1 0
0.15457471 0.49534497 0 0 0 -1 0
0.15956783 0.49584386 0 0 0 -1 0
0.16009855 0.49598998 0 0 0 -1 0
0.16141014 0.49516591 0 0 0 -1 0
0.16267742 0.49503198 0 0 0 -1 0
0.16381176 0.49536481 0 0 0 -1 0
0.17168026 0.4953568 0 0 0 -1 0
0.17220175 0.4957802 0 0 0 -1 0
0.17429255 0.49555612 0 0 0 -1 0
0.17509954 0.49543309 0 0 0 -1 0
0.17603004 0.49574786 0 0 0 -1 0
0.00015319022 0.4966048 0.00028812999 -0.94868326 0 -0.31622776 0
0.0030575376 0.49644586 0 0 0 -1 0
0.0047140871 0.49640179 0 0 0 -1 0
0.0087598935 0.4966071 0 0 0 -1 0
0.014088921 0.49645257 0 0 0 -1 0
0.019691778 0.49622911 0 0 0 -1 0
0.021298597 0.49663118 0 0 0 -1 0
0.023345791 0.49655503 0 0 0 -1 0
0.025535708 0.49611962 0 0 0 -1 0
0.026997337 0.49673831 0 0 0 -1 0
0.033818129 0.49612108 0 0 0 -1 0
0.035173759 0.49659374 0 0 0 -1 0
0.036759965 0.49667555 0 0 0 -1 0
0.040151183 0.49644342 0 0 0 -1 0
0.041370247 0.4962669 0 0 0 -1 0
0.046072517 0.49673867 0 0 0 -1 0
0.058666795 0.49691725 0 0 0 -1 0
0.059905998 0.49645239 0 0 0 -1 0
0.064993374 0.49692535 0 0 0 -1 0
0.07677272 0.49666137 0 0 0 -1 0
0.077263027 0.4961921 0 0 0 -1 0
0.078053102 0.49678051 0 0 0 -1 0
0.079328954 0.49667597 0 0 0 -1 0
0.083670579 0.49622297 0 0 0 -1 0
0.08626657 0.49668556 0 0 0 -1 0
0.087484643 0.49699008 0 0 0 -1 0
0.08935117 0.49634221 0 0 0 -1 0
0.090786949 0.49645677 0 0 0 -1 0
0.091661103 0.49626502 0 0 0 -1 0
0.094757937 0.49613738 0 0 0 -1 0
0.096890241 0.49684823 0 0 0 -1 0
0.10018286 0.4961291 0 0 0 -1 0
0.10372535 0.49661058 0 0 0 -1 0
0.10694121 0.49655008 0 0 0 -1 0
0.11012784 0.49629042 0 0 0 -1 0
0.12425064 0.4963395 0 0 0 -1 0
0.12630792 0.49630415 0 0 0 -1 0
0.12895958 0.49695122 0 0 0 -1 0
0.13443345 0.49694106 0 0 0 -1 0
0.13544175 0.49636853 0 0 0 -1 0
0.13905843 0.49612352 0 0 0 -1 0
0.1501994 0.49628332 0 0 0 -1 0
0.15453382 0.49657321 0 0 0 -1 0
0.1568494 0.49600253 0 0 0 -1 0
0.15955685 0.49662051 0 0 0 -1 0
0.1705174 0.49647361 0 0 0 -1 0
0.17305583 0.49622372 0 0 0 -1 0
0.17580438 0.49601957 0 0 0 -1 0
0.1768133 0.49666098 0 0 0 -1 0
0.0018122446 0.49770769 0 0 0 -1 0
0.002243404 0.49762648 0 0 0 -1 0
0.0038764279 0.49747464 0 0 0 -1 0
0.0055608205 0.49790591 0 0 0 -1 0
0.0060817953 0.49796355 0 0 0 -1 0
0.0081636347 0.49722567 0 0 0 -1 0
0.014064068 0.49756235 0 0 0 -1 0
0.022789152 0.49752989 0 0 0 -1 0
0.023385037 0.49735332 0 0 0 -1 0
0.027986499 0.49736208 0 0 0 -1 0
0.033991337 0.49708596 0 0 0 -1 0
0.038804509 0.49762851 0 0 0 -1 0
0.04552643 0.49770689 0 0 0 -1 0
0.047637962 0.49741665 0 0 0 -1 0
0.048634574 0.49725574 0 0 0 -1 0
0.049982954 0.4974966 0 0 0 -1 0
0.053549759 0.4979614 0 0 0 -1 0
0.055047415 0.49747956 0 0 0 -1 0
0.06276565 0.49713469 0 0 0 -1 0
0.069688596 0.49721336 0 0 0 -1 0
0.082740836 0.49756569 0 0 0 -1 0
0.083265498 0.49738163 0 0 0 -1 0
0.084864594 0.49764985 0 0 0 -1 0
0.091595963 0.4976435 0 0 0 -1 0
0.094021909 0.49723709 0 0 0 -1 0
0.09660437 0.49779779 0 0 0 -1 0
0.10092156 0.49777943 0 0 0 -1 0
0.10543702 0.49763635 0 0 0 -1 0
0.11572195 0.49784091 0 0 0 -1 0
0.12254692 0.49769199 0 0 0 -1 0
0.12549448 0.49765956 0 0 0 -1 0
0.13170488 0.49711516 0 0 0 -1 0
0.13227324 0.49798381 0 0 0 -1 0
0.13557723 0.49745637 0 0 0 -1 0
0.13614106 0.49729562 0 0 0 -1 0
0.14819281 0.4978821 0 0 0 -1 0
0.15097447 0.49740347 0 0 0 -1 0
0.15559584 0.49774146 0 0 0 -1 0
0.15968451 0.49773192 0 0 0 -1 0
0.16074474 0.49716279 0 0 0 -1 0
0.16585992 0.49742079 0 0 0 -1 0
0.17428795 0.49776119 0 0 0 -1 0
0.0039155735 0.49898404 0 0 0 -1 0
0.0066714133 0.49855831 0 0 0 -1 0
0.0076967957 0.49841338 0 0 0 -1 0
0.01189971 0.49800438 0 0 0 -1 0
0.012815493 0.49845317 0 0 0 -1 0
0.019551193 0.49872214 0 0 0 -1 0
0.023669923 0.4989475 0 0 0 -1 0
0.024943883 0.49848235 0 0 0 -1 0
0.025259033 0.49889851 0 0 0 -1 0
0.028024817 0.4984566 0 0 0 -1 0
0.031978797 0.49879721 0 0 0 -1 0
0.041256618 0.49896419 0 0 0 -1 0
0.042534638 0.49846458 0 0 0 -1 0
0.043449141 0.49818179 0 0 0 -1 0
0.044111971 0.49898702 0 0 0 -1 0
0.048984028 0.49811697 0 0 0 -1 0
0.053998612 0.49801868 0 0 0 -1 0
0.057209998 0.49859631 0 0 0 -1 0
0.065648675 0.49862963 0 0 0 -1 0
0.069928743 0.49846497 0 0 0 -1 0
0.070339158 0.4985182 0 0 0 -1 0
0.075475127 0.49868304 0 0 0 -1 0
0.077854671 0.498101 0 0 0 -1 0
0.07846301 0.49809033 0 0 0 -1 0
0.079425596 0.49883461 0 0 0 -1 0
0.080627181 0.49875781 0 0 0 -1 0
0.08235652 0.49842167 0 0 0 -1 0
0.084477246 0.49884817 0 0 0 -1 0
0.087391518 0.49876338 0 0 0 -1 0
0.089361802 0.49864733 0 0 0 -1 0
0.092717052 0.49879956 0 0 0 -1 0
0.093474381 0.49854305 0 0 0 -1 0
0.095266573 0.49898899 0 0 0 -1 0
0.096038654 0.4982231 0 0 0 -1 0
0.099554487 0.4987911 0 0 0 -1 0
0.11051845 0.49817631 0 0 0 -1 0
0.11566949 0.4984374 0 0 0 -1 0
0.11615083 0.49848655 0 0 0 -1 0
0.12852821 0.4988282 0 0 0 -1 0
0.13013516 0.49805138 0 0 0 -1 0
0.13236594 0.49826971 0 0 0 -1 0
0.13820553 0.49896452 0 0 0 -1 0
0.14409767 0.49892762 0 0 0 -1 0
0.14545062 0.49838617 0 0 0 -1 0
0.15350118 0.49821335 0 0 0 -1 0
0.15630321 0.49895793 0 0 0 -1 0
0.15945578 0.4985472 0 0 0 -1 0
0.16244723 0.49874353 0 0 0 -1 0
0.16855375 0.49822441 0 0 0 -1 0
0.1719289 0.49805653 0 0 0 -1 0
0.17300504 0.49822474 0 0 0 -1 0
0.0015834862 0.5 0.00056387566 0 1 0 0
0.0032929378 0.49995759 0.00018071906 0 0.70710677 -0.70710677 0
0.004021612 0.5 0.00028022527 0 1 0 0
0.0059456062 0.5 0.00044981539 0 1 0 0
0.0072876569 0.49912506 0 0 0 -1 0
0.010509241 0.5 0.0006952539 0 1 0 0
0.012958036 0.5 0.00013568923 0 1 0 0
0.013049975 0.5 0.00051520916 0 1 0 0
0.015593358 0.49997616 0 0 0 -1 0
0.019203681 0.49926871 0 0 0 -1 0
0.022903975 0.5 0.00053470809 0 1 0 0
0.024609188 0.49991763 8.7325774e-05 0 0.44721359 -0.89442718 0
0.026925402 0.5 0.00057519227 0 1 0 0
0.030241882 0.5 0.00010756702 0 1 0 0
0.031699348 0.49952352 0 0 0 -1 0
0.035553813 0.49907193 0 0 0 -1 0
0.037122879 0.49964908 0 0 0 -1 0
0.040996987 0.5 0.00054365693 0 1 0 0
0.041280866 0.5 0.00019100533 0 1 0 0
0.045401379 0.49906367 0 0 0 -1 0
0.048560601 0.5 0.00026712866 0 1 0 0
0.049775306 0.5 0.00024694204 0 1 0 0
0.050754938 0.49933559 0 0 0 -1 0
0.051076647 0.5 0.00056483003 0 1 0 0
0.05239889 0.5 0.00047745259 0 1 0 0
0.056663595 0.49981925 0 0 0 -1 0
0.060130704 0.5 0.00011988282 0 1 0 0
0.061384823 0.5 0.0005730741 0 1 0 0
0.063781336 0.49952096 0 0 0 -1 0
0.06486661 0.5 0.00086729904 0 1 0 0
0.065044709 0.49928021 0 0 0 -1 0
0.066374622 0.49944085 0 0 0 -1 0
0.068750724 0.5 0.00057020411 0 1 0 0
0.073947936 0.49981958 5.0978364e-05 0 0.70710677 -0.70710677 0
0.076804988 0.49957922 0 0 0 -1 0
0.077090472 0.5 1.5471876e-05 0 1 0 0
0.078020133 0.49901989 0 0 0 -1 0
0.080419771 0.49982649 0.00031174719 0 0.70710677 -0.70710677 0
0.083159611 0.499625 0.00046959074 0 0.70710677 -0.70710677 0
0.085932724 0.49938953 0 0 0 -1 0
0.08831992 0.5 0.00090705603 0 1 0 0
0.090080135 0.49911091 0 0 0 -1 0
0.093479007 0.49990499 0 0 0 -1 0
0.095386557 0.5 9.5990305e-05 0 1 0 0
0.097521409 0.49955559 0 0 0 -1 0
0.099352732 0.4996115 5.8388712e-05 0 0.70710677 -0.70710677 0
0.10096501 0.5 5.3347649e-05 0 1 0 0
0.10281741 0.5 5.5356326e-05 0 1 0 0
0.10304513 0.49972117 0 0 0 -1 0
0.10453196 0.49920997 0 0 0 -1 0
0.10503519 0.49971262 0 0 0 -1 0
0.1106526 0.5 0.00022353977 0 1 0 0
0.112027 0.5 0.00087818952 0 1 0 0
0.1134891 0.49974206 0 0 0 -1 0
0.114035 0.49934161 0 0 0 -1 0
0.11514306 0.5 0.00020370782 0 1 0 0
0.11615875 0.5 0.00072276295 0 1 0 0
0.11858201 0.49975169 0 0 0 -1 0
0.11934385 0.49969438 0 0 0 -1 0
0.12006593 0.5 0.00043033363 0 1 0 0
0.12235147 0.49988693 0.00044559687 0 0.70710677 -0.70710677 0
0.12311069 0.49947608 0 0 0 -1 0
0.1255669 0.4997482 0.00028373749 0 0.44721359 -0.89442718 0
0.12614869 0.49945629 0 0 0 -1 0
0.1270311 0.49979514 0 0 0 -1 0
0.12841728 0.5 0.00053700508 0 1 0 0
0.13082711 0.49984834 0 0 0 -1 0
0.13236418 0.5 0.00092969986 0 1 0 0
0.13453314 0.49992847 0.00010470996 0 0.89442718 -0.44721359 0
0.14118719 0.5 0.00060647429 0 1 0 0
0.14559978 0.49900422 0 0 0 -1 0
0.14679286 0.49901423 0 0 0 -1 0
0.14915714 0.5 0.00020289123 0 1 0 0
0.15061806 0.49953941 6.8447742e-05 0 0.70710677 -0.70710677 0
0.15112241 0.5 0.00024399608 0 1 0 0
0.1536184 0.49996525 0.00034177603 0 0.70710677 -0.70710677 0
0.157004 0.49938354 0 0 0 -1 0
0.16089785 0.49962014 0 0 0 -1 0
0.16244811 0.49994013 0 0 0 -1 0
0.1719638 0.5 0.00066585839 0 1 0 0
0.17208329 0.5 0.00047752261 0 1 0 0
0.00051748753 0 0.0010559025 0 -1 0 0
0.0028546453 0 0.0011058901 0 -1 0 0
0.014478922 0 0.0016030403 0 -1 0 0
0.018382633 0 0.001304267 0 -1 0 0
0.021934509 0 0.0017367895 0 -1 0 0
0.023090899 0 0.0016748847 0 -1 0 0
0.024657778 0 0.0012748362 0 -1 0 0
0.027608193 0 0.0014204304 0 -1 0 0
0.028459221 0 0.0012329801 0 -1 0 0
0.030762717 0 0.0017949601 0 -1 0 0
0.033564448 0 0.0017903957 0 -1 0 0
0.036288798 0 0.0013506815 0 -1 0 0
0.038873345 0 0.0012371445 0 -1 0 0
0.049141452 0 0.0016271069 0 -1 0 0
0.054186806 0 0.0010349838 0 -1 0 0
0.057035372 0 0.0013369619 0 -1 0 0
0.060974836 0 0.0015517328 0 -1 0 0
0.069860443 0 0.0017562119 0 -1 0 0
0.08031477 0 0.0014388418 0 -1 0 0
0.089923158 0 0.0018033177 0 -1 0 0
0.090063959 0 0.0015397494 0 -1 0 0
0.095552281 0 0.0017118538 0 -1 0 0
0.098140255 0 0.0018456437 0 -1 0 0
0.10420883 0 0.0016680739 0 -1 0 0
0.10545844 0 0.0012103101 0 -1 0 0
0.11027947 0 0.0019189436 0 -1 0 0
0.11243598 0 0.0017792718 0 -1 0 0
0.11858848 0 0.0018759884 0 -1 0 0
0.12455544 0 0.0017320182 0 -1 0 0
0.12624088 0 0.0011543649 0 -1 0 0
0.12856093 0 0.0010538261 0 -1 0 0
0.13031882 0 0.001822073 0 -1 0 0
0.1353251 0 0.0013170608 0 -1 0 0
0.13625725 0 0.0011225872 0 -1 0 0
0.14293069 0 0.001262397 0 -1 0 0
0.14989701 0 0.0012004722 0 -1 0 0
0.15229939 0 0.0016261028 0 -1 0 0
0.15527031 0 0.0013191472 0 -1 0 0
0.15632756 0 0.0014907485 0 -1 0 0
0.15711004 0 0.001367701 0 -1 0 0
0.1586986 0 0.0018432273 0 -1 0 0
0.16273808 0 0.0013753471 0 -1 0 0
0.16374981 0 0.0011130192 0 -1 0 0
0.16416278 0 0.0018879392 0 -1 0 0
0.16655686 0 0.0018058304 0 -1 0 0
0.16754067 0 0.0019936878 0 -1 0 0
0.17321078 0 0.0017170332 0 -1 0 0
0.17599638 0 0.001325669 0 -1 0 0
0.17701237 0 0.0017635977 0 -1 0 0
0.19309133 0 0.0011047872 0 -1 0 0
0.19700588 0 0.0013792055 0 -1 0 0
0.19845566 0 0.0014011888 0 -1 0 0
0.20449975 0 0.0010383764 0 -1 0 0
0.20809633 0 0.0013618446 0 -1 0 0
0.21172555 0 0.0017783275 0 -1 0 0
0.21411046 0 0.0011931761 0 -1 0 0
0.21546271 0 0.0019935125 0 -1 0 0
0.21636824 0 0.0019349839 0 -1 0 0
0.21812212 0 0.0012683135 0 -1 0 0
0.21932873 0 0.0010711247 0 -1 0 0
0.22149657 0 0.0016941918 0 -1 0 0
0.2263263 0 0.0011939891 0 -1 0 0
0.23616169 0 0.0012989483 0 -1 0 0
0.2373461 0 0.001260746 0 -1 0 0
0.2390435 0 0.0013291204 0 -1 0 0
0.24069086 0 0.0019155231 0 -1 0 0
0.24410196 0 0.0012295693 0 -1 0 0
0.25 0.0012570866 0.0014010232 1 0 0 0
0.25 0.0056350976 0.0017747199 1 0 0 0
0.25 0.0084423367 0.0017981406 1 0 0 0
0 0.0098702265 0.001887275 -1 0 0 0
0.25 0.01007711 0.0014150453 1 0 0 0
0.25 0.012008914 0.0018729449 1 0 0 0
0 0.013509739 0.0014937209 -1 0 0 0
0 0.014106176 0.0013615873 -1 0 0 0
0.25 0.015481409 0.0012843487 1 0 0 0
0 0.017186752 0.0015957276 -1 0 0 0
0.25 0.017131153 0.0014873138 1 0 0 0
0.25 0.018034719 0.001334657 1 0 0 0
0 0.020151824 0.001962109 -1 0 0 0
0 0.021767789 0.0013950986 -1 0 0 0
0 0.023215313 0.0015535885 -1 0 0 0
0.25 0.024395958 0.0016272984 1 0 0 0
0.25 0.025338029 0.0016907263 1 0 0 0
0 0.027828572 0.001945114 -1 0 0 0
0 0.031808227 0.0017628969 -1 0 0 0
0 0.038197763 0.0014431134 -1 0 0 0
0 0.039661314 0.0016681686 -1 0 0 0
0.25 0.042912316 0.0011558416 1 0 0 0
0 0.043505885 0.0019914464 -1 0 0 0
0.25 0.043304961 0.0019337991 1 0 0 0
0.25 0.045951594 0.0010479438 1 0 0 0
0 0.048200898 0.0015666754 -1 0 0 0
0.25 0.048684839 0.0012048122 1 0 0 0
0 0.0491427 0.0018044322 -1 0 0 0
0.25 0.050614044 0.0017657368 1 0 0 0
0.25 0.051328737 0.0013158683 1 0 0 0
0.25 0.059658319 0.0014509518 1 0 0 0
0 0.060371209 0.0015400477 -1 0 0 0
0.25 0.060765631 0.0012563427 1 0 0 0
0 0.062778763 0.0015420169 -1 0 0 0
0.25 0.062147718 0.0012010641 1 0 0 0
0 0.065611914 0.0016532853 -1 0 0 0
0.25 0.065704577 0.0015332872 1 0 0 0
0.25 0.067237951 0.001957919 1 0 0 0
0.25 0.068608589 0.0018073653 1 0 0 0
0 0.070490569 0.0016167685 -1 0 0 0
0 0.074746192 0.0019357741 -1 0 0 0
0.25 0.075817488 0.0017366284 1 0 0 0
0 0.078512259 0.0018551275 -1 0 0 0
0.25 0.07926403 0.0018211463 1 0 0 0
0 0.082012944 0.0017693713 -1 0 0 0
0.25 0.083360486 0.001379688 1 0 0 0
0.25 0.085785843 0.001959316 1 0 0 0
0 0.087763928 0.0015228211 -1 0 0 0
0 0.090387002 0.0014272825 -1 0 0 0
0 0.092842489 0.0018709556 -1 0 0 0
0.25 0.093858846 0.0010065036 1 0 0 0
0 0.095301017 0.0014876425 -1 0 0 0
0.25 0.095205516 0.0019760276 1 0 0 0
