# .PCD v0.7 - Point Cloud Data file format
VERSION 0.7
FIELDS x y z normal_x normal_y normal_z curvature
SIZE 4 4 4 4 4 4 4
TYPE F F F F F F F
COUNT 1 1 1 1 1 1 1
WIDTH 781
HEIGHT 1
VIEWPOINT 0 0 0 1 0 0 0
POINTS 781
DATA ascii
0.18637651 0.14097169 0.076226361 0.88626182 0.46318465 0 0
0.17437363 0.14234845 0.076205388 -0.88626176 -0.46318468 0 0
0.18537442 0.1428891 0.076412722 0.88626182 0.46318465 0 0
0.071668908 0.14455764 0.07657665 -0.88626182 -0.46318462 0 0
0.082457334 0.14550462 0.076705173 0.88626182 0.46318462 0 0
0.17290017 0.14516778 0.076212704 -0.88626176 -0.46318468 0 0
0.18375735 0.14598322 0.076401412 0.88626182 0.46318465 0 0
0.080897808 0.14848866 0.076698348 0.88626182 0.46318462 0 0
0.17102057 0.14876422 0.07649491 -0.88626176 -0.46318468 0 0
0.18221202 0.14894006 0.076217562 0.88626182 0.46318465 0 0
0.08034239 0.14955139 0.076199263 0.88626182 0.46318462 0 0
0.18153808 0.15022959 0.076175295 0.88626182 0.46318465 0 0
0.067537747 0.15246223 0.076407328 -0.88626182 -0.46318462 0 0
0.078866914 0.15237458 0.076866515 0.88626182 0.46318462 0 0
0.18020719 0.15277611 0.07676319 0.88626182 0.46318465 0 0
0.16792765 0.15468225 0.076300457 -0.88626176 -0.46318468 0 0
0.16817224 0.15421428 0.076231293 -0.88626176 -0.46318468 0 0
0.17954856 0.15403634 0.076728843 0.88626182 0.46318465 0 0
0.065261275 0.15681808 0.076266378 -0.88626182 -0.46318462 0 0
0.17829849 0.15642823 0.076391228 0.88626182 0.46318465 0 0
0.064768769 0.15776043 0.076206006 -0.88626182 -0.46318462 0 0
0.16547811 0.15936925 0.076809056 -0.88626176 -0.46318468 0 0
0.16431895 0.16158718 0.076041654 -0.88626176 -0.46318468 0 0
0.073760539 0.16214514 0.076358899 0.88626182 0.46318462 0 0
0.1640245 0.16215055 0.076477423 -0.88626176 -0.46318468 0 0
0.1626465 0.16478726 0.076312631 -0.88626176 -0.46318468 0 0
0.17430493 0.16406956 0.076546289 0.88626182 0.46318465 0 0
0.16182654 0.16635618 0.076338187 -0.88626176 -0.46318468 0 0
0.059913516 0.16705053 0.076466188 -0.88626182 -0.46318462 0 0
0.070857704 0.16769949 0.076588064 0.88626182 0.46318462 0 0
0.059170254 0.16847268 0.076139897 -0.88626182 -0.46318462 0 0
0.058398031 0.16995026 0.076880753 -0.88626182 -0.46318462 0 0
0.17149329 0.16944939 0.076706953 0.88626182 0.46318465 0 0
0.058225103 0.17028114 0.076458544 -0.88626182 -0.46318462 0 0
0.17098302 0.17042574 0.076431535 0.88626182 0.46318465 0 0
0.076297089 0.17219284 0.076760396 0.46318471 -0.88626176 0 0
0.057524651 0.17366518 0.076263517 -0.46318471 0.88626176 0 0
0.078530699 0.17336018 0.07677298 0.46318471 -0.88626176 0 0
0.15696576 0.17565683 0.076082677 -0.88626176 -0.46318468 0 0
0.1557706 0.17794365 0.0760061 -0.88626176 -0.46318468 0 0
0.15605836 0.17739308 0.076969229 -0.88626176 -0.46318468 0 0
0.088249125 0.1784393 0.076319583 0.46318471 -0.88626176 0 0
0.0696472 0.18000078 0.076365612 -0.46318471 0.88626176 0 0
0.070266053 0.1803242 0.07623402 -0.46318471 0.88626176 0 0
0.072056077 0.18125971 0.076222152 -0.46318471 0.88626176 0 0
0.093635574 0.1812544 0.076056309 0.46318471 -0.88626176 0 0
0.15235056 0.18448758 0.076419339 -0.88626176 -0.46318468 0 0
0.080684371 0.18576908 0.07658191 -0.46318471 0.88626176 0 0
0.081872299 0.18638994 0.076466113 -0.46318471 0.88626176 0 0
0.15153565 0.18604688 0.076794907 -0.88626176 -0.46318468 0 0
0.16279024 0.18610187 0.076645486 0.88626182 0.46318465 0 0
0.10504457 0.18721706 0.076336481 0.46318471 -0.88626176 0 0
0.16185695 0.18788761 0.076628648 0.88626182 0.46318465 0 0
0.10806166 0.18879387 0.076782912 0.46318471 -0.88626176 0 0
0.087879583 0.18952951 0.076467484 -0.46318471 0.88626176 0 0
0.10862207 0.18908677 0.076829039 0.46318471 -0.88626176 0 0
0.16112058 0.1892966 0.076434948 0.88626182 0.46318465 0 0
0.089439556 0.1903448 0.076837502 -0.46318471 0.88626176 0 0
0.11583082 0.19285426 0.07673277 0.46318471 -0.88626176 0 0
0.14833066 0.19217934 0.07622917 -0.88626176 -0.46318468 0 0
0.095212691 0.193362 0.076020733 -0.46318471 0.88626176 0 0
0.14770776 0.19337115 0.076404035 -0.88626176 -0.46318468 0 0
0.15895805 0.19343442 0.076862328 0.88626182 0.46318465 0 0
0.10292964 0.19739509 0.076423384 -0.46318471 0.88626176 0 0
0.12471578 0.19749779 0.076051675 0.46318468 -0.88626176 0 0
0.14537984 0.19782543 0.076095842 -0.88626176 -0.46318468 0 0
0.10500261 0.19847848 0.076936968 -0.46318471 0.88626176 0 0
0.12643793 0.19839782 0.076256506 0.46318468 -0.88626176 0 0
0.14434735 0.199801 0.076481998 -0.88626176 -0.46318468 0 0
0.15578736 0.19950125 0.076713599 0.88626182 0.46318465 0 0
0.11142048 0.20183262 0.076711923 -0.46318471 0.88626176 0 0
0.15456995 0.20183066 0.076374084 0.88626182 0.46318465 0 0
0.13403887 0.20237029 0.076259881 0.46318468 -0.88626176 0 0
0.11625121 0.2043573 0.07662309 -0.46318471 0.88626176 0 0
0.13761459 0.20423904 0.076043017 0.46318468 -0.88626176 0 0
0.11778133 0.20515698 0.076036781 -0.46318471 0.88626176 0 0
0.14102784 0.20602289 0.07652656 0.46318468 -0.88626176 0 0
0.15193537 0.20687167 0.076399028 0.88626182 0.46318465 0 0
0.12760982 0.21029362 0.076031752 -0.46318471 0.88626176 0 0
0.13204737 0.21261281 0.076112196 -0.46318471 0.88626176 0 0
0.13607413 0.2147173 0.076775737 -0.46318471 0.88626176 0 0
0.1374934 0.21545905 0.076819502 -0.46318471 0.88626176 0 0
0.14605653 0.21812031 0.076603986 0.88626182 0.46318465 0 0
0.10502469 0.085656539 0.07718756 0.46318454 -0.88626188 0 0
0.10000418 0.090340666 0.077888817 -0.88626182 -0.46318462 0 0
0.11392635 0.090308785 0.077758193 0.46318454 -0.88626188 0 0
0.098746583 0.09274698 0.07758227 -0.88626182 -0.46318462 0 0
0.11827345 0.092580698 0.077420175 0.46318454 -0.88626188 0 0
0.1208345 0.093919173 0.077445611 0.46318454 -0.88626188 0 0
0.097879104 0.094406798 0.077775538 -0.88626182 -0.46318462 0 0
0.12339775 0.095258802 0.077345915 0.46318454 -0.88626188 0 0
0.12589838 0.096565694 0.077128634 0.46318454 -0.88626188 0 0
0.11395829 0.10160883 0.077036999 -0.46318462 0.88626182 0 0
0.093624249 0.10254808 0.077745765 -0.88626182 -0.46318462 0 0
0.11542027 0.10237289 0.077202827 -0.46318462 0.88626182 0 0
0.093269259 0.10322732 0.077590242 -0.88626182 -0.46318462 0 0
0.10438184 0.10355406 0.077177197 0.88626182 0.46318462 0 0
0.092386767 0.10491589 0.077238739 -0.88626182 -0.46318462 0 0
0.092013404 0.1056303 0.077877328 -0.88626182 -0.46318462 0 0
0.12098309 0.10528018 0.077144764 -0.46318462 0.88626182 0 0
0.12236537 0.10600259 0.077502906 -0.46318462 0.88626182 0 0
0.10168128 0.10872136 0.077957563 0.88626182 0.46318462 0 0
0.089994796 0.10949272 0.077890396 -0.88626182 -0.46318462 0 0
0.12867589 0.10930064 0.07735537 -0.46318465 0.88626182 0 0
0.14994757 0.10913447 0.077776819 0.46318454 -0.88626188 0 0
0.15417135 0.11134191 0.077493437 0.46318454 -0.88626188 0 0
0.15509656 0.11182545 0.077856399 0.46318454 -0.88626188 0 0
0.088477314 0.11239627 0.077557586 -0.88626182 -0.46318462 0 0
0.15695548 0.11279698 0.07713449 0.46318454 -0.88626188 0 0
0.098738968 0.1143512 0.07770656 0.88626182 0.46318462 0 0
0.085829645 0.11746235 0.077924445 -0.88626182 -0.46318462 0 0
0.08547993 0.1181315 0.077633314 -0.88626182 -0.46318462 0 0
0.096807741 0.11804643 0.077402569 0.88626182 0.46318462 0 0
0.084066465 0.12083605 0.077681772 -0.88626182 -0.46318462 0 0
0.15038712 0.12064753 0.077444121 -0.46318465 0.88626182 0 0
0.17224215 0.12078622 0.077656664 0.46318454 -0.88626188 0 0
0.094818756 0.12185216 0.077086546 0.88626182 0.46318462 0 0
0.094714001 0.12205262 0.077250309 0.88626182 0.46318462 0 0
0.15574983 0.12345023 0.077418052 -0.46318465 0.88626182 0 0
0.17760855 0.12359084 0.077103198 0.46318454 -0.88626188 0 0
0.093694627 0.1240031 0.077910751 0.88626182 0.46318462 0 0
0.17910725 0.12437409 0.077029347 0.46318454 -0.88626188 0 0
0.18068743 0.12519994 0.077185482 0.46318454 -0.88626188 0 0
0.080586568 0.12749451 0.077691019 -0.88626182 -0.46318462 0 0
0.080006316 0.12860475 0.077327386 -0.88626182 -0.46318462 0 0
0.16737387 0.12952526 0.077391341 -0.46318465 0.88626182 0 0
0.18854368 0.12930582 0.077864408 0.46318454 -0.88626188 0 0
0.090303428 0.13049184 0.07727202 0.88626182 0.46318462 0 0
0.16863844 0.13018616 0.077371605 -0.46318465 0.88626182 0 0
0.19149247 0.13118277 0.077875778 0.88626182 0.46318465 0 0
0.078040853 0.13236551 0.077525437 -0.88626182 -0.46318462 0 0
0.089021131 0.1329454 0.077462465 0.88626182 0.46318462 0 0
0.17353898 0.13274732 0.077529207 -0.46318465 0.88626182 0 0
0.19059032 0.13290893 0.077268466 0.88626182 0.46318465 0 0
0.076834023 0.13467467 0.0771612 -0.88626182 -0.46318462 0 0
0.077017695 0.13432322 0.077367775 -0.88626182 -0.46318462 0 0
0.076516613 0.13528199 0.077956118 -0.88626182 -0.46318462 0 0
0.075781286 0.13668899 0.077985972 -0.88626182 -0.46318462 0 0
0.18746509 0.13888882 0.077847272 0.88626182 0.46318465 0 0
0.072583281 0.14280806 0.077507876 -0.88626182 -0.46318462 0 0
0.17378956 0.14346606 0.077509373 -0.88626176 -0.46318468 0 0
0.17402466 0.14301619 0.07745479 -0.88626176 -0.46318468 0 0
0.082921371 0.14461674 0.077267602 0.88626182 0.46318462 0 0
0.18449624 0.14456937 0.07778468 0.88626182 0.46318465 0 0
0.070480637 0.14683129 0.077329591 -0.88626182 -0.46318462 0 0
0.069986477 0.14777681 0.07793507 -0.88626182 -0.46318462 0 0
0.070183791 0.14739928 0.07785736 -0.88626182 -0.46318462 0 0
0.069833256 0.14806999 0.077776186 -0.88626182 -0.46318462 0 0
0.069165722 0.14934726 0.077022903 -0.88626182 -0.46318462 0 0
0.17055164 0.14966148 0.077098548 -0.88626176 -0.46318468 0 0
0.18181072 0.14970788 0.077921063 0.88626182 0.46318465 0 0
0.068631709 0.15036906 0.07751257 -0.88626182 -0.46318462 0 0
0.16935906 0.15194336 0.077807613 -0.88626176 -0.46318468 0 0
0.17914903 0.15480082 0.077739902 0.88626182 0.46318465 0 0
0.07680925 0.15631174 0.077925369 0.88626182 0.46318462 0 0
0.076334417 0.15722027 0.077781849 0.88626182 0.46318462 0 0
0.16638061 0.15764233 0.077783972 -0.88626176 -0.46318468 0 0
0.17658281 0.15971102 0.077544607 0.88626182 0.46318465 0 0
0.16464308 0.16096696 0.077762119 -0.88626176 -0.46318468 0 0
0.073501393 0.16264102 0.077673569 0.88626182 0.46318462 0 0
0.17514195 0.16246802 0.07750006 0.88626182 0.46318465 0 0
0.061413478 0.16418047 0.077092528 -0.88626182 -0.46318462 0 0
0.16297805 0.16415285 0.07759618 -0.88626176 -0.46318468 0 0
0.071986705 0.16553922 0.077275857 0.88626182 0.46318462 0 0
0.072079882 0.16536094 0.077663347 0.88626182 0.46318462 0 0
0.17376184 0.16510868 0.077476963 0.88626182 0.46318465 0 0
0.060200319 0.16650175 0.077021375 -0.88626182 -0.46318462 0 0
0.071358591 0.16674107 0.077401832 0.88626182 0.46318462 0 0
0.17266442 0.16720852 0.077323437 0.88626182 0.46318465 0 0
0.17152095 0.16939646 0.077566706 0.88626182 0.46318465 0 0
0.074398339 0.1712005 0.077832446 0.46318471 -0.88626176 0 0
0.15926361 0.1712601 0.077417836 -0.88626176 -0.46318468 0 0
0.17061374 0.1711323 0.077132724 0.88626182 0.46318465 0 0
0.077411003 0.172775 0.077617913 0.46318471 -0.88626176 0 0
0.15855275 0.17262027 0.077484384 -0.88626176 -0.46318468 0 0
0.078028426 0.17309768 0.07704366 0.46318471 -0.88626176 0 0
0.15823132 0.1732353 0.077535257 -0.88626176 -0.46318468 0 0
0.079824418 0.17403631 0.07778801 0.46318471 -0.88626176 0 0
0.080728084 0.1745086 0.077673823 0.46318471 -0.88626176 0 0
0.060812328 0.17538342 0.0774813 -0.46318471 0.88626176 0 0
0.083276019 0.17584023 0.077541485 0.46318471 -0.88626176 0 0
0.16810498 0.17593262 0.077768154 0.88626182 0.46318465 0 0
0.062714979 0.1763778 0.077750817 -0.46318471 0.88626176 0 0
0.063834473 0.17696288 0.077295177 -0.46318471 0.88626176 0 0
0.084977411 0.17672941 0.077793248 0.46318471 -0.88626176 0 0
0.066255219 0.17822802 0.077131867 -0.46318471 0.88626176 0 0
0.087781087 0.17819469 0.077244975 0.46318471 -0.88626176 0 0
0.1557101 0.17805941 0.077456415 -0.88626176 -0.46318468 0 0
0.069459461 0.17990264 0.077886425 -0.46318471 0.88626176 0 0
0.16630486 0.17937699 0.077961102 0.88626182 0.46318465 0 0
0.1544472 0.18047585 0.077353716 -0.88626176 -0.46318468 0 0
0.16553167 0.18085642 0.077286988 0.88626182 0.46318465 0 0
0.071684532 0.18106553 0.077417441 -0.46318471 0.88626176 0 0
0.074379764 0.18247414 0.077876911 -0.46318471 0.88626176 0 0
0.095517486 0.18223794 0.077443466 0.46318471 -0.88626176 0 0
0.16441363 0.18299566 0.077370569 0.88626182 0.46318465 0 0
0.077644154 0.18418019 0.077286333 -0.46318471 0.88626176 0 0
0.078632146 0.18469656 0.077836633 -0.46318471 0.88626176 0 0
0.08083044 0.18584543 0.077100515 -0.46318471 0.88626176 0 0
0.10090835 0.18505535 0.077500381 0.46318471 -0.88626176 0 0
0.15041935 0.1881828 0.07760983 -0.88626176 -0.46318468 0 0
0.1095762 0.18958542 0.077543423 0.46318471 -0.88626176 0 0
0.14900905 0.19088128 0.077892244 -0.88626176 -0.46318468 0 0
0.093236551 0.19232921 0.077675268 -0.46318471 0.88626176 0 0
0.1149269 0.19238183 0.077901632 0.46318471 -0.88626176 0 0
0.094552815 0.19301713 0.077120155 -0.46318471 0.88626176 0 0
0.1194643 0.1947532 0.077259839 0.46318468 -0.88626176 0 0
0.1233757 0.19679743 0.077724442 0.46318468 -0.88626176 0 0
0.10392681 0.19791624 0.077784985 -0.46318471 0.88626176 0 0
0.10704759 0.19954723 0.077496968 -0.46318471 0.88626176 0 0
0.12930551 0.19989648 0.077013321 0.46318468 -0.88626176 0 0
0.13247789 0.20155445 0.077309862 0.46318468 -0.88626176 0 0
0.14290196 0.20256662 0.077170551 -0.88626176 -0.46318468 0 0
0.11570241 0.20407048 0.077214845 -0.46318471 0.88626176 0 0
0.13951015 0.20522971 0.077523082 0.46318468 -0.88626176 0 0
0.14029545 0.20564012 0.077996306 0.46318468 -0.88626176 0 0
0.15185718 0.2070213 0.077559225 0.88626182 0.46318465 0 0
0.12463745 0.20874017 0.077505633 -0.46318471 0.88626176 0 0
0.1509786 0.20870237 0.077406943 0.88626182 0.46318465 0 0
0.13004808 0.21156792 0.077083036 -0.46318471 0.88626176 0 0
0.1312719 0.21220753 0.0770422 -0.46318471 0.88626176 0 0
0.1331861 0.21320795 0.077005796 -0.46318471 0.88626176 0 0
0.13477266 0.21403711 0.077142358 -0.46318471 0.88626176 0 0
0.13638538 0.21487997 0.077168785 -0.46318471 0.88626176 0 0
0.14780268 0.21477923 0.077758126 0.88626182 0.46318465 0 0
0.1387122 0.21609603 0.077426344 -0.46318471 0.88626176 0 0
0.13924506 0.21637452 0.077925295 -0.46318471 0.88626176 0 0
0.14002581 0.21678255 0.077564113 -0.46318471 0.88626176 0 0
0.14639717 0.2174685 0.07752014 0.88626176 0.46318462 0 0
0.14345264 0.21857353 0.07732591 -0.46318471 0.88626176 0 0
0.14497781 0.2193706 0.07700628 -0.46318471 0.88626176 0 0
0.10188725 0.086737595 0.078749672 -0.88626182 -0.46318462 0 0
0.099157393 0.091960907 0.078428298 -0.88626182 -0.46318462 0 0
0.1176995 0.092280746 0.078108676 0.46318454 -0.88626188 0 0
0.121215 0.094118036 0.078680143 0.46318454 -0.88626188 0 0
0.096417598 0.097203262 0.078995608 -0.88626182 -0.46318462 0 0
0.10690719 0.098722056 0.078587376 0.88626182 0.46318462 0 0
0.12896983 0.098170914 0.078386195 0.46318454 -0.88626188 0 0
0.12939571 0.0983935 0.078770921 0.46318454 -0.88626188 0 0
0.1063716 0.099746853 0.078414835 0.88626176 0.46318462 0 0
0.13257141 0.1000532 0.078569286 0.46318454 -0.88626188 0 0
0.13699901 0.10236719 0.078096524 0.46318454 -0.88626188 0 0
0.13809998 0.10294258 0.078575425 0.46318454 -0.88626188 0 0
0.1187533 0.10411483 0.078604132 -0.46318462 0.88626182 0 0
0.11989277 0.10471034 0.07858485 -0.46318462 0.88626182 0 0
0.14321156 0.10561404 0.078495659 0.46318454 -0.88626188 0 0
0.10283925 0.1065057 0.078984194 0.88626182 0.46318462 0 0
0.14519972 0.10665309 0.078234971 0.46318454 -0.88626188 0 0
0.090528958 0.10847066 0.078807235 -0.88626182 -0.46318462 0 0
0.14904362 0.10866202 0.078954898 0.46318454 -0.88626188 0 0
0.089780577 0.10990261 0.078657784 -0.88626182 -0.46318462 0 0
0.12918933 0.10956898 0.078527294 -0.46318465 0.88626182 0 0
0.089665093 0.11012357 0.07874772 -0.88626182 -0.46318462 0 0
0.15304387 0.11075266 0.078170583 0.46318454 -0.88626188 0 0
0.15493394 0.11174047 0.078200005 0.46318454 -0.88626188 0 0
0.15527229 0.1119173 0.07803034 0.46318454 -0.88626188 0 0
0.13451579 0.11235273 0.078514561 -0.46318465 0.88626182 0 0
0.15738916 0.11302362 0.07876981 0.46318454 -0.88626188 0 0
0.13886639 0.11462648 0.078401044 -0.46318465 0.88626182 0 0
0.13999009 0.11521376 0.078283891 -0.46318465 0.88626182 0 0
0.085882924 0.11736041 0.078595914 -0.88626182 -0.46318462 0 0
0.097051084 0.11758082 0.078705221 0.88626182 0.46318462 0 0
0.08523728 0.11859579 0.078282297 -0.88626182 -0.46318462 0 0
0.09671054 0.11823241 0.078591898 0.88626182 0.46318462 0 0
0.14596008 0.11833383 0.078009121 -0.46318465 0.88626182 0 0
0.14700106 0.11887787 0.078782111 -0.46318465 0.88626182 0 0
0.17103827 0.12015703 0.078242071 0.46318454 -0.88626188 0 0
0.17544836 0.12246186 0.078305066 0.46318454 -0.88626188 0 0
0.17603225 0.12276702 0.078167565 0.46318454 -0.88626188 0 0
0.17708485 0.12331713 0.078917876 0.46318454 -0.88626188 0 0
0.082122833 0.124555 0.078208119 -0.88626182 -0.46318462 0 0
0.16062674 0.12599903 0.078098103 -0.46318465 0.88626182 0 0
0.18249926 0.12614685 0.078299671 0.46318454 -0.88626188 0 0
0.18818118 0.12911637 0.078917101 0.46318454 -0.88626188 0 0
0.089846715 0.13136572 0.078405872 0.88626182 0.46318462 0 0
0.077918574 0.13259947 0.07896255 -0.88626182 -0.46318462 0 0
0.077596053 0.13321659 0.078631654 -0.88626182 -0.46318462 0 0
0.18930514 0.13536802 0.078108579 0.88626182 0.46318465 0 0
0.075562283 0.13710801 0.078403987 -0.88626182 -0.46318462 0 0
0.086877406 0.13704723 0.07859055 0.88626182 0.46318462 0 0
0.085566215 0.13955607 0.0786888 0.88626182 0.46318462 0 0
0.072199166 0.14354303 0.078389421 -0.88626182 -0.46318462 0 0
0.18506852 0.14347441 0.078619905 0.88626182 0.46318465 0 0
0.17325926 0.14448069 0.07857728 -0.88626176 -0.46318468 0 0
0.070905209 0.14601894 0.078491658 -0.88626182 -0.46318462 0 0
0.070221946 0.14732628 0.078645587 -0.88626182 -0.46318462 0 0
0.16990639 0.15089613 0.07873176 -0.88626176 -0.46318468 0 0
0.17018709 0.15035902 0.078155071 -0.88626176 -0.46318468 0 0
0.18147042 0.15035899 0.078138433 0.88626182 0.46318465 0 0
0.16944458 0.15177977 0.07870958 -0.88626176 -0.46318468 0 0
0.079049453 0.1520253 0.078879818 0.88626182 0.46318462 0 0
0.078150958 0.15374449 0.078226812 0.88626182 0.46318462 0 0
0.07800734 0.1540193 0.078395896 0.88626182 0.46318462 0 0
0.064855993 0.15759353 0.078864828 -0.88626182 -0.46318462 0 0
0.07628084 0.15732279 0.07861875 0.88626182 0.46318462 0 0
0.17787115 0.1572459 0.078969598 0.88626182 0.46318465 0 0
0.064384736 0.15849525 0.078750305 -0.88626182 -0.46318462 0 0
0.16587698 0.15860602 0.078830071 -0.88626176 -0.46318468 0 0
0.074442357 0.16084057 0.078587994 0.88626182 0.46318462 0 0
0.1760952 0.16064405 0.078835584 0.88626182 0.46318465 0 0
0.062549248 0.16200727 0.078747511 -0.88626182 -0.46318462 0 0
0.1750432 0.16265693 0.0786632 0.88626182 0.46318465 0 0
0.061227251 0.1645368 0.078496724 -0.88626182 -0.46318462 0 0
0.072766304 0.16404755 0.078610972 0.88626182 0.46318462 0 0
0.060958885 0.1650503 0.07822834 -0.88626182 -0.46318462 0 0
0.060205273 0.16649227 0.078626342 -0.88626182 -0.46318462 0 0
0.059609056 0.16763307 0.078045741 -0.88626182 -0.46318462 0 0
0.17206329 0.16835873 0.078511298 0.88626182 0.46318465 0 0
0.071817763 0.16985182 0.078227863 0.46318471 -0.88626176 0 0
0.058301054 0.17013583 0.078328669 -0.88626182 -0.46318462 0 0
0.15978792 0.17025688 0.078150593 -0.88626176 -0.46318468 0 0
0.057703249 0.17127965 0.078630425 -0.88626182 -0.46318462 0 0
0.077834852 0.17299652 0.078128569 0.46318471 -0.88626176 0 0
0.15848243 0.17275484 0.078910679 -0.88626176 -0.46318468 0 0
0.16944441 0.17336974 0.078551479 0.88626182 0.46318465 0 0
0.08441177 0.1764338 0.078838214 0.46318471 -0.88626176 0 0
0.087292209 0.17793918 0.078594975 0.46318471 -0.88626176 0 0
0.067324296 0.17878675 0.078619346 -0.46318471 0.88626176 0 0
0.088992864 0.178828 0.078433536 0.46318471 -0.88626176 0 0
0.089046754 0.17885616 0.078783244 0.46318471 -0.88626176 0 0
0.067989543 0.17913443 0.078645736 -0.46318471 0.88626176 0 0
0.16648456 0.17903315 0.078529052 0.88626182 0.46318465 0 0
0.070385069 0.18038639 0.078925446 -0.46318471 0.88626176 0 0
0.071261644 0.18084453 0.078617349 -0.46318471 0.88626176 0 0
0.072510555 0.18149723 0.078818709 -0.46318471 0.88626176 0 0
0.096693017 0.1828523 0.078402638 0.46318471 -0.88626176 0 0
0.077187814 0.18394169 0.078018218 -0.46318471 0.88626176 0 0
0.077353403 0.18402824 0.078365013 -0.46318471 0.88626176 0 0
0.078748368 0.18475729 0.078148603 -0.46318471 0.88626176 0 0
0.10298666 0.18614155 0.078380428 0.46318471 -0.88626176 0 0
0.10339318 0.186354 0.078162402 0.46318471 -0.88626176 0 0
0.15108667 0.18690594 0.078141183 -0.88626176 -0.46318468 0 0
0.084262982 0.18763937 0.078378901 -0.46318471 0.88626176 0 0
0.085415564 0.18824175 0.078885257 -0.46318471 0.88626176 0 0
0.10797917 0.18875076 0.078016303 0.46318471 -0.88626176 0 0
0.087215886 0.18918264 0.07821162 -0.46318471 0.88626176 0 0
0.088674493 0.18994495 0.078215979 -0.46318471 0.88626176 0 0
0.11228377 0.19100046 0.078812219 0.46318471 -0.88626176 0 0
0.093615875 0.19252744 0.078450739 -0.46318471 0.88626176 0 0
0.11450503 0.19216135 0.078276545 0.46318471 -0.88626176 0 0
0.094671309 0.19307905 0.078563929 -0.46318471 0.88626176 0 0
0.11800479 0.19399042 0.078162089 0.46318468 -0.88626176 0 0
0.097789973 0.19470894 0.078928821 -0.46318471 0.88626176 0 0
0.098560378 0.19511159 0.078232899 -0.46318471 0.88626176 0 0
0.10172529 0.19676566 0.078028291 -0.46318471 0.88626176 0 0
0.12364829 0.19693987 0.078320712 0.46318468 -0.88626176 0 0
0.12545232 0.1978827 0.078643687 0.46318468 -0.88626176 0 0
0.14504777 0.19846082 0.078339644 -0.88626176 -0.46318468 0 0
0.12824802 0.19934382 0.07882379 0.46318468 -0.88626176 0 0
0.11064291 0.20142627 0.07816577 -0.46318471 0.88626176 0 0
0.14331871 0.20176925 0.078127801 -0.88626176 -0.46318468 0 0
0.11817385 0.20536213 0.078915253 -0.46318471 0.88626176 0 0
0.15113738 0.20839854 0.078714296 0.88626182 0.46318465 0 0
0.12758361 0.21027993 0.078324407 -0.46318471 0.88626176 0 0
0.13154347 0.21234946 0.07843288 -0.46318471 0.88626176 0 0
0.13620932 0.21478796 0.078750044 -0.46318471 0.88626176 0 0
0.14737992 0.21558812 0.078975305 0.88626182 0.46318465 0 0
0.14683104 0.21663837 0.078740984 0.88626182 0.46318465 0 0
0.14619154 0.21786198 0.078042343 0.88626182 0.46318465 0 0
0.14288948 0.2182792 0.078773715 -0.46318471 0.88626176 0 0
0.10320215 0.084704027 0.079703391 0.46318454 -0.88626188 0 0
0.11044656 0.088490158 0.079248652 0.46318454 -0.88626188 0 0
0.11255249 0.089590773 0.079403825 0.46318454 -0.88626188 0 0
0.11496963 0.090854034 0.079337105 0.46318454 -0.88626188 0 0
0.098782748 0.092677772 0.079047777 -0.88626182 -0.46318462 0 0
0.11854778 0.09272407 0.079723135 0.46318454 -0.88626188 0 0
0.12098202 0.093996271 0.079238579 0.46318454 -0.88626188 0 0
0.097423285 0.095278971 0.079419531 -0.88626182 -0.46318462 0 0
0.12370928 0.095421605 0.079495609 0.46318454 -0.88626188 0 0
0.12469384 0.095936172 0.079302318 0.46318454 -0.88626188 0 0
0.096723624 0.096617728 0.079016075 -0.88626182 -0.46318462 0 0
0.12491342 0.096050933 0.079101458 0.46318454 -0.88626188 0 0
0.096068069 0.097872071 0.079361036 -0.88626182 -0.46318462 0 0
0.12673396 0.097002387 0.07916677 0.46318454 -0.88626188 0 0
0.12813379 0.097733982 0.079661496 0.46318454 -0.88626188 0 0
0.1061893 0.10009567 0.07968463 0.88626182 0.46318462 0 0
0.112944 0.10107873 0.079306871 -0.46318462 0.88626182 0 0
0.11446507 0.10187368 0.079395235 -0.46318462 0.88626182 0 0
0.11483917 0.1020692 0.079497367 -0.46318462 0.88626182 0 0
0.10440438 0.10351095 0.079021946 0.88626182 0.46318462 0 0
0.11804832 0.10374638 0.079750434 -0.46318462 0.88626182 0 0
0.10272054 0.10673285 0.079259001 0.88626182 0.46318462 0 0
0.12249039 0.10606794 0.079751745 -0.46318462 0.88626182 0 0
0.090870149 0.1078178 0.079023346 -0.88626182 -0.46318462 0 0
0.10218659 0.10775448 0.079488464 0.88626182 0.46318462 0 0
0.14769785 0.10795869 0.079766363 0.46318454 -0.88626188 0 0
0.12898639 0.10946292 0.079318374 -0.46318465 0.88626182 0 0
0.13363624 0.11189306 0.079497017 -0.46318465 0.88626182 0 0
0.1547128 0.1116249 0.079934247 0.46318454 -0.88626188 0 0
0.099717692 0.11247851 0.079997368 0.88626182 0.46318462 0 0
0.13411349 0.11214249 0.079610929 -0.46318465 0.88626182 0 0
0.13527304 0.1127485 0.079136185 -0.46318465 0.88626182 0 0
0.13580021 0.113024 0.079735324 -0.46318465 0.88626182 0 0
0.16109005 0.11495782 0.07980404 0.46318454 -0.88626188 0 0
0.16127709 0.11505558 0.079341561 0.46318454 -0.88626188 0 0
0.16263649 0.11576603 0.079422228 0.46318454 -0.88626188 0 0
0.16408023 0.11652058 0.079986654 0.46318454 -0.88626188 0 0
0.085080713 0.11889536 0.079578429 -0.88626182 -0.46318462 0 0
0.16702077 0.11805738 0.079696588 0.46318454 -0.88626188 0 0
0.14803004 0.11941564 0.079824194 -0.46318465 0.88626182 0 0
0.17151374 0.12040552 0.079199418 0.46318454 -0.88626188 0 0
0.17437166 0.12189915 0.079571284 0.46318454 -0.88626188 0 0
0.09448722 0.12248652 0.079433903 0.88626182 0.46318462 0 0
0.17634618 0.12293109 0.079068609 0.46318454 -0.88626188 0 0
0.15615332 0.1236611 0.079255305 -0.46318465 0.88626182 0 0
0.082334727 0.12414958 0.079511181 -0.88626182 -0.46318462 0 0
0.093650125 0.12408824 0.079072408 0.88626182 0.46318462 0 0
0.15793817 0.12459391 0.079965264 -0.46318465 0.88626182 0 0
0.17859836 0.12410814 0.079068407 0.46318454 -0.88626188 0 0
0.092967466 0.12539445 0.079525828 0.88626182 0.46318462 0 0
0.16091689 0.12615067 0.079709761 -0.46318465 0.88626182 0 0
0.080776453 0.12713118 0.079307415 -0.88626182 -0.46318462 0 0
0.18426225 0.12706824 0.079053879 0.46318454 -0.88626188 0 0
0.090896338 0.12935737 0.079388306 0.88626182 0.46318462 0 0
0.1896154 0.12986594 0.079349257 0.46318454 -0.88626188 0 0
0.16882296 0.13028261 0.079640985 -0.46318465 0.88626182 0 0
0.19143766 0.13081831 0.079482652 0.46318454 -0.88626188 0 0
0.17029735 0.13105316 0.079364128 -0.46318465 0.88626182 0 0
0.17143846 0.13164952 0.079805985 -0.46318465 0.88626182 0 0
0.17472529 0.13336733 0.079941183 -0.46318465 0.88626182 0 0
0.19020367 0.13364872 0.079450056 0.88626182 0.46318465 0 0
0.076422043 0.13546297 0.079716876 -0.88626182 -0.46318462 0 0
0.17798659 0.13507175 0.079797581 -0.46318465 0.88626182 0 0
0.18888664 0.13616875 0.079677328 0.88626182 0.46318465 0 0
0.074582294 0.13898315 0.07966464 -0.88626182 -0.46318462 0 0
0.086219259 0.13830654 0.079365611 0.88626182 0.46318462 0 0
0.17650089 0.13827816 0.079376265 -0.88626176 -0.46318468 0 0
0.18767172 0.13849342 0.07947623 0.88626182 0.46318465 0 0
0.085656106 0.13938408 0.079006322 0.88626182 0.46318462 0 0
0.085235283 0.14018928 0.079736009 0.88626182 0.46318462 0 0
0.18682648 0.14011069 0.079007916 0.88626182 0.46318465 0 0
0.17444621 0.14220957 0.079055697 -0.88626176 -0.46318468 0 0
0.17279585 0.1453674 0.079739466 -0.88626176 -0.46318468 0 0
0.082012773 0.14635527 0.07974042 0.88626182 0.46318462 0 0
0.18332508 0.14681032 0.079717278 0.88626182 0.46318465 0 0
0.069909297 0.14792451 0.079784431 -0.88626182 -0.46318462 0 0
0.081468746 0.14739621 0.079518475 0.88626182 0.46318462 0 0
0.17185873 0.14716049 0.079940431 -0.88626176 -0.46318468 0 0
0.080950275 0.14838825 0.079881594 0.88626182 0.46318462 0 0
0.17105556 0.1486973 0.07945095 -0.88626176 -0.46318468 0 0
0.080378592 0.14948213 0.07986553 0.88626182 0.46318462 0 0
0.1695348 0.1516071 0.079125427 -0.88626176 -0.46318468 0 0
0.1788974 0.15528229 0.079324469 0.88626182 0.46318465 0 0
0.064650595 0.15798655 0.079138681 -0.88626182 -0.46318462 0 0
0.063392438 0.16039391 0.079844877 -0.88626182 -0.46318462 0 0
0.17622256 0.16040036 0.079556078 0.88626182 0.46318465 0 0
0.073210865 0.16319691 0.079005286 0.88626182 0.46318462 0 0
0.17444226 0.16380677 0.079293303 0.88626182 0.46318465 0 0
0.060740177 0.16546878 0.079260543 -0.88626182 -0.46318462 0 0
0.072128065 0.16526875 0.079393625 0.88626182 0.46318462 0 0
0.06026436 0.16637921 0.079078831 -0.88626182 -0.46318462 0 0
0.16193512 0.16614844 0.079511777 -0.88626176 -0.46318468 0 0
0.17324457 0.16609848 0.079780549 0.88626182 0.46318465 0 0
0.16125652 0.16744684 0.079595819 -0.88626176 -0.46318468 0 0
0.16057198 0.16875665 0.079129025 -0.88626176 -0.46318468 0 0
0.070486113 0.16915587 0.079236969 0.46318471 -0.88626176 0 0
0.16030344 0.16927049 0.079705484 -0.88626176 -0.46318468 0 0
0.058065135 0.17058723 0.079332925 -0.88626182 -0.46318462 0 0
0.07608147 0.17208014 0.07939136 0.46318471 -0.88626176 0 0
0.16991341 0.17247233 0.079313174 0.88626182 0.46318465 0 0
0.059417568 0.17465448 0.079840109 -0.46318471 0.88626176 0 0
0.081090517 0.17469801 0.079350285 0.46318471 -0.88626176 0 0
0.15757139 0.17449802 0.079395711 -0.88626176 -0.46318468 0 0
0.061290361 0.17563325 0.07903184 -0.46318471 0.88626176 0 0
0.062181268 0.17609887 0.07998611 -0.46318471 0.88626176 0 0
0.085252911 0.17687339 0.079798229 0.46318471 -0.88626176 0 0
0.16768281 0.17674038 0.079783097 0.88626182 0.46318465 0 0
0.064399727 0.1772583 0.079720989 -0.46318471 0.88626176 0 0
0.16727701 0.17751685 0.079478689 0.88626182 0.46318465 0 0
0.087421186 0.17800659 0.079175845 0.46318471 -0.88626176 0 0
0.15458146 0.18021898 0.079100177 -0.88626176 -0.46318468 0 0
0.074821927 0.18270522 0.079697296 -0.46318471 0.88626176 0 0
0.16396663 0.183851 0.079998806 0.88626182 0.46318465 0 0
0.080104955 0.18546626 0.079062626 -0.46318471 0.88626176 0 0
0.10235918 0.18581359 0.079249218 0.46318471 -0.88626176 0 0
0.083910897 0.18745536 0.079179943 -0.46318471 0.88626176 0 0
0.084150545 0.18758062 0.079316303 -0.46318471 0.88626176 0 0
0.14997266 0.18903749 0.079553932 -0.88626176 -0.46318468 0 0
0.14896533 0.19096494 0.079927847 -0.88626176 -0.46318468 0 0
0.14934339 0.19024156 0.079983354 -0.88626176 -0.46318468 0 0
0.090737939 0.19102336 0.079747409 -0.46318471 0.88626176 0 0
0.091543451 0.19144434 0.079434931 -0.46318471 0.88626176 0 0
0.092088304 0.1917291 0.079660073 -0.46318471 0.88626176 0 0
0.14893097 0.19103068 0.07909371 -0.88626176 -0.46318468 0 0
0.093506835 0.19247046 0.079664066 -0.46318471 0.88626176 0 0
0.11498236 0.19241083 0.079855576 0.46318471 -0.88626176 0 0
0.11656453 0.19323771 0.079115212 0.46318468 -0.88626176 0 0
0.1475772 0.19362098 0.079367757 -0.88626176 -0.46318468 0 0
0.15910813 0.19314724 0.079220027 0.88626182 0.46318465 0 0
0.12247889 0.19632871 0.079812288 0.46318468 -0.88626176 0 0
0.1026674 0.19725803 0.079991281 -0.46318471 0.88626176 0 0
0.12447229 0.19737051 0.079591237 0.46318468 -0.88626176 0 0
0.14554003 0.19751893 0.079056136 -0.88626176 -0.46318468 0 0
0.14478061 0.19897205 0.079812422 -0.88626176 -0.46318468 0 0
0.10735961 0.19971031 0.079488307 -0.46318471 0.88626176 0 0
0.1553807 0.20027936 0.079328939 0.88626182 0.46318465 0 0
0.13589466 0.20334017 0.079321668 0.46318468 -0.88626176 0 0
0.13626012 0.20353116 0.079115264 0.46318468 -0.88626176 0 0
0.14176656 0.20473912 0.079035409 -0.88626176 -0.46318468 0 0
0.11936004 0.20598207 0.079553418 -0.46318471 0.88626176 0 0
0.15255976 0.20567697 0.079110913 0.88626182 0.46318465 0 0
0.12029043 0.2064683 0.079269543 -0.46318471 0.88626176 0 0
0.12322103 0.20799991 0.079373911 -0.46318471 0.88626176 0 0
0.12400489 0.20840958 0.079654656 -0.46318471 0.88626176 0 0
0.15114793 0.20837834 0.079396538 0.88626182 0.46318465 0 0
0.12825434 0.21063046 0.079485685 -0.46318471 0.88626176 0 0
0.1302613 0.21167937 0.079216942 -0.46318471 0.88626176 0 0
0.13201943 0.2125982 0.079079643 -0.46318471 0.88626176 0 0
0.13320678 0.21321875 0.079846412 -0.46318471 0.88626176 0 0
0.13546205 0.2143974 0.079841048 -0.46318471 0.88626176 0 0
0.14093472 0.21725757 0.079894714 -0.46318471 0.88626176 0 0
0.14181198 0.21771607 0.079986535 -0.46318471 0.88626176 0 0
0.14422293 0.21897608 0.079188861 -0.46318471 0.88626176 0 0
0.14436486 0.21905026 0.079963572 -0.46318471 0.88626176 0 0
0.10578703 0.086054958 0.080657281 0.46318454 -0.88626188 0 0
0.10087559 0.088673301 0.080629066 -0.88626182 -0.46318462 0 0
0.11010233 0.088310249 0.080033831 0.46318454 -0.88626188 0 0
0.11418598 0.090444483 0.080810606 0.46318454 -0.88626188 0 0
0.11635146 0.091576219 0.080892459 0.46318454 -0.88626188 0 0
0.11804963 0.092463724 0.080015093 0.46318454 -0.88626188 0 0
0.098192483 0.093807168 0.080463871 -0.88626182 -0.46318462 0 0
0.12537073 0.096289933 0.080434419 0.46318454 -0.88626188 0 0
0.12741715 0.097359449 0.080605514 0.46318454 -0.88626188 0 0
0.10682386 0.098881505 0.080924965 0.88626182 0.46318462 0 0
0.10829382 0.098648414 0.080948256 -0.46318462 0.88626182 0 0
0.0954483 0.099057913 0.080854714 -0.88626182 -0.46318462 0 0
0.10666519 0.099185064 0.080704711 0.88626182 0.46318462 0 0
0.10934442 0.099197492 0.080868497 -0.46318462 0.88626182 0 0
0.11425079 0.1017617 0.080196299 -0.46318462 0.88626182 0 0
0.13466553 0.10114764 0.080722608 0.46318454 -0.88626188 0 0
0.11519103 0.10225309 0.08079578 -0.46318462 0.88626182 0 0
0.1222903 0.10596336 0.080532879 -0.46318462 0.88626182 0 0
0.14207813 0.10502167 0.080094561 0.46318454 -0.88626188 0 0
0.10309102 0.10602394 0.080159999 0.88626182 0.46318462 0 0
0.10212039 0.10788115 0.080598727 0.88626182 0.46318462 0 0
0.10178064 0.10853125 0.080304042 0.88626182 0.46318462 0 0
0.15016066 0.10924581 0.080493845 0.46318454 -0.88626188 0 0
0.089175604 0.11106016 0.080097795 -0.88626182 -0.46318462 0 0
0.15539014 0.1119789 0.080643483 0.46318454 -0.88626188 0 0
0.088464104 0.11242156 0.080378339 -0.88626182 -0.46318462 0 0
0.099946402 0.11204089 0.080436416 0.88626182 0.46318462 0 0
0.13710473 0.11370579 0.08045879 -0.46318465 0.88626182 0 0
0.16091749 0.11486764 0.080499634 0.46318454 -0.88626188 0 0
0.097941898 0.11587633 0.080754571 0.88626182 0.46318462 0 0
0.098189481 0.1154026 0.080152534 0.88626182 0.46318462 0 0
0.16181114 0.11533468 0.0802048 0.46318454 -0.88626188 0 0
0.086084828 0.11697407 0.08040861 -0.88626182 -0.46318462 0 0
0.097518861 0.11668576 0.080442779 0.88626182 0.46318462 0 0
0.14526728 0.11797177 0.08040797 -0.46318465 0.88626182 0 0
0.14707981 0.11891904 0.080470413 -0.46318465 0.88626182 0 0
0.16715774 0.11812896 0.080167823 0.46318454 -0.88626188 0 0
0.095512509 0.12052473 0.080698028 0.88626182 0.46318462 0 0
0.15103421 0.12098572 0.080985472 -0.46318465 0.88626182 0 0
0.094958067 0.12158561 0.080165818 0.88626182 0.46318462 0 0
0.09517394 0.12117256 0.080227196 0.88626182 0.46318462 0 0
0.15687725 0.12403945 0.080731466 -0.46318465 0.88626182 0 0
0.17962083 0.12464251 0.080175571 0.46318454 -0.88626188 0 0
0.081577361 0.12559873 0.080723897 -0.88626182 -0.46318462 0 0
0.15920779 0.12525745 0.080752127 -0.46318465 0.88626182 0 0
0.16215049 0.12679538 0.080304816 -0.46318465 0.88626182 0 0
0.18350329 0.12667158 0.080662571 0.46318454 -0.88626188 0 0
0.16276598 0.12711707 0.080218904 -0.46318465 0.88626182 0 0
0.16405547 0.12779099 0.080558725 -0.46318465 0.88626182 0 0
0.16490202 0.12823342 0.080925494 -0.46318465 0.88626182 0 0
0.090678148 0.12977487 0.080816559 0.88626182 0.46318462 0 0
0.078361422 0.1317521 0.080609679 -0.88626182 -0.46318462 0 0
0.17072617 0.13127728 0.080314033 -0.46318468 0.88626176 0 0
0.19134958 0.13145618 0.080883391 0.88626182 0.46318465 0 0
0.089146122 0.13270625 0.080609545 0.88626182 0.46318462 0 0
0.19104463 0.13203964 0.080839902 0.88626182 0.46318465 0 0
0.17467907 0.13334315 0.080591887 -0.46318465 0.88626182 0 0
0.177844 0.13499725 0.080414422 -0.46318465 0.88626182 0 0
0.18963733 0.13473241 0.080234371 0.88626182 0.46318465 0 0
0.087606028 0.13565309 0.080537431 0.88626182 0.46318462 0 0
0.075350218 0.1375138 0.080998734 -0.88626182 -0.46318462 0 0
0.086164534 0.13841124 0.080232009 0.88626182 0.46318462 0 0
0.073535994 0.14098515 0.080350146 -0.88626182 -0.46318462 0 0
0.18673547 0.14028484 0.080885291 0.88626182 0.46318465 0 0
0.18594933 0.14178911 0.080383845 0.88626182 0.46318465 0 0
0.18622953 0.14125293 0.080645226 0.88626182 0.46318465 0 0
0.072775878 0.14243954 0.08049617 -0.88626182 -0.46318462 0 0
0.084060356 0.14243738 0.080999956 0.88626182 0.46318462 0 0
0.071808033 0.14429146 0.080516487 -0.88626182 -0.46318462 0 0
0.083189756 0.14410321 0.080318391 0.88626182 0.46318462 0 0
0.17333741 0.14433116 0.080639698 -0.88626176 -0.46318468 0 0
0.17199159 0.1469063 0.080952339 -0.88626176 -0.46318468 0 0
0.17222506 0.14645958 0.080542408 -0.88626176 -0.46318468 0 0
0.18346879 0.14653531 0.08071138 0.88626182 0.46318465 0 0
0.081548564 0.14724347 0.080847524 0.88626182 0.46318462 0 0
0.17098255 0.14883697 0.080956161 -0.88626176 -0.46318468 0 0
0.17101526 0.14877436 0.080475658 -0.88626176 -0.46318468 0 0
0.1813999 0.15049398 0.080683738 0.88626182 0.46318465 0 0
0.06813582 0.15131789 0.080760241 -0.88626182 -0.46318462 0 0
0.079240702 0.15165937 0.080212377 0.88626182 0.46318462 0 0
0.16887486 0.15286984 0.080433398 -0.88626176 -0.46318468 0 0
0.077163979 0.15563299 0.080327593 0.88626182 0.46318462 0 0
0.16691968 0.15661091 0.080081716 -0.88626176 -0.46318468 0 0
0.17748971 0.15797576 0.080864422 0.88626182 0.46318465 0 0
0.16593167 0.15850142 0.080119804 -0.88626176 -0.46318468 0 0
0.075189091 0.15941176 0.080293491 0.88626182 0.46318462 0 0
0.17650485 0.15986022 0.080650501 0.88626182 0.46318465 0 0
0.062626347 0.16185977 0.080459148 -0.88626182 -0.46318462 0 0
0.16430435 0.1616151 0.080103964 -0.88626176 -0.46318468 0 0
0.061027881 0.16491829 0.080311716 -0.88626182 -0.46318462 0 0
0.072566882 0.16442913 0.080308788 0.88626182 0.46318462 0 0
0.060803562 0.1653475 0.080389261 -0.88626182 -0.46318462 0 0
0.17345551 0.16569486 0.080901869 0.88626182 0.46318465 0 0
0.071654111 0.16617563 0.080662549 0.88626182 0.46318462 0 0
0.17320049 0.1661828 0.080559485 0.88626182 0.46318465 0 0
0.058625348 0.16951531 0.080562204 -0.88626182 -0.46318462 0 0
0.17135531 0.16971338 0.080393754 0.88626182 0.46318465 0 0
0.074777365 0.17139858 0.080857217 0.46318471 -0.88626176 0 0
0.077287391 0.17271039 0.080001824 0.46318471 -0.88626176 0 0
0.057610437 0.17371002 0.080451801 -0.46318471 0.88626176 0 0
0.07823202 0.17320408 0.080024242 0.46318471 -0.88626176 0 0
0.058717936 0.17428882 0.080184542 -0.46318471 0.88626176 0 0
0.081381403 0.17485003 0.080946803 0.46318471 -0.88626176 0 0
0.060460296 0.17519943 0.080885023 -0.46318471 0.88626176 0 0
0.15583602 0.17781851 0.080033161 -0.88626176 -0.46318468 0 0
0.066400662 0.17830405 0.080957696 -0.46318471 0.88626176 0 0
0.090881392 0.17981499 0.080567434 0.46318471 -0.88626176 0 0
0.15482289 0.17975703 0.080795929 -0.88626176 -0.46318468 0 0
0.15451804 0.18034032 0.080247335 -0.88626176 -0.46318468 0 0
0.16513953 0.18160671 0.080436364 0.88626182 0.46318465 0 0
0.073929295 0.1822387 0.080735505 -0.46318471 0.88626176 0 0
0.16477615 0.182302 0.08040522 0.88626182 0.46318465 0 0
0.15219685 0.1847817 0.080818102 -0.88626176 -0.46318468 0 0
0.15173514 0.18566516 0.080800287 -0.88626176 -0.46318468 0 0
0.15203466 0.18509208 0.08019948 -0.88626176 -0.46318468 0 0
0.083940238 0.1874707 0.080838442 -0.46318471 0.88626176 0 0
0.10492469 0.18715441 0.080197789 0.46318471 -0.88626176 0 0
0.085241407 0.18815073 0.080571137 -0.46318471 0.88626176 0 0
0.15012944 0.18873751 0.080468327 -0.88626176 -0.46318468 0 0
0.10879768 0.18917853 0.080934651 0.46318471 -0.88626176 0 0
0.10977338 0.18968847 0.080139376 0.46318471 -0.88626176 0 0
0.090131201 0.19070625 0.080241024 -0.46318471 0.88626176 0 0
0.11084767 0.19024992 0.080519088 0.46318471 -0.88626176 0 0
0.091209173 0.19126964 0.08017534 -0.46318471 0.88626176 0 0
0.1602138 0.19103165 0.080592789 0.88626182 0.46318465 0 0
0.11590511 0.19289306 0.080438256 0.46318468 -0.88626176 0 0
0.11678603 0.19335347 0.080346741 0.46318468 -0.88626176 0 0
0.14751148 0.19374676 0.080089077 -0.88626176 -0.46318468 0 0
0.15874049 0.19385071 0.080932021 0.88626182 0.46318465 0 0
0.11960427 0.19482636 0.080955222 0.46318468 -0.88626176 0 0
0.15791841 0.19542368 0.080252528 0.88626182 0.46318465 0 0
0.12185445 0.19600235 0.080443792 0.46318468 -0.88626176 0 0
0.14585476 0.19691674 0.080410749 -0.88626176 -0.46318468 0 0
0.15726069 0.19668218 0.080966435 0.88626182 0.46318465 0 0
0.10302573 0.1974453 0.08021231 -0.46318471 0.88626176 0 0
0.14556925 0.19746301 0.080856904 -0.88626176 -0.46318468 0 0
0.15677646 0.19760868 0.0801218 0.88626182 0.46318465 0 0
0.10473797 0.19834016 0.080681726 -0.46318471 0.88626176 0 0
0.1267952 0.19858454 0.080338016 0.46318468 -0.88626176 0 0
0.12745257 0.19892809 0.080596849 0.46318468 -0.88626176 0 0
0.15655042 0.1980412 0.080712013 0.88626182 0.46318465 0 0
0.14388429 0.20068705 0.080517262 -0.88626176 -0.46318468 0 0
0.11329266 0.20281109 0.080192193 -0.46318471 0.88626176 0 0
0.14283994 0.20268528 0.080560297 -0.88626176 -0.46318468 0 0
0.11388969 0.20312309 0.080552511 -0.46318471 0.88626176 0 0
0.11637266 0.20442079 0.080176786 -0.46318471 0.88626176 0 0
0.13738665 0.20411992 0.080664746 0.46318468 -0.88626176 0 0
0.14192936 0.20442764 0.080345549 -0.88626176 -0.46318468 0 0
0.14113745 0.20594287 0.080504879 -0.88626176 -0.46318468 0 0
0.15160239 0.2075088 0.080257662 0.88626182 0.46318465 0 0
0.12359813 0.208197 0.080973499 -0.46318471 0.88626176 0 0
0.12468845 0.20876683 0.080900088 -0.46318471 0.88626176 0 0
0.13188475 0.21252781 0.080418542 -0.46318471 0.88626176 0 0
0.14912713 0.21224499 0.080057807 0.88626182 0.46318465 0 0
0.13509762 0.21420696 0.080087118 -0.46318471 0.88626176 0 0
0.13764906 0.21554039 0.080596283 -0.46318471 0.88626176 0 0
0.14724611 0.21584417 0.08022359 0.88626182 0.46318465 0 0
0.14049518 0.21702787 0.080331437 -0.46318471 0.88626176 0 0
0.14609683 0.21804318 0.080860391 0.88626182 0.46318465 0 0
0.10473211 0.08550363 0.081357427 0.46318454 -0.88626188 0 0
0.10747333 0.086936265 0.081010215 0.46318454 -0.88626188 0 0
0.11592862 0.091355234 0.081373654 0.46318454 -0.88626188 0 0
0.098423488 0.093365178 0.081044465 -0.88626182 -0.46318462 0 0
0.11968724 0.093319587 0.081384055 0.46318454 -0.88626188 0 0
0.12116684 0.094092868 0.081493765 0.46318454 -0.88626188 0 0
0.12343384 0.09527766 0.081520073 0.46318454 -0.88626188 0 0
0.096971758 0.096142933 0.081449494 -0.88626182 -0.46318462 0 0
0.096061885 0.09788388 0.081003666 -0.88626182 -0.46318462 0 0
0.12776875 0.09754321 0.081238754 0.46318454 -0.88626188 0 0
0.10836461 0.098685414 0.081469595 -0.46318462 0.88626182 0 0
0.1097423 0.099405438 0.081887424 -0.46318462 0.88626182 0 0
0.11059751 0.099852391 0.081283145 -0.46318462 0.88626182 0 0
0.13106549 0.099266171 0.081496857 0.46318454 -0.88626188 0 0
0.11209275 0.10063384 0.081616692 -0.46318462 0.88626182 0 0
0.13345335 0.10051414 0.081691265 0.46318454 -0.88626188 0 0
0.11341502 0.1013249 0.081654117 -0.46318462 0.88626182 0 0
0.13533978 0.10150003 0.081579916 0.46318454 -0.88626188 0 0
0.093440324 0.1029 0.08107315 -0.88626182 -0.46318462 0 0
0.10472412 0.10289915 0.081236884 0.88626182 0.46318462 0 0
0.13806966 0.10292673 0.081646144 0.46318454 -0.88626188 0 0
0.13914627 0.10348941 0.081918769 0.46318454 -0.88626188 0 0
0.12117296 0.1053794 0.081835955 -0.46318462 0.88626182 0 0
0.14285931 0.10542993 0.081067659 0.46318454 -0.88626188 0 0
0.091483623 0.10664397 0.081464201 -0.88626182 -0.46318462 0 0
0.14555684 0.10683975 0.08171127 0.46318454 -0.88626188 0 0
0.09106236 0.10745002 0.08185149 -0.88626182 -0.46318462 0 0
0.12537922 0.10757772 0.081920058 -0.46318462 0.88626182 0 0
0.12885234 0.10939286 0.081118368 -0.46318465 0.88626182 0 0
0.13097903 0.11050432 0.08163701 -0.46318465 0.88626182 0 0
0.10030222 0.11136006 0.081407785 0.88626182 0.46318462 0 0
0.13200089 0.11103838 0.081427857 -0.46318465 0.88626182 0 0
0.13424051 0.11220887 0.08125893 -0.46318465 0.88626182 0 0
0.13548985 0.11286181 0.081847541 -0.46318465 0.88626182 0 0
0.15725914 0.11295567 0.081551276 0.46318454 -0.88626188 0 0
0.099408701 0.11306973 0.081830882 0.88626182 0.46318462 0 0
0.13835877 0.11436118 0.081829607 -0.46318465 0.88626182 0 0
0.16164705 0.11524893 0.081574619 0.46318454 -0.88626188 0 0
0.16349517 0.1162148 0.081245363 0.46318454 -0.88626188 0 0
0.16439509 0.11668512 0.081745446 0.46318454 -0.88626188 0 0
0.096640043 0.11836731 0.081575617 0.88626182 0.46318462 0 0
0.14532526 0.11800206 0.08191435 -0.46318465 0.88626182 0 0
0.16746593 0.11829003 0.081806771 0.46318454 -0.88626188 0 0
0.096265294 0.11908436 0.081984095 0.88626182 0.46318462 0 0
0.15096852 0.12095138 0.081347726 -0.46318465 0.88626182 0 0
0.17171636 0.12051143 0.081691973 0.46318454 -0.88626188 0 0
0.08274363 0.12336717 0.081720665 -0.88626182 -0.46318462 0 0
0.15502682 0.12307237 0.081748471 -0.46318465 0.88626182 0 0
0.081694454 0.12537467 0.081923239 -0.88626182 -0.46318462 0 0
0.16049165 0.12592843 0.081764176 -0.46318465 0.88626182 0 0
0.18298264 0.12639949 0.081422307 0.46318454 -0.88626188 0 0
0.18381038 0.12683208 0.081728578 0.46318454 -0.88626188 0 0
0.091516882 0.12817 0.081621394 0.88626182 0.46318462 0 0
0.16553082 0.12856205 0.081382766 -0.46318465 0.88626182 0 0
0.16600472 0.12880971 0.081744 -0.46318465 0.88626182 0 0
0.18744075 0.1287294 0.081076995 0.46318454 -0.88626188 0 0
0.090575308 0.12997162 0.0817817 0.88626182 0.46318462 0 0
0.16853797 0.13013366 0.08148995 -0.46318465 0.88626182 0 0
0.19054392 0.13035122 0.081924722 0.46318454 -0.88626188 0 0
0.17075145 0.13129048 0.081580475 -0.46318465 0.88626182 0 0
0.17226127 0.13207956 0.081340894 -0.46318465 0.88626182 0 0
0.17357145 0.13276429 0.081212834 -0.46318465 0.88626182 0 0
0.17590067 0.13398162 0.08158832 -0.46318465 0.88626182 0 0
0.1765732 0.13433309 0.081396878 -0.46318465 0.88626182 0 0
0.087857157 0.13517258 0.08134044 0.88626182 0.46318462 0 0
0.17775308 0.1358822 0.081101112 -0.88626176 -0.46318468 0 0
0.075704798 0.13683534 0.081919581 -0.88626182 -0.46318462 0 0
0.17765178 0.13607602 0.081217952 -0.88626176 -0.46318468 0 0
0.086683244 0.13741875 0.081888936 0.88626182 0.46318462 0 0
0.085851267 0.13901064 0.081469432 0.88626182 0.46318462 0 0
0.18698342 0.13981041 0.081715964 0.88626182 0.46318465 0 0
0.18702964 0.13972196 0.081461512 0.88626182 0.46318465 0 0
0.18679324 0.14017428 0.081429459 0.88626182 0.46318465 0 0
0.084741235 0.14113459 0.081081077 0.88626182 0.46318462 0 0
0.17507759 0.14100151 0.081257284 -0.88626176 -0.46318468 0 0
0.072711796 0.14256215 0.081249855 -0.88626182 -0.46318462 0 0
0.083777264 0.14297904 0.081355408 0.88626182 0.46318462 0 0
0.17400116 0.14306115 0.081006095 -0.88626176 -0.46318468 0 0
0.18479836 0.14399129 0.08113651 0.88626182 0.46318465 0 0
0.082892343 0.14467226 0.081064373 0.88626182 0.46318462 0 0
0.082045913 0.14629184 0.081036486 0.88626182 0.46318462 0 0
0.18219045 0.14898135 0.081312597 0.88626182 0.46318465 0 0
0.16990949 0.1508902 0.081582449 -0.88626176 -0.46318468 0 0
0.067507841 0.15251948 0.081216596 -0.88626182 -0.46318462 0 0
0.16922319 0.15220335 0.081149943 -0.88626176 -0.46318468 0 0
0.18058445 0.15205427 0.08148668 0.88626182 0.46318465 0 0
0.067082584 0.15333316 0.081568599 -0.88626182 -0.46318462 0 0
0.077831328 0.15435608 0.081633106 0.88626182 0.46318462 0 0
0.076770611 0.15638566 0.081471786 0.88626182 0.46318462 0 0
0.17816754 0.15667881 0.081530668 0.88626182 0.46318465 0 0
0.076336302 0.15721667 0.081883214 0.88626182 0.46318462 0 0
0.16658641 0.15724859 0.08157289 -0.88626176 -0.46318468 0 0
0.17639922 0.16006234 0.081812769 0.88626182 0.46318465 0 0
0.16450906 0.16122341 0.081995554 -0.88626176 -0.46318468 0 0
0.16398092 0.16223396 0.081016749 -0.88626176 -0.46318468 0 0
0.061752319 0.16353214 0.081885383 -0.88626182 -0.46318462 0 0
0.073183194 0.16324985 0.081173986 0.88626182 0.46318462 0 0
0.17447492 0.16374427 0.081477255 0.88626182 0.46318465 0 0
0.061100978 0.16477841 0.081548117 -0.88626182 -0.46318462 0 0
0.070863888 0.16768764 0.081342824 0.88626182 0.46318462 0 0
0.16125274 0.16745408 0.081872992 -0.88626176 -0.46318468 0 0
0.17258023 0.1673696 0.081922963 0.88626182 0.46318465 0 0
0.059065185 0.16867372 0.081128031 -0.88626182 -0.46318462 0 0
0.17167401 0.16910355 0.081011623 0.88626182 0.46318465 0 0
0.0727119 0.17031911 0.081747949 0.46318471 -0.88626176 0 0
0.057660531 0.1713614 0.081604518 -0.88626182 -0.46318462 0 0
0.17064574 0.17107108 0.081232876 0.88626182 0.46318465 0 0
0.057026785 0.17257403 0.081401825 -0.88626182 -0.46318462 0 0
