# .PCD v0.7 - Point Cloud Data file format
VERSION 0.7
FIELDS x y z normal_x normal_y normal_z curvature
SIZE 4 4 4 4 4 4 4
TYPE F F F F F F F
COUNT 1 1 1 1 1 1 1
WIDTH 802
HEIGHT 1
VIEWPOINT 0 0 0 1 0 0 0
POINTS 802
DATA ascii
0.14402948 0.2321524 0.11675176 -0.46827221 -0.88358432 0 0
0.16532822 0.23218226 0.11688612 0.46827227 0.8835842 0 0
0.084411487 0.23372191 0.11682627 0.88358426 -0.46827227 0 0
0.14103395 0.23373994 0.11693165 -0.46827221 -0.88358432 0 0
0.16348077 0.23316136 0.11650322 0.46827227 0.8835842 0 0
0.16068202 0.23464461 0.1167337 0.46827227 0.8835842 0 0
0.13780653 0.23545036 0.11611821 -0.46827221 -0.88358432 0 0
0.13838769 0.23514237 0.11657188 -0.46827221 -0.88358432 0 0
0.086198851 0.23709446 0.11601844 0.88358426 -0.46827227 0 0
0.13333529 0.23782 0.11660079 -0.46827221 -0.88358432 0 0
0.1556921 0.2372891 0.11654815 0.46827227 0.8835842 0 0
0.087095872 0.23878707 0.11611889 0.88358426 -0.46827227 0 0
0.13297398 0.23801145 0.11687867 -0.46827221 -0.88358432 0 0
0.12986921 0.2396569 0.1168347 -0.46827221 -0.88358432 0 0
0.15155637 0.23948091 0.11699472 0.46827227 0.8835842 0 0
0.15236962 0.23904991 0.11605095 0.46827227 0.8835842 0 0
0.088665955 0.24174967 0.11664616 0.88358426 -0.46827227 0 0
0.14777812 0.24148327 0.11658023 0.46827227 0.8835842 0 0
0.148339 0.24118604 0.11685277 0.46827227 0.8835842 0 0
0.077615455 0.24225354 0.11685465 -0.88358432 0.46827212 0 0
0.12411916 0.24270424 0.11604469 -0.46827218 -0.88358432 0 0
0.12541053 0.24201986 0.1161779 -0.46827218 -0.88358432 0 0
0.07885401 0.24459058 0.11679426 -0.88358432 0.46827212 0 0
0.089905374 0.24408832 0.11618833 0.88358426 -0.46827227 0 0
0.14153676 0.244791 0.11610566 0.46827227 0.8835842 0 0
0.11867575 0.24558909 0.11617926 -0.46827218 -0.88358432 0 0
0.11625323 0.24687295 0.11671367 -0.46827218 -0.88358432 0 0
0.13825475 0.24653037 0.11613007 0.46827227 0.8835842 0 0
0.080533497 0.24775961 0.11699909 -0.88358432 0.46827212 0 0
0.091570914 0.24723102 0.11699772 0.88358426 -0.46827227 0 0
0.13360839 0.2489928 0.11683069 0.46827227 0.8835842 0 0
0.13262294 0.24951506 0.11619385 0.46827227 0.8835842 0 0
0.13039127 0.25069776 0.11647391 0.4682723 0.8835842 0 0
0.10661374 0.25198159 0.11630789 -0.46827218 -0.88358432 0 0
0.10805615 0.25121713 0.11658711 -0.46827218 -0.88358432 0 0
0.12887013 0.25150394 0.116423 0.46827227 0.8835842 0 0
0.094415054 0.25259766 0.11611074 0.88358426 -0.46827227 0 0
0.10328111 0.25374776 0.11636022 -0.46827218 -0.88358432 0 0
0.12404796 0.25405952 0.11686537 0.46827227 0.88358426 0 0
0.0995626 0.25571847 0.11663267 -0.46827218 -0.88358432 0 0
0.096808001 0.25711292 0.11676625 0.88358426 -0.46827227 0 0
0.11627921 0.25817671 0.11695232 0.46827227 0.88358426 0 0
0.11332563 0.25974202 0.11684041 0.46827227 0.88358426 0 0
0.10826027 0.2624265 0.11666329 0.46827227 0.88358426 0 0
0.089067772 0.26386294 0.11643703 -0.88358432 0.46827212 0 0
0.10565358 0.26380798 0.11658716 0.46827227 0.88358426 0 0
0.10386422 0.26475629 0.11685535 0.46827227 0.88358426 0 0
0.089709491 0.26507384 0.11680491 -0.88358432 0.46827212 0 0
0.090539217 0.26663941 0.11603797 -0.88358432 0.46827212 0 0
0.10149108 0.26601398 0.11612495 0.46827227 0.88358426 0 0
0.098447651 0.26762691 0.11629421 0.46827227 0.88358426 0 0
0.092613533 0.27055347 0.11678259 -0.88358432 0.46827212 0 0
0.15335862 0.18193808 0.11733063 -0.4682723 -0.8835842 0 0
0.16022022 0.18456975 0.11706578 0.88358426 -0.46827221 0 0
0.1615036 0.1869913 0.11722536 0.88358426 -0.46827221 0 0
0.13774616 0.19021222 0.11757705 -0.4682723 -0.8835842 0 0
0.13813329 0.19000703 0.11700702 -0.4682723 -0.8835842 0 0
0.16420162 0.19208224 0.11772787 0.88358426 -0.46827221 0 0
0.15256594 0.19367571 0.11706065 0.46827221 0.88358426 0 0
0.16471198 0.19304524 0.11707389 0.88358426 -0.46827221 0 0
0.15179229 0.19408573 0.11741619 0.46827221 0.88358426 0 0
0.16546109 0.19445874 0.11798041 0.88358426 -0.46827221 0 0
0.12697975 0.19591805 0.11759944 -0.4682723 -0.8835842 0 0
0.12719479 0.19580409 0.11781223 -0.4682723 -0.8835842 0 0
0.12829122 0.19522302 0.11743975 -0.4682723 -0.8835842 0 0
0.14643174 0.19692665 0.11756523 0.46827221 0.88358426 0 0
0.12323438 0.19790299 0.11788877 -0.4682723 -0.8835842 0 0
0.1204503 0.19937845 0.11753871 -0.4682723 -0.8835842 0 0
0.15686589 0.19959554 0.1174188 -0.88358414 0.46827242 0 0
0.16810191 0.19944175 0.1171845 0.88358426 -0.46827221 0 0
0.11905146 0.20011979 0.11735474 -0.4682723 -0.8835842 0 0
0.13927618 0.20071888 0.11711024 0.46827221 0.88358426 0 0
0.13784653 0.20147654 0.11714362 0.46827221 0.88358426 0 0
0.13441297 0.20329623 0.11794599 0.46827221 0.88358426 0 0
0.15938312 0.20434529 0.11769662 -0.88358414 0.46827242 0 0
0.10650588 0.20676857 0.11770713 -0.4682723 -0.88358426 0 0
0.10746808 0.20625864 0.11768869 -0.4682723 -0.88358426 0 0
0.12788376 0.20675652 0.11762688 0.46827221 0.88358426 0 0
0.12810089 0.20664144 0.11702176 0.46827221 0.88358426 0 0
0.16063723 0.20671168 0.11796261 -0.88358414 0.46827242 0 0
0.16095099 0.20730373 0.11762274 -0.88358414 0.46827242 0 0
0.12387249 0.20888236 0.11750361 0.46827221 0.88358426 0 0
0.10191318 0.20920256 0.11739233 -0.4682723 -0.88358426 0 0
0.16258647 0.2103897 0.11722356 -0.88358414 0.46827242 0 0
0.17408188 0.21072531 0.11733982 0.88358426 -0.46827221 0 0
0.09697146 0.21182153 0.11737664 -0.4682723 -0.88358426 0 0
0.17429656 0.21113041 0.11788276 0.88358426 -0.46827221 0 0
0.11484531 0.21366648 0.11768971 0.46827221 0.88358426 0 0
0.11518207 0.213488 0.1170958 0.46827221 0.88358426 0 0
0.16482887 0.21462089 0.11779583 -0.88358414 0.46827242 0 0
0.0908034 0.21509039 0.11743779 -0.4682723 -0.88358426 0 0
0.16543841 0.21577105 0.11765604 -0.88358414 0.46827242 0 0
0.17680457 0.21586281 0.11728948 0.88358426 -0.46827221 0 0
0.087958068 0.21659833 0.11795577 -0.4682723 -0.88358426 0 0
0.11014643 0.21615674 0.1173701 0.46827221 0.88358426 0 0
0.10773805 0.21743311 0.11762924 0.46827221 0.88358426 0 0
0.10822279 0.21717621 0.11710881 0.46827221 0.88358426 0 0
0.084251717 0.2185626 0.11706865 -0.4682723 -0.88358426 0 0
0.10462631 0.21908224 0.11716902 0.46827221 0.88358426 0 0
0.17873138 0.21949847 0.11724891 0.88358426 -0.46827221 0 0
0.16357937 0.22179157 0.11785351 -0.46827221 -0.88358432 0 0
0.097774386 0.22271353 0.11715965 0.46827221 0.88358426 0 0
0.16296396 0.22211772 0.1177218 -0.46827221 -0.88358432 0 0
0.16114795 0.22308016 0.11734539 -0.46827221 -0.88358432 0 0
0.073112458 0.22446607 0.11704357 -0.4682723 -0.88358426 0 0
0.093963996 0.22473294 0.11751547 0.46827221 0.88358426 0 0
0.15774181 0.22488528 0.11746828 -0.46827221 -0.88358432 0 0
0.15913025 0.22414947 0.11701616 -0.46827221 -0.88358432 0 0
0.1791746 0.22484411 0.11770768 0.46827227 0.8835842 0 0
0.070578367 0.22580905 0.11710492 -0.4682723 -0.88358426 0 0
0.071425155 0.22536026 0.11786754 -0.4682723 -0.88358426 0 0
0.15605424 0.22577965 0.11736386 -0.46827221 -0.88358432 0 0
0.17782517 0.22555926 0.11777323 0.46827227 0.8835842 0 0
0.17821825 0.22535095 0.11729392 0.46827227 0.8835842 0 0
0.090494588 0.2265716 0.11719128 0.46827221 0.88358426 0 0
0.15489127 0.22639599 0.11768541 -0.46827221 -0.88358432 0 0
0.069633335 0.22719204 0.11719375 -0.88358432 0.46827212 0 0
0.086557552 0.22865811 0.11738753 0.46827221 0.88358426 0 0
0.1515108 0.22818755 0.11721939 -0.46827221 -0.88358432 0 0
0.08424674 0.22988276 0.11724243 0.46827221 0.88358426 0 0
0.17073607 0.22931626 0.11752319 0.46827227 0.8835842 0 0
0.16797563 0.23077922 0.11737068 0.46827227 0.8835842 0 0
0.14487354 0.23170507 0.11788361 -0.46827221 -0.88358432 0 0
0.14277042 0.23281965 0.11766887 -0.46827221 -0.88358432 0 0
0.14375702 0.23229679 0.11710578 -0.46827221 -0.88358432 0 0
0.14416306 0.23208162 0.11725729 -0.46827221 -0.88358432 0 0
0.073505238 0.23449796 0.11727522 -0.88358432 0.46827212 0 0
0.084761888 0.23438308 0.11792284 0.88358426 -0.46827227 0 0
0.085286424 0.23537283 0.11748932 0.88358426 -0.46827227 0 0
0.13811792 0.23528534 0.11786325 -0.46827221 -0.88358432 0 0
0.15850538 0.23579815 0.11704881 0.46827227 0.8835842 0 0
0.15956789 0.23523507 0.11740808 0.46827227 0.8835842 0 0
0.085819736 0.23637912 0.11731696 0.88358426 -0.46827227 0 0
0.13263252 0.23819242 0.1177042 -0.46827221 -0.88358432 0 0
0.15251175 0.2389746 0.11749487 0.46827227 0.8835842 0 0
0.15374082 0.23832323 0.11797664 0.46827227 0.8835842 0 0
0.076193176 0.23956984 0.11768282 -0.88358432 0.46827212 0 0
0.15063223 0.23997068 0.11752366 0.46827227 0.8835842 0 0
0.087804511 0.2401242 0.11762242 0.88358426 -0.46827227 0 0
0.14720351 0.24178781 0.11767129 0.4682723 0.8835842 0 0
0.089156963 0.24267614 0.11740258 0.88358426 -0.46827227 0 0
0.12437154 0.2425705 0.11749279 -0.46827218 -0.88358432 0 0
0.141637 0.24473788 0.11700423 0.46827227 0.8835842 0 0
0.14025071 0.24547258 0.11781945 0.46827227 0.8835842 0 0
0.091254875 0.24663469 0.11769937 0.88358426 -0.46827227 0 0
0.11747625 0.24622479 0.11794893 -0.46827218 -0.88358432 0 0
0.13799016 0.24667059 0.11731422 0.46827227 0.8835842 0 0
0.13587385 0.24779218 0.11784582 0.46827227 0.8835842 0 0
0.092179731 0.24837981 0.11784436 0.88358426 -0.46827227 0 0
0.11320454 0.24848865 0.11717743 -0.46827218 -0.88358432 0 0
0.081304245 0.24921395 0.11758489 -0.88358432 0.46827212 0 0
0.092600971 0.24917465 0.11787387 0.88358426 -0.46827227 0 0
0.093321353 0.25053394 0.1172896 0.88358426 -0.46827227 0 0
0.13038136 0.25070301 0.11716733 0.46827227 0.8835842 0 0
0.12973179 0.25104728 0.11723157 0.46827227 0.8835842 0 0
0.12469655 0.25371581 0.11771398 0.46827227 0.88358426 0 0
0.10096215 0.25497675 0.11791476 -0.46827218 -0.88358432 0 0
0.10263729 0.25408897 0.11749457 -0.46827218 -0.88358432 0 0
0.099049382 0.25599048 0.11762197 -0.46827218 -0.88358432 0 0
0.098992795 0.25602043 0.11735349 -0.46827218 -0.88358432 0 0
0.11902594 0.25672105 0.1177194 0.46827227 0.88358426 0 0
0.11483406 0.2589426 0.11755669 0.46827227 0.88358426 0 0
0.086591028 0.25918958 0.11769318 -0.88358432 0.46827212 0 0
0.0876562 0.26119947 0.11737464 -0.88358432 0.46827212 0 0
0.11052186 0.26122794 0.117733 0.46827227 0.88358426 0 0
0.10821474 0.26245064 0.11735436 0.46827227 0.88358426 0 0
0.10499723 0.26415581 0.11782433 0.46827227 0.88358426 0 0
0.10286032 0.26528832 0.11710964 0.46827227 0.88358426 0 0
0.10041203 0.26658583 0.11760907 0.46827227 0.88358426 0 0
0.099580199 0.26702666 0.11723284 0.46827227 0.88358426 0 0
0.097613171 0.26806915 0.11757715 0.46827227 0.88358426 0 0
0.15641819 0.18031661 0.11845126 -0.4682723 -0.8835842 0 0
0.15901226 0.18229039 0.11893272 0.88358426 -0.46827221 0 0
0.14987102 0.18378639 0.11812013 -0.4682723 -0.8835842 0 0
0.14684525 0.18538995 0.11805275 -0.4682723 -0.8835842 0 0
0.14040044 0.18880549 0.11800177 -0.4682723 -0.8835842 0 0
0.16315037 0.19009866 0.1183751 0.88358426 -0.46827221 0 0
0.16379553 0.19131598 0.11863907 0.88358426 -0.46827221 0 0
0.13365147 0.19238225 0.1188581 -0.4682723 -0.8835842 0 0
0.15223256 0.19385239 0.11821574 0.46827221 0.88358426 0 0
0.12694049 0.19593887 0.11848091 -0.4682723 -0.8835842 0 0
0.14935154 0.19537924 0.11892381 0.46827221 0.88358426 0 0
0.15466529 0.19544321 0.11895624 -0.88358414 0.46827242 0 0
0.16586187 0.19521499 0.11884262 0.88358426 -0.46827221 0 0
0.14692739 0.19666398 0.11884329 0.46827221 0.88358426 0 0
0.16672388 0.19684151 0.11877295 0.88358426 -0.46827221 0 0
0.15579857 0.1975816 0.11890521 -0.88358414 0.46827242 0 0
0.12147003 0.19883803 0.11824751 -0.4682723 -0.8835842 0 0
0.11803854 0.20065662 0.11848011 -0.4682723 -0.8835842 0 0
0.1572405 0.20030238 0.11846382 -0.88358414 0.46827242 0 0
0.13687809 0.2019898 0.11823621 0.46827221 0.88358426 0 0
0.15922654 0.20404983 0.11800814 -0.88358414 0.46827242 0 0
0.10920598 0.20533761 0.11887925 -0.4682723 -0.88358426 0 0
0.12888256 0.20622718 0.11833478 0.46827221 0.88358426 0 0
0.16029607 0.20606795 0.11833215 -0.88358414 0.46827242 0 0
0.17172974 0.20628709 0.11851626 0.88358426 -0.46827221 0 0
0.1256851 0.20792174 0.11818239 0.46827221 0.88358426 0 0
0.12658627 0.20744413 0.11899915 0.46827221 0.88358426 0 0
0.16085511 0.20712279 0.11823544 -0.88358414 0.46827242 0 0
0.17244445 0.20763564 0.11826444 0.88358426 -0.46827221 0 0
0.10318859 0.20852664 0.11805591 -0.4682723 -0.88358426 0 0
0.124961 0.20830548 0.11866173 0.46827221 0.88358426 0 0
0.16178402 0.20887557 0.11850195 -0.88358414 0.46827242 0 0
0.17287427 0.20844671 0.11884347 0.88358426 -0.46827221 0 0
0.10027539 0.21007055 0.11808123 -0.4682723 -0.88358426 0 0
0.098428249 0.21104947 0.11867004 -0.4682723 -0.88358426 0 0
0.11814097 0.21191989 0.11844355 0.46827221 0.88358426 0 0
0.11640065 0.21284221 0.11876721 0.46827221 0.88358426 0 0
0.16349863 0.21211088 0.11850409 -0.88358414 0.46827242 0 0
0.093077995 0.21388495 0.1184483 -0.4682723 -0.88358426 0 0
0.17555413 0.21350336 0.11834626 0.88358426 -0.46827221 0 0
0.091123879 0.21492055 0.11801787 -0.4682723 -0.88358426 0 0
0.11297308 0.21465872 0.11870947 0.46827221 0.88358426 0 0
0.11320504 0.21453577 0.11873547 0.46827221 0.88358426 0 0
0.16556171 0.21600366 0.11828448 -0.88358414 0.46827242 0 0
0.16635066 0.21749239 0.11881953 -0.88358414 0.46827242 0 0
0.084070697 0.21865854 0.11824222 -0.4682723 -0.88358426 0 0
0.1782681 0.21862432 0.11870678 0.88358426 -0.46827221 0 0
0.16651638 0.22023505 0.11881117 -0.46827221 -0.88358432 0 0
0.16373633 0.22170839 0.11808367 -0.46827221 -0.88358432 0 0
0.16421503 0.22145468 0.11890358 -0.46827221 -0.88358432 0 0
0.17978099 0.221479 0.11843949 0.88358426 -0.46827221 0 0
0.16314492 0.22202182 0.1188686 -0.46827221 -0.88358432 0 0
0.074048087 0.22397022 0.11854917 -0.4682723 -0.88358426 0 0
0.096758664 0.22325183 0.11868238 0.46827221 0.88358426 0 0
0.1596489 0.2238746 0.11823517 -0.46827221 -0.88358432 0 0
0.072691277 0.22468928 0.11855054 -0.4682723 -0.88358426 0 0
0.093890235 0.22477202 0.11886085 0.46827221 0.88358426 0 0
0.15749525 0.22501597 0.11832657 -0.46827221 -0.88358432 0 0
0.069351584 0.22660846 0.118375 -0.95590681 -0.29367 0 0
0.15531468 0.22617158 0.1183144 -0.46827221 -0.88358432 0 0
0.089379318 0.22716266 0.1187995 0.46827221 0.88358426 0 0
0.15263624 0.22759107 0.11824244 -0.46827221 -0.88358432 0 0
0.15320739 0.2272884 0.11835455 -0.46827221 -0.88358432 0 0
0.15076335 0.22858366 0.11896817 -0.46827221 -0.88358432 0 0
0.085219808 0.22936708 0.11883432 0.46827221 0.88358426 0 0
0.14949983 0.22925328 0.11814271 -0.46827221 -0.88358432 0 0
0.14653361 0.23082529 0.11866705 -0.46827221 -0.88358432 0 0
0.14277717 0.2328161 0.11899911 -0.46827221 -0.88358432 0 0
0.14059138 0.23397447 0.11820944 -0.46827221 -0.88358432 0 0
0.13882904 0.23490846 0.11807272 -0.46827221 -0.88358432 0 0
0.16086411 0.23454809 0.11891273 0.46827227 0.8835842 0 0
0.13762206 0.23554812 0.11843224 -0.46827221 -0.88358432 0 0
0.15819085 0.23596486 0.11882252 0.46827227 0.8835842 0 0
0.13619225 0.23630589 0.11876028 -0.46827221 -0.88358432 0 0
0.086863056 0.23834777 0.11888237 0.88358426 -0.46827227 0 0
0.087449551 0.23945442 0.11846548 0.88358426 -0.46827227 0 0
0.12932432 0.23994568 0.11840151 -0.46827221 -0.88358432 0 0
0.15213017 0.23917682 0.11823605 0.46827227 0.8835842 0 0
0.12760934 0.24085456 0.11816946 -0.46827221 -0.88358432 0 0
0.14921045 0.24072418 0.1187983 0.46827227 0.8835842 0 0
0.076961428 0.24101947 0.11854573 -0.88358432 0.46827212 0 0
0.12512861 0.24216926 0.11884047 -0.46827221 -0.88358432 0 0
0.12295317 0.24332218 0.11878099 -0.46827218 -0.88358432 0 0
0.14415056 0.24340577 0.11868583 0.46827227 0.8835842 0 0
0.11826357 0.24580753 0.11864887 -0.46827218 -0.88358432 0 0
0.11925039 0.24528456 0.1187925 -0.46827218 -0.88358432 0 0
0.07973282 0.24624881 0.11840531 -0.88358432 0.46827212 0 0
0.09149313 0.24708426 0.11833626 0.88358426 -0.46827227 0 0
0.080869764 0.2483941 0.11877396 -0.88358432 0.46827212 0 0
0.092815727 0.24957988 0.11841483 0.88358426 -0.46827227 0 0
0.11133495 0.24947949 0.11804873 -0.46827218 -0.88358432 0 0
0.12998286 0.25091422 0.11884734 0.46827227 0.8835842 0 0
0.13070732 0.25053027 0.11820025 0.46827227 0.8835842 0 0
0.08244729 0.25137076 0.11866439 -0.88358426 0.46827209 0 0
0.1084361 0.25101578 0.11845858 -0.46827218 -0.88358432 0 0
0.10493541 0.25287104 0.11897407 -0.46827218 -0.88358432 0 0
0.10639575 0.2520971 0.1182484 -0.46827218 -0.88358432 0 0
0.12447865 0.25383127 0.11858778 0.46827227 0.88358426 0 0
0.08405304 0.25440064 0.11834707 -0.88358432 0.46827212 0 0
0.096033417 0.25565135 0.11805487 0.88358426 -0.46827227 0 0
0.099980652 0.25549692 0.1189402 -0.46827218 -0.88358432 0 0
0.12226532 0.25500426 0.11851308 0.46827227 0.88358426 0 0
0.12035049 0.25601906 0.11804879 0.46827227 0.88358426 0 0
0.086356089 0.25874627 0.11848602 -0.88358432 0.46827212 0 0
0.11627133 0.25818092 0.11863013 0.46827227 0.88358426 0 0
0.086613931 0.25923279 0.11844822 -0.88358432 0.46827212 0 0
0.11378404 0.25949907 0.11865374 0.46827227 0.88358426 0 0
0.11415914 0.25930029 0.11824252 0.46827227 0.88358426 0 0
0.087200075 0.26033878 0.11876585 -0.88358432 0.46827212 0 0
0.11028953 0.26135105 0.11863684 0.46827227 0.88358426 0 0
0.10831608 0.26239693 0.11845761 0.46827227 0.88358426 0 0
0.10902086 0.26202342 0.11842719 0.46827227 0.88358426 0 0
0.088846564 0.26344556 0.1180205 -0.88358432 0.46827212 0 0
0.089302987 0.26430678 0.11840643 -0.88358432 0.46827212 0 0
0.090673029 0.26689196 0.11833928 -0.88358432 0.46827212 0 0
0.090789773 0.2671122 0.11802746 -0.88358432 0.46827212 0 0
0.097780809 0.26798031 0.11818344 0.46827227 0.88358426 0 0
0.096097142 0.26887259 0.11826295 0.46827227 0.88358426 0 0
0.094652936 0.269638 0.11884405 0.46827227 0.88358426 0 0
0.093359202 0.27032363 0.11847495 0.46827227 0.88358426 0 0
0.15326327 0.18198861 0.11931735 -0.4682723 -0.8835842 0 0
0.15417871 0.18150346 0.11924505 -0.4682723 -0.8835842 0 0
0.15936591 0.18295771 0.11914367 0.88358426 -0.46827221 0 0
0.14977315 0.18383825 0.11911301 -0.4682723 -0.8835842 0 0
0.14726473 0.18516764 0.11937797 -0.4682723 -0.8835842 0 0
0.14455035 0.18660617 0.11974981 -0.4682723 -0.8835842 0 0
0.13721514 0.19049363 0.11900757 -0.4682723 -0.8835842 0 0
0.13415799 0.19211379 0.11947561 -0.4682723 -0.8835842 0 0
0.12996043 0.19433838 0.1197333 -0.4682723 -0.8835842 0 0
0.1511189 0.1944426 0.11951396 0.46827221 0.88358426 0 0
0.14975256 0.19516672 0.11982729 0.46827221 0.88358426 0 0
0.16595913 0.19539851 0.1197551 0.88358426 -0.46827221 0 0
0.14805183 0.19606806 0.11943061 0.46827221 0.88358426 0 0
0.16640894 0.19624726 0.11994761 0.88358426 -0.46827221 0 0
0.12344236 0.19779277 0.11934194 -0.4682723 -0.8835842 0 0
0.14574222 0.19729209 0.11969631 0.46827221 0.88358426 0 0
0.16714013 0.19762692 0.11953528 0.88358426 -0.46827221 0 0
0.14275318 0.19887617 0.11931238 0.46827221 0.88358426 0 0
0.14428005 0.19806698 0.1195109 0.46827221 0.88358426 0 0
0.16788587 0.19903408 0.11976499 0.88358426 -0.46827221 0 0
0.14003098 0.20031886 0.11938685 0.46827221 0.88358426 0 0
0.13715065 0.20184533 0.11928856 0.46827221 0.88358426 0 0
0.11315225 0.20324621 0.11935972 -0.4682723 -0.8835842 0 0
0.10714675 0.20642893 0.11992688 -0.4682723 -0.88358426 0 0
0.17200813 0.20681235 0.11978757 0.88358426 -0.46827221 0 0
0.12628517 0.20760371 0.11956578 0.46827221 0.88358426 0 0
0.10352936 0.20834604 0.11939502 -0.4682723 -0.88358426 0 0
0.12385033 0.2088941 0.11971629 0.46827221 0.88358426 0 0
0.12196837 0.20989148 0.11946224 0.46827221 0.88358426 0 0
0.17330502 0.20925948 0.11905429 0.88358426 -0.46827221 0 0
0.10036486 0.21002312 0.11950538 -0.4682723 -0.88358426 0 0
0.17416821 0.21088824 0.11933509 0.88358426 -0.46827221 0 0
0.096789464 0.21191798 0.11999051 -0.4682723 -0.88358426 0 0
0.095739745 0.21247429 0.11917806 -0.4682723 -0.88358426 0 0
0.11342273 0.21442041 0.11999153 0.46827221 0.88358426 0 0
0.16490164 0.21475823 0.11918337 -0.88358414 0.46827242 0 0
0.17593485 0.21422172 0.11957411 0.88358426 -0.46827221 0 0
0.089237452 0.21592031 0.11959684 -0.4682723 -0.88358426 0 0
0.16549511 0.21587804 0.11931465 -0.88358414 0.46827242 0 0
0.1775049 0.21718425 0.11910869 0.88358426 -0.46827221 0 0
0.084667221 0.21834239 0.11943492 -0.4682723 -0.88358426 0 0
0.16686448 0.21846192 0.11903524 -0.88358414 0.46827242 0 0
0.10338626 0.21973944 0.11983845 0.46827221 0.88358426 0 0
0.10410588 0.21935804 0.11980069 0.46827221 0.88358426 0 0
0.16728763 0.21946347 0.11943516 -0.9997195 0.023684692 0 0
0.07988067 0.22087911 0.11941271 -0.4682723 -0.88358426 0 0
0.10171019 0.2206277 0.11921798 0.46827221 0.88358426 0 0
0.10083625 0.22109085 0.11979377 0.46827221 0.88358426 0 0
0.076672874 0.22257917 0.1192009 -0.4682723 -0.88358426 0 0
0.16148265 0.22290276 0.11996168 -0.46827221 -0.88358432 0 0
0.18016349 0.22220075 0.11939914 0.88358426 -0.46827221 0 0
0.074946903 0.22349387 0.11954691 -0.4682723 -0.88358426 0 0
0.072189279 0.22495532 0.11999704 -0.4682723 -0.88358426 0 0
0.073989026 0.2240015 0.11932494 -0.4682723 -0.88358426 0 0
0.094898358 0.22423775 0.11982556 0.46827221 0.88358426 0 0
0.17955768 0.2246411 0.1190635 0.46827227 0.8835842 0 0
0.070236601 0.22599016 0.1197096 -0.4682723 -0.88358426 0 0
0.072017677 0.22504626 0.1192263 -0.4682723 -0.88358426 0 0
0.091868363 0.22584356 0.11988628 0.46827221 0.88358426 0 0
0.092381962 0.22557136 0.11948174 0.46827221 0.88358426 0 0
0.093136907 0.22517127 0.11983923 0.46827221 0.88358426 0 0
0.069682814 0.22628367 0.11978581 -0.4682723 -0.88358426 0 0
0.090213194 0.22672074 0.11976656 0.46827221 0.88358426 0 0
0.15398118 0.22687832 0.11994663 -0.46827221 -0.88358432 0 0
0.1546196 0.22653997 0.1196737 -0.46827221 -0.88358432 0 0
0.06978073 0.22747017 0.11961484 -0.88358432 0.46827212 0 0
0.088055119 0.22786444 0.11984713 0.46827221 0.88358426 0 0
0.17386001 0.22766069 0.11952 0.46827227 0.8835842 0 0
0.070561573 0.22894354 0.11900423 -0.88358432 0.46827212 0 0
0.071040057 0.22984639 0.11939499 -0.88358432 0.46827212 0 0
0.14636695 0.23091359 0.1194679 -0.46827221 -0.88358432 0 0
0.0724914 0.23258495 0.11989234 -0.88358432 0.46827212 0 0
0.16509895 0.23230377 0.11988741 0.46827227 0.8835842 0 0
0.16279176 0.23352651 0.11971235 0.46827227 0.8835842 0 0
0.16027999 0.23485766 0.11932912 0.46827227 0.8835842 0 0
0.13807765 0.2353067 0.11927398 -0.46827221 -0.88358432 0 0
0.15997179 0.235021 0.11954908 0.46827227 0.8835842 0 0
0.086056359 0.23682562 0.11906669 0.88358426 -0.46827227 0 0
0.15745333 0.23635571 0.11951582 0.46827227 0.8835842 0 0
0.086153127 0.23700821 0.1194741 0.88358426 -0.46827227 0 0
0.13469501 0.23709938 0.11936127 -0.46827221 -0.88358432 0 0
0.1320609 0.23849536 0.11943211 -0.46827221 -0.88358432 0 0
0.15360263 0.23839647 0.11925559 0.46827227 0.8835842 0 0
0.087397948 0.23935705 0.11928348 0.88358426 -0.46827227 0 0
0.128924 0.24015784 0.11983237 -0.46827221 -0.88358432 0 0
0.1291149 0.24005666 0.11957092 -0.46827221 -0.88358432 0 0
0.12678963 0.24128897 0.11912223 -0.46827221 -0.88358432 0 0
0.14820902 0.2412549 0.11964868 0.46827227 0.8835842 0 0
0.088845178 0.24208787 0.11910906 0.88358426 -0.46827227 0 0
0.12540627 0.24202211 0.11996678 -0.46827221 -0.88358432 0 0
0.089491725 0.2433078 0.11936614 0.88358426 -0.46827227 0 0
0.14446145 0.243241 0.11954963 0.46827227 0.8835842 0 0
0.14217453 0.24445301 0.11968804 0.46827227 0.8835842 0 0
0.079185978 0.24521697 0.11960302 -0.88358432 0.46827212 0 0
0.11856171 0.24564952 0.11992135 -0.46827218 -0.88358432 0 0
0.11943384 0.24518734 0.11939615 -0.46827218 -0.88358432 0 0
0.14039785 0.24539459 0.11948945 0.46827227 0.8835842 0 0
0.13554072 0.24796872 0.1191754 0.46827227 0.8835842 0 0
0.13724381 0.24706614 0.11931051 0.46827227 0.8835842 0 0
0.11378545 0.24818079 0.11905674 -0.46827218 -0.88358432 0 0
0.1320342 0.24982706 0.11955493 0.46827227 0.8835842 0 0
0.13328214 0.2491657 0.119504 0.46827227 0.8835842 0 0
0.1085251 0.25096858 0.11908071 -0.46827218 -0.88358432 0 0
0.11023194 0.25006405 0.11923101 -0.46827218 -0.88358432 0 0
0.10679021 0.25188804 0.11902595 -0.46827218 -0.88358432 0 0
0.083594695 0.25353581 0.11946674 -0.88358432 0.46827212 0 0
0.1223756 0.25494581 0.11971658 0.46827227 0.88358426 0 0
0.084807403 0.25582406 0.11985411 -0.88358432 0.46827212 0 0
0.099358983 0.25582638 0.11976844 -0.46827218 -0.88358432 0 0
0.11896466 0.2567535 0.11997099 0.46827227 0.88358426 0 0
0.11366086 0.25956437 0.11939078 0.46827227 0.88358426 0 0
0.10765623 0.26274663 0.11962807 0.46827227 0.88358426 0 0
0.089453802 0.26459134 0.11924862 -0.88358432 0.46827212 0 0
0.090459153 0.26648837 0.11963914 -0.88358432 0.46827212 0 0
0.10112953 0.26620561 0.11935531 0.46827227 0.88358426 0 0
0.097333789 0.26821721 0.1190872 0.46827227 0.88358426 0 0
0.09436474 0.26979071 0.11981855 0.46827227 0.88358426 0 0
0.095814146 0.26902258 0.11915802 0.46827227 0.88358426 0 0
0.09240105 0.27015251 0.11900917 -0.88358432 0.46827212 0 0
0.15564248 0.18072771 0.12041311 -0.4682723 -0.8835842 0 0
0.15821441 0.18078497 0.12065741 0.88358426 -0.46827221 0 0
0.14983261 0.18380675 0.12091333 -0.4682723 -0.8835842 0 0
0.14285067 0.18750696 0.12090838 -0.4682723 -0.8835842 0 0
0.16185299 0.18765061 0.12088004 0.88358426 -0.46827221 0 0
0.13928925 0.18939441 0.1204308 -0.4682723 -0.8835842 0 0
0.13340208 0.19251442 0.12067433 -0.4682723 -0.8835842 0 0
0.16451299 0.19266976 0.12052879 0.88358426 -0.46827221 0 0
0.15386567 0.19393441 0.12025382 -0.88358414 0.46827242 0 0
0.12961957 0.19451904 0.1209305 -0.4682723 -0.8835842 0 0
0.16554575 0.19461849 0.12016211 0.88358426 -0.46827221 0 0
0.14831504 0.19592857 0.12064517 0.46827221 0.88358426 0 0
0.12514427 0.19689082 0.12034436 -0.4682723 -0.8835842 0 0
0.12611273 0.19637755 0.12085088 -0.4682723 -0.8835842 0 0
0.16670936 0.1968141 0.12053528 0.88358426 -0.46827221 0 0
0.14590156 0.19720766 0.12038862 0.46827221 0.88358426 0 0
0.15594715 0.19786194 0.12023607 -0.88358414 0.46827242 0 0
0.16770826 0.19869894 0.12081698 0.88358426 -0.46827221 0 0
0.11956377 0.19984828 0.12091286 -0.4682723 -0.8835842 0 0
0.1417242 0.19942151 0.12092446 0.46827221 0.88358426 0 0
0.15674031 0.1993586 0.12076508 -0.88358414 0.46827242 0 0
0.16835672 0.19992252 0.12026811 0.88358426 -0.46827221 0 0
0.1183791 0.20047614 0.12046891 -0.4682723 -0.8835842 0 0
0.13777706 0.20151338 0.12069151 0.46827221 0.88358426 0 0
0.13589127 0.20251277 0.12019517 0.46827221 0.88358426 0 0
0.15845774 0.20259918 0.12055909 -0.88358408 0.46827236 0 0
0.13469887 0.20314473 0.12056772 0.46827221 0.88358426 0 0
0.15887332 0.20338333 0.12063292 -0.88358414 0.46827242 0 0
0.13140297 0.20489144 0.12002152 0.46827221 0.88358426 0 0
0.17104122 0.2049879 0.12024112 0.88358426 -0.46827221 0 0
0.13098188 0.2051146 0.12039173 0.46827221 0.88358426 0 0
0.10759572 0.206191 0.12010128 -0.4682723 -0.88358426 0 0
0.10105659 0.20965654 0.12008113 -0.4682723 -0.88358426 0 0
0.16196379 0.20921475 0.12063879 -0.88358414 0.46827242 0 0
0.12085612 0.21048094 0.1204717 0.46827221 0.88358426 0 0
0.11979306 0.21104433 0.12075777 0.46827221 0.88358426 0 0
0.095254667 0.21273136 0.12045713 -0.4682723 -0.88358426 0 0
0.11706172 0.21249186 0.12027398 0.46827221 0.88358426 0 0
0.16393659 0.21293725 0.1203625 -0.88358414 0.46827242 0 0
0.11299384 0.21464771 0.12030242 0.46827221 0.88358426 0 0
0.11066077 0.21588415 0.12044799 0.46827221 0.88358426 0 0
0.16541755 0.21573168 0.12064379 -0.88358414 0.46827242 0 0
0.16563946 0.2161504 0.12043956 -0.88358414 0.46827242 0 0
0.086990617 0.21711107 0.12019037 -0.4682723 -0.88358426 0 0
0.087027282 0.21709163 0.12071859 -0.4682723 -0.88358426 0 0
0.16652763 0.21782631 0.12029964 -0.88358414 0.46827242 0 0
0.084425002 0.21847075 0.12072026 -0.4682723 -0.88358426 0 0
0.17801139 0.21813995 0.12089681 0.88358426 -0.46827221 0 0
0.16625813 0.2203719 0.12042411 -0.46827221 -0.88358432 0 0
0.10039023 0.22132723 0.1201155 0.46827221 0.88358426 0 0
0.17958823 0.22111529 0.12053476 0.88358426 -0.46827221 0 0
0.077259317 0.22226834 0.1200776 -0.4682723 -0.88358426 0 0
0.16246033 0.22238463 0.12001 -0.46827221 -0.88358432 0 0
0.18025562 0.2223746 0.12089916 0.88358426 -0.46827221 0 0
0.1612412 0.22303072 0.1202828 -0.46827221 -0.88358432 0 0
0.18070924 0.22403079 0.1207844 0.46827227 0.8835842 0 0
0.070884824 0.22564663 0.120983 -0.4682723 -0.88358426 0 0
0.17857261 0.22516315 0.12070844 0.46827227 0.8835842 0 0
0.091262877 0.22616446 0.12049798 0.46827221 0.88358426 0 0
0.17438546 0.22738221 0.12042703 0.46827227 0.8835842 0 0
0.07013759 0.22814353 0.12061656 -0.88358426 0.46827209 0 0
0.15054621 0.22869873 0.12046322 -0.46827221 -0.88358432 0 0
0.15146133 0.22821376 0.12083085 -0.46827221 -0.88358432 0 0
0.070804358 0.22940168 0.12013458 -0.88358432 0.46827212 0 0
0.084457472 0.22977109 0.120783 0.46827221 0.88358426 0 0
0.085335597 0.22930571 0.12029918 0.46827221 0.88358426 0 0
0.083194137 0.23142487 0.12051256 0.88358426 -0.46827227 0 0
0.16662228 0.23149645 0.12025507 0.46827227 0.8835842 0 0
0.072640985 0.2328672 0.1205078 -0.88358432 0.46827212 0 0
0.083816797 0.23259978 0.12088744 0.88358426 -0.46827227 0 0
0.14345813 0.23245521 0.12052982 -0.46827221 -0.88358432 0 0
0.084858216 0.23456483 0.12073141 0.88358426 -0.46827227 0 0
0.16027771 0.23485887 0.12028825 0.4682723 0.8835842 0 0
0.085260905 0.23532468 0.12084084 0.88358426 -0.46827227 0 0
0.13680458 0.23598137 0.12069097 -0.46827221 -0.88358432 0 0
0.13705203 0.23585024 0.12068715 -0.46827221 -0.88358432 0 0
0.086040974 0.23679657 0.12017471 0.88358426 -0.46827227 0 0
0.13377549 0.23758671 0.12003521 -0.46827221 -0.88358432 0 0
0.13200703 0.23852395 0.12024966 -0.46827221 -0.88358432 0 0
0.15094441 0.23980525 0.12012796 0.46827227 0.8835842 0 0
0.076857492 0.24082334 0.12062109 -0.88358432 0.46827212 0 0
0.12740277 0.24096404 0.12064876 -0.46827221 -0.88358432 0 0
0.077064365 0.24121368 0.12046746 -0.88358432 0.46827212 0 0
0.14751047 0.24162513 0.12088478 0.46827227 0.8835842 0 0
0.077975832 0.24293354 0.12087907 -0.88358432 0.46827212 0 0
0.12373143 0.24290973 0.12024254 -0.46827218 -0.88358432 0 0
0.090371847 0.2449685 0.12038635 0.88358426 -0.46827227 0 0
0.12055771 0.24459171 0.12087017 -0.46827218 -0.88358432 0 0
0.14130314 0.24491483 0.12027009 0.46827227 0.8835842 0 0
0.14111941 0.24501219 0.12022237 0.46827227 0.8835842 0 0
0.1150229 0.24752498 0.12056967 -0.46827218 -0.88358432 0 0
0.13662386 0.24739468 0.12073302 0.46827227 0.8835842 0 0
0.092096992 0.24822369 0.12045309 0.88358426 -0.46827227 0 0
0.13252251 0.24956828 0.12081786 0.46827227 0.8835842 0 0
0.082169563 0.25084668 0.12041182 -0.88358432 0.46827212 0 0
0.093535297 0.25093761 0.12025911 0.88358426 -0.46827227 0 0
0.13074483 0.25051036 0.1200765 0.46827227 0.8835842 0 0
0.082798056 0.25203261 0.12000239 -0.88358432 0.46827212 0 0
0.094427079 0.25262034 0.12051214 0.88358426 -0.46827227 0 0
0.12782018 0.25206038 0.12030026 0.46827227 0.8835842 0 0
0.10295756 0.25391924 0.12092177 -0.46827218 -0.88358432 0 0
0.10466818 0.25301263 0.12059516 -0.46827218 -0.88358432 0 0
0.12576517 0.25314945 0.12011803 0.46827227 0.8835842 0 0
0.096327007 0.25620532 0.12084658 0.88358426 -0.46827227 0 0
0.1141283 0.25931665 0.12015118 0.46827227 0.88358426 0 0
0.087752968 0.26138204 0.12020512 -0.88358432 0.46827212 0 0
0.11006688 0.26146907 0.1209232 0.46827227 0.88358426 0 0
0.088161364 0.26215267 0.12098399 -0.88358432 0.46827212 0 0
0.10771407 0.262716 0.12006709 0.46827227 0.88358426 0 0
0.090022981 0.26566535 0.12047701 -0.88358432 0.46827212 0 0
0.10083224 0.26636314 0.12025427 0.46827227 0.88358426 0 0
0.096350491 0.26873833 0.12060236 0.46827227 0.88358426 0 0
0.091952637 0.26930642 0.120728 -0.88358432 0.46827212 0 0
0.094102874 0.26992947 0.12041011 0.46827227 0.88358426 0 0
0.092603177 0.27053392 0.12046252 -0.88358432 0.46827212 0 0
0.1524765 0.18240556 0.12114969 -0.4682723 -0.8835842 0 0
0.15888096 0.18204267 0.12111872 0.88358426 -0.46827221 0 0
0.14407915 0.18685591 0.1210212 -0.4682723 -0.8835842 0 0
0.14530423 0.18620665 0.12105789 -0.4682723 -0.8835842 0 0
0.14339884 0.18721645 0.12177344 -0.4682723 -0.8835842 0 0
0.14164741 0.18814464 0.12155395 -0.4682723 -0.8835842 0 0
0.13833442 0.18990043 0.12135987 -0.4682723 -0.8835842 0 0
0.13933784 0.18936867 0.12160544 -0.4682723 -0.8835842 0 0
0.13693511 0.19064203 0.12147143 -0.4682723 -0.8835842 0 0
0.13611953 0.19107427 0.121419 -0.4682723 -0.8835842 0 0
0.13362597 0.19239576 0.12166985 -0.4682723 -0.8835842 0 0
0.13224444 0.19312793 0.12137753 -0.4682723 -0.8835842 0 0
0.1520613 0.19394314 0.12109637 0.46827221 0.88358426 0 0
0.15363654 0.19350207 0.12133061 -0.88358414 0.46827242 0 0
0.16519132 0.19394973 0.12177352 0.88358426 -0.46827221 0 0
0.15432869 0.19480807 0.12191187 -0.88358414 0.46827242 0 0
0.16548891 0.19451125 0.12172869 0.88358426 -0.46827221 0 0
0.14759108 0.19631225 0.12176506 0.46827221 0.88358426 0 0
0.16641833 0.19626495 0.12133024 0.88358426 -0.46827221 0 0
0.12183495 0.19864467 0.12127957 -0.4682723 -0.8835842 0 0
0.11951897 0.19987205 0.12154174 -0.4682723 -0.8835842 0 0
0.14225511 0.19914016 0.12119555 0.46827221 0.88358426 0 0
0.11787929 0.20074104 0.12113065 -0.4682723 -0.8835842 0 0
0.11661662 0.20141019 0.12110747 -0.4682723 -0.8835842 0 0
0.11706212 0.2011741 0.1210793 -0.4682723 -0.8835842 0 0
0.13852513 0.20111692 0.12122457 0.46827221 0.88358426 0 0
0.13639446 0.2022461 0.12174361 0.46827221 0.88358426 0 0
0.16963056 0.2023261 0.12146297 0.88358426 -0.46827221 0 0
0.11190063 0.20390953 0.12138379 -0.4682723 -0.8835842 0 0
0.13389824 0.20356902 0.12125318 0.46827221 0.88358426 0 0
0.11143722 0.20415512 0.12115941 -0.4682723 -0.88358426 0 0
0.1323362 0.20439686 0.1218528 0.46827221 0.88358426 0 0
0.1595117 0.20458792 0.12175006 -0.88358414 0.46827242 0 0
0.17053401 0.20403086 0.12167758 0.88358426 -0.46827221 0 0
0.1098396 0.2050018 0.12124282 -0.4682723 -0.88358426 0 0
0.10787968 0.2060405 0.12146396 -0.4682723 -0.88358426 0 0
0.17196144 0.20672429 0.12182891 0.88358426 -0.46827221 0 0
0.1055067 0.20729813 0.12148354 -0.4682723 -0.88358426 0 0
0.12655485 0.20746079 0.12140112 0.46827221 0.88358426 0 0
0.16125256 0.20787275 0.12141617 -0.88358414 0.46827242 0 0
0.098576188 0.21097107 0.12119368 -0.4682723 -0.88358426 0 0
0.099618085 0.21041891 0.12162825 -0.4682723 -0.88358426 0 0
0.12042852 0.21070756 0.12139811 0.46827221 0.88358426 0 0
0.097517677 0.21153204 0.12161019 -0.4682723 -0.88358426 0 0
0.11746453 0.21227837 0.1214368 0.46827221 0.88358426 0 0
0.17486167 0.21219672 0.12120312 0.88358426 -0.46827221 0 0
0.17518809 0.21281263 0.12118694 0.88358426 -0.46827221 0 0
0.0947005 0.21302506 0.12110935 -0.4682723 -0.88358426 0 0
0.11401469 0.21410669 0.12121434 0.46827221 0.88358426 0 0
0.1759575 0.21426444 0.12154534 0.88358426 -0.46827221 0 0
0.11154285 0.2154167 0.12138318 0.46827221 0.88358426 0 0
0.17710245 0.21642485 0.1212796 0.88358426 -0.46827221 0 0
0.10692498 0.21786401 0.12146047 0.46827221 0.88358426 0 0
0.10810292 0.21723974 0.12122224 0.46827221 0.88358426 0 0
0.083956435 0.21871907 0.12193009 -0.4682723 -0.88358426 0 0
0.084825777 0.21825835 0.12183394 -0.4682723 -0.88358426 0 0
0.08193519 0.21979028 0.12166898 -0.4682723 -0.88358426 0 0
0.081265666 0.22014512 0.12196058 -0.4682723 -0.88358426 0 0
0.16624132 0.22038081 0.12124702 -0.46827221 -0.88358432 0 0
0.078491546 0.2216153 0.12177878 -0.4682723 -0.88358426 0 0
0.16498524 0.22104651 0.12142093 -0.46827221 -0.88358432 0 0
0.076471046 0.22268613 0.12181965 -0.4682723 -0.88358426 0 0
0.077141248 0.22233091 0.1217374 -0.4682723 -0.88358426 0 0
0.16183907 0.22271386 0.12103461 -0.46827221 -0.88358432 0 0
0.1802325 0.22233094 0.12105916 0.88358426 -0.46827221 0 0
0.095686644 0.22381999 0.12185509 0.46827221 0.88358426 0 0
0.15981033 0.22378904 0.12111718 -0.46827221 -0.88358432 0 0
0.18096274 0.22389644 0.12104956 0.46827227 0.8835842 0 0
0.073599666 0.22420785 0.12168565 -0.4682723 -0.88358426 0 0
0.15800014 0.22474839 0.12107438 -0.46827221 -0.88358432 0 0
0.17926288 0.22479734 0.12111705 0.46827227 0.8835842 0 0
0.17637593 0.22632733 0.12147998 0.46827227 0.8835842 0 0
0.087644726 0.22808194 0.12146424 0.46827221 0.88358426 0 0
0.15164354 0.2281172 0.12115145 -0.46827221 -0.88358432 0 0
0.070849717 0.22948727 0.12116172 -0.88358432 0.46827212 0 0
0.071145296 0.23004498 0.12167796 -0.88358432 0.46827212 0 0
0.16757838 0.23098974 0.12171989 0.46827227 0.8835842 0 0
0.072025217 0.23170531 0.12173792 -0.88358432 0.46827212 0 0
0.16444449 0.23265062 0.12127531 0.4682723 0.8835842 0 0
0.073141873 0.23381233 0.12181918 -0.88358432 0.46827212 0 0
0.13965888 0.23446868 0.12133664 -0.46827221 -0.88358432 0 0
0.1612007 0.23436972 0.12129422 0.46827227 0.8835842 0 0
0.15934572 0.23535281 0.12144144 0.46827227 0.8835842 0 0
0.074716046 0.23678264 0.12164717 -0.88358432 0.46827212 0 0
0.086735219 0.23810655 0.12179478 0.88358426 -0.46827227 0 0
0.087187141 0.23895928 0.12149491 0.88358426 -0.46827227 0 0
0.15254492 0.23895702 0.12132629 0.46827227 0.8835842 0 0
0.15130188 0.2396158 0.12199302 0.46827227 0.8835842 0 0
0.076907381 0.24091747 0.12132335 -0.88358432 0.46827212 0 0
0.12602143 0.24169609 0.12106832 -0.46827221 -0.88358432 0 0
0.14716356 0.24180897 0.12124459 0.46827227 0.8835842 0 0
0.14508761 0.24290915 0.12127639 0.46827227 0.8835842 0 0
0.078042813 0.24305993 0.12109222 -0.88358432 0.46827212 0 0
0.12250236 0.24356109 0.12112354 -0.46827218 -0.88358432 0 0
0.12339097 0.24309015 0.12183031 -0.46827221 -0.88358432 0 0
0.14457878 0.24317881 0.12129728 0.46827227 0.8835842 0 0
0.12126219 0.24421836 0.12170622 -0.46827218 -0.88358432 0 0
0.14073059 0.24521825 0.12145568 0.46827227 0.8835842 0 0
0.13619876 0.24761997 0.12142643 0.46827227 0.8835842 0 0
0.080995716 0.24863178 0.12165894 -0.88358432 0.46827212 0 0
0.081141621 0.24890709 0.12130103 -0.88358432 0.46827212 0 0
0.11265121 0.2487819 0.12157117 -0.46827218 -0.88358432 0 0
0.13453372 0.2485024 0.12115531 0.46827227 0.8835842 0 0
0.13183114 0.24993467 0.12112606 0.46827227 0.8835842 0 0
0.08224766 0.25099406 0.12135185 -0.88358432 0.46827212 0 0
0.093042985 0.2500087 0.12175188 0.88358426 -0.46827227 0 0
0.10857335 0.25094306 0.12105652 -0.46827218 -0.88358432 0 0
0.12651826 0.25275034 0.1216309 0.46827227 0.8835842 0 0
0.083314911 0.25300786 0.12162659 -0.88358432 0.46827212 0 0
0.10433568 0.25318888 0.12129593 -0.46827218 -0.88358432 0 0
0.12440867 0.25386837 0.12168532 0.46827227 0.8835842 0 0
0.1017473 0.25456065 0.12121442 -0.46827218 -0.88358432 0 0
0.10250771 0.25415763 0.12122317 -0.46827218 -0.88358432 0 0
0.10083248 0.25504547 0.12189257 -0.46827218 -0.88358432 0 0
0.12159836 0.25535774 0.12133829 0.46827227 0.88358426 0 0
0.085141443 0.25645435 0.12139121 -0.88358432 0.46827212 0 0
0.11671413 0.25794625 0.12147932 0.46827227 0.88358426 0 0
0.11492747 0.2588931 0.12135195 0.46827227 0.88358426 0 0
0.11648925 0.2580654 0.12152819 0.46827227 0.88358426 0 0
0.1095731 0.26173073 0.12162919 0.46827227 0.88358426 0 0
0.089098126 0.26392025 0.12118432 -0.88358432 0.46827212 0 0
0.090060368 0.26573589 0.12125412 -0.88358432 0.46827212 0 0
0.090925053 0.26736748 0.12154968 -0.88358432 0.46827212 0 0
0.095450029 0.26921552 0.12153428 0.46827227 0.88358426 0 0
0.15164137 0.18284817 0.12217566 -0.4682723 -0.8835842 0 0
0.14867696 0.18441921 0.12288044 -0.4682723 -0.8835842 0 0
0.1470598 0.18527626 0.12219773 -0.4682723 -0.8835842 0 0
0.14542882 0.18614063 0.12276575 -0.4682723 -0.8835842 0 0
0.13611081 0.19107887 0.12212679 -0.4682723 -0.8835842 0 0
0.13422731 0.19207709 0.12222715 -0.4682723 -0.8835842 0 0
0.16421466 0.19210683 0.12232342 0.88358426 -0.46827221 0 0
0.13186292 0.19333014 0.1228641 -0.4682723 -0.8835842 0 0
0.13049474 0.19405521 0.12278051 -0.4682723 -0.8835842 0 0
0.16552222 0.19457407 0.12218697 0.88358426 -0.46827221 0 0
0.12561263 0.19664258 0.12232007 -0.4682723 -0.8835842 0 0
0.14520948 0.19757442 0.12246136 0.46827221 0.88358426 0 0
0.11797723 0.20068912 0.12255245 -0.4682723 -0.8835842 0 0
0.15712962 0.20009317 0.12261131 -0.88358414 0.46827242 0 0
0.11392262 0.20283794 0.1223285 -0.4682723 -0.8835842 0 0
0.1700398 0.20309836 0.12263937 0.88358426 -0.46827221 0 0
0.17142662 0.20571515 0.12214921 0.88358426 -0.46827221 0 0
0.12815808 0.20661113 0.12244439 0.46827221 0.88358426 0 0
0.17239106 0.20753491 0.12273855 0.88358426 -0.46827221 0 0
0.17294428 0.2085788 0.12298964 0.88358426 -0.46827221 0 0
0.17363021 0.20987308 0.122293 0.88358426 -0.46827221 0 0
0.098901249 0.2107988 0.12257019 -0.4682723 -0.88358426 0 0
0.12076187 0.21053088 0.12236348 0.46827221 0.88358426 0 0
0.16338345 0.21189356 0.12273827 -0.88358414 0.46827242 0 0
0.11743852 0.21229215 0.12278358 0.46827221 0.88358426 0 0
0.092905737 0.21397623 0.12228332 -0.4682723 -0.88358426 0 0
0.093183987 0.21382877 0.12277883 -0.4682723 -0.88358426 0 0
0.16466996 0.21432105 0.12275124 -0.88358414 0.46827242 0 0
0.089766026 0.21564017 0.12294446 -0.4682723 -0.88358426 0 0
0.090264522 0.21537599 0.12279907 -0.4682723 -0.88358426 0 0
0.17652799 0.21534091 0.12284914 0.88358426 -0.46827221 0 0
0.10952148 0.21648796 0.12287828 0.46827221 0.88358426 0 0
0.083851457 0.21877471 0.12240149 -0.4682723 -0.88358426 0 0
0.16717035 0.21903904 0.12256139 -0.88358414 0.46827242 0 0
0.17851059 0.21908188 0.12292489 0.88358426 -0.46827221 0 0
0.079710841 0.22096914 0.12200586 -0.4682723 -0.88358426 0 0
0.10229804 0.22031614 0.12206203 0.46827221 0.88358426 0 0
0.097497359 0.22286035 0.12230206 0.46827221 0.88358426 0 0
0.18090706 0.22392596 0.12292349 0.46827227 0.8835842 0 0
0.072545096 0.22476673 0.12265068 -0.4682723 -0.88358426 0 0
0.073808841 0.22409701 0.12275455 -0.4682723 -0.88358426 0 0
0.15669397 0.22544062 0.12256871 -0.46827221 -0.88358432 0 0
0.15449102 0.22660811 0.12281176 -0.46827221 -0.88358432 0 0
0.17349394 0.22785468 0.1225241 0.46827227 0.8835842 0 0
0.17293939 0.22814856 0.12267794 0.46827227 0.8835842 0 0
0.14963017 0.2291842 0.12211001 -0.46827221 -0.88358432 0 0
0.17131542 0.22900924 0.12281033 0.46827227 0.8835842 0 0
0.071497038 0.23070869 0.12200414 -0.88358432 0.46827212 0 0
0.14607033 0.23107079 0.12276506 -0.46827221 -0.88358432 0 0
0.1674701 0.23104714 0.12298289 0.46827227 0.8835842 0 0
0.14264029 0.23288862 0.12297535 -0.46827221 -0.88358432 0 0
0.14378394 0.23228252 0.12247234 -0.46827221 -0.88358432 0 0
0.16237725 0.23374619 0.12292168 0.46827227 0.8835842 0 0
0.15676649 0.23671973 0.12292907 0.46827227 0.8835842 0 0
0.086515404 0.23769179 0.12290697 0.88358426 -0.46827227 0 0
0.086949386 0.23851067 0.12205403 0.88358426 -0.46827227 0 0
0.087055258 0.23871043 0.12217255 0.88358426 -0.46827227 0 0
0.076079078 0.23935455 0.12284807 -0.88358432 0.46827212 0 0
0.12933509 0.23993996 0.12231562 -0.46827221 -0.88358432 0 0
0.15155867 0.23947971 0.12228072 0.4682723 0.8835842 0 0
0.12409946 0.24271467 0.12204703 -0.46827221 -0.88358432 0 0
0.14533964 0.24277559 0.1226241 0.46827227 0.8835842 0 0
0.14653943 0.24213974 0.12250134 0.46827227 0.8835842 0 0
0.078189433 0.24333659 0.1220794 -0.88358432 0.46827212 0 0
0.089649841 0.24360618 0.12223319 0.88358426 -0.46827227 0 0
0.12249872 0.24356304 0.12252282 -0.46827218 -0.88358432 0 0
0.12067512 0.24452949 0.12268024 -0.46827218 -0.88358432 0 0
0.079217151 0.2452758 0.1227207 -0.88358432 0.46827212 0 0
0.090513691 0.24523616 0.12266869 0.88358426 -0.46827227 0 0
0.1182141 0.24583374 0.12273986 -0.46827218 -0.88358432 0 0
0.14091539 0.2451203 0.12261309 0.46827227 0.8835842 0 0
0.13743079 0.24696705 0.12241852 0.46827227 0.8835842 0 0
0.1387917 0.2462458 0.12251306 0.46827227 0.8835842 0 0
0.080258667 0.24724102 0.12262427 -0.88358432 0.46827212 0 0
0.091834947 0.24772924 0.12280088 0.88358426 -0.46827227 0 0
0.1371098 0.24713716 0.12238228 0.46827227 0.8835842 0 0
0.080688968 0.24805295 0.12226924 -0.88358432 0.46827212 0 0
0.11318824 0.24849729 0.12253462 -0.46827218 -0.88358432 0 0
0.13479809 0.24836229 0.12203458 0.46827227 0.8835842 0 0
0.13270366 0.24947228 0.1224918 0.46827227 0.8835842 0 0
0.13017927 0.25081012 0.12297829 0.46827227 0.8835842 0 0
0.10715384 0.25169533 0.12283244 -0.46827218 -0.88358432 0 0
0.10533595 0.25265875 0.12211006 -0.46827218 -0.88358432 0 0
0.12713604 0.25242293 0.12271088 0.46827227 0.8835842 0 0
0.12243736 0.25491309 0.12238108 0.46827227 0.88358426 0 0
0.096116871 0.2558088 0.12242457 0.88358426 -0.46827227 0 0
0.096727207 0.25696048 0.12294593 0.88358426 -0.46827227 0 0
0.12021291 0.25609198 0.1222759 0.46827227 0.88358426 0 0
0.086519852 0.25905529 0.12223309 -0.88358432 0.46827212 0 0
0.087808698 0.26148722 0.12256616 -0.88358432 0.46827212 0 0
0.1102163 0.26138988 0.1226733 0.46827227 0.88358426 0 0
0.10885122 0.26211333 0.12218433 0.46827227 0.88358426 0 0
0.10611422 0.26356384 0.12219954 0.46827227 0.88358426 0 0
0.10285039 0.2652936 0.12222182 0.46827227 0.88358426 0 0
0.10085652 0.26635027 0.12265168 0.46827227 0.88358426 0 0
0.090759605 0.26705527 0.12238814 -0.88358432 0.46827212 0 0
0.091087922 0.2676748 0.12274721 -0.88358432 0.46827212 0 0
0.098772369 0.2674548 0.1227064 0.46827227 0.88358426 0 0
0.097324081 0.26822233 0.1226152 0.46827227 0.88358426 0 0
0.09418831 0.26988423 0.12209759 0.46827227 0.88358426 0 0
0.15733862 0.17982879 0.12392823 -0.4682723 -0.8835842 0 0
0.15287936 0.18219207 0.12399317 -0.4682723 -0.8835842 0 0
0.15898083 0.18223111 0.12387671 0.88358426 -0.46827221 0 0
0.15907335 0.1824057 0.12357017 0.88358426 -0.46827221 0 0
0.14832488 0.18460581 0.12342299 -0.4682723 -0.8835842 0 0
0.14910737 0.18419111 0.12395018 -0.4682723 -0.8835842 0 0
0.1617005 0.18736286 0.12308434 0.88358426 -0.46827221 0 0
0.14126536 0.18834715 0.12301256 -0.4682723 -0.8835842 0 0
0.16304874 0.18990688 0.12399839 0.88358426 -0.46827221 0 0
0.1642691 0.19220957 0.12334518 0.88358426 -0.46827221 0 0
0.13188757 0.19331707 0.12324956 -0.4682723 -0.8835842 0 0
0.15387626 0.19395441 0.12311137 -0.88358414 0.46827242 0 0
0.15157248 0.19420221 0.12356564 0.46827221 0.88358426 0 0
0.16526595 0.19409055 0.12345888 0.88358426 -0.46827221 0 0
0.12401891 0.19748724 0.12321621 -0.4682723 -0.8835842 0 0
0.15571794 0.19742945 0.12387991 -0.88358414 0.46827242 0 0
0.1194063 0.19993174 0.12373692 -0.4682723 -0.8835842 0 0
0.12034546 0.19943404 0.12314817 -0.4682723 -0.8835842 0 0
0.11705465 0.20117807 0.12318619 -0.4682723 -0.8835842 0 0
0.13718027 0.20182964 0.12344263 0.46827221 0.88358426 0 0
0.11411984 0.2027334 0.12393699 -0.4682723 -0.8835842 0 0
0.13520485 0.20287657 0.12364669 0.46827221 0.88358426 0 0
0.13391301 0.20356119 0.12304525 0.46827221 0.88358426 0 0
0.1345118 0.20324387 0.1233476 0.46827221 0.88358426 0 0
0.15903878 0.20369558 0.12323292 -0.88358414 0.46827242 0 0
0.17035574 0.20369446 0.12393621 0.88358426 -0.46827221 0 0
0.13092084 0.20514694 0.12304464 0.46827221 0.88358426 0 0
0.10447021 0.20784745 0.12389523 -0.4682723 -0.88358426 0 0
0.1608191 0.20705485 0.12390964 -0.88358414 0.46827242 0 0
0.17227623 0.20731825 0.12352417 0.88358426 -0.46827221 0 0
0.1040487 0.20807081 0.12311709 -0.4682723 -0.88358426 0 0
0.10082524 0.20977914 0.12321782 -0.4682723 -0.88358426 0 0
0.12330313 0.20918411 0.12372766 0.46827221 0.88358426 0 0
0.16241625 0.21006851 0.12326589 -0.88358414 0.46827242 0 0
0.11974493 0.21106984 0.12324218 0.46827221 0.88358426 0 0
0.17518684 0.21281028 0.12350546 0.88358426 -0.46827221 0 0
0.094695583 0.21302769 0.12334682 -0.4682723 -0.88358426 0 0
0.1160957 0.21300381 0.12353242 0.46827221 0.88358426 0 0
0.17569277 0.21376491 0.12360483 0.88358426 -0.46827221 0 0
0.17585592 0.21407279 0.12364835 0.88358426 -0.46827221 0 0
0.090150252 0.21543655 0.12323201 -0.4682723 -0.88358426 0 0
0.16507709 0.21508926 0.12344101 -0.88358414 0.46827242 0 0
0.10880308 0.21686867 0.12312372 0.46827221 0.88358426 0 0
0.17687953 0.21600422 0.12331308 0.88358426 -0.46827221 0 0
0.086498305 0.21737197 0.12331069 -0.4682723 -0.88358426 0 0
0.084210053 0.21858467 0.12332282 -0.4682723 -0.88358426 0 0
0.10488043 0.21894757 0.12359997 0.46827221 0.88358426 0 0
0.17822132 0.21853608 0.12319662 0.88358426 -0.46827221 0 0
0.082331114 0.21958046 0.12386335 -0.4682723 -0.88358426 0 0
0.10390271 0.2194657 0.12309305 0.46827221 0.88358426 0 0
0.081517413 0.22001171 0.12338251 -0.4682723 -0.88358426 0 0
0.10111662 0.22094226 0.1239379 0.46827221 0.88358426 0 0
0.17949118 0.22093216 0.12397934 0.88358426 -0.46827221 0 0
