# .PCD v0.7 - Point Cloud Data file format
VERSION 0.7
FIELDS x y z normal_x normal_y normal_z curvature
SIZE 4 4 4 4 4 4 4
TYPE F F F F F F F
COUNT 1 1 1 1 1 1 1
WIDTH 1119
HEIGHT 1
VIEWPOINT 0 0 0 1 0 0 0
POINTS 1119
DATA ascii
0.13337322 0.49754477 0.025 0 0 1 0
0.13462418 0.49738264 0.025 0 0 1 0
0.13637458 0.49755037 0.025 0 0 1 0
0.1400875 0.49725387 0.024999999 0 0 1 0
0.14141014 0.49790439 0.025 0 0 1 0
0.14491817 0.49796879 0.025 0 0 1 0
0.14627202 0.49715722 0.025 0 0 1 0
0.16421062 0.4970724 0.025 0 0 1 0
0.16594818 0.49786192 0.025 0 0 1 0
0.16783616 0.49755123 0.025 0 0 1 0
0.16856427 0.49736315 0.025 0 0 1 0
0.17304841 0.49720365 0.025 0 0 1 0
0.17406853 0.49702013 0.025 0 0 1 0
0.0044444464 0.49872798 0.024999999 0 0 1 0
0.010122827 0.49845138 0.025 0 0 1 0
0.025647879 0.49843556 0.024999999 0 0 1 0
0.029517552 0.49885249 0.025 0 0 1 0
0.031296413 0.49844301 0.025 0 0 1 0
0.033827499 0.4989247 0.025 0 0 1 0
0.034078538 0.49892786 0.025 0 0 1 0
0.040120438 0.49820513 0.025 0 0 1 0
0.043018058 0.49852678 0.025 0 0 1 0
0.047240734 0.49881387 0.025 0 0 1 0
0.051416256 0.49861479 0.025 0 0 1 0
0.052614633 0.49814105 0.025 0 0 1 0
0.057875924 0.49884525 0.025 0 0 1 0
0.060652651 0.49822465 0.025 0 0 1 0
0.069379762 0.49885806 0.024999999 0 0 1 0
0.070909232 0.49838236 0.025 0 0 1 0
0.072595634 0.49867275 0.025 0 0 1 0
0.079335436 0.49885225 0.025 0 0 1 0
0.080924131 0.49872342 0.024999999 0 0 1 0
0.086109407 0.49882954 0.025 0 0 1 0
0.094375268 0.49835885 0.025 0 0 1 0
0.099233866 0.49808085 0.024999999 0 0 1 0
0.10034639 0.49840367 0.025 0 0 1 0
0.10460694 0.49878967 0.024999999 0 0 1 0
0.10596994 0.49844289 0.025 0 0 1 0
0.10839675 0.49867997 0.025 0 0 1 0
0.10902374 0.49829444 0.024999999 0 0 1 0
0.11315115 0.49865746 0.025 0 0 1 0
0.12714137 0.49807841 0.025 0 0 1 0
0.1286418 0.49832562 0.024999999 0 0 1 0
0.13505235 0.49874738 0.025 0 0 1 0
0.14594354 0.49822873 0.025 0 0 1 0
0.14679024 0.49892452 0.025 0 0 1 0
0.14745541 0.49848345 0.025 0 0 1 0
0.14816184 0.49832875 0.025 0 0 1 0
0.16167821 0.49879038 0.025 0 0 1 0
0.16333003 0.49862972 0.025 0 0 1 0
0.16865924 0.49828303 0.025 0 0 1 0
0.16913328 0.49864095 0.025 0 0 1 0
0.17208624 0.49851063 0.025 0 0 1 0
0.17311125 0.4986634 0.025 0 0 1 0
0.1758136 0.49816695 0.024999999 0 0 1 0
0.00046074917 0.5 0.024038235 0 1 0 0
0.0055855643 0.4995698 0.025 0 0 1 0
0.0062426636 0.49983513 0.025 0 0 1 0
0.0073640505 0.4996807 0.025 0 0 1 0
0.0083552022 0.5 0.024243191 0 1 0 0
0.0094588306 0.5 0.024268288 0 1 0 0
0.011128708 0.5 0.024532594 0 1 0 0
0.012277197 0.49956203 0.025 0 0 1 0
0.014163807 0.49996492 0.025 0 0 1 0
0.018528372 0.4997572 0.024691608 0 0.70710677 0.70710677 0
0.019438526 0.5 0.024373185 0 1 0 0
0.020307427 0.49980789 0.025 0 0 1 0
0.021385893 0.49949539 0.024715403 0 0.44721359 0.89442718 0
0.022335134 0.5 0.024286373 0 1 0 0
0.025245443 0.5 0.024315361 0 1 0 0
0.026433036 0.49955297 0.02499317 0 0.70710677 0.70710677 0
0.028521994 0.49902859 0.025 0 0 1 0
0.031663492 0.5 0.024223436 0 1 0 0
0.032122657 0.49973071 0.025 0 0 1 0
0.03303137 0.49942619 0.025 0 0 1 0
0.034682743 0.5 0.02435266 0 1 0 0
0.042599138 0.4990072 0.025 0 0 1 0
0.043306164 0.5 0.024109766 0 1 0 0
0.04460812 0.5 0.02444155 0 1 0 0
0.045000646 0.5 0.024499239 0 1 0 0
0.04666746 0.49996409 0.025 0 0 1 0
0.048617117 0.49997804 0.025 0 0 1 0
0.051015109 0.49974713 0.025 0 0 1 0
0.053590149 0.5 0.024750413 0 1 0 0
0.054949865 0.5 0.024648536 0 1 0 0
0.056389801 0.4999879 0.024808474 0 0.70710677 0.70710677 0
0.059688337 0.49951914 0.024999999 0 0 1 0
0.063561045 0.5 0.024588892 0 1 0 0
0.066068113 0.49978217 0.025 0 0 1 0
0.06892664 0.5 0.024041701 0 1 0 0
0.071902595 0.49909186 0.025 0 0 1 0
0.073931776 0.5 0.024050705 0 1 0 0
0.075820647 0.5 0.024384841 0 1 0 0
0.076334417 0.49921462 0.025 0 0 1 0
0.08161705 0.49954391 0.024944084 0 0.70710677 0.70710677 0
0.083801672 0.49953091 0.024870053 0 0.70710677 0.70710677 0
0.088400893 0.4999187 0.024999999 0 0 1 0
0.093739629 0.5 0.024583563 0 1 0 0
0.099914089 0.49950117 0.025 0 0 1 0
0.10056089 0.49999267 0.024699099 0 0.70710677 0.70710677 0
0.10170165 0.49976814 0.024634017 0 0.89442718 0.44721359 0
0.10237038 0.5 0.024149498 0 1 0 0
0.1052148 0.49948338 0.025 0 0 1 0
0.10752735 0.49912855 0.024999999 0 0 1 0
0.10922509 0.5 0.024439946 0 1 0 0
0.11958133 0.5 0.024539655 0 1 0 0
0.12028971 0.49975052 0.024999999 0 0 1 0
0.1227129 0.5 0.024170399 0 1 0 0
0.12345908 0.5 0.024305612 0 1 0 0
0.12458942 0.49966091 0.025 0 0 1 0
0.12589556 0.5 0.024904078 0 1 0 0
0.12643294 0.5 0.024819529 0 1 0 0
0.12745461 0.49997532 0.024879122 0 0.70710677 0.70710677 0
0.12872925 0.49979496 0.024896074 0 0.70710677 0.70710677 0
0.12956166 0.49905825 0.025 0 0 1 0
0.13017637 0.5 0.02467389 0 1 0 0
0.13138698 0.49972698 0.024997618 0 0.70710677 0.70710677 0
0.13463177 0.5 0.024072779 0 1 0 0
0.13529462 0.49921584 0.025 0 0 1 0
0.13734931 0.5 0.024212362 0 1 0 0
0.13826236 0.49921489 0.025 0 0 1 0
0.13990271 0.49946365 0.025 0 0 1 0
0.14181483 0.49995351 0.024723317 0 0.70710677 0.70710677 0
0.14217022 0.5 0.0248781 0 1 0 0
0.14526382 0.5 0.024414042 0 1 0 0
0.14608184 0.5 0.02431594 0 1 0 0
0.14755282 0.5 0.024579711 0 1 0 0
0.15367557 0.5 0.024768511 0 1 0 0
0.15443349 0.49920684 0.025 0 0 1 0
0.15547957 0.49947965 0.025 0 0 1 0
0.15680951 0.5 0.024651641 0 1 0 0
0.15768173 0.4998914 0.024522454 0 0.70710677 0.70710677 0
0.15937181 0.5 0.024047796 0 1 0 0
0.16154066 0.49987695 0.024918545 0 0.70710677 0.70710677 0
0.16270974 0.49992836 0.024696518 0 0.70710677 0.70710677 0
0.16470173 0.5 0.024573209 0 1 0 0
0.16564086 0.5 0.024512069 0 1 0 0
0.17071846 0.5 0.024720088 0 1 0 0
0.044986181 0.00022680848 0.025000002 0 0 1 0
0.048680317 0.0008317171 0.025000002 0 0 1 0
0.08001449 0.00017260414 0.025000002 0 0 1 0
0.08667542 0.00095412624 0.025000002 0 0 1 0
0.087114058 0.00036421319 0.025000002 0 0 1 0
0.092012666 0.00057127606 0.025000002 0 0 1 0
0.15145876 0.00069965172 0.025000002 0 0 1 0
0.16220944 0.00082073436 0.025000002 0 0 1 0
0.18305565 0.00047242441 0.025000002 0 0 1 0
0.22195533 0.00065123482 0.025000002 0 0 1 0
0.076145515 0.0018676234 0.025000002 0 0 1 0
0.083859801 0.0013022438 0.025000002 0 0 1 0
0.0894325 0.0015014386 0.025000002 0 0 1 0
0.13532306 0.0018520842 0.025000002 0 0 1 0
0.14713851 0.0015714349 0.025000002 0 0 1 0
0.15319468 0.0010347316 0.025000002 0 0 1 0
0.18195717 0.0017388061 0.025000002 0 0 1 0
0.18892255 0.0010377545 0.025000002 0 0 1 0
0.056347191 0.0024784266 0.025000002 0 0 1 0
0.074884623 0.0026657875 0.025000002 0 0 1 0
0.075383328 0.0023415943 0.025000002 0 0 1 0
0.07692948 0.0020894334 0.025000002 0 0 1 0
0.086052634 0.0025841319 0.025000002 0 0 1 0
0.12673838 0.0024282904 0.025000002 0 0 1 0
0.15620553 0.002292037 0.025000002 0 0 1 0
0.1683234 0.0026392073 0.025000002 0 0 1 0
0.17645167 0.0025736075 0.025000002 0 0 1 0
0.17959552 0.0027612499 0.025000002 0 0 1 0
0.18964314 0.0021240707 0.025000002 0 0 1 0
0.21308425 0.002139884 0.025000002 0 0 1 0
0.21801656 0.0027373927 0.025000002 0 0 1 0
0.044054572 0.0032054868 0.025000002 0 0 1 0
0.06083405 0.0035558713 0.025000002 0 0 1 0
0.085908435 0.0033636917 0.025000002 0 0 1 0
0.087903842 0.0038039235 0.025000002 0 0 1 0
0.088611811 0.0033726811 0.025000002 0 0 1 0
0.12897629 0.003439269 0.025000002 0 0 1 0
0.14431454 0.0039738528 0.025000002 0 0 1 0
0.15904209 0.0030264424 0.025000002 0 0 1 0
0.1671467 0.0038527234 0.025000002 0 0 1 0
0.19449291 0.0031819877 0.025000002 0 0 1 0
0.20091647 0.0037860617 0.025000002 0 0 1 0
0.2038793 0.0034956834 0.025000002 0 0 1 0
0.20999472 0.0032005687 0.025000002 0 0 1 0
0.21149769 0.0031990907 0.025000002 0 0 1 0
0.049664199 0.0042947829 0.025000002 0 0 1 0
0.056029778 0.0040459405 0.025000002 0 0 1 0
0.080720082 0.0044353814 0.025000002 0 0 1 0
0.081341796 0.0047566178 0.025000002 0 0 1 0
0.084912181 0.0042207325 0.025000002 0 0 1 0
0.08645048 0.0040367898 0.025000002 0 0 1 0
0.090611748 0.0044682436 0.025000002 0 0 1 0
0.14220077 0.0045976923 0.025000002 0 0 1 0
0.15714212 0.0045686467 0.025000002 0 0 1 0
0.1656941 0.0047822921 0.025000002 0 0 1 0
0.16682498 0.0048796153 0.025000002 0 0 1 0
0.1674605 0.00461995 0.025000002 0 0 1 0
0.16846535 0.0040854439 0.025000002 0 0 1 0
0.17242125 0.0042678313 0.025000002 0 0 1 0
0.18469605 0.0046088719 0.025000002 0 0 1 0
0.21278024 0.0041745133 0.025000002 0 0 1 0
0.23339576 0.0048171473 0.025000002 0 0 1 0
0.23599008 0.0045652725 0.025000002 0 0 1 0
0.093717173 0.0057681967 0.025000002 0 0 1 0
0.16138884 0.0055970792 0.025000002 0 0 1 0
0.16214153 0.0052041081 0.025000002 0 0 1 0
0.17496774 0.0059672808 0.025000002 0 0 1 0
0.18162704 0.0055661011 0.025000002 0 0 1 0
0.18548091 0.0054404312 0.025000002 0 0 1 0
0.19821109 0.0058809421 0.025000002 0 0 1 0
0.20130482 0.0050490722 0.025000002 0 0 1 0
0.2137755 0.005772715 0.025000002 0 0 1 0
0.22390461 0.0050741746 0.025000002 0 0 1 0
0.067129321 0.0062891613 0.025000002 0 0 1 0
0.070590623 0.0063215545 0.025000002 0 0 1 0
0.080457196 0.0060369377 0.025000002 0 0 1 0
0.089275569 0.0063473778 0.025000002 0 0 1 0
0.090052024 0.0067717498 0.025000002 0 0 1 0
0.094904527 0.0066255028 0.025000002 0 0 1 0
0.14073004 0.0061922194 0.025000002 0 0 1 0
0.14497203 0.0065741478 0.025000002 0 0 1 0
0.14522356 0.0063315178 0.025000002 0 0 1 0
0.1667226 0.006348758 0.025000002 0 0 1 0
0.17180821 0.0060551595 0.025000002 0 0 1 0
0.18026718 0.0063597052 0.025000002 0 0 1 0
0.18899119 0.0064591612 0.025000002 0 0 1 0
0.19158407 0.0067239325 0.025000002 0 0 1 0
0.22856101 0.0064247553 0.025000002 0 0 1 0
0.23304886 0.0062482958 0.025000002 0 0 1 0
0.056984525 0.0074908868 0.025000002 0 0 1 0
0.06112127 0.0078604091 0.025000002 0 0 1 0
0.06383805 0.0072842357 0.025000002 0 0 1 0
0.078221194 0.0074217021 0.025000002 0 0 1 0
0.16487791 0.0078931684 0.025000002 0 0 1 0
0.17332879 0.0071879444 0.025000002 0 0 1 0
0.179285 0.0076102628 0.025000002 0 0 1 0
0.19156075 0.0078688888 0.025000002 0 0 1 0
0.20318407 0.0074181138 0.025000002 0 0 1 0
0.20412913 0.0074409251 0.025000002 0 0 1 0
0.20619237 0.0071814731 0.025000002 0 0 1 0
0.23166104 0.0074585099 0.025000002 0 0 1 0
0.053177934 0.0088115418 0.025000002 0 0 1 0
0.0770294 0.0087953266 0.025000002 0 0 1 0
0.07861346 0.008881948 0.025000002 0 0 1 0
0.080931306 0.008911659 0.025000002 0 0 1 0
0.085749201 0.0082523329 0.025000002 0 0 1 0
0.089253724 0.0089681065 0.025000002 0 0 1 0
0.16065912 0.008077723 0.025000002 0 0 1 0
0.17350493 0.0086021312 0.025000002 0 0 1 0
0.17506072 0.0081319166 0.025000002 0 0 1 0
0.17730843 0.0088839 0.025000002 0 0 1 0
0.22891068 0.0089012394 0.025000002 0 0 1 0
0.23196401 0.0082043447 0.025000002 0 0 1 0
0.23284748 0.008632319 0.025000002 0 0 1 0
0.047679823 0.009977527 0.025000002 0 0 1 0
0.056122757 0.0098330239 0.025000002 0 0 1 0
0.066660739 0.0091076987 0.025000002 0 0 1 0
0.074021891 0.0096799042 0.025000002 0 0 1 0
0.075217225 0.009452235 0.025000002 0 0 1 0
0.078448571 0.0094683692 0.025000002 0 0 1 0
0.088723175 0.0094717089 0.025000002 0 0 1 0
0.15933713 0.0096301083 0.025000002 0 0 1 0
0.16613612 0.009907444 0.025000002 0 0 1 0
0.17552002 0.009152214 0.025000002 0 0 1 0
0.1852452 0.009050291 0.025000002 0 0 1 0
0.20439395 0.0095150294 0.025000002 0 0 1 0
0.2092482 0.0093734097 0.025000002 0 0 1 0
0.21670967 0.0093079358 0.025000002 0 0 1 0
0.24360375 0.0095247636 0.025000002 0 0 1 0
0.24719118 0.0091419667 0.025000002 0 0 1 0
0.066990465 0.010261504 0.025000002 0 0 1 0
0.091961093 0.010047587 0.025000002 0 0 1 0
0.13664836 0.010198897 0.025000002 0 0 1 0
0.15070842 0.010938889 0.025000002 0 0 1 0
0.16589968 0.01031242 0.025000002 0 0 1 0
0.16937064 0.010767438 0.025000002 0 0 1 0
0.17033307 0.010372361 0.025000002 0 0 1 0
0.17750564 0.010449197 0.025000002 0 0 1 0
0.18735321 0.010806245 0.025000002 0 0 1 0
0.19128418 0.010035714 0.025000002 0 0 1 0
0.19965467 0.010693165 0.025000002 0 0 1 0
0.21239074 0.010071312 0.025000002 0 0 1 0
0.22545199 0.010626679 0.025000002 0 0 1 0
0.23878747 0.010712374 0.025000002 0 0 1 0
0.056747198 0.011452893 0.025000002 0 0 1 0
0.065294288 0.011425042 0.025000002 0 0 1 0
0.069918863 0.011504955 0.025000002 0 0 1 0
0.082608558 0.01173664 0.025000002 0 0 1 0
0.088786013 0.011478625 0.025000002 0 0 1 0
0.089780338 0.011129154 0.025000002 0 0 1 0
0.090952002 0.011761291 0.025000002 0 0 1 0
0.099123925 0.011259077 0.025000002 0 0 1 0
0.15760498 0.01128354 0.025000002 0 0 1 0
0.15884653 0.011463017 0.025000002 0 0 1 0
0.16890924 0.011809275 0.025000002 0 0 1 0
0.17091857 0.011345649 0.025000002 0 0 1 0
0.17172228 0.011069305 0.025000002 0 0 1 0
0.18286224 0.011139468 0.025000002 0 0 1 0
0.20516051 0.011083021 0.025000002 0 0 1 0
0.087887779 0.012504518 0.025000002 0 0 1 0
0.091816068 0.01248889 0.025000002 0 0 1 0
0.092238873 0.012714575 0.025000002 0 0 1 0
0.098247781 0.012490128 0.025000002 0 0 1 0
0.13913651 0.012760954 0.025000002 0 0 1 0
0.15271048 0.012004041 0.025000002 0 0 1 0
0.15398477 0.012389245 0.025000002 0 0 1 0
0.16721603 0.01226345 0.025000002 0 0 1 0
0.18506379 0.012766015 0.025000002 0 0 1 0
0.20480457 0.012176313 0.025000002 0 0 1 0
0.20697556 0.012822269 0.025000002 0 0 1 0
0.20960931 0.012776245 0.025000002 0 0 1 0
0.21347113 0.012100018 0.025000002 0 0 1 0
0.24759401 0.012711021 0.025000002 0 0 1 0
0.070457101 0.013794091 0.025000002 0 0 1 0
0.085948475 0.013583419 0.025000002 0 0 1 0
0.093200296 0.013985201 0.025000002 0 0 1 0
0.099275194 0.013142292 0.025000002 0 0 1 0
0.15549363 0.013045389 0.025000002 0 0 1 0
0.18036261 0.013400405 0.025000002 0 0 1 0
0.18729243 0.013946629 0.025000002 0 0 1 0
0.20447522 0.013956436 0.025000002 0 0 1 0
0.23461501 0.013338281 0.025000002 0 0 1 0
0.24378754 0.013695922 0.025000002 0 0 1 0
0.066194206 0.014695456 0.025000002 0 0 1 0
0.071471699 0.014812913 0.025000002 0 0 1 0
0.077412307 0.014938881 0.025000002 0 0 1 0
0.094879366 0.014169378 0.025000002 0 0 1 0
0.096598841 0.014772482 0.025000002 0 0 1 0
0.15704036 0.014979203 0.025000002 0 0 1 0
0.16797604 0.014885803 0.025000002 0 0 1 0
0.16814546 0.014412199 0.025000002 0 0 1 0
0.17016789 0.014380136 0.025000002 0 0 1 0
0.17477271 0.014053933 0.025000002 0 0 1 0
0.18566741 0.014420903 0.025000002 0 0 1 0
0.19193107 0.014560318 0.025000002 0 0 1 0
0.20109504 0.014800511 0.025000002 0 0 1 0
0.20526466 0.014410354 0.025000002 0 0 1 0
0.066059321 0.015467775 0.025000002 0 0 1 0
0.087163106 0.015234091 0.025000002 0 0 1 0
0.089472309 0.015030024 0.025000002 0 0 1 0
0.090594724 0.015696606 0.025000002 0 0 1 0
0.092729226 0.015291775 0.025000002 0 0 1 0
0.13742821 0.015529544 0.025000002 0 0 1 0
0.14053507 0.015439317 0.025000002 0 0 1 0
0.16445957 0.015349824 0.025000002 0 0 1 0
0.16526166 0.015906302 0.025000002 0 0 1 0
0.16860318 0.015177968 0.025000002 0 0 1 0
0.17591435 0.015752174 0.025000002 0 0 1 0
0.17874484 0.015092942 0.025000002 0 0 1 0
0.17901526 0.015879583 0.025000002 0 0 1 0
0.2094627 0.015446316 0.025000002 0 0 1 0
0.049708068 0.016011937 0.025000002 0 0 1 0
0.056259654 0.01651527 0.025000002 0 0 1 0
0.067156814 0.016831819 0.025000002 0 0 1 0
0.070168994 0.016042324 0.025000002 0 0 1 0
0.086459234 0.016763 0.025000002 0 0 1 0
0.08948788 0.016229331 0.025000002 0 0 1 0
0.093302861 0.016370565 0.025000002 0 0 1 0
0.094042867 0.016821854 0.025000002 0 0 1 0
0.10055335 0.016874587 0.025000002 0 0 1 0
0.1345886 0.016277768 0.025000002 0 0 1 0
0.13958243 0.016739985 0.025000002 0 0 1 0
0.1631504 0.016082563 0.025000002 0 0 1 0
0.16627072 0.016672051 0.025000002 0 0 1 0
0.17973213 0.016034177 0.025000002 0 0 1 0
0.18963136 0.016259402 0.025000002 0 0 1 0
0.19236875 0.016224628 0.025000002 0 0 1 0
0.19526681 0.01684808 0.025000002 0 0 1 0
0.23793489 0.016380629 0.025000002 0 0 1 0
0.24746336 0.016464576 0.025000002 0 0 1 0
0.050051659 0.017057337 0.025000002 0 0 1 0
0.094328895 0.017138822 0.025000002 0 0 1 0
0.099934779 0.017991288 0.025000002 0 0 1 0
0.10303618 0.017248092 0.025000002 0 0 1 0
0.15431969 0.017339095 0.025000002 0 0 1 0
0.1639929 0.017612834 0.025000002 0 0 1 0
0.16895273 0.017374694 0.025000002 0 0 1 0
0.18005475 0.017070651 0.025000002 0 0 1 0
0.18631476 0.01774722 0.025000002 0 0 1 0
0.19839005 0.017254706 0.025000002 0 0 1 0
0.2016259 0.017686065 0.025000002 0 0 1 0
0.20291576 0.017041992 0.025000002 0 0 1 0
0.21522161 0.017745037 0.025000002 0 0 1 0
0.065645866 0.018907322 0.025000002 0 0 1 0
0.14193217 0.018487303 0.025000002 0 0 1 0
0.17059666 0.018700376 0.025000002 0 0 1 0
0.17399505 0.018242255 0.025000002 0 0 1 0
0.17423891 0.018469365 0.025000002 0 0 1 0
0.17769034 0.018827107 0.025000002 0 0 1 0
0.19354585 0.018976949 0.025000002 0 0 1 0
0.19841743 0.018259834 0.025000002 0 0 1 0
0.20757191 0.018713694 0.025000002 0 0 1 0
0.23166339 0.018691923 0.025000002 0 0 1 0
0.23754841 0.018652473 0.025000002 0 0 1 0
0.057474699 0.019467467 0.025000002 0 0 1 0
0.082338929 0.019843273 0.025000002 0 0 1 0
0.091325626 0.01947334 0.025000002 0 0 1 0
0.093574911 0.01970797 0.025000002 0 0 1 0
0.095203459 0.019687926 0.025000002 0 0 1 0
0.10068676 0.019432044 0.025 0 0 1 0
0.10147216 0.019800419 0.025000002 0 0 1 0
0.15179542 0.01924099 0.025000002 0 0 1 0
0.15264772 0.019953404 0.025000002 0 0 1 0
0.15454505 0.019099535 0.025000002 0 0 1 0
0.15532672 0.019168967 0.025000002 0 0 1 0
0.16151254 0.019929511 0.025000002 0 0 1 0
0.171674 0.019013457 0.025000002 0 0 1 0
0.1769079 0.019649025 0.025000002 0 0 1 0
0.17763187 0.019817349 0.025000002 0 0 1 0
0.17916092 0.019999444 0.025000002 0 0 1 0
0.18428284 0.019602366 0.025000002 0 0 1 0
0.19682977 0.019692296 0.025000002 0 0 1 0
0.21228303 0.019292129 0.025000002 0 0 1 0
0.24958818 0.019363796 0.025000002 0 0 1 0
0.057278909 0.020111423 0.025000002 0 0 1 0
0.059738863 0.020833885 0.025000002 0 0 1 0
0.060309548 0.020332893 0.025000002 0 0 1 0
0.08087413 0.020346593 0.025000002 0 0 1 0
0.091914713 0.020773817 0.025000002 0 0 1 0
0.094089203 0.020828366 0.025000002 0 0 1 0
0.098476067 0.020439969 0.025000002 0 0 1 0
0.14884189 0.020155426 0.025000002 0 0 1 0
0.16565581 0.020124707 0.025000002 0 0 1 0
0.17287862 0.020619208 0.025000002 0 0 1 0
0.17518768 0.020121543 0.025000002 0 0 1 0
0.17617984 0.020907661 0.025000002 0 0 1 0
0.17779356 0.020166485 0.025000002 0 0 1 0
0.17914537 0.020396778 0.025000002 0 0 1 0
0.18108748 0.02056355 0.025000002 0 0 1 0
0.18793744 0.020817444 0.025000002 0 0 1 0
0.18807554 0.020679826 0.025000002 0 0 1 0
0.19028182 0.020414632 0.025000002 0 0 1 0
0.2198323 0.02079537 0.025000002 0 0 1 0
0.24751243 0.020603972 0.025000002 0 0 1 0
0.061968923 0.021608455 0.025000002 0 0 1 0
0.063652426 0.021767229 0.025000002 0 0 1 0
0.068837538 0.021568047 0.025000002 0 0 1 0
0.085352898 0.021895891 0.025000002 0 0 1 0
0.095559001 0.021752875 0.025000002 0 0 1 0
0.14190124 0.021427892 0.025000002 0 0 1 0
0.1555517 0.021538774 0.025000002 0 0 1 0
0.17396151 0.021257356 0.025000002 0 0 1 0
0.1745721 0.02143058 0.025000002 0 0 1 0
0.18741548 0.021829884 0.025000002 0 0 1 0
0.1985693 0.021013809 0.025000002 0 0 1 0
0.21045408 0.021769432 0.025000002 0 0 1 0
0.21381497 0.021395426 0.025000002 0 0 1 0
0.21996851 0.021973088 0.025000002 0 0 1 0
0.22701937 0.021744955 0.025000002 0 0 1 0
0.053168822 0.022925975 0.025000002 0 0 1 0
0.063289158 0.022585245 0.025000002 0 0 1 0
0.078955419 0.022815637 0.025000002 0 0 1 0
0.10276054 0.022696285 0.025000002 0 0 1 0
0.10543232 0.022476176 0.025000002 0 0 1 0
0.14557065 0.022670869 0.025000002 0 0 1 0
0.1534407 0.022342581 0.025000002 0 0 1 0
0.16527283 0.022747805 0.025000002 0 0 1 0
0.17310293 0.02216504 0.025000002 0 0 1 0
0.18854871 0.022788176 0.025000002 0 0 1 0
0.19109303 0.022552509 0.025000002 0 0 1 0
0.19591683 0.022148233 0.025000002 0 0 1 0
0.21690586 0.022787541 0.025000002 0 0 1 0
0.22033656 0.022505021 0.025000002 0 0 1 0
0.063863344 0.023944251 0.025000002 0 0 1 0
0.082707807 0.023281321 0.025000002 0 0 1 0
0.098670617 0.023642641 0.025000002 0 0 1 0
0.15012126 0.023739375 0.025000002 0 0 1 0
0.16330396 0.023243276 0.025000002 0 0 1 0
0.18143758 0.023828946 0.025000002 0 0 1 0
0.18486278 0.023033714 0.025000002 0 0 1 0
0.19803876 0.023755003 0.025000002 0 0 1 0
0.21256784 0.023956204 0.025000002 0 0 1 0
0.21972437 0.023012243 0.025000002 0 0 1 0
0.23374502 0.023089098 0.025000002 0 0 1 0
0.098175839 0.024464248 0.025000002 0 0 1 0
0.15496501 0.024172274 0.025000002 0 0 1 0
0.16069452 0.024042048 0.025000002 0 0 1 0
0.18356279 0.024525359 0.025000002 0 0 1 0
0.18413767 0.024306109 0.025000002 0 0 1 0
0.20003019 0.024221241 0.025000002 0 0 1 0
0.20585066 0.024749041 0.025000002 0 0 1 0
0.21136108 0.024019875 0.025000002 0 0 1 0
0.21517693 0.024557 0.025000002 0 0 1 0
0.21869206 0.024067145 0.025000002 0 0 1 0
0.22748849 0.02439156 0.025000002 0 0 1 0
0.071013719 0.0255519 0.025000002 0 0 1 0
0.099908397 0.025208637 0.025000002 0 0 1 0
0.14149098 0.025439866 0.025000002 0 0 1 0
0.14317939 0.025021546 0.025000002 0 0 1 0
0.15129322 0.025786594 0.025000002 0 0 1 0
0.17211615 0.025054872 0.025000002 0 0 1 0
0.18102914 0.025886046 0.025000002 0 0 1 0
0.1943724 0.025419068 0.025000002 0 0 1 0
0.21954371 0.025039556 0.025000002 0 0 1 0
0.22407024 0.025876038 0.025000002 0 0 1 0
0.23265117 0.025123199 0.025000002 0 0 1 0
0.24352731 0.02590595 0.025000002 0 0 1 0
0.24746063 0.025770079 0.025000002 0 0 1 0
0.074458659 0.026105948 0.025000002 0 0 1 0
0.1602301 0.026252568 0.025000002 0 0 1 0
0.17535035 0.026337901 0.025000002 0 0 1 0
0.17733632 0.026953517 0.025000002 0 0 1 0
0.18415953 0.02635552 0.025000002 0 0 1 0
0.18549386 0.02627201 0.025000002 0 0 1 0
0.19084746 0.026802437 0.025000002 0 0 1 0
0.1948835 0.026960678 0.025000002 0 0 1 0
0.21445431 0.026760008 0.025000002 0 0 1 0
0.22129577 0.026796188 0.025000002 0 0 1 0
0.24010961 0.026474943 0.025000002 0 0 1 0
0.24918516 0.026335752 0.025000002 0 0 1 0
0.071546182 0.027251631 0.025000002 0 0 1 0
0.072000884 0.027501265 0.025000002 0 0 1 0
0.10226935 0.027928676 0.025000002 0 0 1 0
0.14260255 0.027740318 0.025000002 0 0 1 0
0.15412869 0.027634472 0.025000002 0 0 1 0
0.15657015 0.027061118 0.025000002 0 0 1 0
0.15975168 0.027007526 0.025000002 0 0 1 0
0.16059354 0.027036367 0.025000002 0 0 1 0
0.1633279 0.027996615 0.025000002 0 0 1 0
0.16957164 0.027390562 0.025000002 0 0 1 0
0.17052305 0.027695527 0.025000002 0 0 1 0
0.17495868 0.027881784 0.025000002 0 0 1 0
0.17927369 0.027544072 0.025000002 0 0 1 0
0.19270505 0.027998636 0.025000002 0 0 1 0
0.19740307 0.027333271 0.025000002 0 0 1 0
0.19827715 0.027736802 0.025000002 0 0 1 0
0.20209555 0.027325891 0.025000002 0 0 1 0
0.20699276 0.027378064 0.025000002 0 0 1 0
0.20725241 0.027350061 0.025000002 0 0 1 0
0.21699293 0.027472172 0.025000002 0 0 1 0
0.22537379 0.027845951 0.025000002 0 0 1 0
0.057300817 0.028635766 0.025000002 0 0 1 0
0.058097832 0.028157918 0.025000002 0 0 1 0
0.059238825 0.028760079 0.025000002 0 0 1 0
0.063983724 0.028740065 0.025000002 0 0 1 0
0.075660601 0.028398002 0.025000002 0 0 1 0
0.078237623 0.028429687 0.025000002 0 0 1 0
0.10238096 0.028770968 0.025000002 0 0 1 0
0.17057779 0.028012462 0.025000002 0 0 1 0
0.17208537 0.028097572 0.025000002 0 0 1 0
0.18566081 0.028041083 0.025000002 0 0 1 0
0.21593213 0.028963933 0.025000002 0 0 1 0
0.23360121 0.028590515 0.025000002 0 0 1 0
0.23755278 0.028279694 0.025000002 0 0 1 0
0.063131541 0.029457364 0.025000002 0 0 1 0
0.07846649 0.029409004 0.025000002 0 0 1 0
0.095493749 0.029440515 0.025000002 0 0 1 0
0.099823594 0.029209603 0.025000002 0 0 1 0
0.14386009 0.029407868 0.025000002 0 0 1 0
0.1511537 0.029207435 0.025000002 0 0 1 0
0.1529507 0.02939578 0.025000002 0 0 1 0
0.16621676 0.029693086 0.025000002 0 0 1 0
0.17194615 0.029769519 0.025000002 0 0 1 0
0.1774669 0.029260337 0.025000002 0 0 1 0
0.18175548 0.029866831 0.025000002 0 0 1 0
0.18418205 0.029921059 0.025000002 0 0 1 0
0.19436303 0.029616231 0.025000002 0 0 1 0
0.21854271 0.029878929 0.025000002 0 0 1 0
0.10373943 0.030133288 0.025000002 0 0 1 0
0.1545153 0.030307025 0.025000002 0 0 1 0
0.15773505 0.030422995 0.025000002 0 0 1 0
0.16808864 0.030816311 0.025000002 0 0 1 0
0.17023182 0.030153394 0.025000002 0 0 1 0
0.18160132 0.030006487 0.025000002 0 0 1 0
0.18305641 0.030284036 0.025000002 0 0 1 0
0.18448448 0.030661242 0.025000002 0 0 1 0
0.21007428 0.030271923 0.025000002 0 0 1 0
0.22925414 0.030656047 0.025000002 0 0 1 0
0.065016218 0.031045895 0.025000002 0 0 1 0
0.082293466 0.031179177 0.025000002 0 0 1 0
0.089140862 0.031479143 0.025000002 0 0 1 0
0.091889888 0.031206787 0.025000002 0 0 1 0
0.15192607 0.031948693 0.025000002 0 0 1 0
0.17760077 0.031324461 0.025000002 0 0 1 0
0.19537005 0.031504732 0.025000002 0 0 1 0
0.19986103 0.031366944 0.025000002 0 0 1 0
0.20252217 0.031225838 0.025000002 0 0 1 0
0.2110938 0.031800453 0.025000002 0 0 1 0
0.21916708 0.031188864 0.025000002 0 0 1 0
0.24624763 0.031710472 0.025000002 0 0 1 0
0.06044912 0.032211348 0.025000002 0 0 1 0
0.093838669 0.032109886 0.025000002 0 0 1 0
0.10247845 0.032317441 0.025000002 0 0 1 0
0.10423376 0.032537062 0.025000002 0 0 1 0
0.10507882 0.032590259 0.025000002 0 0 1 0
0.14973001 0.03206332 0.025000002 0 0 1 0
0.15431067 0.03281948 0.025000002 0 0 1 0
0.15552662 0.032101814 0.025000002 0 0 1 0
0.15936533 0.032741118 0.025000002 0 0 1 0
0.1762426 0.032159977 0.025000002 0 0 1 0
0.17915697 0.032487266 0.025000002 0 0 1 0
0.18263653 0.032706179 0.025000002 0 0 1 0
0.19299363 0.032771084 0.025000002 0 0 1 0
0.2135454 0.032711864 0.025000002 0 0 1 0
0.21580292 0.032262009 0.025000002 0 0 1 0
0.22125043 0.0326075 0.025000002 0 0 1 0
0.22608747 0.032981873 0.025000002 0 0 1 0
0.2296883 0.032320771 0.025000002 0 0 1 0
0.066780649 0.033091042 0.025000002 0 0 1 0
0.10639004 0.033935014 0.025000002 0 0 1 0
0.10838587 0.033494402 0.025000002 0 0 1 0
0.10984 0.033428166 0.025000002 0 0 1 0
0.1457521 0.03368935 0.025000002 0 0 1 0
0.14826578 0.033486448 0.025000002 0 0 1 0
0.15746073 0.03397008 0.025000002 0 0 1 0
0.17523628 0.033497464 0.025000002 0 0 1 0
0.17746523 0.033888035 0.025000002 0 0 1 0
0.17871889 0.033871889 0.025000002 0 0 1 0
0.18680811 0.033450555 0.025000002 0 0 1 0
0.19087355 0.033521928 0.025000002 0 0 1 0
0.2243938 0.033830725 0.025000002 0 0 1 0
0.091908835 0.034382693 0.025000002 0 0 1 0
0.095573239 0.034108452 0.025000002 0 0 1 0
0.10090657 0.034321591 0.025000002 0 0 1 0
0.10346864 0.034090478 0.025000002 0 0 1 0
0.11080178 0.034096673 0.025000002 0 0 1 0
0.111954 0.034646362 0.025000002 0 0 1 0
0.15530819 0.034632824 0.025000002 0 0 1 0
0.15720564 0.034330737 0.025000002 0 0 1 0
0.16159153 0.034040187 0.025000002 0 0 1 0
0.16427994 0.034822706 0.025000002 0 0 1 0
0.16726667 0.034710135 0.025000002 0 0 1 0
0.17085794 0.034000542 0.025000002 0 0 1 0
0.17411649 0.034481119 0.025000002 0 0 1 0
0.18002711 0.034859657 0.025000002 0 0 1 0
0.1811713 0.034070335 0.025000002 0 0 1 0
0.18709567 0.034344207 0.025000002 0 0 1 0
0.19302826 0.034196135 0.025000002 0 0 1 0
0.19632182 0.034900017 0.025000002 0 0 1 0
0.20228708 0.034561291 0.025000002 0 0 1 0
0.22252078 0.034241248 0.025000002 0 0 1 0
0.064227633 0.035371561 0.025000002 0 0 1 0
0.091924205 0.035194248 0.025000002 0 0 1 0
0.099163234 0.035759483 0.025000002 0 0 1 0
0.10932051 0.035628632 0.025000002 0 0 1 0
0.1421175 0.035182916 0.025000002 0 0 1 0
0.14543346 0.035911862 0.025000002 0 0 1 0
0.14945652 0.035069056 0.025000002 0 0 1 0
0.15631115 0.035523977 0.025000002 0 0 1 0
0.18225025 0.035074502 0.025000002 0 0 1 0
0.18374793 0.035681732 0.025000002 0 0 1 0
0.21085517 0.035699699 0.025000002 0 0 1 0
0.21209112 0.035881668 0.025000002 0 0 1 0
0.21431935 0.035666812 0.025000002 0 0 1 0
0.21902721 0.035685878 0.025000002 0 0 1 0
0.2322572 0.035395574 0.025000002 0 0 1 0
0.24153508 0.035379574 0.025000002 0 0 1 0
0.24589381 0.035333827 0.025000002 0 0 1 0
0.24796525 0.035987429 0.025000002 0 0 1 0
0.063310698 0.036314167 0.025000002 0 0 1 0
0.14912219 0.036973275 0.025000002 0 0 1 0
0.17591102 0.036454722 0.025000002 0 0 1 0
0.17651957 0.036710721 0.025000002 0 0 1 0
0.18666697 0.036374986 0.025000002 0 0 1 0
0.21143603 0.036589604 0.025000002 0 0 1 0
0.066897355 0.037613105 0.025000002 0 0 1 0
0.072009586 0.03751839 0.025000002 0 0 1 0
0.073074803 0.037552979 0.025000002 0 0 1 0
0.07581798 0.037260558 0.025000002 0 0 1 0
0.077006124 0.037933502 0.025000002 0 0 1 0
0.094878055 0.037855484 0.025000002 0 0 1 0
0.11068599 0.037804738 0.025000002 0 0 1 0
0.11259819 0.037052386 0.025000002 0 0 1 0
0.13046989 0.037845645 0.025000002 0 0 1 0
0.13938481 0.037403412 0.025000002 0 0 1 0
0.140029 0.037638493 0.025000002 0 0 1 0
0.15611985 0.037233703 0.025000002 0 0 1 0
0.15709506 0.037227541 0.025000002 0 0 1 0
0.17276579 0.037028454 0.025000002 0 0 1 0
0.17364524 0.037568115 0.025000002 0 0 1 0
0.18565436 0.037506443 0.025000002 0 0 1 0
0.19406769 0.037983928 0.025000002 0 0 1 0
0.21516801 0.037260678 0.025000002 0 0 1 0
0.22921987 0.037083037 0.025000002 0 0 1 0
0.23675866 0.037048701 0.025000002 0 0 1 0
0.099054083 0.038024921 0.025000002 0 0 1 0
0.11554271 0.038478434 0.025000002 0 0 1 0
0.13830227 0.038299657 0.025000002 0 0 1 0
0.15040365 0.0384688 0.025000002 0 0 1 0
0.15882027 0.038004309 0.025000002 0 0 1 0
0.16494194 0.038750473 0.025000002 0 0 1 0
0.17620632 0.038935047 0.025000002 0 0 1 0
0.1810109 0.038068652 0.025000002 0 0 1 0
0.1862309 0.038188476 0.025000002 0 0 1 0
0.18838364 0.038033076 0.025000002 0 0 1 0
0.20255388 0.038522057 0.025000002 0 0 1 0
0.21602497 0.038009044 0.025000002 0 0 1 0
0.21774623 0.038285322 0.025000002 0 0 1 0
0.21966936 0.038736247 0.025000002 0 0 1 0
0.23987108 0.038372695 0.025000002 0 0 1 0
0.24872506 0.038314678 0.025000002 0 0 1 0
0.067314699 0.039721809 0.025000002 0 0 1 0
0.10848936 0.039518982 0.025000002 0 0 1 0
0.10950051 0.039728314 0.025000002 0 0 1 0
0.1472871 0.039501376 0.025000002 0 0 1 0
0.17896211 0.039851744 0.025000002 0 0 1 0
0.18201709 0.03918279 0.025000002 0 0 1 0
0.19698767 0.039838508 0.025000002 0 0 1 0
0.19734082 0.03998905 0.025000002 0 0 1 0
0.19814591 0.03955524 0.025000002 0 0 1 0
0.21035418 0.039059795 0.025000002 0 0 1 0
0.2208533 0.039273076 0.025000002 0 0 1 0
0.23316425 0.039605021 0.025000002 0 0 1 0
0.075253077 0.040454924 0.025000002 0 0 1 0
0.080822706 0.040273715 0.025000002 0 0 1 0
0.081707515 0.040291406 0.025000002 0 0 1 0
0.08934024 0.04032404 0.025000002 0 0 1 0
0.0902256 0.040788524 0.025000002 0 0 1 0
0.095500082 0.04026236 0.025000002 0 0 1 0
0.11017577 0.040701184 0.025000002 0 0 1 0
0.13279121 0.040224232 0.025000002 0 0 1 0
0.15990111 0.040145289 0.025000002 0 0 1 0
0.16342232 0.040498801 0.025000002 0 0 1 0
0.18003094 0.040800232 0.025000002 0 0 1 0
0.18547066 0.040455092 0.025000002 0 0 1 0
0.18805222 0.040092129 0.025000002 0 0 1 0
0.21881728 0.040844034 0.025000002 0 0 1 0
0.2209806 0.040961776 0.025000002 0 0 1 0
0.22263417 0.040004715 0.025000002 0 0 1 0
0.22982188 0.04003647 0.025000002 0 0 1 0
0.081413358 0.04150733 0.025000002 0 0 1 0
0.10970274 0.041340861 0.025000002 0 0 1 0
0.1249188 0.041864645 0.025000002 0 0 1 0
0.13360099 0.041659564 0.025000002 0 0 1 0
0.16635141 0.04171519 0.025000002 0 0 1 0
0.1694952 0.041464143 0.025000002 0 0 1 0
0.17011128 0.041077297 0.025000002 0 0 1 0
0.18118359 0.041727535 0.025000002 0 0 1 0
0.1865743 0.041436352 0.025000002 0 0 1 0
0.1947774 0.041973308 0.025000002 0 0 1 0
0.19547021 0.041621596 0.025000002 0 0 1 0
0.19697009 0.041229088 0.025000002 0 0 1 0
0.19993745 0.041252542 0.025000002 0 0 1 0
0.20450874 0.041166633 0.025000002 0 0 1 0
0.23255512 0.0410324 0.025000002 0 0 1 0
0.24117123 0.041515682 0.025000002 0 0 1 0
0.064256102 0.042237546 0.025000002 0 0 1 0
0.06681186 0.042638529 0.025000002 0 0 1 0
0.071012758 0.042288497 0.025000002 0 0 1 0
0.073467389 0.042395718 0.025000002 0 0 1 0
0.098446906 0.042807415 0.025000002 0 0 1 0
0.10353993 0.04215996 0.025000002 0 0 1 0
0.14800569 0.042385157 0.025000002 0 0 1 0
0.15569441 0.04254882 0.025000002 0 0 1 0
0.17645822 0.042496677 0.025000002 0 0 1 0
0.1774016 0.042844821 0.025000002 0 0 1 0
0.18021004 0.042467568 0.025000002 0 0 1 0
0.19139229 0.042581517 0.025000002 0 0 1 0
0.21291716 0.04282983 0.025000002 0 0 1 0
0.22581807 0.042005885 0.025000002 0 0 1 0
0.083916321 0.043824218 0.025000002 0 0 1 0
0.10391896 0.043042842 0.025000002 0 0 1 0
0.10755263 0.043305531 0.025000002 0 0 1 0
0.10822113 0.043940224 0.025000002 0 0 1 0
0.11637771 0.043882713 0.025000002 0 0 1 0
0.13189432 0.043755308 0.025000002 0 0 1 0
0.13804182 0.043892246 0.025000002 0 0 1 0
0.15607233 0.043141946 0.025000002 0 0 1 0
0.15967065 0.043870471 0.025000002 0 0 1 0
0.16884203 0.043896727 0.025000002 0 0 1 0
0.17399938 0.043364622 0.025000002 0 0 1 0
0.18326971 0.043230139 0.025000002 0 0 1 0
0.1945195 0.043640088 0.025000002 0 0 1 0
0.1972996 0.043567047 0.025000002 0 0 1 0
0.19956571 0.04393781 0.025000002 0 0 1 0
0.20440067 0.043854974 0.025000002 0 0 1 0
0.21351777 0.043973476 0.025000002 0 0 1 0
0.21935005 0.043747988 0.025000002 0 0 1 0
0.22791569 0.043066319 0.025000002 0 0 1 0
0.23154879 0.043785632 0.025000002 0 0 1 0
0.23602259 0.043449901 0.025000002 0 0 1 0
0.24743725 0.043880574 0.025000002 0 0 1 0
0.092885807 0.044732679 0.025000002 0 0 1 0
0.10373504 0.044280611 0.025000002 0 0 1 0
0.10595781 0.04490928 0.025000002 0 0 1 0
0.11369859 0.044360474 0.025000002 0 0 1 0
0.12069026 0.044181056 0.025000002 0 0 1 0
0.12650806 0.044157814 0.025000002 0 0 1 0
0.15458745 0.044981804 0.025000002 0 0 1 0
0.15975586 0.044887196 0.025000002 0 0 1 0
0.1719119 0.044546984 0.025000002 0 0 1 0
0.20370343 0.044364862 0.025000002 0 0 1 0
0.21784714 0.044275515 0.025000002 0 0 1 0
0.24125224 0.044561889 0.025000002 0 0 1 0
0.066923708 0.045060039 0.025000002 0 0 1 0
0.078849047 0.045289438 0.025000002 0 0 1 0
0.08268562 0.045948405 0.025000002 0 0 1 0
0.10687074 0.045947384 0.025000002 0 0 1 0
0.11072924 0.045283571 0.025000002 0 0 1 0
0.11624742 0.045928609 0.025000002 0 0 1 0
0.11967441 0.045398772 0.025000002 0 0 1 0
0.12951532 0.045715291 0.025000002 0 0 1 0
0.13538168 0.045104541 0.025000002 0 0 1 0
0.14530873 0.04541444 0.025000002 0 0 1 0
0.16400908 0.045124404 0.025000002 0 0 1 0
0.16737185 0.045260865 0.025000002 0 0 1 0
0.17392665 0.04502926 0.025000002 0 0 1 0
0.19569002 0.045661274 0.025000002 0 0 1 0
0.20638797 0.045080133 0.025000002 0 0 1 0
0.24488151 0.0459667 0.025000002 0 0 1 0
0.24555628 0.045350198 0.025000002 0 0 1 0
0.081205033 0.046220966 0.025000002 0 0 1 0
0.083453268 0.046736762 0.025000002 0 0 1 0
0.10980808 0.046619251 0.025000002 0 0 1 0
0.11114641 0.046692692 0.025000002 0 0 1 0
0.14000107 0.046360172 0.025000002 0 0 1 0
0.15761425 0.046888195 0.025000002 0 0 1 0
0.16276263 0.046766303 0.025000002 0 0 1 0
0.16776529 0.046739601 0.025000002 0 0 1 0
0.18014674 0.046112288 0.025000002 0 0 1 0
0.18647622 0.046393204 0.025000002 0 0 1 0
0.19078343 0.046246268 0.025000002 0 0 1 0
0.19399449 0.046560876 0.025000002 0 0 1 0
0.19686113 0.046644814 0.025000002 0 0 1 0
0.20427319 0.04651076 0.025000002 0 0 1 0
0.22951405 0.046105564 0.025000002 0 0 1 0
0.083427303 0.047111098 0.025000002 0 0 1 0
0.088096373 0.04731556 0.025000002 0 0 1 0
0.107735 0.047817126 0.025000002 0 0 1 0
0.12459495 0.047708426 0.025000002 0 0 1 0
0.12501249 0.047727235 0.025000002 0 0 1 0
0.13465935 0.047560491 0.025000002 0 0 1 0
0.15294778 0.047277167 0.025000002 0 0 1 0
0.1582385 0.047418654 0.025000002 0 0 1 0
0.16896908 0.047672883 0.025000002 0 0 1 0
0.17160049 0.047581874 0.025000002 0 0 1 0
0.18643662 0.047490295 0.025000002 0 0 1 0
0.18887043 0.047468487 0.025000002 0 0 1 0
0.19524771 0.047446016 0.025000002 0 0 1 0
0.21613592 0.047649655 0.025000002 0 0 1 0
0.21875727 0.047844604 0.025000002 0 0 1 0
0.22185415 0.047821142 0.025000002 0 0 1 0
0.22463267 0.047600333 0.025000002 0 0 1 0
0.23833145 0.047028102 0.025000002 0 0 1 0
0.069070473 0.04837377 0.025000002 0 0 1 0
0.084553093 0.048086897 0.025000002 0 0 1 0
0.12560022 0.048612569 0.025000002 0 0 1 0
0.16499244 0.0481508 0.025000002 0 0 1 0
0.17527406 0.048238717 0.025000002 0 0 1 0
0.18439195 0.048844751 0.025000002 0 0 1 0
0.2009158 0.048442286 0.025000002 0 0 1 0
0.20376223 0.048174426 0.025000002 0 0 1 0
0.21504471 0.048747849 0.025000002 0 0 1 0
0.22780943 0.048537433 0.025000002 0 0 1 0
0.073555872 0.049504828 0.025000002 0 0 1 0
0.08001104 0.049932789 0.025000002 0 0 1 0
0.095205978 0.049655784 0.025000002 0 0 1 0
0.11237049 0.049285948 0.025000002 0 0 1 0
0.1140122 0.049293146 0.025000002 0 0 1 0
0.11537874 0.049077753 0.025000002 0 0 1 0
0.14489108 0.049712386 0.025000002 0 0 1 0
0.14915846 0.049434852 0.025000002 0 0 1 0
0.15753298 0.049138073 0.025000002 0 0 1 0
0.16685893 0.049731094 0.025000002 0 0 1 0
0.18821543 0.049306192 0.025000002 0 0 1 0
0.20574276 0.049933247 0.025000002 0 0 1 0
0.2134553 0.049756806 0.025000002 0 0 1 0
0.22686727 0.049818542 0.025000002 0 0 1 0
0.23850687 0.049730763 0.025000002 0 0 1 0
0.093335547 0.050210893 0.025000002 0 0 1 0
0.10395178 0.050750528 0.025000002 0 0 1 0
0.10896942 0.050568599 0.025000002 0 0 1 0
0.11759788 0.050729107 0.025000002 0 0 1 0
0.12087514 0.05046967 0.025000002 0 0 1 0
0.12971319 0.050357267 0.025000002 0 0 1 0
0.15023322 0.050241787 0.025000002 0 0 1 0
0.15642042 0.050278578 0.025000002 0 0 1 0
0.15764646 0.050693356 0.025000002 0 0 1 0
0.17952648 0.050692875 0.025000002 0 0 1 0
0.18126684 0.050303292 0.025000002 0 0 1 0
0.19066662 0.05004251 0.025000002 0 0 1 0
0.19968672 0.05047895 0.025000002 0 0 1 0
0.20554292 0.050023165 0.025000002 0 0 1 0
0.21585798 0.050229948 0.025000002 0 0 1 0
0.22079013 0.05020678 0.025000002 0 0 1 0
0.098777182 0.051905837 0.025000002 0 0 1 0
0.10072255 0.051933408 0.025000002 0 0 1 0
0.10860241 0.051313475 0.025000002 0 0 1 0
0.1125923 0.051030461 0.025000002 0 0 1 0
0.11304791 0.05115496 0.025000002 0 0 1 0
0.11600533 0.051772676 0.025000002 0 0 1 0
0.12306526 0.051287297 0.025000002 0 0 1 0
0.12414025 0.051384512 0.025000002 0 0 1 0
0.14107455 0.051734231 0.025000002 0 0 1 0
0.16280627 0.051188022 0.025000002 0 0 1 0
0.16330047 0.051284965 0.025000002 0 0 1 0
0.17447384 0.051043347 0.025000002 0 0 1 0
0.18979508 0.051721249 0.025000002 0 0 1 0
0.19061938 0.051845141 0.025000002 0 0 1 0
0.19826205 0.0515812 0.025000002 0 0 1 0
0.073644251 0.052682631 0.025000002 0 0 1 0
0.096990861 0.052724492 0.025000002 0 0 1 0
0.10420209 0.052356526 0.025000002 0 0 1 0
0.11930371 0.052725684 0.025000002 0 0 1 0
0.12969933 0.052575182 0.025000002 0 0 1 0
0.14401473 0.052737329 0.025000002 0 0 1 0
0.15492243 0.052496996 0.025000002 0 0 1 0
0.15640558 0.052135158 0.025000002 0 0 1 0
0.15826552 0.052105468 0.025000002 0 0 1 0
0.16558003 0.052128915 0.025000002 0 0 1 0
0.16676001 0.052225687 0.025000002 0 0 1 0
0.19601052 0.052145619 0.025000002 0 0 1 0
0.19725741 0.052392799 0.025000002 0 0 1 0
0.20280369 0.052752659 0.025000002 0 0 1 0
0.2123957 0.052085377 0.025000002 0 0 1 0
0.22770308 0.052485622 0.025000002 0 0 1 0
0.22974512 0.052755039 0.025000002 0 0 1 0
0.23784362 0.052896421 0.025000002 0 0 1 0
0.24804446 0.052148893 0.025000002 0 0 1 0
0.071078077 0.053297613 0.025000002 0 0 1 0
0.080429867 0.053675912 0.025000002 0 0 1 0
0.10194567 0.05349125 0.025000002 0 0 1 0
0.10655339 0.053762794 0.025000002 0 0 1 0
0.11469467 0.053011037 0.025000002 0 0 1 0
0.11958992 0.053215597 0.025000002 0 0 1 0
0.12139085 0.053417761 0.025000002 0 0 1 0
0.14621364 0.053062867 0.025000002 0 0 1 0
0.15219758 0.053572137 0.025000002 0 0 1 0
0.1631048 0.053406075 0.025000002 0 0 1 0
0.18293566 0.053025041 0.025000002 0 0 1 0
0.1842142 0.053577371 0.025000002 0 0 1 0
0.19380717 0.053295966 0.025000002 0 0 1 0
0.19935814 0.053637657 0.025000002 0 0 1 0
0.20767 0.053472366 0.025000002 0 0 1 0
0.21838787 0.053438727 0.025000002 0 0 1 0
0.23361638 0.05313284 0.025000002 0 0 1 0
0.23559622 0.053265966 0.025000002 0 0 1 0
0.076343611 0.05427932 0.025000002 0 0 1 0
0.082338512 0.054131664 0.025000002 0 0 1 0
0.084992155 0.054697029 0.025000002 0 0 1 0
0.086336508 0.054346129 0.025000002 0 0 1 0
0.11046533 0.054862097 0.025000002 0 0 1 0
0.13072613 0.05494244 0.025000002 0 0 1 0
0.13176961 0.054759849 0.025000002 0 0 1 0
0.13642162 0.054402184 0.025000002 0 0 1 0
0.16838118 0.054835934 0.025000002 0 0 1 0
0.17032635 0.054102052 0.025000002 0 0 1 0
0.18014279 0.054013085 0.025000002 0 0 1 0
0.24154441 0.054781992 0.025000002 0 0 1 0
0.079732582 0.055728015 0.025000002 0 0 1 0
0.085852772 0.055497773 0.025000002 0 0 1 0
0.088292435 0.055909649 0.025000002 0 0 1 0
0.08915478 0.055358447 0.025000002 0 0 1 0
0.098123863 0.055769686 0.025000002 0 0 1 0
0.12187605 0.055081345 0.025000002 0 0 1 0
0.12559018 0.055644862 0.025000002 0 0 1 0
0.12648453 0.055693608 0.025000002 0 0 1 0
0.14802688 0.055596128 0.025000002 0 0 1 0
0.15161732 0.055173032 0.025000002 0 0 1 0
0.15384169 0.055425961 0.025000002 0 0 1 0
0.15504134 0.05562067 0.025000002 0 0 1 0
0.15903796 0.055151783 0.025000002 0 0 1 0
0.16982423 0.055303585 0.025000002 0 0 1 0
0.19454499 0.055218164 0.025000002 0 0 1 0
0.2081987 0.055113651 0.025000002 0 0 1 0
0.21769413 0.055901043 0.025000002 0 0 1 0
0.22832702 0.055662204 0.025000002 0 0 1 0
0.23388155 0.05595636 0.025000002 0 0 1 0
0.2359322 0.055027995 0.025000002 0 0 1 0
0.094071433 0.056944348 0.025000002 0 0 1 0
0.11454791 0.056173109 0.025000002 0 0 1 0
0.1150226 0.056981158 0.025000002 0 0 1 0
0.12186679 0.056990452 0.025000002 0 0 1 0
0.14314249 0.05656739 0.025000002 0 0 1 0
0.16016912 0.056656733 0.025000002 0 0 1 0
0.16178448 0.056287669 0.025000002 0 0 1 0
0.16576973 0.056118637 0.025000002 0 0 1 0
0.18610589 0.056577571 0.025000002 0 0 1 0
0.19731607 0.056995802 0.025000002 0 0 1 0
0.20124623 0.05606937 0.025000002 0 0 1 0
0.20405 0.056757741 0.025000002 0 0 1 0
0.21479104 0.056946278 0.025000002 0 0 1 0
0.22496913 0.05644194 0.025000002 0 0 1 0
0.23031543 0.05639011 0.025000002 0 0 1 0
0.23212938 0.056982677 0.025000002 0 0 1 0
0.072374776 0.057560831 0.025000002 0 0 1 0
0.077651739 0.057685517 0.025000002 0 0 1 0
0.085318953 0.057197928 0.025000002 0 0 1 0
0.089988679 0.057567827 0.025000002 0 0 1 0
0.091257572 0.05765333 0.025000002 0 0 1 0
0.10781592 0.057874043 0.025000002 0 0 1 0
0.11572524 0.0579312 0.025000002 0 0 1 0
0.12150072 0.057394549 0.025000002 0 0 1 0
0.12705359 0.057890736 0.025000002 0 0 1 0
0.13619685 0.057565924 0.025000002 0 0 1 0
0.14277479 0.057960406 0.025000002 0 0 1 0
0.16301429 0.057234757 0.025000002 0 0 1 0
0.18312921 0.057922497 0.025000002 0 0 1 0
0.1871935 0.057291832 0.025000002 0 0 1 0
0.20158026 0.057973735 0.025000002 0 0 1 0
0.21140808 0.057926733 0.025000002 0 0 1 0
0.21692395 0.057558861 0.025000002 0 0 1 0
0.22501963 0.057415038 0.025000002 0 0 1 0
0.22926278 0.057729855 0.025000002 0 0 1 0
0.23303041 0.05756522 0.025000002 0 0 1 0
0.074111581 0.058300175 0.025000002 0 0 1 0
0.093347281 0.058816228 0.025000002 0 0 1 0
0.10029611 0.058226932 0.025000002 0 0 1 0
0.1053224 0.058176361 0.025000002 0 0 1 0
0.11725016 0.058803916 0.025000002 0 0 1 0
0.11885098 0.058240846 0.025000002 0 0 1 0
0.12036787 0.058450159 0.025000002 0 0 1 0
0.12125732 0.058631469 0.025000002 0 0 1 0
0.1256443 0.058801632 0.025000002 0 0 1 0
0.13649344 0.058178253 0.025000002 0 0 1 0
0.13786536 0.058614686 0.025000002 0 0 1 0
0.15286721 0.058922395 0.025000002 0 0 1 0
0.16645367 0.058509234 0.025000002 0 0 1 0
0.16752958 0.058349356 0.025000002 0 0 1 0
0.18862152 0.058992255 0.025000002 0 0 1 0
0.19256836 0.058504589 0.025000002 0 0 1 0
0.19880611 0.058457837 0.025000002 0 0 1 0
0.20177977 0.058443502 0.025000002 0 0 1 0
0.20699903 0.058643322 0.025000002 0 0 1 0
0.21592546 0.058730893 0.025000002 0 0 1 0
0.2332184 0.058102775 0.025000002 0 0 1 0
0.24179593 0.058226608 0.025000002 0 0 1 0
0.24716944 0.058129631 0.025000002 0 0 1 0
0.073445387 0.059087142 0.025000002 0 0 1 0
0.074170768 0.059329212 0.025000002 0 0 1 0
0.089208975 0.059879798 0.025000002 0 0 1 0
0.091107637 0.059443057 0.025000002 0 0 1 0
0.10226618 0.059219807 0.025000002 0 0 1 0
0.10760018 0.059573364 0.025000002 0 0 1 0
0.10999171 0.059989564 0.025000002 0 0 1 0
0.11451671 0.05998848 0.025000002 0 0 1 0
0.11739116 0.059706945 0.025000002 0 0 1 0
0.12383485 0.059796579 0.025000002 0 0 1 0
0.12682666 0.059165366 0.025000002 0 0 1 0
0.13730873 0.059009347 0.025000002 0 0 1 0
0.1475108 0.059587002 0.025000002 0 0 1 0
0.16296382 0.059515886 0.025000002 0 0 1 0
0.17096955 0.059320096 0.025000002 0 0 1 0
0.17461255 0.059301864 0.025000002 0 0 1 0
0.17869537 0.059545897 0.025000002 0 0 1 0
0.19160457 0.05971837 0.025000002 0 0 1 0
0.21604735 0.059702992 0.025000002 0 0 1 0
0.2194142 0.059368905 0.025000002 0 0 1 0
0.22468524 0.059384692 0.025000002 0 0 1 0
0.22841714 0.059947185 0.025000002 0 0 1 0
0.23143536 0.0598423 0.025000002 0 0 1 0
0.23256929 0.059526153 0.025000002 0 0 1 0
0.2378756 0.059253864 0.025000002 0 0 1 0
0.057698734 0.060966272 0.025000002 0 0 1 0
0.061088987 0.060864158 0.025000002 0 0 1 0
0.066241995 0.060275756 0.025000002 0 0 1 0
0.07558012 0.060501032 0.025000002 0 0 1 0
0.084450692 0.060921829 0.025000002 0 0 1 0
0.089822561 0.060343906 0.025000002 0 0 1 0
0.091834381 0.060213666 0.025000002 0 0 1 0
0.092075586 0.060447481 0.025000002 0 0 1 0
0.12083352 0.060826298 0.025000002 0 0 1 0
0.12106656 0.060365099 0.025000002 0 0 1 0
0.1627038 0.060522921 0.025000002 0 0 1 0
0.1782257 0.060456179 0.025000002 0 0 1 0
0.18152788 0.060483731 0.025000002 0 0 1 0
0.22814253 0.060480185 0.025000002 0 0 1 0
0.23478603 0.060936481 0.025000002 0 0 1 0
0.070178807 0.061247215 0.025000002 0 0 1 0
0.073165752 0.06197552 0.025000002 0 0 1 0
0.083436072 0.061388388 0.025000002 0 0 1 0
0.092422828 0.0610286 0.025000002 0 0 1 0
0.10897674 0.061768856 0.025000002 0 0 1 0
0.11917327 0.061041445 0.025000002 0 0 1 0
0.13984045 0.061288282 0.025000002 0 0 1 0
0.17976928 0.061316505 0.025000002 0 0 1 0
0.19916707 0.061108205 0.025000002 0 0 1 0
0.20689705 0.061633524 0.025000002 0 0 1 0
0.21459883 0.061143942 0.025000002 0 0 1 0
0.21569094 0.061775096 0.025000002 0 0 1 0
0.23233452 0.061904695 0.025000002 0 0 1 0
0.24004245 0.061647717 0.025000002 0 0 1 0
0.071111798 0.062044386 0.025000002 0 0 1 0
0.080853418 0.062967636 0.025000002 0 0 1 0
0.084849477 0.062708393 0.025000002 0 0 1 0
0.087826155 0.062434211 0.025000002 0 0 1 0
0.10170262 0.062065344 0.025000002 0 0 1 0
0.11515693 0.062510081 0.025000002 0 0 1 0
0.11956033 0.062170621 0.025000002 0 0 1 0
0.14352 0.062228866 0.025000002 0 0 1 0
0.14455248 0.062374949 0.025000002 0 0 1 0
0.16474983 0.062718943 0.025000002 0 0 1 0
0.18794771 0.062387232 0.025000002 0 0 1 0
0.20132791 0.062401742 0.025000002 0 0 1 0
0.20579444 0.062488928 0.025000002 0 0 1 0
0.22046608 0.062754005 0.025000002 0 0 1 0
0.22348878 0.062945686 0.025000002 0 0 1 0
0.22852765 0.062232252 0.025000002 0 0 1 0
0.087945938 0.063558765 0.025000002 0 0 1 0
0.088809147 0.063717596 0.025000002 0 0 1 0
0.096739963 0.063773304 0.025000002 0 0 1 0
0.11286465 0.063994914 0.025000002 0 0 1 0
0.12560813 0.063362293 0.025000002 0 0 1 0
0.12757418 0.063045315 0.025000002 0 0 1 0
0.15265819 0.063861109 0.025000002 0 0 1 0
0.16607554 0.063354321 0.025000002 0 0 1 0
0.17395969 0.063993365 0.025000002 0 0 1 0
0.17628115 0.06342756 0.025000002 0 0 1 0
0.24947019 0.063092545 0.025000002 0 0 1 0
0.04698436 0.064894766 0.025000002 0 0 1 0
0.066055283 0.06426198 0.025000002 0 0 1 0
0.080857098 0.064399548 0.025000002 0 0 1 0
0.084181175 0.064826265 0.025000002 0 0 1 0
0.087150566 0.06471844 0.025000002 0 0 1 0
0.089190766 0.064698569 0.025000002 0 0 1 0
0.097920783 0.064514957 0.025000002 0 0 1 0
0.098394811 0.064650901 0.025000002 0 0 1 0
0.10339862 0.064772882 0.025000002 0 0 1 0
0.10910308 0.064466111 0.025000002 0 0 1 0
0.11543673 0.064210609 0.025000002 0 0 1 0
0.11787698 0.064332649 0.025000002 0 0 1 0
0.12415795 0.064088404 0.025000002 0 0 1 0
0.13408901 0.064719677 0.025000002 0 0 1 0
0.1356499 0.064438596 0.025000002 0 0 1 0
0.14789322 0.064187795 0.025000002 0 0 1 0
0.20725134 0.064680994 0.025000002 0 0 1 0
0.23201761 0.064215705 0.025000002 0 0 1 0
0.048099566 0.065773971 0.025000002 0 0 1 0
0.051804163 0.065228656 0.025000002 0 0 1 0
0.070997715 0.065227039 0.025000002 0 0 1 0
0.102173 0.06571535 0.025000002 0 0 1 0
