# .PCD v0.7 - Point Cloud Data file format
VERSION 0.7
FIELDS x y z normal_x normal_y normal_z curvature
SIZE 4 4 4 4 4 4 4
TYPE F F F F F F F
COUNT 1 1 1 1 1 1 1
WIDTH 1096
HEIGHT 1
VIEWPOINT 0 0 0 1 0 0 0
POINTS 1096
DATA ascii
0.04153965 0.050000004 0.15524095 0 1 0 0
0.044939402 0.050000004 0.1559222 0 1 0 0
0.049960237 0.050000004 0.15527254 0 1 0 0
0.053522497 0.050000004 0.15507942 0 1 0 0
0.064093366 0.050000004 0.15535131 0 1 0 0
0.065417372 0.050000004 0.15583938 0 1 0 0
0.067676619 0.050000004 0.15523395 0 1 0 0
0.072454594 0.050000004 0.15501022 0 1 0 0
0.07356865 0.050000004 0.1550723 0 1 0 0
0.074718803 0.050000004 0.15504399 0 1 0 0
0.076761402 0.050000004 0.15518795 0 1 0 0
0.082394086 0.050000004 0.1557567 0 1 0 0
0.083958857 0.050000004 0.15583523 0 1 0 0
0.087480433 0.050000004 0.15540899 0 1 0 0
0.012550966 0.00039347916 0.1562755 -0.44721356 8.3300023e-07 0.89442724 0
0.013609499 0 0.156408 0 -1 0 0
0.014662373 0 0.15647255 0 -1 0 0
0.01551534 0 0.15669805 0 -1 0 0
0.017455012 0 0.15637371 0 -1 0 0
0.01884418 0 0.15606098 0 -1 0 0
0.022628937 0 0.15637821 0 -1 0 0
0.023344178 0 0.15666141 0 -1 0 0
0.026437664 0 0.1565481 0 -1 0 0
0.028643483 0 0.15662709 0 -1 0 0
0.029710913 0 0.15634121 0 -1 0 0
0.032178227 0 0.1564755 0 -1 0 0
0.034315746 0 0.15652233 0 -1 0 0
0.036027886 0 0.15698814 0 -1 0 0
0.037291702 0 0.15644658 0 -1 0 0
0.03879565 0 0.15693507 0 -1 0 0
0.042782325 0 0.15631598 0 -1 0 0
0.044201113 0 0.15663393 0 -1 0 0
0.045079477 0 0.15659767 0 -1 0 0
0.047389936 0 0.15647227 0 -1 0 0
0.049420908 0 0.15657035 0 -1 0 0
0.050165631 0 0.15609351 0 -1 0 0
0.051523119 0 0.15612522 0 -1 0 0
0.052470483 0 0.15631582 0 -1 0 0
0.053369403 0 0.15648277 0 -1 0 0
0.054532863 0 0.15641791 0 -1 0 0
0.056211818 0 0.1562296 0 -1 0 0
0.057666022 0 0.15656415 0 -1 0 0
0.05813662 0 0.15686528 0 -1 0 0
0.059494067 0 0.15664484 0 -1 0 0
0.060027003 0 0.1566534 0 -1 0 0
0.061355405 0 0.15624671 0 -1 0 0
0.063187361 0 0.15660229 0 -1 0 0
0.064374834 0 0.15668868 0 -1 0 0
0.065676413 0 0.15644483 0 -1 0 0
0.068697952 0 0.15672761 0 -1 0 0
0.071305603 0 0.15649354 0 -1 0 0
0.077740446 0 0.15654328 0 -1 0 0
0.078666493 0 0.15636802 0 -1 0 0
0.080819979 0 0.15688488 0 -1 0 0
0.081422374 0 0.15601467 0 -1 0 0
0.08320795 0 0.15674266 0 -1 0 0
0.084076427 0 0.15624566 0 -1 0 0
0.085473984 0 0.15647589 0 -1 0 0
0.086610161 0 0.1561462 0 -1 0 0
0.091652557 0 0.15663813 0 -1 0 0
0.09212739 0 0.15652567 0 -1 0 0
0.093533725 0 0.15695496 0 -1 0 0
0.094210804 0 0.15625411 0 -1 0 0
0.096249744 0 0.15655357 0 -1 0 0
0.09740755 0 0.15603931 0 -1 0 0
0.099999994 0.00049342366 0.15649819 1 0 0 0
0.01357947 0.0012514298 0.15678975 -0.44721356 8.3300023e-07 0.89442724 0
0.1 0.0010142773 0.15626954 1 0 0 0
0.013672321 0.0023606897 0.15683615 -0.44721353 2.9285167e-07 0.8944273 0
0.10000001 0.0029122084 0.15641347 1 0 0 0
0.012565933 0.0032497416 0.15628298 -0.4472135 2.9285164e-07 0.89442724 0
0.012452306 0.0042723697 0.15622616 -0.4472135 2.9285164e-07 0.89442724 0
0.013501488 0.0066572791 0.15675075 -0.4472135 2.9285164e-07 0.89442724 0
0.1 0.006346947 0.15663695 1 0 0 0
0.10000001 0.0060512992 0.15676522 1 0 0 0
0.012601953 0.0076589487 0.15630098 -0.4472135 2.9285164e-07 0.89442724 0
0.013505979 0.0074778986 0.156753 -0.44721353 2.9285167e-07 0.8944273 0
0.1 0.0079192342 0.15667248 1 0 0 0
0.01204187 0.0083853956 0.15602094 -0.4472135 2.9285164e-07 0.89442724 0
0.1 0.008435634 0.15679535 1 0 0 0
0.012445932 0.0094517786 0.15614271 -0.42426395 0.31622803 0.84852815 0
0.013845997 0.009207949 0.156923 -0.4472135 2.9285164e-07 0.89442724 0
0.014257575 0.0099999998 0.1565344 0 1 0 0
0.015629409 0.0099999998 0.15642081 0 1 0 0
0.016241411 0.0099999998 0.15674153 0 1 0 0
0.017946258 0.0099999998 0.15650937 0 1 0 0
0.018156841 0.0099999998 0.15668347 0 1 0 0
0.019309821 0.0099999998 0.15689901 0 1 0 0
0.020342 0.0099999998 0.15614583 0 1 0 0
0.022670588 0.0099999998 0.15640719 0 1 0 0
0.023200244 0.0099999998 0.15622571 0 1 0 0
0.024776492 0.0099999998 0.15684642 0 1 0 0
0.025267553 0.0099999998 0.1563801 0 1 0 0
0.026371839 0.0099999998 0.15630896 0 1 0 0
0.027186632 0.0099999998 0.15628895 0 1 0 0
0.028121702 0.0099999998 0.15642589 0 1 0 0
0.02907964 0.0099999998 0.15604497 0 1 0 0
0.031718172 0.0099999998 0.15639447 0 1 0 0
0.032788299 0.0099999998 0.15614596 0 1 0 0
0.033917565 0.0099999998 0.1566631 0 1 0 0
0.034114651 0.0099999998 0.15631101 0 1 0 0
0.035695948 0.0099999998 0.15647703 0 1 0 0
0.036420338 0.0099999998 0.15637058 0 1 0 0
0.037952099 0.0099999998 0.15626162 0 1 0 0
0.038879607 0.0099999998 0.15613794 0 1 0 0
0.039149769 0.0099999998 0.15666427 0 1 0 0
0.041205607 0.0099999998 0.15687039 0 1 0 0
0.042382807 0.0099999998 0.15644562 0 1 0 0
0.043496303 0.0099999998 0.15631995 0 1 0 0
0.04489284 0.0099999998 0.1561566 0 1 0 0
0.046615239 0.0099999998 0.15659928 0 1 0 0
0.047229782 0.0099999998 0.15647903 0 1 0 0
0.048514929 0.0099999998 0.15601027 0 1 0 0
0.049826041 0.0099999998 0.15638319 0 1 0 0
0.052758321 0.0099999998 0.15646568 0 1 0 0
0.05310284 0.0099999998 0.15660234 0 1 0 0
0.054256812 0.0099999998 0.15651132 0 1 0 0
0.05537118 0.0099999998 0.15627278 0 1 0 0
0.057358157 0.0099999998 0.15632772 0 1 0 0
0.060664594 0.0099999998 0.15633982 0 1 0 0
0.06444367 0.0099999998 0.15640175 0 1 0 0
0.065501168 0.0099999998 0.15694678 0 1 0 0
0.066063471 0.0099999998 0.15642913 0 1 0 0
0.06868986 0.0099999998 0.15605396 0 1 0 0
0.069979265 0.0099999998 0.15662463 0 1 0 0
0.070689328 0.0099999998 0.15622948 0 1 0 0
0.07142292 0.0099999998 0.15611017 0 1 0 0
0.072204627 0.0099999998 0.15659083 0 1 0 0
0.073141858 0.0099999998 0.15617658 0 1 0 0
0.075844146 0.0099999998 0.15624554 0 1 0 0
0.076563239 0.0099999998 0.15669177 0 1 0 0
0.07708551 0.0099999998 0.15634085 0 1 0 0
0.078414045 0.0099999998 0.15673137 0 1 0 0
0.080842115 0.0099999998 0.15615283 0 1 0 0
0.081367925 0.0099999998 0.1565163 0 1 0 0
0.084833577 0.0099999988 0.15686494 0 1 0 0
0.087891556 0.0099999998 0.15676953 0 1 0 0
0.089402497 0.0099999998 0.1560553 0 1 0 0
0.099999994 0.0092476141 0.15623994 1 0 0 0
0.10000001 0.0093032187 0.15671228 1 0 0 0
0.02379985 0.010000001 0.15659809 0 1 0 0
0.033797532 0.010000001 0.15642501 0 1 0 0
0.060586475 0.010000001 0.15642229 0 1 0 0
0.090000004 0.010872245 0.15620266 -1 0 0 0
0.1 0.011101972 0.15680295 1 0 0 0
0.10000001 0.011456469 0.15638368 1 0 0 0
0.090000004 0.012340439 0.15637855 -1 0 0 0
0.1 0.013040219 0.15687588 1 0 0 0
0.090000004 0.015969694 0.15691333 -1 0 0 0
0.1 0.015049481 0.15652916 1 0 0 0
0.090000004 0.016454861 0.15628994 -1 0 0 0
0.090000004 0.017185749 0.15639728 -1 0 0 0
0.090000004 0.018808696 0.15601388 -1 0 0 0
0.1 0.018296337 0.15662669 1 0 0 0
0.090000004 0.019291405 0.15636638 -1 0 0 0
0.1 0.020614125 0.15639681 1 0 0 0
0.090000004 0.02154294 0.15687251 -1 0 0 0
0.10000001 0.021966377 0.15696058 1 0 0 0
0.090000004 0.022214863 0.15669422 -1 0 0 0
0.1 0.022576725 0.15667264 1 0 0 0
0.090000004 0.023986351 0.1566222 -1 0 0 0
0.1 0.023669381 0.15640067 1 0 0 0
0.10000001 0.023404276 0.15657628 1 0 0 0
0.090000004 0.024853013 0.15652385 -1 0 0 0
0.1 0.024852252 0.15630123 1 0 0 0
0.089999996 0.025236232 0.15655205 -1 0 0 0
0.090000004 0.025721164 0.15603738 -1 0 0 0
0.090000004 0.026132403 0.15677649 -1 0 0 0
0.10000001 0.026465364 0.15654998 1 0 0 0
0.1 0.02727665 0.15637906 1 0 0 0
0.090000004 0.028981743 0.15696976 -1 0 0 0
0.1 0.028696483 0.15619344 1 0 0 0
0.090000004 0.029800782 0.15654327 -1 0 0 0
0.1 0.029925711 0.15632452 1 0 0 0
0.090000004 0.030594965 0.15614465 -1 0 0 0
0.1 0.030547163 0.15625741 1 0 0 0
0.090000004 0.03153589 0.15692662 -1 0 0 0
0.090000004 0.032076132 0.15659462 -1 0 0 0
0.090000011 0.033033252 0.15640749 -1 0 0 0
0.090000004 0.034435436 0.15604088 -1 0 0 0
0.10000001 0.034965944 0.1560856 1 0 0 0
0.090000004 0.035478231 0.15646659 -1 0 0 0
0.1 0.035246428 0.15622945 1 0 0 0
0.10000001 0.035782494 0.15615931 1 0 0 0
0.1 0.036313619 0.15658113 1 0 0 0
0.10000001 0.036327109 0.15682456 1 0 0 0
0.090000004 0.037542991 0.15616052 -1 0 0 0
0.10000001 0.037483387 0.1567829 1 0 0 0
0.090000004 0.038588073 0.15699695 -1 0 0 0
0.1 0.038535621 0.15654299 1 0 0 0
0.10000001 0.038178034 0.15643029 1 0 0 0
0.0151437 0.039999999 0.15616339 0 -1 0 0
0.016463848 0.039999999 0.1567625 0 -1 0 0
0.017549274 0.039999995 0.15664752 0 -1 0 0
0.01802206 0.039999999 0.15677719 0 -1 0 0
0.019529756 0.039999999 0.15690741 0 -1 0 0
0.020769421 0.039999999 0.15636456 0 -1 0 0
0.022642082 0.039999999 0.1563852 0 -1 0 0
0.023160197 0.039999999 0.15652727 0 -1 0 0
0.025756756 0.039999999 0.1565879 0 -1 0 0
0.026821919 0.039999999 0.15698177 0 -1 0 0
0.027398527 0.039999999 0.15681086 0 -1 0 0
0.029212574 0.039999999 0.15681678 0 -1 0 0
0.031435873 0.039999999 0.15669076 0 -1 0 0
0.033146638 0.039999999 0.15659188 0 -1 0 0
0.034316238 0.039999995 0.15616493 0 -1 0 0
0.03550788 0.039999999 0.15653664 0 -1 0 0
0.036412716 0.039999999 0.15677783 0 -1 0 0
0.037698708 0.039999999 0.15645033 0 -1 0 0
0.038291059 0.039999999 0.15683812 0 -1 0 0
0.039667092 0.039999999 0.1561282 0 -1 0 0
0.040428631 0.039999999 0.15643713 0 -1 0 0
0.042535815 0.039999999 0.15634441 0 -1 0 0
0.043810733 0.039999999 0.15697871 0 -1 0 0
0.045585059 0.039999999 0.15654567 0 -1 0 0
0.04648596 0.039999999 0.15648919 0 -1 0 0
0.047368109 0.039999999 0.15666479 0 -1 0 0
0.049416386 0.039999999 0.15636553 0 -1 0 0
0.050419934 0.039999999 0.1564084 0 -1 0 0
0.051307403 0.039999999 0.15674481 0 -1 0 0
0.052752104 0.039999999 0.15605053 0 -1 0 0
0.053351015 0.039999999 0.15606897 0 -1 0 0
0.054092154 0.039999999 0.15680887 0 -1 0 0
0.055378906 0.039999999 0.15624173 0 -1 0 0
0.057614729 0.039999999 0.15649195 0 -1 0 0
0.060447644 0.039999999 0.15645459 0 -1 0 0
0.0623804 0.039999999 0.15615484 0 -1 0 0
0.064472295 0.039999999 0.15651032 0 -1 0 0
0.065648779 0.039999999 0.1564641 0 -1 0 0
0.066726603 0.039999999 0.15640102 0 -1 0 0
0.07080242 0.039999999 0.15619141 0 -1 0 0
0.071976326 0.039999999 0.15602943 0 -1 0 0
0.073716328 0.039999999 0.15679319 0 -1 0 0
0.074073277 0.039999999 0.15644667 0 -1 0 0
0.076402247 0.039999999 0.15691261 0 -1 0 0
0.078711554 0.039999999 0.15697072 0 -1 0 0
0.080921397 0.039999999 0.15652269 0 -1 0 0
0.081716463 0.039999999 0.15654732 0 -1 0 0
0.083926253 0.039999999 0.15635097 0 -1 0 0
0.084495582 0.039999999 0.1564579 0 -1 0 0
0.085683838 0.039999999 0.15673693 0 -1 0 0
0.086509272 0.039999999 0.15637581 0 -1 0 0
0.087665945 0.039999999 0.15655546 0 -1 0 0
0.088660762 0.039999999 0.15664932 0 -1 0 0
0.089278728 0.039999999 0.15600118 0 -1 0 0
0.090000004 0.039470315 0.1561451 -1 0 0 0
0.012157449 0.04024563 0.15607873 -0.44721353 -7.1585947e-07 0.89442724 0
0.013602063 0.040293857 0.15680103 -0.4472135 -1.0412501e-06 0.89442724 0
0.017354766 0.040000003 0.15617673 0 -1 0 0
0.030482333 0.040000003 0.15688746 0 -1 0 0
0.10000001 0.040338229 0.15621257 1 0 0 0
0.012373077 0.041486699 0.15618654 -0.44721356 -3.9046881e-07 0.89442724 0
0.013408341 0.041612823 0.15670416 -0.44721356 -3.9046881e-07 0.89442724 0
0.012703482 0.042662829 0.15635175 -0.44721356 -3.9046881e-07 0.89442724 0
0.01351391 0.042616189 0.15675695 -0.44721356 -3.9046881e-07 0.89442724 0
0.1 0.042337123 0.15620531 1 0 0 0
0.012666663 0.043183669 0.15633333 -0.44721356 -3.9046881e-07 0.89442724 0
0.012460793 0.044603292 0.1562304 -0.44721356 -3.9046881e-07 0.89442724 0
0.013455657 0.044466428 0.15672784 -0.44721356 -3.9046881e-07 0.89442718 0
0.1 0.044511352 0.15680642 1 0 0 0
0.10000001 0.044399045 0.1563435 1 0 0 0
0.012227531 0.045141075 0.15611377 -0.44721356 -3.9046881e-07 0.89442724 0
0.1 0.045953088 0.15659055 1 0 0 0
0.012211035 0.046414033 0.15610553 -0.44721356 -3.9046881e-07 0.89442724 0
0.013351876 0.046605747 0.15667596 -0.44721356 -3.9046881e-07 0.89442724 0
0.1 0.046432219 0.15662807 1 0 0 0
0.1 0.047931869 0.15606958 1 0 0 0
0.10000001 0.04740677 0.15650021 1 0 0 0
0.012733784 0.048542988 0.15636688 -0.44721356 -3.9046881e-07 0.89442724 0
0.013657687 0.048102856 0.15682885 -0.44721356 -3.9046881e-07 0.89442724 0
0.1 0.048300695 0.15624201 1 0 0 0
0.012873304 0.0498567 0.15638821 -0.31622779 0.70710659 0.63245571 0
0.013476047 0.049789567 0.15648615 -0.40000004 0.44721332 0.80000019 0
0.016123246 0.049999997 0.1560732 0 1 0 0
0.018168382 0.050000001 0.15621626 0 1 0 0
0.020370008 0.050000001 0.1567679 0 1 0 0
0.022408066 0.050000001 0.15602532 0 1 0 0
0.023185844 0.050000001 0.15600464 0 1 0 0
0.026737645 0.050000001 0.15683648 0 1 0 0
0.029139452 0.050000001 0.15676206 0 1 0 0
0.030785991 0.050000001 0.15688935 0 1 0 0
0.031177202 0.050000001 0.15629321 0 1 0 0
0.032110918 0.049999997 0.15677512 0 1 0 0
0.03397635 0.049999997 0.15673447 0 1 0 0
0.036032926 0.049999997 0.15651484 0 1 0 0
0.03833748 0.050000001 0.15678644 0 1 0 0
0.039694007 0.049999997 0.15626575 0 1 0 0
0.040678322 0.050000001 0.15622056 0 1 0 0
0.045258213 0.050000001 0.15662032 0 1 0 0
0.046326298 0.050000001 0.15643704 0 1 0 0
0.049680769 0.050000001 0.15656254 0 1 0 0
0.050713517 0.050000001 0.15646575 0 1 0 0
0.051962379 0.050000001 0.15639083 0 1 0 0
0.052977979 0.049999997 0.15633336 0 1 0 0
0.053779077 0.050000001 0.15635492 0 1 0 0
0.054564685 0.049999997 0.15650029 0 1 0 0
0.055542924 0.049999997 0.1562067 0 1 0 0
0.057351891 0.050000001 0.15689582 0 1 0 0
0.059479471 0.050000001 0.15650579 0 1 0 0
0.060702093 0.050000001 0.15616278 0 1 0 0
0.066202484 0.049999997 0.15690839 0 1 0 0
0.068768904 0.050000001 0.1560545 0 1 0 0
0.071615644 0.049999997 0.15619306 0 1 0 0
0.072321534 0.050000001 0.15646534 0 1 0 0
0.073282465 0.050000001 0.15645069 0 1 0 0
0.074779563 0.050000001 0.15692775 0 1 0 0
0.079773553 0.050000001 0.15668912 0 1 0 0
0.081870236 0.050000001 0.15625456 0 1 0 0
0.084265217 0.050000001 0.15677637 0 1 0 0
0.086842105 0.050000001 0.15620977 0 1 0 0
0.087570697 0.050000001 0.15612864 0 1 0 0
0.088658035 0.050000001 0.15666103 0 1 0 0
0.09156853 0.050000001 0.15657884 0 1 0 0
0.093030147 0.050000001 0.15613639 0 1 0 0
0.09659446 0.049999997 0.15613277 0 1 0 0
0.098490097 0.050000001 0.15647638 0 1 0 0
0.1 0.049622491 0.15620752 1 0 0 0
0.014994196 0.050000004 0.15694302 0 1 0 0
0.022783879 0.050000004 0.15644126 0 1 0 0
0.023691196 0.050000004 0.15695742 0 1 0 0
0.025445241 0.050000004 0.1567231 0 1 0 0
0.032034326 0.050000004 0.15625092 0 1 0 0
0.034271136 0.050000004 0.15666538 0 1 0 0
0.037055723 0.050000004 0.15638351 0 1 0 0
0.040617805 0.050000004 0.15616769 0 1 0 0
0.043456014 0.050000004 0.15627418 0 1 0 0
0.044619579 0.050000004 0.15601864 0 1 0 0
0.057095189 0.050000004 0.15694132 0 1 0 0
0.058986116 0.050000004 0.15636936 0 1 0 0
0.060702961 0.050000004 0.15641138 0 1 0 0
0.063985839 0.050000004 0.15609543 0 1 0 0
0.064318851 0.050000004 0.15677129 0 1 0 0
0.06544809 0.050000004 0.1562126 0 1 0 0
0.068458021 0.050000001 0.15642034 0 1 0 0
0.069027059 0.050000004 0.1561947 0 1 0 0
0.070863895 0.050000004 0.15614298 0 1 0 0
0.071566544 0.050000004 0.15616129 0 1 0 0
0.079438105 0.050000004 0.15662439 0 1 0 0
0.082235508 0.050000004 0.15605353 0 1 0 0
0.083919205 0.050000004 0.15689933 0 1 0 0
0.084893137 0.050000004 0.15609123 0 1 0 0
0.089008868 0.050000004 0.15647511 0 1 0 0
0.093909234 0.050000004 0.15682477 0 1 0 0
0.09888237 0.050000004 0.15637578 0 1 0 0
0.014600989 0.00054767559 0.1573005 -0.44721356 8.3300023e-07 0.89442724 0
0.015578214 0.00096485252 0.15778913 -0.44721356 8.3300023e-07 0.89442724 0
0.017864902 0 0.15726742 0 -1 0 0
0.018719107 0 0.15723594 0 -1 0 0
0.019630659 0 0.15747282 0 -1 0 0
0.020754244 0 0.15751278 0 -1 0 0
0.021383185 0 0.15787423 0 -1 0 0
0.022019202 0 0.15783019 0 -1 0 0
0.023800021 0 0.15798813 0 -1 0 0
0.024767507 0 0.15727612 0 -1 0 0
0.025161117 0 0.1576834 0 -1 0 0
0.026816493 0 0.15712318 0 -1 0 0
0.027888048 0 0.1571974 0 -1 0 0
0.028611124 0 0.15705606 0 -1 0 0
0.029393101 0 0.15753119 0 -1 0 0
0.031849619 0 0.1573415 0 -1 0 0
0.032602776 0 0.15750736 0 -1 0 0
0.033079378 0 0.15705436 0 -1 0 0
0.036694665 0 0.15769808 0 -1 0 0
0.037341297 0 0.15746143 0 -1 0 0
0.038385052 0 0.15776588 0 -1 0 0
0.03960501 0 0.15799385 0 -1 0 0
0.040929105 0 0.15711617 0 -1 0 0
0.041710664 0 0.15704679 0 -1 0 0
0.043866735 0 0.15740766 0 -1 0 0
0.045549773 0 0.15765613 0 -1 0 0
0.046906866 0 0.15798669 0 -1 0 0
0.047233071 0 0.15765804 0 -1 0 0
0.048187431 0 0.15768567 0 -1 0 0
0.049496181 0 0.15779993 0 -1 0 0
0.05087027 0 0.15717128 0 -1 0 0
0.053375017 0 0.15743512 0 -1 0 0
0.05829211 0 0.15723753 0 -1 0 0
0.060484111 0 0.15717018 0 -1 0 0
0.061635759 0 0.15768604 0 -1 0 0
0.0624073 0 0.15712735 0 -1 0 0
0.063358493 0 0.15741892 0 -1 0 0
0.064459302 0 0.15787025 0 -1 0 0
0.065932058 0 0.15705049 0 -1 0 0
0.066149972 0 0.15798281 0 -1 0 0
0.068800069 0 0.15732129 0 -1 0 0
0.069552183 0 0.15710452 0 -1 0 0
0.070923373 0 0.15726843 0 -1 0 0
0.072296396 0 0.15739106 0 -1 0 0
0.07363002 0 0.15779561 0 -1 0 0
0.074412189 0 0.15798001 0 -1 0 0
0.075666584 0 0.15796654 0 -1 0 0
0.07658615 0 0.15744151 0 -1 0 0
0.07743983 0 0.15763514 0 -1 0 0
0.078511596 0 0.15770054 0 -1 0 0
0.080850624 0 0.15734085 0 -1 0 0
0.082736701 0 0.15783732 0 -1 0 0
0.083160296 0 0.15735632 0 -1 0 0
0.085083097 0 0.15739621 0 -1 0 0
0.086930364 0 0.15742093 0 -1 0 0
0.087471582 0 0.15729757 0 -1 0 0
0.090476543 0 0.15748116 0 -1 0 0
0.091741674 0 0.15738332 0 -1 0 0
0.092637621 0 0.1575264 0 -1 0 0
0.093680575 0 0.15799205 0 -1 0 0
0.094772689 0 0.15749228 0 -1 0 0
0.095744275 0 0.15733349 0 -1 0 0
0.096580252 0 0.15771842 0 -1 0 0
0.097483695 0 0.15722366 0 -1 0 0
0.098712921 0 0.15728162 0 -1 0 0
0.099930972 0.00032796661 0.15750252 0.89442718 -0.44721359 0 0
0.015335862 0.0016432316 0.15766793 -0.44721353 4.7290118e-07 0.89442724 0
0.1 0.0015257612 0.15756422 1 0 0 0
0.015251105 0.0025201484 0.15762556 -0.44721353 2.9285167e-07 0.8944273 0
0.10000001 0.0021095157 0.15749794 1 0 0 0
0.014600229 0.0034897374 0.15730011 -0.4472135 2.9285164e-07 0.89442724 0
0.015553897 0.0032308812 0.15777695 -0.4472135 2.9285164e-07 0.89442724 0
0.1 0.0030529499 0.15780891 1 0 0 0
0.014733076 0.0051742266 0.15736654 -0.44721353 2.9285167e-07 0.8944273 0
0.015511951 0.0054224674 0.15775599 -0.44721353 2.9285167e-07 0.8944273 0
0.1 0.0056165936 0.15788005 1 0 0 0
0.015390362 0.0064931284 0.15769519 -0.44721353 2.9285167e-07 0.8944273 0
0.015395651 0.0077642617 0.15769783 -0.4472135 2.9285164e-07 0.89442724 0
0.1 0.0070604803 0.15736678 1 0 0 0
0.015684634 0.0080813877 0.15784231 -0.4472135 2.9285164e-07 0.89442724 0
0.1 0.0088062705 0.15781051 1 0 0 0
0.014734493 0.0094044534 0.15736724 -0.44721353 2.9285167e-07 0.8944273 0
0.016707852 0.0099999998 0.15757635 0 1 0 0
0.018910307 0.0099999998 0.15730512 0 1 0 0
0.019156486 0.0099999998 0.15760189 0 1 0 0
0.020605212 0.0099999998 0.1578895 0 1 0 0
0.021500058 0.0099999998 0.15755686 0 1 0 0
0.022381201 0.0099999988 0.15743425 0 1 0 0
0.02405512 0.0099999998 0.15738179 0 1 0 0
0.025736673 0.0099999998 0.15777321 0 1 0 0
0.028620919 0.0099999998 0.15706447 0 1 0 0
0.03252057 0.0099999998 0.15717351 0 1 0 0
0.033595756 0.0099999998 0.15788601 0 1 0 0
0.03454119 0.0099999998 0.15756412 0 1 0 0
0.035714805 0.0099999998 0.15790546 0 1 0 0
0.03632661 0.0099999998 0.15721136 0 1 0 0
0.037677906 0.0099999998 0.15703489 0 1 0 0
0.038687963 0.0099999998 0.15773897 0 1 0 0
0.041545432 0.0099999998 0.15720542 0 1 0 0
0.042817596 0.0099999998 0.15716049 0 1 0 0
0.043497056 0.0099999998 0.15775679 0 1 0 0
0.045181729 0.0099999998 0.15744965 0 1 0 0
0.047426734 0.0099999998 0.15747446 0 1 0 0
0.048847158 0.0099999998 0.15749049 0 1 0 0
0.049714167 0.0099999998 0.15795399 0 1 0 0
0.051523849 0.0099999998 0.15720358 0 1 0 0
0.053615734 0.0099999998 0.15758114 0 1 0 0
0.054835662 0.0099999998 0.15786962 0 1 0 0
0.055361584 0.0099999998 0.15772277 0 1 0 0
0.058137912 0.0099999998 0.15708101 0 1 0 0
0.059769839 0.0099999998 0.15751113 0 1 0 0
0.060869761 0.0099999998 0.15768844 0 1 0 0
0.066418245 0.0099999998 0.15774287 0 1 0 0
0.067876235 0.0099999998 0.15724224 0 1 0 0
0.070315048 0.0099999998 0.15729776 0 1 0 0
0.071316741 0.0099999998 0.15730576 0 1 0 0
0.072924629 0.0099999998 0.15747754 0 1 0 0
0.073347554 0.0099999998 0.15749879 0 1 0 0
0.07459832 0.0099999998 0.15746014 0 1 0 0
0.076286897 0.0099999998 0.15772881 0 1 0 0
0.077195838 0.0099999998 0.15747365 0 1 0 0
0.078527287 0.0099999998 0.1570396 0 1 0 0
0.079097942 0.0099999998 0.15748343 0 1 0 0
0.080594733 0.0099999998 0.15739644 0 1 0 0
0.081968248 0.0099999998 0.15791599 0 1 0 0
0.086288519 0.0099999998 0.1574146 0 1 0 0
0.087607436 0.0099999998 0.157033 0 1 0 0
0.088705242 0.0099999988 0.15702675 0 1 0 0
0.089704007 0.0099999998 0.15767124 0 1 0 0
0.1 0.0092602493 0.157803 1 0 0 0
0.090000004 0.011737477 0.15765855 -1 0 0 0
0.090000004 0.012820914 0.15714425 -1 0 0 0
0.1 0.012678201 0.15761243 1 0 0 0
0.090000004 0.014545934 0.15780123 -1 0 0 0
0.090000004 0.015109987 0.15713179 -1 0 0 0
0.1 0.015405918 0.15703179 1 0 0 0
0.10000001 0.015325301 0.15754263 1 0 0 0
0.090000004 0.016671108 0.15761915 -1 0 0 0
0.1 0.016569577 0.15767229 1 0 0 0
0.090000004 0.01758845 0.15798758 -1 0 0 0
0.1 0.017243002 0.15732813 1 0 0 0
0.090000004 0.018589061 0.15747616 -1 0 0 0
0.1 0.019087128 0.15726216 1 0 0 0
0.090000004 0.02080193 0.15796807 -1 0 0 0
0.1 0.020462522 0.1573067 1 0 0 0
0.090000004 0.02136277 0.15795109 -1 0 0 0
0.1 0.022702279 0.15788688 1 0 0 0
0.090000004 0.023170158 0.15794641 -1 0 0 0
0.10000001 0.024217376 0.15761106 1 0 0 0
0.1 0.025507623 0.15764084 1 0 0 0
0.089999996 0.026932439 0.15723146 -1 0 0 0
0.10000001 0.026165975 0.15759395 1 0 0 0
0.1 0.027233008 0.15760389 1 0 0 0
0.10000001 0.027085349 0.15787332 1 0 0 0
0.090000004 0.028116958 0.15740514 -1 0 0 0
0.1 0.028461989 0.15700927 1 0 0 0
0.10000001 0.028845662 0.15710144 1 0 0 0
0.1 0.029511319 0.15732737 1 0 0 0
0.090000004 0.031795118 0.15788488 -1 0 0 0
0.10000001 0.031038381 0.15777268 1 0 0 0
0.090000004 0.032473117 0.15785548 -1 0 0 0
0.10000001 0.032762125 0.1571732 1 0 0 0
0.090000004 0.034956314 0.15741259 -1 0 0 0
0.1 0.035926837 0.15703684 1 0 0 0
0.090000004 0.036405213 0.15761061 -1 0 0 0
0.090000004 0.037461102 0.15768752 -1 0 0 0
0.10000001 0.037082598 0.15761209 1 0 0 0
0.015393408 0.039999999 0.15715519 0 -1 0 0
0.016618371 0.039999999 0.15761121 0 -1 0 0
0.018763624 0.039999999 0.15732458 0 -1 0 0
0.019955007 0.039999999 0.15707375 0 -1 0 0
0.021288753 0.039999999 0.15762562 0 -1 0 0
0.023383964 0.039999999 0.15779299 0 -1 0 0
0.025735002 0.039999999 0.15781459 0 -1 0 0
0.028688649 0.039999999 0.15771413 0 -1 0 0
0.030325051 0.039999999 0.15738085 0 -1 0 0
0.031767987 0.039999999 0.15739831 0 -1 0 0
0.033526491 0.039999995 0.15778267 0 -1 0 0
0.034486782 0.039999999 0.15739895 0 -1 0 0
0.035202321 0.039999999 0.157518 0 -1 0 0
0.037341766 0.039999999 0.15709779 0 -1 0 0
0.038601786 0.039999999 0.15778756 0 -1 0 0
0.039841294 0.039999999 0.15730822 0 -1 0 0
0.040692084 0.039999999 0.15757665 0 -1 0 0
0.043779846 0.039999999 0.15762949 0 -1 0 0
0.045673281 0.039999999 0.15754865 0 -1 0 0
0.046302006 0.039999999 0.15758155 0 -1 0 0
0.04765296 0.039999999 0.15734947 0 -1 0 0
0.048016191 0.039999999 0.15708716 0 -1 0 0
0.049926203 0.039999999 0.1570515 0 -1 0 0
0.050427701 0.039999999 0.15743664 0 -1 0 0
0.052970372 0.039999999 0.15754068 0 -1 0 0
0.054385547 0.039999999 0.15726864 0 -1 0 0
0.055311795 0.039999999 0.15705557 0 -1 0 0
0.056510735 0.039999999 0.15791816 0 -1 0 0
0.058596335 0.039999999 0.15774143 0 -1 0 0
0.059853069 0.039999999 0.1570988 0 -1 0 0
0.060482651 0.039999999 0.15752454 0 -1 0 0
0.062609673 0.039999999 0.15731023 0 -1 0 0
0.063156001 0.039999999 0.15751517 0 -1 0 0
0.064708643 0.039999999 0.15743785 0 -1 0 0
0.065123267 0.039999999 0.15731514 0 -1 0 0
0.066414975 0.039999999 0.15785548 0 -1 0 0
0.067929775 0.039999999 0.15754101 0 -1 0 0
0.068450913 0.039999999 0.15719472 0 -1 0 0
0.070118815 0.039999999 0.15794699 0 -1 0 0
0.071271732 0.039999999 0.15752131 0 -1 0 0
0.07293734 0.039999999 0.15742967 0 -1 0 0
0.073965684 0.039999999 0.15745595 0 -1 0 0
0.0741781 0.039999999 0.15747435 0 -1 0 0
0.075614363 0.039999999 0.15777728 0 -1 0 0
0.077634841 0.039999999 0.15743026 0 -1 0 0
0.078947231 0.039999999 0.1570406 0 -1 0 0
0.079440378 0.039999999 0.15774634 0 -1 0 0
0.081033111 0.039999999 0.15761882 0 -1 0 0
0.082215101 0.039999999 0.15778804 0 -1 0 0
0.083258703 0.039999999 0.15752856 0 -1 0 0
0.084899046 0.039999999 0.15741888 0 -1 0 0
0.087396167 0.039999999 0.15741676 0 -1 0 0
0.088597536 0.039999999 0.15772665 0 -1 0 0
0.089508615 0.039999999 0.15760218 0 -1 0 0
0.090000004 0.03947328 0.15786427 -1 0 0 0
0.1 0.039522137 0.1578117 1 0 0 0
0.014494074 0.040402573 0.15724704 -0.4472135 -9.1109388e-07 0.89442718 0
0.014549583 0.041428983 0.1572748 -0.44721356 -3.9046881e-07 0.89442724 0
0.015217126 0.041195408 0.15760857 -0.44721356 -3.9046881e-07 0.89442724 0
0.10000001 0.041102845 0.15758528 1 0 0 0
0.014612981 0.042392462 0.15730651 -0.44721356 -3.9046881e-07 0.89442724 0
0.015538609 0.04241284 0.15776931 -0.44721356 -3.9046881e-07 0.89442724 0
0.014608357 0.043234564 0.15730417 -0.44721356 -3.9046881e-07 0.89442724 0
0.015705071 0.043329276 0.15785255 -0.44721356 -3.9046881e-07 0.89442724 0
0.015378822 0.045630965 0.15768942 -0.44721356 -3.9046881e-07 0.89442724 0
0.1 0.045083813 0.15772516 1 0 0 0
0.1 0.046790477 0.15727201 1 0 0 0
0.014620127 0.047260284 0.15731008 -0.44721356 -3.9046881e-07 0.89442724 0
0.015098544 0.047185801 0.15754928 -0.44721356 -3.9046881e-07 0.89442724 0
0.014416995 0.048176698 0.1572085 -0.44721356 -3.9046881e-07 0.89442724 0
0.1 0.048659179 0.15775555 1 0 0 0
0.015773062 0.049832407 0.15757865 -0.2 0.89442712 0.40000007 0
0.016689122 0.050000001 0.15714508 0 1 0 0
0.018559434 0.050000001 0.15788709 0 1 0 0
0.019282911 0.049999997 0.1571089 0 1 0 0
0.020791393 0.049999997 0.15744942 0 1 0 0
0.022222085 0.050000001 0.15721485 0 1 0 0
0.02352974 0.050000001 0.15702747 0 1 0 0
0.028392734 0.050000001 0.15722609 0 1 0 0
0.029853679 0.050000001 0.15771396 0 1 0 0
0.032467648 0.050000001 0.15759334 0 1 0 0
0.033726357 0.050000001 0.15711233 0 1 0 0
0.035092663 0.049999997 0.15703252 0 1 0 0
0.042695433 0.049999997 0.15741073 0 1 0 0
0.051179875 0.050000001 0.15710372 0 1 0 0
0.056690242 0.050000001 0.15718952 0 1 0 0
0.064350687 0.049999997 0.15766659 0 1 0 0
0.066770263 0.050000001 0.15787598 0 1 0 0
0.067362539 0.050000001 0.15740097 0 1 0 0
0.070934713 0.050000001 0.157958 0 1 0 0
0.072349131 0.050000001 0.15799044 0 1 0 0
0.076446638 0.049999997 0.15746248 0 1 0 0
0.077955157 0.050000001 0.15735327 0 1 0 0
0.078111567 0.050000001 0.15791699 0 1 0 0
0.079342216 0.050000001 0.15785751 0 1 0 0
0.080472261 0.050000001 0.15751538 0 1 0 0
0.081113748 0.050000001 0.15770598 0 1 0 0
0.083740011 0.050000001 0.15721066 0 1 0 0
0.084169574 0.050000001 0.15754348 0 1 0 0
0.086226262 0.050000001 0.15793453 0 1 0 0
0.089787282 0.050000001 0.15744184 0 1 0 0
0.091909431 0.050000001 0.15757675 0 1 0 0
0.092548698 0.050000001 0.15715818 0 1 0 0
0.093905143 0.050000001 0.15747505 0 1 0 0
0.09429878 0.050000001 0.15766755 0 1 0 0
0.09598767 0.050000001 0.15797454 0 1 0 0
0.10000001 0.049964592 0.15757369 1 0 0 0
0.015058495 0.050000004 0.15726268 0 1 0 0
0.019849595 0.050000004 0.15768531 0 1 0 0
0.020762732 0.050000004 0.1578479 0 1 0 0
0.035824362 0.050000004 0.15733801 0 1 0 0
0.036645483 0.050000004 0.15753987 0 1 0 0
0.039745264 0.050000004 0.15789652 0 1 0 0
0.044691615 0.050000004 0.1573277 0 1 0 0
0.047861259 0.050000004 0.15723959 0 1 0 0
0.055142175 0.050000004 0.15719572 0 1 0 0
0.057982933 0.050000004 0.1575475 0 1 0 0
0.063523538 0.050000004 0.15768181 0 1 0 0
0.064890943 0.050000004 0.15708126 0 1 0 0
0.066396348 0.050000004 0.15744351 0 1 0 0
0.071979903 0.050000004 0.15779242 0 1 0 0
0.072530538 0.050000004 0.15725917 0 1 0 0
0.073039763 0.050000004 0.15730374 0 1 0 0
0.088836208 0.050000004 0.15707065 0 1 0 0
0.091976762 0.050000004 0.15709814 0 1 0 0
0.093834631 0.050000004 0.15760119 0 1 0 0
0.016564731 0.00016569677 0.15812331 -0.31622788 -0.70710653 0.63245583 0
0.017333392 0.00037048807 0.1586667 -0.44721356 8.3300023e-07 0.89442724 0
0.018343288 0 0.15843642 0 -1 0 0
0.0198892 0 0.15814242 0 -1 0 0
0.020671073 0 0.15888883 0 -1 0 0
0.022520298 0 0.15818992 0 -1 0 0
0.023224741 0 0.15888101 0 -1 0 0
0.026831562 0 0.15802766 0 -1 0 0
0.02738145 0 0.15868932 0 -1 0 0
0.028432192 0 0.15835384 0 -1 0 0
0.030129094 0 0.15818921 0 -1 0 0
0.031198829 0 0.15806666 0 -1 0 0
0.032527264 0 0.15872139 0 -1 0 0
0.033111706 0 0.15851685 0 -1 0 0
0.034789909 0 0.15821141 0 -1 0 0
0.035899546 0 0.15808204 0 -1 0 0
0.038594611 0 0.15878561 0 -1 0 0
0.040128868 0 0.15842709 0 -1 0 0
0.04110048 0 0.15800063 0 -1 0 0
0.042879451 0 0.15846451 0 -1 0 0
0.043237288 0 0.15882893 0 -1 0 0
0.045386851 0 0.15863268 0 -1 0 0
0.04680058 0 0.15858902 0 -1 0 0
0.052301645 0 0.15842675 0 -1 0 0
0.053603757 0 0.15829986 0 -1 0 0
0.054420158 0 0.15829086 0 -1 0 0
0.055624414 0 0.15881303 0 -1 0 0
0.057942744 0 0.15821533 0 -1 0 0
0.058563974 0 0.15847482 0 -1 0 0
0.0598212 0 0.15879932 0 -1 0 0
0.060358047 0 0.15882401 0 -1 0 0
0.06139623 0 0.15836908 0 -1 0 0
0.064070202 0 0.15898356 0 -1 0 0
0.067194894 0 0.15817311 0 -1 0 0
0.068093985 0 0.15854299 0 -1 0 0
0.069880188 0 0.15850568 0 -1 0 0
0.070437923 0 0.15866572 0 -1 0 0
0.071315996 0 0.15845114 0 -1 0 0
0.074756071 0 0.15800664 0 -1 0 0
0.075169452 0 0.15807244 0 -1 0 0
0.077560239 0 0.15835735 0 -1 0 0
0.079003565 0 0.15835597 0 -1 0 0
0.080659017 0 0.15808612 0 -1 0 0
0.082808472 0 0.15863548 0 -1 0 0
0.083776772 0 0.15875785 0 -1 0 0
0.085373826 0 0.15875973 0 -1 0 0
0.086731404 0 0.1584499 0 -1 0 0
0.087370068 0 0.15842508 0 -1 0 0
0.088111468 0 0.15814109 0 -1 0 0
0.089893557 0 0.15862499 0 -1 0 0
0.090718672 0 0.15867171 0 -1 0 0
0.092611693 0 0.15865082 0 -1 0 0
0.093348041 0 0.15860757 0 -1 0 0
0.094658293 0 0.15839122 0 -1 0 0
0.095820308 0 0.15865307 0 -1 0 0
0.09911795 0 0.15851101 0 -1 0 0
0.017889373 0.0014577915 0.1589447 -0.44721356 8.3300023e-07 0.89442724 0
0.1 0.0012726188 0.15890801 1 0 0 0
0.016675176 0.002523504 0.15833759 -0.44721353 2.9285167e-07 0.8944273 0
0.017805276 0.002747817 0.15890263 -0.4472135 2.9285164e-07 0.89442724 0
0.1 0.0026064904 0.15898475 1 0 0 0
0.016296342 0.0039918963 0.15814817 -0.4472135 2.9285164e-07 0.89442724 0
0.017424349 0.0030878962 0.15871218 -0.4472135 2.9285164e-07 0.89442724 0
0.016524399 0.0044374638 0.15826221 -0.4472135 2.9285164e-07 0.89442724 0
0.017514206 0.0048783654 0.15875709 -0.4472135 2.9285164e-07 0.89442724 0
0.1 0.004300022 0.1580777 1 0 0 0
0.016550519 0.0056134695 0.15827526 -0.4472135 2.9285164e-07 0.89442724 0
0.1 0.0054364949 0.15864538 1 0 0 0
0.016013931 0.0066862721 0.15800697 -0.4472135 2.9285164e-07 0.89442724 0
0.017952379 0.0064655999 0.1589762 -0.4472135 2.9285164e-07 0.89442724 0
0.1 0.0064544007 0.15873486 1 0 0 0
0.016774831 0.0074833054 0.15838744 -0.4472135 2.9285164e-07 0.89442724 0
0.017627416 0.0077190925 0.1588137 -0.4472135 2.9285164e-07 0.89442724 0
0.1 0.0078934701 0.15848057 1 0 0 0
0.017733684 0.0086366702 0.15886684 -0.4472135 2.9285164e-07 0.89442724 0
0.1 0.0083865337 0.15853487 1 0 0 0
0.016611816 0.0098912567 0.15829203 -0.39999986 0.4472138 0.79999995 0
0.017403383 0.0094090812 0.15870169 -0.4472135 2.9285164e-07 0.89442724 0
0.018430281 0.0099999998 0.15845799 0 1 0 0
0.020793796 0.0099999998 0.15821034 0 1 0 0
0.02167028 0.0099999998 0.15825123 0 1 0 0
0.022683941 0.0099999998 0.15820457 0 1 0 0
0.024289791 0.0099999998 0.15844655 0 1 0 0
0.027120601 0.0099999998 0.15848207 0 1 0 0
0.029692203 0.0099999998 0.15868053 0 1 0 0
0.031450577 0.0099999998 0.15860905 0 1 0 0
0.033487342 0.0099999988 0.15867947 0 1 0 0
0.034267157 0.0099999998 0.15844804 0 1 0 0
0.035727259 0.0099999998 0.15850241 0 1 0 0
0.039182037 0.0099999998 0.15849398 0 1 0 0
0.040560294 0.0099999998 0.15860832 0 1 0 0
0.041493643 0.0099999998 0.15834863 0 1 0 0
0.042520933 0.0099999998 0.15845598 0 1 0 0
0.043483984 0.0099999998 0.15815297 0 1 0 0
0.044155102 0.0099999998 0.15849677 0 1 0 0
0.045750529 0.0099999998 0.15881513 0 1 0 0
0.048473675 0.0099999998 0.15882234 0 1 0 0
0.049426094 0.0099999998 0.15836976 0 1 0 0
0.052287582 0.0099999998 0.15811941 0 1 0 0
0.054052241 0.0099999998 0.15886758 0 1 0 0
0.05524224 0.0099999998 0.1583297 0 1 0 0
0.057750851 0.0099999998 0.15801041 0 1 0 0
0.058429882 0.0099999998 0.15844128 0 1 0 0
0.060404807 0.0099999998 0.15864317 0 1 0 0
0.064208806 0.0099999998 0.15848744 0 1 0 0
0.066180006 0.0099999998 0.15840816 0 1 0 0
0.067388989 0.0099999998 0.15863433 0 1 0 0
0.068416409 0.0099999998 0.1588769 0 1 0 0
0.069498882 0.0099999998 0.15848544 0 1 0 0
0.070452236 0.0099999998 0.15872988 0 1 0 0
0.071961582 0.0099999998 0.15864563 0 1 0 0
0.072542071 0.0099999998 0.15868458 0 1 0 0
0.073584065 0.0099999998 0.15855739 0 1 0 0
0.074317761 0.0099999998 0.15850568 0 1 0 0
0.076064646 0.0099999998 0.15853517 0 1 0 0
0.077034563 0.0099999998 0.15810575 0 1 0 0
0.078689791 0.0099999998 0.15822308 0 1 0 0
0.082398087 0.0099999998 0.15856972 0 1 0 0
0.083489016 0.0099999998 0.15804251 0 1 0 0
0.085757166 0.0099999998 0.15885781 0 1 0 0
0.086296506 0.0099999998 0.15800457 0 1 0 0
0.087536953 0.0099999998 0.1584508 0 1 0 0
0.088809773 0.0099999998 0.15822768 0 1 0 0
0.089341089 0.0099999998 0.15811881 0 1 0 0
0.10000001 0.0093477787 0.1582491 1 0 0 0
0.019189458 0.010000001 0.15839289 0 1 0 0
0.022990504 0.010000001 0.15887907 0 1 0 0
0.044841852 0.010000001 0.15840548 0 1 0 0
0.06803032 0.010000001 0.15841301 0 1 0 0
0.073841192 0.010000001 0.15858687 0 1 0 0
0.090000004 0.011919806 0.15824701 -1 0 0 0
0.1 0.011234811 0.15887377 1 0 0 0
0.10000001 0.011593653 0.15898184 1 0 0 0
0.090000004 0.01235387 0.15870684 -1 0 0 0
0.1 0.012473033 0.15849103 1 0 0 0
0.089999996 0.013353659 0.15822107 -1 0 0 0
0.090000004 0.013458663 0.15819161 -1 0 0 0
0.090000004 0.014851082 0.15849333 -1 0 0 0
0.1 0.01474118 0.15854976 1 0 0 0
0.10000001 0.014935149 0.15848337 1 0 0 0
0.090000004 0.015039513 0.1580673 -1 0 0 0
0.1 0.015383494 0.15864548 1 0 0 0
0.10000001 0.016877769 0.15845022 1 0 0 0
0.090000004 0.017588314 0.15882301 -1 0 0 0
0.1 0.01754324 0.15816295 1 0 0 0
0.1 0.018056348 0.1586993 1 0 0 0
0.10000001 0.018422673 0.15870695 1 0 0 0
0.090000004 0.020294355 0.15834758 -1 0 0 0
0.1 0.020255338 0.15833341 1 0 0 0
0.090000004 0.021419132 0.15836608 -1 0 0 0
0.1 0.021549728 0.15864995 1 0 0 0
0.090000004 0.022589033 0.15838483 -1 0 0 0
0.1 0.022604294 0.15857451 1 0 0 0
0.090000004 0.023713138 0.1589257 -1 0 0 0
0.1 0.023664232 0.15814638 1 0 0 0
0.090000004 0.024175009 0.1586803 -1 0 0 0
0.1 0.024514172 0.15834136 1 0 0 0
0.10000001 0.024878129 0.15851226 1 0 0 0
0.090000004 0.025986582 0.15841889 -1 0 0 0
0.1 0.026717905 0.15836361 1 0 0 0
0.1 0.027352003 0.15847719 1 0 0 0
0.089999996 0.028713785 0.15860468 -1 0 0 0
0.090000004 0.028760063 0.15856262 -1 0 0 0
0.1 0.028277747 0.15869579 1 0 0 0
0.090000004 0.029436138 0.15862423 -1 0 0 0
0.090000004 0.030414402 0.15850852 -1 0 0 0
0.090000004 0.031572446 0.15896894 -1 0 0 0
0.090000004 0.032402173 0.1584 -1 0 0 0
0.1 0.032495093 0.15870574 1 0 0 0
0.10000001 0.03265183 0.15855883 1 0 0 0
0.090000004 0.033004683 0.15851639 -1 0 0 0
0.099999994 0.034903556 0.15813985 1 0 0 0
0.10000001 0.034516029 0.15813799 1 0 0 0
0.090000004 0.035395611 0.15820545 -1 0 0 0
0.1 0.035684567 0.15867472 1 0 0 0
0.10000001 0.035727434 0.15873691 1 0 0 0
0.090000004 0.03792518 0.15841313 -1 0 0 0
0.10000001 0.037130408 0.15801673 1 0 0 0
0.090000004 0.038465172 0.15888889 -1 0 0 0
0.10000001 0.038002484 0.15878932 1 0 0 0
0.016928278 0.039999999 0.15818101 0 -1 0 0
0.017045062 0.039999999 0.15837027 0 -1 0 0
0.018118376 0.039999999 0.15875505 0 -1 0 0
0.019093242 0.039999999 0.15803464 0 -1 0 0
0.023524888 0.039999999 0.15829393 0 -1 0 0
0.024358213 0.039999999 0.15887211 0 -1 0 0
0.025611918 0.039999999 0.15878788 0 -1 0 0
0.026253887 0.039999999 0.15820481 0 -1 0 0
0.028779648 0.039999999 0.15889658 0 -1 0 0
0.029278455 0.039999999 0.15827471 0 -1 0 0
0.030098476 0.039999999 0.15819551 0 -1 0 0
0.031270556 0.039999999 0.15858138 0 -1 0 0
0.032869048 0.039999999 0.15872593 0 -1 0 0
0.035546247 0.039999999 0.15853618 0 -1 0 0
0.037274614 0.039999999 0.15817723 0 -1 0 0
0.038378488 0.039999995 0.15840936 0 -1 0 0
0.039346516 0.039999999 0.15802361 0 -1 0 0
0.042170163 0.039999999 0.15805462 0 -1 0 0
0.044539325 0.039999999 0.15822542 0 -1 0 0
0.045558233 0.039999999 0.15834977 0 -1 0 0
0.046881963 0.039999999 0.15893866 0 -1 0 0
0.04833914 0.039999999 0.1582112 0 -1 0 0
0.050128527 0.039999999 0.15899742 0 -1 0 0
0.051634669 0.039999999 0.15861629 0 -1 0 0
0.052354801 0.039999999 0.15884514 0 -1 0 0
0.053863458 0.039999999 0.158756 0 -1 0 0
0.05465417 0.039999999 0.15825273 0 -1 0 0
0.057369098 0.039999999 0.15840703 0 -1 0 0
0.06066779 0.039999999 0.15858376 0 -1 0 0
0.061251342 0.039999999 0.15895043 0 -1 0 0
0.062519729 0.039999999 0.15840755 0 -1 0 0
0.06596081 0.039999999 0.15851755 0 -1 0 0
0.066763945 0.039999999 0.15872268 0 -1 0 0
0.067516074 0.039999999 0.15834373 0 -1 0 0
0.069412604 0.039999999 0.15868935 0 -1 0 0
0.07077904 0.039999999 0.15828523 0 -1 0 0
0.072949141 0.039999999 0.1583097 0 -1 0 0
0.073688641 0.039999999 0.15858932 0 -1 0 0
0.074391954 0.039999999 0.1586497 0 -1 0 0
0.075143822 0.039999999 0.15825996 0 -1 0 0
0.083850726 0.039999999 0.15830526 0 -1 0 0
0.084402107 0.039999999 0.15840164 0 -1 0 0
0.085529119 0.039999999 0.15842789 0 -1 0 0
0.086317778 0.039999999 0.15882392 0 -1 0 0
0.087114029 0.039999999 0.15866254 0 -1 0 0
0.088633515 0.039999999 0.1585114 0 -1 0 0
0.090000004 0.039530281 0.15855697 -1 0 0 0
0.1 0.039187651 0.1586639 1 0 0 0
0.016788369 0.040156253 0.1583156 -0.31622753 -0.70710713 0.63245523 0
0.017279901 0.040930152 0.15863995 -0.44721356 -3.9046881e-07 0.89442724 0
0.033919826 0.040000003 0.15859552 0 -1 0 0
0.034721859 0.040000003 0.15850618 0 -1 0 0
0.05580673 0.040000003 0.15824321 0 -1 0 0
0.1 0.040462501 0.15885527 1 0 0 0
0.1 0.040091258 0.15876813 1 0 0 0
0.016294748 0.04132095 0.15814736 -0.44721356 -3.9046881e-07 0.89442724 0
0.017282506 0.041636959 0.15864125 -0.44721356 -3.9046881e-07 0.89442724 0
0.016464643 0.042520463 0.15823233 -0.44721356 -3.9046881e-07 0.89442724 0
0.017575758 0.042212039 0.15878789 -0.44721356 -3.9046881e-07 0.89442724 0
0.099999994 0.042650931 0.15893507 1 0 0 0
0.10000001 0.043785535 0.15890418 1 0 0 0
0.016387694 0.044801973 0.15819384 -0.44721356 -3.9046881e-07 0.89442724 0
0.017418586 0.044932794 0.1587093 -0.44721356 -3.9046881e-07 0.89442724 0
0.016590619 0.04501126 0.1582953 -0.44721356 -3.9046881e-07 0.89442724 0
0.017591834 0.045266002 0.15879592 -0.44721356 -3.9046881e-07 0.89442724 0
0.1 0.045326043 0.15877648 1 0 0 0
0.017362466 0.04647341 0.15868124 -0.44721356 -3.9046881e-07 0.89442724 0
0.016362663 0.047607459 0.15818134 -0.44721356 -3.9046881e-07 0.89442724 0
0.017811351 0.04743268 0.15890568 -0.44721356 -3.9046881e-07 0.89442724 0
0.1 0.047638055 0.15862712 1 0 0 0
0.016408943 0.048626456 0.15820447 -0.44721356 -3.9046881e-07 0.89442724 0
0.017486094 0.048519295 0.15874304 -0.44721356 -3.9046881e-07 0.89442724 0
0.016460935 0.049097683 0.15823048 -0.44721356 -3.9046881e-07 0.89442724 0
0.018273367 0.050000001 0.1586751 0 1 0 0
0.021213505 0.049999997 0.15804678 0 1 0 0
0.023190655 0.050000001 0.1580767 0 1 0 0
0.024013922 0.050000001 0.15886925 0 1 0 0
0.025006387 0.049999997 0.15879115 0 1 0 0
0.028665347 0.050000001 0.15856726 0 1 0 0
0.029473685 0.050000001 0.15840361 0 1 0 0
0.031737305 0.049999997 0.15883584 0 1 0 0
0.033408888 0.050000001 0.15898152 0 1 0 0
0.035527006 0.050000001 0.15849183 0 1 0 0
0.038645741 0.050000001 0.15879032 0 1 0 0
0.039331075 0.050000001 0.15820336 0 1 0 0
0.040616263 0.050000001 0.15851071 0 1 0 0
0.042665903 0.050000001 0.15864296 0 1 0 0
0.043380328 0.049999997 0.15880595 0 1 0 0
0.044157993 0.049999997 0.15808176 0 1 0 0
0.048806988 0.050000001 0.15866134 0 1 0 0
0.049655985 0.050000001 0.15848702 0 1 0 0
0.050879855 0.050000001 0.15816331 0 1 0 0
0.052451618 0.050000001 0.1583955 0 1 0 0
0.055818137 0.050000001 0.1580078 0 1 0 0
0.056800697 0.049999997 0.158068 0 1 0 0
0.058558401 0.050000001 0.15863009 0 1 0 0
0.05946644 0.049999997 0.15855874 0 1 0 0
0.06164322 0.050000001 0.15896538 0 1 0 0
0.062968396 0.049999997 0.15828846 0 1 0 0
0.063317694 0.050000001 0.15871452 0 1 0 0
0.065046288 0.050000001 0.15835018 0 1 0 0
0.06975349 0.050000001 0.15823312 0 1 0 0
0.072510786 0.049999997 0.1583748 0 1 0 0
0.075296231 0.050000001 0.15887776 0 1 0 0
0.077483691 0.050000001 0.15858507 0 1 0 0
0.080483377 0.050000001 0.15810473 0 1 0 0
0.081083737 0.050000001 0.15849973 0 1 0 0
0.089183807 0.050000001 0.15888369 0 1 0 0
0.092413656 0.050000001 0.15835832 0 1 0 0
0.093392581 0.050000001 0.15840003 0 1 0 0
0.094422489 0.050000001 0.1588262 0 1 0 0
0.095201373 0.050000001 0.15802836 0 1 0 0
0.096789449 0.050000001 0.15867609 0 1 0 0
0.09771359 0.050000001 0.15893829 0 1 0 0
0.098332994 0.050000001 0.15896215 0 1 0 0
0.099946916 0.049839109 0.15807089 0.70710677 0.70710677 0 0
0.020845374 0.050000004 0.15834534 0 1 0 0
0.022698751 0.050000004 0.15822972 0 1 0 0
0.031706419 0.050000004 0.15887815 0 1 0 0
0.039341919 0.050000004 0.15880013 0 1 0 0
0.040746443 0.050000004 0.15888476 0 1 0 0
0.045107108 0.050000004 0.15834886 0 1 0 0
0.054440033 0.050000004 0.15880005 0 1 0 0
0.057685167 0.050000004 0.1589417 0 1 0 0
0.060300842 0.050000004 0.15831499 0 1 0 0
0.065207951 0.050000004 0.1584008 0 1 0 0
0.066355169 0.050000004 0.1589438 0 1 0 0
0.067664385 0.050000004 0.15862264 0 1 0 0
0.07331571 0.050000004 0.15834482 0 1 0 0
0.077757172 0.050000004 0.15883213 0 1 0 0
0.082994662 0.050000004 0.15849635 0 1 0 0
0.084675692 0.050000004 0.15875611 0 1 0 0
0.018488841 0.00038328083 0.1592444 -0.44721356 8.3300023e-07 0.89442724 0
0.021604532 0 0.1598064 0 -1 0 0
0.024401471 0 0.15956408 0 -1 0 0
0.025437046 0 0.15986708 0 -1 0 0
0.029638311 0 0.15979695 0 -1 0 0
0.030580575 0 0.15900041 0 -1 0 0
0.031506099 0 0.15953174 0 -1 0 0
0.032282051 0 0.15930501 0 -1 0 0
0.035000511 0 0.15941995 0 -1 0 0
0.036893647 0 0.15938216 0 -1 0 0
0.038996 0 0.15985486 0 -1 0 0
0.039195497 0 0.1596785 0 -1 0 0
0.040428028 0 0.15964688 0 -1 0 0
0.042987119 0 0.15941289 0 -1 0 0
0.043135043 0 0.15938939 0 -1 0 0
0.044236489 0 0.15939426 0 -1 0 0
0.04529544 0 0.15989126 0 -1 0 0
0.048308369 0 0.15927243 0 -1 0 0
0.049438611 0 0.15952328 0 -1 0 0
0.051732793 0 0.15932387 0 -1 0 0
0.052337535 0 0.15972754 0 -1 0 0
0.053545859 0 0.15961199 0 -1 0 0
0.054984558 0 0.15977331 0 -1 0 0
0.057248112 0 0.15949079 0 -1 0 0
0.059304215 0 0.15975323 0 -1 0 0
0.060958959 0 0.15902404 0 -1 0 0
0.061931908 0 0.15988016 0 -1 0 0
0.063244306 0 0.15921235 0 -1 0 0
0.064154267 0 0.15981382 0 -1 0 0
0.065482691 0 0.15921801 0 -1 0 0
0.066721782 0 0.15948328 0 -1 0 0
0.069227934 0 0.15999539 0 -1 0 0
0.070936598 0 0.15984146 0 -1 0 0
0.072947584 0 0.15950187 0 -1 0 0
0.073722728 0 0.15948634 0 -1 0 0
0.074666016 0 0.15903273 0 -1 0 0
0.075369909 0 0.15955359 0 -1 0 0
0.076473713 0 0.15940499 0 -1 0 0
0.077183388 0 0.1591403 0 -1 0 0
0.082714461 0 0.15917653 0 -1 0 0
0.083608218 0 0.15992586 0 -1 0 0
0.08440724 0 0.15952179 0 -1 0 0
0.086652987 0 0.15996231 0 -1 0 0
0.087096646 0 0.15926448 0 -1 0 0
0.088747457 0 0.15971285 0 -1 0 0
0.089749381 0 0.15936935 0 -1 0 0
0.092582755 0 0.15930322 0 -1 0 0
0.09353707 0 0.15985823 0 -1 0 0
0.094167851 0 0.15914999 0 -1 0 0
0.095115617 0 0.15913792 0 -1 0 0
0.096848503 0 0.15907997 0 -1 0 0
0.098331571 0 0.15924746 0 -1 0 0
0.1 0.00048383279 0.15920378 1 0 0 0
0.1 0.0016132444 0.15918426 1 0 0 0
0.018631132 0.0024087266 0.15931557 -0.44721353 2.9285167e-07 0.8944273 0
0.019862862 0.0024613754 0.15993142 -0.4472135 2.9285164e-07 0.89442724 0
0.1 0.0021391988 0.15936659 1 0 0 0
0.019307001 0.0033113589 0.15965351 -0.4472135 2.9285164e-07 0.89442724 0
0.01867969 0.0041427482 0.15933985 -0.4472135 2.9285164e-07 0.89442724 0
0.019807426 0.00464204 0.15990372 -0.4472135 2.9285164e-07 0.89442724 0
0.099999994 0.0044681579 0.15962595 1 0 0 0
0.018553894 0.0054361857 0.15927695 -0.4472135 2.9285164e-07 0.89442724 0
0.019500295 0.0056140474 0.15975016 -0.4472135 2.9285164e-07 0.89442724 0
0.019998148 0.0067488649 0.15999907 -0.4472135 2.9285164e-07 0.89442724 0
0.018444138 0.0075379582 0.15922207 -0.4472135 2.9285164e-07 0.89442724 0
0.019394111 0.0070975604 0.15969706 -0.4472135 2.9285164e-07 0.89442724 0
0.1 0.0079268534 0.15943041 1 0 0 0
0.019856956 0.0082815755 0.15992849 -0.4472135 2.9285164e-07 0.89442724 0
0.018948976 0.0099999998 0.15914561 0 1 0 0
0.019525044 0.009801724 0.15967672 -0.31622767 0.70710689 0.63245553 0
0.020832632 0.0099999998 0.15945554 0 1 0 0
0.021388257 0.0099999998 0.15959086 0 1 0 0
0.022530917 0.0099999998 0.15957427 0 1 0 0
0.024688158 0.0099999998 0.15994874 0 1 0 0
0.025379369 0.0099999998 0.15971211 0 1 0 0
0.026969247 0.0099999998 0.15920067 0 1 0 0
0.027288575 0.0099999998 0.15960333 0 1 0 0
0.028209934 0.0099999998 0.15924674 0 1 0 0
0.029316725 0.0099999998 0.15919963 0 1 0 0
0.030275408 0.0099999998 0.15920128 0 1 0 0
0.031716846 0.0099999998 0.15959977 0 1 0 0
0.035726324 0.0099999998 0.15939069 0 1 0 0
0.038152248 0.0099999998 0.15960367 0 1 0 0
0.042432044 0.0099999998 0.15992421 0 1 0 0
0.043923542 0.0099999998 0.15901797 0 1 0 0
0.044259701 0.0099999998 0.15960626 0 1 0 0
0.04581387 0.0099999998 0.15928152 0 1 0 0
0.047056124 0.0099999998 0.1596711 0 1 0 0
0.048478197 0.0099999998 0.15906802 0 1 0 0
0.049573041 0.0099999998 0.15913318 0 1 0 0
0.050159935 0.0099999998 0.15961668 0 1 0 0
0.051773354 0.0099999998 0.15952148 0 1 0 0
0.052797202 0.0099999998 0.15900853 0 1 0 0
0.053087249 0.0099999998 0.15994683 0 1 0 0
0.05494583 0.0099999998 0.1593141 0 1 0 0
0.057508014 0.0099999998 0.15955719 0 1 0 0
0.059557535 0.0099999998 0.15957904 0 1 0 0
0.060271714 0.0099999998 0.15939558 0 1 0 0
0.061889566 0.0099999998 0.1599094 0 1 0 0
0.062461477 0.0099999998 0.15963244 0 1 0 0
0.063979819 0.0099999998 0.15947555 0 1 0 0
0.064926468 0.0099999998 0.15968217 0 1 0 0
0.066489719 0.0099999998 0.15934087 0 1 0 0
0.067551821 0.0099999998 0.15995416 0 1 0 0
0.069800444 0.0099999998 0.15992059 0 1 0 0
0.070695378 0.0099999998 0.15950516 0 1 0 0
0.071601808 0.0099999998 0.15928617 0 1 0 0
0.072982296 0.0099999998 0.15929002 0 1 0 0
0.073113464 0.0099999988 0.15918431 0 1 0 0
0.074766919 0.0099999998 0.15963987 0 1 0 0
0.076532483 0.0099999998 0.1597832 0 1 0 0
0.07733424 0.0099999998 0.15947703 0 1 0 0
0.078326978 0.0099999998 0.15955006 0 1 0 0
0.079382338 0.0099999988 0.15931737 0 1 0 0
0.080814473 0.0099999998 0.15978564 0 1 0 0
0.08553163 0.0099999998 0.15925957 0 1 0 0
0.086869463 0.0099999998 0.15927203 0 1 0 0
0.088072166 0.0099999998 0.15955535 0 1 0 0
0.099999994 0.0096017746 0.15917292 1 0 0 0
0.059143633 0.010000001 0.15917641 0 1 0 0
0.064515032 0.010000001 0.15982988 0 1 0 0
0.067728586 0.010000001 0.15963262 0 1 0 0
0.085202798 0.010000001 0.15967865 0 1 0 0
0.090000004 0.01094175 0.15936472 -1 0 0 0
0.1 0.010343938 0.15945503 1 0 0 0
0.090000004 0.011851956 0.15902556 -1 0 0 0
0.090000004 0.012518222 0.15941881 -1 0 0 0
0.090000004 0.013675505 0.15999681 -1 0 0 0
0.1 0.013042947 0.1591614 1 0 0 0
0.090000004 0.014652206 0.1590995 -1 0 0 0
0.1 0.014435637 0.15965764 1 0 0 0
0.1 0.015423776 0.15919518 1 0 0 0
0.1 0.016526494 0.15963244 1 0 0 0
0.1 0.017636755 0.15910402 1 0 0 0
0.090000004 0.018612837 0.1592412 -1 0 0 0
0.090000004 0.019808449 0.15983075 -1 0 0 0
0.090000004 0.020338021 0.15966207 -1 0 0 0
0.10000001 0.020728264 0.15994613 1 0 0 0
0.090000004 0.021627255 0.15960208 -1 0 0 0
0.090000004 0.022456259 0.15969163 -1 0 0 0
0.099999994 0.022683855 0.15979151 1 0 0 0
0.10000001 0.023130264 0.15979783 1 0 0 0
0.090000004 0.024572847 0.15952748 -1 0 0 0
0.10000001 0.024529925 0.15931585 1 0 0 0
0.090000004 0.027535256 0.15972473 -1 0 0 0
0.1 0.028618798 0.15978715 1 0 0 0
0.10000001 0.028313041 0.15968846 1 0 0 0
