# .PCD v0.7 - Point Cloud Data file format
VERSION 0.7
FIELDS x y z normal_x normal_y normal_z curvature
SIZE 4 4 4 4 4 4 4
TYPE F F F F F F F
COUNT 1 1 1 1 1 1 1
WIDTH 1086
HEIGHT 1
VIEWPOINT 0 0 0 1 0 0 0
POINTS 1086
DATA ascii
0.090000004 0.048305694 0.072747163 -1 0 0 0
0.1 0.04817751 0.072612412 1 0 0 0
-6.7176578e-18 0.049293034 0.072608739 -1 0 -9.2518583e-17 0
0.0099999998 0.049182218 0.072333448 1 0 0 0
0.090000004 0.049436145 0.072544262 -1 0 0 0
-6.7437943e-18 0.050227929 0.072891243 -1 0 -9.2518583e-17 0
0.0099999998 0.050138228 0.072485492 1 0 0 0
0.1 0.050400738 0.072469443 1 0 0 0
-6.7035068e-18 0.05149034 0.072455786 -1 0 -9.2518583e-17 0
0.0099999998 0.051367428 0.072913855 1 0 0 0
0.0099999998 0.052853759 0.07207913 1 0 0 0
0.090000004 0.052765243 0.072252631 -1 0 0 0
0.1 0.052354332 0.072203465 1 0 0 0
-6.6925343e-18 0.053661969 0.072337188 -1 0 -9.2518583e-17 0
0.0099999998 0.053425685 0.072628267 1 0 0 0
-6.7406439e-18 0.054926857 0.072857194 -1 0 -9.2518583e-17 0
0.099999994 0.054995608 0.072343312 1 0 0 0
-6.7366813e-18 0.055168521 0.07281436 -1 0 -9.2518583e-17 0
0.0099999998 0.05542374 0.072121091 1 0 0 0
0.090000004 0.055224791 0.07254792 -1 0 0 0
-6.6934508e-18 0.056530926 0.072347097 -1 0 -9.2518583e-17 0
0.0099999998 0.057412721 0.072833098 1 0 0 0
0.090000004 0.058470041 0.072093323 -1 0 0 0
-6.7270902e-18 0.059391215 0.072710693 -1 0 -9.2518583e-17 0
0.0099999998 0.059565816 0.072522417 1 0 0 0
0.1 0.060449 0.072487466 1 0 0 0
-6.7071373e-18 0.061569944 0.072495036 -1 0 -9.2518583e-17 0
0.090000004 0.061803564 0.072110228 -1 0 0 0
0.1 0.0611117 0.072134301 1 0 0 0
-6.6842046e-18 0.062779009 0.072247162 -1 0 -9.2518583e-17 0
-6.673871e-18 0.063267961 0.072135463 -1 0 -9.2518583e-17 0
0.0099999998 0.063046575 0.072856918 1 0 0 0
0.090000004 0.063644923 0.072521344 -1 0 0 0
0.10000001 0.063735843 0.07293909 1 0 0 0
-6.7498389e-18 0.064303778 0.072956577 -1 0 -9.2518583e-17 0
0.090000004 0.064713523 0.072721668 -1 0 0 0
0.0099999998 0.065958321 0.072283402 1 0 0 0
-6.7050967e-18 0.066429809 0.072472967 -1 0 -9.2518583e-17 0
0.090000004 0.066193156 0.072899096 -1 0 0 0
0.099999994 0.066537887 0.072939835 1 0 0 0
0.0099999998 0.067682847 0.072833985 1 0 0 0
0.090000004 0.067446947 0.072465301 -1 0 0 0
0.1 0.067866407 0.072455212 1 0 0 0
0.10000001 0.067584686 0.072229989 1 0 0 0
-6.7074595e-18 0.068593048 0.072498508 -1 0 -9.2518583e-17 0
0.0099999998 0.068118855 0.072825052 1 0 0 0
0.090000004 0.068187833 0.072422646 -1 0 0 0
0.099999994 0.068236008 0.072104476 1 0 0 0
-6.7157119e-18 0.069195718 0.072587706 -1 0 -9.2518583e-17 0
0.099999994 0.069705889 0.072277807 1 0 0 0
0.0099999998 0.070640579 0.072926089 1 0 0 0
0.090000004 0.070471093 0.072906159 -1 0 0 0
0.1 0.071528174 0.072818443 1 0 0 0
0.0099999998 0.072592437 0.072465248 1 0 0 0
0.090000004 0.072406903 0.07265491 -1 0 0 0
-6.6893811e-18 0.073280595 0.072303109 -1 0 -9.2518583e-17 0
0.090000004 0.073613055 0.072553985 -1 0 0 0
-6.71445e-18 0.074346684 0.072574079 -1 0 -9.2518583e-17 0
0.0099999998 0.074366987 0.072444625 1 0 0 0
0.090000004 0.074630618 0.07248579 -1 0 0 0
0.1 0.074217223 0.072543584 1 0 0 0
0.090000004 0.07510367 0.072821364 -1 0 0 0
-6.7347978e-18 0.076959133 0.072794005 -1 0 -9.2518583e-17 0
0.0099999998 0.076224506 0.072498463 1 0 0 0
0.090000004 0.076615021 0.072295159 -1 0 0 0
0.1 0.076389313 0.072252676 1 0 0 0
0.10000001 0.076026656 0.072288133 1 0 0 0
-6.6678814e-18 0.077163495 0.072070733 -1 0 -9.2518583e-17 0
-6.7298153e-18 0.07843554 0.072740145 -1 0 -9.2518583e-17 0
0.0099999998 0.078251816 0.07261999 1 0 0 0
0.090000004 0.078041941 0.072281465 -1 0 0 0
0.099999994 0.078190163 0.072073482 1 0 0 0
0.099999994 0.07996808 0.072523616 1 0 0 0
0.090000004 0.08091104 0.072889097 -1 0 0 0
0.099999994 0.080261596 0.072639368 1 0 0 0
0.10000001 0.08064118 0.072442919 1 0 0 0
0.10000001 0.081061102 0.072619475 1 0 0 0
-6.7494915e-18 0.08230643 0.072952822 -1 0 -9.2518583e-17 0
0.0099999998 0.082001247 0.072319604 1 0 0 0
0.090000004 0.082658008 0.072904676 -1 0 0 0
-6.7136903e-18 0.083638638 0.072565854 -1 0 -9.2518583e-17 0
0.0099999998 0.083288357 0.072732992 1 0 0 0
0.090000004 0.083889455 0.072637185 -1 0 0 0
0.099999994 0.083350025 0.072610982 1 0 0 0
-6.697011e-18 0.084882386 0.072385579 -1 0 -9.2518583e-17 0
0.0099999998 0.084176712 0.072666347 1 0 0 0
0.10000001 0.084122866 0.072331801 1 0 0 0
0.0099999998 0.085566722 0.072322302 1 0 0 0
0.0099999998 0.086177811 0.072210036 1 0 0 0
0.099999994 0.086780488 0.072913013 1 0 0 0
-6.6945034e-18 0.087378442 0.072358474 -1 0 -9.2518583e-17 0
0.090000004 0.087504655 0.072238274 -1 0 0 0
-6.7437872e-18 0.08868286 0.072891168 -1 0 -9.2518583e-17 0
0.0099999998 0.08805193 0.072195224 1 0 0 0
-6.7033009e-18 0.089380279 0.072453566 -1 0 -9.2518583e-17 0
0.0099999998 0.089758515 0.072813474 1 0 0 0
0.090000004 0.089344695 0.072790734 -1 0 0 0
0.016688813 0.090000004 0.07253594 0 -1 0 0
0.019608449 0.090000004 0.072737962 0 -1 0 0
0.020862427 0.090000004 0.072131321 0 -1 0 0
0.021622516 0.090000004 0.072005436 0 -1 0 0
0.024824195 0.090000004 0.07244771 0 -1 0 0
0.025324579 0.090000004 0.072032034 0 -1 0 0
0.026761055 0.090000004 0.072710767 0 -1 0 0
0.030548973 0.090000004 0.072763123 0 -1 0 0
0.033916231 0.090000004 0.072855867 0 -1 0 0
0.036366411 0.090000004 0.072462395 0 -1 0 0
0.037464038 0.090000004 0.072587892 0 -1 0 0
0.041082647 0.090000004 0.072278768 0 -1 0 0
0.042874243 0.090000004 0.072988898 0 -1 0 0
0.043371566 0.090000004 0.072158173 0 -1 0 0
0.045487016 0.090000004 0.072552845 0 -1 0 0
0.046378717 0.090000004 0.072009362 0 -1 0 0
0.049627494 0.090000004 0.072978996 0 -1 0 0
0.051347658 0.090000004 0.07246615 0 -1 0 0
0.052166913 0.090000004 0.072682694 0 -1 0 0
0.054678835 0.090000004 0.072179891 0 -1 0 0
0.055081107 0.090000004 0.072324924 0 -1 0 0
0.056100555 0.090000004 0.072063401 0 -1 0 0
0.057543941 0.090000004 0.072182149 0 -1 0 0
0.058414035 0.090000004 0.072195143 0 -1 0 0
0.059932835 0.090000004 0.072809048 0 -1 0 0
0.065839872 0.090000004 0.072332673 0 -1 0 0
0.067832254 0.090000004 0.072426558 0 -1 0 0
0.068548031 0.090000004 0.072970942 0 -1 0 0
0.069729537 0.090000004 0.072994128 0 -1 0 0
0.071533322 0.090000004 0.072540745 0 -1 0 0
0.073764041 0.090000004 0.072268315 0 -1 0 0
0.074925557 0.090000004 0.072070345 0 -1 0 0
0.07637646 0.090000004 0.072646134 0 -1 0 0
0.078735955 0.090000004 0.072414942 0 -1 0 0
0.080746554 0.090000004 0.072464108 0 -1 0 0
0.082212731 0.090000004 0.072041415 0 -1 0 0
0.084590279 0.090000004 0.07206481 0 -1 0 0
0.085518554 0.090000004 0.072321787 0 -1 0 0
0.08629404 0.090000004 0.072405711 0 -1 0 0
0.08733283 0.090000004 0.072672315 0 -1 0 0
0.10000001 0.091210991 0.072593562 1 0 0 0
-6.7032665e-18 0.092147201 0.072453193 -1 0 -9.2518583e-17 0
0.10000001 0.09271016 0.072880797 1 0 0 0
-6.7384697e-18 0.093383029 0.072833695 -1 0 -9.2518583e-17 0
-6.708477e-18 0.095375612 0.072509505 -1 0 -9.2518583e-17 0
0.099999994 0.095754974 0.072290607 1 0 0 0
0.10000001 0.095786244 0.072125487 1 0 0 0
-6.7235523e-18 0.096889243 0.072672457 -1 0 -9.2518583e-17 0
0.10000001 0.096655473 0.07213039 1 0 0 0
0.1 0.097186737 0.072209522 1 0 0 0
-6.6965159e-18 0.098401338 0.072380222 -1 0 -9.2518583e-17 0
0.0025292679 0.1 0.072491452 0 1 0 0
0.0033446569 0.1 0.072266713 0 1 0 0
0.0043658651 0.1 0.072290219 0 1 0 0
0.0059266738 0.1 0.072947845 0 1 0 0
0.0083689345 0.1 0.072354414 0 1 0 0
0.0096219508 0.1 0.072881132 0 1 0 0
0.010639539 0.1 0.07266704 0 1 0 0
0.012030501 0.1 0.072981782 0 1 0 0
0.014432653 0.1 0.0722697 0 1 0 0
0.019930659 0.1 0.072058663 0 1 0 0
0.021810394 0.1 0.072229289 0 1 0 0
0.02385691 0.1 0.072947115 0 1 0 0
0.024439259 0.1 0.072783433 0 1 0 0
0.026107969 0.1 0.072644763 0 1 0 0
0.028554898 0.1 0.072529674 0 1 0 0
0.033049639 0.099999994 0.072448745 0 1 0 0
0.036468547 0.1 0.072547987 0 1 0 0
0.037428111 0.099999994 0.072559223 0 1 0 0
0.039657235 0.1 0.072444625 0 1 0 0
0.040658742 0.1 0.072722629 0 1 0 0
0.042167194 0.1 0.072056435 0 1 0 0
0.043683827 0.1 0.072164655 0 1 0 0
0.044375241 0.1 0.072715923 0 1 0 0
0.04719767 0.1 0.072450228 0 1 0 0
0.049163934 0.1 0.072593063 0 1 0 0
0.050840147 0.1 0.072591998 0 1 0 0
0.051837813 0.1 0.072699971 0 1 0 0
0.052577078 0.1 0.0725872 0 1 0 0
0.053592432 0.1 0.072145879 0 1 0 0
0.054968189 0.1 0.072732151 0 1 0 0
0.055802822 0.1 0.072756231 0 1 0 0
0.057229973 0.1 0.072412096 0 1 0 0
0.058847167 0.1 0.072193429 0 1 0 0
0.061855882 0.1 0.072598517 0 1 0 0
0.062068749 0.1 0.072608449 0 1 0 0
0.064959258 0.1 0.072529122 0 1 0 0
0.067080371 0.099999994 0.07240691 0 1 0 0
0.068674207 0.1 0.072476164 0 1 0 0
0.069834061 0.1 0.072761677 0 1 0 0
0.070074148 0.1 0.072307833 0 1 0 0
0.071593054 0.1 0.072220489 0 1 0 0
0.073569216 0.1 0.072511286 0 1 0 0
0.074900456 0.1 0.072330534 0 1 0 0
0.076083973 0.1 0.072123602 0 1 0 0
0.079270899 0.1 0.072539248 0 1 0 0
0.083433665 0.1 0.072876841 0 1 0 0
0.087277934 0.1 0.072095297 0 1 0 0
0.089350253 0.099999994 0.072842032 0 1 0 0
0.091238603 0.1 0.072311394 0 1 0 0
0.093616135 0.1 0.072121471 0 1 0 0
0.094398186 0.099999994 0.072581485 0 1 0 0
0.096716449 0.1 0.072410025 0 1 0 0
0.098634072 0.1 0.072175361 0 1 0 0
0.10000001 0.099036455 0.072520502 1 0 0 0
0.011821597 0.10000001 0.072407544 0 1 0 0
0.03257928 0.10000001 0.072605275 0 1 0 0
0.043791875 0.10000001 0.072435573 0 1 0 0
0.063490361 0.10000001 0.072508574 0 1 0 0
0.066523753 0.10000001 0.072056949 0 1 0 0
0.074449025 0.10000001 0.072917677 0 1 0 0
0.079292439 0.10000001 0.072667897 0 1 0 0
0.083595544 0.10000001 0.07229089 0 1 0 0
0.09115652 0.10000001 0.07258039 0 1 0 0
0.092730343 0.10000001 0.072763778 0 1 0 0
0.095505498 0.10000001 0.07292524 0 1 0 0
0.096345171 0.10000001 0.072387323 0 1 0 0
0.0011266292 0 0.073971875 0 -1 0 0
0.0029006482 0 0.073374376 0 -1 0 0
0.0039247395 0 0.073939979 0 -1 0 0
0.0049780249 0 0.073356092 0 -1 0 0
0.0054974975 0 0.073515341 0 -1 0 0
0.0066426843 0 0.073548153 0 -1 0 0
0.012147737 0 0.073910914 0 -1 0 0
0.014398498 0 0.073135316 0 -1 0 0
0.015918022 0 0.07374797 0 -1 0 0
0.016963512 0 0.073448539 0 -1 0 0
0.020650817 0 0.073946446 0 -1 0 0
0.021785146 0 0.073455825 0 -1 0 0
0.022146273 0 0.073643535 0 -1 0 0
0.023486558 0 0.073698394 0 -1 0 0
0.02545331 0 0.073892817 0 -1 0 0
0.027841801 0 0.073318928 0 -1 0 0
0.02823931 0 0.073888078 0 -1 0 0
0.029713649 0 0.073390454 0 -1 0 0
0.030312961 0 0.073853642 0 -1 0 0
0.035500895 0 0.073017798 0 -1 0 0
0.036691744 0 0.073949456 0 -1 0 0
0.041214988 0 0.073737457 0 -1 0 0
0.045517653 0 0.073584236 0 -1 0 0
0.046716295 0 0.073273957 0 -1 0 0
0.047833338 0 0.073461041 0 -1 0 0
0.048315234 0 0.073201165 0 -1 0 0
0.049680568 0 0.073930763 0 -1 0 0
0.050538521 0 0.073529899 0 -1 0 0
0.051987261 0 0.073509172 0 -1 0 0
0.052576452 0 0.073405117 0 -1 0 0
0.053328507 0 0.07339374 0 -1 0 0
0.057576448 0 0.073352471 0 -1 0 0
0.058513805 0 0.073552534 0 -1 0 0
0.061490111 0 0.073825106 0 -1 0 0
0.063114695 0 0.073528692 0 -1 0 0
0.065106042 0 0.073933706 0 -1 0 0
0.06823197 0 0.073484786 0 -1 0 0
0.071191862 0 0.073595382 0 -1 0 0
0.075896159 0 0.073655494 0 -1 0 0
0.077126443 0 0.073554799 0 -1 0 0
0.079105839 0 0.073742092 0 -1 0 0
0.080644801 0 0.073280036 0 -1 0 0
0.08303684 0 0.073555179 0 -1 0 0
0.085373759 0 0.073882416 0 -1 0 0
0.08813782 0 0.073529959 0 -1 0 0
0.089602076 0 0.073699467 0 -1 0 0
0.090238117 0 0.073642902 0 -1 0 0
0.091906212 0 0.073610969 0 -1 0 0
0.092608593 0 0.073427647 0 -1 0 0
0.093277156 0 0.073046334 0 -1 0 0
0.095858067 0 0.073176876 0 -1 0 0
0.096667945 0 0.073287681 0 -1 0 0
0.098878168 0 0.073242538 0 -1 0 0
-6.7910015e-18 0.0026456229 0.073401488 -1 0 -9.2518583e-17 0
-6.807883e-18 0.0033200728 0.073583953 -1 0 -9.2518583e-17 0
0.1 0.0045537413 0.073942907 1 0 0 0
-6.8133378e-18 0.0059865001 0.07364291 -1 0 -9.2518583e-17 0
0.1 0.0053305863 0.073989801 1 0 0 0
-6.7954699e-18 0.0067788335 0.073449783 -1 0 -9.2518583e-17 0
-6.8011965e-18 0.0075999489 0.073511682 -1 0 -9.2518583e-17 0
0.1 0.0085543422 0.073483922 1 0 0 0
-6.79378e-18 0.0096097169 0.073431514 -1 0 -9.2518583e-17 0
0.010654636 0.0099999998 0.07338877 0 1 0 0
0.01192715 0.0099999998 0.073766142 0 1 0 0
0.012267859 0.0099999998 0.073760822 0 1 0 0
0.013183987 0.0099999998 0.073231645 0 1 0 0
0.014329876 0.0099999998 0.073845297 0 1 0 0
0.017756514 0.0099999998 0.073189244 0 1 0 0
0.018345909 0.0099999998 0.073676147 0 1 0 0
0.020706575 0.0099999998 0.073299974 0 1 0 0
0.02139285 0.0099999998 0.073162794 0 1 0 0
0.02214589 0.0099999998 0.073428333 0 1 0 0
0.023619968 0.0099999998 0.073035762 0 1 0 0
0.024300281 0.0099999998 0.07380335 0 1 0 0
0.02771089 0.0099999998 0.073148683 0 1 0 0
0.029648067 0.0099999998 0.073385298 0 1 0 0
0.031059124 0.0099999998 0.073394686 0 1 0 0
0.034876592 0.0099999998 0.0731721 0 1 0 0
0.036650009 0.0099999998 0.073478915 0 1 0 0
0.037001211 0.0099999998 0.073244497 0 1 0 0
0.041388445 0.0099999998 0.073350146 0 1 0 0
0.046679061 0.0099999998 0.073615424 0 1 0 0
0.047502048 0.0099999998 0.073695101 0 1 0 0
0.049484439 0.0099999998 0.073603213 0 1 0 0
0.050150611 0.0099999998 0.073742151 0 1 0 0
0.054605991 0.0099999998 0.07337445 0 1 0 0
0.057491884 0.0099999998 0.073487327 0 1 0 0
0.058618329 0.0099999998 0.073346324 0 1 0 0
0.059919011 0.0099999998 0.073201254 0 1 0 0
0.063791916 0.0099999998 0.073690839 0 1 0 0
0.065617986 0.0099999998 0.073334061 0 1 0 0
0.067494363 0.0099999998 0.073875301 0 1 0 0
0.068134449 0.0099999998 0.073899455 0 1 0 0
0.069154367 0.0099999998 0.07334426 0 1 0 0
0.070894428 0.0099999998 0.073542289 0 1 0 0
0.075416774 0.0099999998 0.073312685 0 1 0 0
0.076357469 0.0099999998 0.073524386 0 1 0 0
0.078179881 0.0099999998 0.073897421 0 1 0 0
0.081928506 0.0099999998 0.073208354 0 1 0 0
0.087082841 0.0099999998 0.073855788 0 1 0 0
0.089313388 0.0099999998 0.073229574 0 1 0 0
0.1 0.0090168063 0.073426597 1 0 0 0
-6.8065789e-18 0.010529418 0.073569857 -1 0 -9.2518583e-17 0
0.083181798 0.010000001 0.07310158 0 1 0 0
0.090000004 0.010615631 0.073088132 -1 0 0 0
0.1 0.010929751 0.073967226 1 0 0 0
-6.836005e-18 0.011251532 0.073887914 -1 0 -9.2518583e-17 0
0.0099999998 0.011664895 0.073391475 1 0 0 0
-6.7592592e-18 0.012963 0.073058397 -1 0 -9.2518583e-17 0
0.0099999998 0.01235015 0.073601343 1 0 0 0
0.090000004 0.01219563 0.073063068 -1 0 0 0
-6.7963401e-18 0.013373578 0.073459193 -1 0 -9.2518583e-17 0
0.1 0.013481319 0.073263943 1 0 0 0
-6.8085187e-18 0.014124314 0.073590823 -1 0 -9.2518583e-17 0
0.1 0.014767319 0.073823713 1 0 0 0
0.0099999998 0.015398812 0.073357925 1 0 0 0
0.1 0.015315006 0.07351654 1 0 0 0
0.10000001 0.015922297 0.073873818 1 0 0 0
0.090000004 0.01663094 0.073511913 -1 0 0 0
0.1 0.016443437 0.073160075 1 0 0 0
0.10000001 0.01645996 0.073466241 1 0 0 0
-6.8369149e-18 0.017683344 0.073897749 -1 0 -9.2518583e-17 0
0.1 0.017589731 0.073891118 1 0 0 0
-6.7907095e-18 0.01831481 0.073398329 -1 0 -9.2518583e-17 0
0.0099999998 0.018562021 0.073673137 1 0 0 0
0.090000004 0.018410925 0.073657662 -1 0 0 0
0.1 0.018592918 0.073307075 1 0 0 0
-6.7774191e-18 0.019341189 0.073254682 -1 0 -9.2518583e-17 0
0.0099999998 0.019928895 0.073643722 1 0 0 0
0.090000004 0.019214505 0.073787853 -1 0 0 0
0.1 0.019451035 0.07346113 1 0 0 0
-6.7870128e-18 0.020673389 0.073358372 -1 0 -9.2518583e-17 0
0.0099999998 0.020568825 0.073999509 1 0 0 0
0.090000004 0.020276435 0.073901713 -1 0 0 0
-6.8398192e-18 0.021796718 0.073929138 -1 0 -9.2518583e-17 0
0.090000004 0.021220816 0.073669448 -1 0 0 0
0.1 0.021861965 0.073297858 1 0 0 0
-6.8093185e-18 0.022928208 0.073599473 -1 0 -9.2518583e-17 0
0.0099999998 0.022308679 0.073648326 1 0 0 0
0.1 0.022484994 0.073321849 1 0 0 0
0.10000001 0.022382814 0.073348597 1 0 0 0
-6.8136579e-18 0.023516275 0.073646374 -1 0 -9.2518583e-17 0
0.090000004 0.023252793 0.073324211 -1 0 0 0
-6.8385188e-18 0.024172222 0.073915087 -1 0 -9.2518583e-17 0
0.0099999998 0.024127612 0.073510915 1 0 0 0
0.1 0.024734819 0.073366985 1 0 0 0
-6.7674649e-18 0.025966609 0.073147088 -1 0 -9.2518583e-17 0
0.090000004 0.025443489 0.073847957 -1 0 0 0
0.1 0.025166834 0.073901273 1 0 0 0
-6.8359232e-18 0.026781216 0.073887028 -1 0 -9.2518583e-17 0
0.1 0.026724732 0.073663689 1 0 0 0
0.10000001 0.026044954 0.073456377 1 0 0 0
-6.795297e-18 0.027122339 0.073447913 -1 0 -9.2518583e-17 0
-6.8313265e-18 0.028474241 0.073837347 -1 0 -9.2518583e-17 0
0.0099999998 0.028516479 0.073993616 1 0 0 0
0.090000004 0.028701708 0.073500961 -1 0 0 0
0.0099999998 0.029568523 0.073330984 1 0 0 0
0.090000004 0.030006226 0.073892936 -1 0 0 0
0.1 0.030422999 0.073709629 1 0 0 0
-6.8290294e-18 0.03127747 0.073812515 -1 0 -9.2518583e-17 0
0.090000004 0.031282578 0.073822081 -1 0 0 0
0.10000001 0.031610396 0.073027216 1 0 0 0
-6.8251723e-18 0.032110278 0.073770829 -1 0 -9.2518583e-17 0
0.0099999998 0.032429174 0.073184818 1 0 0 0
0.090000004 0.032248426 0.073558129 -1 0 0 0
-6.7929933e-18 0.033584166 0.073423013 -1 0 -9.2518583e-17 0
0.0099999998 0.033606142 0.073386505 1 0 0 0
0.090000004 0.03322228 0.07388179 -1 0 0 0
-6.8252848e-18 0.034039173 0.073772043 -1 0 -9.2518583e-17 0
0.090000004 0.034780338 0.073865414 -1 0 0 0
0.0099999998 0.035313345 0.073558092 1 0 0 0
0.1 0.035522379 0.073030926 1 0 0 0
0.10000001 0.035083916 0.073055439 1 0 0 0
-6.8283189e-18 0.036726665 0.07380484 -1 0 -9.2518583e-17 0
0.090000004 0.036419805 0.073080599 -1 0 0 0
0.099999994 0.036016859 0.073764794 1 0 0 0
-6.8216973e-18 0.037068807 0.07373327 -1 0 -9.2518583e-17 0
-6.784006e-18 0.038120929 0.073325872 -1 0 -9.2518583e-17 0
0.090000004 0.038638271 0.07387004 -1 0 0 0
-6.8032628e-18 0.039257534 0.073534012 -1 0 -9.2518583e-17 0
0.1 0.039498471 0.073590383 1 0 0 0
0.090000004 0.040212583 0.073983371 -1 0 0 0
0.099999994 0.041482307 0.073772177 1 0 0 0
-6.8202262e-18 0.042786986 0.073717371 -1 0 -9.2518583e-17 0
0.0099999998 0.042952336 0.073324703 1 0 0 0
0.090000004 0.04270209 0.073344 -1 0 0 0
0.1 0.042128857 0.073569611 1 0 0 0
0.10000001 0.042242106 0.0732904 1 0 0 0
0.0099999998 0.043323133 0.073259093 1 0 0 0
0.090000004 0.043258358 0.073608525 -1 0 0 0
-6.7942316e-18 0.044279799 0.073436402 -1 0 -9.2518583e-17 0
0.10000001 0.044454455 0.073179714 1 0 0 0
0.090000004 0.045567196 0.0736368 -1 0 0 0
-6.8020021e-18 0.046418905 0.073520385 -1 0 -9.2518583e-17 0
0.090000004 0.046071813 0.073405281 -1 0 0 0
0.1 0.046793528 0.073540211 1 0 0 0
-6.762745e-18 0.047854528 0.073096074 -1 0 -9.2518583e-17 0
0.0099999998 0.047149852 0.073473811 1 0 0 0
-6.8259738e-18 0.048873089 0.073779494 -1 0 -9.2518583e-17 0
0.0099999998 0.048790984 0.073280223 1 0 0 0
0.090000004 0.048512947 0.07331337 -1 0 0 0
0.10000001 0.048776984 0.073082253 1 0 0 0
0.0099999998 0.049936246 0.073574446 1 0 0 0
0.090000004 0.049968358 0.073029064 -1 0 0 0
-6.7774812e-18 0.050569016 0.073255353 -1 0 -9.2518583e-17 0
0.090000004 0.051804632 0.073296234 -1 0 0 0
-6.8095981e-18 0.052431516 0.073602483 -1 0 -9.2518583e-17 0
0.0099999998 0.053945113 0.073106445 1 0 0 0
0.10000001 0.053313106 0.073670998 1 0 0 0
-6.7975651e-18 0.054584578 0.073472433 -1 0 -9.2518583e-17 0
0.099999994 0.054203212 0.07331901 1 0 0 0
0.10000001 0.05471589 0.07381884 1 0 0 0
0.090000004 0.055981729 0.073737271 -1 0 0 0
-6.8097632e-18 0.056301791 0.073604271 -1 0 -9.2518583e-17 0
0.0099999998 0.056520153 0.073648594 1 0 0 0
-6.8061293e-18 0.057519868 0.073564999 -1 0 -9.2518583e-17 0
0.0099999998 0.057761237 0.073592842 1 0 0 0
0.090000004 0.057380605 0.073659092 -1 0 0 0
0.1 0.057152886 0.073126964 1 0 0 0
0.10000001 0.057853069 0.073218279 1 0 0 0
0.0099999998 0.058345191 0.073712476 1 0 0 0
0.099999994 0.058027934 0.073602237 1 0 0 0
0.0099999998 0.059706014 0.07375396 1 0 0 0
0.090000004 0.059626043 0.073648661 -1 0 0 0
0.1 0.059746757 0.073686078 1 0 0 0
-6.7989598e-18 0.060732603 0.073487505 -1 0 -9.2518583e-17 0
0.0099999998 0.060803536 0.073912136 1 0 0 0
0.090000004 0.060647614 0.073738046 -1 0 0 0
0.1 0.060172778 0.073359817 1 0 0 0
-6.791535e-18 0.061262518 0.073407255 -1 0 -9.2518583e-17 0
0.0099999998 0.061007403 0.073918089 1 0 0 0
0.090000004 0.061247788 0.073176883 -1 0 0 0
0.10000001 0.061178483 0.073120132 1 0 0 0
-6.766928e-18 0.062260106 0.073141292 -1 0 -9.2518583e-17 0
0.0099999998 0.06217131 0.073120907 1 0 0 0
0.090000004 0.062664442 0.07326746 -1 0 0 0
0.1 0.062258799 0.073404968 1 0 0 0
0.090000004 0.063757248 0.073640823 -1 0 0 0
-6.8107798e-18 0.06454052 0.073615268 -1 0 -9.2518583e-17 0
0.090000004 0.064396337 0.073156439 -1 0 0 0
0.090000004 0.065857433 0.073883854 -1 0 0 0
-6.7908406e-18 0.066642143 0.073399752 -1 0 -9.2518583e-17 0
-6.8124159e-18 0.067568861 0.073632948 -1 0 -9.2518583e-17 0
0.0099999998 0.067462869 0.073482439 1 0 0 0
0.099999994 0.067567512 0.073766366 1 0 0 0
0.10000001 0.067806721 0.073674969 1 0 0 0
-6.8220513e-18 0.068658501 0.0737371 -1 0 -9.2518583e-17 0
0.090000004 0.068704538 0.073637739 -1 0 0 0
0.1 0.06990017 0.073512524 1 0 0 0
0.090000004 0.070661873 0.073472559 -1 0 0 0
0.1 0.070672616 0.073655799 1 0 0 0
-6.8208387e-18 0.071637265 0.073723987 -1 0 -9.2518583e-17 0
0.0099999998 0.071421385 0.073536113 1 0 0 0
0.090000004 0.071449816 0.07390321 -1 0 0 0
0.090000004 0.072750196 0.073700041 -1 0 0 0
0.099999994 0.072731808 0.073829524 1 0 0 0
0.10000001 0.072830737 0.073250033 1 0 0 0
-6.8012515e-18 0.07373248 0.073512278 -1 0 -9.2518583e-17 0
0.099999994 0.073310405 0.073365591 1 0 0 0
0.10000001 0.073733471 0.073610529 1 0 0 0
-6.786983e-18 0.075102299 0.073358059 -1 0 -9.2518583e-17 0
0.0099999998 0.075925305 0.073497981 1 0 0 0
0.090000004 0.075597607 0.073782973 -1 0 0 0
0.099999994 0.075776242 0.073113166 1 0 0 0
0.10000001 0.07531549 0.073704109 1 0 0 0
0.0099999998 0.07680355 0.07385695 1 0 0 0
-6.8443058e-18 0.077874556 0.073977634 -1 0 -9.2518583e-17 0
0.0099999998 0.077484161 0.073396958 1 0 0 0
0.090000004 0.077607304 0.073480181 -1 0 0 0
0.10000001 0.077271409 0.073484771 1 0 0 0
-6.8453753e-18 0.078053355 0.073989198 -1 0 -9.2518583e-17 0
0.090000004 0.07956171 0.073740199 -1 0 0 0
0.090000004 0.081141785 0.073564298 -1 0 0 0
0.099999994 0.081076525 0.073340319 1 0 0 0
-6.7727369e-18 0.082721561 0.073204078 -1 0 -9.2518583e-17 0
0.0099999998 0.082366362 0.073590413 1 0 0 0
0.090000004 0.082805812 0.073559441 -1 0 0 0
0.1 0.082292184 0.073409766 1 0 0 0
0.10000001 0.082465477 0.073338337 1 0 0 0
-6.7716289e-18 0.083297156 0.07319209 -1 0 -9.2518583e-17 0
0.1 0.08318238 0.073447123 1 0 0 0
-6.7667684e-18 0.084624119 0.073139563 -1 0 -9.2518583e-17 0
0.0099999998 0.084266618 0.073155887 1 0 0 0
0.090000004 0.084384784 0.07347551 -1 0 0 0
0.10000001 0.084330365 0.073670201 1 0 0 0
-6.8328105e-18 0.085556351 0.073853388 -1 0 -9.2518583e-17 0
0.0099999998 0.085127138 0.073798135 1 0 0 0
0.090000004 0.085355341 0.073500365 -1 0 0 0
0.1 0.085147403 0.073725708 1 0 0 0
-6.785432e-18 0.086553983 0.073341288 -1 0 -9.2518583e-17 0
0.0099999998 0.086520068 0.07324633 1 0 0 0
0.10000001 0.087998703 0.073127605 1 0 0 0
0.099999994 0.088430494 0.073588155 1 0 0 0
0.10000001 0.088286817 0.073718674 1 0 0 0
0.0099999998 0.089417495 0.073317483 1 0 0 0
0.099999994 0.089800358 0.073857807 1 0 0 0
0.010201831 0.090000004 0.073867202 0 -1 0 0
0.011618108 0.090000004 0.07353048 0 -1 0 0
0.01636669 0.090000004 0.073670447 0 -1 0 0
0.017673049 0.090000004 0.073956139 0 -1 0 0
0.021201465 0.090000004 0.073063411 0 -1 0 0
0.022452511 0.090000004 0.073891878 0 -1 0 0
0.026841313 0.090000004 0.073493928 0 -1 0 0
0.030961066 0.090000004 0.073218599 0 -1 0 0
0.032022152 0.090000004 0.073310629 0 -1 0 0
0.03522484 0.090000004 0.073958874 0 -1 0 0
0.03726 0.090000004 0.073537834 0 -1 0 0
0.039939202 0.090000004 0.073541999 0 -1 0 0
0.040582143 0.090000004 0.07332021 0 -1 0 0
0.041723993 0.090000004 0.073570602 0 -1 0 0
0.042859785 0.090000004 0.073296942 0 -1 0 0
0.0437411 0.090000004 0.073624335 0 -1 0 0
0.04832235 0.090000004 0.07309594 0 -1 0 0
0.049180105 0.090000004 0.073039904 0 -1 0 0
0.051349733 0.090000004 0.073871396 0 -1 0 0
0.059250038 0.090000004 0.073141351 0 -1 0 0
0.060097061 0.090000004 0.073020235 0 -1 0 0
0.064909898 0.090000004 0.073731862 0 -1 0 0
0.069644228 0.090000004 0.073488548 0 -1 0 0
0.070944004 0.090000004 0.073102996 0 -1 0 0
0.072641596 0.090000004 0.073245049 0 -1 0 0
0.073083855 0.090000004 0.073341653 0 -1 0 0
0.074394569 0.090000004 0.073355645 0 -1 0 0
0.076337948 0.090000004 0.07374391 0 -1 0 0
0.077630058 0.090000004 0.073509961 0 -1 0 0
0.079393409 0.090000004 0.073627904 0 -1 0 0
0.080579072 0.090000004 0.073477738 0 -1 0 0
0.081441037 0.090000004 0.073430538 0 -1 0 0
0.082069367 0.090000004 0.073587529 0 -1 0 0
0.084482856 0.090000004 0.073134586 0 -1 0 0
0.085967407 0.090000004 0.073529497 0 -1 0 0
0.10000001 0.090584129 0.073105671 1 0 0 0
-6.8268465e-18 0.091300905 0.073788926 -1 0 -9.2518583e-17 0
0.1 0.091257937 0.073537543 1 0 0 0
-6.8075227e-18 0.092116356 0.073580064 -1 0 -9.2518583e-17 0
-6.8007092e-18 0.09376587 0.073506415 -1 0 -9.2518583e-17 0
-6.8234489e-18 0.094460383 0.073752195 -1 0 -9.2518583e-17 0
-6.7752776e-18 0.095206574 0.073231533 -1 0 -9.2518583e-17 0
-6.7697561e-18 0.09649156 0.073171854 -1 0 -9.2518583e-17 0
0.1 0.096118756 0.073301792 1 0 0 0
0.10000001 0.096238181 0.073424093 1 0 0 0
-6.7942539e-18 0.097251751 0.07343664 -1 0 -9.2518583e-17 0
0.099999994 0.097649515 0.073456571 1 0 0 0
0.10000001 0.097630128 0.073250525 1 0 0 0
0.00096205086 0.1 0.073244601 0 1 0 0
0.0013585759 0.1 0.073228583 0 1 0 0
0.0032457937 0.1 0.07365983 0 1 0 0
0.0047475644 0.1 0.073760301 0 1 0 0
0.0085808318 0.1 0.073598929 0 1 0 0
0.009326254 0.1 0.073174164 0 1 0 0
0.011663605 0.1 0.073762797 0 1 0 0
0.019656422 0.1 0.073239967 0 1 0 0
0.02006601 0.1 0.073794745 0 1 0 0
0.025465615 0.1 0.073595606 0 1 0 0
0.027641486 0.1 0.073976703 0 1 0 0
0.02933348 0.099999994 0.073542707 0 1 0 0
0.030327702 0.1 0.073151544 0 1 0 0
0.031034308 0.1 0.073611945 0 1 0 0
0.037657458 0.1 0.073415048 0 1 0 0
0.041268013 0.1 0.073929727 0 1 0 0
0.042241544 0.1 0.073680222 0 1 0 0
0.043364905 0.1 0.07375899 0 1 0 0
0.044513024 0.1 0.073266074 0 1 0 0
0.045242663 0.099999994 0.073046423 0 1 0 0
0.04634947 0.1 0.073053174 0 1 0 0
0.051514391 0.1 0.073500514 0 1 0 0
0.052363168 0.1 0.073450238 0 1 0 0
0.053450204 0.1 0.073745623 0 1 0 0
0.055442438 0.1 0.073622599 0 1 0 0
0.057768282 0.1 0.073480934 0 1 0 0
0.058300104 0.1 0.073579371 0 1 0 0
0.05922503 0.1 0.073437102 0 1 0 0
0.063902505 0.1 0.073801436 0 1 0 0
0.065245427 0.1 0.073727176 0 1 0 0
0.066826396 0.1 0.0737141 0 1 0 0
0.068956658 0.1 0.073255599 0 1 0 0
0.073836669 0.1 0.073668711 0 1 0 0
0.074214444 0.1 0.073514186 0 1 0 0
0.078700781 0.1 0.073941417 0 1 0 0
0.08055526 0.1 0.073235787 0 1 0 0
0.081539288 0.1 0.073274896 0 1 0 0
0.083825432 0.1 0.073758036 0 1 0 0
0.084409647 0.1 0.073016815 0 1 0 0
0.085617051 0.1 0.073562354 0 1 0 0
0.087404095 0.1 0.073305316 0 1 0 0
0.088561714 0.099999994 0.073134832 0 1 0 0
0.089519463 0.1 0.073714711 0 1 0 0
0.091070876 0.099999994 0.073003188 0 1 0 0
0.09734749 0.1 0.073198624 0 1 0 0
0.099999323 0.099707119 0.073451698 0.70710677 0.70710677 0 0
0.10000001 0.099617571 0.073846184 1 0 0 0
0.035792284 0.10000001 0.073539346 0 1 0 0
0.042888727 0.10000001 0.073474824 0 1 0 0
0.043573331 0.10000001 0.073627025 0 1 0 0
0.062836669 0.10000001 0.073852502 0 1 0 0
0.064671144 0.10000001 0.073659256 0 1 0 0
0.066376939 0.10000001 0.073297411 0 1 0 0
0.07656198 0.10000001 0.073618539 0 1 0 0
0.079281591 0.10000001 0.073346362 0 1 0 0
0.082191817 0.10000001 0.073539123 0 1 0 0
0.083105154 0.10000001 0.073260874 0 1 0 0
0.087928846 0.10000001 0.073864743 0 1 0 0
0.096826643 0.10000001 0.073664248 0 1 0 0
0.097649425 0.10000001 0.073869087 0 1 0 0
-6.9364091e-18 0.00088844815 0.074973144 -1 0 -9.2518583e-17 0
0.0025665821 0 0.074409008 0 -1 0 0
0.0055920901 0 0.074166983 0 -1 0 0
0.0069329082 0 0.074536592 0 -1 0 0
0.0077184467 0 0.074350178 0 -1 0 0
0.008481157 0 0.07444714 0 -1 0 0
0.0091982251 0 0.074303471 0 -1 0 0
0.011220313 0 0.074777611 0 -1 0 0
0.012705728 0 0.07452821 0 -1 0 0
0.013836694 0 0.074432559 0 -1 0 0
0.015954709 0 0.074763894 0 -1 0 0
0.016288204 0 0.074064314 0 -1 0 0
0.017619615 0 0.074416406 0 -1 0 0
0.020649416 0 0.074716046 0 -1 0 0
0.029500132 0 0.07427121 0 -1 0 0
0.034431256 0 0.074572951 0 -1 0 0
0.035918262 0 0.074061222 0 -1 0 0
0.041382492 0 0.074972168 0 -1 0 0
0.04280765 0 0.074919641 0 -1 0 0
0.043999672 0 0.07452514 0 -1 0 0
0.045565076 0 0.074620202 0 -1 0 0
0.046646781 0 0.07433486 0 -1 0 0
0.049754992 0 0.074248463 0 -1 0 0
0.050614931 0 0.074506268 0 -1 0 0
0.05152031 0 0.07423526 0 -1 0 0
0.053919278 0 0.074265637 0 -1 0 0
0.056708768 0 0.074631825 0 -1 0 0
0.057638243 0 0.074904479 0 -1 0 0
0.058891505 0 0.074882239 0 -1 0 0
0.06008162 0 0.074611224 0 -1 0 0
0.065591715 0 0.07414531 0 -1 0 0
0.066798829 0 0.074686684 0 -1 0 0
0.067320898 0 0.074567996 0 -1 0 0
0.068635315 0 0.07457158 0 -1 0 0
0.069829457 0 0.074025482 0 -1 0 0
0.073389828 0 0.074443579 0 -1 0 0
0.074849583 0 0.074999213 0 -1 0 0
0.078398138 0 0.074034773 0 -1 0 0
0.079454601 0 0.074409515 0 -1 0 0
0.080192827 0 0.074075542 0 -1 0 0
0.084256589 0 0.074728131 0 -1 0 0
0.086166456 0 0.074392095 0 -1 0 0
0.08760789 0 0.074371189 0 -1 0 0
0.089411259 0 0.074521884 0 -1 0 0
0.094015852 0 0.074955389 0 -1 0 0
0.096586302 0 0.074262559 0 -1 0 0
0.097410746 0 0.07466428 0 -1 0 0
0.099385075 0 0.074278146 0 -1 0 0
-6.8632044e-18 0.0011285485 0.074181899 -1 0 -9.2518583e-17 0
-6.8889918e-18 0.0025478741 0.074460626 -1 0 -9.2518583e-17 0
0.1 0.0029048144 0.07494729 1 0 0 0
-6.8517149e-18 0.0038180957 0.074057713 -1 0 -9.2518583e-17 0
0.1 0.0035576522 0.074061565 1 0 0 0
-6.8670111e-18 0.0047864146 0.074223049 -1 0 -9.2518583e-17 0
-6.8985585e-18 0.0055304579 0.07456404 -1 0 -9.2518583e-17 0
0.1 0.0055216104 0.074447826 1 0 0 0
-6.8977615e-18 0.0060099107 0.074555419 -1 0 -9.2518583e-17 0
-6.8838852e-18 0.0076501179 0.074405432 -1 0 -9.2518583e-17 0
-6.8927898e-18 0.0086811455 0.074501678 -1 0 -9.2518583e-17 0
0.1 0.0081827706 0.074111089 1 0 0 0
-6.9040526e-18 0.0098875575 0.074623421 -1 0 -9.2518583e-17 0
0.012282096 0.0099999998 0.074249573 0 1 0 0
0.014640381 0.0099999998 0.074328266 0 1 0 0
0.015379168 0.0099999998 0.074124672 0 1 0 0
0.017773679 0.0099999998 0.074506499 0 1 0 0
0.01842328 0.0099999998 0.074623995 0 1 0 0
0.019444741 0.0099999998 0.074834071 0 1 0 0
0.02071007 0.0099999998 0.074558929 0 1 0 0
0.02271067 0.0099999998 0.074172407 0 1 0 0
0.024597839 0.0099999998 0.074399702 0 1 0 0
0.025445469 0.0099999998 0.074178822 0 1 0 0
0.02684732 0.0099999998 0.074258298 0 1 0 0
0.028433735 0.0099999998 0.074548453 0 1 0 0
0.030772468 0.0099999998 0.074978016 0 1 0 0
0.034856409 0.0099999998 0.074250102 0 1 0 0
0.035656299 0.0099999998 0.074306637 0 1 0 0
0.036650736 0.0099999998 0.074669957 0 1 0 0
0.037668236 0.0099999998 0.07409206 0 1 0 0
0.04178758 0.0099999998 0.074475601 0 1 0 0
0.042295408 0.0099999998 0.074310429 0 1 0 0
0.044584107 0.0099999998 0.074970864 0 1 0 0
0.046532109 0.0099999998 0.074352562 0 1 0 0
0.049344245 0.0099999998 0.074994005 0 1 0 0
0.052586488 0.0099999998 0.074101821 0 1 0 0
0.05389297 0.0099999998 0.074310243 0 1 0 0
0.054374639 0.0099999998 0.074374884 0 1 0 0
0.055336691 0.0099999998 0.074882105 0 1 0 0
0.056371793 0.0099999998 0.074458733 0 1 0 0
0.057813905 0.0099999998 0.074328981 0 1 0 0
0.059870496 0.0099999998 0.074130811 0 1 0 0
0.060749069 0.0099999998 0.074156411 0 1 0 0
0.064691022 0.0099999998 0.074136101 0 1 0 0
0.06537877 0.0099999998 0.074646227 0 1 0 0
0.068164624 0.0099999998 0.074756794 0 1 0 0
0.070071787 0.0099999998 0.074573509 0 1 0 0
0.072622493 0.0099999998 0.07415659 0 1 0 0
0.074430719 0.0099999998 0.074859798 0 1 0 0
0.076558977 0.0099999998 0.074815445 0 1 0 0
0.07916753 0.0099999998 0.074251443 0 1 0 0
0.080435231 0.0099999998 0.074246958 0 1 0 0
0.082488753 0.0099999998 0.074665017 0 1 0 0
0.084223226 0.0099999998 0.074369185 0 1 0 0
0.08646439 0.0099999998 0.074279062 0 1 0 0
0.087312207 0.0099999998 0.074102812 0 1 0 0
0.088858686 0.0099999998 0.074042752 0 1 0 0
0.0099999998 0.010615271 0.074762717 1 0 0 0
0.090000004 0.010701828 0.074112467 -1 0 0 0
0.0099999998 0.01159974 0.07468915 1 0 0 0
0.090000004 0.011925476 0.074716114 -1 0 0 0
0.0099999998 0.012156921 0.074216902 1 0 0 0
0.0099999998 0.013334769 0.074342407 1 0 0 0
0.1 0.013365633 0.074731253 1 0 0 0
-6.9029347e-18 0.01405505 0.074611336 -1 0 -9.2518583e-17 0
0.1 0.014446333 0.074510589 1 0 0 0
-6.9073072e-18 0.015206381 0.074658595 -1 0 -9.2518583e-17 0
0.0099999998 0.01573783 0.074501231 1 0 0 0
0.090000004 0.015489162 0.074297972 -1 0 0 0
0.1 0.015173889 0.074560687 1 0 0 0
0.0099999998 0.016005903 0.074419223 1 0 0 0
0.0099999998 0.017432194 0.074697167 1 0 0 0
0.090000004 0.017053045 0.074106894 -1 0 0 0
0.1 0.017567469 0.074497931 1 0 0 0
-6.854648e-18 0.018159205 0.074089423 -1 0 -9.2518583e-17 0
0.0099999998 0.018883849 0.074601144 1 0 0 0
0.090000004 0.018217675 0.074596345 -1 0 0 0
-6.8777806e-18 0.019230992 0.074339449 -1 0 -9.2518583e-17 0
0.0099999998 0.019181252 0.074862376 1 0 0 0
0.090000004 0.019249745 0.074501358 -1 0 0 0
0.1 0.019359095 0.074929863 1 0 0 0
0.0099999998 0.020611212 0.074735261 1 0 0 0
0.090000004 0.020928914 0.074781612 -1 0 0 0
0.0099999998 0.021000734 0.074044339 1 0 0 0
-6.9164604e-18 0.02247547 0.074757531 -1 0 -9.2518583e-17 0
-6.9257384e-18 0.024374887 0.074857809 -1 0 -9.2518583e-17 0
0.0099999998 0.024106726 0.074329704 1 0 0 0
0.099999994 0.025981063 0.074224018 1 0 0 0
0.10000001 0.025935937 0.074541487 1 0 0 0
-6.9157163e-18 0.026483893 0.074749485 -1 0 -9.2518583e-17 0
0.1 0.02686335 0.074287795 1 0 0 0
0.090000004 0.027483076 0.074004948 -1 0 0 0
0.099999994 0.02729916 0.074833885 1 0 0 0
0.10000001 0.027152348 0.074249968 1 0 0 0
0.1 0.02831083 0.074315459 1 0 0 0
-6.9035989e-18 0.029758973 0.074618511 -1 0 -9.2518583e-17 0
0.0099999998 0.029560411 0.074299656 1 0 0 0
-6.8838525e-18 0.030610705 0.074405082 -1 0 -9.2518583e-17 0
0.1 0.030210638 0.074363165 1 0 0 0
-6.9058687e-18 0.031146238 0.074643046 -1 0 -9.2518583e-17 0
0.090000004 0.031625636 0.074594155 -1 0 0 0
0.090000004 0.032371473 0.074297056 -1 0 0 0
0.090000004 0.033374742 0.074698888 -1 0 0 0
0.10000001 0.033029336 0.074123397 1 0 0 0
0.090000004 0.034120478 0.074650809 -1 0 0 0
-6.9162523e-18 0.036804665 0.074755281 -1 0 -9.2518583e-17 0
0.0099999998 0.036461134 0.074916527 1 0 0 0
-6.9064924e-18 0.037750144 0.074649788 -1 0 -9.2518583e-17 0
0.0099999998 0.037407976 0.074079916 1 0 0 0
0.0099999998 0.039110463 0.07466834 1 0 0 0
0.090000004 0.039231364 0.074525021 -1 0 0 0
0.1 0.039219994 0.074476734 1 0 0 0
0.090000004 0.040200833 0.074586578 -1 0 0 0
-6.9333311e-18 0.041909032 0.074939877 -1 0 -9.2518583e-17 0
0.0099999998 0.041072026 0.07492739 1 0 0 0
0.099999994 0.041425399 0.074403524 1 0 0 0
-6.8759016e-18 0.042247593 0.074319139 -1 0 -9.2518583e-17 0
0.099999994 0.042744178 0.074188307 1 0 0 0
-6.9020124e-18 0.043829538 0.074601367 -1 0 -9.2518583e-17 0
0.090000004 0.043171421 0.074995309 -1 0 0 0
0.099999994 0.043837991 0.074638352 1 0 0 0
-6.9006335e-18 0.044494577 0.074586459 -1 0 -9.2518583e-17 0
0.0099999998 0.044235658 0.074995682 1 0 0 0
0.090000004 0.044231161 0.074912824 -1 0 0 0
0.1 0.044935919 0.074083991 1 0 0 0
0.0099999998 0.045473687 0.074621037 1 0 0 0
0.090000004 0.046377312 0.074856006 -1 0 0 0
0.0099999998 0.04707012 0.07451462 1 0 0 0
0.090000004 0.047201406 0.074816711 -1 0 0 0
0.1 0.047449805 0.074365959 1 0 0 0
-6.9120535e-18 0.04835891 0.074709892 -1 0 -9.2518583e-17 0
0.099999994 0.048355538 0.074514598 1 0 0 0
-6.9295377e-18 0.049949892 0.074898876 -1 0 -9.2518583e-17 0
0.1 0.049386661 0.074966848 1 0 0 0
0.10000001 0.049420491 0.074606657 1 0 0 0
-6.8980448e-18 0.050637677 0.074558482 -1 0 -9.2518583e-17 0
0.0099999998 0.050594848 0.074596994 1 0 0 0
0.090000004 0.050689146 0.074805751 -1 0 0 0
0.10000001 0.05011816 0.074262679 1 0 0 0
0.0099999998 0.051698793 0.074225478 1 0 0 0
0.090000004 0.051498532 0.074292451 -1 0 0 0
0.1 0.051409315 0.074299343 1 0 0 0
0.0099999998 0.05262886 0.074418291 1 0 0 0
0.090000004 0.052933708 0.074340858 -1 0 0 0
0.099999994 0.052615713 0.074669488 1 0 0 0
0.10000001 0.052564003 0.074308731 1 0 0 0
-6.8731732e-18 0.053719517 0.07428965 -1 0 -9.2518583e-17 0
0.090000004 0.053292871 0.074095219 -1 0 0 0
-6.8606265e-18 0.054080006 0.074154034 -1 0 -9.2518583e-17 0
0.0099999998 0.054781169 0.074084133 1 0 0 0
0.090000004 0.054184824 0.074496411 -1 0 0 0
0.099999994 0.054620862 0.074222453 1 0 0 0
-6.9211319e-18 0.055098731 0.074808016 -1 0 -9.2518583e-17 0
0.090000004 0.055944141 0.074227661 -1 0 0 0
-6.9049175e-18 0.056307241 0.074632764 -1 0 -9.2518583e-17 0
0.0099999998 0.056834191 0.074957877 1 0 0 0
0.099999994 0.056976248 0.074643455 1 0 0 0
-6.8609834e-18 0.058200452 0.074157901 -1 0 -9.2518583e-17 0
0.0099999998 0.05843335 0.074336663 1 0 0 0
0.090000004 0.05854813 0.074804068 -1 0 0 0
-6.8845738e-18 0.059055738 0.074412875 -1 0 -9.2518583e-17 0
0.0099999998 0.059023023 0.074060149 1 0 0 0
0.099999994 0.059542574 0.074993975 1 0 0 0
0.099999994 0.060455658 0.074654736 1 0 0 0
0.10000001 0.060797799 0.074059486 1 0 0 0
-6.8671418e-18 0.061597534 0.074224457 -1 0 -9.2518583e-17 0
-6.898812e-18 0.062173113 0.074566774 -1 0 -9.2518583e-17 0
0.090000004 0.062948793 0.074824788 -1 0 0 0
0.10000001 0.062687635 0.074336812 1 0 0 0
-6.8939921e-18 0.063620821 0.07451468 -1 0 -9.2518583e-17 0
0.10000001 0.063119881 0.074212126 1 0 0 0
-6.8801831e-18 0.064422056 0.074365422 -1 0 -9.2518583e-17 0
0.090000004 0.064679556 0.074415766 -1 0 0 0
0.10000001 0.065675609 0.074350573 1 0 0 0
0.090000004 0.066710807 0.074350506 -1 0 0 0
-6.8820848e-18 0.067806363 0.074385971 -1 0 -9.2518583e-17 0
0.090000004 0.067480303 0.074545734 -1 0 0 0
0.099999994 0.067279041 0.074728057 1 0 0 0
-6.8762631e-18 0.068326153 0.074323051 -1 0 -9.2518583e-17 0
0.0099999998 0.068882018 0.074717544 1 0 0 0
0.090000004 0.068316385 0.074762806 -1 0 0 0
0.1 0.068591848 0.074763745 1 0 0 0
0.090000004 0.069571763 0.074398451 -1 0 0 0
-6.8975163e-18 0.070069835 0.074552767 -1 0 -9.2518583e-17 0
0.090000004 0.070534781 0.074365526 -1 0 0 0
-6.9255598e-18 0.07108365 0.074855879 -1 0 -9.2518583e-17 0
0.0099999998 0.071039282 0.074933633 1 0 0 0
0.10000001 0.071768858 0.074858986 1 0 0 0
-6.9281079e-18 0.072585389 0.074883416 -1 0 -9.2518583e-17 0
0.0099999998 0.072498932 0.074717231 1 0 0 0
0.10000001 0.072977923 0.074448206 1 0 0 0
0.0099999998 0.073568754 0.074366912 1 0 0 0
0.1 0.073138863 0.074080542 1 0 0 0
-6.8545604e-18 0.07445085 0.074088469 -1 0 -9.2518583e-17 0
-6.9123211e-18 0.075086653 0.074712783 -1 0 -9.2518583e-17 0
0.0099999998 0.075660557 0.074264653 1 0 0 0
0.090000004 0.075806171 0.074670263 -1 0 0 0
0.099999994 0.075579524 0.074015155 1 0 0 0
0.10000001 0.075914033 0.074395247 1 0 0 0
-6.8848244e-18 0.076534852 0.074415579 -1 0 -9.2518583e-17 0
0.0099999998 0.07608173 0.074459441 1 0 0 0
0.10000001 0.076925039 0.074172817 1 0 0 0
0.0099999998 0.077650689 0.074153922 1 0 0 0
0.090000004 0.077683046 0.074954048 -1 0 0 0
0.10000001 0.077239767 0.074446127 1 0 0 0
-6.8785056e-18 0.07823427 0.074347287 -1 0 -9.2518583e-17 0
0.0099999998 0.078141913 0.074173979 1 0 0 0
0.10000001 0.078102008 0.074469671 1 0 0 0
-6.930754e-18 0.079538919 0.074912019 -1 0 -9.2518583e-17 0
0.10000001 0.07956779 0.074398935 1 0 0 0
0.090000004 0.080545381 0.074773401 -1 0 0 0
0.1 0.080223069 0.074158028 1 0 0 0
0.090000004 0.081267297 0.074627534 -1 0 0 0
0.10000001 0.082466975 0.074256696 1 0 0 0
-6.8662377e-18 0.083008498 0.074214689 -1 0 -9.2518583e-17 0
0.1 0.083714075 0.074213326 1 0 0 0
-6.8744627e-18 0.084599145 0.074303582 -1 0 -9.2518583e-17 0
0.0099999998 0.084573641 0.07450562 1 0 0 0
0.0099999998 0.085627198 0.074649759 1 0 0 0
0.090000004 0.086467646 0.074553542 -1 0 0 0
0.1 0.086926773 0.074381605 1 0 0 0
0.10000001 0.086045787 0.074122153 1 0 0 0
-6.8621584e-18 0.08742556 0.074170597 -1 0 -9.2518583e-17 0
0.090000004 0.08782088 0.074909389 -1 0 0 0
0.099999994 0.087912753 0.074232072 1 0 0 0
0.090000004 0.088210508 0.074686125 -1 0 0 0
-6.8846681e-18 0.089016035 0.074413896 -1 0 -9.2518583e-17 0
0.090000004 0.089981392 0.074704282 -1 0 0 0
-6.9128435e-18 0.090512566 0.074718431 -1 0 -9.2518583e-17 0
0.010045909 0.090000004 0.074697435 0 -1 0 0
0.011952434 0.090000004 0.074082591 0 -1 0 0
0.012763872 0.090000004 0.074972831 0 -1 0 0
0.01463362 0.090000004 0.074472383 0 -1 0 0
0.015560254 0.090000004 0.074501254 0 -1 0 0
0.016880402 0.090000004 0.07481984 0 -1 0 0
0.017172514 0.090000004 0.074332461 0 -1 0 0
0.019082155 0.090000004 0.074616671 0 -1 0 0
0.022234265 0.090000004 0.074470446 0 -1 0 0
0.023467034 0.090000004 0.074506536 0 -1 0 0
0.024485705 0.090000004 0.07416454 0 -1 0 0
0.026270013 0.090000004 0.074346133 0 -1 0 0
0.028598815 0.090000004 0.074623048 0 -1 0 0
0.029501369 0.090000004 0.074670017 0 -1 0 0
0.0300311 0.090000004 0.074034125 0 -1 0 0
0.031756412 0.090000004 0.074522547 0 -1 0 0
0.032677159 0.090000004 0.074765347 0 -1 0 0
0.033988722 0.090000004 0.07467889 0 -1 0 0
0.034496043 0.090000004 0.074680611 0 -1 0 0
0.036910675 0.090000004 0.074829303 0 -1 0 0
0.037558049 0.090000004 0.074672729 0 -1 0 0
0.038437359 0.090000004 0.074637704 0 -1 0 0
0.039325472 0.090000004 0.074416429 0 -1 0 0
0.040420007 0.090000011 0.07444486 0 -1 0 0
0.04457783 0.090000004 0.074332833 0 -1 0 0
0.045624882 0.090000004 0.074159011 0 -1 0 0
0.046657976 0.090000004 0.074492663 0 -1 0 0
0.051677156 0.090000004 0.074865729 0 -1 0 0
0.0555932 0.090000004 0.074963868 0 -1 0 0
0.057681307 0.090000004 0.074345663 0 -1 0 0
0.058271088 0.090000004 0.074484229 0 -1 0 0
0.062914737 0.090000004 0.074558057 0 -1 0 0
0.06425973 0.090000004 0.074570306 0 -1 0 0
0.065851539 0.090000004 0.074640088 0 -1 0 0
0.066363588 0.090000004 0.074440986 0 -1 0 0
0.067330465 0.090000004 0.074530207 0 -1 0 0
0.070108876 0.090000004 0.074209139 0 -1 0 0
0.071347252 0.090000004 0.074199274 0 -1 0 0
0.072363578 0.090000004 0.074558437 0 -1 0 0
0.073638484 0.090000004 0.074748039 0 -1 0 0
0.07444717 0.090000004 0.074466616 0 -1 0 0
0.077397101 0.090000004 0.074517086 0 -1 0 0
0.078672662 0.090000004 0.074249245 0 -1 0 0
0.079931058 0.090000004 0.074483149 0 -1 0 0
0.080056004 0.090000004 0.074646428 0 -1 0 0
0.081378102 0.090000004 0.074566886 0 -1 0 0
0.082866997 0.090000004 0.074809387 0 -1 0 0
0.083833195 0.090000004 0.074327871 0 -1 0 0
0.085076123 0.090000004 0.074192911 0 -1 0 0
0.08643654 0.090000004 0.074504733 0 -1 0 0
-6.9037755e-18 0.091183007 0.074620418 -1 0 -9.2518583e-17 0
0.10000001 0.091043614 0.074577384 1 0 0 0
-6.9358424e-18 0.092875049 0.074967012 -1 0 -9.2518583e-17 0
0.1 0.093694434 0.074805945 1 0 0 0
-6.8853534e-18 0.094309837 0.074421301 -1 0 -9.2518583e-17 0
0.10000001 0.09498103 0.074013926 1 0 0 0
-6.9361477e-18 0.095202476 0.074970327 -1 0 -9.2518583e-17 0
0.10000001 0.095043287 0.074609526 1 0 0 0
-6.8647942e-18 0.0961501 0.074199088 -1 0 -9.2518583e-17 0
0.10000001 0.097676024 0.074637957 1 0 0 0
-6.8610492e-18 0.098727584 0.074158609 -1 0 -9.2518583e-17 0
3.6963851e-05 0.1 0.07416226 0 1 0 0
0.0016705251 0.1 0.074611291 0 1 0 0
0.002553676 0.1 0.074023284 0 1 0 0
0.0037611001 0.1 0.074602574 0 1 0 0
0.0059290687 0.1 0.074166283 0 1 0 0
0.0083708884 0.1 0.074207105 0 1 0 0
0.0092890058 0.1 0.07460618 0 1 0 0
0.015722586 0.1 0.074301504 0 1 0 0
0.017124826 0.1 0.074665003 0 1 0 0
0.018985845 0.1 0.074751392 0 1 0 0
0.019257445 0.1 0.074606732 0 1 0 0
0.020297682 0.1 0.074928574 0 1 0 0
0.022238625 0.1 0.074616238 0 1 0 0
0.02451927 0.1 0.074279428 0 1 0 0
0.025645908 0.099999994 0.074622042 0 1 0 0
0.026389752 0.1 0.074268214 0 1 0 0
0.03376653 0.1 0.074116446 0 1 0 0
0.034928605 0.1 0.074152909 0 1 0 0
0.036213301 0.1 0.074135333 0 1 0 0
0.037844151 0.1 0.074672237 0 1 0 0
0.042262666 0.1 0.074434966 0 1 0 0
0.045878578 0.1 0.074591555 0 1 0 0
0.04605284 0.1 0.074280269 0 1 0 0
0.050744083 0.1 0.07411164 0 1 0 0
0.051505275 0.1 0.074400775 0 1 0 0
0.052485555 0.1 0.074847072 0 1 0 0
0.05550465 0.1 0.07419847 0 1 0 0
0.056741815 0.1 0.074048556 0 1 0 0
0.057241663 0.1 0.074171372 0 1 0 0
0.058223046 0.1 0.074363485 0 1 0 0
0.060869034 0.1 0.074017994 0 1 0 0
0.063619487 0.099999994 0.074391067 0 1 0 0
0.06877695 0.1 0.074553832 0 1 0 0
0.069841713 0.1 0.074686021 0 1 0 0
0.072837181 0.1 0.074687421 0 1 0 0
0.073434785 0.1 0.074749261 0 1 0 0
0.076430909 0.1 0.074742623 0 1 0 0
0.078402966 0.1 0.074757457 0 1 0 0
0.080375351 0.1 0.074617043 0 1 0 0
0.082822561 0.1 0.074681595 0 1 0 0
0.083891802 0.1 0.074269213 0 1 0 0
0.085599542 0.1 0.074631661 0 1 0 0
0.088447474 0.099999994 0.074657887 0 1 0 0
0.090032779 0.1 0.074197508 0 1 0 0
0.091482282 0.1 0.074790262 0 1 0 0
0.092865206 0.099999994 0.074970223 0 1 0 0
0.094763227 0.1 0.074990235 0 1 0 0
0.09991321 0.099812053 0.074835591 0.5547002 0.83205032 0 0
0.028770855 0.10000001 0.07438378 0 1 0 0
0.042332806 0.10000001 0.074899599 0 1 0 0
0.062558256 0.10000001 0.074919946 0 1 0 0
0.069627181 0.10000001 0.074847706 0 1 0 0
0.077478826 0.10000001 0.074371763 0 1 0 0
0.078417622 0.1 0.074580997 0 1 0 0
0.081051551 0.10000001 0.074948937 0 1 0 0
0.083563291 0.10000001 0.074140944 0 1 0 0
0.0014565677 0 0.075519674 0 -1 0 0
0.0023220421 0 0.075047605 0 -1 0 0
0.0035096051 0 0.075025015 0 -1 0 0
0.0056044757 0 0.075842403 0 -1 0 0
0.0069925128 0 0.075355321 0 -1 0 0
0.0085266531 0 0.075805172 0 -1 0 0
0.0091731967 0 0.075344108 0 -1 0 0
0.01410324 0 0.075210519 0 -1 0 0
0.024243254 0 0.075829789 0 -1 0 0
0.025351102 0 0.075395599 0 -1 0 0
0.026765043 0 0.075483054 0 -1 0 0
0.028573591 0 0.075697199 0 -1 0 0
0.030850917 0 0.075885847 0 -1 0 0
0.032439031 0 0.075172134 0 -1 0 0
0.034590133 0 0.075073585 0 -1 0 0
0.036624193 0 0.075440362 0 -1 0 0
0.037593495 0 0.075216472 0 -1 0 0
0.03989898 0 0.075076364 0 -1 0 0
0.040893845 0 0.075127073 0 -1 0 0
0.042480662 0 0.075667113 0 -1 0 0
0.043474928 0 0.075690851 0 -1 0 0
0.044593334 0 0.075865097 0 -1 0 0
0.04626628 0 0.075048856 0 -1 0 0
0.049305759 0 0.07553757 0 -1 0 0
0.056560211 0 0.075149961 0 -1 0 0
0.05857268 0 0.075098015 0 -1 0 0
0.060654044 0 0.07513988 0 -1 0 0
0.061472449 0 0.07541272 0 -1 0 0
0.063386656 0 0.075565338 0 -1 0 0
0.064505421 0 0.075616114 0 -1 0 0
0.067628101 0 0.075887829 0 -1 0 0
0.068302743 0 0.075335406 0 -1 0 0
0.069797963 0 0.075285733 0 -1 0 0
0.071625009 0 0.075227015 0 -1 0 0
0.073439673 0 0.075477302 0 -1 0 0
0.074117154 0 0.075217143 0 -1 0 0
0.075826235 0 0.075092375 0 -1 0 0
0.076401591 0 0.075380042 0 -1 0 0
0.080421947 0 0.075556383 0 -1 0 0
0.081049636 0 0.075618431 0 -1 0 0
0.082759462 0 0.075242214 0 -1 0 0
0.085054785 0 0.075759254 0 -1 0 0
0.086594895 0 0.075850859 0 -1 0 0
0.08755783 0 0.075952925 0 -1 0 0
0.088895306 0 0.075771354 0 -1 0 0
0.08961802 0 0.075048953 0 -1 0 0
0.090370968 0 0.075578831 0 -1 0 0
0.092244625 0 0.075482801 0 -1 0 0
0.09580557 0 0.075160973 0 -1 0 0
0.096688747 0 0.075014316 0 -1 0 0
0.097228736 0 0.075142175 0 -1 0 0
0.098929979 0 0.075912215 0 -1 0 0
0.099725924 0 0.075027056 0 -1 0 0
-6.9801975e-18 0.0016874878 0.075446442 -1 0 -9.2518583e-17 0
0.1 0.0018222511 0.07516513 1 0 0 0
-7.0014213e-18 0.0022257762 0.075675838 -1 0 -9.2518583e-17 0
0.1 0.0027899584 0.075399607 1 0 0 0
-6.9787822e-18 0.0033777072 0.075431138 -1 0 -9.2518583e-17 0
0.1 0.0035052579 0.075729467 1 0 0 0
0.1 0.0046642125 0.075637922 1 0 0 0
-7.0292543e-18 0.0054239221 0.075976677 -1 0 -9.2518583e-17 0
0.1 0.0055267694 0.075409018 1 0 0 0
-6.9864411e-18 0.0063069104 0.075513922 -1 0 -9.2518583e-17 0
-6.9954598e-18 0.0073132296 0.075611405 -1 0 -9.2518583e-17 0
0.1 0.0070299269 0.075686932 1 0 0 0
-6.9631171e-18 0.008241904 0.075261824 -1 0 -9.2518583e-17 0
0.010389936 0.0099999998 0.075567111 0 1 0 0
0.012900371 0.0099999998 0.075447105 0 1 0 0
0.013197458 0.0099999998 0.075925469 0 1 0 0
0.014712671 0.0099999998 0.075218052 0 1 0 0
0.016052902 0.0099999998 0.075680435 0 1 0 0
0.018460764 0.0099999998 0.075598173 0 1 0 0
0.019255381 0.0099999998 0.075664848 0 1 0 0
0.02022209 0.0099999998 0.075127684 0 1 0 0
