# .PCD v0.7 - Point Cloud Data file format
VERSION 0.7
FIELDS x y z normal_x normal_y normal_z curvature
SIZE 4 4 4 4 4 4 4
TYPE F F F F F F F
COUNT 1 1 1 1 1 1 1
WIDTH 1397
HEIGHT 1
VIEWPOINT 0 0 0 1 0 0 0
POINTS 1397
DATA ascii
0.024021 0.96196711 0 0 0 -1 0
0.056279302 0.96145397 0 0 0 -1 0
0.10019267 0.9616524 0 0 0 -1 0
0.10276055 0.96127158 0 0 0 -1 0
0.14614612 0.96145356 0 0 0 -1 0
0.30016488 0.96134162 0 0 0 -1 0
0.33360517 0.96158653 0 0 0 -1 0
0.34152406 0.96110094 0 0 0 -1 0
0.38053709 0.96185207 0 0 0 -1 0
0.42953086 0.9614383 0 0 0 -1 0
0.5067609 0.96133715 0 0 0 -1 0
0.56054157 0.96145415 0 0 0 -1 0
0.64467752 0.96126211 0 0 0 -1 0
0.65062356 0.96143299 0 0 0 -1 0
0.82007271 0.96194226 0 0 0 -1 0
0.84798634 0.96136618 0 0 0 -1 0
-0.99695265 0.96223456 0 0 0 -1 0
-0.95642936 0.96231973 0 0 0 -1 0
-0.94292039 0.96292186 0 0 0 -1 0
-0.92068982 0.96262121 0 0 0 -1 0
-0.90082282 0.96285981 0 0 0 -1 0
-0.8438524 0.96213692 0 0 0 -1 0
-0.813694 0.9621985 0 0 0 -1 0
-0.62852657 0.96211523 0 0 0 -1 0
-0.57133293 0.96254903 0 0 0 -1 0
-0.13004628 0.96212673 0 0 0 -1 0
-0.056268305 0.96216273 0 0 0 -1 0
-0.0086967647 0.96201801 0 0 0 -1 0
0.058963805 0.96260285 0 0 0 -1 0
0.15595996 0.96222919 0 0 0 -1 0
0.21368444 0.96234679 0 0 0 -1 0
0.26899123 0.96273506 0 0 0 -1 0
0.32708442 0.96281582 0 0 0 -1 0
0.3528735 0.96234483 0 0 0 -1 0
0.40325165 0.96218228 0 0 0 -1 0
0.40422255 0.96201968 0 0 0 -1 0
0.42132914 0.96222728 0 0 0 -1 0
0.5024659 0.96223515 0 0 0 -1 0
0.55327505 0.96255499 0 0 0 -1 0
0.5765844 0.96277851 0 0 0 -1 0
0.59901816 0.9622789 0 0 0 -1 0
0.68594807 0.96240819 0 0 0 -1 0
0.75720072 0.96202946 0 0 0 -1 0
0.79671949 0.96228242 0 0 0 -1 0
0.83496892 0.96212351 0 0 0 -1 0
0.94333494 0.96221656 0 0 0 -1 0
0.94844532 0.96244156 0 0 0 -1 0
-0.94083256 0.96350169 0 0 0 -1 0
-0.84614748 0.96363521 0 0 0 -1 0
-0.84256077 0.96372473 0 0 0 -1 0
-0.70232928 0.96361613 0 0 0 -1 0
-0.61233264 0.96393406 0 0 0 -1 0
-0.34331757 0.96304464 0 0 0 -1 0
-0.32701072 0.96331257 0 0 0 -1 0
-0.23413777 0.96331394 0 0 0 -1 0
-0.127877 0.96360886 0 0 0 -1 0
0.20227152 0.96362406 0 0 0 -1 0
0.25148445 0.96320206 0 0 0 -1 0
0.28494918 0.96301395 0 0 0 -1 0
0.31694406 0.96366167 0 0 0 -1 0
0.34760243 0.96356153 0 0 0 -1 0
0.37937599 0.96363914 0 0 0 -1 0
0.53112614 0.96318233 0 0 0 -1 0
0.76085812 0.96344435 0 0 0 -1 0
0.77325583 0.96341848 0 0 0 -1 0
0.78314757 0.96342915 0 0 0 -1 0
0.91145402 0.96333885 0 0 0 -1 0
0.92969161 0.96353424 0 0 0 -1 0
-0.98160881 0.96451169 0 0 0 -1 0
-0.73861408 0.96469498 0 0 0 -1 0
-0.7115072 0.96437389 0 0 0 -1 0
-0.71069092 0.96446311 0 0 0 -1 0
-0.54425848 0.96411115 0 0 0 -1 0
-0.47236252 0.96459115 0 0 0 -1 0
-0.3953267 0.96470213 0 0 0 -1 0
-0.31858128 0.96430635 0 0 0 -1 0
-0.24843645 0.96410263 0 0 0 -1 0
-0.19038755 0.96442366 0 0 0 -1 0
-0.1726048 0.96452814 0 0 0 -1 0
-0.14012045 0.96429205 0 0 0 -1 0
0.40097177 0.96478415 0 0 0 -1 0
0.47208464 0.96494114 0 0 0 -1 0
0.57659531 0.96409452 0 0 0 -1 0
0.5827843 0.96438819 0 0 0 -1 0
0.86619419 0.96425074 0 0 0 -1 0
0.88446641 0.96490812 0 0 0 -1 0
0.91682345 0.964867 0 0 0 -1 0
0.93024278 0.96492982 0 0 0 -1 0
-0.88916039 0.96539718 0 0 0 -1 0
-0.86255461 0.96530813 0 0 0 -1 0
-0.8403275 0.96591514 0 0 0 -1 0
-0.8310712 0.96576554 0 0 0 -1 0
-0.56881386 0.96565408 0 0 0 -1 0
-0.51355577 0.96589553 0 0 0 -1 0
-0.49897707 0.96589309 0 0 0 -1 0
-0.4502424 0.96519238 0 0 0 -1 0
-0.36061704 0.96507406 0 0 0 -1 0
-0.32215673 0.96568084 0 0 0 -1 0
-0.3036789 0.96599919 0 0 0 -1 0
-0.29051146 0.96568304 0 0 0 -1 0
-0.11057356 0.96572065 0 0 0 -1 0
-0.074241787 0.9656198 0 0 0 -1 0
-0.055713087 0.96558392 0 0 0 -1 0
0.17659372 0.96533883 0 0 0 -1 0
0.20730764 0.96522909 0 0 0 -1 0
0.20918357 0.96518457 0 0 0 -1 0
0.43253785 0.96526819 0 0 0 -1 0
0.51889718 0.96590573 0 0 0 -1 0
0.64270365 0.96541727 0 0 0 -1 0
0.68017906 0.96576685 0 0 0 -1 0
0.69746161 0.9657765 0 0 0 -1 0
0.87784624 0.9659093 0 0 0 -1 0
-0.97034425 0.96618897 0 0 0 -1 0
-0.79514539 0.9668377 0 0 0 -1 0
-0.75099897 0.96601546 0 0 0 -1 0
-0.74171126 0.96648401 0 0 0 -1 0
-0.68985677 0.96615088 0 0 0 -1 0
-0.68286383 0.96625853 0 0 0 -1 0
-0.64351004 0.96685487 0 0 0 -1 0
-0.32906282 0.966012 0 0 0 -1 0
-0.24942863 0.9667123 0 0 0 -1 0
-0.04948926 0.96630663 0 0 0 -1 0
-0.043996513 0.96687043 0 0 0 -1 0
0.19438404 0.96679443 0 0 0 -1 0
0.25167704 0.96661824 0 0 0 -1 0
0.25954282 0.96624827 0 0 0 -1 0
0.5732075 0.96643013 0 0 0 -1 0
0.62912273 0.96638256 0 0 0 -1 0
0.6457181 0.96673965 0 0 0 -1 0
0.84713948 0.96685511 0 0 0 -1 0
-0.99851376 0.9671433 0 0 0 -1 0
-0.93123788 0.96725762 0 0 0 -1 0
-0.91245353 0.96705484 0 0 0 -1 0
-0.74530828 0.96750075 0 0 0 -1 0
-0.74407387 0.96700227 0 0 0 -1 0
-0.73175764 0.9679628 0 0 0 -1 0
-0.65629101 0.9676311 0 0 0 -1 0
-0.63902569 0.96761268 0 0 0 -1 0
-0.43364623 0.9677366 0 0 0 -1 0
-0.43154904 0.96712071 0 0 0 -1 0
-0.41642103 0.96751332 0 0 0 -1 0
-0.20944896 0.96751088 0 0 0 -1 0
-0.1976836 0.96731269 0 0 0 -1 0
-0.19547227 0.96714711 0 0 0 -1 0
-0.16731751 0.96721029 0 0 0 -1 0
-0.1576606 0.96757317 0 0 0 -1 0
-0.12547147 0.96740305 0 0 0 -1 0
-0.11622337 0.96775311 0 0 0 -1 0
0.058977544 0.96743453 0 0 0 -1 0
0.14517081 0.96740645 0 0 0 -1 0
0.17590016 0.96731836 0 0 0 -1 0
0.24859542 0.96752757 0 0 0 -1 0
0.25316262 0.96789873 0 0 0 -1 0
0.27287501 0.96716285 0 0 0 -1 0
0.32831794 0.96787912 0 0 0 -1 0
0.80944389 0.967291 0 0 0 -1 0
-0.99590331 0.96844023 0 0 0 -1 0
-0.96396339 0.9685908 0 0 0 -1 0
-0.96022922 0.96856815 0 0 0 -1 0
-0.89343435 0.96840161 0 0 0 -1 0
-0.89010423 0.96800894 0 0 0 -1 0
-0.63994491 0.96801281 0 0 0 -1 0
-0.63665968 0.96862096 0 0 0 -1 0
-0.56013703 0.96890533 0 0 0 -1 0
-0.43495721 0.96826756 0 0 0 -1 0
-0.31213021 0.9685564 0 0 0 -1 0
-0.017252803 0.968997 0 0 0 -1 0
0.008074224 0.96813685 0 0 0 -1 0
0.033758312 0.96893108 0 0 0 -1 0
0.046528667 0.96885091 0 0 0 -1 0
0.11772394 0.96886241 0 0 0 -1 0
0.16922635 0.96891481 0 0 0 -1 0
0.23636967 0.96811301 0 0 0 -1 0
0.38180053 0.96890116 0 0 0 -1 0
0.53827256 0.96891224 0 0 0 -1 0
0.5777936 0.96807212 0 0 0 -1 0
0.76792371 0.96811384 0 0 0 -1 0
0.84483892 0.96897894 0 0 0 -1 0
0.8617776 0.96853626 0 0 0 -1 0
-0.97736561 0.96947962 0 0 0 -1 0
-0.94695085 0.96981782 0 0 0 -1 0
-0.91493046 0.96975237 0 0 0 -1 0
-0.81586123 0.96935612 0 0 0 -1 0
-0.77590859 0.96901673 0 0 0 -1 0
-0.55537391 0.96938241 0 0 0 -1 0
-0.52368748 0.96908784 0 0 0 -1 0
-0.47942668 0.96993518 0 0 0 -1 0
-0.36898988 0.96938694 0 0 0 -1 0
-0.33115268 0.96960247 0 0 0 -1 0
-0.13178471 0.96904999 0 0 0 -1 0
-0.076484978 0.96974719 0 0 0 -1 0
-0.060498983 0.9691112 0 0 0 -1 0
0.016378164 0.96903759 0 0 0 -1 0
0.11243743 0.96970624 0 0 0 -1 0
0.12641448 0.96989572 0 0 0 -1 0
0.15653557 0.96923721 0 0 0 -1 0
0.19319576 0.96972489 0 0 0 -1 0
0.19760615 0.96967506 0 0 0 -1 0
0.19843435 0.96907854 0 0 0 -1 0
0.27815223 0.96952164 0 0 0 -1 0
0.28237623 0.96918094 0 0 0 -1 0
0.33201903 0.96954715 0 0 0 -1 0
0.44700271 0.96981007 0 0 0 -1 0
0.61338717 0.96942925 0 0 0 -1 0
0.77645713 0.96939635 0 0 0 -1 0
0.77761042 0.96947557 0 0 0 -1 0
0.82845372 0.96993393 0 0 0 -1 0
-0.87973499 0.97036302 0 0 0 -1 0
-0.83626401 0.97002071 0 0 0 -1 0
-0.70255941 0.97025216 0 0 0 -1 0
-0.66563106 0.97024435 0 0 0 -1 0
-0.58055508 0.97040379 0 0 0 -1 0
-0.54142046 0.97045767 0 0 0 -1 0
-0.53618515 0.97075164 0 0 0 -1 0
-0.51507807 0.97022617 0 0 0 -1 0
-0.48961747 0.97024173 0 0 0 -1 0
-0.48302829 0.97076756 0 0 0 -1 0
-0.47106698 0.97086334 0 0 0 -1 0
-0.4382323 0.97022939 0 0 0 -1 0
-0.38158193 0.97068256 0 0 0 -1 0
-0.3375569 0.97074831 0 0 0 -1 0
-0.2153278 0.97045767 0 0 0 -1 0
-0.19814825 0.97033167 0 0 0 -1 0
-0.12821615 0.97090447 0 0 0 -1 0
0.076884449 0.97010404 0 0 0 -1 0
0.078397155 0.97084886 0 0 0 -1 0
0.13583708 0.97057378 0 0 0 -1 0
0.28284258 0.9702546 0 0 0 -1 0
0.31962311 0.97066867 0 0 0 -1 0
0.48535883 0.97073531 0 0 0 -1 0
0.52010244 0.97058439 0 0 0 -1 0
0.80581206 0.97069454 0 0 0 -1 0
0.80625296 0.97028941 0 0 0 -1 0
0.85544926 0.97035611 0 0 0 -1 0
0.9169513 0.97011936 0 0 0 -1 0
-0.77370226 0.97139996 0 0 0 -1 0
-0.76661825 0.97112763 0 0 0 -1 0
-0.67861307 0.97101718 0 0 0 -1 0
-0.43156171 0.97127128 0 0 0 -1 0
-0.30433252 0.97127795 0 0 0 -1 0
-0.25399616 0.97168386 0 0 0 -1 0
-0.10608771 0.97164345 0 0 0 -1 0
-0.017221451 0.97146785 0 0 0 -1 0
0.085345745 0.97130018 0 0 0 -1 0
0.2288413 0.97175556 0 0 0 -1 0
0.35028768 0.97190046 0 0 0 -1 0
0.53927338 0.97188544 0 0 0 -1 0
0.65745342 0.97144836 0 0 0 -1 0
0.68370736 0.97166467 0 0 0 -1 0
0.78688145 0.97183222 0 0 0 -1 0
0.82347918 0.97154969 0 0 0 -1 0
0.84980124 0.97111648 0 0 0 -1 0
-0.87822789 0.97206354 0 0 0 -1 0
-0.86463541 0.97241068 0 0 0 -1 0
-0.81425786 0.97271681 0 0 0 -1 0
-0.78570545 0.97251028 0 0 0 -1 0
-0.76546907 0.9723081 0 0 0 -1 0
-0.75424296 0.97293973 0 0 0 -1 0
-0.70952535 0.97203237 0 0 0 -1 0
-0.62892658 0.97283673 0 0 0 -1 0
-0.60949481 0.97231513 0 0 0 -1 0
-0.38988191 0.9727217 0 0 0 -1 0
-0.22127277 0.97239006 0 0 0 -1 0
-0.19690689 0.97202849 0 0 0 -1 0
-0.12760651 0.97203666 0 0 0 -1 0
-0.037158519 0.97292423 0 0 0 -1 0
-0.025288373 0.9728114 0 0 0 -1 0
-0.018433779 0.97252458 0 0 0 -1 0
0.068000108 0.97245568 0 0 0 -1 0
0.18275321 0.97235537 0 0 0 -1 0
0.19089437 0.97258943 0 0 0 -1 0
0.2458427 0.97202879 0 0 0 -1 0
0.2941162 0.97214425 0 0 0 -1 0
0.33755308 0.97204328 0 0 0 -1 0
0.47489774 0.97298634 0 0 0 -1 0
0.50470084 0.97232091 0 0 0 -1 0
0.52660865 0.97270972 0 0 0 -1 0
0.57925236 0.97277009 0 0 0 -1 0
0.60662133 0.97277361 0 0 0 -1 0
0.66409707 0.97216678 0 0 0 -1 0
0.71806008 0.97263634 0 0 0 -1 0
0.73144114 0.97289801 0 0 0 -1 0
0.80754387 0.97202939 0 0 0 -1 0
0.81128144 0.97247469 0 0 0 -1 0
0.8651197 0.97292441 0 0 0 -1 0
0.87817621 0.97292858 0 0 0 -1 0
0.94479108 0.97258502 0 0 0 -1 0
-0.80184627 0.97384113 0 0 0 -1 0
-0.5676102 0.97300506 0 0 0 -1 0
-0.5449419 0.97358155 0 0 0 -1 0
-0.52383792 0.97352153 0 0 0 -1 0
-0.49447104 0.97347075 0 0 0 -1 0
-0.43372124 0.97316033 0 0 0 -1 0
-0.22441787 0.97379029 0 0 0 -1 0
0.098671317 0.97342891 0 0 0 -1 0
0.18075496 0.9733994 0 0 0 -1 0
0.24414724 0.973028 0 0 0 -1 0
0.24888706 0.97316396 0 0 0 -1 0
0.36961311 0.97356945 0 0 0 -1 0
0.6080389 0.97361046 0 0 0 -1 0
0.71159583 0.97358578 0 0 0 -1 0
-0.98386687 0.97445428 0 0 0 -1 0
-0.92191821 0.97404778 0 0 0 -1 0
-0.89897114 0.97437859 0 0 0 -1 0
-0.80839801 0.97429615 0 0 0 -1 0
-0.70838135 0.97426486 0 0 0 -1 0
-0.69573498 0.9743824 0 0 0 -1 0
-0.36275226 0.97443479 0 0 0 -1 0
-0.33309093 0.97492456 0 0 0 -1 0
-0.26167795 0.97458893 0 0 0 -1 0
-0.076334894 0.9742744 0 0 0 -1 0
0.00093770027 0.97403532 0 0 0 -1 0
0.024537712 0.97485036 0 0 0 -1 0
0.080422997 0.97418362 0 0 0 -1 0
0.1623922 0.97441101 0 0 0 -1 0
0.16504651 0.97410083 0 0 0 -1 0
0.31438512 0.97471476 0 0 0 -1 0
0.44588697 0.97483677 0 0 0 -1 0
0.65790296 0.97470027 0 0 0 -1 0
0.65970981 0.97423911 0 0 0 -1 0
-0.94791579 0.97531456 0 0 0 -1 0
-0.8914513 0.9750039 0 0 0 -1 0
-0.6321913 0.97500962 0 0 0 -1 0
-0.56597483 0.97581446 0 0 0 -1 0
-0.48603469 0.97508836 0 0 0 -1 0
-0.43166924 0.97545207 0 0 0 -1 0
-0.35800388 0.97545391 0 0 0 -1 0
-0.33214524 0.97528076 0 0 0 -1 0
-0.33062711 0.97532284 0 0 0 -1 0
-0.23279494 0.97590518 0 0 0 -1 0
-0.094456911 0.97500968 0 0 0 -1 0
-0.082472861 0.97572279 0 0 0 -1 0
0.04024142 0.97554928 0 0 0 -1 0
0.24105978 0.97581601 0 0 0 -1 0
0.2796424 0.97501057 0 0 0 -1 0
0.29471159 0.97588551 0 0 0 -1 0
0.4126541 0.97524291 0 0 0 -1 0
0.47086394 0.97564894 0 0 0 -1 0
0.53090924 0.97501957 0 0 0 -1 0
0.53203946 0.97580028 0 0 0 -1 0
0.70155084 0.97596222 0 0 0 -1 0
0.7918635 0.97554946 0 0 0 -1 0
0.86533892 0.97572404 0 0 0 -1 0
0.93273187 0.97577751 0 0 0 -1 0
0.93419665 0.97587717 0 0 0 -1 0
-0.84149718 0.97695583 0 0 0 -1 0
-0.82251042 0.97607821 0 0 0 -1 0
-0.78477037 0.976843 0 0 0 -1 0
-0.69904715 0.97684723 0 0 0 -1 0
-0.67721754 0.9761157 0 0 0 -1 0
-0.67021787 0.97645086 0 0 0 -1 0
-0.64085251 0.97623008 0 0 0 -1 0
-0.57742709 0.97623175 0 0 0 -1 0
-0.56676102 0.97691357 0 0 0 -1 0
-0.43983322 0.97617483 0 0 0 -1 0
-0.28750509 0.97661585 0 0 0 -1 0
-0.07612443 0.97620571 0 0 0 -1 0
-0.028115809 0.97629178 0 0 0 -1 0
0.1668601 0.97640151 0 0 0 -1 0
0.16834176 0.97625321 0 0 0 -1 0
0.21073431 0.97656506 0 0 0 -1 0
0.28730857 0.97669035 0 0 0 -1 0
0.42089522 0.97664177 0 0 0 -1 0
0.6500544 0.97611225 0 0 0 -1 0
0.66266793 0.9764998 0 0 0 -1 0
0.70343351 0.97695816 0 0 0 -1 0
0.73961866 0.97683567 0 0 0 -1 0
0.7408334 0.97667825 0 0 0 -1 0
0.75370061 0.97625244 0 0 0 -1 0
0.87483209 0.97637755 0 0 0 -1 0
0.92766571 0.97643632 0 0 0 -1 0
-0.94623274 0.97763336 0 0 0 -1 0
-0.93039656 0.97758955 0 0 0 -1 0
-0.92323911 0.97722363 0 0 0 -1 0
-0.89051187 0.97707129 0 0 0 -1 0
-0.88626754 0.97760665 0 0 0 -1 0
-0.8593623 0.97789299 0 0 0 -1 0
-0.80033195 0.97705549 0 0 0 -1 0
-0.78057921 0.97714698 0 0 0 -1 0
-0.76036465 0.9774757 0 0 0 -1 0
-0.71775222 0.97799325 0 0 0 -1 0
-0.5876506 0.97787273 0 0 0 -1 0
-0.50908846 0.9772864 0 0 0 -1 0
-0.39426994 0.97717345 0 0 0 -1 0
-0.28808337 0.9774887 0 0 0 -1 0
-0.2723625 0.97709715 0 0 0 -1 0
-0.2397874 0.97754323 0 0 0 -1 0
-0.23465416 0.97763073 0 0 0 -1 0
-0.073553473 0.97741294 0 0 0 -1 0
-0.037329912 0.97734499 0 0 0 -1 0
0.27276927 0.97758961 0 0 0 -1 0
0.37630928 0.97768366 0 0 0 -1 0
0.39605665 0.97706193 0 0 0 -1 0
0.44615424 0.9772172 0 0 0 -1 0
0.55624169 0.97792292 0 0 0 -1 0
0.55846709 0.97746265 0 0 0 -1 0
0.56767905 0.97773534 0 0 0 -1 0
0.7017051 0.97786421 0 0 0 -1 0
0.72275686 0.97786373 0 0 0 -1 0
0.75965184 0.97774071 0 0 0 -1 0
0.79341745 0.97728139 0 0 0 -1 0
-0.9911676 0.97834378 0 0 0 -1 0
-0.91183192 0.97872984 0 0 0 -1 0
-0.87605274 0.9780705 0 0 0 -1 0
-0.86385709 0.97880101 0 0 0 -1 0
-0.75838441 0.97886771 0 0 0 -1 0
-0.6847837 0.9789511 0 0 0 -1 0
-0.60804695 0.97803164 0 0 0 -1 0
-0.60109168 0.97888088 0 0 0 -1 0
-0.49116576 0.97818172 0 0 0 -1 0
-0.44604829 0.97894168 0 0 0 -1 0
-0.25107774 0.97805053 0 0 0 -1 0
-0.21108282 0.97840548 0 0 0 -1 0
-0.11488596 0.97814506 0 0 0 -1 0
-0.081499666 0.97809649 0 0 0 -1 0
-0.014662266 0.97811639 0 0 0 -1 0
0.068368793 0.97866535 0 0 0 -1 0
0.072597802 0.97879118 0 0 0 -1 0
0.092018068 0.97843289 0 0 0 -1 0
0.13206458 0.97886139 0 0 0 -1 0
0.21469331 0.97836584 0 0 0 -1 0
0.2154718 0.97801232 0 0 0 -1 0
0.22724628 0.97825336 0 0 0 -1 0
0.25613958 0.97879255 0 0 0 -1 0
0.74417651 0.97834539 0 0 0 -1 0
-0.91687387 0.9798997 0 0 0 -1 0
-0.81402647 0.97903788 0 0 0 -1 0
-0.54654115 0.97909153 0 0 0 -1 0
-0.38353318 0.97984719 0 0 0 -1 0
-0.3777965 0.97935319 0 0 0 -1 0
-0.33371451 0.97945344 0 0 0 -1 0
-0.25071788 0.97959387 0 0 0 -1 0
-0.22370666 0.97912192 0 0 0 -1 0
-0.18327519 0.97972149 0 0 0 -1 0
-0.16289431 0.97951126 0 0 0 -1 0
0.001709342 0.97926897 0 0 0 -1 0
0.038217515 0.97903907 0 0 0 -1 0
0.065344572 0.97935462 0 0 0 -1 0
0.096958458 0.9792763 0 0 0 -1 0
0.15124798 0.97975451 0 0 0 -1 0
0.52186596 0.97930795 0 0 0 -1 0
0.62939048 0.97961259 0 0 0 -1 0
0.66841221 0.97935319 0 0 0 -1 0
0.91228658 0.97951543 0 0 0 -1 0
-0.90257061 0.98014539 0 0 0 -1 0
-0.88522172 0.9802736 0 0 0 -1 0
-0.87946618 0.98001599 0 0 0 -1 0
-0.57213849 0.98096442 0 0 0 -1 0
-0.56144446 0.98027778 0 0 0 -1 0
-0.49201119 0.98063833 0 0 0 -1 0
-0.32502687 0.98006028 0 0 0 -1 0
-0.32053849 0.9807291 0 0 0 -1 0
-0.2607196 0.98090732 0 0 0 -1 0
-0.23982549 0.9804852 0 0 0 -1 0
-0.14379179 0.98063642 0 0 0 -1 0
-0.045756847 0.98061061 0 0 0 -1 0
0.074337006 0.98075819 0 0 0 -1 0
0.11781478 0.98015988 0 0 0 -1 0
0.2071718 0.98073894 0 0 0 -1 0
0.28605717 0.9809252 0 0 0 -1 0
0.33459413 0.98016298 0 0 0 -1 0
0.35377109 0.98079813 0 0 0 -1 0
0.3644942 0.98003137 0 0 0 -1 0
0.42742425 0.98086649 0 0 0 -1 0
0.4432106 0.98059046 0 0 0 -1 0
0.77551162 0.98066372 0 0 0 -1 0
0.78403509 0.98006797 0 0 0 -1 0
0.93057275 0.98070508 0 0 0 -1 0
-0.68455577 0.98195755 0 0 0 -1 0
-0.66700375 0.98198491 0 0 0 -1 0
-0.55702621 0.98181677 0 0 0 -1 0
-0.43555304 0.98177803 0 0 0 -1 0
-0.25823039 0.9812699 0 0 0 -1 0
-0.2412824 0.98168415 0 0 0 -1 0
-0.14996424 0.98194158 0 0 0 -1 0
0.23992229 0.98152119 0 0 0 -1 0
0.24164152 0.98132408 0 0 0 -1 0
0.25290519 0.98126173 0 0 0 -1 0
0.25617594 0.98134303 0 0 0 -1 0
0.26173651 0.98154378 0 0 0 -1 0
0.28370184 0.98126537 0 0 0 -1 0
0.35681528 0.98197657 0 0 0 -1 0
0.4991647 0.98175359 0 0 0 -1 0
0.58138329 0.9810133 0 0 0 -1 0
0.77213162 0.98137295 0 0 0 -1 0
0.88848275 0.98142725 0 0 0 -1 0
-1 0.98261321 0.00095678866 -1 0 0 0
-0.97132242 0.98212022 0 0 0 -1 0
-0.95251125 0.98204494 0 0 0 -1 0
-0.91834188 0.98267275 0 0 0 -1 0
-0.91753781 0.9826526 0 0 0 -1 0
-0.88127416 0.98286909 0 0 0 -1 0
-0.76968384 0.98242503 0 0 0 -1 0
-0.69741857 0.98248959 0 0 0 -1 0
-0.67355669 0.98262835 0 0 0 -1 0
-0.61956984 0.98254132 0 0 0 -1 0
-0.55894649 0.98254675 0 0 0 -1 0
-0.45841515 0.98265684 0 0 0 -1 0
-0.40829796 0.9821887 0 0 0 -1 0
-0.29536664 0.98243159 0 0 0 -1 0
-0.22211277 0.98271847 0 0 0 -1 0
0.19341338 0.98227036 0 0 0 -1 0
0.23841083 0.98299688 0 0 0 -1 0
0.53256005 0.982279 0 0 0 -1 0
0.68025935 0.98228174 0 0 0 -1 0
0.70689046 0.9824183 0 0 0 -1 0
0.72502905 0.98278666 0 0 0 -1 0
-0.89187419 0.98358679 0 0 0 -1 0
-0.80871725 0.98354918 0 0 0 -1 0
-0.65177166 0.98352718 0 0 0 -1 0
-0.51482904 0.98321515 0 0 0 -1 0
-0.43489796 0.98382652 0 0 0 -1 0
-0.37601867 0.98317647 0 0 0 -1 0
-0.22507468 0.98347515 0 0 0 -1 0
-0.075725615 0.98365033 0 0 0 -1 0
-0.043231398 0.9839232 0 0 0 -1 0
0.0045664907 0.98398638 0 0 0 -1 0
0.036380112 0.98385459 0 0 0 -1 0
0.053194135 0.98337007 0 0 0 -1 0
0.16233093 0.98301941 0 0 0 -1 0
0.60952663 0.98398697 0 0 0 -1 0
0.65591776 0.98388982 0 0 0 -1 0
0.74737334 0.98362434 0 0 0 -1 0
-0.98387933 0.9847368 0 0 0 -1 0
-0.83951545 0.98495555 0 0 0 -1 0
-0.81180108 0.98474801 0 0 0 -1 0
-0.75777352 0.98416418 0 0 0 -1 0
-0.7540518 0.98407829 0 0 0 -1 0
-0.67114449 0.98466396 0 0 0 -1 0
-0.58861816 0.98411524 0 0 0 -1 0
-0.56951708 0.9842456 0 0 0 -1 0
-0.4387818 0.98430872 0 0 0 -1 0
-0.34040806 0.98448634 0 0 0 -1 0
-0.33297336 0.9849844 0 0 0 -1 0
-0.31521091 0.98491597 0 0 0 -1 0
-0.18503234 0.98464131 0 0 0 -1 0
-0.13250345 0.98413134 0 0 0 -1 0
-0.050795883 0.98432654 0 0 0 -1 0
0.012242138 0.98408645 0 0 0 -1 0
0.044947684 0.98492783 0 0 0 -1 0
0.13923889 0.98414582 0 0 0 -1 0
0.20744294 0.98413664 0 0 0 -1 0
0.22610992 0.98466021 0 0 0 -1 0
0.29909903 0.98461097 0 0 0 -1 0
0.36399913 0.98479253 0 0 0 -1 0
0.37251252 0.98408777 0 0 0 -1 0
0.39440089 0.98435044 0 0 0 -1 0
0.48896337 0.98489976 0 0 0 -1 0
0.77690858 0.98452765 0 0 0 -1 0
0.79355764 0.98448366 0 0 0 -1 0
-0.94297504 0.98559552 0 0 0 -1 0
-0.89070904 0.98581737 0 0 0 -1 0
-0.85823649 0.98574764 0 0 0 -1 0
-0.75543034 0.98565179 0 0 0 -1 0
-0.75164557 0.98516744 0 0 0 -1 0
-0.74585497 0.98516273 0 0 0 -1 0
-0.6299234 0.98506242 0 0 0 -1 0
-0.40637234 0.98532915 0 0 0 -1 0
-0.35040325 0.98543066 0 0 0 -1 0
-0.26403895 0.98570371 0 0 0 -1 0
-0.19445512 0.98546255 0 0 0 -1 0
-0.018319011 0.98594964 0 0 0 -1 0
0.073890507 0.98598117 0 0 0 -1 0
0.081863046 0.98516786 0 0 0 -1 0
0.13683158 0.98519254 0 0 0 -1 0
0.2081157 0.98523808 0 0 0 -1 0
0.3706668 0.9855144 0 0 0 -1 0
0.54853511 0.98593295 0 0 0 -1 0
0.62021667 0.9851898 0 0 0 -1 0
0.68020415 0.98583603 0 0 0 -1 0
0.77760386 0.98528409 0 0 0 -1 0
0.80765867 0.98503006 0 0 0 -1 0
-0.96771789 0.98676336 0 0 0 -1 0
-0.92895216 0.98605931 0 0 0 -1 0
-0.85776234 0.98668534 0 0 0 -1 0
-0.85101366 0.98691499 0 0 0 -1 0
-0.82177281 0.98602587 0 0 0 -1 0
-0.76571542 0.9865247 0 0 0 -1 0
-0.7387073 0.98627782 0 0 0 -1 0
-0.61909235 0.98672801 0 0 0 -1 0
-0.61308861 0.98637497 0 0 0 -1 0
-0.3578884 0.98676693 0 0 0 -1 0
-0.28342637 0.98674059 0 0 0 -1 0
-0.25664216 0.98655272 0 0 0 -1 0
-0.25516632 0.98678577 0 0 0 -1 0
-0.24690562 0.98606789 0 0 0 -1 0
-0.05106771 0.98674226 0 0 0 -1 0
-0.031083882 0.98687506 0 0 0 -1 0
0.075377703 0.98620319 0 0 0 -1 0
0.083367527 0.98633367 0 0 0 -1 0
0.38806272 0.98650551 0 0 0 -1 0
0.484658 0.98682547 0 0 0 -1 0
0.6369859 0.9869616 0 0 0 -1 0
0.68296903 0.98637402 0 0 0 -1 0
0.7059117 0.98690271 0 0 0 -1 0
0.72280616 0.986422 0 0 0 -1 0
0.75205141 0.98688775 0 0 0 -1 0
0.86904341 0.98686802 0 0 0 -1 0
0.923392 0.98630655 0 0 0 -1 0
-0.77205676 0.98725843 0 0 0 -1 0
-0.75452101 0.98749799 0 0 0 -1 0
-0.64122051 0.98770154 0 0 0 -1 0
-0.34165996 0.98713291 0 0 0 -1 0
-0.26363856 0.98742622 0 0 0 -1 0
-0.20417309 0.98762286 0 0 0 -1 0
-0.1169129 0.98723245 0 0 0 -1 0
-0.10530877 0.98787439 0 0 0 -1 0
-0.085961908 0.98745811 0 0 0 -1 0
0.055840373 0.98748124 0 0 0 -1 0
0.06579268 0.98739296 0 0 0 -1 0
0.10050535 0.98738682 0 0 0 -1 0
0.16550416 0.9870019 0 0 0 -1 0
0.21470249 0.98774302 0 0 0 -1 0
0.21835864 0.98799801 0 0 0 -1 0
0.47100425 0.98786265 0 0 0 -1 0
0.4950549 0.98753852 0 0 0 -1 0
0.50863606 0.9871285 0 0 0 -1 0
0.51210743 0.98750514 0 0 0 -1 0
0.52368391 0.98703408 0 0 0 -1 0
0.57236356 0.98715788 0 0 0 -1 0
0.62525851 0.98733354 0 0 0 -1 0
0.66958469 0.98798013 0 0 0 -1 0
0.82836652 0.98797375 0 0 0 -1 0
0.87285411 0.98769182 0 0 0 -1 0
0.90217042 0.98793352 0 0 0 -1 0
-0.92374182 0.98833305 0 0 0 -1 0
-0.9102 0.98890269 0 0 0 -1 0
-0.88809192 0.98873895 0 0 0 -1 0
-0.44617552 0.98809338 0 0 0 -1 0
-0.43208781 0.98840654 0 0 0 -1 0
-0.42126191 0.9880625 0 0 0 -1 0
-0.30353895 0.98828459 0 0 0 -1 0
0.03519702 0.98804581 0 0 0 -1 0
0.17401099 0.98831683 0 0 0 -1 0
0.21736574 0.98813277 0 0 0 -1 0
0.30502373 0.98851424 0 0 0 -1 0
0.38325989 0.98846453 0 0 0 -1 0
0.46954733 0.98877633 0 0 0 -1 0
0.5096572 0.98874593 0 0 0 -1 0
0.55607009 0.98826009 0 0 0 -1 0
0.67734081 0.98845506 0 0 0 -1 0
0.79163271 0.98895568 0 0 0 -1 0
0.84052527 0.98887879 0 0 0 -1 0
-0.81346738 0.98914647 0 0 0 -1 0
-0.69214851 0.98944837 0 0 0 -1 0
-0.62005776 0.98975021 0 0 0 -1 0
-0.33340192 0.98943824 0 0 0 -1 0
-0.1516315 0.98948574 0 0 0 -1 0
-0.018568993 0.98995262 0 0 0 -1 0
0.01267764 0.98939753 0 0 0 -1 0
0.040869147 0.9890126 0 0 0 -1 0
0.2516256 0.98951328 0 0 0 -1 0
0.4604215 0.98911268 0 0 0 -1 0
0.49907184 0.9895649 0 0 0 -1 0
0.50820863 0.98973244 0 0 0 -1 0
0.60741824 0.98999375 0 0 0 -1 0
0.71855646 0.9896065 0 0 0 -1 0
0.73249495 0.9898138 0 0 0 -1 0
0.77053851 0.98960024 0 0 0 -1 0
0.87120664 0.98962152 0 0 0 -1 0
-0.95821989 0.99058944 0 0 0 -1 0
-0.95212138 0.990453 0 0 0 -1 0
-0.93908054 0.99047196 0 0 0 -1 0
-0.82253033 0.99067229 0 0 0 -1 0
-0.81153762 0.99092829 0 0 0 -1 0
-0.74931931 0.99011952 0 0 0 -1 0
-0.6596663 0.9904753 0 0 0 -1 0
-0.65861762 0.99075997 0 0 0 -1 0
-0.53310406 0.99095976 0 0 0 -1 0
-0.18526801 0.99034858 0 0 0 -1 0
-0.17802671 0.9903577 0 0 0 -1 0
-0.17124563 0.99093562 0 0 0 -1 0
-0.15772402 0.99085081 0 0 0 -1 0
-0.060403794 0.99093622 0 0 0 -1 0
0.0075555742 0.990574 0 0 0 -1 0
0.15980721 0.99054539 0 0 0 -1 0
0.1996401 0.99033004 0 0 0 -1 0
0.27490747 0.99041933 0 0 0 -1 0
0.35473466 0.99056906 0 0 0 -1 0
0.41822064 0.99076539 0 0 0 -1 0
0.53618598 0.9909817 0 0 0 -1 0
0.63141227 0.99013692 0 0 0 -1 0
0.68462467 0.99045181 0 0 0 -1 0
0.87618285 0.99062681 0 0 0 -1 0
-0.99864024 0.99125671 0 0 0 -1 0
-0.93883097 0.99162364 0 0 0 -1 0
-0.93536943 0.9911077 0 0 0 -1 0
-0.72387898 0.99178106 0 0 0 -1 0
-0.56357539 0.99138802 0 0 0 -1 0
-0.45065856 0.99103296 0 0 0 -1 0
-0.42317224 0.99156928 0 0 0 -1 0
-0.38431972 0.99190056 0 0 0 -1 0
-0.33434618 0.99181557 0 0 0 -1 0
-0.26547793 0.99136543 0 0 0 -1 0
-0.17386147 0.99146891 0 0 0 -1 0
-0.14209768 0.9919464 0 0 0 -1 0
-0.13159806 0.99124032 0 0 0 -1 0
-0.02569136 0.99166471 0 0 0 -1 0
0.031797618 0.99116588 0 0 0 -1 0
0.051517785 0.9918555 0 0 0 -1 0
0.083144605 0.99142319 0 0 0 -1 0
0.31239247 0.99144542 0 0 0 -1 0
0.35126328 0.99158448 0 0 0 -1 0
0.36265779 0.9910053 0 0 0 -1 0
0.42177689 0.99192148 0 0 0 -1 0
0.60489768 0.99156755 0 0 0 -1 0
0.65973896 0.99110049 0 0 0 -1 0
0.79503202 0.99193591 0 0 0 -1 0
-0.86910319 0.99201751 0 0 0 -1 0
-0.81785238 0.99244988 0 0 0 -1 0
-0.73235089 0.99269617 0 0 0 -1 0
-0.70815325 0.99270892 0 0 0 -1 0
-0.6132195 0.99259377 0 0 0 -1 0
-0.51366156 0.99287295 0 0 0 -1 0
-0.47812068 0.99294889 0 0 0 -1 0
-0.45179945 0.99238968 0 0 0 -1 0
-0.38691047 0.99248612 0 0 0 -1 0
-0.36171719 0.99238652 0 0 0 -1 0
-0.29659238 0.99235141 0 0 0 -1 0
-0.19112599 0.99289089 0 0 0 -1 0
-0.14359862 0.99240398 0 0 0 -1 0
0.056425214 0.99289238 0 0 0 -1 0
0.17910135 0.99296623 0 0 0 -1 0
0.1994226 0.99270129 0 0 0 -1 0
0.62253976 0.9926914 0 0 0 -1 0
0.68851298 0.9928534 0 0 0 -1 0
0.73031735 0.99277014 0 0 0 -1 0
0.7805596 0.99224538 0 0 0 -1 0
-0.88727236 0.99397051 0 0 0 -1 0
-0.70767713 0.99338245 0 0 0 -1 0
-0.68923652 0.9932639 0 0 0 -1 0
-0.62115514 0.99352151 0 0 0 -1 0
-0.55168331 0.99328959 0 0 0 -1 0
-0.43175083 0.99306148 0 0 0 -1 0
-0.36585045 0.99392647 0 0 0 -1 0
-0.31055617 0.99370861 0 0 0 -1 0
-0.23812231 0.99346924 0 0 0 -1 0
-0.15925509 0.99351811 0 0 0 -1 0
-0.094078273 0.99368668 0 0 0 -1 0
-0.07943508 0.99391848 0 0 0 -1 0
0.028080344 0.99340361 0 0 0 -1 0
0.086232603 0.993213 0 0 0 -1 0
0.093218744 0.99399781 0 0 0 -1 0
0.27236444 0.99374962 0 0 0 -1 0
0.27765912 0.99394614 0 0 0 -1 0
0.27844459 0.99370432 0 0 0 -1 0
0.29680228 0.99386328 0 0 0 -1 0
0.3581996 0.99394637 0 0 0 -1 0
0.36350459 0.99313277 0 0 0 -1 0
0.37888771 0.99332601 0 0 0 -1 0
0.41721028 0.99369901 0 0 0 -1 0
0.42414397 0.99386376 0 0 0 -1 0
0.58819687 0.99301142 0 0 0 -1 0
0.59995687 0.9935447 0 0 0 -1 0
0.61498672 0.99349052 0 0 0 -1 0
0.6510697 0.99365211 0 0 0 -1 0
0.67616606 0.99338168 0 0 0 -1 0
0.6819064 0.99340707 0 0 0 -1 0
0.74259245 0.99302608 0 0 0 -1 0
0.79382706 0.99369872 0 0 0 -1 0
0.81667632 0.99318796 0 0 0 -1 0
0.82101238 0.9930135 0 0 0 -1 0
0.90623498 0.99350315 0 0 0 -1 0
0.91253525 0.99368352 0 0 0 -1 0
-1 0.9949038 0.00026212633 -1 0 0 0
-0.92661446 0.99423325 0 0 0 -1 0
-0.5271455 0.99417609 0 0 0 -1 0
-0.41518077 0.99476469 0 0 0 -1 0
-0.37852442 0.99421585 0 0 0 -1 0
-0.37069002 0.9943853 0 0 0 -1 0
-0.22362411 0.99427974 0 0 0 -1 0
-0.20893744 0.9942739 0 0 0 -1 0
-0.090138614 0.99465197 0 0 0 -1 0
-0.019418955 0.99448109 0 0 0 -1 0
0.0087980926 0.99479675 0 0 0 -1 0
0.012818485 0.99465042 0 0 0 -1 0
0.12631786 0.99463665 0 0 0 -1 0
0.13659108 0.99448478 0 0 0 -1 0
0.27462214 0.99415845 0 0 0 -1 0
0.33276176 0.99458706 0 0 0 -1 0
0.35331416 0.99459922 0 0 0 -1 0
0.451235 0.994959 0 0 0 -1 0
0.5106644 0.99462831 0 0 0 -1 0
0.57989377 0.99463713 0 0 0 -1 0
0.75401366 0.99418879 0 0 0 -1 0
0.78138411 0.99494994 0 0 0 -1 0
0.82709765 0.99416298 0 0 0 -1 0
-0.95692873 0.99593616 0 0 0 -1 0
-0.94330597 0.9954794 0 0 0 -1 0
-0.85966527 0.99543548 0 0 0 -1 0
-0.78105372 0.99582678 0 0 0 -1 0
-0.42351794 0.99554074 0 0 0 -1 0
-0.41969937 0.99503839 0 0 0 -1 0
-0.22374105 0.99504185 0 0 0 -1 0
-0.058810502 0.9952662 0 0 0 -1 0
0.037958235 0.99592012 0 0 0 -1 0
0.097455382 0.99513328 0 0 0 -1 0
0.12608194 0.99530613 0 0 0 -1 0
0.29412919 0.99521565 0 0 0 -1 0
0.34928179 0.99589676 0 0 0 -1 0
0.37865365 0.99518001 0 0 0 -1 0
0.41658974 0.9952538 0 0 0 -1 0
0.48099357 0.99598551 0 0 0 -1 0
0.48487431 0.99588639 0 0 0 -1 0
0.55894011 0.99581832 0 0 0 -1 0
0.57294285 0.99565816 0 0 0 -1 0
0.64402354 0.99538285 0 0 0 -1 0
-0.88459092 0.99663323 0 0 0 -1 0
-0.8529197 0.99666846 0 0 0 -1 0
-0.70839924 0.99614751 0 0 0 -1 0
-0.5397588 0.99604595 0 0 0 -1 0
-0.31448457 0.99629492 0 0 0 -1 0
-0.25722456 0.99645782 0 0 0 -1 0
-0.17171469 0.99627692 0 0 0 -1 0
-0.045518905 0.9960615 0 0 0 -1 0
0.14743638 0.99619472 0 0 0 -1 0
0.19805211 0.99664158 0 0 0 -1 0
0.30010045 0.99677461 0 0 0 -1 0
0.41793615 0.99643451 0 0 0 -1 0
0.51497078 0.99666882 0 0 0 -1 0
0.60159767 0.99601686 0 0 0 -1 0
0.92198235 0.99646735 0 0 0 -1 0
-0.84478766 0.99734509 0 0 0 -1 0
-0.83965313 0.9972198 0 0 0 -1 0
-0.77715182 0.99708754 0 0 0 -1 0
-0.7441681 0.99791563 0 0 0 -1 0
-0.71756548 0.9970957 0 0 0 -1 0
-0.6360209 0.99749839 0 0 0 -1 0
-0.61141473 0.99782401 0 0 0 -1 0
-0.57140326 0.99744678 0 0 0 -1 0
-0.49562839 0.99778569 0 0 0 -1 0
-0.46135744 0.99764979 0 0 0 -1 0
-0.44169569 0.99734235 0 0 0 -1 0
-0.4344328 0.9977504 0 0 0 -1 0
-0.28750983 0.99721444 0 0 0 -1 0
-0.27590808 0.9973107 0 0 0 -1 0
-0.13342112 0.9971714 0 0 0 -1 0
0.086315989 0.99733871 0 0 0 -1 0
0.25438505 0.99736637 0 0 0 -1 0
0.3557663 0.99752957 0 0 0 -1 0
0.41950482 0.99755704 0 0 0 -1 0
0.44946563 0.99707413 0 0 0 -1 0
0.45117778 0.99794799 0 0 0 -1 0
0.50126839 0.99709892 0 0 0 -1 0
0.56968695 0.99760038 0 0 0 -1 0
0.58356559 0.99790227 0 0 0 -1 0
0.64908952 0.99706161 0 0 0 -1 0
0.70667315 0.99746609 0 0 0 -1 0
0.84235704 0.99734885 0 0 0 -1 0
0.85593355 0.99795252 0 0 0 -1 0
0.86796182 0.99752355 0 0 0 -1 0
0.8807047 0.99798131 0 0 0 -1 0
0.88645959 0.99782479 0 0 0 -1 0
-0.99906784 0.99833554 0 0 0 -1 0
-0.96582872 0.99815583 0 0 0 -1 0
-0.89735621 0.99845231 0 0 0 -1 0
-0.8736949 0.99893034 0 0 0 -1 0
-0.73091161 0.99812871 0 0 0 -1 0
-0.71807921 0.99815118 0 0 0 -1 0
-0.68333119 0.99832308 0 0 0 -1 0
-0.52194726 0.9985857 0 0 0 -1 0
-0.45222062 0.99849856 0 0 0 -1 0
-0.3933413 0.99899936 0 0 0 -1 0
-0.38701853 0.99808729 0 0 0 -1 0
-0.35917395 0.99834025 0 0 0 -1 0
-0.35406032 0.99860221 0 0 0 -1 0
-0.27940845 0.99877334 0 0 0 -1 0
-0.010960966 0.99804306 0 0 0 -1 0
0.043088198 0.99896711 0 0 0 -1 0
0.048245668 0.9981811 0 0 0 -1 0
0.072735548 0.99822235 0 0 0 -1 0
0.16395986 0.99820346 0 0 0 -1 0
0.17492545 0.99808055 0 0 0 -1 0
0.20598513 0.99841642 0 0 0 -1 0
0.22114682 0.99858415 0 0 0 -1 0
0.33238828 0.99892771 0 0 0 -1 0
0.37412924 0.99825102 0 0 0 -1 0
0.51528335 0.99858356 0 0 0 -1 0
0.57375425 0.99879944 0 0 0 -1 0
0.63193929 0.99846351 0 0 0 -1 0
0.72946835 0.99874747 0 0 0 -1 0
0.7468012 0.99850368 0 0 0 -1 0
0.77767646 0.998074 0 0 0 -1 0
0.81194848 0.99862367 0 0 0 -1 0
0.92181945 0.99804735 0 0 0 -1 0
-0.97920173 0.99954426 0 0 0 -1 0
-0.96170145 0.99966073 0 0 0 -1 0
-0.95658159 1 0.00033766331 0 1 0 0
-0.90320492 0.99933946 0 0 0 -1 0
-0.87173796 0.99927664 0 0 0 -1 0
-0.86703718 1 0.00028903337 0 1 0 0
-0.80805415 0.9991399 0 0 0 -1 0
-0.70985818 1 0.00028833747 0 1 0 0
-0.67497087 0.99984884 0 0 0 -1 0
-0.66877794 0.99992561 0 0 0 -1 0
-0.59940469 1 0.00084171741 0 1 0 0
-0.5978961 1 0.00059000851 0 1 0 0
-0.5918327 1 7.5642769e-05 0 1 0 0
-0.4834488 0.99919432 0 0 0 -1 0
-0.47251922 1 0.00030716657 0 1 0 0
-0.45174989 1 0.0009872556 0 1 0 0
-0.39874178 0.99986589 0 0 0 -1 0
-0.37670043 0.999277 0 0 0 -1 0
-0.36631355 1 0.00026815088 0 1 0 0
-0.25738311 1 0.00083061308 0 1 0 0
-0.21916804 0.99971932 0 0 0 -1 0
-0.19181859 0.99998438 0 0 0 -1 0
-0.065139115 0.99964583 0 0 0 -1 0
-0.040951759 0.99947113 0 0 0 -1 0
-0.035336375 0.99935913 0 0 0 -1 0
-0.024893701 0.99928945 0 0 0 -1 0
0.012167412 1 0.00035837889 0 1 0 0
0.12071341 0.99988532 0 0 0 -1 0
0.13903558 1 0.00044840874 0 1 0 0
0.19820726 0.99990803 0 0 0 -1 0
0.22472964 1 0.00088885427 0 1 0 0
0.23028481 1 0.00029433222 0 1 0 0
0.26908159 0.99917358 0 0 0 -1 0
0.2984516 0.99929035 0 0 0 -1 0
0.30258828 0.99961996 0 0 0 -1 0
0.32976484 1 0.00034130365 0 1 0 0
0.33413976 1 0.00027203708 0 1 0 0
0.34565729 1 0.00051560404 0 1 0 0
0.36578196 0.99982458 0 0 0 -1 0
0.40819523 1 0.00099585799 0 1 0 0
0.47000957 0.99987721 0 0 0 -1 0
0.48048735 0.99914157 0 0 0 -1 0
0.49064767 1 0.00075011997 0 1 0 0
0.59466976 1 0.00066301378 0 1 0 0
0.6226843 0.99981576 0 0 0 -1 0
0.64208502 1 0.00071197451 0 1 0 0
0.68237019 1 0.00036839992 0 1 0 0
0.73343241 1 5.5606662e-05 0 1 0 0
0.77254277 1 0.00015191585 0 1 0 0
0.78692925 0.99976051 0 0 0 -1 0
0.80299985 1 0.00089767278 0 1 0 0
0.80420697 0.99910975 0 0 0 -1 0
0.91284567 0.99905723 0 0 0 -1 0
-0.91169643 -1 0.0011694292 0 -1 0 0
-0.86206186 -1 0.0019950136 0 -1 0 0
-0.81452823 -1 0.0017905717 0 -1 0 0
-0.78500044 -1 0.0018703111 0 -1 0 0
-0.64892077 -1 0.0017469593 0 -1 0 0
-0.53350031 -1 0.0017479436 0 -1 0 0
-0.41280878 -1 0.0013892319 0 -1 0 0
-0.34821177 -1 0.0013135122 0 -1 0 0
-0.28461909 -1 0.0018045836 0 -1 0 0
-0.218243 -1 0.0018684826 0 -1 0 0
-0.18140125 -1 0.0017358373 0 -1 0 0
-0.062921166 -1 0.0012845811 0 -1 0 0
0.014894754 -1 0.0013641935 0 -1 0 0
0.13230407 -1 0.001196511 0 -1 0 0
0.15443122 -1 0.0010460888 0 -1 0 0
0.24026191 -1 0.001181193 0 -1 0 0
0.30713466 -1 0.0014349715 0 -1 0 0
0.34781286 -1 0.0017807111 0 -1 0 0
0.42866805 -1 0.0013437467 0 -1 0 0
0.48703024 -1 0.0018902733 0 -1 0 0
0.53642738 -1 0.0012046234 0 -1 0 0
0.75996006 -1 0.0011084405 0 -1 0 0
0.92945641 -1 0.0019945181 0 -1 0 0
-1 -0.99236423 0.0019783939 -1 0 0 0
-1 -0.93139791 0.0017307716 -1 0 0 0
1 -0.91998839 0.0015169231 1 0 0 0
1 -0.89867657 0.0013221231 1 0 0 0
-1 -0.89385271 0.0015013753 -1 0 0 0
1 -0.86644351 0.0012690469 1 0 0 0
1 -0.82406998 0.0018996872 1 0 0 0
1 -0.74619198 0.0012416512 1 0 0 0
1 -0.69678688 0.0015217355 1 0 0 0
-1 -0.69403309 0.001303646 -1 0 0 0
1 -0.6541369 0.0016747819 1 0 0 0
-1 -0.63471097 0.0019865588 -1 0 0 0
1 -0.63151753 0.0011872853 1 0 0 0
-1 -0.52244967 0.0010264412 -1 0 0 0
-1 -0.48504829 0.0016705528 -1 0 0 0
1 -0.47637171 0.0016240454 1 0 0 0
1 -0.44775492 0.0014289484 1 0 0 0
1 -0.4283675 0.0011014438 1 0 0 0
1 -0.40715697 0.0013148827 1 0 0 0
1 -0.32080159 0.0010534463 1 0 0 0
1 -0.28045225 0.0014680851 1 0 0 0
-1 -0.20189551 0.0012269572 -1 0 0 0
1 -0.14785591 0.0018266042 1 0 0 0
1 -0.13044965 0.0013500078 1 0 0 0
-1 0.037894219 0.0015157656 -1 0 0 0
1 0.076246202 0.0011565015 1 0 0 0
1 0.14666238 0.0016341711 1 0 0 0
1 0.23558307 0.0010003627 1 0 0 0
1 0.23985705 0.0010893734 1 0 0 0
-1 0.2799741 0.001836817 -1 0 0 0
1 0.30813041 0.0015653539 1 0 0 0
1 0.37390676 0.0017404864 1 0 0 0
-1 0.43864235 0.0017870367 -1 0 0 0
-1 0.44720665 0.0015435681 -1 0 0 0
-1 0.47418109 0.0010049626 -1 0 0 0
-1 0.53521013 0.0010583237 -1 0 0 0
-1 0.54573619 0.0014247686 -1 0 0 0
1 0.57833982 0.001617028 1 0 0 0
-1 0.63433081 0.001203759 -1 0 0 0
-1 0.70539051 0.0010781601 -1 0 0 0
1 0.75441515 0.0014952103 1 0 0 0
-1 0.76299435 0.001858218 -1 0 0 0
1 0.77569276 0.0011843808 1 0 0 0
-1 0.77935398 0.0017555833 -1 0 0 0
1 0.77972615 0.0015919425 1 0 0 0
-1 0.80148876 0.0013473704 -1 0 0 0
1 0.85094392 0.0010275888 1 0 0 0
1 0.86672574 0.0019504089 1 0 0 0
1 0.88505065 0.0019618543 1 0 0 0
0.98959523 0.93540478 0.0017090547 0.70710683 0.70710683 0 0
-0.97839445 1 0.0019664257 0 1 0 0
-0.96738374 1 0.0010791703 0 1 0 0
-0.75751543 1 0.0010053009 0 1 0 0
-0.72604102 1 0.0011530727 0 1 0 0
-0.62138307 1 0.0017806933 0 1 0 0
-0.44787017 1 0.0012347162 0 1 0 0
-0.43806964 1 0.0013610394 0 1 0 0
-0.38714033 1 0.0015847624 0 1 0 0
-0.24407539 1 0.0017836973 0 1 0 0
-0.016231216 1 0.0011115775 0 1 0 0
0.020816237 1 0.0017923847 0 1 0 0
0.097363882 1 0.0010976195 0 1 0 0
0.22118685 1 0.0018883481 0 1 0 0
0.27031559 1 0.0012103245 0 1 0 0
0.60229361 1 0.0017226071 0 1 0 0
0.62250185 1 0.0012090936 0 1 0 0
0.77827042 1 0.0014076739 0 1 0 0
0.80809414 1 0.0016523898 0 1 0 0
0.85145789 1 0.0015169606 0 1 0 0
-0.90392303 -1 0.0027434828 0 -1 0 0
-0.67232144 -1 0.0023363943 0 -1 0 0
-0.67104316 -1 0.0023079014 0 -1 0 0
-0.66720235 -1 0.0029944465 0 -1 0 0
-0.43721211 -1 0.0026065584 0 -1 0 0
-0.28126121 -1 0.0025469505 0 -1 0 0
-0.17828155 -1 0.0027870159 0 -1 0 0
-0.082263589 -1 0.0026058545 0 -1 0 0
-0.060446382 -1 0.0029073916 0 -1 0 0
-0.026481986 -1 0.0028168582 0 -1 0 0
0.067626745 -1 0.0020770594 0 -1 0 0
0.10167077 -1 0.0029428632 0 -1 0 0
0.16403934 -1 0.0022957961 0 -1 0 0
0.31378028 -1 0.0023582978 0 -1 0 0
0.31827724 -1 0.0021873168 0 -1 0 0
0.38191462 -1 0.0027753985 0 -1 0 0
0.39870599 -1 0.0029750816 0 -1 0 0
0.47531912 -1 0.0029159994 0 -1 0 0
0.51653695 -1 0.0023280482 0 -1 0 0
0.84515029 -1 0.0028895701 0 -1 0 0
0.87020719 -1 0.0020733802 0 -1 0 0
-1 -0.99364406 0.0028996358 -1 0 0 0
-1 -0.91147149 0.0028500301 -1 0 0 0
-1 -0.90645331 0.0023358013 -1 0 0 0
-1 -0.89615804 0.0029870174 -1 0 0 0
1 -0.87080914 0.0023252252 1 0 0 0
1 -0.8660019 0.0022586389 1 0 0 0
1 -0.81432575 0.0024247712 1 0 0 0
-1 -0.81250113 0.0022041455 -1 0 0 0
-1 -0.75862563 0.0025905401 -1 0 0 0
-1 -0.65294391 0.0029609695 -1 0 0 0
1 -0.61418033 0.0023328899 1 0 0 0
1 -0.56773287 0.0021700033 1 0 0 0
1 -0.53290993 0.0021390298 1 0 0 0
-1 -0.5145725 0.0021820159 -1 0 0 0
1 -0.48768383 0.0024231945 1 0 0 0
-1 -0.40779012 0.0024349825 -1 0 0 0
-1 -0.40320903 0.0022362904 -1 0 0 0
1 -0.3911618 0.0023750777 1 0 0 0
1 -0.38578522 0.0025714855 1 0 0 0
-1 -0.37566465 0.0021012768 -1 0 0 0
1 -0.21654898 0.002204559 1 0 0 0
-1 -0.10340714 0.0027901547 -1 0 0 0
-1 -0.080908328 0.0025478185 -1 0 0 0
-1 -0.054897398 0.0028305426 -1 0 0 0
-1 -0.0086034164 0.0025863962 -1 0 0 0
-1 -0.001555644 0.0022057728 -1 0 0 0
-1 0.084679164 0.0026608973 -1 0 0 0
-1 0.08817219 0.0024191171 -1 0 0 0
-1 0.23889542 0.0028659657 -1 0 0 0
1 0.2647655 0.0027613416 1 0 0 0
1 0.2724562 0.0029574018 1 0 0 0
1 0.28845778 0.0021621243 1 0 0 0
-1 0.36718243 0.0028929636 -1 0 0 0
1 0.46983799 0.0027593914 1 0 0 0
1 0.47603297 0.0022188167 1 0 0 0
-1 0.48610583 0.0028485716 -1 0 0 0
-1 0.50786281 0.0029646575 -1 0 0 0
-1 0.51213825 0.002119431 -1 0 0 0
1 0.51477236 0.0024364241 1 0 0 0
-1 0.52540755 0.0023315251 -1 0 0 0
-1 0.55613148 0.0024035021 -1 0 0 0
-1 0.60207045 0.0026596456 -1 0 0 0
1 0.69039077 0.0025781167 1 0 0 0
1 0.72214454 0.0024101399 1 0 0 0
-1 0.75660449 0.0025362342 -1 0 0 0
-1 0.83625877 0.0029134334 -1 0 0 0
1 0.87650084 0.0020119878 1 0 0 0
0.97994632 0.9450537 0.0027098807 0.70710683 0.70710683 0 0
-1 0.98040426 0.0028373883 -1 0 0 0
-1 0.98279715 0.002896002 -1 0 0 0
-0.91670996 1 0.0025619599 0 1 0 0
-0.80570304 1 0.0028096333 0 1 0 0
-0.77233285 1 0.0020083368 0 1 0 0
-0.59749693 1 0.0029296458 0 1 0 0
-0.58385158 1 0.0020203532 0 1 0 0
-0.54169947 1 0.0020672113 0 1 0 0
-0.47950464 1 0.0023522184 0 1 0 0
-0.4703941 1 0.0025095225 0 1 0 0
-0.45878223 1 0.0022054599 0 1 0 0
-0.45149675 1 0.0026058094 0 1 0 0
-0.44104996 1 0.002982849 0 1 0 0
-0.34547234 1 0.0029212981 0 1 0 0
-0.27336636 1 0.0024843216 0 1 0 0
-0.27282149 1 0.0024674386 0 1 0 0
-0.11716767 1 0.0022737593 0 1 0 0
-0.10786683 1 0.0028755651 0 1 0 0
0.018399291 1 0.0025955827 0 1 0 0
0.10000633 1 0.0028618486 0 1 0 0
0.13977915 1 0.0026417822 0 1 0 0
0.20884787 1 0.0023343475 0 1 0 0
0.26519573 1 0.0020031394 0 1 0 0
0.36123282 1 0.0028757646 0 1 0 0
0.36840016 1 0.0020336106 0 1 0 0
0.4573676 1 0.0024281905 0 1 0 0
0.45908427 1 0.0029754967 0 1 0 0
0.50323319 1 0.0020233647 0 1 0 0
0.55068147 1 0.0020058125 0 1 0 0
0.59867287 1 0.0024309442 0 1 0 0
0.68753225 1 0.0022482516 0 1 0 0
0.76116967 1 0.0024875074 0 1 0 0
0.77825254 1 0.0024368376 0 1 0 0
0.89817643 1 0.0022502826 0 1 0 0
-0.91093242 -1 0.003729952 0 -1 0 0
-0.88544619 -1 0.0039187772 0 -1 0 0
-0.86757982 -1 0.0036957029 0 -1 0 0
-0.83886433 -1 0.0034770661 0 -1 0 0
-0.80519021 -1 0.0032153912 0 -1 0 0
-0.72095478 -1 0.0039676707 0 -1 0 0
-0.65479624 -1 0.0039333552 0 -1 0 0
-0.50950909 -1 0.0031854317 0 -1 0 0
-0.49155235 -1 0.0036394906 0 -1 0 0
-0.45770705 -1 0.0031313843 0 -1 0 0
-0.21367466 -1 0.0030569395 0 -1 0 0
-0.12986708 -1 0.0038742032 0 -1 0 0
-0.11052883 -1 0.0031058977 0 -1 0 0
-0.093006253 -1 0.003548933 0 -1 0 0
-0.068916917 -1 0.0039400305 0 -1 0 0
-0.064377666 -1 0.0031857954 0 -1 0 0
0.080031842 -1 0.0036399958 0 -1 0 0
0.22469184 -1 0.0034822405 0 -1 0 0
0.29950428 -1 0.0038083694 0 -1 0 0
0.53542244 -1 0.0032694913 0 -1 0 0
0.54363728 -1 0.0036432783 0 -1 0 0
0.57118511 -1 0.0037371994 0 -1 0 0
0.59070778 -1 0.0030168905 0 -1 0 0
0.59604514 -1 0.0039107846 0 -1 0 0
0.71873993 -1 0.0035890571 0 -1 0 0
0.82239479 -1 0.0037317448 0 -1 0 0
0.83693093 -1 0.0038144379 0 -1 0 0
0.84291577 -1 0.0036156701 0 -1 0 0
0.9453615 -1 0.0037647961 0 -1 0 0
0.98569363 -1 0.0038642327 0 -1 0 0
-1 -0.96700841 0.0039992579 -1 0 0 0
1 -0.92355436 0.0037806968 1 0 0 0
-1 -0.85598516 0.0037695291 -1 0 0 0
1 -0.85326636 0.0039175139 1 0 0 0
-1 -0.76500815 0.0037772406 -1 0 0 0
-1 -0.72041464 0.0035631089 -1 0 0 0
1 -0.715536 0.0031328802 1 0 0 0
-1 -0.65753305 0.0036123306 -1 0 0 0
-1 -0.62488759 0.0034096881 -1 0 0 0
-1 -0.60046828 0.0030164004 -1 0 0 0
1 -0.44375065 0.0038129091 1 0 0 0
-1 -0.34111184 0.0039435714 -1 0 0 0
1 -0.330008 0.0035369003 1 0 0 0
-1 -0.24175766 0.0039503174 -1 0 0 0
1 -0.14668673 0.0031882515 1 0 0 0
1 -0.081875622 0.0032423073 1 0 0 0
1 -0.078368515 0.0037021383 1 0 0 0
1 -0.068165123 0.0035702856 1 0 0 0
1 -0.0021370947 0.0035371114 1 0 0 0
1 0.13641492 0.0033035642 1 0 0 0
-1 0.14077371 0.0032136918 -1 0 0 0
-1 0.16736449 0.0030147955 -1 0 0 0
-1 0.19343013 0.0030785368 -1 0 0 0
1 0.26701498 0.0033836514 1 0 0 0
1 0.39499494 0.0039465167 1 0 0 0
-1 0.40071815 0.0030574859 -1 0 0 0
1 0.41133258 0.0035112619 1 0 0 0
-1 0.42781708 0.003121017 -1 0 0 0
1 0.44014189 0.0030912522 1 0 0 0
1 0.56862158 0.0038292755 1 0 0 0
1 0.58936483 0.0034393833 1 0 0 0
-1 0.62159836 0.0039363354 -1 0 0 0
-1 0.69580716 0.0038339645 -1 0 0 0
-1 0.76078689 0.0033276738 -1 0 0 0
1 0.87422144 0.0032838704 1 0 0 0
1 0.91966701 0.0037485489 1 0 0 0
0.99569649 0.92930347 0.0035085455 0.70710683 0.70710683 0 0
0.98708302 0.93791699 0.0032811353 0.70710683 0.70710683 0 0
-1 0.96174735 0.0038377033 -1 0 0 0
-1 0.97599357 0.0033370703 -1 0 0 0
-0.9706409 1 0.0034092451 0 1 0 0
-0.90094519 1 0.0038124355 0 1 0 0
-0.88584614 1 0.0035809698 0 1 0 0
-0.86268109 1 0.0033462588 0 1 0 0
-0.75487727 1 0.0037968154 0 1 0 0
-0.72063613 1 0.0032272339 0 1 0 0
-0.71677625 1 0.0030206607 0 1 0 0
-0.6922223 1 0.0036559254 0 1 0 0
-0.65789878 1 0.0035148324 0 1 0 0
-0.57646471 1 0.0037099556 0 1 0 0
-0.57472372 1 0.0039622113 0 1 0 0
-0.5564785 1 0.0035500333 0 1 0 0
-0.46443152 1 0.003769584 0 1 0 0
-0.40730411 1 0.0037495762 0 1 0 0
-0.40637144 1 0.00341464 0 1 0 0
-0.17055394 1 0.0039750519 0 1 0 0
-0.16018102 1 0.0032680035 0 1 0 0
-0.1026291 1 0.0039731115 0 1 0 0
-0.094635591 1 0.003876023 0 1 0 0
0.0042503625 1 0.0038089098 0 1 0 0
0.12615587 1 0.0030139356 0 1 0 0
0.25929785 1 0.0036723062 0 1 0 0
0.37361926 1 0.0032322735 0 1 0 0
0.37512952 1 0.0030289844 0 1 0 0
0.42919901 1 0.0036381395 0 1 0 0
0.47527939 1 0.0037377507 0 1 0 0
0.61460525 1 0.0032766804 0 1 0 0
0.64387393 1 0.0039940788 0 1 0 0
0.75922245 1 0.0039804252 0 1 0 0
0.78063637 1 0.003655751 0 1 0 0
0.79595917 1 0.0033431903 0 1 0 0
0.79745913 1 0.0035355003 0 1 0 0
0.87232745 1 0.0034471066 0 1 0 0
-0.98075593 -1 0.0042329277 0 -1 0 0
-0.94360638 -1 0.0046974295 0 -1 0 0
-0.92707205 -1 0.0047144718 0 -1 0 0
-0.91847348 -1 0.0048769144 0 -1 0 0
-0.8081665 -1 0.0047421702 0 -1 0 0
-0.70965099 -1 0.0047543128 0 -1 0 0
-0.70137036 -1 0.0042133681 0 -1 0 0
-0.64594352 -1 0.0043107872 0 -1 0 0
-0.57397318 -1 0.0044964105 0 -1 0 0
-0.50595927 -1 0.004820738 0 -1 0 0
-0.48739266 -1 0.0044639711 0 -1 0 0
-0.47855341 -1 0.0045973477 0 -1 0 0
-0.42883325 -1 0.0043710666 0 -1 0 0
-0.38930672 -1 0.0046439199 0 -1 0 0
-0.38662195 -1 0.0045785643 0 -1 0 0
-0.30688095 -1 0.0048517184 0 -1 0 0
-0.2610209 -1 0.0042339009 0 -1 0 0
-0.26061535 -1 0.0041454379 0 -1 0 0
0.041340083 -1 0.004365149 0 -1 0 0
0.050438046 -1 0.0045941952 0 -1 0 0
0.22200963 -1 0.004779336 0 -1 0 0
0.28317678 -1 0.0040602963 0 -1 0 0
0.31311762 -1 0.004068308 0 -1 0 0
0.37445095 -1 0.0041390643 0 -1 0 0
0.42346585 -1 0.0044476083 0 -1 0 0
0.44705012 -1 0.0041373461 0 -1 0 0
0.60743058 -1 0.0046184403 0 -1 0 0
0.71988863 -1 0.0048586973 0 -1 0 0
0.84744072 -1 0.0041368259 0 -1 0 0
0.90629309 -1 0.0048742201 0 -1 0 0
0.98063779 -1 0.0045926636 0 -1 0 0
-1 -0.98929101 0.0042785807 -1 0 0 0
-1 -0.86584443 0.0044294889 -1 0 0 0
1 -0.85974485 0.0041830591 1 0 0 0
1 -0.78280365 0.00404491 1 0 0 0
1 -0.68396109 0.0042796754 1 0 0 0
-1 -0.66986459 0.0043430529 -1 0 0 0
1 -0.6481654 0.0046339668 1 0 0 0
1 -0.61535811 0.0040061669 1 0 0 0
-1 -0.54286212 0.0049260142 -1 0 0 0
1 -0.53378445 0.0048967884 1 0 0 0
1 -0.51372659 0.0044477792 1 0 0 0
-1 -0.49556243 0.0048887148 -1 0 0 0
1 -0.4851768 0.0043396535 1 0 0 0
1 -0.38969049 0.0040138275 1 0 0 0
1 -0.38897419 0.0041068913 1 0 0 0
1 -0.32454482 0.0042408439 1 0 0 0
-1 -0.31148905 0.0045177327 -1 0 0 0
1 -0.30405965 0.0046487348 1 0 0 0
-1 -0.29938731 0.0046198475 -1 0 0 0
1 -0.26621279 0.0044399141 1 0 0 0
-1 -0.25775427 0.0047011869 -1 0 0 0
-1 -0.19812104 0.0040499135 -1 0 0 0
1 -0.18162507 0.0040968158 1 0 0 0
-1 -0.10998833 0.0040886598 -1 0 0 0
1 -0.10278794 0.0042525879 1 0 0 0
1 -0.094024986 0.0041812859 1 0 0 0
-1 -0.016819686 0.0045224102 -1 0 0 0
1 0.025359839 0.0047857612 1 0 0 0
1 0.10475031 0.0047687311 1 0 0 0
-1 0.19426888 0.0049576508 -1 0 0 0
-1 0.25594896 0.0043741213 -1 0 0 0
1 0.30907699 0.0045665987 1 0 0 0
1 0.32494012 0.0045278873 1 0 0 0
1 0.35076806 0.0045041842 1 0 0 0
1 0.35294399 0.004894617 1 0 0 0
1 0.37145567 0.0049978602 1 0 0 0
-1 0.38011849 0.0047671841 -1 0 0 0
1 0.38827282 0.0043102312 1 0 0 0
1 0.40884188 0.0041425088 1 0 0 0
1 0.43073106 0.0047462354 1 0 0 0
-1 0.44223458 0.004592191 -1 0 0 0
1 0.51898205 0.0047683236 1 0 0 0
1 0.53898311 0.0045829797 1 0 0 0
1 0.60875142 0.0047669969 1 0 0 0
1 0.63706857 0.0040466576 1 0 0 0
1 0.6579563 0.0046146363 1 0 0 0
1 0.6933322 0.0044972384 1 0 0 0
1 0.69685459 0.0040467731 1 0 0 0
1 0.70386726 0.0044329101 1 0 0 0
-1 0.77604365 0.004315448 -1 0 0 0
-1 0.7965067 0.0048476653 -1 0 0 0
-1 0.79968315 0.0047445386 -1 0 0 0
1 0.80546063 0.0040042945 1 0 0 0
0.92958605 0.99541402 0.0040824278 0.70710683 0.70710683 0 0
-0.99295062 1 0.0042658099 0 1 0 0
-0.88342738 1 0.0041120956 0 1 0 0
-0.65628231 1 0.0045545353 0 1 0 0
-0.65137494 1 0.0045074346 0 1 0 0
-0.54083788 1 0.0047708275 0 1 0 0
-0.23225079 1 0.0041363211 0 1 0 0
-0.023642018 1 0.0049682856 0 1 0 0
0.059443243 1 0.0045453981 0 1 0 0
0.11267436 1 0.0043070661 0 1 0 0
0.13198683 1 0.0040486753 0 1 0 0
0.167418 1 0.0047349529 0 1 0 0
0.26172066 1 0.0044937059 0 1 0 0
0.2691552 1 0.0048323362 0 1 0 0
0.3267909 1 0.0047192038 0 1 0 0
0.33128241 1 0.004278414 0 1 0 0
0.34296876 1 0.0048895343 0 1 0 0
0.45075813 1 0.0046545491 0 1 0 0
0.57389653 1 0.0045774877 0 1 0 0
0.80105555 1 0.0047962116 0 1 0 0
0.85360396 1 0.0048396694 0 1 0 0
0.91561365 1 0.0045680674 0 1 0 0
-0.85076749 -1 0.0052134725 0 -1 0 0
-0.84601426 -1 0.0050761229 0 -1 0 0
-0.66896117 -1 0.0059372215 0 -1 0 0
-0.56681812 -1 0.005977245 0 -1 0 0
-0.52133179 -1 0.0050116116 0 -1 0 0
-0.37283063 -1 0.00587737 0 -1 0 0
-0.30251038 -1 0.0056076311 0 -1 0 0
-0.29287529 -1 0.005193606 0 -1 0 0
-0.26375461 -1 0.0052938438 0 -1 0 0
-0.2186228 -1 0.0054817121 0 -1 0 0
-0.21703112 -1 0.0051090023 0 -1 0 0
-0.20203567 -1 0.0052355095 0 -1 0 0
-0.069122553 -1 0.0059245937 0 -1 0 0
0.013350964 -1 0.0052871224 0 -1 0 0
0.11258996 -1 0.0054129744 0 -1 0 0
0.38535884 -1 0.005193111 0 -1 0 0
0.43378207 -1 0.0051082666 0 -1 0 0
0.44104317 -1 0.0055069062 0 -1 0 0
0.4731364 -1 0.0055989153 0 -1 0 0
0.55373162 -1 0.0056646015 0 -1 0 0
0.63295776 -1 0.0052684243 0 -1 0 0
0.6695053 -1 0.0057947049 0 -1 0 0
0.74292481 -1 0.0056137801 0 -1 0 0
0.86095023 -1 0.0054630041 0 -1 0 0
0.9101519 -1 0.0053898152 0 -1 0 0
0.97513932 -1 0.0057513276 0 -1 0 0
-1 -0.98914468 0.0059040166 -1 0 0 0
-1 -0.90659088 0.0056466553 -1 0 0 0
-1 -0.88034749 0.0054895533 -1 0 0 0
1 -0.78514433 0.005641351 1 0 0 0
-1 -0.73882645 0.0053736456 -1 0 0 0
1 -0.69036561 0.0054601734 1 0 0 0
1 -0.60213733 0.0053316858 1 0 0 0
-1 -0.53931737 0.0057076574 -1 0 0 0
-1 -0.52021796 0.0058774664 -1 0 0 0
-1 -0.31063831 0.0059737312 -1 0 0 0
1 -0.19865277 0.0055421186 1 0 0 0
-1 -0.18110573 0.0051681655 -1 0 0 0
-1 -0.0020031035 0.00588765 -1 0 0 0
1 0.0038523674 0.0053452435 1 0 0 0
-1 0.016764954 0.0059327246 -1 0 0 0
1 0.052754343 0.0050892751 1 0 0 0
1 0.13783073 0.0057718344 1 0 0 0
-1 0.23281591 0.0054350989 -1 0 0 0
-1 0.23466437 0.0050800936 -1 0 0 0
-1 0.23770641 0.0056136595 -1 0 0 0
-1 0.26820186 0.00529058 -1 0 0 0
1 0.31544408 0.0050234552 1 0 0 0
1 0.34630933 0.0054462529 1 0 0 0
1 0.39377421 0.0051678023 1 0 0 0
-1 0.41429353 0.0056676269 -1 0 0 0
1 0.41829959 0.0053822482 1 0 0 0
1 0.45515645 0.0050384682 1 0 0 0
1 0.57858235 0.0056654941 1 0 0 0
1 0.64438057 0.0057585705 1 0 0 0
