# .PCD v0.7 - Point Cloud Data file format
VERSION 0.7
FIELDS x y z
SIZE 4 4 4
TYPE F F F
COUNT 1 1 1
WIDTH 2116
HEIGHT 1
VIEWPOINT 0 0 0 1 0 0 0
POINTS 2116
DATA ascii
88.497437 72.285141 25
100.00001 93.657402 15.663465
33.365761 87.000626 25
92.82634 52.791759 25
49.458439 94.116531 0
31.940062 14.242481 25
97.337105 0 14.684626
86.497017 9.890214 0
19.755871 0.97273308 0
77.322006 13.018485 25
54.568642 22.932878 0
100 95.210938 20.261562
30.725683 31.628187 0
45.907654 0.65721774 0
62.267113 74.3246 0
6.6765037 79.406311 0
99.999992 86.839851 21.599535
100 10.174402 21.26021
27.88604 5.8132424 25
5.2175522 2.7660108 25
78.513138 57.425224 0
79.704956 20.186249 25.000002
25.309109 0.94167542 25
0 39.102058 12.808895
0 2.5235543 2.838546
33.657654 63.297333 25
9.4045019 96.510986 25
85.347198 53.528587 25
37.769474 75.760727 25
0 95.18689 19.469471
0 27.852005 20.352468
60.773323 6.4209285 25
26.50174 44.526337 25
21.484364 28.89517 25
100 47.954647 20.591648
100 84.572395 0.63873696
100 9.660594 9.4014969
54.640987 92.77903 0
28.984653 9.6275711 25
4.6537933 30.807072 0
74.643616 17.890511 0
7.8529501 16.332951 0
64.875076 19.164383 25
62.972485 58.509998 0
6.840229 23.356121 25
55.742939 12.172759 0
89.413597 6.8805637 0
100 82.561813 9.8995419
14.852455 36.658577 0
57.826225 27.185642 25
3.9276779 8.4008684 25
82.994652 48.943707 25
0 19.949722 22.102411
100 57.034378 19.534386
9.9328213 98.410477 0
8.687603 50.342445 25
0 53.80978 7.1073489
41.216431 0 24.15814
31.293213 56.002842 25
40.39986 66.071053 25
100 33.076378 11.577353
43.922882 14.075837 25
76.425674 66.244873 25
0 82.201065 7.1273451
41.972206 45.690155 25
20.913208 75.416267 25.000002
53.399082 100 15.795846
57.860428 59.117104 25
99.42009 3.5300167 0
73.773354 100 23.744259
29.043938 95.971916 24.999998
61.238224 64.314163 0
74.165848 7.8316216 25.000002
87.155235 100 21.712286
0 9.8420086 10.455002
13.55021 47.002125 25
22.224617 65.941414 25
29.069828 100 21.658216
37.567741 10.62197 25
49.616009 3.6519351 25
64.625381 66.042503 25
43.112682 57.223557 25
25.446903 74.962227 0
67.558357 14.159962 25
39.36512 3.8571413 0
22.649876 58.051689 0
0 63.541607 3.6980748
97.294365 25.671585 25
0 63.007698 0.59142709
20.625217 100 11.829002
66.418228 60.493393 0
18.855984 74.450317 25
49.387802 32.726242 0
59.565201 67.891975 25
55.017204 22.140619 0
95.39222 93.974533 0
1.3312042 25.565386 25
28.962339 85.454346 0
35.368889 85.723679 0
79.351669 0 3.9722896
96.757858 99.389954 0
16.844696 66.606934 0
99.293663 9.0738506 0
0 79.817009 18.44265
100 2.4088297 2.2945726
0 29.563332 4.0319681
91.710609 86.413475 25
80.407188 15.247872 0
56.769829 97.395126 25
100 93.182701 7.2502379
0 88.800392 7.5666513
0 79.659958 17.072027
98.455948 61.368816 0
2.9232814 95.756645 0
0 58.242172 18.055508
74.798294 52.061394 0
100 71.62796 13.067223
0 30.686659 24.971594
83.21962 100 9.0697613
21.146269 100 17.029383
99.714043 65.590248 25
71.888145 89.983826 25
70.17643 78.794228 0
0 84.385223 12.445743
19.076574 50.771622 0
64.93705 86.351341 25
100 5.6279202 20.241148
65.615173 100 12.756895
95.532188 100 7.6689391
0 56.266674 8.2100916
25.980627 53.103394 25
11.506319 50.622898 25
47.138176 83.176941 0
19.481955 100 8.9574356
93.220894 98.680222 25
82.017693 100 18.263397
20.93581 95.330399 25
0 18.532885 6.4217463
100 44.674816 15.845217
17.208117 49.411888 0
92.428108 65.248177 0
45.276218 0 12.265708
5.6689143 48.459511 25
8.950635 21.143438 0
5.6931915 8.9945965 25
76.261497 90.911697 0
25.64064 0 4.4282727
60.644482 0 23.684084
59.980057 14.300815 0
0 79.218689 6.7090273
75.337532 69.649391 0
0 50.021481 6.7114592
23.406563 80.121635 25
1.7605894 24.999386 0
12.977726 15.808923 0
100 59.560516 6.8843532
34.368958 72.70578 0
40.48941 39.269165 25
28.049559 8.4178925 0
100 13.09377 7.8398714
92.961533 79.013901 0
96.129753 30.262634 0
0 9.501297 18.816343
17.262459 65.768166 25
54.614437 38.610561 25
69.102844 51.395966 25
40.569187 0.34089574 0
53.518379 75.436157 25
26.045357 80.794266 0
61.043098 57.326004 25
59.089874 36.224918 0
89.803391 0 5.6462898
26.780733 84.120941 0
35.849586 96.138596 25
100 77.700951 15.641384
9.6658783 17.781151 0
29.406548 95.542725 25
62.890694 51.96965 25
11.001385 63.396488 0
36.957355 0 16.360416
100 9.9343386 11.520689
65.862747 100 23.9655
18.953329 93.535156 25
1.4837037 98.283066 0
49.383236 82.951233 0
15.803005 100 20.605808
48.148716 16.169477 0
65.143127 39.799026 0
1.8855929 37.707798 25
8.0313215 95.773521 25
47.668041 83.572388 0
46.778549 31.783962 25
31.682766 56.797276 25
85.026039 12.433647 25.000002
30.998024 100 5.0799265
74.420776 54.155949 25
93.314545 53.75473 25
23.237837 99.999992 16.723745
29.066355 52.441212 25
66.406677 100 4.6035485
69.369522 0 5.1718688
90.369141 29.287468 25
62.632225 66.739197 0
51.716797 32.619068 0
99.837509 0 9.700181
26.281717 72.17086 0
84.970627 41.906265 25
0 6.3696094 8.4022675
14.215099 50.85181 25
74.560448 94.142197 0
77.553238 51.480236 0
100 11.511223 0.41236079
34.706264 6.4478693 25
37.984455 92.291016 0
0 87.143036 18.186161
0 47.81419 16.774689
82.11438 85.733582 0
91.302216 3.576555 25
58.139076 79.872116 25
0.42072767 85.704132 0
91.929619 39.266659 0
0 31.666603 12.120034
0 38.94133 21.458376
99.054947 0 11.306828
60.759415 91.306259 25
100 54.685394 1.1843772
0 26.056198 21.327831
94.634506 71.441101 25
59.047485 45.696804 0
25.173651 75.355164 25
0 76.063477 4.0374637
55.681194 68.91066 0
0 18.14691 23.321098
88.366714 100 6.7361321
66.780731 100 10.684217
0 69.695862 20.310265
78.814079 0 7.8387146
67.779747 32.64851 0
6.4012775 58.280327 0
50.920113 100 22.943039
72.25679 64.760361 25
86.62986 93.924805 24.999998
22.899719 97.5439 0
100 17.661551 23.749346
32.035275 44.79557 0
11.321284 0 22.375639
73.473763 87.078545 0
28.360485 0 18.131985
6.1241207 67.720146 0
0.24812818 82.898613 25
86.943085 82.997086 25
52.776794 20.928755 0
69.820717 39.349083 25
76.629135 68.996017 25
0 68.509178 9.1072235
81.339737 87.593956 0
8.32689 39.651295 0
68.386292 40.704853 0
0.90317726 44.368912 25
72.71283 67.009247 25
22.469723 28.091541 25
42.172928 100 23.677872
100 18.445026 17.819323
18.584019 96.882065 25
85.74585 5.0966477 0
0 48.917065 22.18504
32.160091 72.153023 25
0 18.568237 5.7630553
100 30.611572 6.0725117
0 99.378349 23.661789
16.110106 61.472656 0
64.239281 95.871323 25
69.335548 51.724247 25
71.662117 100 10.362733
63.445518 100 8.1013517
70.00985 38.502335 0
51.367718 70.391792 0
19.868015 0 0.88399029
38.61808 6.3602519 0
100 67.455856 1.5627308
72.128494 88.511108 0
33.799919 72.097076 25
0.59689283 7.9850173 25
38.47105 0 7.4196177
15.587634 73.311501 25
26.940346 27.642454 25
41.759541 30.177301 0
99.263733 68.175171 25
22.052357 88.709229 25
86.789886 0 8.6186914
87.319595 2.0767972 0
95.519852 0 0.17968133
91.162415 49.978638 25
82.517754 62.553131 25
76.364288 46.255711 0
10.696902 0 1.7309552
76.098526 91.315422 0
80.474998 100 6.4649744
99.677017 99.198082 0
77.427498 0 18.660814
99.542107 14.696405 25
99.785286 18.770597 25
0 61.823544 1.4463335
88.518311 0 1.5762463
71.122818 78.91449 0
75.628136 0 22.365515
46.719425 0 1.9298559
0 64.689232 22.069462
94.415405 83.742645 25
99.161797 98.139473 24.999998
100 27.626932 12.009866
100 60.276867 16.527361
100 1.7151246 17.767006
65.033722 64.545769 0
100 87.122047 0.53396416
12.814047 4.3812947 0
97.075882 100 1.5139723
98.11747 73.451126 0
100 30.991814 11.054342
53.919746 80.267166 25
44.602993 100 1.2441502
39.385319 1.9605058 25
8.937007 48.015453 25
20.32057 8.313653 25
70.667877 2.3992887 25
94.27858 18.207644 25
9.8425503 100 5.6297688
53.603672 0 2.2808654
15.157024 97.2686 25
100 52.755821 24.621225
92.862083 58.75658 0
57.613998 11.245665 25
23.501366 33.358654 25
98.316696 78.770119 0
42.641998 83.015366 0
73.665314 96.064392 0
24.845324 53.646049 0
33.527184 2.7061145 25
78.300407 42.441193 25
89.757843 76.534798 25
94.809235 41.860039 0
0 12.134951 13.414717
70.588753 47.764389 0
49.549316 35.821999 25
33.751507 38.544453 0
82.901688 100 12.016388
24.307579 100 0.23499727
48.143654 88.227623 0
13.264555 37.609444 0
94.42231 15.193213 25
39.293621 0 2.9518902
73.559723 95.971756 0
71.099045 64.648651 25
17.330374 28.582771 0
57.259026 100 20.660179
100 38.068813 11.716557
35.888767 29.8235 0
100 39.179317 20.751532
45.661026 41.078285 0
5.5735388 38.179081 0
100 35.045612 15.733212
5.3221884 90.406326 25.000002
63.27644 19.905937 25
62.970543 100 4.1331916
74.057678 29.121712 0
78.616898 3.7118032 25
3.9823232 15.062284 0
53.874737 19.167757 0
0.68730116 14.627849 25
28.794348 49.351898 25
1.712811 29.194757 25
51.207233 20.515993 0
78.122826 20.763826 0
28.682911 40.587013 25
0.95008296 54.946732 0
22.875179 98.016655 25
61.073944 0 2.1980357
89.337532 100 0.017543137
49.508121 94.96582 0
16.529053 33.444881 25
11.529609 5.0112271 0
12.081093 15.159133 25
0 66.715034 14.318451
91.679764 4.9040856 0
50.27803 90.659973 25
85.2845 46.604134 25
37.069801 99.258087 25
54.402676 0 13.741507
36.437618 71.744354 25
51.566597 99.782272 25
96.811241 95.091064 0
41.625797 12.215283 25
62.982616 78.39814 25
22.470253 94.061798 0
22.048496 72.180664 0
62.928814 61.558407 0
43.185337 67.793137 0
20.193398 45.591667 0
34.494526 53.829636 0
25.975052 100 20.632648
41.09919 100 19.994452
91.407692 100 2.4751341
22.247625 83.16983 0
0 55.146198 14.285959
86.166725 56.178352 25
23.163197 19.548084 0
74.756081 20.597563 0
80.21891 92.268707 25
5.303246 0 19.409857
15.293482 49.140747 0
47.376442 32.010929 25
76.781235 86.613068 25
57.41803 54.161758 25
63.63438 74.295685 0
94.177063 90.494324 25
29.300201 100 2.54568
0 81.805809 9.9955864
91.863754 63.54031 0
0 18.233521 23.005625
37.934849 0 14.561801
82.596306 30.919878 0
78.889191 33.277809 25
100 44.640408 24.338425
0 74.705513 12.702927
17.954243 52.255066 25
87.388039 0 15.414461
16.726364 40.167778 0
58.746292 22.005358 0
64.677727 73.264633 25
0 13.733445 10.066578
68.803322 17.086304 25
0 89.27935 15.702713
85.29084 70.659912 0
13.757074 23.603819 25
13.134276 91.263474 0
0 6.2344084 23.793772
65.059166 59.444862 25
7.4493709 0 15.822187
53.806648 80.359444 0
0 52.074547 17.787287
99.408134 27.680672 0
88.781296 0.54881811 25
100 28.692142 22.313427
20.187567 85.241821 0
11.274552 47.011162 25
90.300545 50.373356 0
11.588819 11.448327 0
0.35245419 58.526039 25
96.297592 26.377533 25
100 56.888176 9.1230345
0 64.877235 17.206364
83.527924 38.225506 0
42.381222 28.01462 0
8.7265787 49.186737 25
46.136841 34.679863 0
0.39585233 93.25489 25
84.993965 78.434555 0
99.492668 92.51442 0
87.594902 75.034492 25
47.893787 77.48423 25
20.012384 42.665527 0
66.280899 73.618484 25
27.430504 10.462748 0
0 37.504898 7.9008236
17.83733 64.668213 0
75.347885 25.873281 0
54.306908 33.723881 0
11.678169 100 20.37394
21.208111 0 10.788505
50.358955 96.476494 0
35.793629 0 8.1353865
33.388092 32.558247 0
18.049595 90.884521 25
94.133293 40.674187 0
90.503998 45.933319 25
82.738373 100 18.999723
0.44968337 98.881432 0
24.052683 100 1.1855409
5.9413195 6.2336383 25
72.804771 56.492275 0
88.942902 100 10.495544
29.632742 88.953552 0
48.652306 94.543083 0
0.25641948 80.59568 0
70.402321 80.998871 25
0 13.751555 17.164526
100 34.441998 19.635654
61.901749 66.364716 25
68.748512 0 14.282631
34.095276 100 22.830563
59.736282 77.274559 25
55.034447 50.048828 25
11.865088 46.296219 0
3.4575121 79.160454 0
45.850815 95.249397 0
44.519569 0 13.776567
16.755348 29.027115 0
34.110954 68.480782 25
83.772354 90.201591 0
43.295517 0 7.2712965
90.580498 85.350891 0
98.945419 75.549179 25
76.234695 46.611385 0
24.588461 80.075188 0
10.441571 26.539259 25
100 88.61879 22.318415
59.424442 13.254041 0
100 18.813635 17.153002
23.934734 9.5416889 0
66.180878 100 0.032407045
76.317963 85.698975 0
5.8849277 98.312309 0
16.587872 31.93848 0
49.531651 0 12.410008
100 35.963303 3.896431
86.452759 79.574402 25
95.94603 15.229864 25
29.956545 100 11.972688
14.425981 86.554672 0
48.280556 52.294029 25
52.326004 77.467987 0
43.581863 30.213945 0
97.946121 0 21.53982
86.888138 63.454723 0
42.351917 4.0797873 0
54.389748 98.941788 0
87.226593 46.225502 25
45.142223 95.256042 25
83.994232 84.324379 0
0 92.96257 14.693796
26.439297 36.451889 0
73.785988 7.6643858 0
76.923042 52.227245 25
70.699287 77.964607 25
83.479004 6.4662142 25
22.84407 6.4769449 25
12.561666 56.055309 25
73.061295 32.697083 25
80.670868 53.232925 25
31.589401 4.0714531 25
24.709877 25.768085 0
37.275818 73.792122 25
80.60759 24.021255 25
22.698792 21.332249 0
37.897686 94.045158 25
39.754593 100 18.003174
33.601986 18.570221 0
66.419548 83.045845 25
69.096619 15.728679 0
70.312935 77.751106 0
100 48.246094 15.449937
22.488304 99.200691 25
6.9048166 20.839226 0
26.346838 2.1141307 25
12.053037 49.736317 25
100 61.622665 19.574553
59.066734 80.211861 25
29.109987 59.59214 0
96.721634 0 13.144424
92.101433 7.786036 0
83.045769 0 10.014291
93.360886 32.339001 25
90.53125 82.308617 25
49.517654 87.860672 25.000002
0 2.869127 3.0521779
100 20.420122 12.165836
62.104313 3.161808 0
0 57.156353 10.937883
24.436155 28.851089 0
78.596649 32.018772 0
6.1746984 31.194422 0
45.183956 100 3.6988764
94.866417 43.309635 0
100 6.7327957 1.6045715
7.1190209 82.876167 0
4.2472143 29.527924 0
65.074661 82.887108 25
61.676319 82.719513 25
74.746284 78.370667 0
22.079378 12.298152 25
26.70109 100 13.792828
30.355095 26.398142 0
5.4500284 91.683273 24.999998
98.583595 100 10.62383
99.71064 91.453537 0
100 27.997992 19.503069
100 18.266502 1.9739594
97.323212 75.806213 0
0 61.499569 6.913723
8.1341209 22.316408 25
96.348755 16.639429 25
72.828697 96.152344 0
94.257462 5.2642593 0
85.582397 60.650566 0
71.556763 51.124397 0
99.8992 10.576103 0
100 54.418549 4.9426837
56.982697 15.285997 25
41.911804 91.534851 0
73.955795 73.070534 0
100 19.074385 20.650045
100 83.179665 7.573792
100 71.266151 23.612108
100 24.732597 0.42557126
56.289883 28.712301 0
0 82.813011 20.490238
6.4312658 100 6.0852633
86.913132 90.338112 0
28.305691 46.326771 25
100 55.390686 1.2284836
100 50.061844 8.9277697
91.729965 65.850639 25
24.91375 42.665211 0
34.230717 24.320061 0
92.151283 36.272556 0
6.9012222 25.093119 25
88.228271 61.504333 0
62.256039 47.59045 0
80.08712 20.05571 0
99.870018 74.981606 25
0 48.645058 20.213051
7.6676803 24.004133 0
100 70.187477 5.2908955
92.390808 82.074356 25
7.8895807 41.339767 25
0 85.4272 19.925983
93.948952 75.501656 0
0 31.099051 6.3135443
42.138737 44.823349 25
0 80.327744 12.87546
0 44.701794 21.227966
33.042572 16.99719 0
18.495918 45.833691 0
84.806763 34.951683 25
85.367821 0 1.8921058
100 5.4206605 6.1787434
40.547451 0 7.5442705
28.335659 79.549919 25
35.94931 15.932734 0
99.140419 0 9.7707243
79.241158 77.784836 25
36.214218 0 24.215485
100 65.52935 19.366877
81.408821 26.56657 25
0 24.427612 21.594112
54.362076 4.9825182 0
100 13.318019 11.548463
74.827225 67.935959 25
83.950317 4.9844723 25
17.285086 0 3.6785574
98.648468 0 9.702755
100 1.1214781 9.9687185
65.698387 54.158291 25
45.761383 60.908913 25
0 79.53862 6.2609987
38.239792 100 5.4913225
29.683044 8.2117691 0
45.572716 97.55307 0
0 71.223213 5.714704
71.858475 69.993034 0
55.072891 87.310646 0
62.667545 66.806984 0
0.079287805 93.149315 0
93.053711 57.470482 25
12.2273 59.053543 0
40.983746 25.451244 0
1.9421458 52.255028 25
0 20.654636 7.919404
48.403099 78.641106 25
89.771912 56.641739 25
30.932135 74.674034 25
27.299166 59.089367 25
37.139954 30.008036 0
56.509357 31.825293 0
26.892756 30.998371 0
14.311218 9.6378183 25
24.270235 3.6633565 0
77.631088 89.672783 25
6.8915539 100 13.657054
46.586433 91.645287 25
74.358414 0 19.091295
1.4069498 43.891697 25
100 41.741741 6.4594893
64.852089 99.206482 0
99.184105 88.876923 25
60.631954 20.256048 0
31.620333 8.7012072 0
9.2082214 54.486588 0
98.333466 100 14.331858
62.169945 36.113407 0
99.858299 100 9.5121794
21.271172 100 24.481674
100 77.65686 2.6098213
22.931513 90.231438 25
20.085203 88.400902 25
0 40.464603 4.9929676
57.527931 23.335932 0
100 16.607788 2.4771221
14.799505 77.498711 25
34.468945 34.278889 25
51.78904 7.1230636 0
36.50581 17.692232 0
74.37365 28.05172 0
18.404793 50.842434 25
69.850067 80.940033 0
13.360008 21.333794 0
38.571049 85.984711 25
12.769741 12.051158 0
11.833529 57.505268 0
78.204308 61.654968 0
69.351936 71.72908 25
0 11.27881 17.712168
74.441246 85.157639 0
92.660599 63.648315 25
31.517546 48.023911 0
57.453747 30.485069 0
65.024742 97.390579 0
42.324646 40.00153 0
68.796219 100 10.515334
2.7142334 31.965832 0
74.47496 100 10.715227
14.642036 51.747406 25
89.732697 0 10.877942
57.498787 73.750443 25
98.56604 0 4.1836052
53.113503 63.239979 0
0 8.8306284 8.468503
52.03466 97.708542 25
94.370453 70.393654 25
100 58.144409 22.049995
100 98.066856 19.568323
99.424232 24.587585 0
6.7741108 95.921066 25
73.2855 12.967594 25
16.711128 7.5601974 0
77.910301 50.227222 0
83.207352 35.831238 25
0 82.278786 3.4574583
21.877165 84.076439 25
3.2371688 0 15.339072
8.8911829 37.304775 25
23.027021 32.400631 25
58.977745 54.497894 25
87.539246 81.521255 25
34.036663 43.228539 0
38.939201 81.535706 25
10.352985 18.197899 0
3.4316063 35.712276 25
75.214928 12.029205 25
1.9030006 84.425262 0
16.26697 57.920547 0
43.637802 74.239365 25
87.241142 81.803352 0
20.584232 85.091507 25
72.999832 1.2652866 0
100 47.674442 8.1860065
27.822466 75.881233 0
47.045452 69.040344 0
46.040417 54.343853 25
73.857635 37.75087 0
3.6571417 82.232727 0
63.006336 18.359354 25
66.038445 76.212471 0
5.2685719 4.4544477 0
89.21521 27.886702 0
46.289864 27.259846 0
100 36.680565 7.418757
45.110779 100 9.1299076
24.412882 54.293957 25
50.434696 8.7151852 0
88.449173 20.528351 25
0 34.842453 16.201824
15.681504 30.073074 0
47.890114 100 22.132532
18.584179 0 12.084407
21.385489 3.6396163 0
78.998611 52.233192 25
60.367733 54.476936 0
0 26.750505 4.8003883
36.788124 4.8490539 25
80.218765 40.083103 25
0 26.733391 22.39889
0 20.29253 12.040784
99.591881 100 17.111971
30.018299 22.621126 0
12.507361 61.931133 25
78.314522 29.382284 25
78.700333 68.509514 0
35.671192 0 4.4746561
9.8849354 97.802109 0
7.7662506 65.308922 0
53.199924 22.596689 25
88.920242 59.336231 25
36.507072 4.0881629 0
90.466164 1.9787608 0
0 74.338783 22.788214
50.043846 20.201717 25
0 21.447836 18.169605
89.126686 11.007719 25
7.2350583 0 19.185017
70.554634 97.230049 25
42.301014 0 15.216348
100 30.595274 17.902288
48.653568 15.094671 25
92.146179 91.339081 25
93.112991 87.567619 25
6.2301373 100 10.432696
100 2.0584009 15.945198
77.688904 2.715951 0
34.047863 57.716866 0
100 29.515543 21.558489
82.558273 97.605469 0
21.379583 100 13.356009
100 13.788351 17.642944
86.269058 32.051052 25
90.24469 11.802468 0
16.018837 66.450333 25
83.164261 73.044441 25
26.19643 79.292343 25
86.181351 44.117344 25
99.203697 45.100559 0
24.605721 55.25856 25
32.344311 34.910049 25
5.8173771 0 0.43056899
29.638454 10.397102 0
47.383018 59.0457 0
100 94.238403 7.0879025
37.578274 78.801239 0
26.358723 54.943657 25
100 21.840691 20.978775
35.193413 17.895304 25
73.962189 100 9.2393589
88.954025 66.857697 25
12.264745 75.121376 0
22.803205 28.713614 0
68.512184 63.333542 25
95.547523 33.024757 0
24.506516 100 24.996923
57.965679 50.228111 25
100 43.600933 14.462586
73.550781 47.187683 25
68.56974 0 9.2301931
73.887222 50.402431 25
8.3607445 0 10.10041
27.581741 41.83242 0
2.195996 83.833191 25
95.532745 0 18.905714
26.326777 55.954964 0
44.75502 60.513706 0
91.70517 66.104568 25
37.865269 35.315277 25
0 5.70576 10.901926
38.878456 65.241409 0
73.786575 54.345573 25
85.152275 0 6.3054295
50.455696 75.471893 0
70.848427 2.2278516 0
85.630051 100 20.846285
100 68.654709 20.765036
68.061241 0 14.735518
45.637856 11.979569 0
52.12537 97.185913 25
0 35.191498 3.1278729
85.372421 88.987282 0
31.753267 74.137527 25.000002
11.756289 39.600647 0
81.478256 100 15.972151
84.189316 100 19.866619
23.084944 67.30645 25.000002
100 3.5431128 18.024694
50.14468 42.164711 0
37.603603 73.205765 0
56.517452 87.467636 0
90.716377 98.846642 25
57.543713 0.16297771 25
41.005131 56.142654 0
100 37.526424 3.5386288
65.020271 3.4218156 0
60.82254 54.200142 25
55.852592 41.552021 25
86.172554 9.5376434 24.999998
100 44.749382 5.2406955
91.021278 100 16.117744
0 50.606602 8.9318199
47.690407 66.149284 25
47.794922 93.346336 25
88.745743 26.603222 0
100 66.081451 18.83724
100 25.221521 3.4263344
33.675819 0 8.7698221
0 96.195381 9.8648615
7.0406795 33.467529 25
0 13.838388 3.6351562
11.794853 66.050766 25
100 0.62614608 24.189436
89.769485 100.00001 20.034389
76.14473 0 21.819088
49.815323 15.17917 0
82.581482 43.088562 0
32.262623 51.346039 0
82.844284 81.575478 0
16.770222 2.0214968 0
69.197945 12.01928 25
63.097092 76.623299 25
100 62.120323 22.973854
100 49.622665 21.190664
83.994606 69.187576 0
73.399323 0 9.0178547
40.265373 95.205025 0
77.871437 29.477783 25
74.417648 41.117294 0
55.525558 29.117424 0
36.007915 52.175014 0
93.601723 9.684638 25
14.350758 49.614456 0
52.966404 0 11.910327
15.527969 67.383331 24.999998
32.853916 51.717262 0
56.403931 0 2.7567995
0 22.169947 8.8628082
36.908527 29.145254 0
6.6667738 44.926231 25
69.674492 54.245598 0
15.762985 71.029053 25
75.950684 67.346069 25
0 76.039238 18.304695
63.489456 85.515533 0
36.714703 5.7247019 0
70.666946 25.154673 25
83.28643 78.805679 25
98.108131 29.891146 0
20.739679 0 11.958768
93.41301 94.88781 0
53.207474 12.691339 0
66.716286 100 6.8112569
100 74.660927 12.270899
73.989006 0 0.35330305
18.064016 92.557899 25
28.48181 0 8.5717134
66.739693 84.845825 25
6.3873382 97.57077 0
0.42649508 49.353703 25
66.614655 0 9.2222853
11.282026 0 11.663375
31.345606 22.33366 0
74.48011 11.814328 0
94.200333 36.271938 25
77.996696 44.682362 25
87.542511 37.867203 25
18.923771 75.612984 25
56.338303 52.104076 0
94.533485 0 19.139315
100 56.779522 8.4726677
41.337395 0 4.181149
55.091537 6.8090153 0
19.844591 0 8.7211199
52.948368 4.5247188 0
62.24802 30.352293 0
100.00001 94.772354 17.697622
3.1713963 26.520966 25
21.878994 74.722389 25
100 46.467834 5.3006749
100 7.2665777 2.6362848
0 11.701446 0.77732801
79.032593 64.590324 0
77.327385 53.786541 0
73.326904 62.43404 25
0 1.0523208 15.51436
34.574539 57.718128 0
47.79353 54.497997 0
53.362633 42.066525 25
20.014977 27.4718 25
88.079086 76.051468 25
100 74.41008 4.1517811
92.511955 5.7579002 24.999998
100 14.403734 21.058855
91.904739 69.693947 0
5.4336071 58.098225 25
32.44928 1.5991683 25
4.5235658 100 17.621475
33.365894 62.353775 25
100 27.200378 22.973043
83.594414 18.368954 25
62.34795 61.679722 0
100 98.638504 20.509771
11.794666 68.766449 0
100 42.496609 24.73801
59.828289 32.019287 0
93.358437 22.439457 25
0 77.472137 5.47121
54.795799 0 13.687887
49.034538 0 17.429153
79.341301 58.888908 0
23.464943 57.08527 0
60.949589 68.311218 0
33.657734 62.46777 0
0.78197122 48.977688 25
27.495434 100 22.154224
10.075474 38.370346 25
22.976294 82.689377 25
26.07852 83.484589 25
90.00589 29.82267 0
49.940315 0 17.789141
81.237297 4.9010239 25
30.555506 100 6.0461121
67.596786 96.247917 25
64.228226 58.563393 0
48.534901 10.709241 25
69.52626 54.183601 25
90.570122 46.149899 0
17.876938 100 18.538446
0 77.132835 3.1260326
87.233139 32.732845 0
0 4.0445929 22.026299
95.594948 73.152153 0
60.55386 25.028965 25
100 21.34474 24.038675
42.793816 98.082687 0
41.729099 21.857372 25
12.711699 0 5.7280087
100 50.124298 11.884531
16.736961 12.091602 0
84.68396 100 2.9809952
85.870224 95.22657 0
97.391571 24.742834 25
0.60389042 87.259781 25
68.803276 65.591995 0
16.336821 94.653221 0
26.583082 62.35231 0
77.76297 60.702049 25
37.691456 46.302025 0
70.221306 52.313576 25
100 72.792236 10.579917
100 78.369415 24.893452
7.2196078 67.27565 0
14.457308 39.465355 0
41.369755 83.863503 0
93.64994 62.968155 0
49.458687 0 4.4352555
72.682083 90.197838 0
97.321335 44.396774 25
71.48349 31.87278 0
2.0280242 94.295067 25.000002
66.874924 64.933907 0
81.262848 0 20.155975
70.270828 17.500546 0
32.133862 97.142899 0
14.373491 100 24.077442
51.215984 63.952354 25
94.975845 0 10.672543
0 33.957321 9.7046118
0 68.504837 24.637293
5.6995444 37.997608 0
28.44944 83.785049 0
25.461035 86.272034 0
96.276756 15.009501 0
2.3838086 31.14616 0
14.311656 53.595661 0
38.53064 63.869514 0
0 50.372147 19.97146
33.190224 93.720924 25
58.977901 85.763084 0
10.53125 80.198509 0
100 29.433655 3.0572128
55.500076 55.173862 0
97.680603 67.805084 25
0 63.66222 13.451078
10.891136 0 14.24964
96.295044 61.017265 0
85.61277 16.683846 25
88.572807 0 4.5261788
0 24.743843 23.43013
56.129875 99.332275 25
43.622749 100 18.97386
67.833778 67.255653 0
78.921082 68.847084 0
15.17012 35.818653 0
32.728882 89.617088 25
54.805996 100 10.40871
25.019348 73.812744 25
36.852539 92.765472 25
16.668852 44.945404 0
100 17.584957 0.72612071
100 52.691383 7.4450455
48.192986 95.870056 25
94.134323 86.527077 25
16.651266 56.147766 25
93.71286 17.27684 25
38.977974 77.428459 25
1.4279783 16.537907 25
68.815704 20.968704 25
21.910847 12.337071 25
90.844772 87.866226 25
41.147739 88.436005 25
80.427895 42.054317 0
89.800163 43.596558 0
24.192741 93.599342 0
99.934662 100 14.130332
64.755524 19.407953 0
0 27.643957 3.9342031
2.9474063 100 21.80769
59.496151 75.283325 25
0 44.669594 5.6022911
6.8915653 20.598267 0
70.778725 30.647018 0
42.458332 36.055077 25
92.624596 49.368458 0
28.956924 0 21.081839
64.92495 0 17.565147
73.906364 15.818243 0
34.349388 12.980798 25
38.049088 81.740372 25
14.227163 30.695194 0
67.404373 0 6.0395565
97.495178 100 17.309637
100 75.068512 9.1039028
39.565739 29.107241 0
61.795319 0.93821257 25
82.644966 0 4.9104013
89.605438 0 22.749718
43.72834 24.211817 0
51.778648 94.898659 0
91.368523 19.420835 0
78.157463 90.384964 0
38.296967 82.575325 25
77.900208 8.9160233 25
91.922256 22.695513 0
3.3188138 0 8.2198277
99.400261 0 4.022346
84.656876 2.0864301 25
100 95.043869 21.194183
76.372482 100 15.311791
90.431213 0 8.8079491
91.758797 1.4692976 0
85.36261 100 22.661469
0 20.132164 10.242648
21.385839 10.609153 0
100 94.750908 0.83188713
2.8187871 34.997429 25
40.79026 19.92907 25
53.308994 58.824486 25
20.010084 11.378942 25
72.768181 95.482285 0
47.325066 100 23.543667
57.513741 100 24.534121
100 36.129818 13.023106
37.103489 65.809433 25
38.796345 78.222504 0
42.167866 74.747314 25
7.6969094 100.00001 19.430313
29.959982 77.712959 0
0 95.068039 7.6664195
69.665276 100 21.157658
99.831963 0 7.0206952
96.681061 77.089767 0
63.225113 33.256382 0
57.780048 69.852341 25
100 69.494446 2.1072388
62.569473 32.92292 0
75.179565 72.73658 25
90.247849 18.371975 0
40.731155 68.36911 25
16.583549 36.965 25
49.713356 0 7.174211
61.573067 0 7.2060189
98.589905 52.555004 25
29.085857 71.507858 0
0 43.035744 17.210871
76.226723 73.335609 0
16.963005 57.3619 25
67.267754 58.948883 0
4.0108609 23.88306 0
38.80431 0 8.3918839
66.045967 75.619888 0
76.021973 37.762241 25
93.358627 3.6815503 0
68.836838 48.730419 0
34.623085 95.183685 25
54.320942 19.030447 0
74.364082 100 12.513508
87.312729 51.785694 25
1.6655743 55.684597 25
36.215752 68.33754 24.999998
54.590656 100 8.954936
92.048569 33.824066 25
11.981881 100 12.290298
76.926437 100 6.5484686
90.932465 75.374718 25
5.8187532 97.490623 25
46.776703 100 16.026031
96.87149 5.0092821 25
3.2777407 0 12.622449
29.498249 10.851037 25
62.04451 46.037094 0
14.179158 100 6.5868883
64.951363 60.668209 0
50.938782 99.76915 0
62.760365 55.352623 0
73.025314 95.917938 0
10.194257 43.494213 0
84.858704 35.491745 25
26.62604 94.914001 25
0 7.6528382 20.633211
4.6877337 100 2.9609308
58.096737 59.853745 25
6.0384727 0 16.992731
0 97.873283 22.458284
0 49.094612 15.276557
51.934738 90.74678 25
63.14045 43.230202 25
0 11.252831 21.294853
68.490013 100 23.678322
61.967678 0 1.2132639
99.999992 9.4154787 7.0053449
100 83.78894 7.9660463
65.05249 0 2.1950624
46.609493 8.6544638 0
0 69.102127 20.279873
3.1951265 40.237583 0
77.322807 13.462291 0
19.591003 12.233427 25
1.1897892 30.116537 0
100 89.056175 13.629853
4.4061184 72.106949 25
30.770905 0 14.703725
48.297737 17.16362 25
96.374474 72.023857 25
95.679756 0 7.0368524
38.742771 56.411514 0
55.995674 91.831238 0
13.288051 19.608133 25
58.406082 83.903824 25
74.337036 37.909901 25
69.317505 11.617191 24.999998
0.93779546 72.265045 0
0 48.85865 9.0413494
72.935936 48.540901 0
38.43063 69.818359 0
17.398916 15.350533 0
26.581366 34.548023 25
6.5290451 67.174385 25
90.853271 85.441391 24.999998
100 81.898651 7.2529855
61.141014 64.366478 25
36.545242 16.059328 0
43.475914 1.3891124 0
47.76125 0 23.881283
27.801043 2.1097815 25
51.292843 51.238964 0
60.520546 100 16.595045
3.4124732 56.62328 25
32.457684 17.203993 0
25.381207 22.988377 25
84.60482 63.721321 0
56.355057 73.205429 25
49.38023 21.262794 0
47.551487 24.63586 0
26.555307 99.765648 25
59.846272 85.427765 25
91.68692 66.61702 25
76.003769 20.251835 0
91.741058 56.995625 25
45.306339 70.334534 0
50.444939 44.030373 25
25.042768 61.213768 0
5.350584 100 15.992334
100 83.539719 22.642277
93.568108 0 0.98355168
3.3191454 0 10.368013
47.606728 94.575356 25
0 87.141708 23.427279
39.090794 2.5693226 0
43.293545 57.33395 0
3.3573918 0 3.2522843
37.386276 89.008148 25
66.859825 48.195545 0
86.45813 90.454178 0
83.389259 89.674797 0
8.458477 65.711212 25
90.296677 84.403854 25
69.891144 10.443842 25
25.659161 0 4.4750924
30.53022 100 8.230875
33.314507 29.223686 25
33.45977 92.314148 25
48.534924 23.129936 25
48.088734 56.969105 0
44.684734 75.887527 0
85.83741 69.659531 0
0 75.77961 7.0723796
29.196543 84.748444 0
61.746418 30.833311 25
93.896584 88.963737 25
58.270668 94.335541 0
73.756645 53.436501 25
10.516363 8.5534096 25
15.707813 100 10.198486
0.011450052 79.191132 25
87.131134 4.8092837 0
12.073626 100 2.6286111
36.507435 95.756989 25
100 69.411568 21.937208
94.185997 71.736633 0
25.901461 26.147787 25
12.091696 72.33049 25
0 0.69789636 17.091883
67.517593 0 16.601679
57.270969 38.472118 0
15.425773 100 20.774096
14.917635 100 22.322454
24.320147 15.880938 0
73.743095 65.115845 0
46.970379 0 11.790829
67.012535 59.165192 25
68.129646 100 8.5224361
0 4.7281117 22.940722
0 60.386906 10.384418
19.274204 21.642525 25
74.124878 17.754837 0
62.612949 20.155405 0
8.2968245 76.720879 0
67.059914 0 23.31859
54.242611 53.600365 25
75.383873 98.746422 25
96.523468 96.08313 0
97.553406 0 24.668262
100 2.9925723 0.66718209
58.472473 21.933529 0
11.235148 97.627655 0
11.537731 38.359077 25
22.018061 0 16.484694
65.881104 30.562645 0
0 71.412216 13.602028
44.849892 62.960724 0
36.132946 77.476723 0
37.646908 79.0411 0
56.893875 69.208549 0
23.739336 46.397022 0
88.484909 71.590668 25
30.639887 35.086845 25
35.584099 0 1.232121
29.736113 83.057594 0
95.784698 55.639679 25
36.223614 49.188309 0
4.1285281 0 14.307493
5.0209703 69.20887 25
69.858658 67.050598 0
0 7.8539782 19.570288
48.084286 9.723814 0
100 55.372707 19.19619
45.514107 0 4.3080649
0.72615314 100 16.891672
62.110023 89.710251 25
97.505119 16.213314 25
84.207062 59.061867 0
24.021389 19.199982 0
39.801632 0 6.8014307
23.934317 0 22.657103
2.4865665 26.868073 0
100 89.756241 2.0392177
99.500565 92.430428 0
100 77.06115 23.387247
100 85.66568 5.1916003
45.186352 91.848511 0
2.3751645 85.174995 0
22.920328 0 1.6844567
74.55043 45.02478 25
79.453674 39.336597 0
46.544495 96.131996 0
73.060471 90.916016 0
0 55.020954 9.7058382
97.787285 10.918246 25
48.010738 46.843937 25
95.952019 59.1581 0
43.21806 100 6.5922232
67.988274 60.129955 0
18.142569 41.7855 0
37.344109 37.989086 25
37.256878 100 16.472935
78.345421 0 11.367651
0 49.75629 19.535843
61.838623 56.910599 25
80.294678 20.875147 25
76.653625 39.57954 25
56.068256 79.945724 0
0 59.003456 21.125797
31.621744 69.461678 25
16.931311 100 10.828975
58.880676 14.83079 25
97.24984 0 6.9601007
86.001854 78.128647 25
86.121773 0 9.3846092
100 46.184017 15.32636
23.431528 3.955112 25
20.042925 0 10.611669
56.742962 6.620091 25
9.7153034 0 13.911456
55.889606 37.638657 25
47.065346 0 17.197138
37.33709 74.120857 0
80.540169 37.206577 0
22.891457 15.236309 25
21.86553 95.257355 0
54.923492 100 21.528862
58.802647 3.2526555 0
22.066896 67.661339 25
56.928936 65.95903 25
0 39.976871 16.41256
16.06077 89.709412 25
100 35.572937 18.10647
92.10762 100 14.446181
23.361063 19.000231 25
92.20787 63.798454 25
78.460899 17.866228 25.000002
55.468063 52.467415 25
63.173477 94.803741 25
83.272507 57.351212 25
59.491627 23.266933 0
29.147095 35.651058 25
100 97.898689 24.044704
75.041275 0 16.661713
92.984177 56.970341 25
96.364944 100 8.8765106
83.296227 90.770683 0
11.203694 0.59002584 0
66.281738 29.539633 25
100 30.82246 14.718916
97.540924 87.959145 25
57.570488 38.432846 0
13.336581 60.810055 25
17.567598 71.099808 25
53.550636 66.059265 0
100 33.804226 2.8726788
15.006286 63.582092 0
8.6477261 77.681313 0
11.027904 44.421936 0
95.657326 78.337128 0
74.180595 93.460617 25
44.334427 0 23.760391
55.424129 31.890429 25
2.5781913 30.780392 0
32.363964 8.7523518 0
50.369438 75.212555 25
9.5429592 0 5.9277267
81.141014 24.876165 0
100 93.750961 9.8364363
6.121439 88.988579 25
100 97.22905 3.7253003
10.101384 99.354233 0
57.790562 85.262909 25
100 25.116577 5.4575272
100 27.30695 2.5011168
48.62912 60.797283 25
100 45.954895 22.484938
0 60.625778 7.2225494
96.08036 61.940823 0
31.938808 100 14.540041
57.088928 0 19.494165
64.471428 86.222923 24.999998
74.572693 61.263515 25
100 49.867855 10.716622
58.725544 88.157516 25
37.340584 97.163445 25
14.088243 18.752659 0
0 64.456932 9.0572166
37.437267 75.545746 25
44.358746 62.804092 0
79.06485 73.995079 0
0 73.536926 10.081907
4.1446266 26.942509 25
24.780767 100 10.114868
100 34.940777 2.5180051
56.996868 76.160202 0
41.865276 33.333111 0
34.940121 91.79715 0
44.403309 0 0.77281195
64.100342 43.268887 25
59.465042 81.471092 0
79.147766 1.6225343 0
0 13.649031 22.556643
90.843582 67.875359 0
48.465096 9.4152718 25
48.993069 54.629303 25
100 28.21686 19.928837
44.075768 7.3976169 0
27.429119 100 16.672108
55.560165 53.63586 0
100 36.922806 8.7575512
82.488815 60.268219 0
67.757225 83.757141 0
65.809921 98.751175 0
88.180138 63.11869 0
77.559341 78.999672 0
89.724945 42.441341 25
39.074547 37.40242 0
15.911713 97.108894 0
93.024437 50.005051 0
55.479557 31.903044 0
100 89.524521 22.228289
80.456322 15.206203 0
33.486767 100 13.676375
12.099911 100 21.854677
20.53804 99.224709 25
13.829583 45.687237 25
30.193388 26.352995 25
74.658363 8.670887 25
100 52.688251 10.779199
35.316978 0 3.2888031
80.773376 3.4838054 25
100 59.97208 11.461464
20.54801 26.117126 25
23.071373 49.33427 0
57.571571 71.526375 0
35.898487 97.154282 0
0 64.166191 17.982473
31.58819 47.360889 0
59.47398 22.585266 25
98.613235 100 18.209623
65.094055 59.525745 0
100 16.524734 23.336479
83.624283 0 4.91887
0.16509683 19.587198 0
54.518978 11.901074 25
9.8152914 21.833061 0
90.062538 63.330978 0
31.396038 68.176231 25
73.637489 100 2.8074489
20.717318 59.30574 25
45.216167 17.766689 25
100 40.272198 22.227268
13.572985 27.915104 25
61.215 41.241203 0
83.042488 38.769081 0
100 40.120838 14.478392
76.624908 20.608536 25
57.846867 23.774757 0
48.946655 30.492777 0
99.571274 100 5.9495125
31.149035 69.68187 25
68.206924 61.645149 0
12.252683 13.761695 25
0 84.152992 10.779776
46.533974 4.9456129 25
78.532478 100 8.2716732
71.482025 87.92083 25
8.0587444 33.819347 25
9.3555326 100 6.7643747
37.608261 33.755985 25
29.398579 39.366074 25
4.91642 51.687302 0
78.438026 25.288754 0
62.688118 83.683029 0
97.948853 49.719601 0
66.096954 75.115814 0
3.2483442 100 23.554178
60.941208 84.534714 25
42.454193 7.8242087 0
66.3479 52.748219 0
75.085281 40.904747 25
0.6966204 48.060856 0
100 38.678913 24.296875
47.792927 84.738815 25
57.134335 34.909977 25
98.791046 100.00001 2.6665897
17.80481 98.604279 24.999998
64.179276 70.62558 0
59.129494 100 14.543396
60.354603 3.9577639 0
25.534294 100 7.2583704
2.4183733 73.19516 0
10.47888 34.662571 0
41.172459 72.698647 25
66.035805 16.957336 25
67.308708 68.248787 0
34.076141 99.330475 0
8.8173256 25.241755 0
56.722469 0 7.8870764
100 54.109962 0.6980471
65.492546 19.10784 25
39.311604 0 20.984941
47.015251 100 11.845493
67.168488 10.189537 0
96.64595 11.068979 25
3.6427324 37.480652 0
18.01663 100 20.179272
38.234573 0 4.7657137
76.383492 51.631672 0
91.175667 3.873508 25
39.45623 19.366798 25
60.457848 37.199265 0
46.922672 17.962795 25
100 97.245255 5.4202886
60.669994 1.4006572 25
48.209488 65.165604 25
54.221786 64.131683 25
22.404057 70.407982 25
0 55.55806 19.676729
8.3221798 28.982664 25
41.554344 100 14.059824
58.078228 58.640472 0
17.04283 0 14.092164
21.057245 34.271393 0
19.212809 1.6897583 0
53.320114 17.998846 0
53.678638 77.282524 25
5.8997736 20.188801 0
55.391129 68.397209 0
67.906693 25.554039 25.000002
0 95.999397 23.469776
0 47.616558 5.6736917
100 22.508297 18.869335
75.423325 79.484695 25
52.064926 0 12.379478
36.919949 100 20.45261
65.70826 77.766762 0
57.059502 0.71577686 0
98.509888 25.193916 0
91.755096 54.269161 25
45.583069 7.7548237 25
59.272354 32.297363 0
11.558392 97.752251 25
99.561287 76.84996 0
4.2190313 78.74897 25
86.925491 14.056082 0
19.657686 69.036835 0
29.316109 1.839678 0
92.022087 8.4967041 0
78.927322 80.390762 0
45.333511 27.599741 25
97.722542 87.445816 25
35.944096 11.901011 0
96.859955 32.918129 0
74.033615 0 4.748354
34.731499 67.39254 25
58.742783 0 7.1854272
17.019609 64.596527 0
100.00001 10.371337 5.4260173
24.923695 38.056694 25
20.03727 23.734015 0
92.824715 68.612274 25
14.331082 0 1.2914131
8.609746 36.066078 0
32.506382 61.860962 25
96.892731 100 7.0244555
66.600288 62.122665 25
25.516706 4.9444256 0
100 36.175056 2.7424502
57.165936 0 24.512846
100 49.164505 18.748232
18.851639 41.132313 25
0 52.8577 5.6179271
0 61.069561 23.207531
48.704891 100 7.6051159
7.9291663 0 14.432714
0 73.382416 13.703248
30.240679 76.640984 0
14.306551 0.40872037 25
96.362915 19.760481 25
19.585112 78.864937 0
53.303818 0 16.202503
100 15.46925 17.467609
70.673393 0.62724411 0
32.857292 70.24144 0
50.942772 0 2.9041326
62.097645 41.969864 0
62.436462 40.893845 25
35.208908 81.392365 0
67.095947 96.521461 0
27.584372 92.440475 0
0 11.148041 17.361513
34.611366 90.801666 25.000002
0 63.818642 19.521591
0 98.540558 0.82972729
100 58.168968 23.569328
17.71155 19.040455 25
27.147444 35.706123 0
99.523285 34.828491 25
7.3817801 92.88456 0
29.059202 53.713161 0
43.677559 100 19.183689
100 68.912399 23.407726
37.773949 42.983109 0
58.436607 46.090324 25
65.445953 71.328506 25
72.556862 89.098816 0
43.658794 1.8722153 25
55.34465 70.509171 25
79.21627 85.026405 25
1.1768094 14.272247 0
70.611816 52.075562 25
13.819034 100 18.137787
50.253677 67.509636 25
94.869766 65.783234 0
62.765862 10.934127 25
87.192345 52.065521 0
10.849949 100 15.302187
36.042694 100 12.655518
42.56324 34.581341 25
95.225639 80.640549 0
31.306541 7.7988462 0
0.15484691 17.349934 25
39.975037 19.886822 0
42.563667 61.30114 25
23.089548 72.765312 0
86.784729 94.297539 25
53.39135 55.977703 0
8.9579344 27.701466 25
31.802296 99.163574 0
6.0557218 0 22.401834
32.4198 97.879044 25
86.374718 100 2.7994752
76.674034 62.32563 0
21.400196 90.153008 25
33.81881 80.595604 0
58.000465 71.956726 25
100 20.657995 7.9370217
88.298416 0 13.492728
12.764652 94.919235 0
15.888197 98.473473 0
18.194468 75.536278 0
18.544605 89.47493 0
4.5131893 14.331773 0
21.107304 5.6517353 0
98.722626 0 20.271631
7.6206264 45.625389 25
57.431995 22.576372 0
0 48.873089 12.296581
12.648142 93.421486 25
65.618423 92.679611 0
24.246223 90.461327 0
46.024982 68.727959 25
49.6427 89.094788 0
100 34.118362 11.001108
96.477264 67.190193 25
83.936684 50.112038 25
37.186306 33.977871 0
56.305325 28.642599 25
35.058205 50.214653 25
100 26.540134 5.8382683
9.3421812 35.826019 0
49.221146 100 16.523785
98.29203 51.124657 25
13.712364 72.492531 25
69.579224 71.320282 0
12.274678 67.339485 0
2.8166234 13.108274 25
45.786797 51.175068 25
82.555649 43.111862 0
84.513458 0 5.4562864
83.501625 3.71404 0
24.001904 50.679085 0
93.831139 19.865032 25
88.115311 75.531494 25
13.736648 31.17911 25
8.1209898 57.213284 0
27.156401 15.665957 25
13.178514 92.568718 25
81.585976 41.564751 25
72.081764 7.2367187 0
81.642273 72.821312 25
0 75.853279 3.0902638
96.352989 11.628376 0
23.44264 23.173744 0
41.570972 14.279652 25
94.48558 0 23.975424
47.420223 21.557932 0
35.594963 72.734787 0
78.832314 76.914726 0
100 68.966522 6.5058856
33.31369 16.587593 25
62.573662 0 8.6604834
0 28.52285 12.08888
48.284405 0 24.271492
8.4193773 0 13.497655
52.819324 12.477403 0
32.70377 0.37152228 0
15.155655 52.282784 25
64.156303 63.820564 0
92.937492 62.195293 0
53.580559 10.421633 25
0 28.561653 14.87357
21.795074 72.081306 0
0 76.922195 19.325695
8.7509623 65.926323 0
4.4562101 88.412018 25
33.659187 85.279442 25
90.41156 12.289282 25
100 56.231838 20.464525
100 53.207436 16.158623
84.223007 51.184731 0
38.478176 51.748669 0
11.018099 100 10.982874
100 56.200676 14.235571
73.508148 0 22.868925
43.974648 39.169079 0
57.073051 100 21.728489
0 53.635384 20.336273
63.337494 0 14.755365
87.197655 48.493435 25
50.769043 24.109591 25
92.014328 67.862724 0
13.638419 36.544395 25
95.504181 59.04369 25
89.144272 69.442673 25
3.4559906 6.6379724 25
100 66.135162 21.898758
70.578842 40.871666 25
34.923737 0 20.951839
3.3723354 0.30446219 25
55.521317 86.014275 25
34.470665 96.761475 0
11.886904 100 7.3412447
100.00001 78.078377 20.297039
8.7642431 72.093819 25
61.426682 93.622253 25
0 7.4954691 4.3692603
3.7543356 29.521214 25
56.846169 0 23.515013
31.904322 84.333488 0
19.971153 59.242931 0
14.683615 2.7408853 0
66.564751 100 0.802809
65.490189 1.8717531 0
90.668243 17.787689 0
97.054085 0 24.406925
96.113716 91.474815 25
0 65.167 19.506981
54.562115 27.393921 0
74.48555 32.993721 25
100 94.035263 14.539331
59.858551 94.805267 25
27.784979 100 17.677456
53.580448 57.102158 25
48.354198 77.616661 25
0 81.789261 11.732223
0 78.842392 10.762636
78.816475 32.034058 0
42.937912 6.2047119 25
65.242035 16.488461 0
77.817421 85.349777 0
62.172703 64.42099 0
93.241081 51.304539 0
30.904377 23.254791 0
45.866333 11.067326 25
37.78204 83.523544 0
54.92057 4.7375937 0
53.593388 46.620098 25
55.049522 7.676702 0
23.488914 90.581985 0
20.140244 68.581314 25
100 46.078217 12.753703
3.5134468 100 24.155077
11.355138 83.17849 25
15.070087 91.716064 0
20.901997 27.754721 25
3.3128717 36.064598 0
3.9686778 29.827181 0
63.178806 87.757896 25
67.540146 0 14.565001
99.826622 61.113159 25
19.964552 59.561398 25
100 52.415482 17.545259
100 96.530464 21.413115
53.133141 94.5215 0
40.336929 100 19.174091
48.092087 90.055161 0
100 26.44953 23.704519
0.18987656 3.8156877 25
21.020252 23.351706 0
0 58.309044 24.30337
0 55.874878 16.943285
74.53067 23.674885 24.999998
9.688097 38.068787 0
11.918856 96.864845 0
9.7381191 15.55195 0
36.70274 48.521389 25
80.681038 87.678787 0
47.492756 45.750137 25
11.245662 92.008438 25
0 72.608971 7.4288154
15.066926 0 3.3596139
3.4936121 54.79575 0
48.707413 61.544376 0
100 30.38868 14.169971
98.80555 64.128975 0
14.702527 55.510735 0
94.648483 36.292587 0
64.048637 0 1.0853335
0 10.735676 9.3747559
86.167053 50.295246 25
100 55.369968 3.7195015
6.0609522 1.2088624 25
82.440002 48.188301 25
90.576424 93.37767 0
24.965288 96.514862 25
100 26.027161 10.750623
29.53042 71.134682 25
56.531204 100 11.874411
99.198746 15.517335 0
27.101751 91.096794 0
25.457371 29.712847 25
52.551582 55.520416 25
0 0.87435853 18.73748
84.948067 7.6576076 0
43.518826 100 2.0280271
59.886879 0 4.0699739
26.290571 22.256126 25
23.638775 61.578102 0
0 13.704702 16.36676
39.503311 0 5.5153556
88.481621 95.330933 24.999998
34.757118 30.116583 0
54.995609 36.171658 25
98.550797 83.801476 25
77.095451 26.57798 25
85.740616 92.520287 0
54.736633 17.039621 25
0 90.384682 2.2055717
95.432373 83.221779 0
8.692646 17.390911 25
0 94.747375 24.741901
11.932129 3.8271313 25
100 97.194893 3.7069645
40.624851 90.456642 0
54.515842 92.698929 0
80.25827 0.25445163 24.999998
36.193447 51.556446 25
0 98.395203 8.2013168
0 62.795612 24.343384
84.471283 48.662949 25
15.622809 0 17.10873
88.204407 39.929443 0
47.030102 19.827892 0
22.992985 0 3.9407575
49.070362 86.280228 25
35.693935 78.428192 25
87.340088 75.608047 25
59.923553 34.800106 25
100 87.258293 7.7872086
40.618687 15.592957 25
54.921169 88.322823 25
0.58011937 99.999992 16.077679
100 80.676186 18.742918
0 94.099777 3.974525
53.594528 100 12.607362
0 30.205196 15.306272
39.446716 38.857296 25
42.351917 0 22.008219
86.888397 67.65686 25
24.349005 70.797234 25
48.441891 67.54834 25
21.837742 38.01368 25
74.818375 15.037947 25
24.170357 93.463844 0
84.640335 86.903366 0
87.932823 95.205383 25
40.602676 20.728588 25
33.247395 75.325424 0
75.359024 57.570587 25
73.496689 100 1.8902302
8.9164686 0 24.956995
41.316914 28.073076 25
51.902264 100 16.470791
53.91259 14.779499 25
100 32.979004 22.561623
31.970535 37.102631 0
44.729843 100 13.637978
60.55579 67.206467 0
4.6710005 0 5.8723068
33.57251 36.079689 0
95.391594 33.176834 0
50.567848 0.17323416 0
88.887939 77.182343 25
61.429237 7.0703421 0
27.758831 35.430794 0
72.780396 59.283104 25
59.579815 11.565015 0
94.838394 30.604345 0
75.048515 31.68383 25
21.803293 0 17.192827
21.57667 68.573784 0
0.020325184 15.134334 25
51.02327 1.7754823 25
91.291664 0 4.2053876
75.485023 60.874886 0
29.042149 44.84074 0
29.222872 99.280563 25
47.819447 0 1.2981449
15.576116 44.97451 0
31.524271 51.197285 25
0 83.566635 21.404142
28.539793 67.4459 0
100 18.296631 20.126156
100 35.34285 3.1270671
65.399055 38.735729 0
86.514946 0 24.486
11.178864 81.139008 0
0.70688099 84.255058 0
43.601234 63.526691 0
0.61214566 7.515265 25
12.919059 99.745056 0
51.414276 68.59626 25
31.951149 98.644493 0
26.122826 26.88035 25
43.278091 53.100113 25
52.71722 98.750427 0
95.699142 84.847458 0
25.805235 63.773365 25
69.237267 6.7169409 25
64.66552 14.908774 0
99.700584 21.255836 0
32.1152 18.413738 0
60.082989 53.597248 25
63.356163 96.667938 25
64.218971 38.204556 0
8.1883745 100 18.258804
43.571213 0 8.9376249
0 91.793686 14.438102
41.686142 79.799484 25
55.510963 0 5.3442516
41.904774 13.850869 0
22.008121 25.223799 0
84.430717 0 3.6259236
100 17.211105 13.342932
30.917969 96.94474 0
8.3036671 0 2.4791253
95.113113 98.811302 0
2.10374 71.767441 25
100 68.175735 1.0505923
28.787003 19.656128 0
10.256237 45.519073 25
0 75.90448 16.99884
50.068558 24.035547 0
14.899039 16.611588 25
0 51.210968 23.942532
96.551453 54.14613 25
5.0591764 13.533145 25
58.546101 7.6347771 25
4.2298827 26.450781 0
100 98.451874 13.199716
81.314651 13.507975 0
28.944149 87.5979 25
42.665089 71.64077 0
20.143576 88.747459 25
54.348896 0 22.820593
33.909641 100 0.93833953
42.670528 19.242031 0
67.093719 18.725973 0
66.911491 67.657318 0
100 60.540501 6.0150537
100 26.753101 9.3206491
39.393784 1.2759509 25
100 8.1898804 3.9632969
85.879608 100 17.268974
36.747425 0 10.766567
70.291496 27.537848 25.000002
0 75.512924 7.1282563
23.043276 44.851128 0
65.718018 10.612382 25
68.36396 92.914215 0
77.752945 17.06542 24.999998
24.106167 63.806908 0
34.05566 43.154064 0
14.248511 0 20.741098
17.913807 80.959328 25
100 22.705101 6.3209305
31.156969 99.263603 0
82.979897 30.329941 0
100 24.752644 24.953861
46.132057 74.500717 25
5.9396324 59.185104 25
17.254946 52.295052 0
57.448372 45.69249 25
96.837585 72.725563 0
3.865813 53.784786 0
1.1181569 16.821436 0
49.339828 44.975517 0
17.729265 3.9532626 0
27.562243 16.419252 25
49.771679 66.058754 25
0.69772005 70.704849 25.000002
70.473412 20.439932 0
27.423849 49.486023 0
0 24.273289 10.346341
4.7129512 15.560907 25
68.437035 61.843193 25
91.468704 67.764343 25
6.7587256 16.581772 25
70.279121 84.214485 25
96.985321 100 12.134092
15.870553 80.643837 25
32.319092 62.351997 0
92.464706 6.4388199 25
85.95208 0 3.6688151
38.529018 74.629059 0
18.94768 9.4728928 25
89.803268 100 1.3844504
46.489536 3.7789409 0
49.217319 92.917656 0
81.52494 100 18.688999
59.527611 100.00001 7.8872399
88.576797 0 1.7510598
100 20.824028 13.904184
14.085429 65.834106 0
23.877205 89.971802 25
6.7339711 77.023026 0
0.92240572 33.125484 25
100 28.052843 2.4112792
58.528854 33.228592 25
100 9.6711473 3.9628685
17.054321 0 3.4193954
0 10.113796 1.5011251
60.95137 48.656052 0
92.921494 4.0025921 24.999998
0 93.686752 17.648254
40.870605 78.67952 25
