# .PCD v0.7 - Point Cloud Data file format
VERSION 0.7
FIELDS x y z normal_x normal_y normal_z curvature
SIZE 4 4 4 4 4 4 4
TYPE F F F F F F F
COUNT 1 1 1 1 1 1 1
WIDTH 1277
HEIGHT 1
VIEWPOINT 0 0 0 1 0 0 0
POINTS 1277
DATA ascii
0.010419965 0.5 0.021991327 0 1 0 0
0.01464391 0.5 0.021633776 0 1 0 0
0.015227694 0.5 0.021967687 0 1 0 0
0.019624807 0.5 0.021235021 0 1 0 0
0.02057978 0.5 0.021773718 0 1 0 0
0.028919965 0.5 0.021207534 0 1 0 0
0.029847428 0.5 0.021505341 0 1 0 0
0.030747939 0.5 0.021584556 0 1 0 0
0.031618427 0.5 0.021549333 0 1 0 0
0.035305332 0.5 0.021736426 0 1 0 0
0.036722496 0.5 0.021550022 0 1 0 0
0.040498983 0.5 0.021936793 0 1 0 0
0.041408136 0.5 0.021086261 0 1 0 0
0.04342737 0.5 0.02104748 0 1 0 0
0.04614871 0.5 0.021661943 0 1 0 0
0.050893404 0.5 0.021969946 0 1 0 0
0.053333789 0.5 0.021619394 0 1 0 0
0.060663208 0.5 0.021452393 0 1 0 0
0.061051995 0.5 0.021440875 0 1 0 0
0.064452097 0.5 0.021977575 0 1 0 0
0.065097824 0.5 0.021321241 0 1 0 0
0.072170928 0.5 0.02156214 0 1 0 0
0.089314908 0.5 0.021762814 0 1 0 0
0.095565498 0.5 0.021468405 0 1 0 0
0.097761571 0.5 0.021485681 0 1 0 0
0.10007465 0.5 0.021245338 0 1 0 0
0.10659434 0.5 0.021403706 0 1 0 0
0.10789357 0.5 0.02158287 0 1 0 0
0.11456701 0.5 0.021772373 0 1 0 0
0.11614488 0.5 0.021643296 0 1 0 0
0.12148454 0.5 0.021349013 0 1 0 0
0.12814802 0.5 0.021816736 0 1 0 0
0.13234924 0.5 0.021541517 0 1 0 0
0.13321257 0.5 0.021141278 0 1 0 0
0.13504779 0.5 0.021565162 0 1 0 0
0.13746805 0.5 0.021670129 0 1 0 0
0.13935089 0.5 0.021261364 0 1 0 0
0.14206964 0.5 0.021331389 0 1 0 0
0.14429662 0.5 0.021325778 0 1 0 0
0.14590396 0.5 0.021705221 0 1 0 0
0.146238 0.5 0.021796806 0 1 0 0
0.14849325 0.5 0.021078035 0 1 0 0
0.15036395 0.5 0.021848964 0 1 0 0
0.15226667 0.5 0.021223523 0 1 0 0
0.15771848 0.5 0.021443814 0 1 0 0
0.1585719 0.5 0.021409586 0 1 0 0
0.16041084 0.5 0.021805506 0 1 0 0
0.170311 0.5 0.021469036 0 1 0 0
0.17451517 0.5 0.021251453 0 1 0 0
0 0.00085062796 0.022614084 -1 0 0 0
0.0018199235 0 0.022433233 0 -1 0 0
0.014619082 0 0.022932997 0 -1 0 0
0.015260138 0 0.022467218 0 -1 0 0
0.019282758 0 0.022871222 0 -1 0 0
0.025400341 0 0.022429144 0 -1 0 0
0.026908293 0 0.022453461 0 -1 0 0
0.035238504 0 0.022731792 0 -1 0 0
0.039700687 0 0.022779319 0 -1 0 0
0.040562376 0 0.022864103 0 -1 0 0
0.042040627 0 0.022483548 0 -1 0 0
0.047817461 0 0.022089755 0 -1 0 0
0.051923923 0 0.022285173 0 -1 0 0
0.052540313 0 0.022829177 0 -1 0 0
0.056658059 0 0.02226959 0 -1 0 0
0.057467327 0 0.022248182 0 -1 0 0
0.061884657 0 0.022650782 0 -1 0 0
0.064696267 0 0.02237408 0 -1 0 0
0.066436701 0 0.022064397 0 -1 0 0
0.073708467 0 0.022020862 0 -1 0 0
0.074706055 0 0.022458348 0 -1 0 0
0.083287373 0 0.022308843 0 -1 0 0
0.09452679 0 0.022116428 0 -1 0 0
0.096323431 0 0.022256419 0 -1 0 0
0.10543659 0 0.022148237 0 -1 0 0
0.10607135 0 0.022659425 0 -1 0 0
0.11014033 0 0.022915687 0 -1 0 0
0.11282033 0 0.022312772 0 -1 0 0
0.11438046 0 0.022383988 0 -1 0 0
0.11768923 0 0.022408299 0 -1 0 0
0.11973232 0 0.022660984 0 -1 0 0
0.12186037 0 0.022792922 0 -1 0 0
0.12543137 0 0.02243305 0 -1 0 0
0.12600893 0 0.022011627 0 -1 0 0
0.12975565 0 0.022553053 0 -1 0 0
0.13166811 0 0.022010362 0 -1 0 0
0.13818902 0 0.022812003 0 -1 0 0
0.14015187 0 0.022509657 0 -1 0 0
0.14358492 0 0.022871245 0 -1 0 0
0.14622116 0 0.022492556 0 -1 0 0
0.14729387 0 0.022419479 0 -1 0 0
0.14886177 0 0.022599012 0 -1 0 0
0.15158264 0 0.022259481 0 -1 0 0
0.15347944 0 0.02239034 0 -1 0 0
0.15890698 0 0.022917643 0 -1 0 0
0.15975124 0 0.022854539 0 -1 0 0
0.16368295 0 0.02209118 0 -1 0 0
0.16726123 0 0.022688948 0 -1 0 0
0.17513929 0 0.022688132 0 -1 0 0
0.17829441 0 0.022679778 0 -1 0 0
0.18558279 0 0.022109404 0 -1 0 0
0.18754223 0 0.022395443 0 -1 0 0
0.19083656 0 0.022510475 0 -1 0 0
0.19494206 0 0.022826998 0 -1 0 0
0.20037489 0 0.022729268 0 -1 0 0
0.20581575 0 0.022406626 0 -1 0 0
0.20875652 0 0.022995058 0 -1 0 0
0.21066421 0 0.022326326 0 -1 0 0
0.21150258 0 0.022255374 0 -1 0 0
0.21232477 0 0.022929015 0 -1 0 0
0.21438082 0 0.022379499 0 -1 0 0
0.21759863 0 0.022920189 0 -1 0 0
0.2191911 0 0.022900155 0 -1 0 0
0.22011402 0 0.022649713 0 -1 0 0
0.22188106 0 0.02205427 0 -1 0 0
0.22317456 0 0.022832062 0 -1 0 0
0.22503848 0 0.022880197 0 -1 0 0
0.22751382 0 0.022491092 0 -1 0 0
0.22898933 0 0.022621853 0 -1 0 0
0.23082784 0 0.022256168 0 -1 0 0
0.23167498 0 0.022988573 0 -1 0 0
0.23455858 0 0.022150725 0 -1 0 0
0.23560946 0 0.022767287 0 -1 0 0
0.23642801 0 0.022234511 0 -1 0 0
0.23973361 0 0.022379706 0 -1 0 0
0.240053 0 0.022214398 0 -1 0 0
0.24426872 0 0.022278039 0 -1 0 0
0.24735263 0 0.022996373 0 -1 0 0
0.24852119 0 0.022328995 0 -1 0 0
0.24903186 0 0.022165295 0 -1 0 0
0 0.0010580436 0.022916747 -1 0 0 0
0.25 0.001342772 0.022706607 1 0 0 0
0 0.005587393 0.022770137 -1 0 0 0
0.25 0.0081520574 0.022623049 1 0 0 0
0 0.010795719 0.022365335 -1 0 0 0
0.25 0.010974318 0.022990523 1 0 0 0
0 0.012823786 0.022939837 -1 0 0 0
0.25 0.012279827 0.022970531 1 0 0 0
0 0.013799719 0.022216402 -1 0 0 0
0 0.014410214 0.022383854 -1 0 0 0
0 0.015733229 0.022180218 -1 0 0 0
0.25 0.016363151 0.022609442 1 0 0 0
0 0.019511815 0.022776637 -1 0 0 0
0 0.020040426 0.022358961 -1 0 0 0
0.25 0.020426679 0.022502575 1 0 0 0
0.25 0.023675542 0.022501206 1 0 0 0
0 0.024734017 0.022873355 -1 0 0 0
0.25 0.029160041 0.022951694 1 0 0 0
0.25 0.030542787 0.022227734 1 0 0 0
0 0.031054612 0.022570278 -1 0 0 0
0.25 0.032481391 0.022356069 1 0 0 0
0 0.03313978 0.022856502 -1 0 0 0
0.25 0.034356009 0.022464842 1 0 0 0
0 0.035674147 0.022858649 -1 0 0 0
0.25 0.0377835 0.022392012 1 0 0 0
0 0.038957365 0.022015689 -1 0 0 0
0 0.042688429 0.022304904 -1 0 0 0
0 0.045238167 0.02210374 -1 0 0 0
0.25 0.047529846 0.022523541 1 0 0 0
0 0.048803933 0.022916723 -1 0 0 0
0.25 0.049841672 0.022092571 1 0 0 0
0 0.05116922 0.022364307 -1 0 0 0
0 0.055031896 0.022707617 -1 0 0 0
0 0.058729954 0.022902584 -1 0 0 0
0 0.060380518 0.022524524 -1 0 0 0
0.25 0.060802892 0.022381959 1 0 0 0
0 0.065766476 0.022245768 -1 0 0 0
0 0.0668713 0.022574928 -1 0 0 0
0 0.067019127 0.02200575 -1 0 0 0
0.25 0.069747269 0.022651415 1 0 0 0
0 0.071490735 0.022559408 -1 0 0 0
0.25 0.071573734 0.022492675 1 0 0 0
0 0.072747461 0.022218857 -1 0 0 0
0.25 0.072195485 0.02251651 1 0 0 0
0 0.073326319 0.022148669 -1 0 0 0
0.25 0.077560782 0.022540996 1 0 0 0
0.25 0.078617021 0.022147063 1 0 0 0
0.25 0.084770568 0.022906778 1 0 0 0
0 0.086101651 0.022969378 -1 0 0 0
0 0.087198704 0.022564055 -1 0 0 0
0 0.089705646 0.022659708 -1 0 0 0
0.25 0.090466276 0.02251292 1 0 0 0
0.25 0.091830283 0.022379093 1 0 0 0
0 0.094872549 0.022395089 -1 0 0 0
0.25 0.094819039 0.022454822 1 0 0 0
0.25 0.095365301 0.022917552 1 0 0 0
0 0.096573427 0.022733394 -1 0 0 0
0 0.099585161 0.022243729 -1 0 0 0
0.25 0.09974122 0.022460105 1 0 0 0
0 0.10043237 0.022937141 -1 0 0 0
0 0.10532275 0.022821825 -1 0 0 0
0.25 0.10529159 0.022914883 1 0 0 0
0 0.10765464 0.022270216 -1 0 0 0
0 0.11009908 0.022584008 -1 0 0 0
0.25 0.11055288 0.022411564 1 0 0 0
0 0.11162245 0.022116976 -1 0 0 0
0 0.11442032 0.022593047 -1 0 0 0
0.25 0.11471049 0.02220165 1 0 0 0
0 0.11518694 0.022963338 -1 0 0 0
0.25 0.11548078 0.02236883 1 0 0 0
0 0.11708023 0.022578109 -1 0 0 0
0 0.11861718 0.022282623 -1 0 0 0
0.25 0.11929412 0.022370132 1 0 0 0
0.25 0.12599795 0.022238774 1 0 0 0
0 0.12617731 0.022742372 -1 0 0 0
0.25 0.1261525 0.022826759 1 0 0 0
0.25 0.12835562 0.022519514 1 0 0 0
0.25 0.13039036 0.022954311 1 0 0 0
0.25 0.13116996 0.022981651 1 0 0 0
0 0.13401335 0.022304172 -1 0 0 0
0.25 0.13613279 0.022502962 1 0 0 0
0 0.13864382 0.022620002 -1 0 0 0
0 0.13912876 0.022835985 -1 0 0 0
0 0.14006163 0.022613388 -1 0 0 0
0 0.1448939 0.022576943 -1 0 0 0
0 0.1472083 0.022620875 -1 0 0 0
0.25 0.14759022 0.022330835 1 0 0 0
0.25 0.14898475 0.022637023 1 0 0 0
0 0.14987749 0.022579392 -1 0 0 0
0.25 0.15273896 0.022196075 1 0 0 0
0 0.15716301 0.022858024 -1 0 0 0
0.25 0.15863243 0.022014573 1 0 0 0
0.25 0.15927863 0.022980366 1 0 0 0
0.25 0.16350196 0.022801857 1 0 0 0
0 0.16613673 0.022285018 -1 0 0 0
0 0.1678113 0.022807624 -1 0 0 0
0.25 0.16797939 0.02287057 1 0 0 0
0 0.17041594 0.022401296 -1 0 0 0
0.25 0.17032212 0.022174073 1 0 0 0
0 0.17317574 0.022811107 -1 0 0 0
0 0.17567454 0.022237832 -1 0 0 0
0 0.17646867 0.022903442 -1 0 0 0
0 0.17961521 0.022341505 -1 0 0 0
0 0.18458532 0.022904012 -1 0 0 0
0.25 0.18471472 0.022423401 1 0 0 0
0 0.18528153 0.022262527 -1 0 0 0
0.25 0.18957981 0.022680271 1 0 0 0
0 0.19220759 0.022473019 -1 0 0 0
0.25 0.1939013 0.022147769 1 0 0 0
0 0.19620295 0.022826565 -1 0 0 0
0.25 0.20157363 0.022502374 1 0 0 0
0 0.20359074 0.022675827 -1 0 0 0
0 0.2043528 0.022500817 -1 0 0 0
0.25 0.20477735 0.022002617 1 0 0 0
0 0.20580855 0.022585776 -1 0 0 0
0.25 0.2068198 0.02292469 1 0 0 0
0.25 0.20996881 0.022194441 1 0 0 0
0 0.21054743 0.022093957 -1 0 0 0
0.25 0.21207365 0.022662437 1 0 0 0
0.25 0.21313697 0.022385797 1 0 0 0
0 0.21657936 0.02265159 -1 0 0 0
0.25 0.22168414 0.022451527 1 0 0 0
0 0.22383086 0.022582039 -1 0 0 0
0.25 0.22369364 0.022869896 1 0 0 0
0.25 0.22439213 0.022516644 1 0 0 0
0 0.22927789 0.022849537 -1 0 0 0
0 0.23125091 0.022158746 -1 0 0 0
0 0.23272459 0.022898309 -1 0 0 0
0 0.23385456 0.022186447 -1 0 0 0
0 0.23575495 0.022449113 -1 0 0 0
0.25 0.23519057 0.022646837 1 0 0 0
0 0.23750718 0.022268571 -1 0 0 0
0 0.24008873 0.022136275 -1 0 0 0
0 0.2427119 0.022010118 -1 0 0 0
0.25 0.24285698 0.022932928 1 0 0 0
0 0.24373102 0.022970311 -1 0 0 0
0.25 0.24507731 0.022923088 1 0 0 0
0.25 0.24614517 0.02213083 1 0 0 0
0.25 0.24747749 0.022964751 1 0 0 0
0 0.24805544 0.022067022 -1 0 0 0
0.25 0.25139654 0.022772592 1 0 0 0
0 0.25266558 0.022908397 -1 0 0 0
0 0.25396597 0.022069016 -1 0 0 0
0.25 0.25493085 0.022768065 1 0 0 0
0.25 0.25523531 0.022926912 1 0 0 0
0 0.25728631 0.022595741 -1 0 0 0
0 0.25805739 0.022514697 -1 0 0 0
0.25 0.25871053 0.022655025 1 0 0 0
0 0.25954336 0.022730704 -1 0 0 0
0.25 0.26036495 0.022782413 1 0 0 0
0.25 0.26362413 0.022894423 1 0 0 0
0 0.26447919 0.022922873 -1 0 0 0
0.25 0.26726598 0.022537114 1 0 0 0
0 0.26877347 0.022608815 -1 0 0 0
0 0.26968354 0.022307858 -1 0 0 0
0.25 0.26926222 0.022980398 1 0 0 0
0 0.27048141 0.022006456 -1 0 0 0
0 0.27265328 0.022606518 -1 0 0 0
0.25 0.27212238 0.02262136 1 0 0 0
0 0.27781001 0.022448409 -1 0 0 0
0.25 0.27721661 0.022443509 1 0 0 0
0 0.2789931 0.02270763 -1 0 0 0
0 0.28208184 0.022571323 -1 0 0 0
0 0.28427941 0.022756536 -1 0 0 0
0.25 0.28457409 0.02240319 1 0 0 0
0 0.28557017 0.02217963 -1 0 0 0
0 0.28878736 0.022165274 -1 0 0 0
0.25 0.28847539 0.022543887 1 0 0 0
0.25 0.28951856 0.022658741 1 0 0 0
0 0.29046786 0.022541815 -1 0 0 0
0 0.29324591 0.022888381 -1 0 0 0
0.25 0.29436719 0.022264227 1 0 0 0
0.25 0.29537261 0.022663241 1 0 0 0
0.25 0.29938775 0.02205172 1 0 0 0
0.25 0.30021992 0.022226935 1 0 0 0
0 0.30181897 0.022880608 -1 0 0 0
0.25 0.3027159 0.022257604 1 0 0 0
0 0.30345145 0.022645976 -1 0 0 0
0 0.30553824 0.022785237 -1 0 0 0
0.25 0.30549347 0.022708099 1 0 0 0
0.25 0.30645904 0.022108726 1 0 0 0
0 0.30730474 0.022682535 -1 0 0 0
0 0.31305212 0.022210225 -1 0 0 0
0.25 0.31325185 0.022599092 1 0 0 0
0.25 0.31438142 0.022918919 1 0 0 0
0 0.31518546 0.02285981 -1 0 0 0
0 0.31670126 0.022215901 -1 0 0 0
0 0.32081947 0.022176402 -1 0 0 0
0 0.32257408 0.022239026 -1 0 0 0
0.25 0.32294941 0.022859031 1 0 0 0
0 0.32344884 0.022722367 -1 0 0 0
0 0.32657096 0.022392955 -1 0 0 0
0.25 0.32797182 0.022975385 1 0 0 0
0 0.32852656 0.022282356 -1 0 0 0
0 0.32963419 0.022936394 -1 0 0 0
0.25 0.3293072 0.022990176 1 0 0 0
0 0.3303822 0.022552455 -1 0 0 0
0 0.33203971 0.022745611 -1 0 0 0
0.25 0.33363706 0.022966376 1 0 0 0
0.25 0.3347047 0.022635091 1 0 0 0
0 0.33628961 0.022221595 -1 0 0 0
0.25 0.33794117 0.022728885 1 0 0 0
0 0.33839926 0.02298668 -1 0 0 0
0.25 0.33969441 0.02278717 1 0 0 0
0.25 0.34161609 0.022895329 1 0 0 0
0.25 0.34285772 0.022184633 1 0 0 0
0.25 0.34422922 0.022614852 1 0 0 0
0.25 0.3456367 0.022209052 1 0 0 0
0 0.34795126 0.02202853 -1 0 0 0
0.25 0.34987712 0.022843927 1 0 0 0
0 0.35089341 0.022267371 -1 0 0 0
0 0.35386059 0.022190912 -1 0 0 0
0.25 0.35359478 0.022477403 1 0 0 0
0 0.3553004 0.022780586 -1 0 0 0
0 0.35632056 0.022699695 -1 0 0 0
0.25 0.35639352 0.022657651 1 0 0 0
0.25 0.3595525 0.022296198 1 0 0 0
0.25 0.36110061 0.022001719 1 0 0 0
0 0.36210319 0.022559889 -1 0 0 0
0 0.36516932 0.022927152 -1 0 0 0
0.25 0.36686072 0.02248284 1 0 0 0
0 0.37147507 0.02242947 -1 0 0 0
0.25 0.37116322 0.02214442 1 0 0 0
0 0.37577751 0.02234333 -1 0 0 0
0 0.3781853 0.022998596 -1 0 0 0
0 0.38165992 0.022833731 -1 0 0 0
0.25 0.38142043 0.022522073 1 0 0 0
0.25 0.38220051 0.022242798 1 0 0 0
0 0.38301235 0.022010759 -1 0 0 0
0 0.38534242 0.02255786 -1 0 0 0
0.25 0.38689411 0.022486446 1 0 0 0
0 0.39072624 0.022072578 -1 0 0 0
0 0.39266765 0.02267617 -1 0 0 0
0.25 0.39534569 0.022630284 1 0 0 0
0.25 0.39714968 0.022551086 1 0 0 0
0 0.405238 0.022510255 -1 0 0 0
0.25 0.40548107 0.022624986 1 0 0 0
0 0.40600091 0.022079775 -1 0 0 0
0.25 0.40652031 0.022319885 1 0 0 0
0 0.40805429 0.022198519 -1 0 0 0
0 0.4124378 0.022125592 -1 0 0 0
0 0.41341829 0.022705657 -1 0 0 0
0.25 0.41573465 0.022758739 1 0 0 0
0 0.41694933 0.022714496 -1 0 0 0
0 0.42074388 0.022677392 -1 0 0 0
0.25 0.4205339 0.022595968 1 0 0 0
0.25 0.42167801 0.022835543 1 0 0 0
0.25 0.42393255 0.022735765 1 0 0 0
0 0.42553377 0.022833185 -1 0 0 0
0 0.42728922 0.022744548 -1 0 0 0
0.24695133 0.4280487 0.022949081 0.70710671 0.70710689 0 0
0.2454678 0.4295322 0.022642845 0.70710671 0.70710689 0 0
0 0.43020198 0.022545947 -1 0 0 0
0 0.4358134 0.022731526 -1 0 0 0
0 0.43742701 0.022495503 -1 0 0 0
0.23620731 0.43879271 0.022909872 0.70710671 0.70710689 0 0
0 0.43957749 0.022208598 -1 0 0 0
0 0.44043481 0.0229431 -1 0 0 0
0 0.44171807 0.022489879 -1 0 0 0
0.23357002 0.44142997 0.022140268 0.70710671 0.70710689 0 0
0 0.4456543 0.022836108 -1 0 0 0
0.2267195 0.44828051 0.022854771 0.70710671 0.70710689 0 0
0.22502056 0.44997942 0.022657104 0.70710671 0.70710689 0 0
0 0.45017898 0.022502529 -1 0 0 0
0.22154263 0.45345739 0.022908507 0.70710671 0.70710689 0 0
0.22094961 0.45405039 0.022767719 0.70710671 0.70710689 0 0
0 0.45628303 0.022999683 -1 0 0 0
0.21695699 0.45804304 0.022768095 0.70710671 0.70710689 0 0
0 0.45914444 0.022958539 -1 0 0 0
0.21515208 0.45984793 0.022104852 0.70710671 0.70710689 0 0
0 0.4614996 0.022079714 -1 0 0 0
0.21101743 0.46398255 0.022125933 0.70710671 0.70710689 0 0
0 0.46436021 0.022987232 -1 0 0 0
0.21042818 0.46457183 0.022433484 0.70710671 0.70710689 0 0
0.20926072 0.46573931 0.02200822 0.70710671 0.70710689 0 0
0 0.46893403 0.022887638 -1 0 0 0
0.20312084 0.47187915 0.022345548 0.70710671 0.70710689 0 0
0.20270011 0.4722999 0.022820594 0.70710671 0.70710689 0 0
0 0.47670469 0.022391144 -1 0 0 0
0.19795029 0.47704971 0.022186482 0.70710671 0.70710689 0 0
0.1967403 0.47825968 0.022916425 0.70710671 0.70710689 0 0
0 0.48109105 0.022663942 -1 0 0 0
0.19327158 0.48172843 0.022687154 0.70710671 0.70710689 0 0
0.18907683 0.48592317 0.022180658 0.70710671 0.70710689 0 0
0 0.48682487 0.022336282 -1 0 0 0
0.18839058 0.48660943 0.022295952 0.70710671 0.70710689 0 0
0 0.48722929 0.022091499 -1 0 0 0
0 0.48852986 0.022962481 -1 0 0 0
0 0.49168563 0.022131914 -1 0 0 0
0.18318447 0.49181554 0.022307094 0.70710671 0.70710689 0 0
0 0.49340108 0.022975277 -1 0 0 0
0.1788322 0.49616781 0.022844944 0.70710671 0.70710689 0 0
0 0.49889481 0.022341907 -1 0 0 0
0.17621961 0.4987804 0.022513542 0.70710671 0.70710689 0 0
0.0058754361 0.5 0.022587065 0 1 0 0
0.0074222963 0.5 0.022451118 0 1 0 0
0.0083893072 0.5 0.022747969 0 1 0 0
0.0097616622 0.5 0.022504229 0 1 0 0
0.018869389 0.5 0.022515554 0 1 0 0
0.023419026 0.5 0.022561494 0 1 0 0
0.024808338 0.5 0.022504255 0 1 0 0
0.0274543 0.5 0.02265479 0 1 0 0
0.028233336 0.5 0.02290564 0 1 0 0
0.029018709 0.5 0.022813078 0 1 0 0
0.046528529 0.5 0.022138231 0 1 0 0
0.05092191 0.5 0.022589874 0 1 0 0
0.052564777 0.5 0.022814877 0 1 0 0
0.05324563 0.5 0.022883303 0 1 0 0
0.057796482 0.5 0.022915978 0 1 0 0
0.062393457 0.5 0.022541672 0 1 0 0
0.064059235 0.5 0.022317199 0 1 0 0
0.067516588 0.5 0.022435397 0 1 0 0
0.070374869 0.5 0.022032736 0 1 0 0
0.073259763 0.5 0.022200754 0 1 0 0
0.074500076 0.5 0.022002745 0 1 0 0
0.077909254 0.5 0.022353325 0 1 0 0
0.078802653 0.5 0.022220112 0 1 0 0
0.082401477 0.5 0.022191487 0 1 0 0
0.093869455 0.5 0.022274002 0 1 0 0
0.095193386 0.5 0.022729546 0 1 0 0
0.096587442 0.5 0.022582697 0 1 0 0
0.098477378 0.5 0.022047859 0 1 0 0
0.099786341 0.5 0.022780465 0 1 0 0
0.10453478 0.5 0.022500472 0 1 0 0
0.10755232 0.5 0.022518653 0 1 0 0
0.11249626 0.5 0.022977319 0 1 0 0
0.11402554 0.5 0.022500675 0 1 0 0
0.11669929 0.5 0.022098891 0 1 0 0
0.11787257 0.5 0.022458071 0 1 0 0
0.11882734 0.5 0.022311125 0 1 0 0
0.12111147 0.5 0.022862507 0 1 0 0
0.12454349 0.5 0.022318322 0 1 0 0
0.13129428 0.5 0.02274365 0 1 0 0
0.13206632 0.5 0.022847045 0 1 0 0
0.14275977 0.5 0.022678193 0 1 0 0
0.14538655 0.5 0.022946395 0 1 0 0
0.15719551 0.5 0.02251211 0 1 0 0
0.16195579 0.5 0.022734275 0 1 0 0
0.16423307 0.5 0.022336734 0 1 0 0
0.16796136 0.5 0.022066962 0 1 0 0
0.17415924 0.5 0.022098839 0 1 0 0
0.00083304942 0 0.023635674 0 -1 0 0
0.0013585836 0 0.023392938 0 -1 0 0
0.0023095384 0 0.023791211 0 -1 0 0
0.0034330487 0 0.023458464 0 -1 0 0
0.0084111392 0 0.023674656 0 -1 0 0
0.015297353 0 0.023106392 0 -1 0 0
0.016632766 0 0.023073146 0 -1 0 0
0.026539875 0 0.023346571 0 -1 0 0
0.027476717 0 0.023967337 0 -1 0 0
0.029398032 0 0.023990823 0 -1 0 0
0.034661017 0 0.023493264 0 -1 0 0
0.044489641 0 0.023843929 0 -1 0 0
0.050723128 0 0.023504309 0 -1 0 0
0.05653847 0 0.023986395 0 -1 0 0
0.057452977 0 0.02339313 0 -1 0 0
0.064309306 0 0.023429029 0 -1 0 0
0.068387382 0 0.023650341 0 -1 0 0
0.069000252 0 0.023905659 0 -1 0 0
0.075946696 0 0.023788787 0 -1 0 0
0.081343211 0 0.023160387 0 -1 0 0
0.082989872 0 0.023448002 0 -1 0 0
0.085497677 0 0.023354925 0 -1 0 0
0.086976469 0 0.023082983 0 -1 0 0
0.090641059 0 0.023149563 0 -1 0 0
0.10372507 0 0.023703091 0 -1 0 0
0.1210946 0 0.023128264 0 -1 0 0
0.1262297 0 0.023741458 0 -1 0 0
0.12903704 0 0.023459058 0 -1 0 0
0.13077171 0 0.023114966 0 -1 0 0
0.13118342 0 0.023029525 0 -1 0 0
0.13212286 0 0.023291305 0 -1 0 0
0.13526274 0 0.023847569 0 -1 0 0
0.13656132 0 0.023994181 0 -1 0 0
0.13904651 0 0.023956809 0 -1 0 0
0.14323175 0 0.023086101 0 -1 0 0
0.14734572 0 0.023744166 0 -1 0 0
0.14839023 0 0.023992147 0 -1 0 0
0.151434 0 0.02336289 0 -1 0 0
0.16040947 0 0.02362608 0 -1 0 0
0.16138722 0 0.023486327 0 -1 0 0
0.16350655 0 0.023096118 0 -1 0 0
0.16897795 0 0.023901967 0 -1 0 0
0.16932428 0 0.02341358 0 -1 0 0
0.17074819 0 0.023819869 0 -1 0 0
0.17116924 0 0.023461066 0 -1 0 0
0.1733304 0 0.023988549 0 -1 0 0
0.17525761 0 0.023339408 0 -1 0 0
0.17913732 0 0.023349779 0 -1 0 0
0.18103907 0 0.02311012 0 -1 0 0
0.18242411 0 0.023590958 0 -1 0 0
0.18569362 0 0.023110863 0 -1 0 0
0.1880939 0 0.023888838 0 -1 0 0
0.1945861 0 0.023289371 0 -1 0 0
0.19656081 0 0.023220057 0 -1 0 0
0.20352161 0 0.023414522 0 -1 0 0
0.20461902 0 0.023893736 0 -1 0 0
0.20832989 0 0.02360582 0 -1 0 0
0.20915794 0 0.023663305 0 -1 0 0
0.21049649 0 0.02320388 0 -1 0 0
0.2132096 0 0.023699397 0 -1 0 0
0.21924701 0 0.023142193 0 -1 0 0
0.22251758 0 0.023052532 0 -1 0 0
0.224316 0 0.023280021 0 -1 0 0
0.22694337 0 0.023106746 0 -1 0 0
0.22926617 0 0.023283476 0 -1 0 0
0.23050709 0 0.023263037 0 -1 0 0
0.23788923 0 0.023651514 0 -1 0 0
0.2421892 0 0.023478327 0 -1 0 0
0.24676095 0 0.023963785 0 -1 0 0
0.24977785 0 0.023341781 0 -1 0 0
0.25 0.0024702728 0.02342575 1 0 0 0
0.25 0.010741872 0.023377018 1 0 0 0
0 0.012400185 0.023223899 -1 0 0 0
0 0.013852469 0.023939081 -1 0 0 0
0.25 0.013655607 0.023787796 1 0 0 0
0 0.014470166 0.02339315 -1 0 0 0
0.25 0.014089011 0.023964044 1 0 0 0
0 0.01517762 0.023839481 -1 0 0 0
0.25 0.017168468 0.02390142 1 0 0 0
0 0.019837169 0.023423053 -1 0 0 0
0 0.023095867 0.02331906 -1 0 0 0
0.25 0.024783308 0.023919392 1 0 0 0
0 0.026048254 0.023180511 -1 0 0 0
0 0.028747011 0.023284793 -1 0 0 0
0.25 0.02813777 0.023061877 1 0 0 0
0 0.030365033 0.023115806 -1 0 0 0
0.25 0.030939452 0.023572138 1 0 0 0
0 0.033799101 0.023322104 -1 0 0 0
0.25 0.036095046 0.023833195 1 0 0 0
0 0.037117034 0.02388788 -1 0 0 0
0 0.042150572 0.023452278 -1 0 0 0
0 0.043148145 0.023531994 -1 0 0 0
0 0.044352684 0.023130771 -1 0 0 0
0.25 0.046853222 0.023707638 1 0 0 0
0.25 0.047653183 0.0238942 1 0 0 0
0 0.048942491 0.023404956 -1 0 0 0
0 0.051730093 0.023658413 -1 0 0 0
0 0.052867882 0.023201732 -1 0 0 0
0 0.054982305 0.023826843 -1 0 0 0
0.25 0.05691541 0.023323664 1 0 0 0
0.25 0.059554055 0.023470895 1 0 0 0
0 0.060697123 0.023187743 -1 0 0 0
0 0.064408667 0.023223722 -1 0 0 0
0 0.067321189 0.023087479 -1 0 0 0
0.25 0.067483485 0.023434877 1 0 0 0
0 0.073577851 0.023323815 -1 0 0 0
0.25 0.074355632 0.023930537 1 0 0 0
0.25 0.082223564 0.023741445 1 0 0 0
0.25 0.087543167 0.023714732 1 0 0 0
0 0.088319436 0.023421066 -1 0 0 0
0.25 0.088290356 0.023613477 1 0 0 0
0.25 0.091256574 0.023545934 1 0 0 0
0.25 0.092771813 0.023559904 1 0 0 0
0.25 0.095896997 0.023856005 1 0 0 0
0.25 0.097671911 0.023772849 1 0 0 0
0 0.10349976 0.023591392 -1 0 0 0
0.25 0.10335992 0.023606515 1 0 0 0
0 0.10662033 0.023957299 -1 0 0 0
0 0.10704184 0.023094513 -1 0 0 0
0.25 0.10905144 0.023060303 1 0 0 0
0.25 0.1110125 0.023421487 1 0 0 0
0.25 0.11533334 0.023105456 1 0 0 0
0.25 0.12232473 0.023224246 1 0 0 0
0 0.12324092 0.023147123 -1 0 0 0
0 0.12429728 0.023330379 -1 0 0 0
0.25 0.12443886 0.02334122 1 0 0 0
0.25 0.12574661 0.023839487 1 0 0 0
0.25 0.12688302 0.023396546 1 0 0 0
0 0.12754436 0.023444727 -1 0 0 0
0.25 0.12857819 0.023297228 1 0 0 0
0 0.12934111 0.02356738 -1 0 0 0
0 0.13152874 0.023918055 -1 0 0 0
0.25 0.13154675 0.023087325 1 0 0 0
0 0.13566893 0.023717856 -1 0 0 0
0.25 0.13668269 0.023202837 1 0 0 0
0.25 0.13764709 0.023049999 1 0 0 0
0 0.13802318 0.023946069 -1 0 0 0
0.25 0.14192195 0.023437519 1 0 0 0
0 0.14324377 0.023799086 -1 0 0 0
0.25 0.14448002 0.023280574 1 0 0 0
0.25 0.14836147 0.023845676 1 0 0 0
0 0.15319081 0.023571257 -1 0 0 0
0.25 0.15546569 0.02321041 1 0 0 0
0 0.15777719 0.023536157 -1 0 0 0
0.25 0.1576027 0.023350203 1 0 0 0
0 0.15950784 0.023303032 -1 0 0 0
0 0.1614635 0.023466345 -1 0 0 0
0.25 0.16491833 0.023690807 1 0 0 0
0 0.16659652 0.023868587 -1 0 0 0
0.25 0.16826126 0.023932269 1 0 0 0
0.25 0.17166659 0.02344933 1 0 0 0
0 0.17234208 0.023830455 -1 0 0 0
0 0.17481993 0.023259941 -1 0 0 0
0 0.17667131 0.023765288 -1 0 0 0
0.25 0.1776028 0.023998065 1 0 0 0
0 0.17889261 0.023602743 -1 0 0 0
0.25 0.1807106 0.023829773 1 0 0 0
0 0.18244447 0.023482881 -1 0 0 0
0.25 0.18368685 0.023975184 1 0 0 0
0 0.18429121 0.02336137 -1 0 0 0
0.25 0.18560387 0.023487074 1 0 0 0
0 0.18811764 0.023752898 -1 0 0 0
0.25 0.18991169 0.023924284 1 0 0 0
0.25 0.19017342 0.023867758 1 0 0 0
0 0.19101609 0.023130717 -1 0 0 0
0.25 0.19377723 0.023152655 1 0 0 0
0 0.19454777 0.023240674 -1 0 0 0
0 0.19954552 0.023002772 -1 0 0 0
0 0.20070724 0.023701318 -1 0 0 0
0 0.20264682 0.023461299 -1 0 0 0
0 0.20363699 0.023725428 -1 0 0 0
0 0.20558926 0.023761982 -1 0 0 0
0 0.21402375 0.023189539 -1 0 0 0
0.25 0.21559165 0.023476645 1 0 0 0
0 0.21780562 0.023878947 -1 0 0 0
0.25 0.21739514 0.023496721 1 0 0 0
0.25 0.22084931 0.023010692 1 0 0 0
0 0.22318052 0.023689946 -1 0 0 0
0.25 0.22659668 0.023950847 1 0 0 0
0.25 0.22798353 0.023925342 1 0 0 0
0 0.22894298 0.023746748 -1 0 0 0
0 0.22934979 0.023187807 -1 0 0 0
0.25 0.23081541 0.023815021 1 0 0 0
0 0.23236355 0.02396011 -1 0 0 0
0.25 0.23292737 0.023724539 1 0 0 0
0.25 0.23361456 0.023795193 1 0 0 0
0.25 0.23534328 0.023370478 1 0 0 0
0 0.24004599 0.023627801 -1 0 0 0
0.25 0.24181913 0.023571143 1 0 0 0
0 0.24217688 0.023516724 -1 0 0 0
0 0.24392524 0.023064256 -1 0 0 0
0.25 0.24367993 0.023393404 1 0 0 0
0 0.24464442 0.023410784 -1 0 0 0
0.25 0.2465903 0.0238114 1 0 0 0
0.25 0.25060186 0.023879994 1 0 0 0
0 0.25210878 0.023244683 -1 0 0 0
0.25 0.25384006 0.023881091 1 0 0 0
0.25 0.25919461 0.023258867 1 0 0 0
0.25 0.26386085 0.023098953 1 0 0 0
0 0.26620686 0.023335546 -1 0 0 0
0.25 0.26913548 0.023374138 1 0 0 0
0 0.27138257 0.02306818 -1 0 0 0
0.25 0.27160683 0.023313718 1 0 0 0
0.25 0.27606079 0.023976658 1 0 0 0
0 0.27784377 0.023897359 -1 0 0 0
0.25 0.27905309 0.023267936 1 0 0 0
0.25 0.28138325 0.023280127 1 0 0 0
0 0.28455105 0.02372304 -1 0 0 0
0 0.28570479 0.023689914 -1 0 0 0
0 0.28746328 0.023087379 -1 0 0 0
0.25 0.28967565 0.023373585 1 0 0 0
0 0.29583856 0.023463368 -1 0 0 0
0 0.2966285 0.023822835 -1 0 0 0
0.25 0.29616132 0.023892518 1 0 0 0
0.25 0.29772955 0.023938216 1 0 0 0
0 0.29844898 0.023002695 -1 0 0 0
0.25 0.29967961 0.023303865 1 0 0 0
0 0.30321485 0.023416236 -1 0 0 0
0.25 0.30427676 0.023338597 1 0 0 0
0 0.30681926 0.023374334 -1 0 0 0
0.25 0.30838057 0.023381835 1 0 0 0
0 0.30910325 0.023721155 -1 0 0 0
0.25 0.31348208 0.023091884 1 0 0 0
0.25 0.31879669 0.023010559 1 0 0 0
0 0.3196156 0.02365844 -1 0 0 0
0.25 0.32377195 0.02335991 1 0 0 0
0.25 0.32583323 0.023642307 1 0 0 0
0 0.32643676 0.02385411 -1 0 0 0
0.25 0.32731012 0.023209453 1 0 0 0
0.25 0.32862985 0.023372937 1 0 0 0
0 0.32914993 0.023805771 -1 0 0 0
0.25 0.33238521 0.023101304 1 0 0 0
0 0.34052747 0.023476603 -1 0 0 0
0 0.34251606 0.02353753 -1 0 0 0
0.25 0.34273469 0.023950491 1 0 0 0
0 0.34484488 0.023907825 -1 0 0 0
0 0.34664539 0.023679182 -1 0 0 0
0.25 0.34763604 0.023218451 1 0 0 0
0 0.34944579 0.023647338 -1 0 0 0
0.25 0.34936076 0.023749426 1 0 0 0
0 0.35135233 0.023165382 -1 0 0 0
0.25 0.35188714 0.023230864 1 0 0 0
0 0.35361058 0.023063447 -1 0 0 0
0.25 0.3560102 0.023233607 1 0 0 0
0 0.35782769 0.023533795 -1 0 0 0
0 0.35930476 0.023843948 -1 0 0 0
0.25 0.36086798 0.023304861 1 0 0 0
0 0.36111549 0.02362146 -1 0 0 0
0.25 0.36173731 0.023907008 1 0 0 0
0 0.36421439 0.023617566 -1 0 0 0
0.25 0.36480287 0.02398083 1 0 0 0
0 0.36679232 0.023645867 -1 0 0 0
0.25 0.3705529 0.023647787 1 0 0 0
0 0.37133953 0.023264069 -1 0 0 0
0.25 0.37155244 0.023548983 1 0 0 0
0.25 0.37335455 0.023479696 1 0 0 0
0 0.37548175 0.023249708 -1 0 0 0
0.25 0.37589905 0.023571154 1 0 0 0
0 0.37730592 0.023286201 -1 0 0 0
0.25 0.38189471 0.023686389 1 0 0 0
0.25 0.38259119 0.023442581 1 0 0 0
0 0.38408196 0.023352712 -1 0 0 0
0 0.38647524 0.023630921 -1 0 0 0
0.25 0.3896752 0.023159361 1 0 0 0
0 0.39022666 0.023424901 -1 0 0 0
0 0.3914831 0.023089534 -1 0 0 0
0.25 0.39180905 0.023560975 1 0 0 0
0.25 0.39725032 0.023406928 1 0 0 0
0 0.39880908 0.023151057 -1 0 0 0
0.25 0.39974976 0.023280516 1 0 0 0
0 0.40452683 0.023374157 -1 0 0 0
0.25 0.40438476 0.0231093 1 0 0 0
0 0.40580499 0.023068508 -1 0 0 0
0 0.40850601 0.023639217 -1 0 0 0
0 0.40942773 0.023210764 -1 0 0 0
0.25 0.41063088 0.02324122 1 0 0 0
0 0.41240719 0.023300759 -1 0 0 0
0.25 0.41716751 0.023558952 1 0 0 0
0 0.42040843 0.023453608 -1 0 0 0
0 0.42275119 0.023957392 -1 0 0 0
0.25 0.42245156 0.023030052 1 0 0 0
0 0.42698342 0.023407932 -1 0 0 0
0.2482194 0.42678064 0.023294356 0.70710671 0.70710689 0 0
0.24797694 0.42702308 0.023574622 0.70710671 0.70710689 0 0
0.24536401 0.429636 0.023308681 0.70710671 0.70710689 0 0
0.24232723 0.4326728 0.02396789 0.70710671 0.70710689 0 0
0 0.43420097 0.023722585 -1 0 0 0
0.24013202 0.43486801 0.02303011 0.70710671 0.70710689 0 0
0.23781134 0.43718866 0.023110062 0.70710671 0.70710689 0 0
0.23625466 0.43874535 0.023211146 0.70710671 0.70710689 0 0
0 0.44689491 0.023050318 -1 0 0 0
0.22835676 0.44664323 0.023643637 0.70710671 0.70710689 0 0
0 0.44701082 0.023877077 -1 0 0 0
0.22711261 0.44788742 0.02350848 0.70710671 0.70710689 0 0
0.2252524 0.44974762 0.023578361 0.70710671 0.70710689 0 0
0.22467244 0.45032758 0.023000265 0.70710671 0.70710689 0 0
0 0.45160094 0.023183485 -1 0 0 0
0.22219527 0.45280474 0.023003938 0.70710671 0.70710689 0 0
0 0.45349175 0.023485206 -1 0 0 0
0.22135052 0.45364949 0.023182586 0.70710671 0.70710689 0 0
0 0.45487037 0.023084482 -1 0 0 0
0.21616149 0.45883852 0.023352176 0.70710671 0.70710689 0 0
0 0.45948359 0.023495043 -1 0 0 0
0.21280266 0.46219733 0.023117071 0.70710671 0.70710689 0 0
0.21082292 0.46417707 0.023881285 0.70710671 0.70710689 0 0
0.20755805 0.46744195 0.023541108 0.70710671 0.70710689 0 0
0.20464279 0.47035721 0.023622233 0.70710671 0.70710689 0 0
0 0.47349292 0.023064665 -1 0 0 0
0 0.47406158 0.023409989 -1 0 0 0
0 0.47860947 0.023545714 -1 0 0 0
0.19590594 0.47909403 0.023374287 0.70710671 0.70710689 0 0
0 0.48126462 0.023221809 -1 0 0 0
0.1914809 0.48351908 0.02374403 0.70710671 0.70710689 0 0
0.19000724 0.48499277 0.023996918 0.70710671 0.70710689 0 0
0 0.48705295 0.023483206 -1 0 0 0
0.18713248 0.48786753 0.023843484 0.70710671 0.70710689 0 0
0 0.48850995 0.023629267 -1 0 0 0
0.18498868 0.4900113 0.023209767 0.70710671 0.70710689 0 0
0.18379179 0.4912082 0.023569435 0.70710671 0.70710689 0 0
0.18270832 0.49229166 0.023638092 0.70710671 0.70710689 0 0
0.18102238 0.49397761 0.023509985 0.70710671 0.70710689 0 0
0 0.49696478 0.023705613 -1 0 0 0
0 0.49721423 0.023058195 -1 0 0 0
0 0.49830234 0.023616171 -1 0 0 0
5.8932976e-05 0.5 0.023290563 0 1 0 0
0.0017985315 0.5 0.023288744 0 1 0 0
0.0058083851 0.5 0.023111973 0 1 0 0
0.0063019702 0.5 0.023840254 0 1 0 0
0.0099084387 0.5 0.023366367 0 1 0 0
0.011833301 0.5 0.023412704 0 1 0 0
0.01387253 0.5 0.023910573 0 1 0 0
0.016690087 0.5 0.02319268 0 1 0 0
0.017399738 0.5 0.023368457 0 1 0 0
0.022906058 0.5 0.023737002 0 1 0 0
0.033574119 0.5 0.023242254 0 1 0 0
0.0349572 0.5 0.023252277 0 1 0 0
0.044125102 0.5 0.02340968 0 1 0 0
0.04643479 0.5 0.023937043 0 1 0 0
0.047705337 0.5 0.023588032 0 1 0 0
0.049830701 0.5 0.023446966 0 1 0 0
0.054594412 0.5 0.02370655 0 1 0 0
0.056256078 0.5 0.023452215 0 1 0 0
0.063366011 0.5 0.023453509 0 1 0 0
0.07469555 0.5 0.023893736 0 1 0 0
0.075477347 0.5 0.023216911 0 1 0 0
0.076263405 0.5 0.023556352 0 1 0 0
0.077163786 0.5 0.023889409 0 1 0 0
0.085241146 0.5 0.023169033 0 1 0 0
0.095930286 0.5 0.02323244 0 1 0 0
0.10116335 0.5 0.023681294 0 1 0 0
0.10395171 0.5 0.023669627 0 1 0 0
0.12428583 0.5 0.023889884 0 1 0 0
0.1277018 0.5 0.023941195 0 1 0 0
0.12986283 0.5 0.023014767 0 1 0 0
0.13024345 0.5 0.02365502 0 1 0 0
0.13158828 0.5 0.023015469 0 1 0 0
0.13628577 0.5 0.023125147 0 1 0 0
0.13865687 0.5 0.023343625 0 1 0 0
0.13986668 0.5 0.023324145 0 1 0 0
0.14460145 0.5 0.023094188 0 1 0 0
0.14793609 0.5 0.023493875 0 1 0 0
0.14899406 0.5 0.023653032 0 1 0 0
0.15180723 0.5 0.023094421 0 1 0 0
0.15280546 0.5 0.023481742 0 1 0 0
0.15762536 0.5 0.023415582 0 1 0 0
0.1582596 0.5 0.023473836 0 1 0 0
0.1604221 0.5 0.023074901 0 1 0 0
0.16205041 0.5 0.023249721 0 1 0 0
0.16744539 0.5 0.023505813 0 1 0 0
0.16844624 0.5 0.023490451 0 1 0 0
0.17133681 0.5 0.023167538 0 1 0 0
0.17452106 0.5 0.023759071 0 1 0 0
0.00015471131 4.7813071e-05 0.024825025 -0.70710677 -0.70710677 0 0
0.0046096649 0.00021637043 0.024632458 0 -0.70710677 0.70710677 0
0.0068207849 0.00047604184 0.025 0 0 1 0
0.0095495768 0 0.024773609 0 -1 0 0
0.010652841 0.00034669426 0.025 0 0 1 0
0.011949125 0.00012995847 0.025 0 0 1 0
0.012498484 0.0001186057 0.025 0 0 1 0
0.01319091 0 0.02467349 0 -1 0 0
0.016763199 0.00027436452 0.024774421 0 -0.70710677 0.70710677 0
0.017760886 0 0.024567444 0 -1 0 0
0.020072591 0.00098066987 0.025 0 0 1 0
0.02227366 0.00051317579 0.025 0 0 1 0
0.024529539 0.00078535324 0.025 0 0 1 0
0.026892439 0.00056561083 0.025 0 0 1 0
0.028903669 0.00042396589 0.025 0 0 1 0
0.031870048 0.00099120557 0.025 0 0 1 0
0.033032689 0.00019123532 0.025 0 0 1 0
0.03677712 0.00016328879 0.024857128 0 -0.89442718 0.44721359 0
0.040651988 0 0.024392139 0 -1 0 0
0.042582016 0.00017476076 0.025 0 0 1 0
0.044244342 0.0006416706 0.025 0 0 1 0
0.046920091 0.00084515125 0.025 0 0 1 0
0.047422305 0 0.024200186 0 -1 0 0
0.048879344 0 0.024292391 0 -1 0 0
0.0507452 0.0003718723 0.024664503 0 -0.70710677 0.70710677 0
0.051659159 0 0.024445567 0 -1 0 0
0.055491023 0 0.024442781 0 -1 0 0
0.056564882 0 0.024347261 0 -1 0 0
0.058420666 0.00041692334 0.024942709 0 -0.70710677 0.70710677 0
0.060448628 1.9443381e-05 0.024792148 0 -0.70710677 0.70710677 0
0.061318856 0.00029826787 0.024843566 0 -0.44721359 0.89442718 0
0.063878879 0 0.024748757 0 -1 0 0
0.064013213 0 0.024784276 0 -1 0 0
0.06632781 0 0.024903273 0 -1 0 0
0.067711197 0.00031019072 0.024519045 0 -0.70710677 0.70710677 0
0.068980701 0.00029848007 0.025 0 0 1 0
0.069230244 0 0.024478702 0 -1 0 0
0.073164053 0 0.024901016 0 -1 0 0
0.083133571 0 0.024948169 0 -1 0 0
0.084566198 0.00033922773 0.024565257 0 -0.70710677 0.70710677 0
0.086012393 0 0.024516117 0 -1 0 0
0.088222638 0 0.024564568 0 -1 0 0
0.089221038 0.00026680369 0.025 0 0 1 0
0.09248206 0 0.024620954 0 -1 0 0
0.093957618 0 0.024480682 0 -1 0 0
0.095606431 0 0.024211785 0 -1 0 0
0.098799124 0 0.024362223 0 -1 0 0
0.09928713 0.00060722232 0.025 0 0 1 0
0.1018424 0 0.024384163 0 -1 0 0
0.10202251 0 0.024363844 0 -1 0 0
0.10321382 0 0.024692837 0 -1 0 0
0.10558867 0 0.024637386 0 -1 0 0
0.10732985 0 0.024552446 0 -1 0 0
0.10865208 0.0001560808 0.025 0 0 1 0
0.11683559 0 0.024944201 0 -1 0 0
0.11740071 0.00018853036 0.025 0 0 1 0
0.12040424 0 0.024675068 0 -1 0 0
0.1236982 7.854819e-05 0.024786957 0 -0.70710677 0.70710677 0
0.12558278 0 0.024133131 0 -1 0 0
0.1261448 0 0.024128163 0 -1 0 0
0.12752913 0.00094431196 0.024999999 0 0 1 0
0.12893245 0 0.024187721 0 -1 0 0
0.13358025 0 0.024390146 0 -1 0 0
0.1361779 0.00025621575 0.024836663 0 -0.70710677 0.70710677 0
0.1373367 0 0.024196034 0 -1 0 0
0.1386442 0 0.024441039 0 -1 0 0
0.13983436 0 0.024358055 0 -1 0 0
0.14060867 0 0.02405218 0 -1 0 0
0.14228904 0.00049124681 0.024758194 0 -0.70710677 0.70710677 0
0.1477451 0 0.024081551 0 -1 0 0
0.14862369 0.00042996719 0.025 0 0 1 0
0.15061553 0.00055676932 0.025 0 0 1 0
0.15245199 0 0.024386093 0 -1 0 0
0.15341848 0.0002137585 0.025 0 0 1 0
0.15670651 0 0.024207152 0 -1 0 0
0.15768115 0.00099754741 0.024999999 0 0 1 0
0.15837096 0 0.024788843 0 -1 0 0
0.16075149 0 0.024366058 0 -1 0 0
0.16439638 0.00063885062 0.025 0 0 1 0
0.16595608 0 0.024165662 0 -1 0 0
0.1665858 0.00042176721 0.024999999 0 0 1 0
0.17003626 0.00061631546 0.025 0 0 1 0
0.17199004 0 0.024319515 0 -1 0 0
0.17364028 4.8670823e-05 0.025 0 0 1 0
0.17419893 0 0.024120443 0 -1 0 0
0.1764847 0.0008855128 0.025 0 0 1 0
0.17860594 0.00038163047 0.024945844 0 -0.70710677 0.70710677 0
0.17953035 0.0002540393 0.024882533 0 -0.70710677 0.70710677 0
0.1801955 0.00064447068 0.025 0 0 1 0
0.18436764 0 0.024401624 0 -1 0 0
0.1868653 0.00079373183 0.025 0 0 1 0
0.18707536 0 0.024525212 0 -1 0 0
0.1880818 0.00090352207 0.024999999 0 0 1 0
0.18914437 0 0.024730582 0 -1 0 0
0.19285953 0.00048514895 0.024692986 0 -0.70710677 0.70710677 0
0.19398057 0.00030318127 0.025 0 0 1 0
0.1969711 0 0.024309037 0 -1 0 0
0.19907083 0.00080932031 0.025 0 0 1 0
0.20054564 0.00039577752 0.025 0 0 1 0
0.2042139 0.00054419058 0.025 0 0 1 0
0.20666809 0.00026307159 0.025 0 0 1 0
0.20798765 0 0.024957299 0 -1 0 0
0.20874923 0 0.024133161 0 -1 0 0
0.21353263 0.00013161494 0.024779286 0 -0.70710677 0.70710677 0
0.21425295 0.00020837125 0.025 0 0 1 0
0.21561438 0 0.024226043 0 -1 0 0
0.22046417 0 0.024426349 0 -1 0 0
0.22169025 0 0.024101913 0 -1 0 0
0.2237373 0.00020881393 0.024563465 0 -0.70710677 0.70710677 0
0.2245587 0 0.024300307 0 -1 0 0
0.22538739 0.00032231759 0.024683999 0 -0.89442718 0.44721359 0
0.23049559 0 0.024777552 0 -1 0 0
0.23292083 0 0.024274521 0 -1 0 0
0.2344681 0.00017434335 0.025 0 0 1 0
0.23529282 9.7077589e-07 0.02463899 0 -0.70710677 0.70710677 0
0.24018879 0 0.02416932 0 -1 0 0
0.24374245 0 0.024632594 0 -1 0 0
0.24650162 0 0.024537748 0 -1 0 0
0.24970713 0.00031670035 0.024875987 0.70710677 -0.70710677 0 0
0.0062121945 0.001180427 0.025 0 0 1 0
0.01297078 0.0017735754 0.025 0 0 1 0
0.013776464 0.0011276245 0.025 0 0 1 0
0.014576817 0.0014316898 0.025 0 0 1 0
0.015854999 0.001410307 0.025 0 0 1 0
0.016305849 0.0018223309 0.025 0 0 1 0
0.023956418 0.0012290814 0.025 0 0 1 0
0.025270121 0.0011219304 0.025 0 0 1 0
0.031068958 0.0019540184 0.025 0 0 1 0
0.032164525 0.0013363028 0.025 0 0 1 0
0.03682109 0.0015157241 0.025 0 0 1 0
0.039726842 0.0017247363 0.025 0 0 1 0
0.04015157 0.0011188965 0.025 0 0 1 0
0.046941813 0.001911597 0.025 0 0 1 0
0.04788845 0.0017353297 0.025 0 0 1 0
0.053684641 0.0011821502 0.025 0 0 1 0
0.056459583 0.001816266 0.025 0 0 1 0
0.057218567 0.0015738276 0.025 0 0 1 0
0.058298565 0.0012530113 0.025 0 0 1 0
0.061704893 0.0018455165 0.025 0 0 1 0
0.077912062 0.0019968217 0.025 0 0 1 0
0.078230031 0.0010707745 0.025 0 0 1 0
0.083316393 0.0012846307 0.024999999 0 0 1 0
0.10271378 0.0015240521 0.025 0 0 1 0
0.10431793 0.0013530693 0.025 0 0 1 0
0.1062794 0.0017347734 0.025 0 0 1 0
0.10804938 0.0018270937 0.025 0 0 1 0
0.11466344 0.0017410675 0.025 0 0 1 0
0.12275103 0.0012892764 0.025 0 0 1 0
0.14206915 0.0015178163 0.025 0 0 1 0
0.14520267 0.001579185 0.025 0 0 1 0
0.14628308 0.0010467573 0.025 0 0 1 0
0.15291567 0.0018255786 0.025 0 0 1 0
0.15419938 0.0015253236 0.024999999 0 0 1 0
0.1551801 0.0017725388 0.024999999 0 0 1 0
0.15786597 0.0017854001 0.025 0 0 1 0
0.16157348 0.001926483 0.024999999 0 0 1 0
0.16747408 0.0013380786 0.025 0 0 1 0
0.17846805 0.0016405544 0.025 0 0 1 0
0.191007 0.0011968868 0.025 0 0 1 0
0.19261211 0.0015782103 0.025 0 0 1 0
0.19373058 0.0019639768 0.024999999 0 0 1 0
0.19523226 0.001051162 0.025 0 0 1 0
0.19773284 0.0018796488 0.025 0 0 1 0
0.19862434 0.0010684966 0.024999999 0 0 1 0
0.20030427 0.0019286906 0.025 0 0 1 0
0.20587489 0.0014150129 0.025 0 0 1 0
0.2145673 0.0013853714 0.024999999 0 0 1 0
0.21538828 0.0011613749 0.025 0 0 1 0
0.21784647 0.0016545689 0.024999999 0 0 1 0
0.2197907 0.0013724868 0.025 0 0 1 0
0.22465459 0.0014850964 0.025 0 0 1 0
0.22627088 0.0015497418 0.025 0 0 1 0
0.23717552 0.001266927 0.025 0 0 1 0
0.23804244 0.0015612326 0.025 0 0 1 0
0.23947154 0.0014364079 0.025 0 0 1 0
0.2410024 0.001501185 0.025 0 0 1 0
0.24320024 0.0012515015 0.025 0 0 1 0
0.24518393 0.0016662843 0.025 0 0 1 0
0.24753274 0.0014476121 0.025 0 0 1 0
0.24813557 0.0011618832 0.025 0 0 1 0
0 0.0028929927 0.024973482 -1 0 0 0
0.011565967 0.0020724307 0.025 0 0 1 0
0.017752884 0.0028945298 0.025 0 0 1 0
0.0181986 0.0021553286 0.025 0 0 1 0
0.020043058 0.0020348392 0.025 0 0 1 0
0.025320359 0.0025004549 0.025 0 0 1 0
0.0299413 0.0024258064 0.025 0 0 1 0
0.036540587 0.0029238721 0.025 0 0 1 0
0.03876305 0.0026468169 0.025 0 0 1 0
0.039740842 0.0024744726 0.025 0 0 1 0
0.043922402 0.0025879547 0.025 0 0 1 0
0.055292953 0.0021854208 0.025 0 0 1 0
0.065146029 0.0028936474 0.025 0 0 1 0
0.067327119 0.0026033849 0.025 0 0 1 0
0.068932287 0.002040325 0.025 0 0 1 0
0.077396944 0.0023481743 0.025 0 0 1 0
0.08148177 0.0024735895 0.024999999 0 0 1 0
0.084825397 0.0025767095 0.024999999 0 0 1 0
0.089502707 0.0023173434 0.025 0 0 1 0
0.098297521 0.0029773209 0.025 0 0 1 0
0.099845983 0.0022332789 0.025 0 0 1 0
0.10170309 0.0029461132 0.025 0 0 1 0
0.11025567 0.0025442389 0.025 0 0 1 0
0.112381 0.002919985 0.025 0 0 1 0
0.11372521 0.0021991259 0.025 0 0 1 0
0.12049499 0.0020110344 0.025 0 0 1 0
0.12141144 0.0029832402 0.025 0 0 1 0
0.13933255 0.0025851694 0.024999999 0 0 1 0
0.14235106 0.0027672765 0.025 0 0 1 0
0.14749123 0.0022144611 0.025 0 0 1 0
0.14809133 0.0021323243 0.024999999 0 0 1 0
0.15449303 0.0024156079 0.025 0 0 1 0
0.15974601 0.002412155 0.025 0 0 1 0
0.16018823 0.0025475237 0.025 0 0 1 0
0.16119443 0.0025041015 0.024999999 0 0 1 0
0.16222709 0.0024655072 0.025 0 0 1 0
0.16932392 0.0028815679 0.024999999 0 0 1 0
0.1713527 0.0021664724 0.025 0 0 1 0
0.17557098 0.002955168 0.025 0 0 1 0
0.17755637 0.0026843911 0.025 0 0 1 0
0.18257283 0.0021947885 0.025 0 0 1 0
0.19127847 0.002806911 0.025 0 0 1 0
0.19986483 0.002566769 0.025 0 0 1 0
0.20401049 0.0023572936 0.025 0 0 1 0
0.21214022 0.0020266913 0.025 0 0 1 0
0.21481729 0.0028645433 0.025 0 0 1 0
0.21765506 0.0020542175 0.025 0 0 1 0
0.22346583 0.0025076098 0.025 0 0 1 0
0.22672221 0.0028439411 0.025 0 0 1 0
0.22712876 0.0024752829 0.024999999 0 0 1 0
0.22815621 0.0028878239 0.025 0 0 1 0
0.23484111 0.0027694893 0.025 0 0 1 0
0.23586456 0.0023413834 0.025 0 0 1 0
0.24098811 0.0022499964 0.025 0 0 1 0
0.24183598 0.0027234969 0.025 0 0 1 0
0.24222392 0.002972387 0.025 0 0 1 0
0.24855493 0.0027577737 0.024999999 0 0 1 0
0.00071138144 0.0032545675 0.025 0 0 1 0
0.0029544728 0.0033211943 0.025 0 0 1 0
0.0059430478 0.0034097394 0.025 0 0 1 0
0.0088251941 0.003794862 0.025 0 0 1 0
0.011785246 0.0033969041 0.025 0 0 1 0
0.021026196 0.0032512106 0.025 0 0 1 0
0.022101259 0.0035960593 0.025 0 0 1 0
0.027042286 0.0039035846 0.025 0 0 1 0
0.028468261 0.0031497171 0.025 0 0 1 0
0.030009571 0.0037789289 0.025 0 0 1 0
0.032633912 0.0032089986 0.025 0 0 1 0
0.033309326 0.0034396492 0.025 0 0 1 0
0.034524575 0.0037999968 0.025 0 0 1 0
0.040663749 0.0036226995 0.025 0 0 1 0
0.044405196 0.0036270877 0.025 0 0 1 0
0.049996275 0.003639502 0.025 0 0 1 0
0.053376947 0.0035446391 0.025 0 0 1 0
0.054636892 0.0039287051 0.025 0 0 1 0
0.057301581 0.0032962498 0.025 0 0 1 0
0.058982167 0.0039316295 0.025 0 0 1 0
0.059500486 0.003410266 0.025 0 0 1 0
0.066239342 0.0036234353 0.025 0 0 1 0
0.07024084 0.0034660986 0.025 0 0 1 0
0.071603566 0.0034528212 0.025 0 0 1 0
0.07208477 0.0031622704 0.025 0 0 1 0
0.082434513 0.0034399643 0.025 0 0 1 0
0.08377593 0.0039735893 0.024999999 0 0 1 0
0.088659257 0.0038252515 0.024999999 0 0 1 0
0.10392955 0.0032717728 0.025 0 0 1 0
0.10455762 0.0034919127 0.025 0 0 1 0
0.10891447 0.0034187622 0.025 0 0 1 0
0.10944572 0.0033072701 0.025 0 0 1 0
0.11076477 0.0034471978 0.025 0 0 1 0
0.11110263 0.0033455438 0.025 0 0 1 0
0.11468026 0.0038553439 0.025 0 0 1 0
0.11512286 0.0034996709 0.025 0 0 1 0
0.11612026 0.0035410114 0.025 0 0 1 0
0.12950842 0.0031416984 0.024999999 0 0 1 0
0.13068193 0.0036094538 0.025 0 0 1 0
0.13448435 0.0038119575 0.024999999 0 0 1 0
0.13868432 0.0035502578 0.024999999 0 0 1 0
0.14208108 0.0039808876 0.025 0 0 1 0
0.14308563 0.0031658805 0.024999999 0 0 1 0
0.16607915 0.0037835238 0.025 0 0 1 0
0.16805422 0.0037205832 0.025 0 0 1 0
0.1707321 0.0030861511 0.024999999 0 0 1 0
0.17594117 0.0036030842 0.025 0 0 1 0
0.17848459 0.003601739 0.025 0 0 1 0
0.17964153 0.0035692796 0.025 0 0 1 0
0.19456759 0.0033198907 0.025 0 0 1 0
0.19937719 0.003577478 0.025 0 0 1 0
0.20372826 0.0032680666 0.025 0 0 1 0
0.20553914 0.0037290491 0.025 0 0 1 0
0.21206832 0.0031794573 0.025 0 0 1 0
0.2133868 0.0039507402 0.025 0 0 1 0
0.22094969 0.0030206062 0.025 0 0 1 0
0.22350244 0.0034157294 0.025 0 0 1 0
0.22731546 0.0036021941 0.025 0 0 1 0
0.23093314 0.0033283725 0.025 0 0 1 0
0.23370939 0.0039056833 0.025 0 0 1 0
0.23451377 0.0035383692 0.025 0 0 1 0
0.23845103 0.0034791306 0.025 0 0 1 0
0.23939817 0.0036433847 0.025 0 0 1 0
0.24044436 0.0032423837 0.025 0 0 1 0
0.24537268 0.0039228322 0.025 0 0 1 0
0.24627008 0.0030395696 0.025 0 0 1 0
0.24816319 0.0035349652 0.025 0 0 1 0
0.0053592268 0.0048037935 0.025 0 0 1 0
0.0090726092 0.0045389957 0.025 0 0 1 0
0.010584444 0.004906829 0.025 0 0 1 0
0.012036981 0.0045761475 0.025 0 0 1 0
0.018243818 0.0044476846 0.025 0 0 1 0
0.019653756 0.0041222796 0.025 0 0 1 0
0.020218194 0.0043130461 0.025 0 0 1 0
0.022825744 0.0044107451 0.025 0 0 1 0
0.023253912 0.004638908 0.025 0 0 1 0
0.026227513 0.0044240812 0.025 0 0 1 0
0.031795442 0.0048537059 0.025 0 0 1 0
0.032444417 0.0040577804 0.025 0 0 1 0
0.033501532 0.0045214221 0.025 0 0 1 0
0.046068374 0.0045614606 0.025 0 0 1 0
0.056069039 0.0041091861 0.025 0 0 1 0
0.06779106 0.0046892231 0.025 0 0 1 0
0.068493091 0.0048967805 0.025 0 0 1 0
0.0719245 0.0043903477 0.025 0 0 1 0
0.072779134 0.0046733692 0.025 0 0 1 0
0.077018328 0.0041319393 0.025 0 0 1 0
0.08237271 0.0042262091 0.025 0 0 1 0
0.091001786 0.0049166926 0.025 0 0 1 0
0.093239956 0.0040419786 0.024999999 0 0 1 0
0.097284064 0.0041915583 0.025 0 0 1 0
0.099023476 0.0045182323 0.025 0 0 1 0
0.10007987 0.0043430291 0.025 0 0 1 0
0.10438411 0.0041223601 0.025 0 0 1 0
0.11322821 0.0045056087 0.025 0 0 1 0
0.12215907 0.0041443757 0.025 0 0 1 0
0.12447947 0.0040887161 0.025 0 0 1 0
0.12629826 0.0047528655 0.025 0 0 1 0
0.13088608 0.0047546676 0.025 0 0 1 0
0.13130769 0.0042118942 0.025 0 0 1 0
0.14584626 0.0046184878 0.025 0 0 1 0
0.14798972 0.004197198 0.025 0 0 1 0
0.14881486 0.0047903699 0.025 0 0 1 0
0.1491434 0.004900103 0.025 0 0 1 0
0.15150183 0.0049077552 0.024999999 0 0 1 0
0.15259981 0.0045907004 0.024999999 0 0 1 0
0.15733497 0.0043004761 0.025 0 0 1 0
0.15980577 0.0040033106 0.024999999 0 0 1 0
0.16267185 0.0049491287 0.025 0 0 1 0
0.16402863 0.0044541378 0.025 0 0 1 0
0.17105271 0.0041636806 0.025 0 0 1 0
0.17351495 0.0046268133 0.024999999 0 0 1 0
0.1754635 0.0046527968 0.025 0 0 1 0
0.17889884 0.004278793 0.025 0 0 1 0
0.18248399 0.0048245438 0.025 0 0 1 0
0.18342942 0.0041793943 0.025 0 0 1 0
0.18439721 0.004032786 0.024999999 0 0 1 0
0.19998789 0.0041588037 0.025 0 0 1 0
0.20031482 0.0048583187 0.025 0 0 1 0
0.20304216 0.0041341158 0.025 0 0 1 0
0.20839234 0.0047456296 0.025 0 0 1 0
0.21125787 0.004041349 0.024999999 0 0 1 0
0.22516473 0.0049560359 0.025 0 0 1 0
0.23269381 0.0047452538 0.024999999 0 0 1 0
0.23599996 0.0045331772 0.025 0 0 1 0
0.23704408 0.0041192994 0.025 0 0 1 0
0.24040288 0.0044991807 0.025 0 0 1 0
0.0017908067 0.0054549742 0.025 0 0 1 0
0.0031028986 0.0053493623 0.025 0 0 1 0
0.0062137572 0.0054551442 0.025 0 0 1 0
0.013962072 0.0052928836 0.025 0 0 1 0
0.020169329 0.00592446 0.025 0 0 1 0
0.02588439 0.0051999702 0.025 0 0 1 0
0.027621619 0.0055458401 0.025 0 0 1 0
0.028207088 0.0051756552 0.025 0 0 1 0
0.030311849 0.0058506904 0.025 0 0 1 0
0.035093948 0.0052133715 0.025 0 0 1 0
0.037622701 0.0058286032 0.025 0 0 1 0
0.042451788 0.0059265713 0.025 0 0 1 0
0.045998767 0.0058468729 0.025 0 0 1 0
0.047558106 0.0059826905 0.025 0 0 1 0
0.05779146 0.0056478954 0.025 0 0 1 0
0.069251835 0.0056522205 0.025 0 0 1 0
0.070663646 0.0053774677 0.025 0 0 1 0
0.072375491 0.0056802789 0.025 0 0 1 0
0.076247677 0.0053040832 0.025 0 0 1 0
0.077742465 0.0051184883 0.025 0 0 1 0
0.080205716 0.0053883549 0.025 0 0 1 0
0.090045772 0.0050776317 0.025 0 0 1 0
0.093788646 0.0057390747 0.025 0 0 1 0
0.10188082 0.0050162072 0.025 0 0 1 0
0.1047907 0.0051132832 0.025 0 0 1 0
0.10755846 0.0053906408 0.025 0 0 1 0
0.10959144 0.0055157607 0.025 0 0 1 0
0.11191633 0.0054309182 0.025 0 0 1 0
0.1161612 0.0057353713 0.025 0 0 1 0
0.11722129 0.0059620258 0.025 0 0 1 0
0.12218077 0.0057527628 0.025 0 0 1 0
0.12543607 0.0051307785 0.025 0 0 1 0
0.12775502 0.0059162318 0.025 0 0 1 0
0.12814692 0.0053733173 0.025 0 0 1 0
0.1432897 0.0053732535 0.024999999 0 0 1 0
0.14861023 0.0054292083 0.024999999 0 0 1 0
0.16242504 0.005342674 0.025 0 0 1 0
0.17007045 0.0058397646 0.025 0 0 1 0
0.17461926 0.0051672058 0.024999999 0 0 1 0
0.17587273 0.0055629881 0.025 0 0 1 0
0.17665924 0.0059385225 0.025 0 0 1 0
0.18035096 0.0057350826 0.025 0 0 1 0
0.18225941 0.0056401556 0.024999999 0 0 1 0
0.18549037 0.0059603835 0.025 0 0 1 0
0.19232009 0.0056695323 0.025 0 0 1 0
0.20174325 0.0052718325 0.024999999 0 0 1 0
0.20392464 0.0056030499 0.025 0 0 1 0
0.21066776 0.0055502299 0.024999999 0 0 1 0
0.21646431 0.0051433924 0.025 0 0 1 0
0.2275092 0.0058083702 0.025 0 0 1 0
0.22826833 0.0059374492 0.025 0 0 1 0
0.2308118 0.0051128161 0.025 0 0 1 0
0.23262927 0.005850167 0.025 0 0 1 0
0.23414458 0.0055584684 0.025 0 0 1 0
0.23875758 0.0053287642 0.025 0 0 1 0
0.24112651 0.0059205992 0.025 0 0 1 0
0.0034341663 0.0067645777 0.025 0 0 1 0
0.008299686 0.006416956 0.025 0 0 1 0
0.010588815 0.0061915978 0.025 0 0 1 0
0.01881741 0.0067329332 0.025 0 0 1 0
0.025525082 0.0066836956 0.025 0 0 1 0
0.028026354 0.0062543075 0.025 0 0 1 0
0.032675505 0.0068743606 0.025 0 0 1 0
0.03994555 0.0061946418 0.025 0 0 1 0
0.042446963 0.0062021911 0.025 0 0 1 0
0.043558422 0.0068339896 0.025 0 0 1 0
0.044299975 0.0066337343 0.025 0 0 1 0
0.045175534 0.0061911792 0.025 0 0 1 0
0.06396199 0.0067467242 0.025 0 0 1 0
0.064779848 0.0065313447 0.025 0 0 1 0
0.066190466 0.0068779318 0.025 0 0 1 0
