# .PCD v0.7 - Point Cloud Data file format
VERSION 0.7
FIELDS x y z normal_x normal_y normal_z curvature
SIZE 4 4 4 4 4 4 4
TYPE F F F F F F F
COUNT 1 1 1 1 1 1 1
WIDTH 774
HEIGHT 1
VIEWPOINT 0 0 0 1 0 0 0
POINTS 774
DATA ascii
0.1341036 0.20176126 0.095869444 0.39840046 -0.91721159 0 0
0.11362841 0.20275664 0.095643379 -0.46006441 -0.88788557 0 0
0.11453692 0.20235179 0.095406644 -0.39840046 -0.91721153 0 0
0.11518241 0.20207137 0.095702037 -0.39840046 -0.91721159 0 0
0.13479249 0.20206051 0.095736288 0.39840046 -0.91721159 0 0
0.13535517 0.2023049 0.095476173 0.39840046 -0.91721159 0 0
0.13649125 0.20282085 0.095651627 0.48018396 -0.87716782 0 0
0.11194655 0.20374656 0.095351309 -0.51958334 -0.85441977 0 0
0.11269645 0.20329052 0.095480204 -0.51958334 -0.85441977 0 0
0.11311086 0.20303853 0.095184639 -0.51958334 -0.85441977 0 0
0.13685647 0.20301864 0.095178582 0.51958334 -0.85441977 0 0
0.13755555 0.20344378 0.095781006 0.51958334 -0.85441977 0 0
0.13819318 0.20383151 0.095287032 0.51958334 -0.85441977 0 0
0.11040843 0.20472114 0.095389187 -0.59515345 -0.80361205 0 0
0.13860242 0.2040804 0.095479786 0.51958334 -0.85441977 0 0
0.13950458 0.2046583 0.095563658 0.57668054 -0.81696975 0 0
0.10887372 0.20596635 0.095666051 -0.63108885 -0.77571052 0 0
0.10953338 0.20542966 0.095705695 -0.63108885 -0.77571058 0 0
0.11005838 0.20500256 0.095190182 -0.63108885 -0.77571052 0 0
0.11941401 0.20585449 0.095293209 0.26498228 0.96425331 0 0
0.12059899 0.20552886 0.095525503 0.26498228 0.96425331 0 0
0.12249792 0.2052151 0.095694877 0.11468461 0.993402 0 0
0.1235835 0.20508976 0.095562547 0.1146846 0.993402 0 0
0.12455168 0.20502687 0.095232278 -0.038304538 0.99926615 0 0
0.12556796 0.20506582 0.09548223 -0.038304538 0.99926615 0 0
0.12636006 0.20509617 0.095945276 -0.038304534 0.99926609 0 0
0.12723066 0.2051421 0.095759988 -0.08923173 0.99601096 0 0
0.128833 0.20543051 0.095870674 -0.19038808 0.98170894 0 0
0.12966301 0.20559148 0.095771797 -0.19038808 0.98170894 0 0
0.1304519 0.20578469 0.095375359 -0.27554011 0.96128953 0 0
0.14051372 0.20546798 0.095529824 0.63108885 -0.77571052 0 0
0.10799605 0.20668039 0.095276773 -0.63108885 -0.77571052 0 0
0.10844745 0.20631313 0.095223188 -0.63108885 -0.77571052 0 0
0.11729671 0.20659994 0.095542058 0.40906638 0.91250467 0 0
0.11837936 0.20614591 0.095546491 0.32767436 0.94479066 0 0
0.13150245 0.20614693 0.095535353 -0.33801818 0.94113964 0 0
0.13252191 0.20651309 0.095283478 -0.33801818 0.94113964 0 0
0.133397 0.20686719 0.095429651 -0.47771898 0.87851268 0 0
0.141664 0.20640382 0.095632508 0.63108885 -0.77571052 0 0
0.10684204 0.20790063 0.095138341 -0.73083705 -0.68255204 0 0
0.10743141 0.20726959 0.095848195 -0.73083705 -0.68255204 0 0
0.11467578 0.2079283 0.0955026 0.54356658 0.83936614 0 0
0.11571728 0.20730796 0.09564504 0.40906638 0.91250467 0 0
0.11628598 0.20705302 0.095464848 0.40906638 0.91250467 0 0
0.13470098 0.20757627 0.095585227 -0.47771904 0.87851274 0 0
0.1351153 0.20780155 0.095285192 -0.47771904 0.87851274 0 0
0.14268748 0.20736498 0.095311284 0.73883563 -0.67388558 -0.00041022094 0
0.14317802 0.20790261 0.095591344 0.73883563 -0.67388558 -0.00041022094 0
0.10646349 0.20830595 0.09506245 -0.73083705 -0.68255204 0 0
0.11363915 0.20859961 0.095317326 0.54356652 0.83936608 0 0
0.11432986 0.20815229 0.095036998 0.54356658 0.83936614 0 0
0.13572283 0.2081373 0.095489487 -0.51097012 0.85959846 0 0
0.13648374 0.20867951 0.095301531 -0.60622722 0.79529148 0 0
0.14351755 0.20827496 0.095480978 0.73883557 -0.67388552 -0.00041022094 0
0.14401102 0.20881402 0.095094457 0.73083591 -0.68255317 0 0
0.10540911 0.20951086 0.095497347 -0.78989458 -0.61324263 0 0
0.11191435 0.2099507 0.095418356 0.66532719 0.74655193 0 0
0.11276616 0.20919752 0.095527448 0.61836469 0.78589129 0 0
0.13791828 0.209773 0.095249847 -0.60622722 0.79529148 0 0
0.13812068 0.20992728 0.095743403 -0.60622722 0.79529148 0 0
0.14470388 0.20963305 0.095467165 0.79680437 -0.6042375 0 0
0.10462656 0.21061207 0.095565028 -0.81696856 -0.57668221 0 0
0.11090625 0.21084914 0.095610663 0.66532719 0.74655193 0 0
0.1115809 0.21024787 0.095630489 0.66532713 0.74655193 0 0
0.13836373 0.2101284 0.095606208 -0.72052068 0.69343352 0 0
0.13901377 0.21080382 0.09578649 -0.72052068 0.69343352 0 0
0.14534485 0.21051447 0.095199369 0.82323581 -0.56769896 -0.00079280301 0
0.10378589 0.21180302 0.095285483 -0.81696856 -0.57668221 0 0
0.10416202 0.21127018 0.095410913 -0.81696856 -0.57668221 0 0
0.10992949 0.21193175 0.095269278 0.77148974 0.63624179 0 0
0.11042762 0.21133991 0.095666654 0.7380268 0.67477143 0 0
0.13947648 0.21128461 0.0954886 -0.72052068 0.69343352 0 0
0.14009131 0.21192345 0.095835924 -0.72052068 0.69343352 0 0
0.14591166 0.21136476 0.095385365 0.83582371 -0.54899669 -0.0011886 0
0.10335763 0.21255441 0.09571106 -0.88788569 -0.46006414 0 0
0.10964597 0.21227553 0.095530175 0.77148974 0.63624179 0 0
0.14037997 0.21224329 0.09558291 -0.77148861 0.6362431 0 0
0.14664748 0.21252082 0.095733233 0.87166131 -0.4901087 0 0
0.10280732 0.21361645 0.09555044 -0.88788569 -0.46006408 0 0
0.10303281 0.21318127 0.095844984 -0.88788575 -0.46006411 0 0
0.10841839 0.21386877 0.095231853 0.85956937 0.51101917 0 0
0.14095722 0.21302502 0.095696002 -0.81792915 0.57531899 0 0
0.14130862 0.21352462 0.095393717 -0.81792915 0.57531899 0 0
0.14725485 0.21366498 0.095862038 0.90285033 -0.42995334 -0.0012130106 0
0.10231522 0.21456617 0.095346712 -0.88788575 -0.46006408 0 0
0.10788555 0.21476503 0.095446728 0.85956937 0.51101917 0 0
0.10831469 0.21404323 0.095354833 0.85956937 0.51101917 0 0
0.14170016 0.21408124 0.095569439 -0.81792915 0.57531899 0 0
0.14224635 0.21487543 0.095512904 -0.8673932 0.49762353 0 0
0.1477987 0.21477723 0.095688976 0.89095932 -0.45408314 -0.00024262411 0
0.10749539 0.2154213 0.095723845 0.85956937 0.51101911 0 0
0.14252579 0.2153908 0.095360219 -0.88813317 0.45958608 0.00018946633 0
0.14792366 0.21502718 0.095489062 0.88788569 -0.46006414 0 0
0.14819798 0.21571878 0.095825493 0.93027711 -0.36685768 0 0
0.10156583 0.21645778 0.095716208 -0.94226122 -0.33487892 0 0
0.10711457 0.21606189 0.095411107 0.85956937 0.51101917 0 0
0.14292845 0.21621771 0.095196873 -0.90293628 0.42977455 0 0
0.14844771 0.21638684 0.095480166 0.93834352 -0.34570396 -0.00041136105 0
0.10116218 0.21759355 0.09547665 -0.94226122 -0.33487889 0 0
0.10643347 0.21772154 0.095608957 0.92750221 0.37381759 0 0
0.14347924 0.21740542 0.095287859 -0.92317915 0.38436997 0 0
0.1488585 0.21763307 0.095448717 0.94778234 -0.31891733 -0.00061681319 0
0.10089945 0.21844825 0.095598862 -0.96291745 -0.26979631 0 0
0.10608747 0.21858002 0.095455267 0.92750221 0.37381759 0 0
0.14387074 0.21841946 0.095190182 -0.94433451 0.32898682 0.0001490639 0
0.14403537 0.21890214 0.095126696 -0.9533965 0.30171984 0.00059617352 0
0.14914811 0.21856861 0.095632054 0.96292144 -0.26978204 0 0
0.10071403 0.2192803 0.095283628 -0.97908413 -0.20345582 0 0
0.10581493 0.21946619 0.095695019 0.97369546 0.22785342 0 0
0.14419429 0.21943448 0.09534914 -0.95949304 0.28173214 0.00027103728 0
0.14942347 0.21970579 0.095659874 0.98542231 -0.17012165 -0.0012483303 0
0.10049462 0.22033618 0.095615737 -0.97908419 -0.20345582 0 0
0.10558076 0.22046684 0.095741458 0.97369546 0.22785342 0 0
0.14444476 0.22038515 0.095584393 -0.97070462 0.24027619 0 0
0.14955404 0.22046429 0.095356122 0.98542231 -0.17012165 -0.0012483303 0
0.10026027 0.22148855 0.095550157 -0.99353236 -0.11354928 0 0
0.10532459 0.22156453 0.095502965 0.98405176 0.17788222 0 0
0.14465986 0.22141001 0.09556856 -0.98348618 0.18098333 0.00015015001 0
0.14968982 0.22122347 0.095502943 0.98239475 -0.18681566 -0.00062425516 0
0.10016543 0.22258146 0.09538082 -0.99766874 -0.068243116 0 0
0.1051644 0.22285868 0.095039152 0.99706596 0.076548211 0 0
0.14481254 0.22235604 0.095511295 -0.99014932 0.14001447 0.00040041021 0
0.14985231 0.22242436 0.095382281 0.99475753 -0.10226211 0 0
0.10010191 0.22351015 0.095670357 -0.99766874 -0.068243116 0 0
0.10514034 0.2231719 0.095476866 0.9970659 0.076548204 0 0
0.1449248 0.22336103 0.095528074 -0.99600685 0.0892772 0 0
0.14993787 0.22369732 0.095184639 0.9994145 -0.034191575 -0.0012576289 0
0.10005625 0.22417781 0.095424309 -0.99766874 -0.068243116 0 0
0.10502648 0.22465499 0.095709085 0.99706596 0.076548211 0 0
0.1449883 0.22469454 0.095817849 -0.99926627 0.03830089 0 0
0.14998682 0.22480457 0.095419765 0.99837965 -0.056901406 -0.00041926387 0
0.10003781 0.2255526 0.095976025 -0.99766874 0.068242818 0 0
0.10503519 0.22545832 0.095635802 0.99706596 -0.076547839 0 0
0.14498611 0.22536214 0.09526325 -0.99926621 -0.038300518 0 0
0.14998215 0.22552228 0.09540049 0.99941683 0.034148403 0 0
0.1000935 0.22636685 0.095450521 -0.99766874 0.068242818 0 0
0.10510617 0.2263829 0.095385581 0.99706596 -0.076547839 0 0
0.14493114 0.2264607 0.095599979 -0.99706745 -0.07652881 0 0
0.14993939 0.2266022 0.095397212 0.99838054 0.056886815 -0.00041977441 0
0.10017208 0.2275157 0.095387228 -0.99766874 0.068242818 0 0
0.10520017 0.22760724 0.095193096 0.99706596 -0.076547839 0 0
0.14479804 0.22757611 0.095557772 -0.99338627 -0.1148144 0.001198002 0
0.1498251 0.22784042 0.095394239 0.99475753 0.10226209 0 0
0.10025704 0.22842106 0.095701478 -0.99068594 0.13616675 0 0
0.10534241 0.22851458 0.095425136 0.97369546 -0.22785342 0 0
0.14461879 0.22881001 0.095445089 -0.98170751 -0.19039504 0 0
0.14975399 0.22844386 0.095479943 0.99068594 0.13616681 0 0
0.10039118 0.22916606 0.095521256 -0.97908413 0.20345582 0 0
0.10556865 0.2294814 0.095410824 0.97369546 -0.22785342 0 0
0.14447704 0.22948606 0.095545769 -0.97192329 -0.23529784 0 0
0.14954849 0.22966644 0.095335759 0.98397291 0.17831801 -0.00015663555 0
0.10064025 0.23036465 0.095353156 -0.97908413 0.20345581 0 0
0.10582573 0.23057996 0.095640562 0.97369546 -0.22785342 0 0
0.14422256 0.23038602 0.095761165 -0.96416938 -0.26528475 0.0011865881 0
0.14940926 0.23034815 0.095351532 0.97621405 0.21680854 -0.0003759368 0
0.10084364 0.23134346 0.095519252 -0.97908419 0.20345582 0 0
0.10100941 0.2319766 0.09578523 -0.94226122 0.33487889 0 0
0.10614245 0.23155639 0.095467478 0.92750227 -0.37381762 0 0
0.14404126 0.23104355 0.09545204 -0.96416938 -0.26528475 0.0011865881 0
0.14917399 0.23133014 0.095435105 0.97156769 0.23676187 0 0
0.10122534 0.23258416 0.095313847 -0.94226122 0.33487886 0 0
0.10650171 0.23244777 0.095418766 0.92750221 -0.37381762 0 0
0.14357285 0.2324125 0.095263116 -0.92942655 -0.36900705 0 0
0.14887904 0.23235583 0.095651269 0.95314646 0.30250928 0 0
0.10158725 0.23360249 0.09529224 -0.94226122 0.33487889 0 0
0.10691181 0.23346527 0.095517516 0.92750221 -0.37381759 0 0
0.10705662 0.23382461 0.095403068 0.92750221 -0.37381762 0 0
0.14840995 0.23373811 0.095414661 0.93381232 0.35776347 -0.00017729745 0
0.10185093 0.23434444 0.095501155 -0.94226122 0.33487889 0 0
0.10204037 0.23487747 0.09562169 -0.94226122 0.33487889 0 0
0.10746962 0.23453534 0.095258847 0.85956937 -0.51101911 0 0
0.14256273 0.23453346 0.095336065 -0.89362276 -0.44881886 0.00028412783 0
0.14824024 0.23417404 0.095703699 0.93027711 0.36685768 0 0
0.10247298 0.23573829 0.09592247 -0.88788575 0.46006411 0 0
0.10782804 0.23513822 0.095546648 0.85956937 -0.51101917 0 0
0.10814549 0.23567221 0.095489696 0.85956937 -0.51101917 0 0
0.14184952 0.23570642 0.095321432 -0.81792915 -0.57531899 0 0
0.14210109 0.23534876 0.095575511 -0.81792915 -0.57531899 0 0
0.14783499 0.23516041 0.095569313 0.90307325 0.4294866 0 0
0.1028179 0.23640399 0.095350422 -0.88788575 0.46006414 0 0
0.10308545 0.23692031 0.095864639 -0.88788575 0.46006411 0 0
0.10853329 0.23632307 0.095374301 0.85166013 -0.52409452 0 0
0.14141159 0.236329 0.095470607 -0.81792915 -0.57531899 0 0
0.14724658 0.23638427 0.095480718 0.88788557 0.46006405 -0.00061144604 0
0.10329983 0.23733406 0.095540047 -0.88788575 0.46006408 0 0
0.10966203 0.23774397 0.095523603 0.77148974 -0.63624173 0 0
0.14053756 0.23754439 0.095590346 -0.77148861 -0.6362431 0 0
0.14659926 0.23756494 0.095482759 0.87166333 0.49010506 0 0
0.1043178 0.23895051 0.09517844 -0.81696856 0.57668221 0 0
0.11058083 0.2388473 0.095509492 0.72052133 -0.69343281 0 0
0.13956647 0.23862191 0.095492072 -0.72052062 -0.69343352 0 0
0.1458905 0.23870611 0.09549465 0.83617944 0.54845607 0 0
0.14625363 0.23815252 0.095267273 0.83617938 0.54845601 0 0
0.10464722 0.23941721 0.095561586 -0.81696856 0.57668221 0 0
0.1050096 0.23993056 0.095972717 -0.81696856 0.57668221 0 0
0.11087227 0.23912059 0.095507175 0.66532451 -0.74655432 0 0
0.14544231 0.23936792 0.095520131 0.82023823 0.57202202 -0.00030022423 0
0.10549896 0.24061039 0.095517732 -0.79911566 0.60117733 0 0
0.11191813 0.24005266 0.095229171 0.66532451 -0.74655426 0 0
0.11241736 0.24049757 0.095185019 0.66532451 -0.74655426 0 0
0.13751066 0.24053772 0.095557176 -0.60622722 -0.79529148 0 0
0.13812166 0.24007198 0.095524818 -0.60622722 -0.79529148 0 0
0.1446334 0.2404599 0.095343858 0.79680753 0.60423326 0 0
0.106427 0.24165496 0.09553583 -0.73083705 0.68255204 0 0
0.11380506 0.24150784 0.095600396 0.54356998 -0.83936381 0 0
0.11433359 0.24185012 0.095356286 0.54356998 -0.83936381 0 0
0.13590263 0.24176347 0.095462009 -0.60622722 -0.79529148 0 0
0.13659714 0.24123406 0.095532872 -0.60622722 -0.79529148 0 0
0.14359567 0.24165162 0.095388226 0.73902196 0.67368138 0 0
0.10729265 0.24258187 0.095226012 -0.73083705 0.68255204 0 0
0.1146597 0.24206132 0.095440112 0.54356998 -0.83936381 0 0
0.1154806 0.24257322 0.095545292 0.45508772 -0.8904466 0 0
0.13423125 0.24267916 0.095821626 -0.47771904 -0.87851268 0 0
0.1352421 0.24212949 0.095320426 -0.47771904 -0.87851268 0 0
0.14271779 0.2426099 0.09562546 0.73083586 0.68255311 -0.00033915477 0
0.14307863 0.24221881 0.095541358 0.7390219 0.67368138 0 0
0.10773613 0.24305671 0.095672831 -0.73083705 0.68255204 0 0
0.10834193 0.24360101 0.095493376 -0.63108623 0.77571267 0 0
0.11689741 0.24322107 0.095237292 0.40906638 -0.91250467 0 0
0.11723012 0.24337022 0.095658839 0.40906638 -0.91250467 0 0
0.11827908 0.24382067 0.095075674 0.31382871 -0.9494797 0 0
0.13159811 0.24381872 0.095332377 -0.33801815 -0.94113952 0 0
0.13313492 0.24326676 0.09566731 -0.33801815 -0.94113952 0 0
0.14158319 0.24366194 0.095621817 0.63108623 0.77571267 0 0
0.1421802 0.24315956 0.095299959 0.69133419 0.72253519 0 0
0.10890581 0.24405976 0.095534898 -0.63108623 0.77571267 0 0
0.10926285 0.24435024 0.095592663 -0.63108623 0.77571267 0 0
0.11943487 0.24415126 0.095438205 0.26498228 -0.96425331 0 0
0.12093405 0.24456324 0.09526664 0.26498228 -0.96425331 0 0
0.12182582 0.24470732 0.095535077 0.1146846 -0.993402 0 0
0.12238097 0.24477141 0.095354304 0.1146846 -0.993402 0 0
0.12350125 0.24490075 0.095515244 0.1146846 -0.993402 0 0
0.12467503 0.24496841 0.09556172 -0.038304538 -0.99926615 0 0
0.12523463 0.24494699 0.095524997 -0.038304538 -0.99926615 0 0
0.12624882 0.24490809 0.09576869 -0.038304534 -0.99926609 0 0
0.12770841 0.24478416 0.095346615 -0.15270309 -0.98827213 0 0
0.12852621 0.244629 0.095495619 -0.19038808 -0.98170894 0 0
0.12940255 0.24445905 0.095298886 -0.19038807 -0.98170894 0 0
0.13011512 0.24432087 0.095849752 -0.19038808 -0.98170894 0 0
0.14069602 0.24438369 0.095666036 0.63108623 0.77571267 0 0
0.11060999 0.24542789 0.095614173 -0.59056443 0.8069905 0 0
0.11140156 0.24592201 0.095349491 -0.5195865 0.8544178 0 0
0.13868378 0.24587013 0.095115699 0.51958656 0.85441786 0 0
0.13953434 0.24531807 0.095304407 0.59515268 0.80361265 0 0
0.11178972 0.24615808 0.095724732 -0.51958656 0.85441786 0 0
0.11255866 0.24662566 0.09518566 -0.5195865 0.8544178 0 0
0.11311134 0.24696177 0.095945865 -0.51958656 0.85441786 0 0
0.13752112 0.24657716 0.095445916 0.51958656 0.85441786 0 0
0.1383923 0.24604739 0.095288485 0.51958656 0.85441786 0 0
0.11369862 0.24728413 0.095516801 -0.39840046 0.91721159 0 0
0.11446911 0.24761879 0.095679738 -0.39840046 0.91721159 0 0
0.13492028 0.24788402 0.095199838 0.39840046 0.91721159 0 0
0.13531661 0.24771187 0.095444918 0.39840046 0.91721159 0 0
0.13638853 0.24723646 0.095637731 0.42944768 0.90309179 0 0
0.11568931 0.24814878 0.095525123 -0.39840046 0.91721159 0 0
0.11654526 0.24851176 0.095625468 -0.34773695 0.93759209 0 0
0.11745121 0.24878718 0.095476978 -0.26979637 0.96291739 0 0
0.13313593 0.24862267 0.095321521 0.26979691 0.96291727 0 0
0.13428572 0.24815963 0.095424958 0.39840046 0.91721159 0 0
0.11864103 0.24912053 0.09553507 -0.26979637 0.96291745 0 0
0.11968842 0.249414 0.095060498 -0.26979637 0.96291745 0 0
0.12036549 0.24953921 0.095870413 -0.13616715 0.99068588 0 0
0.1213679 0.249677 0.095567405 -0.13616715 0.99068594 0 0
0.12242062 0.24982168 0.095522307 -0.13616715 0.99068588 0 0
0.12359419 0.24993752 0.095594287 -0.045483291 0.99896508 0 0
0.12439711 0.24994171 0.095553398 0 1 0 0
0.12522542 0.24994171 0.095418908 0 1 0 0
0.12675543 0.24993131 0.0953722 0.10230395 0.99475318 0 0
0.12798212 0.24976635 0.095152967 0.13616684 0.99068594 0 0
0.12836719 0.24971342 0.09533526 0.13616684 0.99068594 0 0
0.12962133 0.24954103 0.095683493 0.13616684 0.99068594 0 0
0.13052419 0.24935444 0.095328942 0.26979691 0.96291727 0 0
0.13133347 0.24912769 0.095462881 0.26979691 0.96291727 0 0
0.11871592 0.20085847 0.096252561 -0.26979637 -0.96291745 0 0
0.11952578 0.20063157 0.096378647 -0.26979637 -0.96291739 0 0
0.12042601 0.20045248 0.096413597 -0.13616715 -0.99068588 0 0
0.12129971 0.2003324 0.09664353 -0.13616715 -0.99068594 0 0
0.12256389 0.20015861 0.09662997 -0.13616715 -0.99068588 0 0
0.12361161 0.20005828 0.096590497 0 -1 0 0
0.12468501 0.20005828 0.09647882 0 -1 0 0
0.12555166 0.20005827 0.096588843 0 -1 0 0
0.12644711 0.20005828 0.096768297 0 -1 0 0
0.12794816 0.200229 0.096813813 0.13616684 -0.99068594 0 0
0.12834519 0.20028356 0.096590653 0.13616684 -0.99068594 0 0
0.12944463 0.20043468 0.096333176 0.13616684 -0.99068594 0 0
0.1305185 0.20064485 0.096371584 0.25099328 -0.96798879 0 0
0.1313898 0.20088808 0.096718907 0.26979691 -0.96291727 0 0
0.1156293 0.20187728 0.096282817 -0.39840046 -0.91721159 0 0
0.11630714 0.20158345 0.096663058 -0.35627055 -0.9343828 0 0
0.11745082 0.20121294 0.096958369 -0.26979637 -0.96291745 0 0
0.13198675 0.20105536 0.096367516 0.26979691 -0.96291727 0 0
0.1326831 0.20125046 0.096467346 0.26979691 -0.96291727 0 0
0.13340898 0.20147282 0.096318118 0.35627079 -0.9343828 0 0
0.13429496 0.20184438 0.096480593 0.39840046 -0.91721159 0 0
0.11359522 0.2027608 0.096813947 -0.39840046 -0.91721159 0 0
0.11449563 0.2023697 0.096563414 -0.39840046 -0.91721159 0 0
0.13547501 0.20235695 0.09653528 0.39840046 -0.91721159 0 0
0.13626911 0.20270187 0.096894547 0.39840046 -0.91721159 0 0
0.11196057 0.203738 0.096456431 -0.51958334 -0.85441977 0 0
0.11233231 0.20351195 0.096559852 -0.51958334 -0.85441977 0 0
0.13793173 0.20367256 0.096605137 0.51958334 -0.85441977 0 0
0.11067452 0.20454021 0.096387729 -0.54269385 -0.83993059 0 0
0.11121339 0.20419239 0.096481919 -0.51958334 -0.85441977 0 0
0.13859057 0.20407319 0.096358955 0.51958334 -0.85441977 0 0
0.13946883 0.20462357 0.096456766 0.59515351 -0.80361205 0 0
0.10918226 0.20571533 0.096511424 -0.63108885 -0.77571052 0 0
0.11895302 0.20598118 0.096567877 0.26498228 0.96425331 0 0
0.1197698 0.20575672 0.096202016 0.26498228 0.96425331 0 0
0.12046949 0.20556442 0.096392944 0.26498228 0.96425331 0 0
0.12140027 0.20534585 0.096676305 0.15259469 0.98828888 0 0
0.12261388 0.2052017 0.096853808 0.1146846 0.993402 0 0
0.12338447 0.20511274 0.096449092 0.1146846 0.993402 0 0
0.1244375 0.20503159 0.096597381 0.012725025 0.99991906 0 0
0.12586667 0.20507726 0.096781217 -0.038304538 0.99926615 0 0
0.12624025 0.20509158 0.096485399 -0.038304538 0.99926615 0 0
0.12758537 0.20519431 0.096326113 -0.14005877 0.99014318 0 0
0.12859675 0.20538467 0.096928284 -0.19038808 0.98170894 0 0
0.12947728 0.20555544 0.096398011 -0.19038807 0.98170888 0 0
0.1304937 0.20579565 0.096369728 -0.2649807 0.96425372 0 0
0.13107502 0.20599341 0.096995898 -0.33801818 0.94113964 0 0
0.14057425 0.20551723 0.096692361 0.63108885 -0.77571052 0 0
0.14105849 0.20591119 0.096465208 0.63108885 -0.77571052 0 0
0.10839521 0.20635565 0.096470997 -0.63108885 -0.77571052 0 0
0.11663651 0.20689589 0.096563376 0.40906638 0.91250467 0 0
0.11764538 0.20644362 0.096591651 0.40906635 0.91250455 0 0
0.11847019 0.20612013 0.096323133 0.28946784 0.95718777 0 0
0.1315048 0.20614776 0.096590549 -0.33801818 0.94113958 0 0
0.13262205 0.20654905 0.096697278 -0.33801818 0.94113958 0 0
0.13323371 0.20678933 0.096329004 -0.43227935 0.90173978 0 0
0.1416162 0.20636493 0.096341819 0.63108885 -0.77571052 0 0
0.14215428 0.20681891 0.09651494 0.66174585 -0.74972826 0 0
0.10692247 0.20781451 0.096545376 -0.73083705 -0.68255204 0 0
0.10732796 0.20738034 0.096434638 -0.73083705 -0.68255204 0 0
0.11480941 0.20784175 0.096778437 0.54356658 0.83936614 0 0
0.1156419 0.2073452 0.096491612 0.45508653 0.89044726 0 0
0.11618947 0.20709628 0.096199214 0.40906638 0.91250467 0 0
0.13364185 0.20700033 0.096319236 -0.47771904 0.87851274 0 0
0.13492367 0.20769736 0.096128836 -0.47771904 0.87851274 0 0
0.13515426 0.20782275 0.096590638 -0.47771904 0.87851268 0 0
0.14267685 0.20735438 0.096471652 0.72960526 -0.68386847 -0.00032829819 0
0.14320081 0.20792682 0.096889764 0.73883563 -0.67388558 -0.00041022094 0
0.10592081 0.20888704 0.096287653 -0.73083705 -0.68255204 0 0
0.10661676 0.20814186 0.096553206 -0.73083705 -0.68255204 0 0
0.11349728 0.20869148 0.096843332 0.54356658 0.83936614 0 0
0.13566338 0.20809959 0.096863955 -0.47771904 0.87851274 0 0
0.13633484 0.208566 0.096274614 -0.60622722 0.79529148 0 0
0.14354907 0.20830898 0.096334219 0.73883557 -0.67388552 -0.00041022094 0
0.14412177 0.20893261 0.096351981 0.73083591 -0.68255317 0 0
0.10566795 0.20915778 0.096910089 -0.73083705 -0.68255204 0 0
0.11232637 0.20958352 0.096564069 0.66532719 0.74655193 0 0
0.13765539 0.2095726 0.096554197 -0.60622722 0.79529148 0 0
0.1445882 0.20949286 0.096647143 0.77571911 -0.6310783 0 0
0.10484674 0.21030019 0.096459977 -0.81696856 -0.57668221 0 0
0.10501152 0.21006671 0.096112967 -0.81696856 -0.57668221 0 0
0.11088322 0.21086964 0.096120015 0.66532719 0.74655193 0 0
0.11136808 0.21043754 0.096550018 0.66532719 0.74655193 0 0
0.13856456 0.21033892 0.096439771 -0.70520568 0.70900273 0 0
0.13919672 0.21099393 0.096169278 -0.72052068 0.69343352 0 0
0.14538808 0.21057634 0.096331656 0.82066661 -0.57140684 -0.00071355177 0
0.1036798 0.21195333 0.09684734 -0.81696856 -0.57668221 0 0
0.10421448 0.21119587 0.096780241 -0.81696856 -0.57668221 0 0
0.1099523 0.21190409 0.096673869 0.77148974 0.63624179 0 0
0.11022652 0.21157157 0.096503325 0.77148968 0.63624185 0 0
0.13967513 0.21149102 0.096456811 -0.72052062 0.69343346 0 0
0.14598618 0.21147579 0.096502379 0.83582371 -0.54899669 -0.0011886 0
0.14608984 0.21162677 0.096749842 0.82335705 -0.5675236 -0.00039624944 0
0.10327303 0.21271767 0.096660204 -0.88788575 -0.46006411 0 0
0.10949979 0.2124528 0.09667249 0.77148974 0.63624179 0 0
0.14048889 0.21239121 0.09647505 -0.78116608 0.62432331 0 0
0.14686346 0.21290493 0.096457519 0.87166137 -0.4901087 0 0
0.10284097 0.21355154 0.096498385 -0.88788575 -0.46006411 0 0
0.10871865 0.21342438 0.096523896 0.79525906 0.60626984 0 0
0.14127685 0.21347941 0.096379161 -0.81792909 0.57531899 0 0
0.14696854 0.21309182 0.096343383 0.87166131 -0.4901087 0 0
0.14712591 0.21339893 0.096680224 0.88250816 -0.47029701 -0.00040454339 0
0.10241123 0.21438088 0.096566185 -0.88788569 -0.46006414 0 0
0.10776299 0.21497118 0.096936464 0.85956937 0.51101917 0 0
0.14209642 0.2146446 0.096671611 -0.81792915 0.57531899 0 0
0.14773908 0.21466605 0.096370362 0.89298618 -0.45008385 -0.00040438774 0
0.10177101 0.21588047 0.096142963 -0.94226122 -0.33487889 0 0
0.10739695 0.21558692 0.096561231 0.85956937 0.51101911 0 0
0.14265601 0.2156544 0.0965207 -0.89486825 0.44633034 7.5783268e-05 0
0.1481366 0.21556313 0.096429609 0.93027705 -0.36685765 0 0
0.10138632 0.21696289 0.09632875 -0.94226122 -0.33487889 0 0
0.10676125 0.21690826 0.09613128 0.92750221 0.37381762 0 0
0.10707155 0.2161534 0.096612178 0.90722376 0.42064843 0 0
0.14305583 0.21648532 0.096009359 -0.90293628 0.42977455 0 0
0.14840671 0.21625355 0.096599236 0.93517351 -0.35418987 -0.00024678119 0
0.1065841 0.21734782 0.096467882 0.92750221 0.37381762 0 0
0.14339271 0.2171931 0.096321687 -0.90293628 0.42977455 0 0
0.14888951 0.21772671 0.096413143 0.94778228 -0.3189173 -0.00061681319 0
0.10087626 0.21850245 0.096353747 -0.97493631 -0.22248445 0 0
0.10594816 0.21892567 0.096607305 0.92750221 0.37381762 0 0
0.1061362 0.2184591 0.096759252 0.92750221 0.37381762 0 0
0.14389364 0.21848066 0.096589319 -0.94538009 0.32597008 0.00019875691 0
0.1491559 0.21859555 0.096406281 0.97156775 -0.23676185 0 0
0.10063126 0.21967864 0.096549392 -0.97908419 -0.20345582 0 0
0.10584921 0.21931966 0.096655548 0.97369546 0.22785342 0 0
0.14423835 0.2195888 0.096701108 -0.96079123 0.27727297 0.00019875693 0
0.14934175 0.21937367 0.096579894 0.97470003 -0.2235167 -0.00024975868 0
0.10046731 0.22046754 0.096326433 -0.97908413 -0.20345582 0 0
0.10555966 0.22055702 0.096592672 0.97369546 0.22785342 0 0
0.14455421 0.22085698 0.096370198 -0.98170757 0.19039507 0 0
0.14957644 0.22058581 0.096483059 0.98542225 -0.17012165 -0.0012483305 0
0.10029922 0.22127643 0.096325077 -0.97908413 -0.20345582 0 0
0.10532627 0.22156101 0.096341699 0.98169768 0.19044608 0 0
0.14465323 0.22137213 0.096784286 -0.98517478 0.17155325 0.00030031378 0
0.10016775 0.22254762 0.096486047 -0.99766874 -0.068243116 0 0
0.10521257 0.22223131 0.096670873 0.99706596 0.076548211 0 0
0.14482526 0.22248323 0.096846856 -0.99185717 0.12735561 0.00020020512 0
0.14982924 0.22219992 0.09630356 0.99475747 -0.1022621 0 0
0.10509857 0.22371617 0.096096978 0.9970659 0.076548204 0 0
0.14494009 0.22358273 0.096471317 -0.99706602 0.076545611 0 0
0.14993906 0.22367813 0.096655704 0.99941444 -0.034191571 -0.0012576288 0
0.10003053 0.22455375 0.096756473 -0.99766874 -0.068243116 0 0
0.10504612 0.22439927 0.096359216 0.99706584 0.076548204 0 0
0.14497733 0.22440879 0.096592493 -0.99926621 0.03830089 0 0
0.14996639 0.22444816 0.096449047 0.99868691 -0.051225886 -0.00062890601 0
0.10003239 0.22547351 0.096374512 -0.99766874 0.068242818 0 0
0.10503967 0.22551666 0.096209571 0.99706596 -0.076547839 0 0
0.14497653 0.22561261 0.096540406 -0.99926627 -0.038300522 0 0
0.14998826 0.22534373 0.096278802 0.99941677 0.034148403 0 0
0.10011923 0.22674306 0.096367903 -0.99766874 0.068242811 0 0
0.10511512 0.22649932 0.096910603 0.99706596 -0.076547839 0 0
0.14489174 0.226852 0.09623275 -0.98828053 -0.15264848 0 0
0.14994252 0.22654849 0.096622266 0.9980408 0.062566184 -0.00031487667 0
0.10016948 0.22747773 0.096645363 -0.99766874 0.068242818 0 0
0.10519432 0.22753103 0.096437953 0.99706596 -0.076547839 0 0
0.1447906 0.22765414 0.096554965 -0.99263585 -0.12113236 0.00099843624 0
0.14986293 0.22747247 0.096268661 0.99475747 0.10226208 0 0
0.10035058 0.22897068 0.096307874 -0.97908413 0.20345582 0 0
0.10528814 0.22828268 0.096356817 0.97369546 -0.22785342 0 0
0.1446569 0.22861356 0.096205853 -0.98170751 -0.19039504 0 0
0.14978188 0.22826074 0.096336789 0.99475753 0.10226209 0 0
0.1004678 0.22953479 0.09617231 -0.97908419 0.20345582 0 0
0.10558094 0.22953385 0.09641853 0.97369546 -0.2278534 0 0
0.14452301 0.2293039 0.096376024 -0.98170751 -0.19039504 0 0
0.14959037 0.22942941 0.096299507 0.98545915 0.16991277 0 0
0.10065267 0.23042446 0.096375503 -0.97908419 0.20345582 0 0
0.10569856 0.23003656 0.096055813 0.97369546 -0.22785342 0 0
0.14417697 0.23055497 0.096499592 -0.96416938 -0.26528475 0.0011865881 0
0.1494215 0.23029719 0.096588843 0.97705275 0.21299717 -0.00044753449 0
0.10088016 0.23151919 0.096397206 -0.97908413 0.20345582 0 0
0.10101244 0.23198512 0.096637294 -0.94226122 0.33487889 0 0
0.10598041 0.23115432 0.09650252 0.92750221 -0.37381762 0 0
0.10626587 0.23186263 0.096338183 0.92750221 -0.37381762 0 0
0.14382501 0.23171079 0.09664619 -0.94114059 -0.33801544 0 0
0.14909482 0.23163921 0.096495621 0.96592772 0.25881174 0 0
0.1012263 0.23258686 0.096452653 -0.94226122 0.33487889 0 0
0.10635254 0.23207766 0.096019462 0.92750221 -0.37381762 0 0
0.14360595 0.23232013 0.096353553 -0.92942655 -0.36900705 0 0
0.14891812 0.23223273 0.096352331 0.95314646 0.30250928 0 0
0.10163323 0.23373187 0.096601307 -0.94226122 0.33487889 0 0
0.10689548 0.23342481 0.096174419 0.92750221 -0.37381762 0 0
0.10700241 0.2336901 0.096760966 0.92750221 -0.37381762 0 0
0.14293376 0.23377116 0.096265107 -0.90293628 -0.42977449 0 0
0.14315034 0.23331611 0.096601985 -0.90293628 -0.42977446 0 0
0.14845087 0.23363668 0.096390463 0.93838805 0.3455832 -0.00041369838 0
0.10198125 0.23471111 0.096361026 -0.94226122 0.33487889 0 0
0.10753162 0.23463961 0.096515693 0.85956937 -0.51101911 0 0
0.1425885 0.23448111 0.096657708 -0.89104986 -0.45390546 0.00018945639 0
0.14798167 0.23482972 0.096701413 0.93027711 0.36685768 0 0
0.14803548 0.23469329 0.096202478 0.93027711 0.36685768 0 0
0.10254446 0.23587623 0.096259281 -0.88788575 0.46006411 0 0
0.10833073 0.23598379 0.0964531 0.85956937 -0.51101917 0 0
0.14188345 0.23565821 0.096812211 -0.81792909 -0.57531899 0 0
0.14215432 0.23527043 0.096603483 -0.84355611 -0.53704101 0 0
0.14760463 0.23564476 0.096399643 0.90307325 0.4294866 0 0
0.10272083 0.23621663 0.096299738 -0.88788575 0.46006411 0 0
0.10857737 0.23639296 0.096317738 0.83939594 -0.54352045 0 0
0.10904388 0.23699439 0.09619265 0.77148974 -0.63624179 0 0
0.14123823 0.23657548 0.096415251 -0.81792915 -0.57531899 0 0
0.14723115 0.23640998 0.096467867 0.88788575 0.46006396 -0.00012234625 0
0.1034587 0.23764066 0.09655115 -0.88788575 0.46006408 0 0
0.10967801 0.23776332 0.096765131 0.77148974 -0.63624179 0 0
0.14036132 0.23779003 0.096346311 -0.75495887 -0.65577209 0 0
0.14667089 0.23743755 0.096436493 0.87166339 0.490105 0 0
0.10386149 0.23830408 0.096490391 -0.81696856 0.57668215 0 0
0.1041612 0.23872866 0.096467309 -0.81696856 0.57668221 0 0
0.10988922 0.23801944 0.096628465 0.77148974 -0.63624179 0 0
0.11031915 0.23854077 0.09627673 0.77148974 -0.63624179 0 0
0.13971089 0.23847184 0.096004285 -0.72052068 -0.69343352 0 0
0.14009109 0.23807676 0.096533559 -0.72052068 -0.69343352 0 0
0.14586841 0.23873985 0.096423537 0.83617938 0.54845601 0 0
0.14615999 0.23829532 0.096591681 0.83617938 0.54845601 0 0
0.1046277 0.23938951 0.096317492 -0.81696856 0.57668221 0 0
0.11086097 0.23911051 0.096438572 0.66532445 -0.74655426 0 0
0.11147501 0.23965774 0.096349552 0.66532451 -0.74655432 0 0
0.13855526 0.23966624 0.096395709 -0.68420696 -0.72928792 0 0
0.13911609 0.23908986 0.096525282 -0.72052068 -0.69343352 0 0
0.14534532 0.23950143 0.096655548 0.81696957 0.57668072 -0.00020017217 0
0.10559113 0.24073526 0.096526064 -0.76950771 0.63863754 0 0
0.11261714 0.2406756 0.096754178 0.66532451 -0.74655432 0 0
0.13696064 0.24095698 0.096274897 -0.60622722 -0.79529148 0 0
0.13742021 0.24060668 0.096739985 -0.60622722 -0.79529148 0 0
0.14435163 0.24081589 0.096697636 0.75404549 0.65682214 0 0
0.10585544 0.24104296 0.096086361 -0.73083705 0.68255204 0 0
0.10633063 0.24155177 0.09666957 -0.73083705 0.68255204 0 0
0.11339389 0.24124157 0.096440926 0.54356998 -0.83936387 0 0
0.11452412 0.2419735 0.096176401 0.54356998 -0.83936381 0 0
0.13567311 0.24189511 0.096102722 -0.47771904 -0.87851274 0 0
0.13661733 0.24121869 0.096627071 -0.60622722 -0.79529148 0 0
0.14367235 0.24156752 0.096619427 0.73902196 0.67368138 0 0
0.10687338 0.2421329 0.096442103 -0.73083705 0.68255204 0 0
0.10742965 0.24272855 0.096590787 -0.73083705 0.68255204 0 0
0.11482307 0.24216709 0.09629254 0.54356998 -0.83936381 0 0
0.11542227 0.24254233 0.096606411 0.52200311 -0.85294354 0 0
0.11621849 0.24291672 0.096778676 0.40906638 -0.91250467 0 0
0.13371028 0.24296246 0.096738026 -0.47771904 -0.87851274 0 0
0.13447449 0.2425469 0.096467353 -0.47771898 -0.87851268 0 0
0.13537958 0.24205473 0.09616556 -0.47771904 -0.87851274 0 0
0.14263578 0.24269813 0.09642303 0.73083586 0.68255317 -0.00033915477 0
0.14307754 0.24222003 0.09627565 0.73902196 0.67368138 0 0
0.10783359 0.24316107 0.096495785 -0.73083705 0.68255204 0 0
0.10847063 0.2437057 0.096430965 -0.63108629 0.77571267 0 0
0.11664468 0.2431078 0.096516825 0.40906638 -0.91250467 0 0
0.11731662 0.24340901 0.096607722 0.40906638 -0.91250467 0 0
0.11809918 0.24375981 0.096465997 0.40906638 -0.91250467 0 0
0.13142458 0.24388105 0.096858479 -0.33801815 -0.94113952 0 0
0.13249183 0.24349773 0.096434787 -0.33801818 -0.94113958 0 0
0.13345027 0.24310246 0.096355096 -0.45062456 -0.89271355 0 0
0.14142567 0.24379006 0.096412227 0.63108623 0.77571267 0 0
0.14207789 0.24325573 0.096374214 0.66174453 0.74972934 0 0
0.10939436 0.24445722 0.096789718 -0.63108623 0.77571267 0 0
0.1100594 0.24499828 0.096770175 -0.63108623 0.77571267 0 0
0.11937662 0.24413526 0.096441105 0.26498228 -0.96425331 0 0
0.1205624 0.24446109 0.096361451 0.26498228 -0.96425331 0 0
0.12140778 0.24464439 0.096419275 0.19039208 -0.98170817 0 0
0.12225024 0.24475631 0.096674845 0.1146846 -0.99340189 0 0
0.12346812 0.24489692 0.096292347 0.1146846 -0.993402 0 0
0.12462169 0.24497037 0.096380591 -0.012827245 -0.99991769 0 0
0.12561047 0.24493256 0.096263237 -0.038304538 -0.99926615 0 0
0.12653679 0.24489704 0.096221246 -0.038304538 -0.99926615 0 0
0.12738685 0.24484162 0.096433416 -0.14728831 -0.9890936 0 0
0.12873931 0.24458766 0.096276462 -0.19038808 -0.98170894 0 0
0.13037324 0.24424446 0.096680403 -0.2402246 -0.97071737 0 0
0.13104582 0.24401708 0.096519336 -0.33801818 -0.94113964 0 0
0.14029869 0.24470694 0.096561141 0.63108629 0.77571267 0 0
0.14102514 0.24411593 0.096207924 0.63108623 0.77571267 0 0
0.11055703 0.24538286 0.096447989 -0.59056437 0.8069905 0 0
0.11140294 0.24592286 0.096653223 -0.51958656 0.85441786 0 0
0.13867472 0.24587566 0.09630578 0.51958656 0.85441786 0 0
0.13969369 0.24519865 0.096583702 0.60426748 0.7967816 0 0
0.1118573 0.24619918 0.096768551 -0.5195865 0.8544178 0 0
0.11257678 0.2466367 0.09658996 -0.5195865 0.8544178 0 0
0.11306998 0.24693662 0.096416831 -0.51958656 0.85441786 0 0
0.13697374 0.24691005 0.096962549 0.51958656 0.85441786 0 0
0.13741839 0.24663964 0.096474096 0.51958656 0.85441786 0 0
0.13823844 0.24614096 0.096214421 0.5195865 0.8544178 0 0
0.11343229 0.24714461 0.096362375 -0.47216877 0.88150811 0 0
0.11415729 0.24748334 0.096372277 -0.39840046 0.91721159 0 0
0.11507156 0.24788046 0.096923575 -0.39840046 0.91721159 0 0
0.13548078 0.24764055 0.096374661 0.39840046 0.91721159 0 0
0.13649115 0.24720043 0.096384674 0.46006608 0.88788474 0 0
0.11565918 0.2481357 0.096313842 -0.39840046 0.91721159 0 0
0.1162709 0.24840142 0.09623336 -0.39840046 0.91721159 0 0
0.11742525 0.24877989 0.096451834 -0.26979637 0.96291739 0 0
0.13192233 0.2489627 0.096545272 0.26979691 0.96291727 0 0
0.13250735 0.2487988 0.096690543 0.26979691 0.96291727 0 0
0.1332785 0.24857555 0.096675642 0.3133139 0.94964957 0 0
0.13421145 0.24819188 0.096272461 0.39840046 0.91721159 0 0
0.11872102 0.24914294 0.096456349 -0.26979637 0.96291745 0 0
0.11973294 0.24942495 0.096716046 -0.22572097 0.97419202 0 0
0.12063347 0.24957605 0.096586242 -0.13616715 0.99068588 0 0
0.12147276 0.24969141 0.096462533 -0.13616715 0.99068588 0 0
0.12234255 0.24981096 0.096531607 -0.13616715 0.99068582 0 0
0.12330012 0.24992256 0.096505284 -0.10230418 0.99475318 0 0
0.12455859 0.24994172 0.096507825 0 1 0 0
0.12551461 0.24994171 0.096512377 0 1 0 0
0.12610163 0.24994171 0.096665122 0 1 0 0
0.12719686 0.24987425 0.096242391 0.13616683 0.99068588 0 0
0.12887137 0.2496441 0.096725658 0.13616684 0.99068594 0 0
0.12943114 0.24956718 0.096502095 0.13616683 0.99068594 0 0
0.13062578 0.24932598 0.096197173 0.26979691 0.96291727 0 0
0.13161685 0.24904829 0.096608847 0.26979688 0.96291727 0 0
0.11877028 0.20084326 0.097521007 -0.26979634 -0.96291739 0 0
0.11940783 0.20066461 0.097191721 -0.26979637 -0.96291745 0 0
0.1204752 0.20044571 0.097569361 -0.13616715 -0.99068588 0 0
0.12180422 0.20026302 0.097936831 -0.13616715 -0.99068588 0 0
0.12264482 0.20014751 0.097432554 -0.13616715 -0.99068594 0 0
0.12350994 0.2000629 0.09752287 -0.027274106 -0.99962801 0 0
0.12477911 0.20005828 0.09746363 0 -1 0 0
0.12550715 0.20005828 0.097510837 0 -1 0 0
0.12643449 0.20006116 0.09752959 0.045483187 -0.99896508 0 0
0.12725544 0.20013379 0.097108714 0.13616684 -0.99068594 0 0
0.12845641 0.20029888 0.097287446 0.13616684 -0.99068594 0 0
0.12971115 0.20047131 0.097512096 0.13616684 -0.99068594 0 0
0.13154536 0.20093168 0.097456776 0.26979688 -0.96291727 0 0
0.11569817 0.20184737 0.097613618 -0.39840046 -0.91721159 0 0
0.11642083 0.20154348 0.097537741 -0.37323624 -0.92773628 0 0
0.11808307 0.20103578 0.097408041 -0.26979637 -0.96291745 0 0
0.13185635 0.20101881 0.097264364 0.26979691 -0.96291727 0 0
0.13263302 0.20123644 0.097275436 0.26979691 -0.96291727 0 0
0.13351698 0.20151734 0.097518206 0.33487937 -0.94226098 0 0
0.13464066 0.20199454 0.097399928 0.39840046 -0.91721159 0 0
0.11344357 0.20285313 0.097540058 -0.46006441 -0.88788557 0 0
0.11444142 0.20239323 0.097401768 -0.39840046 -0.91721159 0 0
0.11504145 0.20213261 0.097009912 -0.39840046 -0.91721159 0 0
0.13533551 0.20229636 0.097540975 0.39840046 -0.91721159 0 0
0.13638008 0.20275688 0.097812355 0.43970582 -0.89814192 0 0
0.11174687 0.20386796 0.097533643 -0.51958334 -0.85441983 0 0
0.11239472 0.20347401 0.097131737 -0.51958334 -0.85441977 0 0
0.13754277 0.20343599 0.097471923 0.51958328 -0.85441977 0 0
0.13821802 0.20384663 0.09777955 0.51958334 -0.85441977 0 0
0.1105016 0.20464383 0.097482041 -0.61586231 -0.78785384 0 0
0.11110279 0.20425965 0.097499847 -0.51958334 -0.85441977 0 0
0.13868189 0.20412873 0.097491495 0.51958328 -0.85441977 0 0
0.13967325 0.20478421 0.097611152 0.63108885 -0.77571052 0 0
0.10969378 0.20529917 0.097760275 -0.63108885 -0.77571052 0 0
0.11891215 0.20599242 0.097323895 0.26498228 0.96425331 0 0
0.119631 0.20579486 0.0973984 0.26498225 0.96425325 0 0
0.12082371 0.20546709 0.097405568 0.26498228 0.96425331 0 0
0.12102412 0.20541202 0.097739883 0.26498228 0.96425331 0 0
0.12247955 0.2052172 0.097530246 0.1146846 0.993402 0 0
0.12349009 0.20510054 0.097505406 0.1146846 0.993402 0 0
0.12448306 0.20502421 0.097522624 -0.038304538 0.99926615 0 0
0.12500173 0.20504411 0.097998351 -0.038304538 0.99926615 0 0
0.12667686 0.20510831 0.09728691 -0.038304538 0.99926615 0 0
0.12739487 0.20516522 0.097487874 -0.14005877 0.99014318 0 0
0.12888096 0.20543976 0.097371779 -0.19038808 0.98170894 0 0
0.12941121 0.20554262 0.097488068 -0.19038808 0.98170894 0 0
0.13037965 0.2057623 0.097814389 -0.2649807 0.96425372 0 0
0.13105002 0.20598444 0.097221404 -0.33801818 0.94113964 0 0
0.13995104 0.20501021 0.097538114 0.63108885 -0.77571052 0 0
0.14046244 0.20542628 0.097475238 0.63108885 -0.77571052 0 0
0.14113404 0.20597266 0.097369559 0.63108885 -0.77571052 0 0
0.10790049 0.20676985 0.097625837 -0.70713598 -0.70707762 0 0
0.10820279 0.2065122 0.097083643 -0.63108885 -0.77571052 0 0
0.11677154 0.20683534 0.097721562 0.40906638 0.91250467 0 0
0.11742745 0.20654133 0.097484306 0.40906635 0.91250455 0 0
0.13142884 0.20612049 0.097576186 -0.33801818 0.94113964 0 0
0.13223416 0.20640972 0.097729877 -0.33801818 0.94113964 0 0
0.13362947 0.20699359 0.097385071 -0.47771904 0.87851274 0 0
0.14175622 0.20647883 0.097126305 0.63108885 -0.77571052 0 0
0.14207737 0.20674206 0.097730726 0.69133419 -0.72253519 0 0
0.1074257 0.20727569 0.097508565 -0.73083705 -0.68255204 0 0
0.11471523 0.20790271 0.097421974 0.54356658 0.83936614 0 0
0.11554298 0.20739658 0.097717114 0.45508653 0.89044714 0 0
0.11629357 0.20704961 0.097472146 0.40906638 0.91250467 0 0
0.13385117 0.20711416 0.097778119 -0.47771904 0.87851274 0 0
0.13450469 0.20746951 0.097607583 -0.47771898 0.87851268 0 0
0.13536257 0.20793602 0.097917318 -0.47771904 0.87851274 0 0
0.14271009 0.20738834 0.097649224 0.73883557 -0.67388552 -0.00041022091 0
0.14314166 0.20786153 0.09763936 0.73883563 -0.67388558 -0.00041022094 0
0.10596918 0.20883523 0.097755589 -0.73083705 -0.68255204 0 0
0.10626902 0.20851418 0.097416431 -0.73083705 -0.68255204 0 0
0.11322997 0.20886457 0.09722738 0.54356658 0.83936614 0 0
0.13570698 0.20812331 0.097445577 -0.47771904 0.87851268 0 0
0.13635401 0.20858061 0.097600766 -0.60622722 0.79529148 0 0
0.14358294 0.20834546 0.097424813 0.73883557 -0.67388552 -0.00041022094 0
0.144061 0.20886755 0.097448409 0.73083591 -0.68255317 0 0
0.10539613 0.20953329 0.097416006 -0.80093664 -0.59874904 0 0
0.11239649 0.20952103 0.097335689 0.66532719 0.74655193 0 0
0.13694803 0.20903341 0.097648226 -0.60622722 0.79529148 0 0
0.13762507 0.2095495 0.097762227 -0.60622722 0.79529148 0 0
0.13813156 0.20993558 0.097521365 -0.60622722 0.79529148 0 0
0.14455727 0.20944902 0.097540364 0.78108037 -0.62443048 0 0
0.10469179 0.21051967 0.097543322 -0.81696856 -0.57668221 0 0
0.11083299 0.21091442 0.097304992 0.66532719 0.74655193 0 0
0.11122654 0.2105637 0.097294606 0.66532719 0.74655193 0 0
0.13851608 0.21028669 0.097603001 -0.72052068 0.69343346 0 0
0.14530623 0.21044521 0.097440302 0.82323581 -0.56769896 -0.00079280307 0
0.1037895 0.21179791 0.09746775 -0.81696856 -0.57668215 0 0
0.10417366 0.21125367 0.097454108 -0.81696856 -0.57668221 0 0
0.10997646 0.21187478 0.097013876 0.77148974 0.63624179 0 0
0.11028492 0.21150076 0.097549871 0.77148974 0.63624179 0 0
0.1395205 0.21133035 0.097170077 -0.72052068 0.69343352 0 0
0.14608391 0.21161678 0.097579047 0.82651269 -0.56291777 -0.00059438345 0
0.10334277 0.21258308 0.097511865 -0.88788575 -0.46006411 0 0
0.10932814 0.21266091 0.097457506 0.77148974 0.63624173 0 0
0.14055893 0.21247627 0.097626336 -0.78355622 0.6213209 0 0
0.14667705 0.21257341 0.097670741 0.87166131 -0.4901087 0 0
0.10280963 0.21361201 0.097616516 -0.88788575 -0.46006408 0 0
0.10859029 0.21359585 0.097466096 0.81792945 0.57531852 0 0
0.14094692 0.21301037 0.0971324 -0.81792915 0.57531899 0 0
0.14123489 0.21341978 0.097559065 -0.81792909 0.57531899 0 0
0.14719626 0.21353769 0.097360596 0.90285033 -0.42995334 -0.0012130106 0
0.10235119 0.21449673 0.097711146 -0.88788575 -0.46006411 0 0
0.10797077 0.21462171 0.097280964 0.85956937 0.51101917 0 0
0.10822005 0.21420242 0.097307891 0.85956937 0.51101917 0 0
0.14195886 0.21444903 0.097456671 -0.81792915 0.57531899 0 0
0.14215688 0.21473058 0.097847201 -0.81792915 0.57531899 0 0
0.14771158 0.21461014 0.097295977 0.89797509 -0.44004565 -0.00080877548 0
0.10191494 0.21547548 0.097703516 -0.94226122 -0.33487889 0 0
0.10736442 0.21564162 0.097826727 0.85956937 0.51101917 0 0
0.14257687 0.21549523 0.097733349 -0.89280283 0.45044765 9.4734511e-05 0
0.14795996 0.21511523 0.09743154 0.93027705 -0.36685765 0 0
0.14817467 0.21565971 0.097465545 0.93027705 -0.36685774 0 0
0.10165743 0.21620002 0.09746398 -0.94226122 -0.33487889 0 0
0.10684017 0.21671243 0.097774804 0.92750221 0.37381759 0 0
0.10703381 0.216232 0.097422592 0.92750221 0.37381759 0 0
0.14289078 0.21613857 0.097981475 -0.90293628 0.42977455 0 0
0.14320323 0.21679498 0.097579673 -0.90293628 0.42977455 0 0
0.14845629 0.21639398 0.097569384 0.94219851 -0.33505449 -0.00061708118 0
0.10128041 0.21726088 0.09743458 -0.94226122 -0.33487886 0 0
0.10647689 0.21761382 0.097380921 0.92750221 0.37381762 0 0
0.14344746 0.21730812 0.097725637 -0.90293628 0.42977455 0 0
0.14879417 0.21743049 0.097154431 0.95303279 -0.3028647 -0.0012334504 0
0.10088736 0.21844621 0.097433425 -0.97908413 -0.20345581 0 0
0.10595809 0.21890104 0.097472012 0.92750221 0.37381762 0 0
0.1061058 0.21853457 0.097913601 0.92750221 0.37381759 0 0
0.14382322 0.21828426 0.097652107 -0.94114059 0.33801544 0 0
0.14911343 0.21842526 0.097352654 0.96292144 -0.26978204 0 0
0.10063746 0.21964875 0.097743601 -0.97908413 -0.20345582 0 0
0.14421275 0.21949326 0.097214572 -0.96079123 0.277273 0.00019875693 0
0.14934596 0.21937545 0.097383246 0.97156775 -0.23676187 0 0
0.10046699 0.22046912 0.097549148 -0.97908413 -0.20345582 0 0
0.10557132 0.2205072 0.097056508 0.97369546 0.22785342 0 0
0.14449897 0.22060558 0.097382769 -0.97369498 0.22785558 0 0
0.14955735 0.22046666 0.097646773 0.98542231 -0.17012165 -0.0012483303 0
0.10029111 0.22134274 0.097374409 -0.98545271 -0.16994971 0 0
0.10534103 0.22149408 0.097604886 0.98169768 0.19044608 0 0
0.14465708 0.22138734 0.09714359 -0.98170751 0.19039506 0 0
0.14979194 0.22183703 0.097343408 0.99475747 -0.1022621 0 0
0.10016137 0.2226408 0.097270288 -0.99766874 -0.068243109 0 0
0.10522452 0.22207563 0.097581871 0.9970659 0.076548204 0 0
0.14486381 0.22279766 0.097682238 -0.99340272 0.114678 0 0
0.14988409 0.22273338 0.097741902 0.99475747 -0.1022621 0 0
0.10011053 0.22338413 0.097731218 -0.99766874 -0.068243116 0 0
0.1051322 0.22327805 0.097616702 0.9970659 0.076548204 0 0
0.1449374 0.22352991 0.097449452 -0.99706614 0.076545611 0 0
0.14993158 0.2234523 0.097362742 0.99810964 -0.061454136 -0.00075499935 0
0.10003105 0.22454607 0.097466528 -0.99766874 -0.068243116 0 0
0.10505641 0.22426537 0.097334191 0.9970659 0.076548204 0 0
0.14497407 0.22432363 0.097332411 -0.99926627 0.03830089 0 0
0.14997809 0.22462721 0.097455233 0.99837965 -0.05690141 -0.00041926387 0
0.10005072 0.22574139 0.097893089 -0.99766874 0.068242818 0 0
0.10501546 0.22520132 0.097700395 0.99706596 -0.076547839 0 0
0.1449638 0.22594464 0.097136423 -0.99926627 -0.038300522 0 0
0.14998612 0.22540621 0.097528994 0.99941677 0.034148403 0 0
0.1000858 0.2262544 0.097398549 -0.99766874 0.068242811 0 0
0.10512896 0.22667976 0.097368561 0.9970659 -0.076547831 0 0
0.14493448 0.22652073 0.097372532 -0.99706745 -0.076528803 0 0
0.10016984 0.22748314 0.097506545 -0.99766874 0.068242818 0 0
0.10519597 0.22755256 0.097725704 0.99706596 -0.076547839 0 0
0.14479224 0.22764751 0.097614631 -0.99338627 -0.1148144 0.001198002 0
0.14985868 0.22751373 0.097489655 0.99475753 0.10226209 0 0
0.10533547 0.22848491 0.097120084 0.97369546 -0.22785342 0 0
0.14466637 0.22851235 0.097330853 -0.98826987 -0.15271644 0.00059943949 0
0.14974475 0.22851273 0.097615466 0.99068594 0.13616681 0 0
0.10048064 0.22959654 0.097375333 -0.97908413 0.20345581 0 0
0.10557362 0.2295026 0.097629629 0.97369546 -0.22785342 0 0
0.14453091 0.2292632 0.097256482 -0.98170757 -0.19039506 0 0
0.14957331 0.22952694 0.097420201 0.98414153 0.17738464 -0.0001392304 0
0.10069998 0.23065209 0.097523622 -0.97908419 0.20345582 0 0
0.10583925 0.23063776 0.097081855 0.97369546 -0.22785342 0 0
0.1441526 0.2306484 0.097571827 -0.96416944 -0.26528475 0.0011865882 0
0.14938289 0.23046291 0.097597718 0.97419935 0.22568907 -0.00020885163 0
0.10086516 0.231447 0.097630285 -0.97908419 0.20345582 0 0
0.10100019 0.23195067 0.097797364 -0.94226122 0.33487889 0 0
0.10602726 0.2312706 0.097611643 0.92750221 -0.37381762 0 0
0.14384238 0.23166239 0.097575389 -0.94114059 -0.33801544 0 0
0.14404103 0.23105168 0.097090378 -0.96416938 -0.26528475 0.0011865881 0
0.14916228 0.23137115 0.097430304 0.96738535 0.25330946 0 0
0.10136707 0.23298298 0.097986124 -0.94226122 0.33487889 0 0
0.10651008 0.23246853 0.097436942 0.92750221 -0.37381765 0 0
0.1435831 0.23237097 0.097506762 -0.91667783 -0.39962703 0 0
0.14878479 0.23265283 0.097724758 0.95314646 0.30250928 0 0
0.10162085 0.23369703 0.097504467 -0.94226122 0.33487889 0 0
0.1069099 0.23346056 0.097513027 0.92750221 -0.37381762 0 0
0.107065 0.23384538 0.097761676 0.92750221 -0.37381762 0 0
0.14287758 0.23388918 0.097123668 -0.90293628 -0.42977449 0 0
0.14322685 0.2331554 0.097495057 -0.90293628 -0.42977449 0 0
0.14848149 0.23354574 0.097454384 0.93725818 0.34863609 -0.00017733121 0
0.10195019 0.23462369 0.09723264 -0.94226122 0.33487886 0 0
0.10206161 0.23493722 0.097933061 -0.94226122 0.33487889 0 0
0.10746397 0.23452584 0.09767326 0.85956937 -0.51101917 0 0
0.14248189 0.23469362 0.097318619 -0.87929612 -0.4762755 0.00015156758 0
0.14811745 0.23448539 0.097181641 0.93027711 0.36685768 0 0
0.10247332 0.23573895 0.097586371 -0.88788575 0.46006408 0 0
0.10792911 0.2353082 0.09747003 0.85956937 -0.51101917 0 0
0.10812791 0.23564263 0.097329214 0.85956937 -0.51101917 0 0
0.1417466 0.23585275 0.097574666 -0.81792915 -0.57531899 0 0
0.14760929 0.23563497 0.097459078 0.90307325 0.4294866 0 0
