# .PCD v0.7 - Point Cloud Data file format
VERSION 0.7
FIELDS x y z
SIZE 4 4 4
TYPE F F F
COUNT 1 1 1
WIDTH 1335
HEIGHT 1
VIEWPOINT 0 0 0 1 0 0 0
POINTS 1335
DATA ascii
-0.17021614 -0.5909487 0.025835842
-0.16358727 -0.62008685 0.022539971
-0.15699488 -0.64906555 0.021578619
-0.14974479 -0.68093491 0.020609709
-0.14024988 -0.72267485 0.027281476
-0.13027638 -0.76651371 0.024420461
-0.11876587 -0.81710827 0.021059742
-0.10126662 -0.89402837 0.022385707
-0.10140081 -0.89346218 0.10342258
-0.095692739 -0.91855615 0.12108526
-0.2439523 -0.26556906 -0.0097158421
-0.2413339 -0.27701044 -0.0068996092
-0.23946667 -0.2852138 0.022125842
-0.23698933 -0.29603156 0.021657677
-0.23449449 -0.30692571 0.02158916
-0.23078066 -0.32314414 0.023216749
-0.22814041 -0.33466989 0.022235541
-0.22553347 -0.34605175 0.02265959
-0.22155181 -0.36343467 0.023657871
-0.21993643 -0.3704823 0.021127319
-0.21577829 -0.38863435 0.022668822
-0.21267906 -0.40215987 0.021638976
-0.20963389 -0.41545072 0.02208348
-0.20500186 -0.43566775 0.023841623
-0.20150392 -0.4509317 0.023269214
-0.19781484 -0.46702906 0.022614134
-0.19378546 -0.48460975 0.021168668
-0.18953097 -0.50317234 0.01985031
-0.18383279 -0.52803898 0.023711035
-0.17862745 -0.55074763 0.021173317
-0.17363493 -0.57252991 0.021266904
-0.16600075 -0.60583889 0.023654854
-0.15995252 -0.63222569 0.023698725
-0.15272528 -0.66375405 0.021741966
-0.14499606 -0.69747251 0.020567169
-0.13498971 -0.74113107 0.02757176
-0.12467664 -0.78611994 0.025494151
-0.11281021 -0.83788478 0.023108916
-0.094081499 -0.91958821 0.024625057
-0.10029623 -0.89253682 0.11655849
-0.092911378 -0.92476112 0.13228983
-0.24481116 -0.26006329 -0.0089684129
-0.24222985 -0.27117243 -0.0013713553
-0.23889656 -0.2855354 0.022129258
-0.23641722 -0.29619324 0.022648752
-0.23389229 -0.30704543 0.022574047
-0.23130167 -0.31817836 0.021928111
-0.22746083 -0.33468547 0.023199698
-0.22475162 -0.34632614 0.02266215
-0.22200985 -0.35810661 0.022587327
-0.21915457 -0.37037352 0.022057101
-0.21616806 -0.38320291 0.021120913
-0.21180466 -0.40194905 0.022532301
-0.20872009 -0.41519943 0.022960354
-0.20524916 -0.43010673 0.021394785
-0.20183104 -0.44478801 0.021369645
-0.19797201 -0.46136069 0.01956778
-0.19279961 -0.48357758 0.022746997
-0.18878427 -0.50082177 0.022917742
-0.18409996 -0.52093655 0.020983251
-0.17915881 -0.54215395 0.019407641
-0.17222868 -0.57191443 0.021950448
-0.16674212 -0.59547359 0.021899307
-0.15993316 -0.62470865 0.018763922
-0.15230238 -0.65747797 0.026449895
-0.14449187 -0.6910134 0.025046356
-0.13558829 -0.72924143 0.023040995
-0.12335031 -0.78178871 0.02792193
-0.11293855 -0.82649285 0.029019978
-0.094592214 -0.90525907 0.016887713
-0.098045796 -0.89046115 0.10440683
-0.090698279 -0.92201185 0.11991842
-0.24432375 -0.26040256 -0.0089648925
-0.2416583 -0.27170414 -0.0043601445
-0.2408364 -0.27522671 0.021999763
-0.23959523 -0.28048608 0.02251609
-0.23705575 -0.29124388 0.021850428
-0.23325463 -0.30734721 0.022579744
-0.23062813 -0.31847161 0.021934304
-0.2280343 -0.32945889 0.022679484
-0.22529791 -0.34104711 0.021924349
-0.22252658 -0.35278317 0.021628207
-0.21839921 -0.3702628 0.022992993
-0.21537878 -0.38305113 0.022043744
-0.21230891 -0.39604864 0.021641955
-0.20919479 -0.4092336 0.021801408
-0.20581168 -0.42355531 0.020802161
-0.20224571 -0.43865037 0.019612283
-0.19710138 -0.46042907 0.021219011
-0.19325687 -0.47670266 0.020996222
-0.18781859 -0.49972504 0.024464358
-0.18323545 -0.51912254 0.023228539
-0.17824356 -0.54024935 0.021582328
-0.1729853 -0.56250328 0.020394133
-0.16465552 -0.59775668 0.019946637
-0.15952392 -0.61947674 0.023191359
-0.15269455 -0.64837831 0.022203753
-0.14499481 -0.68096268 0.020633819
-0.13495687 -0.72344631 0.026776781
-0.12441407 -0.76806021 0.02344691
-0.11287937 -0.81687206 0.021089585
-0.094112962 -0.89628816 0.021148937
-0.094014145 -0.89673233 0.07583385
-0.094881192 -0.89307505 0.10345514
-0.088964559 -0.91811979 0.12111875
-0.24518248 -0.25495374 -0.0091235954
-0.2424214 -0.26647267 -0.0077184914
-0.2402561 -0.27555281 0.021992015
-0.23897165 -0.28090864 0.021513605
-0.23641838 -0.29155651 0.021842303
-0.23386125 -0.30222026 0.02255833
-0.23120613 -0.31328931 0.02170665
-0.22726078 -0.32973939 0.022670493
-0.22455142 -0.34103426 0.022871619
-0.221746 -0.35272813 0.022564489
-0.21756779 -0.37014538 0.023910582
-0.2145092 -0.3828916 0.022947438
-0.21266456 -0.39057532 0.019949982
-0.20824647 -0.40899095 0.022674028
-0.20481937 -0.42327082 0.021657579
-0.19994599 -0.4435803 0.02388694
-0.19639646 -0.4583706 0.024485625
-0.19223917 -0.47568962 0.02258236
-0.18813886 -0.49277252 0.022337036
-0.18225403 -0.51729262 0.025446588
-0.17736669 -0.53765202 0.024448493
-0.17205197 -0.55979097 0.023161195
-0.16594164 -0.58524233 0.02042417
-0.15844111 -0.61649114 0.025696127
-0.15134209 -0.64606059 0.023995614
-0.14354023 -0.67855734 0.022340348
-0.13540636 -0.71243763 0.022116946
-0.12409624 -0.75955218 0.028435642
-0.11222041 -0.80901575 0.025302062
-0.097009107 -0.87236983 0.018790072
-0.091655336 -0.89471859 0.10278289
-0.091671951 -0.89466274 0.12842591
-0.24357797 -0.26090679 -0.0089676781
-0.24128424 -0.27045229 0.021574935
-0.23745039 -0.28632703 0.022130914
-0.23484454 -0.29711476 0.02166296
-0.23226522 -0.30779392 0.022576459
-0.22831367 -0.32415196 0.023222579
-0.22560132 -0.33537853 0.023203056
-0.22279419 -0.34699589 0.022665897
-0.21995334 -0.35875276 0.022591464
-0.21699488 -0.3709951 0.02206164
-0.21390046 -0.38379881 0.021125868
-0.21065257 -0.39723641 0.019839587
-0.20618352 -0.41573116 0.02296632
-0.20270823 -0.4301087 0.022258772
-0.19891758 -0.44578925 0.020537492
-0.19491233 -0.46235695 0.018755604
-0.1896881 -0.4839724 0.022755053
-0.18552777 -0.50118202 0.02292631
-0.18051699 -0.52190644 0.020248776
-0.17428501 -0.54768753 0.024722554
-0.16889003 -0.57000142 0.024008708
-0.1619803 -0.59857678 0.01928417
-0.15600012 -0.62331134 0.020035895
-0.14734864 -0.65909666 0.025286201
-0.13924667 -0.69260406 0.023940779
-0.13001265 -0.73079264 0.02199504
-0.1189966 -0.77635002 0.018433305
-0.10631589 -0.82879895 0.027673826
-0.088360839 -0.90304971 0.017754383
-0.091294527 -0.89095938 0.10409974
-0.08328709 -0.92408687 0.132311
-0.24305424 -0.26126269 -0.0089656394
-0.24202855 -0.26548776 0.022248192
-0.23812185 -0.28140551 0.021520069
-0.23683219 -0.28666106 0.022132391
-0.23422398 -0.29728812 0.022652034
-0.23156781 -0.30810896 0.022577479
-0.22884254 -0.31920975 0.021931697
-0.22615112 -0.33017376 0.022676541
-0.22331184 -0.34173736 0.021921057
-0.21914953 -0.35869128 0.023531377
-0.21744314 -0.36563727 0.020862883
-0.21311671 -0.38325793 0.022953076
-0.20983432 -0.39662209 0.021637084
-0.20649104 -0.41023424 0.020912865
-0.20180506 -0.42931622 0.023972511
-0.1981006 -0.44439703 0.023053085
-0.19419175 -0.46030921 0.022032017
-0.19006582 -0.47710451 0.020989195
-0.18457627 -0.49945438 0.025223278
-0.17982714 -0.51878494 0.023964064
-0.17448796 -0.54051584 0.021573687
-0.16739866 -0.56937349 0.024687495
-0.16258654 -0.58895469 0.017080158
-0.15487905 -0.62032855 0.022550883
-0.14778785 -0.64918929 0.021590061
-0.1392075 -0.68410921 0.018324954
-0.12916908 -0.72496843 0.025702605
-0.11842809 -0.76868129 0.02293211
-0.10687714 -0.81569093 0.021544399
-0.087194659 -0.89579445 0.021131726
-0.08798933 -0.89259052 0.10343862
-0.081393458 -0.91943914 0.12051559
-0.24421495 -0.25567979 -0.010117282
-0.24283475 -0.26127458 -0.0039689075
-0.2404478 -0.27097291 0.021576665
-0.23652948 -0.28682679 0.022132706
-0.23386623 -0.29760036 0.021664791
-0.23118415 -0.30844995 0.021596523
-0.22713333 -0.32483613 0.022253973
-0.22435319 -0.3360807 0.022243541
-0.22147629 -0.34771523 0.021716543
-0.218565 -0.35948873 0.021653455
-0.21423703 -0.37699267 0.023369621
-0.211165 -0.38941491 0.023584682
-0.20773166 -0.40329465 0.021648519
-0.20434153 -0.41700104 0.021218391
-0.1993511 -0.43717912 0.023003515
-0.19571805 -0.45186687 0.02327987
-0.1917522 -0.46789834 0.022625158
-0.18742056 -0.48540711 0.021180093
-0.18154988 -0.50914115 0.024471434
-0.17672117 -0.52865845 0.023723455
-0.17129523 -0.55058831 0.0218939
-0.16558266 -0.57367671 0.020597812
-0.15773539 -0.60539669 0.024312399
-0.15104945 -0.63241857 0.023713537
-0.14366871 -0.66224796 0.02293428
-0.13497105 -0.69739813 0.020583486
-0.12441983 -0.74004602 0.028104754
-0.11291722 -0.78653097 0.02502704
-0.099942729 -0.83896428 0.022219203
-0.078481734 -0.92569572 0.021387234
-0.086688027 -0.89258432 0.1162695
-0.078746498 -0.92468613 0.13203493
-0.24229467 -0.26174486 -0.0079703704
-0.23990658 -0.27130359 0.021572476
-0.23593114 -0.28714356 0.022127878
-0.23326731 -0.29775673 0.022647366
-0.23055449 -0.30856344 0.022572653
-0.22777113 -0.3196497 0.021926707
-0.22489604 -0.33109984 0.020739144
-0.22073384 -0.34767947 0.022660712
-0.21778813 -0.35941052 0.022585871
-0.2148118 -0.37126344 0.022983093
-0.2102997 -0.38923216 0.024482701
-0.20814414 -0.39780968 0.019832673
-0.20351006 -0.41626397 0.022958783
-0.19990653 -0.43060991 0.022250751
-0.19610876 -0.44572845 0.021368003
-0.19078709 -0.46691635 0.024232851
-0.18640588 -0.48435539 0.022745244
-0.18193538 -0.50215006 0.022149371
-0.17722248 -0.52090925 0.021725051
-0.17158167 -0.54335922 0.018685803
-0.16466208 -0.57090425 0.02331353
-0.15785958 -0.59797651 0.019927265
-0.15147479 -0.62338817 0.020021541
-0.1423068 -0.65987915 0.024682295
-0.13369901 -0.69413584 0.022804566
-0.12432164 -0.73145533 0.021446666
-0.11222013 -0.77962047 0.02889006
-0.09995687 -0.82842427 0.027652903
-0.081118606 -0.90339011 0.017307729
-0.083918631 -0.89228386 0.1034245
-0.075373121 -0.92630213 0.13145827
-0.24496946 -0.25040412 -0.010166733
-0.24178679 -0.26208767 -0.007974728
-0.2407174 -0.26633704 0.02223973
-0.23667388 -0.28222054 0.021511741
-0.23397256 -0.29283193 0.021840433
-0.23122416 -0.3036266 0.021571537
-0.22712536 -0.31972626 0.022898205
-0.22428407 -0.33088386 0.022668609
-0.22134535 -0.34242257 0.021913214
-0.21836911 -0.35410851 0.021616811
-0.21527115 -0.36627102 0.020855213
-0.21079333 -0.38385373 0.022945533
-0.20739599 -0.39718911 0.021629626
-0.2040516 -0.41031772 0.021788802
-0.19908567 -0.42981288 0.023965264
-0.19525146 -0.44486117 0.023045924
-0.19134738 -0.46018392 0.022844518
-0.18678661 -0.47808072 0.020183133
-0.18109487 -0.50042218 0.024449879
-0.17633811 -0.5190888 0.023957275
-0.17081183 -0.54077286 0.021566983
-0.16534241 -0.56223494 0.021073552
-0.15789644 -0.59145647 0.025839727
-0.15051603 -0.62041354 0.022544472
-0.14317633 -0.64921206 0.021583732
-0.13449751 -0.6832633 0.018892907
-0.12453356 -0.72236371 0.027288146
-0.1138571 -0.76425231 0.025429338
-0.10148604 -0.81278902 0.022948874
-0.082932204 -0.88557869 0.01176264
-0.080817565 -0.89392114 0.1027804
-0.075166486 -0.91610056 0.12138928
-0.24182232 -0.26131126 0.02102134
-0.2391298 -0.27181399 0.02158143
-0.23507363 -0.28763381 0.022137361
-0.23231669 -0.29838422 0.021669377
-0.22954018 -0.30921045 0.02160104
-0.22674774 -0.32009852 0.021937253
-0.22246854 -0.33678165 0.022247899
-0.21956712 -0.34809247 0.02267215
-0.21522474 -0.36502051 0.024604594
-0.21343122 -0.37200841 0.022067811
-0.20881508 -0.39000055 0.023588795
-0.20537363 -0.40341118 0.022543913
-0.2018715 -0.41705799 0.02209734
-0.19818692 -0.43141481 0.021407187
-0.19282278 -0.452317 0.023283781
-0.1887169 -0.46831363 0.022629032
-0.18438543 -0.48518854 0.02197239
-0.17981686 -0.50298655 0.021398995
-0.17366332 -0.52696127 0.025922779
-0.167713 -0.55013901 0.022605257
-0.16180474 -0.57315344 0.021284075
-0.15349798 -0.60551196 0.024316113
-0.1473594 -0.62942344 0.026182225
-0.13953771 -0.65988934 0.024703125
-0.13013576 -0.69650942 0.021146998
-0.11921788 -0.7390365 0.028624149
-0.10731358 -0.78540254 0.025516292
-0.094992675 -0.83339155 0.024950908
-0.076197863 -0.90659428 0.015642805
-0.079457022 -0.89391071 0.11565408
-0.072184108 -0.92223817 0.13259172
-0.24422035 -0.25096217 -0.0091700396
-0.24260876 -0.25648209 0.018884383
-0.23853594 -0.27212709 0.022580152
-0.23440236 -0.2879979 0.022138741
-0.23164444 -0.29858702 0.022658769
-0.22883581 -0.30936927 0.022584602
-0.22595412 -0.32043043 0.021939214
-0.22168174 -0.33683103 0.023211604
-0.2187462 -0.34809834 0.023625892
-0.21561839 -0.36010113 0.022600355
-0.21253689 -0.37192714 0.02299816
-0.20922302 -0.38464269 0.02204898
-0.20574427 -0.39798981 0.020748166
-0.20095809 -0.41635713 0.023851002
-0.19723484 -0.43064129 0.023126222
-0.19331032 -0.44569689 0.022225777
-0.18931454 -0.46102583 0.022044284
-0.18479998 -0.47834292 0.020202957
-0.17882289 -0.50127393 0.023703756
-0.17361909 -0.52123338 0.021747323
-0.1681294 -0.5422892 0.020148829
-0.16098367 -0.56970036 0.024703214
-0.15357177 -0.59812564 0.019953189
-0.14715734 -0.62272799 0.020678561
-0.13787737 -0.65832251 0.025887871
-0.12939368 -0.69085908 0.02507416
-0.11970404 -0.72802013 0.023601012
-0.10876528 -0.76997131 0.021952711
-0.09429653 -0.82546371 0.029053565
-0.075261347 -0.89846176 0.019464377
-0.07725469 -0.89084536 0.10379016
-0.068835333 -0.92313796 0.11907628
-0.24374849 -0.25134224 -0.010161599
-0.24224362 -0.25708392 -0.0081142802
-0.24100943 -0.26183388 0.02201923
-0.2382679 -0.27228788 0.022577697
-0.2327368 -0.2933751 0.022843108
-0.2312905 -0.29888678 0.02166846
-0.22702992 -0.31512699 0.021717653
-0.22417071 -0.32602507 0.022257939
-0.22123076 -0.33722934 0.022247635
-0.21818846 -0.34882215 0.021720776
-0.21510978 -0.36055341 0.021657834
-0.21043351 -0.37837175 0.022453468
-0.20717664 -0.39078021 0.022682827
-0.20376857 -0.40376359 0.022544799
-0.20019118 -0.41739085 0.022098461
-0.19479027 -0.43796459 0.023008946
-0.19094807 -0.45259941 0.023285512
-0.18645535 -0.46970895 0.021012122
-0.18186025 -0.48720855 0.019609295
-0.17563079 -0.51093519 0.022967556
-0.1705109 -0.53043228 0.022266567
-0.16511901 -0.55096471 0.02190103
-0.15870604 -0.57538337 0.019240241
-0.15019435 -0.60779625 0.022390375
-0.14350685 -0.63326073 0.023105737
-0.13569567 -0.66300255 0.022354804
-0.12607101 -0.69964772 0.01891353
-0.11467228 -0.74305147 0.026052304
-0.10248959 -0.78943545 0.02309618
-0.088751264 -0.84174222 0.020412385
-0.068119414 -0.92029679 0.02343737
-0.07563062 -0.89172053 0.11628276
-0.066497855 -0.92649418 0.13121982
-0.24046868 -0.26224437 0.021024739
-0.23769739 -0.27265492 0.022582758
-0.23347723 -0.28850287 0.022141526
-0.23062116 -0.29922712 0.021673847
-0.22774486 -0.31002703 0.021605819
-0.22485209 -0.32088867 0.021942338
-0.22187984 -0.3320471 0.02172157
-0.21741362 -0.34881458 0.022678012
-0.21429998 -0.36050221 0.022603858
-0.21105745 -0.37267247 0.022074323
-0.20638464 -0.39021322 0.024502408
-0.20271082 -0.40399903 0.022551263
-0.19908307 -0.41761276 0.022105049
-0.19526637 -0.4319348 0.021415271
-0.18985401 -0.45224661 0.02412184
-0.1856083 -0.46817687 0.023447491
-0.18112873 -0.48498398 0.022770286
-0.17640337 -0.50271273 0.022175394
-0.17124948 -0.52204841 0.021008475
-0.16406453 -0.54900616 0.024031542
-0.15758027 -0.57333046 0.021295704
-0.15095508 -0.59818393 0.019958507
-0.14261764 -0.62946439 0.026195206
-0.13409892 -0.66141933 0.023540126
-0.12520362 -0.6947872 0.022281185
-0.11506838 -0.73280579 0.020423995
-0.10248846 -0.77999848 0.028445555
-0.089062952 -0.83035839 0.026332561
-0.069372468 -0.90421581 0.016508812
-0.071797736 -0.89514953 0.11505371
-0.064507551 -0.9224996 0.13233504
-0.24302852 -0.25189337 -0.0091630379
-0.24157585 -0.25733745 0.0098816724
-0.24023123 -0.26236975 0.022017611
-0.23599043 -0.27818608 0.021003878
-0.23175079 -0.29399878 0.021850586
-0.22891067 -0.30459082 0.022566713
-0.22596185 -0.31558543 0.02171514
-0.22304341 -0.32646769 0.022255242
-0.2200426 -0.33765572 0.022244748
-0.21545495 -0.35475892 0.022573339
-0.21230423 -0.3665041 0.022733752
-0.20902197 -0.37873846 0.022449885
-0.20558819 -0.39153641 0.021772401
-0.20210156 -0.40453127 0.021649448
-0.19691506 -0.42386222 0.023399837
-0.19305548 -0.438245 0.023004349
-0.18884404 -0.45393756 0.021621758
-0.18283996 -0.47631174 0.023391327
-0.17845638 -0.49264574 0.023902331
-0.17333052 -0.51174319 0.022206554
-0.16792148 -0.53189528 0.020796666
-0.16100968 -0.55764997 0.025952583
-0.15463369 -0.58140326 0.024453087
-0.14694384 -0.61004949 0.020452846
-0.13989714 -0.63630158 0.02063285
-0.13008517 -0.6728574 0.026371187
-0.12043506 -0.7088058 0.024309853
-0.10995215 -0.74785656 0.022948518
-0.095875055 -0.80029905 0.029545872
-0.081814855 -0.85267502 0.028023059
-0.062588997 -0.92429191 0.021387607
-0.071545161 -0.89094973 0.090564385
-0.071439907 -0.89134818 0.11627045
-0.23964968 -0.26277652 0.022018425
-0.23679191 -0.27327064 0.021579226
-0.23250093 -0.28902796 0.022135351
-0.22958443 -0.29973587 0.021667495
-0.22528173 -0.31553546 0.023673227
-0.22227497 -0.32657307 0.023227351
-0.21916677 -0.33798176 0.02224648
-0.21601635 -0.34954536 0.021719558
-0.21141019 -0.36645427 0.023669664
-0.20808873 -0.37864432 0.023372844
-0.20461343 -0.39139786 0.022681372
-0.20096499 -0.4047859 0.021651937
-0.19738011 -0.41794163 0.022096846
-0.19192706 -0.43795308 0.023855614
-0.18780926 -0.45306179 0.023283677
-0.18346646 -0.46899545 0.022629097
-0.17888509 -0.48580399 0.02197263
-0.17229433 -0.50998658 0.024475727
-0.16718608 -0.52872729 0.024459794
-0.16106515 -0.55118072 0.021898549
-0.1533954 -0.57932055 0.026466442
-0.14581355 -0.60713154 0.023030875
-0.13868792 -0.63327098 0.023102695
-0.130813 -0.66215843 0.022939943
-0.11943852 -0.70388538 0.027586957
-0.10883296 -0.74278766 0.0260485
-0.096449047 -0.78821248 0.023577526
-0.082697414 -0.83865434 0.021771867
-0.060872883 -0.91870999 0.023839762
-0.067913905 -0.89292163 0.11565822
-0.059464645 -0.92391968 0.13176712
-0.24228315 -0.25248304 0.0048378129
-0.2408565 -0.25771508 0.0218811
-0.23799831 -0.26814607 0.022250744
-0.23512204 -0.27864152 0.022001285
-0.23369388 -0.28385332 0.022517543
-0.23077193 -0.29451379 0.021851737
-0.22787333 -0.30508998 0.022567872
-0.22486383 -0.31606811 0.021716304
-0.22039165 -0.33238304 0.022680307
-0.21732059 -0.34358513 0.022881543
-0.2141407 -0.35518292 0.022574523
-0.21083032 -0.36725539 0.02180112
-0.20604551 -0.38470694 0.023871586
-0.20253012 -0.3975257 0.023440218
-0.19883928 -0.41098326 0.022684585
-0.19495489 -0.42514575 0.021668267
-0.19100012 -0.43956473 0.021308683
-0.18525589 -0.46050933 0.023677051
-0.18053652 -0.47771317 0.021794425
-0.17604825 -0.49407578 0.022348341
-0.16937785 -0.51839411 0.025458101
-0.16365471 -0.53925532 0.023740303
-0.15762442 -0.56123596 0.022477889
-0.15128246 -0.58435243 0.021775659
-0.14218196 -0.61752522 0.025078621
-0.13434151 -0.64610237 0.024008248
-0.12528217 -0.6791212 0.021779057
-0.11605798 -0.71274137 0.021584904
-0.10300203 -0.76032907 0.027447982
-0.090233825 -0.8068648 0.02578624
-0.072284661 -0.87228131 0.01792663
-0.057945009 -0.92454946 0.035538364
-0.066184714 -0.89453477 0.10214496
-0.065436684 -0.89726585 0.12697503
-0.24204357 -0.25265068 -0.010160919
-0.23740408 -0.26853263 0.022253074
-0.23448642 -0.27901673 0.022003487
-0.23011112 -0.29473862 0.022844125
-0.22713336 -0.30543664 0.022569761
-0.22413641 -0.31620342 0.022696365
-0.2209942 -0.32748941 0.021287598
-0.21787849 -0.33868107 0.021285962
-0.21320304 -0.35547543 0.022575859
-0.20994121 -0.36719033 0.022736156
-0.20654319 -0.37939313 0.022452172
-0.20298834 -0.39215809 0.021774568
-0.19780731 -0.4107638 0.023568638
-0.19400935 -0.42440048 0.023401711
-0.1897293 -0.43976581 0.021309197
-0.18565379 -0.45439819 0.021623377
-0.18104912 -0.47092834 0.020199055
-0.17506872 -0.49240083 0.024681235
-0.16959335 -0.51205456 0.022207715
-0.16435967 -0.53084177 0.022261426
-0.15828314 -0.5526529 0.020480124
-0.15043683 -0.58081943 0.025123423
-0.14268774 -0.60863203 0.021740036
-0.13477015 -0.63704979 0.02001692
-0.1248237 -0.67275256 0.026371239
-0.11505859 -0.70780051 0.024854943
-0.10421126 -0.74673247 0.023463788
-0.091081247 -0.79385626 0.020172223
-0.074369974 -0.8538363 0.027143931
-0.056420024 -0.91825861 0.023830678
-0.063967489 -0.89118636 0.090220496
-0.063599803 -0.89251083 0.11564984
-0.24149384 -0.25309137 0.021836581
-0.23830876 -0.26370454 0.022023143
-0.23388483 -0.2793808 0.022005919
-0.23091899 -0.28988951 0.022140143
-0.22790417 -0.30057034 0.021672321
-0.22339979 -0.31652924 0.022699779
-0.22028244 -0.32757163 0.022261754
-0.2171353 -0.33871937 0.022251431
-0.21250112 -0.3551358 0.024471765
-0.20901974 -0.36746389 0.022740871
-0.20715165 -0.37407807 0.021144407
-0.20209134 -0.39200005 0.022686528
-0.19831993 -0.40535414 0.02165715
-0.19301674 -0.42413494 0.024274219
-0.18897732 -0.43843719 0.023860976
-0.18472075 -0.45350754 0.023289114
-0.18007185 -0.46996582 0.021825179
-0.17549588 -0.48616663 0.02197824
-0.16850464 -0.51091856 0.023726281
-0.16340262 -0.52898091 0.024465643
-0.15726773 -0.55069733 0.02261214
-0.15060939 -0.57426631 0.020608798
-0.14258458 -0.60267055 0.016014263
-0.13415872 -0.63250101 0.023725437
-0.12536457 -0.66362911 0.021769904
-0.11550888 -0.69851428 0.019476837
-0.10355014 -0.740848 0.027087081
-0.090283304 -0.78780627 0.023585154
-0.075826496 -0.83897698 0.021325227
-0.053757779 -0.91709292 0.024255797
-0.060268827 -0.89407849 0.11504714
-0.051529352 -0.9250173 0.13122299
-0.24098817 -0.25346303 0.021833461
-0.23950492 -0.25868434 0.02087686
-0.23655513 -0.26907268 0.022246519
-0.2335816 -0.27954128 0.021997223
-0.23210518 -0.28473976 0.022513559
-0.22908436 -0.29537293 0.021847919
-0.22608772 -0.30592203 0.022564214
-0.22297631 -0.31687203 0.02171281
-0.21835276 -0.33314511 0.022677055
-0.21517767 -0.34431848 0.022878455
-0.21180089 -0.35619888 0.021625826
-0.20846741 -0.36792788 0.02179837
-0.20352045 -0.38533458 0.023869082
-0.19976586 -0.3985413 0.022538761
-0.19606973 -0.41154322 0.02268244
-0.19219027 -0.4251889 0.0225327
-0.18781951 -0.44056004 0.020458475
-0.18186839 -0.4614926 0.022855993
-0.17731023 -0.47752264 0.022592233
-0.17216061 -0.49563068 0.020792073
-0.1670813 -0.51349217 0.020696582
-0.1595003 -0.54015148 0.023019973
-0.15345506 -0.56140751 0.022477638
-0.14689754 -0.58446407 0.021775682
-0.13748774 -0.61755085 0.025079027
-0.12959914 -0.64528614 0.024611363
-0.1202374 -0.67819935 0.022354364
-0.10978728 -0.71493858 0.0199506
-0.096264943 -0.76248163 0.02594807
-0.083531648 -0.8072474 0.025318619
-0.064967655 -0.872509 0.01749078
-0.050889831 -0.92200673 0.036324929
-0.058906201 -0.89384049 0.10214835
-0.056824669 -0.90116251 0.12551311
-0.24071419 -0.25366038 -0.008159725
-0.23892397 -0.25913653 0.020890264
-0.23594435 -0.2694625 0.023258697
-0.23291147 -0.27996764 0.022010809
-0.22834666 -0.29577973 0.021861646
-0.22530499 -0.30631581 0.022578035
-0.22220476 -0.31705332 0.02270502
-0.21902147 -0.32807705 0.022267098
-0.21580775 -0.33920589 0.022256877
-0.21239641 -0.35101685 0.020778859
-0.20761992 -0.36755815 0.023680424
-0.20400532 -0.38007137 0.022463009
-0.20032798 -0.39280167 0.021785833
-0.19659404 -0.40572777 0.021663193
-0.19103964 -0.42495638 0.023414042
-0.18675923 -0.4397715 0.022170462
-0.18239622 -0.45487255 0.021636678
-0.17763293 -0.47135779 0.020212883
-0.1714465 -0.49277174 0.024695741
-0.16560039 -0.5130018 0.021467624
-0.16017923 -0.53176284 0.021545293
-0.15369013 -0.55421758 0.01908128
-0.14493471 -0.58451694 0.021792352
-0.13773738 -0.60942221 0.021114759
-0.12975965 -0.6370272 0.020035855
-0.11901584 -0.6742056 0.025242934
-0.10936905 -0.70758522 0.024875974
-0.09838596 -0.74558806 0.024001596
-0.084808484 -0.79256678 0.02068124
-0.067528196 -0.85236013 0.027608234
-0.048456773 -0.91834754 0.023450445
-0.05651791 -0.89046991 0.090246737
-0.055873554 -0.89270353 0.11536637
-0.23714316 -0.2645438 0.021029722
-0.23411693 -0.27495557 0.021589974
-0.23109788 -0.28534219 0.022528261
-0.22650321 -0.30114615 0.022666166
-0.22339222 -0.31184554 0.02259198
-0.2202003 -0.32282171 0.021946575
-0.21697555 -0.33391038 0.021725681
-0.21221611 -0.35027695 0.023633217
-0.20884709 -0.36185968 0.023547582
-0.20533809 -0.37392238 0.023005463
-0.20166732 -0.38654003 0.022056272
-0.19793643 -0.39936408 0.021654546
-0.19251193 -0.41801018 0.023858277
-0.1885315 -0.43169037 0.023991037
-0.18404032 -0.44712377 0.022233041
-0.17961404 -0.46233448 0.022051549
-0.17327577 -0.48411629 0.02513841
-0.16817132 -0.50165534 0.024477554
-0.16260122 -0.52079344 0.023241861
-0.15634027 -0.54230404 0.020875946
-0.14994273 -0.56428397 0.019712592
-0.14128488 -0.59403044 0.023900086
-0.1333483 -0.62129617 0.021945616
-0.12503608 -0.64985216 0.021013232
-0.11520889 -0.68361181 0.018351614
-0.10344962 -0.72400981 0.025730534
-0.090868361 -0.7672295 0.022961427
-0.075611308 -0.8196407 0.018284462
-0.053776547 -0.89464778 0.020318521
-0.054155607 -0.89334565 0.075850189
-0.054677252 -0.89155239 0.10281906
-0.048012268 -0.91444594 0.12113544
-0.23805991 -0.25975141 0.021889023
-0.23499952 -0.27012491 0.022259297
-0.23191975 -0.28056249 0.022010464
-0.23036082 -0.28584507 0.021532428
-0.22726186 -0.29634726 0.021861857
-0.22263291 -0.31203464 0.023573628
-0.21940674 -0.32296482 0.022921467
-0.21614724 -0.33400762 0.022692626
-0.21285893 -0.34514791 0.022894502
-0.20945407 -0.3566817 0.022588141
-0.204383 -0.37386039 0.023935368
-0.20231354 -0.38086724 0.021545244
-0.19702215 -0.39879075 0.023456201
-0.19307019 -0.41217402 0.022701312
-0.18905263 -0.42577946 0.02255214
-0.18467644 -0.44059771 0.021326976
-0.17852591 -0.46142656 0.023696473
-0.17381358 -0.47738227 0.023412859
-0.16848859 -0.49541065 0.02159201
-0.16171423 -0.5183503 0.026224194
-0.15559338 -0.53907186 0.024483772
-0.14914344 -0.56090736 0.023197832
-0.14193857 -0.5852977 0.021132033
-0.13393694 -0.61238462 0.018551573
-0.12378346 -0.64675957 0.023435069
-0.11477346 -0.67726004 0.02295829
-0.1039575 -0.71387261 0.020527178
-0.090698503 -0.75875896 0.02798371
-0.074030451 -0.81517857 0.020652933
-0.060617536 -0.86058295 0.02323547
-0.042469513 -0.92201877 0.035973307
-0.051033393 -0.89304984 0.10218659
-0.050504062 -0.89484793 0.12730969
-0.23780376 -0.25994712 0.020888364
-0.23317039 -0.27554333 0.021586886
-0.22855346 -0.29108301 0.023135804
-0.22540152 -0.30168873 0.022663264
-0.2222271 -0.31236964 0.022589156
-0.21743228 -0.32850179 0.023235608
-0.21567957 -0.33439633 0.021723013
-0.21073493 -0.35103008 0.022679394
-0.20728774 -0.36262441 0.022605203
-0.20369785 -0.37469745 0.022075633
-0.19840367 -0.39250258 0.023597056
-0.19612689 -0.4001562 0.020753248
-0.19044021 -0.41927853 0.022106258
-0.18636124 -0.43299296 0.022273999
-0.1819167 -0.4479349 0.021392075
-0.17585588 -0.46831229 0.025067514
-0.17056094 -0.4861103 0.022771418
-0.16551219 -0.50308132 0.022943042
-0.15943171 -0.52351826 0.020265946
-0.15206987 -0.5482645 0.025447907
-0.14532125 -0.57094592 0.02402691
-0.1369365 -0.59912467 0.019302977
-0.12990059 -0.62277132 0.020685125
-0.11940977 -0.65802896 0.025894687
-0.10958332 -0.69105166 0.024521386
-0.098141044 -0.72950387 0.022016687
-0.084233686 -0.77624041 0.029903002
-0.069382325 -0.82614779 0.027697589
-0.04759391 -0.89936644 0.017779725
-0.048950884 -0.89480114 0.11443612
-0.039226249 -0.9274773 0.13012637
-0.23902652 -0.25500122 0.02184632
-0.23720747 -0.26037365 0.021891538
-0.23250572 -0.27596632 0.021590667
-0.23094329 -0.28114811 0.022012804
-0.22935289 -0.28642139 0.021534722
-0.22619131 -0.2969051 0.02186407
-0.22141357 -0.31274676 0.022593992
-0.21817742 -0.32347575 0.022923486
-0.21485206 -0.33449909 0.022694567
-0.20985498 -0.35106415 0.023636568
-0.20792946 -0.35744417 0.021644171
-0.20284994 -0.37428159 0.02393706
-0.1990629 -0.38683107 0.022974668
-0.19521357 -0.39958689 0.022558641
-0.19117273 -0.41297629 0.021819513
-0.1869206 -0.42706493 0.020820806
-0.18087332 -0.44710335 0.023078671
-0.17646991 -0.46169284 0.023697715
-0.17148837 -0.47819585 0.022615001
-0.16604777 -0.49621859 0.020815512
-0.15854463 -0.5210759 0.023250807
-0.15267198 -0.54052949 0.023045059
-0.14628518 -0.56168538 0.022503518
-0.13584632 -0.59626263 0.02194161
-0.1289666 -0.6190511 0.023847288
-0.12015843 -0.64822513 0.022230892
-0.10869168 -0.68620694 0.027894562
-0.098109037 -0.72125757 0.027337249
-0.085614234 -0.7626406 0.025480945
-0.068839923 -0.81819594 0.018772628
-0.049933389 -0.88081658 0.026687546
-0.046121985 -0.89345372 0.10186048
-0.041985057 -0.90715766 0.12320741
-0.24007858 -0.25020587 0.020898797
-0.236656 -0.26075768 0.023893127
-0.23348284 -0.27113277 0.022263529
-0.23030011 -0.28153992 0.022014556
-0.22552724 -0.29714626 0.022856111
-0.22227886 -0.30776572 0.022582363
-0.21894859 -0.31865141 0.0217313
-0.21565253 -0.32942578 0.022271907
-0.21226342 -0.34050289 0.022261932
-0.20717742 -0.35712582 0.023537014
-0.20341869 -0.36940709 0.021818459
-0.19981654 -0.38117802 0.02246896
-0.19423306 -0.39942181 0.023458932
-0.1918675 -0.40714824 0.020778367
-0.18599606 -0.42633104 0.02255461
-0.18162809 -0.44059953 0.022177733
-0.17528357 -0.4613252 0.024518169
-0.17024507 -0.47778165 0.023414876
-0.16510968 -0.49455431 0.023149034
-0.1593124 -0.51348734 0.021476531
-0.1531955 -0.53346372 0.020090949
-0.14495632 -0.56037217 0.023894371
-0.13773389 -0.58395737 0.022472514
-0.12970112 -0.61018801 0.020482546
-0.12058862 -0.63994372 0.017582741
-0.10969979 -0.67550111 0.024107186
-0.099268332 -0.70956284 0.023253689
-0.087166265 -0.74907893 0.021437658
-0.071501531 -0.80022824 0.028644159
-0.054558974 -0.85554856 0.025429981
-0.034957606 -0.91955018 0.022246618
-0.043707535 -0.89097857 0.089578837
-0.043298025 -0.89231354 0.11507414
-0.23949854 -0.25066835 0.020895667
-0.23471197 -0.266197 0.022025788
-0.23310365 -0.27141255 0.021259343
-0.22828947 -0.2870262 0.021530816
-0.22669506 -0.29219759 0.02214345
-0.2234706 -0.30265445 0.02266372
-0.22018689 -0.31330198 0.022589801
-0.21522713 -0.32938373 0.023236537
-0.21182278 -0.34042063 0.023217438
-0.2099805 -0.34639162 0.02193534
-0.20483486 -0.3630738 0.02354664
-0.2011313 -0.37507805 0.023004817
-0.19725701 -0.38763461 0.022055933
-0.19159655 -0.40598163 0.023446135
-0.18932481 -0.41334251 0.021814357
-0.18324152 -0.43305787 0.023134265
-0.17706959 -0.45306003 0.025784997
-0.17239788 -0.46819788 0.025880316
-0.16711131 -0.48532626 0.024351999
-0.16171619 -0.50280643 0.023713471
-0.15563256 -0.52251595 0.0217575
-0.14900985 -0.5439713 0.019439699
-0.14064497 -0.57107425 0.02403203
-0.13308591 -0.5955624 0.022591528
-0.12492588 -0.62199706 0.02132096
-0.1145633 -0.65556991 0.027666314
-0.104663 -0.68764126 0.026767619
-0.093101896 -0.72509187 0.024677018
-0.080068998 -0.76730984 0.022469277
-0.062635675 -0.82378477 0.028616156
-0.039576136 -0.89847934 0.017790219
-0.041858099 -0.89110798 0.10250425
-0.033412401 -0.91846901 0.11938914
-0.23763579 -0.2560772 0.022851365
-0.23576939 -0.26141924 0.022896854
-0.23252279 -0.27180827 0.021268688
-0.2276495 -0.28740409 0.021540629
-0.22607195 -0.29245394 0.023146037
-0.22277135 -0.3030144 0.022674007
-0.22111195 -0.30832356 0.022587059
-0.21603663 -0.32456017 0.021955622
-0.21266828 -0.33533609 0.022701446
-0.20911495 -0.34670129 0.021946996
-0.2055162 -0.35821149 0.021651555
-0.2018773 -0.36984968 0.021824788
-0.19797035 -0.38234311 0.020634055
-0.19237849 -0.400226 0.022567011
-0.1882036 -0.41357464 0.021828206
-0.182506 -0.43179411 0.025721345
-0.17756228 -0.44759762 0.023088222
-0.17301267 -0.46214256 0.023707641
-0.16768613 -0.47916901 0.021826295
-0.16243245 -0.4959628 0.021603892
-0.1546919 -0.520706 0.024005849
-0.14821711 -0.54140061 0.022337204
-0.14118138 -0.56388742 0.020430615
-0.134002 -0.58683324 0.019806674
-0.12439564 -0.61753654 0.025121063
-0.11483096 -0.64810359 0.02224575
-0.10507654 -0.679277 0.021252014
-0.092555106 -0.71929371 0.028415097
-0.079138987 -0.76216757 0.025498921
-0.063916601 -0.81081343 0.022552565
-0.040649205 -0.88516819 0.024169371
-0.037765503 -0.89438075 0.10123038
-0.033197843 -0.90897501 0.12235129
-0.23867325 -0.25140557 0.0239147
-0.23381723 -0.26682028 0.023045605
-0.23053895 -0.27722692 0.021608023
-0.22401021 -0.29795435 0.022873018
-0.22234479 -0.30324078 0.022686692
-0.21899673 -0.31386802 0.022613518
-0.2139398 -0.32991907 0.023261372
-0.21038586 -0.34119722 0.022281621
-0.20687659 -0.35233435 0.022707112
-0.20324121 -0.36387056 0.022633921
-0.1994554 -0.37588313 0.022105392
-0.19387245 -0.39359891 0.023628347
-0.18971029 -0.4068037 0.022584928
-0.18532902 -0.42070276 0.021264957
-0.18101871 -0.4343774 0.021451255
-0.1746996 -0.45442569 0.024159525
-0.16956599 -0.47070947 0.022677118
-0.16451283 -0.48673865 0.022810701
-0.15860951 -0.50546259 0.020684395
-0.15115619 -0.52910614 0.025245484
-0.1443779 -0.55060434 0.02336978
-0.1372402 -0.57324231 0.022026002
-0.1292856 -0.59847051 0.020008393
-0.1193148 -0.6300959 0.025631577
-0.10960644 -0.66088521 0.023595326
-0.098224506 -0.69698143 0.020100286
-0.085520469 -0.73727411 0.028701426
-0.071387507 -0.78209442 0.026083874
-0.055153362 -0.83357817 0.023220027
-0.031319093 -0.90916598 0.026783407
-0.036585286 -0.89248252 0.11481927
-0.027493032 -0.92131931 0.13158381
-0.23680174 -0.25671452 0.024863169
-0.23325945 -0.26719975 0.023049828
-0.22992168 -0.27766034 0.020614704
-0.22501653 -0.29303843 0.02316273
-0.22160573 -0.30372721 0.021703403
-0.21662845 -0.31932798 0.023710832
-0.21479118 -0.32508385 0.021973867
-0.20963889 -0.34123015 0.023247929
-0.20600478 -0.35261652 0.022712125
-0.20232697 -0.36413956 0.022639062
-0.19849695 -0.37613839 0.022110671
-0.19297737 -0.3934319 0.024540426
-0.18877612 -0.40659165 0.023481902
-0.18450052 -0.41998416 0.023020614
-0.1801582 -0.43358549 0.02317223
-0.17345187 -0.45459089 0.024165811
-0.1702584 -0.46459028 0.02045441
-0.16314599 -0.48686662 0.022817424
-0.15795566 -0.50312167 0.023757137
-0.15147717 -0.52340829 0.021059211
-0.14320563 -0.54931223 0.024792505
-0.13599917 -0.57187778 0.023398858
-0.12796572 -0.59703219 0.021329744
-0.11789836 -0.62855744 0.026872676
-0.10833523 -0.65850067 0.025369423
-0.09759488 -0.69212943 0.02346828
-0.085635461 -0.72957492 0.021556329
-0.070792779 -0.77604973 0.029492382
-0.055216607 -0.82481855 0.027777264
-0.031422626 -0.89931554 0.017020201
-0.033751413 -0.89203447 0.10192799
-0.022764837 -0.92643434 0.12994036
-0.23626952 -0.25715131 0.023876835
-0.23463105 -0.26225436 0.02492043
-0.23129153 -0.27264947 0.021293433
-0.22963461 -0.27780887 0.021621553
-0.2229889 -0.29850015 0.022887418
-0.21959227 -0.30907324 0.022614794
-0.21617368 -0.31971413 0.022743149
-0.21101436 -0.33577231 0.023697423
-0.20747098 -0.34679943 0.023890737
-0.20380154 -0.35821757 0.023574665
-0.19998099 -0.3701047 0.022791175
-0.19445883 -0.38728696 0.024844293
-0.19204958 -0.39478028 0.021833591
-0.18628283 -0.4127214 0.024513895
-0.18180656 -0.42664474 0.023465879
-0.17708626 -0.44132629 0.022224179
-0.1722748 -0.45629105 0.021692308
-0.16536792 -0.47777304 0.024264257
-0.15981403 -0.49504477 0.023201143
-0.15395303 -0.51327097 0.022285754
-0.1477737 -0.53248644 0.021610666
-0.13874103 -0.56057429 0.023953365
-0.13118908 -0.58405626 0.022533966
-0.12302428 -0.60944331 0.021189963
-0.11086778 -0.64724094 0.02290158
-0.10212649 -0.67441916 0.024752239
-0.091481745 -0.707515 0.024418458
-0.0783142 -0.74845427 0.021516282
-0.062475052 -0.79769796 0.029668104
-0.045319486 -0.85103512 0.027275272
-0.024003085 -0.91730851 0.022750162
-0.032295533 -0.89151305 0.08898709
-0.032150812 -0.89195591 0.11485815
-0.23231727 -0.26789579 0.022066722
-0.22727108 -0.28338352 0.022052165
-0.22388807 -0.29376578 0.022188179
-0.21877427 -0.30945858 0.022623636
-0.21531115 -0.32008481 0.022752354
-0.21175531 -0.33099434 0.022316208
-0.20816545 -0.34200782 0.022307783
-0.20445071 -0.3534033 0.021782866
-0.1990193 -0.3700659 0.023735909
-0.19510284 -0.38207859 0.023441205
-0.19087398 -0.39504781 0.021845387
-0.18670304 -0.4078398 0.021724831
-0.1823256 -0.42126429 0.021297175
-0.17588153 -0.4410269 0.02308595
-0.17101701 -0.45594341 0.022535602
-0.16552289 -0.47278884 0.020285103
-0.1604766 -0.4882623 0.021271242
-0.15289576 -0.51150709 0.024566896
-0.14666089 -0.53062248 0.023822449
-0.13921653 -0.5534445 0.020581845
-0.13061079 -0.57982951 0.026569642
-0.12285837 -0.60359561 0.026354963
-0.11253563 -0.63523966 0.021366889
-0.10297949 -0.66453421 0.020704506
-0.090050094 -0.70417011 0.026621498
-0.078064606 -0.74091065 0.026179986
-0.063191004 -0.78650379 0.023231531
-0.046418145 -0.83791864 0.020556383
-0.021512246 -0.91426414 0.02400161
-0.028627936 -0.89245307 0.11457777
-0.017160576 -0.92760301 0.12944466
-0.23540267 -0.25783619 0.026892915
-0.23373833 -0.26291111 0.025936814
-0.2303285 -0.27330118 0.021310333
-0.22695228 -0.28359276 0.022061504
-0.22523503 -0.28882632 0.021584157
-0.22008765 -0.30451381 0.021731619
-0.21666223 -0.31495294 0.022647101
-0.21309768 -0.32581404 0.022003615
-0.20957722 -0.33654103 0.02275073
-0.20595473 -0.34757766 0.022954099
-0.20210235 -0.35931295 0.021703569
-0.19661736 -0.37602282 0.023998847
-0.19252822 -0.38847762 0.023038235
-0.18837176 -0.40113705 0.022624021
-0.18400855 -0.41442531 0.021886799
-0.17941722 -0.42840755 0.0208901
-0.17305709 -0.44777712 0.02398981
-0.16795349 -0.46331757 0.022952504
-0.16256574 -0.47972268 0.021892641
-0.15687887 -0.49703789 0.020894712
-0.14898556 -0.52107131 0.024077084
-0.14221892 -0.54167247 0.022410881
-0.13509047 -0.56337464 0.021202037
-0.12713125 -0.58760542 0.019216135
-0.11708112 -0.61820138 0.024573917
-0.10732783 -0.64789248 0.022331975
-0.097389325 -0.67814702 0.021915939
-0.084576987 -0.71714878 0.029570475
-0.069756947 -0.7622624 0.025098063
-0.054669689 -0.8081888 0.023597848
-0.028954431 -0.88646656 0.023014078
-0.016810562 -0.92343038 0.034157462
-0.026197564 -0.89484125 0.10069306
-0.023207307 -0.90393704 0.12363938
-0.23677497 -0.2529743 0.02394997
-0.23309112 -0.26340309 0.023947027
-0.22964877 -0.27374658 0.021320635
-0.22622934 -0.28402352 0.02207217
-0.22452322 -0.28915107 0.022589596
-0.22103268 -0.29963949 0.021926187
-0.21580788 -0.31533927 0.02265889
-0.21404068 -0.320649 0.022773862
-0.2086326 -0.33689687 0.022763304
-0.20496406 -0.34791791 0.02296708
-0.20116556 -0.35932836 0.022662694
-0.19732448 -0.37086642 0.022825779
-0.1913671 -0.38876039 0.023052737
-0.18729648 -0.40098664 0.023538038
-0.18288781 -0.41422683 0.022785481
-0.17840594 -0.42768663 0.02263869
-0.1735241 -0.44234648 0.02141612
-0.16666269 -0.46295193 0.023789305
-0.16121577 -0.47930741 0.022709584
-0.15546575 -0.49657249 0.021690849
-0.14939928 -0.51478738 0.020821773
-0.14108056 -0.53976566 0.024590412
-0.13343105 -0.56273174 0.021918288
-0.1258485 -0.58549702 0.021246916
-0.11716474 -0.61156774 0.019314464
-0.10584848 -0.64554262 0.024163282
-0.095804267 -0.67569697 0.023663715
-0.08454024 -0.70951295 0.022845495
-0.068963185 -0.75627738 0.028630318
-0.05288646 -0.80454051 0.025508491
-0.034850582 -0.85868496 0.022961082
-0.014822992 -0.91880852 0.02160823
-0.023245228 -0.893525 0.10105373
-0.023848893 -0.89171171 0.12748174
-0.0089023886 -0.93658012 0.14000672
-0.2362304 -0.2534233 0.024960376
-0.23249717 -0.26383442 0.024968771
-0.23074041 -0.26904085 0.021109039
-0.22554655 -0.28444287 0.022095799
-0.22033149 -0.29990616 0.022941448
-0.2167823 -0.31042847 0.022670491
-0.21321024 -0.32101825 0.022800522
-0.20781945 -0.33699918 0.023757333
-0.20402366 -0.34824994 0.022995964
-0.20028329 -0.35933682 0.023638126
-0.19629155 -0.37116712 0.022856517
-0.19211675 -0.3835392 0.021655692
-0.18800499 -0.39572471 0.021902844
-0.18183017 -0.414024 0.023702808
-0.17730376 -0.42743653 0.023540195
-0.1725418 -0.44154644 0.023149118
-0.16716695 -0.45747095 0.020942044
-0.16185804 -0.47320029 0.020352228
-0.15432827 -0.4955101 0.023286341
-0.14841516 -0.51302832 0.023128828
-0.13981059 -0.53852034 0.026073663
-0.13231418 -0.56072736 0.024048999
-0.12466257 -0.58339399 0.02330279
-0.11540558 -0.61081535 0.020007102
-0.10670466 -0.63658965 0.020222314
-0.09406516 -0.67403084 0.024866004
-0.082677051 -0.70776391 0.023992479
-0.070012003 -0.74527907 0.023188101
-0.052644335 -0.7967236 0.029801507
-0.034435332 -0.85065949 0.026978385
-0.012162208 -0.91663325 0.022495439
-0.020523068 -0.89186549 0.088450752
-0.020367526 -0.89232409 0.11438798
-0.0046598474 -0.93884718 0.13930255
-0.23051584 -0.26915404 0.023114346
-0.2287678 -0.27430627 0.022348611
-0.2235353 -0.28972957 0.022620445
-0.2217631 -0.29495263 0.022239964
-0.21824726 -0.30531502 0.0227632
-0.21466689 -0.31586653 0.022692302
-0.21106584 -0.32647857 0.023024727
-0.20554723 -0.34274033 0.023327647
-0.2018052 -0.35376635 0.023745364
-0.1996628 -0.36007741 0.02175471
-0.19376987 -0.37743944 0.022197543
-0.18966629 -0.38952866 0.022179579
-0.18364069 -0.4072803 0.024466179
-0.18101804 -0.4150047 0.021945328
-0.17438559 -0.43454179 0.02327086
-0.16920836 -0.44979045 0.021536069
-0.1623743 -0.46992016 0.025217671
-0.15660182 -0.48692086 0.023715202
-0.15091784 -0.50366086 0.02386996
-0.14428543 -0.52319312 0.021919603
-0.13773522 -0.54248315 0.021766804
-0.12818076 -0.57062042 0.024890304
-0.11994739 -0.59486586 0.02343083
-0.1113084 -0.62030554 0.022770742
-0.10046814 -0.65222675 0.018808749
-0.087652005 -0.68996614 0.024738589
-0.074751161 -0.72795433 0.022245424
-0.060513988 -0.7698772 0.020199234
-0.043186732 -0.82089812 0.029318521
-0.017178696 -0.89748138 0.017213352
-0.019030847 -0.89201665 0.10146783
-0.0085793464 -0.92278832 0.11732223
-0.23542516 -0.25411481 0.026995109
-0.22992256 -0.26954719 0.024141949
-0.22814378 -0.27472565 0.022377262
-0.22285338 -0.29012963 0.02265045
-0.22106154 -0.2953462 0.02227043
-0.21750669 -0.30569553 0.022794574
-0.21388656 -0.31623381 0.022724602
-0.21024546 -0.3268325 0.023057956
-0.20650405 -0.33772212 0.022833008
-0.20263442 -0.34898385 0.022082422
-0.19871533 -0.36038902 0.021790892
-0.19287828 -0.3773751 0.023162561
-0.18873921 -0.38941857 0.023132021
-0.18426578 -0.40243375 0.021821681
-0.17986184 -0.41524649 0.021986337
-0.17507774 -0.42916423 0.020992739
-0.16827355 -0.44895825 0.023257891
-0.16294628 -0.46445438 0.022243543
-0.15557124 -0.48590642 0.025339019
-0.14942303 -0.50378871 0.023918787
-0.14315088 -0.52203089 0.023456933
-0.13609184 -0.54256111 0.021819074
-0.12666708 -0.56997025 0.025627313
-0.1183484 -0.59416234 0.024144046
-0.10936653 -0.62028253 0.022829918
-0.099182755 -0.64989758 0.020677034
-0.08625105 -0.68750095 0.026482437
-0.074325703 -0.72217876 0.026025699
-0.060531598 -0.76229048 0.024774471
-0.043370184 -0.81219441 0.020966096
-0.015940245 -0.89195585 0.019834887
-0.015732102 -0.8925252 0.10122523
-0.0088886842 -0.91241431 0.120628
-0.23484428 -0.25458723 0.02601612
-0.2295478 -0.26989281 0.021154046
-0.22600292 -0.28013927 0.021718765
-0.21889728 -0.30067611 0.022990745
-0.21526575 -0.31117058 0.022721257
-0.21161081 -0.32173228 0.022852773
-0.20609495 -0.33767071 0.023811832
-0.20230681 -0.34861577 0.02400844
-0.19838399 -0.35994911 0.023695782
-0.19618183 -0.36631036 0.02183417
-0.19028381 -0.38334969 0.023558039
-0.18595931 -0.39584163 0.022872124
-0.17965659 -0.41404778 0.024651386
-0.17664126 -0.42275614 0.020549655
-0.16999938 -0.44194058 0.023218509
-0.1648659 -0.45676675 0.022672152
-0.15945271 -0.47240031 0.02204456
-0.15177555 -0.49457192 0.02491818
-0.14552835 -0.51261276 0.02396344
-0.13916357 -0.53099275 0.023979051
-0.13177058 -0.5523414 0.022159232
-0.12174037 -0.58130479 0.025400765
-0.11379529 -0.60424656 0.025888216
-0.10392643 -0.63274306 0.023399413
-0.090241179 -0.67225832 0.02611671
-0.079974174 -0.7019031 0.027914718
-0.06621708 -0.74162543 0.025362676
-0.050796788 -0.7861498 0.022972083
-0.03280079 -0.83811104 0.019887403
-0.0068035629 -0.91317266 0.023854783
-0.013677302 -0.89330173 0.11390472
-0.0021957669 -0.92644709 0.12943321
-0.23283234 -0.25985089 0.028979566
-0.2289944 -0.27029455 0.021176981
-0.22541097 -0.28052792 0.021742152
-0.22001278 -0.2959421 0.022305747
-0.21455675 -0.31151959 0.022746008
-0.21086189 -0.32206777 0.022877984
-0.20706813 -0.33289731 0.022445185
-0.20323804 -0.34382993 0.022440143
-0.19937691 -0.3548505 0.022869894
-0.19347961 -0.37168136 0.023876896
-0.18930107 -0.38360584 0.023585891
-0.18492909 -0.39608163 0.022900503
-0.18018919 -0.40960643 0.020986298
-0.17388465 -0.42759484 0.024503447
-0.17058574 -0.43700701 0.019930879
-0.16397303 -0.45587254 0.024361463
-0.15813039 -0.47254071 0.022076126
-0.152154 -0.48958969 0.020660495
-0.14405203 -0.51270032 0.023996653
-0.13784239 -0.53041279 0.024744581
-0.12944084 -0.55437827 0.020072151
-0.12000077 -0.58130193 0.025436766
-0.11171438 -0.60493618 0.025282156
-0.10172924 -0.63341594 0.022821618
-0.090477362 -0.66550839 0.019760504
-0.077494472 -0.70253187 0.027410695
-0.063579142 -0.74221921 0.024889862
-0.04827179 -0.78587586 0.023016302
-0.028303171 -0.84281993 0.030662822
-0.0037911264 -0.91272974 0.023904057
-0.010415602 -0.89377636 0.11364372
0.00056248077 -0.92507207 0.12975866
-0.23584758 -0.25010267 0.022194093
-0.23224889 -0.2603099 0.031002628
-0.23046127 -0.26537782 0.024048293
-0.22685225 -0.27561009 0.022423591
-0.22323227 -0.28587326 0.02217954
-0.22139998 -0.29106775 0.021703927
-0.21595979 -0.30649027 0.022844341
-0.21225286 -0.31699806 0.022775544
-0.20852451 -0.32756609 0.023110084
-0.20469351 -0.3384243 0.022886356
-0.20073131 -0.3496536 0.022137037
-0.19671848 -0.3610259 0.02184679
-0.1925417 -0.37286222 0.021091605
-0.18650393 -0.38997158 0.023191204
-0.18192375 -0.40294948 0.021882342
-0.17741473 -0.41572535 0.022048457
-0.17251654 -0.42960319 0.021056445
-0.1655501 -0.44934005 0.023323862
-0.16028674 -0.46425113 0.023130575
-0.15473932 -0.47996646 0.022875013
-0.14625061 -0.50401312 0.023991056
-0.1398292 -0.52220309 0.023531301
-0.13283338 -0.54201984 0.022615314
-0.12498959 -0.56423831 0.02071891
-0.11468795 -0.59341651 0.024883
-0.10627587 -0.61724293 0.025433676
-0.095347159 -0.64819843 0.021970225
-0.084193222 -0.67979079 0.020445066
-0.070214599 -0.71937972 0.027713614
-0.056398958 -0.75850976 0.026877519
-0.037970811 -0.81070542 0.021543754
-0.011103668 -0.8867994 0.022066347
0.00094559928 -0.92091954 0.034490775
-0.0087541798 -0.89341283 0.10069131
-0.0039696498 -0.90695137 0.12221103
-0.23553818 -0.25046071 0.026201932
-0.22989777 -0.26580292 0.025075551
-0.22624329 -0.27603778 0.022451904
-0.22076623 -0.29137632 0.022728141
-0.21891125 -0.29657084 0.022349153
-0.21704844 -0.30178702 0.022068748
-0.21148323 -0.31736967 0.022807464
-0.20771375 -0.32792333 0.023142923
-0.20384049 -0.33876678 0.022920135
-0.19983459 -0.34998089 0.022171788
-0.19396152 -0.3664206 0.02379257
-0.18986066 -0.37789875 0.024184814
-0.18544987 -0.3902438 0.023229431
-0.18081903 -0.40320405 0.021921687
-0.17641795 -0.41552043 0.022971928
-0.17130765 -0.42982134 0.021098077
-0.16426387 -0.44953087 0.023367183
-0.15894215 -0.46442151 0.023175174
-0.15292837 -0.4812485 0.021323476
-0.14678513 -0.49843684 0.020354321
-0.1384826 -0.52166361 0.024324082
-0.13118406 -0.54208314 0.022666559
-0.12349525 -0.56359375 0.021466862
-0.11466046 -0.5883106 0.018821934
-0.10433134 -0.61720192 0.025491333
-0.093550064 -0.64736295 0.022632455
-0.082003586 -0.67966366 0.020508068
-0.068154454 -0.71839845 0.028310023
-0.053899989 -0.75827277 0.026947217
-0.035267372 -0.81039649 0.021617917
-0.0093544833 -0.88288963 0.0097238505
0.0040824558 -0.92045611 0.034574308
-0.0054022796 -0.89387113 0.10044657
-0.00023756815 -0.90829915 0.1217081
-0.23318332 -0.25593993 0.024084935
-0.22769256 -0.27121434 0.021225596
-0.22402477 -0.28141743 0.021792479
-0.21849963 -0.29678604 0.022358658
-0.21474446 -0.30723029 0.02189764
-0.20913373 -0.32283461 0.022935281
-0.20525089 -0.33363235 0.022504302
-0.20133093 -0.34453279 0.022501098
-0.19727467 -0.35581154 0.021981586
-0.19122246 -0.37263921 0.023008911
-0.18706727 -0.38419157 0.023653544
-0.18259285 -0.39663085 0.022970259
-0.17789558 -0.40968913 0.02194942
-0.17327993 -0.42251986 0.022402788
-0.1662588 -0.44203621 0.024174429
-0.16095725 -0.45677227 0.023612207
-0.15516713 -0.47286588 0.02215879
-0.14946768 -0.48870671 0.022322219
-0.14098181 -0.51229042 0.024840899
-0.13440508 -0.53056818 0.02483703
-0.12580706 -0.5544644 0.020168642
-0.11639825 -0.58060926 0.02620706
-0.10792606 -0.60415298 0.026030071
-0.097448364 -0.63327074 0.022931475
-0.086481251 -0.66374767 0.021051552
-0.07531511 -0.6947763 0.021075049
-0.059568156 -0.73853034 0.027078656
