# .PCD v0.7 - Point Cloud Data file format
VERSION 0.7
FIELDS x y z
SIZE 4 4 4
TYPE F F F
COUNT 1 1 1
WIDTH 1353
HEIGHT 1
VIEWPOINT 0 0 0 1 0 0 0
POINTS 1353
DATA ascii
-0.99503255 -1.233327 2.6696651
-0.90203732 -1.1499076 2.1976407
-0.95208383 -1.2350476 2.2239876
-0.90019494 -1.1907845 1.9476542
-0.95177233 -1.2868561 1.9276887
-0.99425209 -1.3624891 1.9310198
-1.028149 -1.4271379 1.9093682
-1.0857697 -1.5255908 1.9373237
-1.1397755 -1.6203693 1.9493787
-2.7152958 -4.3880849 2.2882872
-2.5037684 -4.4567747 -0.24658948
-1.6966078 -2.9954066 -0.17601624
-1.4391619 -2.5353551 -0.18780631
-1.2708077 -2.2355635 -0.2015193
-1.2011935 -2.1178579 -0.2426201
-2.0628183 -3.7842634 -0.91952378
-1.2580613 -2.2611187 -0.47560436
-1.2469066 -2.2547011 -0.55259746
-1.5430518 -2.8505991 -0.91607654
-1.4329238 -2.654458 -0.92491001
-0.47671422 -0.77405149 0.0012168067
-0.46473238 -0.75303185 -0.0016740529
-0.45228162 -0.73072207 -0.0020318904
-0.44049701 -0.70945203 -0.0015087728
-0.43069893 -0.69205552 -0.0027239672
-0.41954014 -0.67144465 0.00042129779
-0.41243029 -0.6593082 -0.0032502785
-0.40395132 -0.64396876 -0.0027102756
-0.3962698 -0.63015491 -0.002702937
-0.38589931 -0.6099087 0.0063761538
-0.37805921 -0.59507418 0.010542195
-0.37137115 -0.58096302 0.022373356
-0.36382127 -0.56782067 0.019852983
-0.35972834 -0.55945081 0.025564779
-0.35315159 -0.54823637 0.022020673
-0.34857473 -0.54013181 0.021256631
-0.34361339 -0.53079695 0.02354447
-0.34049377 -0.52660114 0.015473725
-0.33238471 -0.51281369 0.010855104
-0.32690573 -0.50467652 0.0010533532
-0.32299101 -0.4985697 -0.0042857593
-0.31460577 -0.48402777 -0.0074455757
-0.3124986 -0.48021019 -0.0073167174
-0.30833426 -0.47261739 -0.0068237945
-0.30216801 -0.46162623 -0.0074827746
-0.2981472 -0.45416075 -0.0062285289
-0.29213569 -0.44325194 -0.0057828249
-0.28795776 -0.43607989 -0.0077811163
-0.28383622 -0.42878127 -0.0084920591
-0.27971026 -0.4214226 -0.0089084832
-0.27359542 -0.41033152 -0.0084812362
-0.27131653 -0.40646648 -0.0098306201
-0.26487616 -0.39497519 -0.01044449
-0.25860706 -0.38349286 -0.0093711391
-0.25625104 -0.37938532 -0.010132959
-0.2445024 -0.35848993 -0.0115995
-0.23989859 -0.35008845 -0.010970821
-0.23474352 -0.34095049 -0.011773384
-0.22735471 -0.32748008 -0.010825496
-0.22179623 -0.31757602 -0.011391409
-0.21553965 -0.30662879 -0.013145146
-0.20768079 -0.29202822 -0.010579126
-0.20056775 -0.27957588 -0.012516811
-0.19334571 -0.26680157 -0.013740578
-0.18603222 -0.2537331 -0.01422979
-0.17453811 -0.23306572 -0.014261983
-0.16372408 -0.21305527 -0.011105602
-0.15248172 -0.19342373 -0.0143676
-0.14150533 -0.17392965 -0.015707383
-0.12528409 -0.14459826 -0.014737501
-0.11766495 -0.12977582 -0.0084140729
-0.10922665 -0.1135164 -0.0022808423
-0.088413134 -0.075695746 7.2022871e-05
-0.088529594 -0.072814494 0.017399877
-0.068185098 -0.036502019 0.016057862
-0.064942658 -0.027939778 0.031411216
-0.06582813 -0.026216649 0.049997039
-0.0677898 -0.024827115 0.077548929
-0.069018938 -0.023853887 0.095383853
-0.077826224 -0.037331976 0.10850641
-0.084697634 -0.044817429 0.13571744
-0.087957859 -0.049050517 0.14480536
-0.089296237 -0.047265504 0.16826826
-0.088554613 -0.043229435 0.18341699
-0.086121298 -0.03617141 0.19848004
-0.078597039 -0.019962203 0.213607
-0.072582886 -0.0047441353 0.23838718
0.30139387 0.6846959 0.34003422
0.30719203 0.70344335 0.38702944
0.61922199 1.2902039 0.53706819
0.42058662 0.93203413 0.52813923
0.27973276 0.67730761 0.51755255
-0.25607005 -0.29440376 0.45918509
-0.056776751 0.35933438 2.1317682
-0.067468151 0.38261345 2.3717773
-0.25665343 -0.24605775 0.73761547
-0.12321445 0.40697527 3.0750546
-0.18283495 0.2713688 2.9134045
-0.22543842 0.22908939 3.1066875
-0.2765739 0.1340189 3.0880973
-0.32649985 0.043037523 3.0803499
-0.37595159 -0.044944063 3.0847492
-0.44861081 -0.17835364 3.0678101
-0.49842146 -0.26413611 3.0882874
-0.54957616 -0.35082948 3.1172583
-0.58434099 -0.43881732 2.9725349
-0.65003461 -0.52858824 3.1316917
-0.70116514 -0.61890334 3.1399403
-0.68267602 -0.66599494 2.6858573
-0.83498341 -0.85290468 3.174947
-0.89349234 -0.95285577 3.2036126
-0.94744545 -1.0500028 3.2018857
-0.96562189 -1.1108053 3.0424778
-0.92801523 -1.1071618 2.6811874
-0.97287297 -1.1896706 2.6698973
-1.0521827 -1.31373 2.7734041
-0.92758703 -1.1902621 2.2065682
-0.91085958 -1.2016463 1.9721879
-0.93766761 -1.2558875 1.9374971
-0.98074204 -1.3320119 1.9442003
-1.0178694 -1.4009204 1.9313328
-1.0672866 -1.4875642 1.9429451
-1.1177765 -1.5768685 1.950403
-2.5472467 -3.9342718 3.1311219
-6.1427665 -10.537855 2.2904882
-2.410223 -4.2403097 0.0068354234
-1.8226215 -3.2138479 -0.15454645
-1.5263957 -2.6850414 -0.17178018
-1.3285654 -2.3322997 -0.18567835
-1.1995461 -2.1102722 -0.24021995
-2.108778 -3.8541567 -0.8708995
-1.9209186 -3.521023 -0.89445204
-1.2495186 -2.2475142 -0.50940847
-1.5954931 -2.9378321 -0.90074569
-1.4715508 -2.7158201 -0.9037593
-0.48894501 -0.79207414 -0.001449238
-0.47189969 -0.760921 0.0015249043
-0.46007779 -0.74004161 -0.00056756742
-0.43758172 -0.69972563 -0.0012587033
-0.42759228 -0.68176371 -0.0012450585
-0.4188081 -0.66611826 -0.002094392
-0.41023701 -0.65068644 -0.0019881914
-0.40189919 -0.6355083 -0.00094810809
-0.39219213 -0.61692601 0.0054413583
-0.38318649 -0.59953296 0.012227082
-0.37823433 -0.59130883 0.0083153248
-0.37074196 -0.57514149 0.02360546
-0.36372936 -0.56317824 0.019848548
-0.35780215 -0.55187386 0.023457322
-0.35320553 -0.54376334 0.022512747
-0.34819627 -0.5343762 0.024598554
-0.34261292 -0.52543885 0.018240817
-0.33659893 -0.51851773 -0.0039642365
-0.32789373 -0.50334489 -0.0068258638
-0.32559332 -0.49891251 -0.0051866178
-0.32131454 -0.49125662 -0.0054746661
-0.31919545 -0.48744369 -0.0054979883
-0.30269697 -0.45793903 -0.0068432079
-0.29871619 -0.4505167 -0.0054408521
-0.29050887 -0.4361327 -0.0077360524
-0.28648782 -0.42883626 -0.0074536204
-0.28437963 -0.42516929 -0.0081976661
-0.28214601 -0.42143929 -0.009859249
-0.27386999 -0.40651479 -0.0097919367
-0.2677784 -0.39530209 -0.0084586823
-0.26096383 -0.38335279 -0.010299599
-0.25471249 -0.37177166 -0.0085029164
-0.24297199 -0.350734 -0.0091077583
-0.23784608 -0.34165204 -0.0099400636
-0.23237839 -0.33203593 -0.011221037
-0.22683844 -0.32220471 -0.012018531
-0.22092277 -0.31176224 -0.013173204
-0.21307947 -0.29725465 -0.010982073
-0.20634887 -0.2854003 -0.012423774
-0.19917917 -0.27148685 -0.0067509431
-0.1900899 -0.25593114 -0.011205137
-0.18158676 -0.24099714 -0.013222824
-0.17256705 -0.22509928 -0.015032822
-0.16047259 -0.20302863 -0.013220586
-0.14956181 -0.18376422 -0.015187124
-0.13680829 -0.16140407 -0.018352499
-0.12048332 -0.1316904 -0.016257452
-0.11912661 -0.1266498 -0.0016651115
-0.10662431 -0.10240121 0.008335839
-0.085860662 -0.065942422 0.0035939536
-0.076680772 -0.047871806 0.012459687
-0.068617836 -0.023535861 0.067759268
-0.070166148 -0.023057893 0.086044505
-0.074974082 -0.028195979 0.10565861
-0.084042914 -0.04077968 0.12641813
-0.089011647 -0.046524622 0.14423104
-0.090819068 -0.0469032 0.16030134
-0.09092661 -0.044350524 0.17569332
-0.088845208 -0.03793465 0.1907136
-0.08405304 -0.025211921 0.21381825
-0.073939681 -0.0041864398 0.22993298
-0.070524886 0.0050204773 0.24720633
0.29912508 0.68894881 0.36269915
0.61546934 1.2874933 0.53656214
0.42778289 0.94472373 0.50310642
0.27901635 0.67624182 0.49466541
0.27644101 0.6841349 0.56530762
-0.037288174 0.32404387 1.7111107
-0.044130001 0.33878967 1.8639549
-0.050335396 0.3619979 2.0582385
-0.24614805 -0.22533913 0.72264558
-0.25451607 -0.2381064 0.73523396
-0.11471257 0.38924858 2.8660476
-0.15125096 0.36188203 3.0821922
-0.20181309 0.27644339 3.1120608
-0.25369072 0.17922872 3.0886254
-0.32896271 0.045513507 3.0961504
-0.37822142 -0.045746215 3.0798078
-0.42817739 -0.13118251 3.1035106
-0.47626624 -0.22073229 3.0849538
-0.52757943 -0.30666056 3.1196499
-0.57691783 -0.39511845 3.1199594
-0.627841 -0.48405731 3.1336403
-0.70301235 -0.61867529 3.1349776
-0.75213748 -0.70842999 3.125761
-0.72204882 -0.73873925 2.648334
-0.86614102 -0.9021529 3.1868851
-0.92672193 -1.0048037 3.2210248
-0.94238025 -1.0640422 3.0445566
-0.96257162 -1.124145 2.9092438
-0.9710288 -1.1845009 2.6531971
-1.0221683 -1.2747984 2.6613357
-0.91599697 -1.1726595 2.1608074
-0.97317737 -1.2669333 2.2077992
-0.91816109 -1.2172496 1.9299898
-0.96220779 -1.2941154 1.9421048
-0.99389702 -1.3552315 1.9178424
-1.0508193 -1.4515634 1.9505438
-1.1089519 -1.5602502 1.9254895
-1.1593397 -1.6502243 1.9277869
-2.5384455 -3.8976214 3.2124553
-6.3219867 -10.83748 2.3505547
-1.615124 -2.8427448 -0.20038377
-1.3892927 -2.4391596 -0.20948668
-1.2356054 -2.1653175 -0.22034553
-2.2096326 -4.0241265 -0.85136378
-1.9952302 -3.6429749 -0.87139988
-1.2602559 -2.2540538 -0.47308934
-1.2611639 -2.2709551 -0.55980319
-1.5093325 -2.7828369 -0.9377504
-1.3983806 -2.5839605 -0.93893754
-0.49325585 -0.7949869 -0.003559541
-0.47914615 -0.76988548 -0.0049200784
-0.4653714 -0.74508458 -0.0045778998
-0.45477143 -0.7265107 -0.0072456067
-0.44337147 -0.70596719 -0.0068847016
-0.43364343 -0.68699867 0.0016273577
-0.42448309 -0.67064047 0.0010406215
-0.41585886 -0.65518492 0.00078949751
-0.40605524 -0.63851243 -0.0046333275
-0.39897722 -0.6259855 -0.0057598213
-0.38983425 -0.60677022 0.010099591
-0.38380477 -0.59612674 0.008960628
-0.37579402 -0.58056396 0.015555472
-0.3688457 -0.56717473 0.020634992
-0.3656005 -0.56091207 0.023054449
-0.36012295 -0.55070555 0.025051042
-0.35726961 -0.54520988 0.027108675
-0.34931529 -0.53198999 0.020848047
-0.34312096 -0.52129155 0.018269487
-0.33940795 -0.51869428 -0.0049882112
-0.33489254 -0.51060009 -0.0051783393
-0.32835516 -0.49901834 -0.0062365164
-0.32614565 -0.49490449 -0.0054630856
-0.3198145 -0.48369032 -0.0065070079
-0.31771529 -0.47988757 -0.0063746856
-0.31149974 -0.46889761 -0.0074813096
-0.30737415 -0.46164912 -0.0085082985
-0.30333596 -0.45415527 -0.0072566904
-0.30139557 -0.45035395 -0.0055233594
-0.2993781 -0.44675255 -0.0057059112
-0.29520732 -0.43961969 -0.0078479629
-0.28906578 -0.4286783 -0.008525081
-0.2828145 -0.4175984 -0.0095332367
-0.27669612 -0.40646324 -0.0088782944
-0.2744039 -0.40256044 -0.010146355
-0.2681345 -0.39116442 -0.0095489649
-0.26383701 -0.38339984 -0.0094017396
-0.26127523 -0.37909305 -0.01112128
-0.24973223 -0.35840204 -0.011628728
-0.24461065 -0.34939772 -0.012834342
-0.23751466 -0.33640417 -0.011589854
-0.23228928 -0.32702598 -0.011732991
-0.22453813 -0.31288701 -0.010658809
-0.21825731 -0.30185419 -0.012155459
-0.21222714 -0.29102129 -0.012237561
-0.20508857 -0.27852014 -0.014133671
-0.19455318 -0.2597048 -0.014865341
-0.1879504 -0.24758449 -0.013474588
-0.17721696 -0.22794311 -0.011540555
-0.16731486 -0.21055621 -0.01384606
-0.15348551 -0.18560389 -0.013290283
-0.14331529 -0.16865978 -0.020745747
-0.12961583 -0.14318755 -0.015925793
-0.12153374 -0.12763053 -0.010102151
-0.11114781 -0.10678695 0.0021711579
-0.090373695 -0.070458338 -0.003324698
-0.087177128 -0.062156785 0.011047589
-0.066489108 -0.023555759 0.019214338
-0.067172684 -0.021418694 0.038098775
-0.069170006 -0.021544935 0.05751349
-0.070546798 -0.020721989 0.07599891
-0.071764469 -0.019699058 0.094000243
-0.083598636 -0.03685604 0.11690973
-0.089402772 -0.043957248 0.13550127
-0.092058651 -0.045760769 0.15210809
-0.093018986 -0.044676583 0.16784179
-0.091787137 -0.039762992 0.18298957
-0.088251121 -0.029319122 0.20596471
-0.079914659 -0.01157221 0.22160767
-0.074378267 0.0013716085 0.23849893
0.29880068 0.68893838 0.34051135
0.30742893 0.71290213 0.38840556
0.60724264 1.2829529 0.57039934
0.40317121 0.91353303 0.55150378
0.27283594 0.67780095 0.54054987
-0.25176454 -0.3072682 0.2909705
-0.26318726 -0.29683453 0.46333078
-0.030934686 0.3334485 1.6736205
-0.061299648 0.33663103 2.0000281
-0.086690098 0.36796209 2.435483
-0.090288714 0.44230029 2.8932543
-0.12777777 0.40799361 3.0798979
-0.18895334 0.26445547 2.8883171
-0.25587368 0.18339042 3.1091783
-0.30657661 0.089863613 3.0945621
-0.35624138 -0.0014335655 3.0820284
-0.40546554 -0.08961761 3.0826623
-0.45447949 -0.17717132 3.0847344
-0.50367862 -0.26426861 3.0912802
-0.57945496 -0.39531258 3.1189625
-0.62733412 -0.48369414 3.1048131
-0.67977452 -0.57352805 3.1288245
-0.73117 -0.66424167 3.1372261
-0.70385295 -0.70094341 2.6512208
-0.84227061 -0.85483438 3.1866035
-0.89928246 -0.95360577 3.206466
-0.93882751 -1.0579697 3.0169132
-0.97620201 -1.1360263 2.9544685
-0.95151997 -1.1437284 2.6596346
-1.0028102 -1.2337979 2.6706378
-0.90691543 -1.1467328 2.1886523
-0.95826119 -1.2333843 2.2195947
-0.90635836 -1.1889621 1.943337
-0.9456352 -1.2592559 1.9442456
-0.98817557 -1.3347062 1.9491234
-1.0386256 -1.4310654 1.9158688
-1.0902563 -1.5211422 1.9303057
-1.1456461 -1.6178113 1.9456159
-2.5813527 -3.978442 3.1674531
-2.3994493 -4.222415 -0.067835905
-2.5094912 -4.4512773 -0.2458351
-1.4708675 -2.5785887 -0.19635309
-1.2939075 -2.263057 -0.20806916
-1.2027361 -2.1048648 -0.23896599
-2.0781693 -3.7967026 -0.92377985
-1.2737347 -2.2674556 -0.438656
-1.2450976 -2.2346063 -0.54399443
-1.5600436 -2.8667886 -0.92377979
-1.4468474 -2.6647704 -0.93031353
-0.49059138 -0.78558064 -0.006465497
-0.47366223 -0.75451517 -0.0027538522
-0.4611893 -0.73217505 -0.0031701142
-0.45006961 -0.71231914 -0.003901955
-0.43922874 -0.69273674 -0.0033481612
-0.42933199 -0.67485708 -0.002842424
-0.4209373 -0.65995377 -0.0039280318
-0.41215461 -0.64394766 -0.0027096036
-0.40503022 -0.63138813 -0.0041589569
-0.38676128 -0.59622258 0.0089938957
-0.38155729 -0.58737379 0.0060453792
-0.37355593 -0.57155633 0.014141714
-0.36722454 -0.55945367 0.018169228
-0.36154896 -0.54870987 0.021165101
-0.35695872 -0.54058015 0.020383416
-0.35213766 -0.53165424 0.021767257
-0.3441757 -0.51820254 0.016682805
-0.34166107 -0.51632851 0.001553196
-0.33585563 -0.50745744 -0.0074761496
-0.33351859 -0.5029763 -0.0059341653
-0.32710418 -0.49169013 -0.007467832
-0.32493168 -0.48761052 -0.0065284339
-0.32072181 -0.47999257 -0.0063434113
-0.31657541 -0.47261009 -0.0068274103
-0.31452224 -0.46867543 -0.0054772208
-0.31042874 -0.4614853 -0.006497005
-0.30841583 -0.45775682 -0.0059063178
-0.30238143 -0.44685173 -0.0056787548
-0.29828274 -0.43967476 -0.00682574
-0.29408038 -0.43243638 -0.0086796172
-0.28793484 -0.42141417 -0.008918236
-0.28181618 -0.41032296 -0.0084921401
-0.27953634 -0.40645775 -0.0098419376
-0.27723485 -0.40253893 -0.011107747
-0.2729184 -0.39482608 -0.011431651
-0.26642355 -0.38311347 -0.011309774
-0.25798756 -0.36752796 -0.0090468358
-0.25197548 -0.35766011 -0.01440636
-0.24810039 -0.3500793 -0.010986933
-0.24294271 -0.34094131 -0.011790124
-0.23584366 -0.32784376 -0.0099629993
-0.230296 -0.31796715 -0.010546314
-0.22404997 -0.30704686 -0.012318528
-0.21586519 -0.29201972 -0.01059852
-0.20945391 -0.28055134 -0.010944383
-0.19458279 -0.25426647 -0.013498199
-0.18388282 -0.2347877 -0.012131679
-0.17442743 -0.21816283 -0.014216558
-0.16272278 -0.19657566 -0.011118579
-0.15051171 -0.17522936 -0.01447463
-0.13857175 -0.15401116 -0.015797976
-0.12387386 -0.12820004 -0.019143956
-0.11917473 -0.11638907 -0.00018890201
-0.099367887 -0.081782877 -0.005654959
-0.086798489 -0.058400314 -0.001111181
-0.077721752 -0.038828552 0.017301265
-0.069825843 -0.016208656 0.064816564
-0.072320133 -0.017281607 0.083983809
-0.082003936 -0.03068131 0.10641798
-0.089601383 -0.040768888 0.12640117
-0.093090914 -0.043967757 0.14364141
-0.095386446 -0.045184292 0.15997133
-0.094660766 -0.03978917 0.18297966
-0.092226744 -0.032716423 0.19818179
-0.086170077 -0.019111941 0.21355498
-0.072661377 0.0080397548 0.22990936
0.29452756 0.68256748 0.31772873
0.29927358 0.70334488 0.38703713
0.61188716 1.2909096 0.53725231
0.42061126 0.94661546 0.53137815
0.27183631 0.67719716 0.51756531
0.58450294 1.2850027 0.78191996
-0.050971627 0.31690109 1.7557284
-0.059692513 0.32836342 1.9092515
-0.065709256 0.35524225 2.1226404
-0.25975698 -0.23745573 0.73707515
-0.13589227 0.3837581 2.9975517
-0.18769948 0.286374 2.9724085
-0.23295762 0.22956924 3.1106281
-0.28420532 0.13400313 3.0900941
-0.33418477 0.042969976 3.0823495
-0.38348028 -0.046266034 3.0778322
-0.43335927 -0.13174647 3.1005304
-0.50635409 -0.26433548 3.0912728
-0.55724323 -0.35122573 3.1162508
-0.59252322 -0.43917367 2.9764926
-0.65735394 -0.52880943 3.1276906
-0.70910203 -0.6193189 3.1408889
-0.68694437 -0.66400295 2.6621861
-0.84231108 -0.85282093 3.1719551
-0.89813089 -0.9502936 3.1870956
-0.94731164 -1.0425227 3.1644342
-0.97132772 -1.1088053 3.0328979
-0.93076688 -1.1017104 2.6604779
-0.97958773 -1.1884687 2.6651587
-1.0625643 -1.3168216 2.7814653
-0.93728566 -1.1925042 2.2118168
-0.9016822 -1.1698393 1.9780512
-0.94163513 -1.2506386 1.9262488
-0.986848 -1.3294923 1.9390318
-1.0256159 -1.4005677 1.9303532
-1.0732757 -1.4847199 1.9379921
-1.1255336 -1.5764512 1.9494386
-2.5544677 -3.9150171 3.2269518
-6.1659513 -10.560075 2.2935166
-2.421406 -4.2441707 0.005862013
-1.5578545 -2.7272644 -0.17984994
-1.3555102 -2.3665805 -0.19366398
-1.2055583 -2.0991609 -0.20321885
-2.1318166 -3.8807659 -0.88035798
-1.9414507 -3.5432038 -0.90338451
-1.2483979 -2.2287457 -0.50233543
-1.6184233 -2.9653656 -0.91395444
-1.4887391 -2.7324202 -0.91276008
-0.49624673 -0.79037595 -0.00060226629
-0.47884214 -0.75849193 0.0029638049
-0.46849683 -0.74065107 -0.0012643399
-0.45691723 -0.71997988 -0.00200491
-0.44630328 -0.70101911 -0.0026186435
-0.43595818 -0.6823262 -0.0020165334
-0.42684421 -0.66598541 -0.0022236924
-0.4176715 -0.6492393 -0.0007320068
-0.41134921 -0.63856369 -0.0046540014
-0.40264755 -0.62234122 -0.0013400568
-0.3924824 -0.602377 0.0082941474
-0.38835207 -0.59442979 0.011263556
-0.38062125 -0.58125758 0.0071025454
-0.37435555 -0.567761 0.019801956
-0.36893952 -0.55787396 0.020625833
-0.36521819 -0.5502575 0.025879223
-0.36066613 -0.54222327 0.024989506
-0.35444716 -0.53160661 0.021720262
-0.35238367 -0.5280568 0.020789497
-0.3445366 -0.51493746 0.015083569
-0.34034842 -0.51129985 -0.0070755426
-0.33573017 -0.50262827 -0.005026577
-0.3272416 -0.48779494 -0.0075427471
-0.3230097 -0.48014697 -0.0073642782
-0.31678081 -0.46895045 -0.0074904216
-0.30865499 -0.45410368 -0.006271231
-0.30667371 -0.45040518 -0.0055315522
-0.30055812 -0.43962756 -0.0068593086
-0.29846293 -0.43602511 -0.0078219883
-0.29021344 -0.42136958 -0.0089478809
-0.28608736 -0.41396078 -0.0090661254
-0.28196752 -0.40651008 -0.0088843517
-0.2776933 -0.39890161 -0.0093785431
-0.27340394 -0.39120966 -0.00955432
-0.26890761 -0.38325903 -0.010369298
-0.26437718 -0.37518585 -0.010837236
-0.25573027 -0.3592644 -0.0088414978
-0.25282276 -0.35439759 -0.010902472
-0.24795602 -0.34565568 -0.011003224
-0.24060279 -0.33231208 -0.010388796
-0.23477446 -0.32212362 -0.012071929
-0.22731526 -0.30829531 -0.009792191
-0.22286527 -0.30100897 -0.013829205
-0.21462826 -0.2858043 -0.011662121
-0.20601889 -0.26986423 -0.0091167018
-0.19727013 -0.25477782 -0.012748322
-0.19029029 -0.2420571 -0.011799918
-0.18089384 -0.22561872 -0.014360109
-0.16840191 -0.20296277 -0.013248603
-0.15791135 -0.18434156 -0.014570676
-0.14133276 -0.1546559 -0.015189434
-0.13017717 -0.1343943 -0.013984744
-0.086491928 -0.05088526 0.014207259
-0.070591271 -0.015095041 0.054787133
-0.071282558 -0.01149446 0.08195845
-0.078509115 -0.020661831 0.10333245
-0.089529745 -0.036535598 0.12529309
-0.094495311 -0.042244032 0.14327528
-0.096302539 -0.042591058 0.15951677
-0.096905068 -0.040873732 0.17520337
-0.094828732 -0.034441121 0.19036281
-0.090586662 -0.024097944 0.205653
-0.079460345 0.00020440383 0.22993298
0.29156321 0.68174756 0.31771478
0.29446903 0.69508523 0.36350808
0.60963911 1.2852989 0.50191677
0.42443201 0.95342004 0.50494039
0.37740967 0.87567133 0.54243374
0.27330038 0.68904632 0.54368567
-0.04618372 0.32175756 1.7067343
-0.24978499 -0.21841355 0.71799451
-0.25838581 -0.23204911 0.7280612
-0.11694095 0.41371089 2.9451294
-0.15872966 0.36497757 3.0937543
-0.21276738 0.2580207 3.0373342
-0.26166672 0.18035835 3.0944989
-0.31205028 0.089764424 3.0935667
-0.36165804 -0.0016634444 3.0800388
-0.43536171 -0.13349237 3.0826328
-0.48416269 -0.22102767 3.0829527
-0.53527319 -0.3069891 3.1156523
-0.58516234 -0.39525053 3.122932
-0.63503128 -0.48410341 3.1266665
-0.68594158 -0.57388234 3.1357472
-0.73672038 -0.6644237 3.1391852
-0.73274249 -0.74104947 2.6649446
-0.87397361 -0.90238035 3.1868644
-0.93214941 -1.0028234 3.2094529
-0.94887966 -1.0629954 3.0388188
-0.96758389 -1.1214584 2.8979182
-0.95709026 -1.1443772 2.6614854
-1.0099356 -1.2363323 2.6779673
-0.90703452 -1.1408892 2.1723876
-0.96350962 -1.2451853 2.1558676
-0.92585933 -1.2174779 1.9299846
-0.96891493 -1.293077 1.9395658
-1.0005413 -1.3541248 1.9153628
-1.0570447 -1.449919 1.9473205
-1.1005168 -1.528887 1.9420881
-1.1516119 -1.6195921 1.9479061
-6.2012248 -10.588224 2.5127318
-1.6548744 -2.895602 -0.16003524
-1.4175611 -2.4796078 -0.21803141
-1.2522837 -2.1839547 -0.22488561
-1.1896589 -2.0786657 -0.26564166
-2.0215175 -3.6821241 -0.8842054
-1.2624668 -2.2454259 -0.46935919
-1.2561804 -2.248317 -0.54965025
-1.5230846 -2.7974918 -0.94440252
-1.4108469 -2.5959599 -0.94482857
-0.50268382 -0.7968514 0.0045886035
-0.49047601 -0.7756722 0.00022472981
-0.47517121 -0.74781758 0.0021520308
-0.46181899 -0.72524196 -0.0060100076
-0.45352048 -0.70952278 -0.0014777686
-0.44240299 -0.68930131 -0.00018785274
-0.43225646 -0.67082328 0.0011042706
-0.4225449 -0.65463066 -0.006179532
-0.41441157 -0.63996542 -0.0060020527
-0.40876329 -0.62896144 -0.0012176934
-0.39161333 -0.59629554 0.0090226494
-0.3861765 -0.58688545 0.0068695578
-0.38037503 -0.57644665 0.0068295007
-0.37405768 -0.56264436 0.020638676
-0.36715749 -0.55071771 0.017779732
-0.36339155 -0.5428043 0.024203779
-0.35906741 -0.53525877 0.022806805
-0.35494012 -0.52816296 0.02086561
-0.35096654 -0.52144819 0.018330814
-0.34721562 -0.51540923 0.014235689
-0.34071344 -0.50751275 -0.0074457242
-0.33621153 -0.4991754 -0.0061741481
-0.33191794 -0.49148953 -0.0064706164
-0.32767928 -0.48384517 -0.0064448277
-0.32558221 -0.48004183 -0.0063125677
-0.31937301 -0.46905029 -0.0074181524
-0.3152737 -0.46166462 -0.0074557005
-0.31325504 -0.45791999 -0.0068666893
-0.31125584 -0.45419702 -0.0062023913
-0.30524871 -0.44328517 -0.0057580438
-0.30107385 -0.43611109 -0.0077572274
-0.29695523 -0.42881048 -0.0084690358
-0.29083297 -0.41777438 -0.0084880879
-0.28657988 -0.41027623 -0.0094470242
-0.28032309 -0.39897341 -0.0093216347
-0.27800772 -0.39499566 -0.010425133
-0.27174243 -0.38351056 -0.0093528973
-0.26701769 -0.37524948 -0.010784952
-0.26053336 -0.36331907 -0.0094173187
-0.25764591 -0.35850197 -0.011583472
-0.25060868 -0.34570986 -0.010956292
-0.24543533 -0.33649495 -0.011547561
-0.2402129 -0.327113 -0.011691906
-0.2324661 -0.3129684 -0.010619496
-0.22651626 -0.30237186 -0.011281466
-0.22016205 -0.29109469 -0.012200839
-0.21337986 -0.2790812 -0.013302169
-0.19628002 -0.24819596 -0.012701722
-0.18653773 -0.23132679 -0.016405003
-0.17568214 -0.21121272 -0.013137805
-0.1644152 -0.19151427 -0.016322954
-0.15001951 -0.16532806 -0.014667481
-0.13759908 -0.14321415 -0.015903911
-0.12462644 -0.11994565 -0.016217342
-0.1173197 -0.10389353 0.0001346473
-0.098842174 -0.071207382 -0.0028253021
-0.074301548 -0.024863681 0.0097358953
-0.071760885 -0.0092592025 0.071690522
-0.074406661 -0.010574351 0.090983607
-0.08866147 -0.031818289 0.11547305
-0.094944164 -0.039715562 0.13447648
-0.098085791 -0.04233478 0.15142804
-0.099044062 -0.041224144 0.1672992
-0.098305769 -0.037151843 0.18268974
-0.094286606 -0.025816148 0.20576744
-0.086450897 -0.0089266645 0.22156647
0.29053476 0.68912315 0.34047759
0.2948916 0.70524323 0.38728529
0.59828824 1.2824047 0.57015693
0.40035376 0.9241327 0.55393535
0.26367736 0.67627424 0.54004031
-0.27104548 -0.29682857 0.46335831
-0.26085588 -0.23127167 0.72992516
-0.097358242 0.44754478 2.908391
-0.13813703 0.39927313 3.0492358
-0.19666463 0.26799425 2.9008658
-0.26413122 0.18427809 3.1120942
-0.31486833 0.090471603 3.0965137
-0.36481321 0.0017770949 3.1017892
-0.41382462 -0.089031711 3.0856252
-0.46361074 -0.17536412 3.1026289
-0.51178432 -0.26416925 3.0892737
-0.56321687 -0.3508102 3.1212268
-0.61314255 -0.43942136 3.1267354
-0.68772852 -0.57323736 3.126827
-0.74035668 -0.66461217 3.1441162
-0.71212792 -0.70090377 2.6521916
-0.84958595 -0.85395509 3.1817098
-0.90632319 -0.95240998 3.2006419
-0.92381465 -1.0140558 3.0293791
-0.9582426 -1.0892675 2.9533002
-0.95765501 -1.14141 2.6521707
-1.0085661 -1.2309487 2.6623578
-0.91028786 -1.1410081 2.1732802
-0.96714348 -1.2343587 2.2222397
-0.91223174 -1.1861696 1.9372188
-0.95298642 -1.2583417 1.942518
-0.99418992 -1.3319778 1.9440857
-1.0371171 -1.4088058 1.9450911
-1.0975167 -1.5200468 1.9287043
-1.1536262 -1.6177235 1.9455811
-2.5930791 -3.9838088 3.171874
-2.700963 -4.3379216 2.2622805
-2.4140599 -4.2345023 -0.069012366
-2.5145085 -4.4458776 -0.24544418
-1.7798221 -3.1187801 -0.19566503
-1.493574 -2.6062427 -0.20198505
-1.3076544 -2.2741787 -0.210853
-1.2023004 -2.0893288 -0.23473126
-2.0903585 -3.8050332 -0.9268862
-1.2549961 -2.2312362 -0.50325292
-1.5777903 -2.8863614 -0.93325156
-1.4623067 -2.6800356 -0.93843389
-0.49637949 -0.78166157 -0.003914482
-0.48318067 -0.75822675 -0.0054739304
-0.46957791 -0.73358792 -0.0043206406
-0.4584308 -0.71369821 -0.005107752
-0.44756183 -0.69408023 -0.0046077552
-0.43668053 -0.67410225 -0.0021950949
-0.42860129 -0.65988553 -0.0039330274
-0.42298216 -0.64921468 -0.00068026374
-0.41381544 -0.63216716 0.002559534
-0.40649694 -0.62071133 -0.0071527706
-0.39754301 -0.60175818 0.0091074631
-0.3908428 -0.58944494 0.010601605
-0.38571545 -0.5806852 0.0079582743
-0.37730306 -0.56551719 0.0081472676
-0.37229624 -0.5547207 0.018327398
-0.36760277 -0.54645824 0.017276151
-0.36408749 -0.53912604 0.022997916
-0.35579532 -0.52488595 0.019083852
-0.3518078 -0.51812863 0.016685396
-0.34577054 -0.51160175 -0.0079683959
-0.34113714 -0.50290167 -0.0059304186
-0.33681434 -0.49520034 -0.0063892733
-0.3346267 -0.49111018 -0.0055302023
-0.33040127 -0.48349661 -0.0054961508
-0.32418373 -0.47271335 -0.0078052711
-0.32005385 -0.46530914 -0.0079936842
-0.31596267 -0.45792145 -0.0078832302
-0.31196415 -0.45047155 -0.0064815618
-0.30791613 -0.44323283 -0.0067763245
-0.30380422 -0.43600452 -0.0077783749
-0.30169854 -0.43236992 -0.0086682877
-0.29143152 -0.41394168 -0.0090243677
-0.28716281 -0.40639666 -0.0098273493
-0.28486219 -0.40247869 -0.011092649
-0.27641258 -0.38714802 -0.010448382
-0.26993915 -0.37538436 -0.0098453155
-0.26733926 -0.370976 -0.011373881
-0.26083621 -0.35897559 -0.0097339507
-0.25574395 -0.35002875 -0.010965711
-0.24897176 -0.33746451 -0.0088687753
-0.24349368 -0.32779691 -0.0099393362
-0.23764011 -0.31752193 -0.011384734
-0.23170383 -0.30700344 -0.012292559
-0.22536334 -0.29580808 -0.013473494
-0.21711393 -0.2805118 -0.010915667
-0.21027842 -0.2683062 -0.011406635
-0.20224591 -0.25423074 -0.013466721
-0.19194131 -0.23533076 -0.011381125
-0.18209481 -0.21813188 -0.014181457
-0.17081034 -0.19717859 -0.010427304
-0.15648106 -0.17259523 -0.016945492
-0.14537546 -0.15264387 -0.016956916
-0.13110264 -0.12748879 -0.019672094
-0.08162798 -0.032625873 0.013978764
-0.072731383 -0.0049227183 0.079655208
-0.087292165 -0.026499296 0.10517404
-0.095384859 -0.037382077 0.12554912
-0.099372692 -0.041397624 0.14311531
-0.10071446 -0.039525431 0.16704115
-0.10047307 -0.036307707 0.18260561
-0.097560428 -0.028349599 0.19787623
-0.092008553 -0.015601266 0.21345919
0.28919172 0.68691617 0.31817642
0.29056183 0.70158273 0.38689843
0.59946561 1.2821659 0.53584886
0.41653991 0.95351565 0.53301215
0.26401636 0.67719328 0.51766086
0.57668298 1.2849762 0.78205836
-0.055575967 0.32745266 1.7770531
-0.25910121 -0.22341911 0.72722638
-0.15121685 0.35386348 2.8950958
-0.196119 0.28786412 2.9772351
-0.2414764 0.23114894 3.1164608
-0.2928431 0.13521382 3.0949802
-0.34294668 0.044851769 3.09219
-0.3926084 -0.043614671 3.0956357
-0.44224301 -0.1310797 3.1044693
-0.5150193 -0.26413581 3.0902326
-0.5659048 -0.35099119 3.1152043
-0.6038416 -0.43900913 3.0023103
-0.66634876 -0.52861041 3.1296153
-0.71800619 -0.6191135 3.1418121
-0.69365573 -0.66253835 2.6493351
-0.82591873 -0.80638826 3.1774135
-0.90617156 -0.94933414 3.1831431
-0.94869846 -1.0350438 3.1298614
-0.97655767 -1.1048639 3.0176454
-0.93992567 -1.1019918 2.6622717
-0.98827821 -1.1882315 2.6650758
-0.90357536 -1.1171362 2.2077901
-0.95064038 -1.1981678 2.2269735
-0.90373588 -1.1614625 1.958627
-0.9517324 -1.2525334 1.9304544
-0.99242771 -1.3253573 1.9314386
-1.0290399 -1.3934014 1.9180326
-1.0821619 -1.4850401 1.9387119
-1.1322498 -1.573696 1.9454848
-2.5357118 -3.8718107 3.1898155
-6.2397571 -10.673515 2.3162084
-1.5710479 -2.7369227 -0.18160214
-1.3668054 -2.3727274 -0.19502211
-1.2113346 -2.0949404 -0.20212381
-1.9602685 -3.564501 -0.91111225
-1.2529358 -2.2221851 -0.4996303
-1.6279708 -2.9688573 -0.91547143
-1.5036528 -2.7464619 -0.91965735
-1.3992311 -2.560147 -0.92595381
-0.5048455 -0.79118431 -0.0010839832
-1.2288539 -2.2658522 -0.99115479
-0.48818311 -0.76081163 0.0013985451
-0.47636029 -0.73993367 -0.00069004984
-0.46584743 -0.72147357 -0.0031565381
-0.4548763 -0.70176405 -0.0032123018
-0.44452384 -0.68305302 -0.00263656
-0.43509007 -0.66601586 -0.0022032126
-0.42651945 -0.65058517 -0.0020941934
-0.41846678 -0.63604546 -0.0017675348
-0.4117195 -0.62421978 -0.0035379047
-0.4045867 -0.61131561 -0.0031252287
-0.3945215 -0.59121269 0.0082201678
-0.38844842 -0.58019185 0.0087370779
-0.38569248 -0.57528967 0.0084047867
-0.37864652 -0.5614813 0.014802993
-0.37272239 -0.55015045 0.01857985
-0.3674013 -0.54010111 0.021231079
-0.36275163 -0.53163528 0.021744804
-0.36069036 -0.52808565 0.02081419
-0.35296467 -0.51533377 0.014185362
-0.35090691 -0.51172543 0.0136214
-0.34630102 -0.50681752 -0.0056007365
-0.34405252 -0.50266069 -0.0050003584
-0.33761808 -0.49116495 -0.0055521559
-0.33549988 -0.48735219 -0.0055747861
-0.32718566 -0.47276855 -0.0078254966
-0.32511908 -0.46898231 -0.0074637593
-0.32106283 -0.46133155 -0.0055183657
-0.31091616 -0.44328102 -0.0067950101
-0.30688667 -0.43602389 -0.0068005198
-0.29429522 -0.41391876 -0.010030456
-0.28603491 -0.39892176 -0.0093543027
-0.28174564 -0.39122874 -0.0095302425
-0.27724919 -0.38327709 -0.010345345
-0.27467883 -0.37895453 -0.012060075
-0.26575613 -0.36275712 -0.011316589
-0.25925273 -0.35066193 -0.0091448203
-0.25412539 -0.34158081 -0.0099747619
-0.24865614 -0.33196551 -0.011253262
-0.24311472 -0.32213512 -0.012048264
-0.23719749 -0.31169346 -0.013200322
-0.22935285 -0.29718742 -0.011005641
-0.2229671 -0.28581303 -0.01163806
-0.21579555 -0.27319649 -0.013219994
-0.20852372 -0.26027179 -0.014077482
-0.19746694 -0.24036923 -0.013962187
-0.18883193 -0.22503702 -0.015039446
-0.17673576 -0.202968 -0.013222276
-0.16624381 -0.18434648 -0.01454363
-0.1496304 -0.15604724 -0.023256244
-0.13806476 -0.13370723 -0.014527634
-0.1201225 -0.1024707 -0.020118486
-0.11278789 -0.086171232 -0.002616402
-0.097003251 -0.057625223 -0.0015302654
-0.074399121 -0.014190659 0.01438321
-0.071675189 -0.0030001621 0.049700398
-0.071328655 0.0024970411 0.077029452
-0.084395424 -0.016495388 0.10207269
-0.094920397 -0.031481914 0.12397593
-0.10037432 -0.037991878 0.14235227
-0.10218121 -0.038304266 0.15876465
-0.10278615 -0.036557596 0.17462325
-0.1012063 -0.030967636 0.19004323
-0.096480563 -0.019739581 0.20541976
-0.084397472 0.0063270428 0.22996037
0.2818144 0.67910814 0.3175852
0.29187334 0.70554709 0.36482775
0.60276705 1.287874 0.50244814
0.42685029 0.97335041 0.50899982
0.36862969 0.87478715 0.54231703
0.26269692 0.684744 0.54256064
-0.050827902 0.33252344 1.7278743
-0.25847325 -0.21915904 0.71617651
-0.27082029 -0.23774107 0.7361514
-0.12125991 0.43240479 3.0051622
-0.1673412 0.36610648 3.097615
-0.22105138 0.2616564 3.0518954
-0.27045125 0.18126981 3.0984027
-0.34591624 0.045312908 3.0951416
-0.39569288 -0.042844426 3.1015694
-0.44510007 -0.13131721 3.1024675
-0.4944365 -0.21923144 3.1058006
-0.54462236 -0.30664459 3.1205704
-0.58591431 -0.39617348 3.0332429
-0.64448786 -0.48402274 3.1305566
-0.71958476 -0.61849976 3.1318898
-0.7185812 -0.6764974 2.7939723
-0.82733178 -0.8052907 3.1685703
-0.88312566 -0.90216422 3.1867239
-0.94272345 -1.0038873 3.2160361
-0.95633721 -1.0610396 3.0310359
-0.93641275 -1.0782151 2.73192
-0.96791077 -1.1460512 2.6678343
-1.0240009 -1.2418195 2.69522
-0.92314911 -1.1492599 2.1957169
-0.93013614 -1.1912735 2.0289793
-0.93453145 -1.2168392 1.9289589
-0.97824514 -1.2932506 1.9402368
-1.014914 -1.361113 1.928401
-1.0643789 -1.447239 1.94309
-1.1121224 -1.5321176 1.947376
-1.664205 -2.8949144 -0.16047964
-1.4287357 -2.4751966 -0.17619188
-1.2667155 -2.1869569 -0.19019683
-1.1972743 -2.0755982 -0.2651802
-2.0368464 -3.692229 -0.88856393
-1.2653708 -2.2331154 -0.46516588
-1.257478 -2.2328048 -0.54357457
-1.5459796 -2.8132837 -0.89890319
-1.434184 -2.6136119 -0.90417975
-1.3316927 -2.4389203 -0.95634943
-0.50942999 -0.79500222 -0.0035905198
-0.4843438 -0.74914676 0.00097689393
-0.47337162 -0.72987682 -0.0015177462
-0.46193954 -0.70934826 -0.0015629531
-0.45081297 -0.68913102 -0.00026996134
-0.44193193 -0.67340475 -0.0015876609
-0.43325418 -0.65787238 -0.0019402009
-0.4248001 -0.64257413 -0.001348229
-0.41714436 -0.62880301 -0.0012908534
-0.41021982 -0.61646736 -0.0019322579
-0.40296108 -0.60313541 -0.00033212965
-0.39360493 -0.58449781 0.0099838404
-0.38873169 -0.57629889 0.0067640711
-0.38327041 -0.56653225 0.0064420626
-0.37494299 -0.54911703 0.020279093
-0.3696498 -0.53911942 0.022965593
-0.3613553 -0.52487975 0.019053074
-0.35942632 -0.52170533 0.017363351
-0.35542807 -0.51490676 0.01510251
-0.34894973 -0.50706679 -0.0065538874
-0.34458512 -0.4993228 -0.0071859527
-0.34022453 -0.49135694 -0.0065237368
-0.32973784 -0.47270766 -0.0078298403
-0.3235876 -0.46140584 -0.0065136449
-0.31548128 -0.44684702 -0.006688646
-0.31345773 -0.44322473 -0.0067997901
-0.31136429 -0.43964061 -0.0078349886
-0.30320737 -0.42503539 -0.0082600992
-0.29482675 -0.41017079 -0.0094867917
-0.29268768 -0.40638578 -0.0098491712
-0.28839463 -0.39874706 -0.010337544
-0.27996808 -0.38341486 -0.0093879355
-0.27545053 -0.37537152 -0.0098655364
-0.27067649 -0.36697233 -0.010931888
-0.26417875 -0.35494468 -0.0090357745
-0.26098579 -0.34971225 -0.011901763
-0.25362575 -0.33641529 -0.011573989
-0.24839672 -0.32703641 -0.011716587
-0.24064042 -0.31289637 -0.010641566
-0.23501128 -0.30274332 -0.010465589
-0.22832169 -0.29102939 -0.012218697
-0.22153164 -0.2790195 -0.013317677
-0.2124889 -0.26235637 -0.011025777
-0.20441292 -0.24814343 -0.012711233
-0.19544408 -0.2324315 -0.014976816
-0.18420054 -0.21178056 -0.012460017
-0.17039344 -0.18689136 -0.011979727
-0.15810533 -0.16529846 -0.014660282
-0.1465487 -0.14455384 -0.01471995
-0.13135183 -0.11782668 -0.017873622
-0.1059579 -0.069715947 -0.0037661039
-0.081105508 -0.02121317 0.018044628
-0.069089584 0.0087146712 0.064941615
-0.076572083 -0.00065292453 0.087717198
-0.093761988 -0.026804285 0.11405391
-0.10053594 -0.03549619 0.13346598
-0.10367842 -0.038079161 0.15058704
-0.10414607 -0.036079291 0.16649035
-0.10341191 -0.031977531 0.18208829
-0.10001098 -0.023131445 0.19746272
-0.092063926 -0.0045832819 0.22150831
0.29676571 0.70638984 0.297232
0.28896129 0.70029891 0.34178081
0.30700773 0.74168211 0.39254484
0.59114003 1.2829474 0.57063669
0.39536232 0.92906898 0.55540359
0.25582501 0.67608809 0.5402146
0.57848287 1.2985412 0.78659725
-0.05772208 0.33645609 1.7957264
-0.26895031 -0.23092189 0.73081225
-0.10765753 0.44011566 2.8866715
-0.15395287 0.36604738 2.9372578
-0.20568576 0.26495019 2.8902633
-0.27281976 0.18296361 3.1072106
-0.32348093 0.090212367 3.0964987
-0.37324232 -0.00054865406 3.0879107
-0.42254514 -0.089029677 3.0875545
-0.4714565 -0.1770843 3.0856397
-0.52068287 -0.26420948 3.0921667
-0.57211012 -0.35096127 3.1231031
-0.64657724 -0.48407879 3.1255245
-0.69663113 -0.57346708 3.1276507
-0.74844807 -0.66438603 3.1389942
-0.72067177 -0.70092171 2.6510236
-0.85895556 -0.85453171 3.1844008
-0.91519284 -0.95255792 3.200386
-0.93430686 -1.0157851 3.0367756
-0.96176529 -1.0838708 2.9302726
-0.96619231 -1.141224 2.6509519
-1.0176237 -1.2313318 2.6629655
-0.91649747 -1.1380824 2.1648722
-0.9749772 -1.2333298 2.2192736
-0.92115521 -1.1865866 1.9378049
-0.95910066 -1.2550589 1.9353814
-0.99496359 -1.3214333 1.9237051
-1.0467923 -1.4102206 1.9472027
-1.1065389 -1.5205587 1.9291263
-1.1582328 -1.6119062 1.936795
-2.611197 -3.9975646 3.1823509
-2.7057571 -4.3307528 2.2576001
-6.1758971 -10.585765 2.0854392
-2.420038 -4.2298594 -0.069638811
-2.5028496 -4.4089127 -0.24211028
-1.7899261 -3.1220529 -0.19692682
-1.5031295 -2.6086669 -0.20309213
-1.3153077 -2.2731576 -0.21115838
-1.2012973 -2.072027 -0.23038945
-2.1045263 -3.8029788 -0.85613585
-1.2565374 -2.2185323 -0.49864745
-1.5824133 -2.8795483 -0.93078679
-1.4677981 -2.6749418 -0.93650794
-0.50436658 -0.78161573 -0.0040834085
-0.49079525 -0.75742716 -0.0050954279
-0.47755599 -0.73354584 -0.004478869
-0.46844712 -0.71625668 0.00081935653
-0.45789239 -0.69738346 0.00034824756
-0.44496584 -0.67475206 -0.0029934968
-0.43887073 -0.66321492 0.00035020389
-0.42835867 -0.64513934 -0.0042606508
-0.4223094 -0.63504481 -0.0086682746
-0.41339776 -0.61825877 -0.0042800549
-0.40658984 -0.60602552 -0.0042934483
-0.39715731 -0.58727431 0.0059176334
-0.39067933 -0.57520753 0.0083072353
-0.38815904 -0.57085717 0.0072774957
-0.38087171 -0.55833489 0.0039725699
-0.37590247 -0.54738051 0.015432836
-0.37339506 -0.54278612 0.01591208
-0.36594433 -0.52885085 0.018933324
-0.36373186 -0.52486384 0.018970061
-0.35595953 -0.51200181 0.012603465
-0.34905997 -0.50287879 -0.0060396837
-0.34473497 -0.49517804 -0.0064969808
-0.33837518 -0.48392108 -0.0075503732
-0.33626658 -0.48010397 -0.007420605
-0.33210102 -0.47269222 -0.00790744
-0.32796913 -0.46528852 -0.0080930898
-0.31982669 -0.45054013 -0.0075704809
-0.31582591 -0.44321397 -0.0068677212
-0.3117952 -0.43595904 -0.0068710316
-0.3075884 -0.42868921 -0.0085754525
-0.29720128 -0.41016439 -0.0095447153
-0.28879422 -0.39503142 -0.009541248
-0.28646523 -0.3910208 -0.010558961
-0.27999133 -0.37930498 -0.010199025
-0.27351883 -0.36745942 -0.0090941507
-0.27065495 -0.36271128 -0.011367229
-0.26555878 -0.35379228 -0.012775394
-0.25847551 -0.34087816 -0.011826828
-0.25137889 -0.32778332 -0.0099947732
-0.23990755 -0.30741698 -0.011497554
-0.23357853 -0.29624796 -0.012694721
-0.22499344 -0.28049883 -0.010959535
-0.21815684 -0.26829323 -0.011447766
-0.20834877 -0.2503601 -0.0097737564
-0.20119783 -0.2386504 -0.016175879
-0.18997014 -0.21811831 -0.014212199
-0.17743564 -0.19527078 -0.012416155
-0.16478059 -0.17323273 -0.016340332
-0.1536833 -0.15330085 -0.016375631
-0.13986009 -0.12885512 -0.018542733
-0.12160806 -0.095523134 -0.015481763
-0.11629849 -0.083956786 -0.0041184551
-0.099565342 -0.053861775 -0.003874419
-0.072400726 -0.0011437034 0.018188233
-0.068941407 0.011429205 0.053822882
-0.069890015 0.013192779 0.073237665
-0.09174604 -0.020662788 0.10336472
-0.10031825 -0.032327916 0.12419892
-0.10429989 -0.036298562 0.14196846
-0.10610868 -0.036598522 0.15844914
-0.10589328 -0.031986531 0.1820794
-0.10347758 -0.024876995 0.19759411
-0.097444393 -0.011245332 0.21328196
0.28843495 0.70006531 0.31928706
0.30648831 0.74131805 0.3691214
0.59048009 1.280486 0.53567201
0.41687667 0.96913445 0.53652006
0.25604278 0.67721665 0.51772738
0.24793626 0.6704303 0.56138307
-0.04849603 0.35263434 1.7674447
-0.26726383 -0.22459821 0.72446471
-0.090764515 0.46392781 2.8240435
-0.15340117 0.37970793 2.9831908
-0.20176162 0.30042717 3.0255625
-0.24945442 0.23041569 3.1135361
-0.30060264 0.1370787 3.1047871
-0.35080543 0.045104541 3.0941579
-0.40045515 -0.043560836 3.0966206
-0.44923291 -0.13322861 3.0845861
-0.49835902 -0.2204556 3.0898809
-0.57356244 -0.3511177 3.1142027
-0.61515868 -0.43923509 3.038125
-0.67368978 -0.52862042 3.1266346
-0.7248717 -0.61884558 3.1358771
-0.70235687 -0.66331357 2.6562252
-0.83369738 -0.80664665 3.1783957
-0.91355258 -0.94930857 3.1821859
-0.94636142 -1.0255914 3.0838952
-0.97943324 -1.1001955 2.9977598
-0.94460851 -1.099032 2.6510539
-0.99426508 -1.1866593 2.6595562
-0.90789324 -1.1134785 2.1968901
-0.956725 -1.1965932 2.2225251
-0.90622491 -1.1552689 1.9436986
-0.94409621 -1.2233943 1.9428548
-0.99888623 -1.3241957 1.9289759
-1.035439 -1.3921686 1.9156342
-1.0899065 -1.4857087 1.9395665
-1.1370649 -1.5702647 1.9401277
-2.5551155 -3.8920498 3.207056
-2.8662519 -4.9931951 0.14353512
-1.5888458 -2.7573428 -0.18486625
-1.3794738 -2.3834851 -0.19702759
-1.226288 -2.1099043 -0.20568219
-2.1535237 -3.8952334 -0.88433832
-1.9653404 -3.5617194 -0.90945387
-1.2570719 -2.2167084 -0.49698043
-1.2587548 -2.2351134 -0.58394957
-1.5135972 -2.7526493 -0.92214328
-1.410372 -2.56864 -0.92998749
-1.331216 -2.4300718 -0.95035142
-0.51233888 -0.79131609 -0.00098438386
-1.2261869 -2.2462335 -0.97753173
-0.48422483 -0.74080706 -0.0011507967
-0.47335339 -0.7215969 -0.0030619062
-0.46204802 -0.7011705 -0.002506244
-0.45236075 -0.68386835 -0.0031843542
-0.44291636 -0.66681027 -0.0027783834
-0.4343344 -0.65135819 -0.0026957947
-0.4268384 -0.63807112 -0.0038268666
-0.41896939 -0.62371594 -0.0027095017
-0.41236383 -0.61202067 -0.0038001663
-0.40565678 -0.59989023 -0.003463028
-0.39619878 -0.58084613 0.0080168778
-0.39234573 -0.57325202 0.011752616
-0.38738734 -0.56465375 0.0098762792
-0.38286248 -0.55706179 0.0067130369
-0.37397137 -0.53975731 0.014044252
-0.37182361 -0.53608018 0.012953817
-0.36450368 -0.52225983 0.016542586
-0.36243773 -0.51866311 0.015827345
-0.35843518 -0.51182479 0.013703519
-0.3539893 -0.50753915 -0.0074127563
-0.34948727 -0.49920228 -0.0061408556
-0.34310377 -0.48792708 -0.007434526
-0.33887729 -0.48027843 -0.0072563328
-0.33471009 -0.47250858 -0.0057777511
-0.32650441 -0.45806691 -0.0078264745
-0.32054484 -0.44692224 -0.0056147575
-0.31645319 -0.43974367 -0.0067621991
-0.3103441 -0.42884284 -0.0074431533
-0.308238 -0.42517549 -0.008187037
-0.30186942 -0.41400307 -0.0099650919
-0.29361996 -0.39900285 -0.0092925066
-0.28933617 -0.39130825 -0.0094702598
-0.28484538 -0.38335505 -0.010287224
-0.27837929 -0.37154335 -0.0094378889
-0.27360281 -0.36309001 -0.010326683
-0.26877978 -0.35448447 -0.010827304
-0.26338655 -0.34510678 -0.012751076
-0.2584669 -0.33618033 -0.012417587
-0.25105175 -0.32258785 -0.011132036
-0.24297848 -0.30794206 -0.010572348
-0.2370033 -0.29724911 -0.010966492
-0.23027757 -0.28539363 -0.012407781
-0.2238173 -0.27375865 -0.012400183
-0.214031 -0.25592178 -0.011188173
-0.20553328 -0.24098629 -0.01320537
-0.19691594 -0.22567463 -0.014309797
-0.18657523 -0.2075837 -0.017197687
-0.17394918 -0.1843898 -0.014526865
-0.16164042 -0.16271004 -0.017104534
-0.14711457 -0.13581669 -0.012803948
-0.1269629 -0.10108276 -0.021203564
-0.10336282 -0.055394188 -0.0029419952
-0.08026737 -0.011083325 0.01274542
-0.067409821 0.02224081 0.070003852
-0.087757669 -0.0090101585 0.099732392
-0.10007214 -0.02849314 0.11451929
-0.10567495 -0.033755656 0.14138936
-0.10797238 -0.034889549 0.15812981
-0.10857901 -0.033118848 0.174126
-0.10651305 -0.026641972 0.18959588
-0.10228739 -0.016263673 0.20519707
-0.091062143 0.0067638848 0.22125055
0.27764642 0.6820699 0.2956053
0.30203953 0.7388317 0.36862707
0.59519243 1.2889291 0.50236517
0.42260739 0.98043454 0.51020885
0.36298504 0.87923479 0.54319698
0.25706267 0.68913937 0.54364121
-0.28507701 -0.29829738 0.46080637
-0.27878928 -0.23844607 0.73431522
-0.13194606 0.41988289 2.9641562
-0.17749202 0.35375732 3.0523572
-0.22991024 0.25375929 3.0188727
-0.27804404 0.18145406 3.0983922
-0.32851848 0.089669339 3.091583
-0.37812829 -0.0014022407 3.0800257
-0.45217034 -0.13240325 3.0905728
-0.5010615 -0.22025272 3.0899129
-0.55096424 -0.30718577 3.1046839
-0.58814061 -0.39674035 2.9755554
-0.65167958 -0.48384467 3.1276519
-0.70287305 -0.57374746 3.1387119
-0.68433017 -0.62538975 2.6586437
-0.83464968 -0.80506843 3.1677094
-0.88968873 -0.90129787 3.181998
-0.94840366 -1.0021369 3.2075145
-0.96573895 -1.062904 3.0397589
-0.93224555 -1.0657058 2.6840084
-0.97396117 -1.1443682 2.6624033
-1.0258114 -1.2351325 2.6751995
-0.93591404 -1.1555278 2.2130241
-0.9156484 -1.1633211 1.9631236
-0.94151849 -1.216042 1.9273809
-0.98295236 -1.2894151 1.9327857
-1.0215086 -1.3597646 1.9260857
-1.0723162 -1.4477339 1.9440697
-1.1204256 -1.5331466 1.9491293
-6.2742529 -10.677967 2.5327442
-1.6904488 -2.9290228 -0.16559665
-1.4445481 -2.4900725 -0.17890118
-1.2769951 -2.1981764 -0.22882243
-1.1984389 -2.0628903 -0.26114619
-2.0429609 -3.6890297 -0.88707775
-1.2693933 -2.2256811 -0.46206576
-1.2560253 -2.2146544 -0.53554964
-1.5539403 -2.8134394 -0.89866889
-1.4352049 -2.6099076 -0.95286751
-0.51148701 -0.78478324 -0.0059714783
-0.49391019 -0.7541256 -0.011235386
-0.48139599 -0.72992706 -0.0014735765
-0.4703123 -0.71012056 -0.0021201931
-0.4595089 -0.6905902 -0.0014833432
-0.44129562 -0.65791893 -0.0019044203
-0.43084458 -0.63985014 -0.0060434374
-0.42519376 -0.62884802 -0.0012585233
-0.41827306 -0.61651176 -0.0019014445
-0.41176328 -0.604927 -0.0026243848
-0.40586665 -0.59461182 -0.0043035974
-0.3979865 -0.57743341 0.012782449
-0.39236909 -0.56725365 0.013170024
-0.38338298 -0.55217308 0.0069161928
-0.38148078 -0.54929119 0.0038244554
-0.37511504 -0.53639168 0.011997136
-0.3699888 -0.5265491 0.015462426
-0.36557266 -0.51854163 0.015757598
-0.36351433 -0.51494539 0.015121133
-0.35981005 -0.50911367 0.010339662
-0.3547155 -0.5026384 -0.0049893744
-0.34837064 -0.49164742 -0.0074751349
-0.33991656 -0.47635403 -0.0071201352
-0.33167043 -0.46157676 -0.0074932138
-0.32964918 -0.45783374 -0.0069036349
-0.32764742 -0.45411232 -0.0062387772
-0.31954828 -0.43963635 -0.0068279202
-0.31534553 -0.43239927 -0.0086806919
-0.30943391 -0.42144659 -0.0069325934
-0.30251542 -0.40997103 -0.012436968
-0.29881635 -0.4027265 -0.0091420012
-0.29435816 -0.39493513 -0.010452783
-0.28808576 -0.38345435 -0.0093789846
-0.2835694 -0.37541118 -0.009856943
-0.27879661 -0.36701217 -0.010923701
-0.27421775 -0.35872832 -0.010675812
-0.26936737 -0.35005459 -0.010977105
-0.26203075 -0.33680034 -0.010671654
-0.25652245 -0.32707673 -0.011710613
-0.24281237 -0.30234361 -0.011297151
-0.2367925 -0.29153621 -0.011398633
-0.22966349 -0.27906013 -0.013315045
-0.22242589 -0.26626265 -0.014516553
-0.21216702 -0.24763106 -0.013451886
-0.20318925 -0.23189588 -0.01569516
-0.19408366 -0.21575874 -0.016962904
-0.18232203 -0.19404346 -0.013709227
-0.1696474 -0.17196451 -0.017584207
-0.15425639 -0.14391202 -0.01531546
-0.13949957 -0.11786641 -0.017885674
-0.098746382 -0.041701294 -0.0011564119
-0.091894612 -0.027228877 0.011014926
-0.0072400295 0.12641597 0.020487143
-0.083261415 0.0017996505 0.086867265
-0.098972484 -0.021810863 0.11258273
-0.10573811 -0.030451793 0.13219915
-0.10936875 -0.033842828 0.14969909
-0.11082113 -0.033528727 0.16605267
-0.10959659 -0.028545981 0.18164894
-0.10620042 -0.019682009 0.19716097
-0.098753266 -0.0019873308 0.22143099
0.29147932 0.71163738 0.2974315
0.31093195 0.75535399 0.3470988
0.30784002 0.75826156 0.39472431
0.58201802 1.2812493 0.57011008
0.3890295 0.93254918 0.55609071
0.25094002 0.67804676 0.51786184
0.35104525 0.88145763 0.65217531
-0.063297026 0.34353623 1.8098639
-0.092451371 0.36688441 2.2370563
-0.1149577 0.44283485 2.8941836
-0.16119036 0.36938462 2.947736
-0.21351704 0.26568893 2.8921568
-0.25558224 0.22561631 3.0920806
-0.33136243 0.090640433 3.0974734
-0.38126683 0.0011832645 3.0978043
-0.43098894 -0.086654648 3.1054394
-0.47961256 -0.17631395 3.0916443
-0.53018892 -0.26252818 3.1171205
-0.57845545 -0.35120898 3.1052375
-0.62982315 -0.43938133 3.1276748
-0.70445055 -0.57323211 3.1277554
-0.75639874 -0.66423237 3.1401019
-0.73217022 -0.703264 2.6737158
-0.86586869 -0.85359967 3.1796837
-0.92448646 -0.95368975 3.2082956
-0.94126803 -1.0147734 3.0331287
-0.96689856 -1.0809166 2.9190962
-0.95519 -1.1040015 2.6697817
-1.0238765 -1.2293507 2.6576841
-0.9227336 -1.1359748 2.1596537
-0.95207131 -1.1948169 2.124474
-0.92935532 -1.1868744 1.9388864
-0.96982473 -1.2586852 1.9432942
-0.99989933 -1.3173805 1.9164183
-1.0553459 -1.411064 1.9490908
-1.0983547 -1.4889154 1.9451144
-1.1649737 -1.6102415 1.9348009
-2.609782 -3.9836657 3.1717036
-2.7241712 -4.3487592 2.2678065
-6.19594 -10.609366 2.0918789
