# .PCD v0.7 - Point Cloud Data file format
VERSION 0.7
FIELDS x y z
SIZE 4 4 4
TYPE F F F
COUNT 1 1 1
WIDTH 440
HEIGHT 1
VIEWPOINT 0 0 0 1 0 0 0
POINTS 440
DATA ascii
0.11111099 -0.80710828 0.0025219044
0.0075232699 -0.77202821 0.0021095779
0.013146455 -0.77136791 0.0028315336
-0.061532773 -0.72794127 0.0025219959
0.061005469 -0.80649811 0.0033894319
0.0026725817 -0.77084106 0.0036497591
-0.034703933 -0.7478562 0.0046171956
-0.047918316 -0.73698777 0.0046691541
-0.16749178 -0.66894364 0.0040163631
-0.15649517 -0.66851801 0.0048877266
0.13828802 -0.82969129 0.005876034
0.14644891 -0.81573457 0.0069481009
0.066617757 -0.80401385 0.0064045712
0.072162487 -0.80397868 0.0063332068
0.019002492 -0.78000289 0.0066738441
-0.19891532 -0.69583994 0.0068465723
-0.1270549 -0.68644977 0.006174094
0.048534892 -0.79099584 0.0075280028
-0.015398818 -0.75706172 0.007262798
0.024719555 -0.77879143 0.008230417
-0.0096985651 -0.75581783 0.0088145239
-0.028407611 -0.74517632 0.0088362461
-0.084480315 -0.71442205 0.008150083
-0.095180534 -0.70465422 0.0082613938
0.091095924 -0.81386596 0.0092817368
0.04327663 -0.78975064 0.0090700844
0.077909589 -0.81261194 0.010864755
0.083672471 -0.81256914 0.010785083
-0.054734044 -0.73307735 0.010441429
-0.115867 -0.69390875 0.010229273
0.054317929 -0.79956472 0.011727205
-0.041337896 -0.74336952 0.011182817
-0.11845414 -0.69336241 0.011012819
-0.13678655 -0.68370688 0.011488716
0.0012396579 -0.76436049 0.012440138
-0.035800759 -0.74227923 0.012808189
-0.14715488 -0.67362112 0.012919787
-0.15754604 -0.66458023 0.012839478
0.060257379 -0.79831761 0.013299724
0.035906859 -0.78603393 0.013666925
-0.003827051 -0.76375252 0.013251721
-0.086151078 -0.71137959 0.013294751
-0.16808257 -0.66416258 0.013748095
0.031009723 -0.78548723 0.01453652
-0.022283213 -0.75190526 0.01456436
-0.062014412 -0.73048013 0.014651662
-0.10709821 -0.70055932 0.014983296
-0.14939299 -0.67268503 0.014661205
0.10043513 -0.79641902 0.015601653
0.10840922 -0.78482091 0.015236153
-0.069952868 -0.72015518 0.015119475
0.0074935779 -0.772219 0.016941136
0.012476348 -0.7727679 0.016103398
0.017970892 -0.77277762 0.016139336
-0.19990583 -0.70017874 0.016052404
-0.13863862 -0.6809023 0.016682323
0.071123697 -0.80684066 0.017587863
-0.048475269 -0.73868525 0.017570732
-0.077184305 -0.71858752 0.017661449
-0.096071176 -0.70884168 0.017535662
-0.12790644 -0.69002253 0.017018802
-0.11985893 -0.68941861 0.017844627
0.066244088 -0.80614734 0.018311407
0.042386204 -0.79388946 0.018581349
0.047616165 -0.79323727 0.019339621
-0.015872769 -0.75910395 0.019579755
-0.042430028 -0.73773122 0.019351179
-0.15904966 -0.66996473 0.019918254
-0.1697614 -0.66108662 0.019989276
-0.010529035 -0.7584601 0.020366721
-0.028888313 -0.74782991 0.020145666
-0.097976185 -0.70671904 0.020839155
-0.1087104 -0.69763148 0.020195398
0.11203615 -0.79137528 0.021660117
0.024158556 -0.7799536 0.021533124
0.029611582 -0.77995688 0.021547902
0.1465548 -0.81519705 0.022071097
0.090806603 -0.81455988 0.022830354
-0.086958796 -0.71544993 0.022680063
-0.07913363 -0.71539712 0.022599876
-0.05534441 -0.7347998 0.023374639
-0.063005067 -0.72453284 0.023711991
-0.14259014 -0.68611395 0.023931971
-0.12954651 -0.68662816 0.023082802
-0.14016674 -0.67716336 0.023639929
0.077938251 -0.81263018 0.025080968
0.083030812 -0.81259847 0.02504365
0.054101828 -0.80036694 0.025133245
0.059298038 -0.80038518 0.025208736
0.10709796 -0.78826207 0.025585579
-0.017406791 -0.75438046 0.025943495
-0.036207505 -0.74377155 0.025765069
-0.15031566 -0.67616308 0.025298651
0.099772595 -0.79906577 0.026662288
0.017380396 -0.77559292 0.02692597
0.0011209208 -0.76494265 0.026320685
-0.022663351 -0.75380337 0.026779618
-0.049424425 -0.73252106 0.026609903
-0.070700437 -0.72297102 0.026229819
-0.089143448 -0.71283203 0.026905403
-0.20067579 -0.70370966 0.02608303
-0.16099948 -0.66678244 0.026059238
-0.035888631 -0.78630161 0.027743319
0.03574834 -0.78698683 0.02704975
0.0069037434 -0.77503687 0.027723705
0.012034235 -0.77504778 0.027777979
-0.003912806 -0.76430452 0.027076663
-0.10968985 -0.70274591 0.027725721
-0.099420317 -0.70254749 0.027566887
-0.12060702 -0.69303864 0.027751949
-0.13127424 -0.68419397 0.027404072
0.070556283 -0.80937356 0.028830918
0.046757855 -0.79713911 0.028898897
-0.17096093 -0.66501307 0.029630143
-0.067208245 -0.78376991 0.030814402
-0.059212387 -0.78364575 0.030792855
-0.011358326 -0.76197529 0.03025225
-0.043368444 -0.7401669 0.030526796
-0.15199077 -0.6733405 0.030513437
0.065870903 -0.80737346 0.031108079
0.028844265 -0.80672181 0.031769626
0.063505068 -0.80671799 0.031810153
0.04206825 -0.79522377 0.031147273
0.10547546 -0.7952432 0.031216852
-0.046018027 -0.79429567 0.031712789
-0.029956592 -0.79451627 0.031845864
0.12446059 -0.79459012 0.031893693
0.028831743 -0.78321761 0.031628355
-0.048598852 -0.78289759 0.031472508
-0.093593761 -0.76072526 0.031832207
-0.029992551 -0.75015551 0.031442828
-0.080441236 -0.71970087 0.031133592
-0.07229422 -0.71972942 0.03122066
0.068744779 -0.87163693 0.032727472
-0.053764958 -0.79368037 0.032562435
-0.037592579 -0.79386014 0.03263336
-0.021639315 -0.79399496 0.03272539
-0.064494684 -0.72879779 0.032401688
-0.056279626 -0.728697 0.032348465
-0.090881042 -0.70912641 0.032733686
-0.20240206 -0.70009667 0.032003928
-0.12235337 -0.69007546 0.032919783
-0.16252561 -0.67238933 0.032266688
0.076901108 -0.87093264 0.033419579
0.1009322 -0.87090647 0.033467308
0.10590871 -0.84300363 0.03383578
-0.010849524 -0.80544484 0.033256765
0.036830392 -0.80540341 0.033271559
0.05004473 -0.80536127 0.033212602
0.053049698 -0.80539244 0.033248886
0.0024473909 -0.78132284 0.03392471
0.023796968 -0.78133732 0.033941049
-0.024133636 -0.74909168 0.033174351
-0.10109948 -0.70846385 0.033402421
-0.11175811 -0.6991148 0.033657882
0.092813142 -0.88432288 0.03448642
0.058225289 -0.85618579 0.034139968
0.10366745 -0.85618585 0.034192756
0.10112965 -0.84227502 0.034514673
0.10374642 -0.82921743 0.034552522
0.13557482 -0.82923579 0.03454208
0.074145772 -0.81630301 0.034821291
0.08213149 -0.81628823 0.03488848
0.090449542 -0.81626183 0.034900017
0.11170045 -0.81690758 0.034039319
0.12496046 -0.81626517 0.03479249
0.031922944 -0.80412197 0.034788769
0.10857432 -0.80476367 0.034082472
0.14060624 -0.80473655 0.034017619
0.034597609 -0.79204166 0.034968298
0.11172896 -0.7926349 0.034136534
-0.042644873 -0.79180187 0.034800876
0.018779986 -0.79199845 0.034940053
-0.010586852 -0.78073514 0.034689695
-0.1085679 -0.75900531 0.034257568
-0.079949349 -0.75883871 0.034085177
-0.16447391 -0.70804942 0.034325555
0.095671795 -0.86876553 0.035490584
0.09864714 -0.85476285 0.035526246
0.095632672 -0.84159726 0.035194345
0.11956109 -0.84093916 0.035975177
0.12236642 -0.82853532 0.035118505
0.071802981 -0.82789499 0.035981063
0.03469006 -0.81561893 0.035582889
0.061115634 -0.81560588 0.035630897
0.11951721 -0.81562555 0.035613924
0.13310122 -0.8156184 0.035552662
0.13824394 -0.81557333 0.035565179
-0.031853121 -0.80337441 0.035424978
-0.0024641792 -0.80339825 0.035454173
0.045344513 -0.80341643 0.035449877
0.098667532 -0.8034181 0.035478421
0.1357636 -0.80344522 0.035521649
-3.0710315e-05 -0.79202396 0.035006352
-0.050337229 -0.79106492 0.03553804
0.039760984 -0.79133236 0.035628233
0.01587096 -0.78006655 0.035463702
8.0365258e-05 -0.76884615 0.035526745
0.0052878265 -0.76886529 0.035511468
-0.1298777 -0.74732971 0.03554675
-0.050345026 -0.73663145 0.035357244
-0.10348082 -0.72662032 0.035657402
-0.090364091 -0.72671151 0.035761837
-0.076842934 -0.72662455 0.035647079
-0.19651562 -0.7075575 0.035355754
-0.14326036 -0.67977321 0.03509843
0.088167168 -0.88213474 0.036495898
0.090778686 -0.86733055 0.036951557
0.09325628 -0.85333782 0.036908325
0.043005668 -0.84020609 0.036598258
0.069438063 -0.84020263 0.036585879
0.037416771 -0.82717997 0.036682371
0.050628778 -0.82713753 0.03662027
0.058685519 -0.82717156 0.036662493
0.00018706504 -0.81493217 0.036353093
0.02673435 -0.81495786 0.03632649
0.069392726 -0.814915 0.036253069
0.077421486 -0.81492931 0.036257703
0.14673989 -0.81418765 0.036966812
-0.023630269 -0.80281514 0.036290303
-0.015630657 -0.80281347 0.036227472
-0.0076413723 -0.80212432 0.036970306
0.05862394 -0.80277121 0.036227062
0.10406562 -0.80277115 0.036275953
0.12255835 -0.80277097 0.036125544
0.13044372 -0.80214339 0.036975421
-0.012919154 -0.79079092 0.036468297
0.013562753 -0.79078299 0.036527343
0.026779212 -0.79076403 0.036489461
-0.026082352 -0.77942204 0.03619346
-0.018491169 -0.77948117 0.036264576
-0.0021858006 -0.77876931 0.036955141
-0.0077459044 -0.76822853 0.036246363
-0.063725658 -0.7674886 0.036962431
-0.029040812 -0.76753712 0.036941212
-0.0047594332 -0.76755971 0.036963005
-0.031680301 -0.74664319 0.036249794
-0.11403801 -0.73636568 0.036315225
-0.10585218 -0.72613078 0.036573086
-0.087454163 -0.72614843 0.036597136
-0.081986837 -0.7159344 0.036996562
-0.1295972 -0.69703853 0.036981333
-0.11651334 -0.69693226 0.036895297
-0.11389565 -0.69699562 0.036955036
-0.13793166 -0.68817568 0.036406871
-0.17241117 -0.66136652 0.036679879
0.085185625 -0.86659592 0.037525561
0.11724788 -0.85264218 0.037600692
0.04821771 -0.83949876 0.037321866
0.082556479 -0.83954334 0.03739794
0.11476132 -0.83950609 0.037321828
0.024386015 -0.82651138 0.037402488
0.098987684 -0.82648069 0.037376929
0.0085250465 -0.81429648 0.037039749
0.013649551 -0.81430775 0.037098106
0.048174936 -0.81423628 0.037011173
0.056181494 -0.81425047 0.037017394
0.095965639 -0.81425101 0.037009366
0.1015873 -0.8142342 0.037037678
0.021749103 -0.81360137 0.037807852
0.043215934 -0.81357992 0.037727974
0.12791649 -0.81361729 0.037739489
0.01112964 -0.80152065 0.037777774
0.024454542 -0.80148095 0.037732672
0.11729576 -0.80145133 0.037693027
0.0085676191 -0.79012918 0.037225716
0.011156398 -0.77823025 0.037811037
-0.084473848 -0.76760316 0.037031688
-0.082025133 -0.76757252 0.037013479
-0.073812149 -0.76756221 0.037020173
-0.071303852 -0.76755542 0.03701492
-0.020863406 -0.76765734 0.037061505
-0.050033025 -0.75620502 0.037180308
-0.042204656 -0.75629991 0.03719354
-0.025875863 -0.75650495 0.037305526
-0.018278321 -0.75656354 0.037372768
-0.073784165 -0.74606657 0.037098009
-0.055328876 -0.7453053 0.037782338
-0.039320569 -0.7459814 0.037056413
-0.036646504 -0.74544048 0.037850302
-0.09500327 -0.73515832 0.037848093
-0.081985131 -0.73575783 0.037099227
-0.068804167 -0.73571557 0.037067469
-0.060667273 -0.73564535 0.037025999
-0.12697068 -0.71547711 0.037859965
-0.11389904 -0.71596932 0.037019707
-0.097644374 -0.71531332 0.037741616
-0.15075596 -0.70590192 0.037659261
-0.18275617 -0.696522 0.037997026
-0.13225426 -0.68764699 0.037281677
0.064614818 -0.86589968 0.038289011
0.11255009 -0.85121512 0.038955119
0.056468397 -0.83812356 0.038745012
0.091125302 -0.83812749 0.038825799
0.045917992 -0.82511508 0.038788836
0.08022052 -0.82582551 0.03810655
0.1173486 -0.82579958 0.038082145
0.13062967 -0.82583582 0.038109809
-0.0045354478 -0.81286961 0.038426738
0.11497854 -0.81290543 0.038474288
0.021935726 -0.78881752 0.038769372
-0.044828866 -0.76608801 0.038370717
-0.036540184 -0.76629251 0.038526397
-0.057914697 -0.75572324 0.038054086
-0.034052894 -0.75586146 0.038063284
-0.10297108 -0.74487609 0.038626797
-0.087094225 -0.74496281 0.038753957
-0.11103076 -0.73527724 0.03801398
-0.1375564 -0.73469818 0.038765423
-0.12411916 -0.73470026 0.03871493
-0.10775998 -0.73473024 0.038795538
-0.092362173 -0.7346459 0.038731806
-0.079133719 -0.73456544 0.038628768
-0.057790868 -0.73445809 0.03866661
-0.13212278 -0.72502661 0.038234618
-0.14794724 -0.72443706 0.038942069
-0.14516313 -0.72440213 0.038952049
-0.11617468 -0.72438025 0.038938068
-0.084096678 -0.72443986 0.038995706
-0.073580682 -0.72495842 0.038170878
-0.17988153 -0.71544677 0.038029525
-0.16940461 -0.71488285 0.038676262
-0.15580271 -0.71484143 0.038616464
-0.1530365 -0.71487397 0.038594671
-0.14001995 -0.71490389 0.038671441
-0.092358805 -0.71488088 0.03866782
-0.11873209 -0.70530325 0.038451951
-0.10548534 -0.70539498 0.038574502
-0.14265843 -0.69595128 0.038611095
-0.16660421 -0.68712807 0.038084038
-0.15067863 -0.68710929 0.038028102
-0.14793397 -0.68661582 0.038883507
-0.13472345 -0.68665928 0.038963191
-0.1720846 -0.6778357 0.038612448
-0.15882009 -0.67780524 0.038520459
-0.15303738 -0.67784178 0.038502902
0.1095093 -0.86447561 0.039707169
0.074858673 -0.85128003 0.039008018
0.067364 -0.85053933 0.039801411
0.077969581 -0.83743852 0.039425686
0.12820473 -0.83746481 0.039443858
0.019570379 -0.82442856 0.039534107
0.054146025 -0.82444078 0.039538972
0.088719718 -0.82442975 0.039520651
0.093733765 -0.82442409 0.03952625
-0.017987052 -0.81229872 0.03927194
0.0033609562 -0.81225246 0.039223656
0.0059193764 -0.80017644 0.039242636
-0.0043441034 -0.78811228 0.039414141
-0.031037949 -0.77622825 0.039988738
-0.023073621 -0.77695394 0.03934041
-0.015077409 -0.77695239 0.039278563
-0.052572362 -0.76549846 0.039238568
-0.012398347 -0.76582015 0.039360143
-0.065645017 -0.75464255 0.039646238
-0.10006654 -0.74424762 0.039353732
-0.084023409 -0.74434406 0.039498143
-0.05253223 -0.74408615 0.0393853
-0.044651885 -0.74406117 0.039296549
-0.12124143 -0.73402542 0.039493769
-0.14247832 -0.72387022 0.039783984
-0.123973 -0.71438974 0.039475828
-0.11073457 -0.71439385 0.039579634
-0.094712719 -0.71427542 0.039419435
-0.14786689 -0.70484906 0.039331868
-0.131892 -0.70487988 0.039438218
-0.10282253 -0.70479614 0.039313719
-0.19315132 -0.69549769 0.039628148
-0.1692481 -0.69545299 0.039492853
-0.15564202 -0.69541186 0.03943336
-0.12666665 -0.69550264 0.039499849
-0.12396266 -0.69550389 0.039464597
-0.17694771 -0.68615991 0.039931685
-0.17427827 -0.68613493 0.039865084
-0.18500097 -0.67744786 0.039642349
0.030432004 -0.8360554 0.040880997
0.064966351 -0.83674628 0.04021408
0.10963012 -0.83676052 0.040260743
0.032881696 -0.82380003 0.040314659
0.040663637 -0.82304168 0.040906709
0.10713763 -0.81092238 0.040725466
-0.038690638 -0.77552456 0.040762022
-0.07601808 -0.7540496 0.040395048
-0.047020435 -0.75380141 0.04033396
-0.11596033 -0.74369627 0.040235117
-0.070715219 -0.74370873 0.040280133
-0.063130714 -0.74364233 0.040229704
-0.065523528 -0.73343366 0.040297315
-0.1611028 -0.72329986 0.040588804
-0.11837807 -0.72324294 0.040529061
-0.099858806 -0.7232253 0.040489625
-0.10747141 -0.71387517 0.040381547
-0.18749602 -0.70438802 0.040423941
-0.17421359 -0.70433813 0.040299032
-0.15273625 -0.69492918 0.040256951
-0.13971275 -0.69495922 0.040330991
-0.16336477 -0.68563706 0.040594585
-0.17943926 -0.66821229 0.040305771
-0.1634486 -0.66820425 0.040087052
0.083334148 -0.87632686 0.04195907
0.06206356 -0.84913021 0.041176349
0.088984549 -0.84910101 0.041081063
0.085915551 -0.835334 0.041552573
0.067734316 -0.82240748 0.041791212
0.016893003 -0.81024802 0.041428886
-0.09436027 -0.76385212 0.041607771
-0.059879117 -0.76376712 0.041588683
-0.096961744 -0.7424733 0.041785304
-0.16608953 -0.71325123 0.041148417
-0.13711464 -0.71329892 0.041177969
-0.13420571 -0.71273804 0.041999284
-0.12079237 -0.71265519 0.041926816
-0.18473309 -0.70388049 0.04127375
-0.17166795 -0.70378363 0.041096404
-0.16101274 -0.70377064 0.041015178
-0.14478418 -0.70375496 0.041011877
-0.17927906 -0.69444156 0.041353747
-0.1872573 -0.68518484 0.041691385
-0.14469108 -0.68508202 0.041451406
-0.16894041 -0.67639637 0.041165747
-0.15533048 -0.67635566 0.041106593
-0.17671838 -0.66775757 0.04114037
-0.1659192 -0.66725683 0.041872133
-0.054557923 -0.77417916 0.042215616
-0.10476351 -0.75230986 0.042870525
-0.089273922 -0.75293249 0.042088721
-0.067811012 -0.75222355 0.042790093
-0.12613857 -0.74204838 0.042706415
-0.13407712 -0.73181409 0.042792585
-0.12867755 -0.72224987 0.042293366
-0.15811451 -0.70269388 0.042672306
-0.18985841 -0.69391656 0.042179946
-0.16077009 -0.68459755 0.042307194
-0.18199781 -0.67594916 0.042212803
-0.17374639 -0.66679364 0.042815585
0.073033251 -0.86089504 0.043075331
-0.15807004 -0.72160536 0.043024324
-0.17629513 -0.71164864 0.043773867
-0.11772934 -0.75101423 0.044311326
-0.14917357 -0.72889638 0.046742294
