# .PCD v0.7 - Point Cloud Data file format
VERSION 0.7
FIELDS x y z
SIZE 4 4 4
TYPE F F F
COUNT 1 1 1
WIDTH 1367
HEIGHT 1
VIEWPOINT 0 0 0 1 0 0 0
POINTS 1367
DATA ascii
0.13811605 -0.5717684 0.034863904
0.14731959 -0.57178754 0.034899268
0.15079641 -0.57181334 0.034920715
0.15167779 -0.5717991 0.034915313
0.15255389 -0.57179016 0.034901097
0.1570106 -0.57180476 0.034916878
0.1586076 -0.57181156 0.034932423
0.11404634 -0.56723452 0.034673709
0.11545029 -0.56722075 0.034653381
0.11622587 -0.56720304 0.034643482
0.11718304 -0.56720698 0.034643658
0.11828069 -0.56719702 0.034632869
0.15599622 -0.56720734 0.034628835
0.14066495 -0.56262708 0.034470715
0.14100201 -0.56262791 0.034463417
0.14248319 -0.56264573 0.03449364
0.14609906 -0.56269211 0.034545995
0.14785634 -0.56266975 0.034514338
0.15108298 -0.56263459 0.03448426
0.15483943 -0.56268638 0.034551572
0.15610091 -0.56268317 0.034539677
0.14226913 -0.55363023 0.034597497
0.14641753 -0.54921043 0.034844626
0.14710738 -0.54919261 0.034830797
0.13588122 -0.54532039 0.034378108
0.13623548 -0.54531598 0.034385711
0.1391091 -0.54529035 0.034347311
0.14544916 -0.54525614 0.03429842
0.14617497 -0.54525506 0.034308158
0.14150715 -0.54090565 0.034798227
0.14288373 -0.5408895 0.034770116
0.14361434 -0.54088169 0.034760769
0.12960821 -0.53705877 0.034516558
0.13052748 -0.53706509 0.03452526
0.13175865 -0.53705812 0.03451144
0.13244121 -0.53704739 0.034502324
0.13336658 -0.53702986 0.034495667
0.1343901 -0.53703213 0.034491088
0.13545597 -0.53702593 0.034493584
0.13195726 -0.52936959 0.034186583
0.13373724 -0.52938026 0.034203421
0.13446562 -0.52938139 0.03420534
0.13623054 -0.5293768 0.03419444
0.12590143 -0.52557003 0.034182232
0.12769586 -0.5255518 0.034170095
0.12838821 -0.52554315 0.034150902
0.12945896 -0.52552104 0.034131784
0.13299766 -0.52173162 0.034198828
0.13332665 -0.52173781 0.034201175
0.1275939 -0.51801944 0.034410562
0.13083044 -0.5180164 0.034410715
0.13117516 -0.51801562 0.034407146
0.12658317 -0.51799995 0.034382455
0.18469937 -0.64902073 0.035489477
0.18508114 -0.64901626 0.035508782
0.15575424 -0.64896137 0.035431772
0.16193891 -0.64899755 0.035464555
0.1622981 -0.64899325 0.035475202
0.17067301 -0.64128494 0.035790093
0.17139608 -0.6412884 0.035804525
0.19271353 -0.64129406 0.035792373
0.1934716 -0.641289 0.035794314
0.19419539 -0.6419878 0.03514038
0.1964656 -0.6413027 0.035821717
0.0858391 -0.63501292 0.035033215
0.086198241 -0.63501114 0.035039973
0.18047702 -0.63503087 0.035062455
0.19076313 -0.63500953 0.035019364
0.19129898 -0.63502085 0.035027314
0.084762514 -0.63430101 0.035635725
0.085259743 -0.63431346 0.035659704
0.18135381 -0.63434517 0.035718173
0.18947873 -0.63430023 0.035658509
0.19065793 -0.63430297 0.035658959
0.17790087 -0.62808692 0.035121381
0.17876229 -0.62741625 0.035812866
0.17931283 -0.6274218 0.03581588
0.15839788 -0.62119424 0.035401419
0.17888044 -0.62120998 0.035439204
0.17960092 -0.61508679 0.035263035
0.18068421 -0.61508024 0.035263132
0.15847431 -0.60294342 0.035542976
0.15950985 -0.60291618 0.035486106
0.16344254 -0.60292053 0.035495758
0.16661599 -0.60291135 0.03547886
0.16946898 -0.602911 0.035478096
0.15717666 -0.5975374 0.035152957
0.15953098 -0.59753656 0.035133414
0.16521499 -0.59752077 0.035112832
0.16794619 -0.59756029 0.035183769
0.15574612 -0.59690845 0.035891172
0.15854947 -0.59690386 0.035856772
0.17062101 -0.59690148 0.03584455
0.17132375 -0.59688389 0.035841547
0.15234062 -0.59158063 0.03570465
0.16532442 -0.59159374 0.035717294
0.16919966 -0.59157109 0.035673447
0.079461358 -0.58629221 0.035665046
0.14920732 -0.58629268 0.035669915
0.16100919 -0.58629894 0.035690125
0.16237898 -0.58627874 0.035668451
0.1630518 -0.58628666 0.035675801
0.085913636 -0.58101225 0.035751015
0.14574921 -0.58104241 0.035799183
0.14638746 -0.58162117 0.035025965
0.14716205 -0.58102214 0.035780855
0.14819151 -0.58101684 0.03575838
0.15369891 -0.58163857 0.035052944
0.15575454 -0.58162755 0.035029676
0.15961608 -0.58104253 0.035807624
0.16279508 -0.58103693 0.035790157
0.15440845 -0.57640868 0.035292961
0.13352458 -0.57577562 0.035995528
0.1368182 -0.57579452 0.035997719
0.098900087 -0.57122952 0.035708502
0.1084923 -0.57122773 0.035685249
0.14658135 -0.5711959 0.035669744
0.14798418 -0.57121748 0.035691239
0.14852974 -0.57123554 0.035718247
0.14945771 -0.57123703 0.035723258
0.15028651 -0.57124233 0.035710409
0.15157089 -0.57123935 0.035708226
0.15582091 -0.5712443 0.03571482
0.15801002 -0.57123482 0.035709232
0.14844459 -0.5621044 0.035306495
0.14983834 -0.56208479 0.035277091
0.15266804 -0.56211263 0.035322793
0.154566 -0.56213343 0.035362121
0.14373906 -0.55757403 0.035270326
0.14451146 -0.5575788 0.035284981
0.14597447 -0.55758607 0.035288382
0.1466319 -0.55759436 0.035275493
0.15059315 -0.5576157 0.035321318
0.14060634 -0.55309492 0.035397165
0.13175137 -0.54866928 0.035657752
0.13351446 -0.54871774 0.035710387
0.13778155 -0.54869354 0.035672393
0.13845921 -0.54867619 0.03565364
0.14492774 -0.5486688 0.035661593
0.14630169 -0.54870862 0.035692513
0.14360347 -0.54451734 0.03557761
0.14442015 -0.5447619 0.035154626
0.13452539 -0.54041117 0.035645466
0.13674113 -0.54041511 0.035634752
0.13917074 -0.54043484 0.035672862
0.14057915 -0.54042912 0.035653811
0.14201687 -0.54042512 0.035652012
0.12926126 -0.53657764 0.035370339
0.12893589 -0.52887607 0.035022296
0.12959732 -0.52889436 0.035028715
0.13039762 -0.5289132 0.035066515
0.13103709 -0.52892369 0.035062682
0.12660557 -0.52512717 0.035062924
0.1465472 -0.65604657 0.036024973
0.14766322 -0.65533155 0.036644373
0.14834957 -0.65533942 0.036649168
0.14913459 -0.65534079 0.036656935
0.1045902 -0.64826787 0.03607947
0.10538509 -0.64828789 0.036108181
0.10648163 -0.64828712 0.036118586
0.10751084 -0.64829493 0.036104552
0.10860492 -0.64828968 0.036099941
0.10966887 -0.64827663 0.036085967
0.15680179 -0.64826834 0.036089242
0.1629644 -0.64828712 0.036101747
0.17352882 -0.64831334 0.036144346
0.17401558 -0.64831138 0.03614087
0.10356867 -0.64754313 0.036674935
0.10606574 -0.64758414 0.036747236
0.10781758 -0.6475867 0.036728568
0.15767126 -0.64757681 0.036720946
0.15800034 -0.64758086 0.036716271
0.16371861 -0.647569 0.036721289
0.1640688 -0.64757091 0.036729299
0.17469415 -0.64760029 0.036751173
0.17240205 -0.64059848 0.036450416
0.19212829 -0.6405915 0.036423121
0.087870009 -0.63984799 0.036997676
0.088266626 -0.63984621 0.036994524
0.09052071 -0.63984358 0.036996886
0.091082245 -0.63983369 0.036995105
0.083997898 -0.63359714 0.036277063
0.084575593 -0.63360357 0.036281466
0.18233228 -0.63365334 0.036359832
0.18894565 -0.6336391 0.036344513
0.18924272 -0.63362825 0.036324669
0.1906393 -0.63360822 0.036305696
0.083402991 -0.63291562 0.036948703
0.18354045 -0.63293791 0.036959987
0.18525435 -0.63292617 0.036961578
0.18710628 -0.63295025 0.036999326
0.17390229 -0.62673604 0.036445558
0.17994978 -0.62674737 0.036484547
0.18028612 -0.62674695 0.036489028
0.18458517 -0.62675327 0.036494356
0.17329225 -0.62055212 0.036106087
0.1796694 -0.62054801 0.03610621
0.17448583 -0.61988395 0.03679302
0.18052344 -0.61988407 0.036785893
0.16486509 -0.60766 0.036664944
0.17309797 -0.60767472 0.036687821
0.17567946 -0.6076808 0.036713395
0.15374053 -0.60227793 0.036212757
0.16018569 -0.60227621 0.036198933
0.16119331 -0.60225672 0.036171567
0.16637775 -0.60227931 0.036195986
0.17161533 -0.60229576 0.036225185
0.17277117 -0.60165024 0.036944441
0.16489467 -0.59627032 0.036574773
0.16526431 -0.59626734 0.036578231
0.16503853 -0.59099281 0.036486365
0.14701638 -0.58566821 0.036402982
0.15411028 -0.58569056 0.036424045
0.086518683 -0.5804143 0.036516652
0.14234585 -0.5804249 0.036539316
0.14313915 -0.58044267 0.036567118
0.1463566 -0.58044827 0.036563653
0.15312515 -0.58044571 0.036567334
0.16148436 -0.58043766 0.036557801
0.16273147 -0.58044368 0.036552947
0.095280424 -0.5752387 0.036828265
0.13715108 -0.57579958 0.03600768
0.14538984 -0.57581013 0.036056556
0.15235277 -0.5752176 0.036798164
0.15322602 -0.57583666 0.036080103
0.15429492 -0.57583201 0.03606886
0.15741515 -0.57524836 0.036859181
0.15930529 -0.57524133 0.036834095
0.1101695 -0.57065868 0.036477365
0.11126922 -0.5706681 0.036492933
0.11268101 -0.57066548 0.036482934
0.11654148 -0.57063186 0.036460068
0.15471916 -0.56610179 0.036253475
0.13957952 -0.56549615 0.036982667
0.13995707 -0.5610128 0.036917724
0.14009745 -0.56155139 0.036111474
0.14507911 -0.56155533 0.036086332
0.14174989 -0.55707896 0.03614302
0.14831421 -0.55708504 0.036152784
0.1490536 -0.55710196 0.036168262
0.15048459 -0.55709004 0.036148772
0.14077763 -0.55653447 0.036965005
0.13978434 -0.55257839 0.036233902
0.14013514 -0.55257416 0.036229141
0.14685492 -0.55257452 0.036219958
0.13565247 -0.54819608 0.0365218
0.13637176 -0.54818726 0.036516979
0.1376083 -0.54818672 0.036517162
0.14547236 -0.5481832 0.036527716
0.13580281 -0.53991938 0.036480654
0.14982527 -0.65462679 0.037279326
0.15046631 -0.65462047 0.037256919
0.15774119 -0.65462887 0.03724499
0.15047778 -0.65390956 0.037882205
0.15120208 -0.65390205 0.037866913
0.10099209 -0.6461581 0.037955057
0.10155875 -0.6461426 0.037934519
0.10235032 -0.6466645 0.037446812
0.10317728 -0.64683479 0.037283987
0.15867978 -0.64687389 0.037343219
0.15900591 -0.64687657 0.037348162
0.16153133 -0.64617282 0.037993152
0.16472836 -0.64686823 0.037347067
0.16576213 -0.64616811 0.037971064
0.16610032 -0.64616376 0.037971362
0.17541997 -0.6468752 0.037349783
0.17638867 -0.64615667 0.037939627
0.17876685 -0.64616358 0.037987463
0.17930825 -0.64688194 0.037372258
0.18057033 -0.64689791 0.037395161
0.18147013 -0.64653748 0.037692159
0.18246393 -0.64615721 0.037968323
0.087523229 -0.63916355 0.037652556
0.089655124 -0.63985145 0.037002057
0.1735875 -0.63988429 0.037056807
0.17464377 -0.6398831 0.03705328
0.1757818 -0.63917559 0.037693199
0.082847908 -0.6322245 0.037604775
0.18469203 -0.63223732 0.03758467
0.18557233 -0.63223851 0.037603788
0.18655258 -0.63225055 0.037641317
0.18782566 -0.63227153 0.037662413
0.1884592 -0.63279378 0.037182074
0.18093288 -0.62605613 0.037129547
0.18147966 -0.62604809 0.037111208
0.18307787 -0.62535983 0.037772119
0.1751247 -0.61921829 0.037479222
0.17497352 -0.61306566 0.037303008
0.17484541 -0.60703743 0.037414867
0.16553803 -0.60699826 0.037368126
0.1661194 -0.60101402 0.037657291
0.1635828 -0.60099548 0.03761683
0.15682866 -0.59565228 0.037333399
0.16458699 -0.59564078 0.037296534
0.15037484 -0.59033483 0.03716556
0.15212652 -0.59036154 0.037196778
0.1642698 -0.59037185 0.037215136
0.15703256 -0.58972794 0.037899766
0.16200113 -0.58973235 0.037910663
0.163261 -0.58971882 0.037880719
0.080388822 -0.58507353 0.037157141
0.14613836 -0.58505136 0.037128672
0.14828035 -0.58508694 0.037182674
0.091049299 -0.57463449 0.037582032
0.15020894 -0.57464755 0.037604883
0.15732682 -0.57466888 0.03763596
0.099731334 -0.57008541 0.037279256
0.10010833 -0.57009315 0.037287112
0.11184599 -0.57009917 0.037278343
0.11394069 -0.57008052 0.037251633
0.11469911 -0.57006598 0.037249707
0.11717923 -0.57006294 0.037241336
0.11858814 -0.57006627 0.037239887
0.14568198 -0.56555063 0.037041783
0.14961576 -0.56551045 0.037018683
0.15174031 -0.56555194 0.037073698
0.15349166 -0.56555504 0.03705566
0.14700042 -0.56495935 0.037798543
0.14840703 -0.56494635 0.037782528
0.14908895 -0.5649448 0.037783846
0.14381959 -0.56044662 0.037710749
0.13948941 -0.55596006 0.037717625
0.1392609 -0.55206138 0.037060879
0.13737299 -0.55153561 0.037882682
0.15188579 -0.65316927 0.03846167
0.15220135 -0.65316319 0.038449667
0.15895914 -0.65319771 0.038474526
0.18020642 -0.64618778 0.038012095
0.10082287 -0.64546633 0.038598068
0.17672327 -0.64545715 0.038574278
0.1776057 -0.64543998 0.038565017
0.1781171 -0.64544588 0.038587157
0.19349276 -0.64548111 0.038632449
0.084837332 -0.63848662 0.038321823
0.085502878 -0.63847947 0.038314115
0.086444639 -0.63847846 0.038312759
0.17682691 -0.63849789 0.038350537
0.082821526 -0.63153958 0.038252156
0.082396194 -0.63085532 0.038903691
0.17025055 -0.62469375 0.038447585
0.17587373 -0.62469834 0.038453639
0.17658634 -0.61854565 0.038171764
0.17479791 -0.60637969 0.038108744
0.15864468 -0.60571593 0.038776498
0.16754413 -0.60571963 0.038786486
0.16831078 -0.60574406 0.038827658
0.15711901 -0.6003499 0.038314909
0.16758129 -0.59503734 0.038063105
0.15715638 -0.59439969 0.038788058
0.14699475 -0.58911997 0.0386567
0.1601482 -0.58911198 0.038658075
0.13956857 -0.58384103 0.038651608
0.14246273 -0.58387542 0.03869693
0.08779306 -0.57922888 0.038048785
0.14252424 -0.57922876 0.038061216
0.15822046 -0.57926404 0.038102403
0.14137511 -0.57861733 0.038783289
0.14213413 -0.57862318 0.038813401
0.14443621 -0.57866418 0.038872138
0.1464075 -0.5786714 0.038847987
0.15209807 -0.57867074 0.038860533
0.10555985 -0.57407337 0.038368743
0.1453781 -0.57405245 0.038367115
0.14721251 -0.5740822 0.038418796
0.10178677 -0.56951183 0.038042795
0.10307547 -0.56893486 0.038822919
0.12054741 -0.56892598 0.038803332
0.1211963 -0.56893659 0.038821127
0.13820505 -0.56891263 0.038795199
0.12407184 -0.56442779 0.038636632
0.13757397 -0.56441617 0.038620234
0.14542387 -0.55990726 0.038493264
0.14609528 -0.55992097 0.038519111
0.15286495 -0.65244311 0.039049298
0.11416534 -0.65177369 0.039727937
0.16782767 -0.64476061 0.039223082
0.083879471 -0.63710535 0.039625198
0.081299566 -0.63017154 0.039566278
0.17660788 -0.62400746 0.039112795
0.17856193 -0.61722213 0.039498843
0.15860704 -0.60507405 0.03949333
0.16007581 -0.60506588 0.039488524
0.13913372 -0.58322328 0.039377179
0.15410133 -0.58324713 0.039416339
0.14016929 -0.57803351 0.03954659
0.14128815 -0.57802284 0.039543029
0.11760757 -0.57345545 0.039118405
0.092566103 -0.57288373 0.039904021
0.098790646 -0.5729121 0.039935764
0.1135371 -0.57288665 0.039907426
0.11569095 -0.57288283 0.039912701
0.11618982 -0.57288349 0.039912269
0.11746781 -0.57287729 0.039891414
0.10433339 -0.56834143 0.039573062
0.14391851 -0.6587792 0.040366665
0.10197558 -0.65102041 0.040293228
0.10230053 -0.65102327 0.040296517
0.10486335 -0.65105152 0.040338058
0.10664976 -0.65105683 0.040325444
0.10738904 -0.65104038 0.040310599
0.10803818 -0.65103763 0.040301215
0.11689986 -0.651048 0.04030779
0.10340074 -0.65032107 0.040921539
0.1044724 -0.6503365 0.040960848
0.10870855 -0.65031475 0.040900588
0.10924274 -0.65031135 0.040890776
0.11517824 -0.65034258 0.040950026
0.11764704 -0.65034193 0.040934324
0.082024597 -0.63567537 0.040846296
0.080766484 -0.62949538 0.040224314
0.081305914 -0.62948716 0.040222511
0.17582785 -0.62950873 0.040233076
0.080345839 -0.6288209 0.040889032
0.15579495 -0.59845334 0.040512327
0.15593067 -0.5931592 0.040248293
0.15649988 -0.5931623 0.040253349
0.082369089 -0.58204025 0.040906966
0.14648227 -0.58263618 0.040148195
0.14869452 -0.58265203 0.040178195
0.15120365 -0.58266127 0.040186949
0.14120409 -0.5774309 0.040307418
0.099559382 -0.57232577 0.040701505
0.10566573 -0.57231605 0.040693294
0.11735361 -0.57229686 0.040665139
0.11026758 -0.64959842 0.04150394
0.11156591 -0.64962876 0.041557573
0.11246032 -0.64962399 0.041552134
0.1183164 -0.64962965 0.04155061
0.088097267 -0.64260334 0.041049968
0.089670345 -0.64258456 0.041042313
0.090159476 -0.64258796 0.041039832
0.087347455 -0.64189625 0.041676242
0.090884261 -0.641882 0.041662328
0.091425717 -0.64188468 0.041665681
0.08125075 -0.63498032 0.041505292
0.080162406 -0.62813932 0.041548539
0.16726485 -0.60917008 0.04151063
0.089810632 -0.57685024 0.041096888
0.094887435 -0.57686949 0.041133907
0.13320656 -0.57683349 0.041076388
0.14105299 -0.5768351 0.041070156
0.10092803 -0.57173145 0.041465897
0.10162826 -0.57173252 0.041462548
0.10592752 -0.56718421 0.041135393
0.13686658 -0.567186 0.041144636
0.13963732 -0.55773133 0.041777343
0.098369785 -0.64820027 0.042779926
0.11351117 -0.64890754 0.042156849
0.080518 -0.63428557 0.04214488
0.080397889 -0.6267665 0.042855468
0.079658084 -0.58603007 0.042334225
0.083259843 -0.58082688 0.04241262
0.091273353 -0.57565749 0.042614769
0.10286295 -0.57112515 0.042204928
0.13771169 -0.56163597 0.042616062
0.097982086 -0.64749271 0.043399584
0.098325327 -0.64749503 0.043403212
0.097582929 -0.64676172 0.043996092
0.079711877 -0.63290077 0.043430705
0.080289945 -0.63289511 0.04341976
0.080383614 -0.62607956 0.043519307
0.14718494 -0.58543426 0.043109737
0.087069228 -0.58021039 0.043143764
0.084840372 -0.57961082 0.04390274
0.092024736 -0.57506114 0.04336258
0.10478268 -0.56995046 0.043739285
0.097561918 -0.64627594 0.044375911
0.079627097 -0.62538624 0.044161674
0.080186516 -0.62539136 0.044170905
0.079586238 -0.62470418 0.044817898
0.085465476 -0.57900345 0.044653278
0.098753951 -0.57449436 0.044168003
0.14068089 -0.57447809 0.04415061
0.093631566 -0.57388639 0.044899069
0.10577053 -0.56937009 0.044517741
0.10649303 -0.56939268 0.044546559
0.11359303 -0.65303069 0.045205522
0.10898611 -0.6522857 0.045777366
0.10966043 -0.65229797 0.04580006
0.11429997 -0.65230179 0.045799792
0.097529262 -0.64458948 0.045767512
0.079222545 -0.62401038 0.045459237
0.081894726 -0.58355004 0.045286346
0.093886808 -0.57329279 0.045661699
0.1006376 -0.57329196 0.045670275
0.10382264 -0.57328051 0.045655046
0.14428532 -0.55935979 0.045736257
0.11504637 -0.65156776 0.04639006
0.11710419 -0.65158308 0.046414066
0.11777321 -0.65084887 0.046996571
0.12140418 -0.65084815 0.046990544
0.12209448 -0.65084761 0.046977576
0.090411775 -0.64386624 0.046395913
0.094405994 -0.64313507 0.046994191
0.095328346 -0.64313561 0.046992369
0.096276924 -0.64387214 0.046405599
0.079158232 -0.62331939 0.046109002
0.13644972 -0.58231568 0.046748761
0.090907633 -0.57717264 0.046872277
0.13935374 -0.57779467 0.046145577
0.095246673 -0.57271224 0.046449065
0.1023531 -0.57267022 0.046410326
0.11254198 -0.65085608 0.047001887
0.11604541 -0.65011418 0.047581017
0.11854296 -0.65012169 0.047599759
0.12095883 -0.65085244 0.047000721
0.12126332 -0.65012866 0.04760104
0.091512352 -0.64317757 0.047042489
0.092360929 -0.64319146 0.047055107
0.093766823 -0.64315283 0.047017094
0.093523249 -0.64245325 0.047637913
0.08403787 -0.58170938 0.047498252
0.097266071 -0.57212287 0.047242872
0.10545097 -0.572119 0.047220558
0.10652123 -0.57212484 0.047221974
0.10639273 -0.57152891 0.047985423
0.12949724 -0.57148033 0.047929771
0.14548345 -0.55824369 0.047319584
0.11956254 -0.64939463 0.048196182
0.12049816 -0.64940917 0.048202023
0.077399097 -0.62735128 0.048566509
0.080690794 -0.5856126 0.048954614
0.084817536 -0.58108711 0.048234463
0.097871207 -0.57152724 0.048007071
0.10628732 -0.57093477 0.048741836
0.094935104 -0.64720595 0.049928702
0.095265232 -0.64720827 0.049924575
0.10670289 -0.64724147 0.049993172
0.086295217 -0.5798555 0.049722306
0.10165372 -0.57534617 0.049132202
0.09343525 -0.57477409 0.049908239
0.09441597 -0.57479066 0.049941361
0.095180869 -0.57478487 0.049948648
0.12821753 -0.57474256 0.049889226
0.093654044 -0.64647192 0.050538205
0.094954483 -0.64648092 0.05053642
0.10317421 -0.64647806 0.050554782
0.10415161 -0.64649439 0.050569713
0.084887549 -0.63205087 0.050486166
0.080136962 -0.58436704 0.05041644
0.11135395 -0.65271825 0.051869012
0.091349021 -0.64505297 0.051764451
0.093049183 -0.64573497 0.051115543
0.10061806 -0.64504176 0.051750053
0.1027652 -0.64575112 0.051123891
0.087415531 -0.63744247 0.051912285
0.088484094 -0.63743687 0.051905293
0.089136258 -0.63743722 0.05190127
0.083417639 -0.63062286 0.051724736
0.084139988 -0.63061625 0.051711492
0.091791376 -0.57864368 0.051218402
0.095346279 -0.57358009 0.051446848
0.10563233 -0.57357848 0.051435132
0.10653561 -0.57357764 0.051438563
0.10873105 -0.56856215 0.051794469
0.11835895 -0.56853116 0.051768024
0.11204194 -0.65198898 0.052457146
0.11737227 -0.65197146 0.052448235
0.11803167 -0.65198284 0.052450113
0.084889144 -0.63674855 0.052556071
0.085649021 -0.63674343 0.052550953
0.082670443 -0.62920833 0.052980088
0.083010569 -0.6295594 0.052671418
0.084193468 -0.58246332 0.052579023
0.11186794 -0.56797695 0.052584395
0.11219638 -0.5679757 0.052572764
0.11273394 -0.65125829 0.053047024
0.11518886 -0.65124589 0.053025376
0.11348825 -0.65052766 0.053635333
0.083469316 -0.63605362 0.053202868
0.084737986 -0.63603979 0.053175546
0.085580721 -0.63603139 0.053166803
0.086705297 -0.63603091 0.053166777
0.087030649 -0.63603532 0.053166598
0.083273634 -0.63533449 0.053804621
0.084346861 -0.63533449 0.05381339
0.08191257 -0.62850499 0.053606041
0.08225815 -0.62850565 0.053604987
0.15094244 -0.5921244 0.053599402
0.078759551 -0.58696938 0.05337768
0.10097224 -0.64901763 0.054732423
0.10166186 -0.64902663 0.054758072
0.1027493 -0.64904159 0.054773588
0.10347781 -0.64942181 0.05451173
0.10453364 -0.64942503 0.054506183
0.10574389 -0.64955062 0.054397941
0.10653237 -0.64978123 0.054194063
0.10721229 -0.64977574 0.054183736
0.10824082 -0.64903575 0.054749776
0.10948846 -0.64903659 0.054750502
0.11417579 -0.64979404 0.054216746
0.13086942 -0.64907974 0.054833908
0.082750283 -0.63460177 0.054378074
0.082582816 -0.63387734 0.054983426
0.079484001 -0.58632386 0.054084908
0.083305776 -0.58122247 0.054046266
0.10042702 -0.64828467 0.055302598
0.10233674 -0.64829785 0.055346437
0.13177523 -0.64833438 0.055389129
0.099511512 -0.64756387 0.055900153
0.10020334 -0.64755249 0.055888534
0.087759204 -0.64069021 0.055321045
0.089332327 -0.64067161 0.055313386
0.085602894 -0.6399734 0.0559281
0.08671394 -0.63996142 0.055917356
0.087726533 -0.63997155 0.055926356
0.088591903 -0.63996375 0.055921238
0.089153029 -0.63995373 0.055919394
0.090559281 -0.63995171 0.055905998
0.091295071 -0.63995737 0.055916071
0.081976719 -0.63315701 0.055591989
0.08120285 -0.62639797 0.055497665
0.080356531 -0.58505321 0.055518262
0.085990131 -0.57996577 0.055496145
0.086312667 -0.57996804 0.055504769
0.098255798 -0.57055837 0.055217873
0.14078486 -0.55263865 0.055303257
0.09878017 -0.64684862 0.056516532
0.13334472 -0.64685583 0.056528337
0.085268527 -0.63926584 0.056546282
0.081575096 -0.63244498 0.056228209
0.080495246 -0.63173074 0.056836396
0.08110068 -0.62570196 0.056126069
0.080951735 -0.58441484 0.056229755
0.1170386 -0.56497198 0.056359116
0.097724281 -0.64614642 0.057143964
0.098454885 -0.64613277 0.057123277
0.097558074 -0.64541018 0.057722401
0.084551431 -0.6385482 0.057157878
0.080538467 -0.62430453 0.057396259
0.097436242 -0.57310069 0.057887021
0.098884389 -0.57309216 0.057877906
0.12922636 -0.57370627 0.057147313
0.11443273 -0.65226865 0.058450751
0.1069611 -0.65150285 0.058987405
0.096780762 -0.64464551 0.058246311
0.097344674 -0.64466476 0.058294248
0.096628875 -0.64390528 0.058812365
0.079714812 -0.63030958 0.058068037
0.080113344 -0.63030469 0.058055945
0.079739965 -0.6295929 0.058679737
0.079592705 -0.62288797 0.058649592
0.15584882 -0.58759123 0.058510736
0.082523383 -0.58250731 0.058374219
0.11079841 -0.5675388 0.058972731
0.10847053 -0.65152717 0.059032485
0.11306011 -0.6515395 0.059041332
0.11519727 -0.651537 0.059035197
0.10913358 -0.6507979 0.059616383
0.11377952 -0.65079391 0.059607469
0.11588521 -0.65079916 0.059609689
0.12272696 -0.6507985 0.059623726
0.096251011 -0.64317298 0.059403855
0.13941702 -0.64321262 0.059482053
0.088391714 -0.64241815 0.05997951
0.089132182 -0.64241803 0.059972409
0.093095362 -0.64242542 0.059998304
0.094240114 -0.64241707 0.059979703
0.096276291 -0.64243942 0.059997573
0.07938379 -0.62853277 0.059607886
0.079556242 -0.62147695 0.05989673
0.078130372 -0.58629239 0.059907712
0.083492227 -0.58186179 0.059088051
0.10980903 -0.65005302 0.060183186
0.11056434 -0.65005213 0.060179025
0.11659502 -0.65005803 0.060193487
0.12089731 -0.65004385 0.060162015
0.1216028 -0.6500507 0.060166746
0.12243228 -0.65005362 0.060174346
0.12374796 -0.6500442 0.060189102
0.12440735 -0.65003949 0.060174465
0.12620237 -0.65004587 0.060167931
0.11162793 -0.64931387 0.060745068
0.12059772 -0.6493091 0.060749833
0.12546149 -0.64930344 0.060750745
0.12656432 -0.64930034 0.060732592
0.12727332 -0.64929551 0.060722236
0.13152501 -0.64930284 0.060731106
0.095521703 -0.64244068 0.060010254
0.090622462 -0.64171231 0.060599934
0.092659049 -0.64171737 0.060599327
0.078986838 -0.62747484 0.060536481
0.089378141 -0.57557815 0.060597651
0.14175479 -0.54928195 0.060068537
0.11240119 -0.64857477 0.061324198
0.1283509 -0.64856261 0.061293203
0.13255693 -0.64854956 0.061281513
0.12961006 -0.64784765 0.061920643
0.13348401 -0.64780831 0.061853122
0.091659501 -0.64101511 0.061218694
0.077917434 -0.62604749 0.061776232
0.078427806 -0.62604988 0.061777629
0.07839112 -0.61935818 0.061770458
0.079079047 -0.5849939 0.061318278
0.081185237 -0.58498836 0.061296254
0.13441335 -0.64707088 0.062431384
0.13510765 -0.6463306 0.06299375
0.077719867 -0.61864376 0.062392671
0.15248726 -0.58436948 0.062046692
0.13690101 -0.64635634 0.063035466
0.094832897 -0.64558482 0.063535534
0.13579996 -0.64559263 0.06356474
0.078180872 -0.6239056 0.063609093
0.077639773 -0.61792821 0.063002847
0.12235095 -0.65243059 0.064449854
0.11314606 -0.65168691 0.064998589
0.091742694 -0.64433336 0.06449578
0.093233094 -0.64483166 0.06412106
0.094212905 -0.64483839 0.064126581
0.13836424 -0.64488626 0.064196214
0.13907295 -0.64414954 0.064777099
0.087364249 -0.63658035 0.064669281
0.0778367 -0.6231848 0.064210251
0.076739267 -0.62247097 0.064819738
0.077428289 -0.62246895 0.064817667
0.077572025 -0.61649293 0.064223886
0.081590496 -0.58175051 0.064825632
0.15134925 -0.58178055 0.06486848
0.095395029 -0.57246888 0.064282604
0.09715993 -0.57246965 0.064267203
0.10712822 -0.57247341 0.064273611
0.11552929 -0.65169036 0.0650061
0.1188119 -0.65169418 0.065007053
0.12406076 -0.65168595 0.065007694
0.11098792 -0.65095115 0.065570638
0.11381911 -0.65093189 0.065548174
0.11631611 -0.65093851 0.065566726
0.11752131 -0.65094841 0.065569952
0.11813469 -0.65094858 0.065566771
0.0906187 -0.64338875 0.065301925
0.13978112 -0.64340061 0.065328196
0.086463064 -0.63514197 0.065872714
0.07633213 -0.62175459 0.065426841
0.15169695 -0.58679205 0.065012582
0.1524608 -0.58678323 0.065014675
0.15311986 -0.58679527 0.065016218
0.14553542 -0.576159 0.065579101
0.096299328 -0.5712139 0.065740436
0.10129169 -0.5711714 0.065672725
0.11151538 -0.56695104 0.065292306
0.11259182 -0.56693935 0.065283723
0.11369227 -0.56692064 0.065273739
0.11905885 -0.56692451 0.06525816
0.1116877 -0.65020555 0.06613028
0.11203013 -0.65020633 0.066135101
0.11718589 -0.65018749 0.066121042
0.11484673 -0.64944637 0.066669956
0.12880507 -0.64946961 0.066720091
0.12912296 -0.64947808 0.066727363
0.08482182 -0.63441175 0.066465192
0.085760474 -0.63441002 0.066462725
0.086300135 -0.63440865 0.066463061
0.076681539 -0.62032247 0.066656023
0.076740757 -0.61367863 0.066738807
0.08289168 -0.58045954 0.066229478
0.089156955 -0.57485002 0.066969611
0.12761155 -0.57486504 0.066998504
0.13324849 -0.57484537 0.066954121
0.14211316 -0.5748536 0.066985384
0.10903837 -0.57060033 0.066469163
0.10967458 -0.56632555 0.066026084
0.11320605 -0.56631893 0.066015624
0.11459445 -0.56631017 0.066013776
0.115692 -0.56630129 0.066003345
0.11104369 -0.56571835 0.066781372
0.10438548 -0.6487096 0.067232639
0.12983897 -0.6487264 0.067279786
0.13023402 -0.64872092 0.067266241
0.10165495 -0.64793622 0.067767888
0.10243867 -0.6479491 0.067792669
0.10352457 -0.64795524 0.067808978
0.10531443 -0.64796185 0.067790873
0.10638716 -0.64794761 0.067779213
0.10740663 -0.64793962 0.067759037
0.10844596 -0.64792979 0.06774275
0.10959976 -0.6479516 0.067786135
0.083424844 -0.63296443 0.067665406
0.084485158 -0.63295996 0.067657948
0.076239929 -0.61886704 0.06784077
0.076554239 -0.61298323 0.067372181
0.1494385 -0.58984649 0.06736628
0.14753541 -0.579166 0.067654788
0.14856082 -0.57918864 0.067684628
0.094511256 -0.57487935 0.06702254
0.095197305 -0.57487917 0.067003712
0.096235305 -0.57423443 0.06770996
0.12755617 -0.57420427 0.067683771
0.13953422 -0.57421058 0.067661643
0.14376764 -0.57488143 0.067033209
0.14467978 -0.57488382 0.067027114
0.099666096 -0.56932539 0.067898817
0.10107697 -0.569929 0.067135729
0.10924636 -0.56934726 0.067924008
0.11064906 -0.56934065 0.067908607
0.11177526 -0.5693177 0.067895666
0.13136101 -0.56996465 0.067180403
0.13373096 -0.56991965 0.067117631
0.13449602 -0.569924 0.067131564
0.099772334 -0.64716935 0.068276852
0.10047756 -0.64716995 0.068285793
0.1010389 -0.64717269 0.068309568
0.1319886 -0.64720225 0.068332255
0.13481764 -0.64719588 0.068318062
0.099561006 -0.64642078 0.068834327
0.082720011 -0.63221389 0.068204001
0.083217278 -0.63222504 0.068227872
0.082564905 -0.63147241 0.068781555
0.075704761 -0.61813515 0.068440497
0.076416664 -0.61229461 0.06802398
0.076214477 -0.61158979 0.06865488
0.15541308 -0.58917397 0.068028599
0.15260124 -0.58850622 0.068711177
0.15079223 -0.58349061 0.068463258
0.15110737 -0.58348483 0.068456106
0.084450662 -0.57850856 0.068339199
0.14445885 -0.57853454 0.068381757
0.14671165 -0.57850724 0.068334952
0.090804383 -0.57356501 0.068369307
0.14127997 -0.57356328 0.068377487
0.11060065 -0.56871635 0.068641439
0.1126928 -0.56868827 0.068621077
0.11485711 -0.56868654 0.068615332
0.1155358 -0.56868511 0.068621226
0.11736926 -0.56867605 0.068601385
0.12269592 -0.56869644 0.068625547
0.098716229 -0.64568561 0.069413297
0.099389635 -0.64568424 0.069400288
0.13589513 -0.64569843 0.069435418
0.098510928 -0.64495218 0.06999024
0.085628621 -0.63817757 0.069251463
0.08655329 -0.63817388 0.069250405
0.087404013 -0.63817662 0.069248423
0.088440888 -0.63816965 0.069249474
0.089532875 -0.63815588 0.069239587
0.085483596 -0.63744462 0.069832101
0.087769218 -0.63744098 0.0698267
0.081964739 -0.63000864 0.069960356
0.082321398 -0.63000327 0.069947377
0.075526848 -0.61741972 0.069053307
0.075359151 -0.61671168 0.069672525
0.07599061 -0.6101836 0.069913402
0.077153571 -0.58781075 0.069354124
0.087217033 -0.57721162 0.069755353
0.14348885 -0.57789707 0.069090694
0.091714762 -0.57230097 0.069811359
0.095715731 -0.57296479 0.069157533
0.12912445 -0.57297027 0.069153458
0.13079512 -0.57230192 0.069837138
0.13136718 -0.57260108 0.069456756
0.13228893 -0.57291758 0.069088213
0.13345169 -0.57229793 0.069829062
0.14330107 -0.57295001 0.069137722
0.11368467 -0.56806195 0.069339767
0.11438953 -0.56805861 0.069344752
0.11654378 -0.56806332 0.069341816
0.12185635 -0.56807607 0.069354959
0.12468725 -0.56804812 0.069318883
0.12577154 -0.56804919 0.069321789
0.12647702 -0.56805402 0.069323644
0.11109824 -0.6517517 0.070959799
0.097597487 -0.64472467 0.070207275
0.098180972 -0.64496171 0.070002981
0.13661668 -0.64496571 0.070015289
0.13881731 -0.64497083 0.070023373
0.083854228 -0.63597941 0.070999555
0.081583902 -0.62927228 0.070553549
0.077762119 -0.5871467 0.07003396
0.14844956 -0.58152956 0.070544541
0.14194079 -0.57659185 0.070501603
0.098607071 -0.57167983 0.070568226
0.099092312 -0.57167113 0.070547625
0.12116987 -0.57168072 0.070568241
0.12935424 -0.57169825 0.070586696
0.13054711 -0.57167727 0.07056053
0.131777 -0.57164121 0.070521608
0.12806304 -0.56679195 0.07077416
0.1021465 -0.65099299 0.071491063
0.10570455 -0.65021223 0.071991093
0.1063695 -0.65096742 0.071441106
0.11180342 -0.65099418 0.071498141
0.11386533 -0.6509859 0.07146924
0.11427323 -0.65099382 0.071482703
0.14018193 -0.64272195 0.071674705
0.082277931 -0.63525975 0.071609773
0.083189033 -0.63561773 0.071293786
0.080687754 -0.62854362 0.0711338
0.080157131 -0.62781352 0.071715042
0.07624203 -0.60842437 0.071487591
0.14957055 -0.59149098 0.07109613
0.1541481 -0.59150666 0.071088299
0.079046331 -0.58580846 0.07138633
0.14880086 -0.5858326 0.07142546
0.15343215 -0.58583659 0.071433887
0.083569087 -0.58017713 0.071880199
0.14188583 -0.58021939 0.071930327
0.14360088 -0.58085722 0.071222335
0.14443471 -0.58085227 0.07120546
0.14546379 -0.58085346 0.071195863
0.14946909 -0.58087355 0.071244046
0.089113116 -0.57526362 0.07184016
0.14078134 -0.57591635 0.071170934
0.14215575 -0.57528138 0.07188946
0.09800496 -0.57104766 0.071287267
0.11933118 -0.57104892 0.071290955
0.12059399 -0.57104307 0.07128489
0.12250782 -0.57102293 0.071256109
0.14065038 -0.57103223 0.071258672
0.1155183 -0.57038599 0.071975634
0.12229041 -0.57039469 0.071985126
0.12371203 -0.57037449 0.071962252
0.13491841 -0.5703814 0.071974374
0.10076156 -0.6502322 0.072032548
0.10398158 -0.65023857 0.072028615
0.10755412 -0.65021962 0.072004043
0.1087409 -0.65023434 0.072033286
0.11250357 -0.65024066 0.072030857
0.11497301 -0.65024012 0.072028436
0.12939335 -0.65023249 0.072020896
0.09967602 -0.64944792 0.072538748
0.10000071 -0.6494506 0.072542019
0.10858838 -0.64948297 0.072577022
0.10965765 -0.64947706 0.072565354
0.11323498 -0.64947927 0.072568126
0.11569372 -0.64948285 0.072583139
0.12034295 -0.649472 0.072548181
0.12136825 -0.6494782 0.072563164
0.079795599 -0.62708431 0.072311006
0.080108717 -0.62708658 0.072312079
0.079475135 -0.62636048 0.072900318
0.07438723 -0.61317897 0.072782084
0.15013237 -0.58516085 0.0720976
0.14118177 -0.57955718 0.072638348
0.090498008 -0.57462925 0.072555266
0.12480766 -0.56974417 0.072677672
0.12557411 -0.56974036 0.072680019
0.12803991 -0.56973064 0.07266771
0.11638829 -0.64871645 0.073108971
0.12036452 -0.64871359 0.073093891
0.12457164 -0.64871228 0.07310988
0.1262027 -0.64870739 0.073085099
0.13098298 -0.64870507 0.073084399
0.1313125 -0.64869893 0.073071614
0.11110702 -0.64796758 0.07364814
0.13205118 -0.64793921 0.073610365
0.086457066 -0.64043969 0.073294848
0.08735697 -0.64042497 0.073289469
0.088572294 -0.64042509 0.073278762
0.089499161 -0.6404357 0.073294789
0.090804532 -0.63971889 0.07389906
0.080690548 -0.63300347 0.073256969
0.078403823 -0.62564874 0.073503837
0.079082444 -0.62564111 0.073495664
0.076534495 -0.60595524 0.07370168
0.080651559 -0.58380699 0.073414952
0.14508119 -0.58383769 0.073470704
0.14615124 -0.5838331 0.073459484
0.088408783 -0.57888567 0.07327231
0.13743483 -0.57819927 0.073936269
0.13856922 -0.57853127 0.073613599
0.097883731 -0.57396805 0.073255286
0.12000737 -0.56430948 0.073708795
0.13281929 -0.64718902 0.074160546
0.13319214 -0.64718878 0.074163757
0.13389824 -0.64643276 0.07469736
0.13569158 -0.64645809 0.074739099
0.079624608 -0.630786 0.074985377
0.078703508 -0.62418675 0.074674681
0.079080023 -0.62491423 0.074084274
0.076822899 -0.60453796 0.07494764
0.15222722 -0.59309691 0.074855648
0.15336224 -0.59310365 0.074878983
0.077117004 -0.58809274 0.074389115
0.14878941 -0.58316767 0.074156314
0.087240681 -0.57754815 0.07464017
0.13776599 -0.57754338 0.074628659
0.12789793 -0.56845129 0.07410454
0.12895265 -0.56845528 0.074097358
0.12003273 -0.56786573 0.074887678
0.095661923 -0.64571065 0.075288184
0.1346025 -0.64567906 0.075239561
0.094733566 -0.64491922 0.075760327
0.095270619 -0.64493442 0.075797834
0.13683653 -0.64495182 0.075834543
0.078891866 -0.63004863 0.075555719
0.078545049 -0.62345481 0.075269789
0.07463488 -0.60961008 0.075866595
0.076804332 -0.60383379 0.075572729
0.15241037 -0.5818305 0.075496815
0.1254556 -0.57200944 0.075359732
0.11198927 -0.65167069 0.076828808
0.11907585 -0.65168101 0.076830104
0.12053706 -0.65168524 0.076853842
0.12134047 -0.65166849 0.07684058
0.13924046 -0.64417809 0.076338597
0.094575368 -0.64340413 0.076838702
0.095137887 -0.64340371 0.076834463
0.13996503 -0.64342308 0.076885484
0.078734837 -0.62198925 0.076438516
0.083805829 -0.58113158 0.076139152
0.083616003 -0.58046305 0.076811776
0.087438814 -0.57558119 0.076734684
0.1368589 -0.57558566 0.076732427
0.094488569 -0.57140219 0.076123901
0.10369294 -0.57140714 0.076110385
0.12466414 -0.57137382 0.076070309
0.12539543 -0.57136554 0.076068461
0.12640604 -0.57136303 0.076058924
0.092360482 -0.65015101 0.077889323
0.10874927 -0.65091377 0.077360131
0.10988739 -0.65015513 0.077896476
0.11304694 -0.65013719 0.077876724
0.11552715 -0.65052354 0.077630475
0.11674926 -0.65015316 0.077898383
0.11764707 -0.65053403 0.077631563
0.11822343 -0.65065831 0.077540323
0.12192921 -0.65090287 0.077364013
0.12259333 -0.65090311 0.077362776
0.12368886 -0.65090442 0.077354945
0.12402764 -0.65090966 0.077354513
0.12548047 -0.65051919 0.077590056
0.12618034 -0.65015531 0.077889793
0.090484455 -0.6426546 0.077408038
0.092602342 -0.64262575 0.077378027
0.093698494 -0.64264607 0.077404067
0.094131686 -0.64264274 0.07739877
0.1407086 -0.64266431 0.077413395
0.14101994 -0.64265805 0.077404968
0.088845722 -0.64188844 0.07794296
0.0895015 -0.64192754 0.077984333
0.090366736 -0.6419124 0.07796979
0.091595083 -0.64187866 0.077933997
0.092229873 -0.64186662 0.077920608
0.14172001 -0.64190024 0.077951446
0.14284284 -0.64189255 0.077952452
0.15889712 -0.62711555 0.077876493
0.078335308 -0.62125903 0.077017903
0.15003496 -0.59601682 0.077364355
0.075260893 -0.59032816 0.077443093
0.15318187 -0.59034967 0.077467903
0.080527753 -0.58538091 0.077053547
0.14670561 -0.58540964 0.077100433
0.149819 -0.58472341 0.077751152
0.14763696 -0.57983059 0.077546254
0.13755119 -0.57492465 0.077411234
0.13964254 -0.57491094 0.077396818
0.10040758 -0.57007122 0.077471897
0.13454486 -0.57007974 0.077485897
0.10798572 -0.5653187 0.077731811
0.10874356 -0.56531602 0.077738658
0.1097875 -0.56531966 0.077747725
0.11051815 -0.56532693 0.077757165
0.11192096 -0.56532037 0.077741757
0.11227133 -0.56531417 0.077738605
0.11075798 -0.64939392 0.078428045
0.1112697 -0.64939576 0.078434378
0.11372422 -0.6493839 0.07841263
0.12691247 -0.64940137 0.078443542
0.12731481 -0.64940667 0.078455366
0.12821415 -0.64864749 0.078993767
0.13969572 -0.6486097 0.078920513
0.090210862 -0.64116985 0.078525387
0.14352752 -0.64114332 0.078494735
0.07688687 -0.6190576 0.078758702
0.077373348 -0.61954594 0.078365989
0.15728384 -0.6190691 0.078786947
0.15978456 -0.61979818 0.07820756
0.077302247 -0.61320156 0.078074351
0.15780343 -0.5946399 0.078686222
0.15848999 -0.5946486 0.078700945
0.076253824 -0.58963853 0.078090645
0.13129926 -0.58405137 0.078410707
0.15047573 -0.58404768 0.07840836
0.1524974 -0.58404297 0.07842578
0.15412736 -0.58405244 0.078425758
0.099894874 -0.57914996 0.07819467
0.14671902 -0.57914257 0.078200936
0.089057595 -0.57426071 0.07809066
0.10227142 -0.57429123 0.078136086
0.10149892 -0.57362807 0.078826167
0.10324563 -0.57363439 0.078823678
0.12348503 -0.57359475 0.078786008
0.096771143 -0.56946611 0.078237787
0.098907724 -0.56945664 0.078218192
0.12304591 -0.56943059 0.078181505
0.13197955 -0.56942266 0.078186072
0.12981169 -0.56880748 0.078931689
0.13717802 -0.56880552 0.078897804
0.12731211 -0.65687442 0.079073079
0.13326557 -0.65687472 0.079066627
0.10421969 -0.6471073 0.079999946
0.10595749 -0.6478501 0.079452798
0.10664184 -0.64783883 0.079432607
0.12929842 -0.64788193 0.079513758
0.1305148 -0.64709759 0.079991423
0.14462945 -0.63963723 0.079588003
0.14827035 -0.63966715 0.07964135
0.08335495 -0.63225454 0.079494469
0.085108362 -0.63223612 0.079452328
0.15023907 -0.63225508 0.079484053
0.15819533 -0.62487537 0.079549409
0.15944427 -0.62489206 0.079576477
0.15842411 -0.61834252 0.079371944
0.076897398 -0.61759049 0.079925954
0.1591382 -0.61760557 0.079958148
0.069479465 -0.61106306 0.07989303
0.076570056 -0.61104745 0.079886623
0.15958509 -0.60533357 0.079556286
0.078106441 -0.59960514 0.07932023
0.077496275 -0.59354758 0.079565823
0.15662658 -0.59321254 0.079904862
0.15754673 -0.59393346 0.079301096
0.081790507 -0.58334494 0.079044811
0.082671896 -0.58334452 0.079051405
0.08323656 -0.58334398 0.079048567
0.14730221 -0.58337444 0.079095937
0.081014641 -0.58266884 0.079711698
0.14972806 -0.58269477 0.079756454
0.15013032 -0.58268297 0.079747632
0.089465223 -0.57781571 0.079551458
0.1363758 -0.57778937 0.079507425
0.14496875 -0.57780474 0.079550408
0.1231245 -0.57293838 0.079476729
0.12418686 -0.57293242 0.079477914
0.10478904 -0.56816906 0.079624198
0.10553411 -0.56817085 0.079629697
0.1108404 -0.5681631 0.079624459
0.11159257 -0.56814951 0.07962174
0.11903886 -0.56817758 0.079663381
0.12011033 -0.56817108 0.079630643
0.11768233 -0.65535688 0.080122426
0.12053192 -0.65534443 0.08012896
0.11772062 -0.65458417 0.080639914
0.12166098 -0.65457767 0.080630809
0.12237732 -0.6545679 0.080614179
0.10242505 -0.64709872 0.080026738
0.10348806 -0.64710164 0.080009446
0.10458836 -0.64710552 0.080002673
0.096038923 -0.64634085 0.080523558
0.099953994 -0.6462996 0.080474667
0.10064188 -0.64630759 0.080499992
0.1015162 -0.64631963 0.080511391
0.1024425 -0.64633691 0.080548152
0.1038475 -0.64634115 0.080536343
0.13410358 -0.64632428 0.080500707
0.13593723 -0.64634937 0.080551013
0.098481148 -0.64554244 0.080989562
0.088084504 -0.63884068 0.080083862
0.14541221 -0.63889897 0.080155931
0.14612542 -0.63814801 0.080712214
0.15107307 -0.63811612 0.0806593
0.15324213 -0.63814509 0.08070673
0.084079415 -0.63150173 0.080033489
0.15101853 -0.63151604 0.080046542
0.074459568 -0.63075936 0.080586322
0.082329057 -0.63074195 0.080556966
0.076769359 -0.62415564 0.080154926
0.16051887 -0.61687595 0.080549024
0.16086014 -0.61034286 0.080516815
0.16144937 -0.61036301 0.080549933
0.075931601 -0.60388982 0.08076787
0.15921426 -0.6039058 0.080784015
0.078013264 -0.59819323 0.080559909
0.15753949 -0.59819502 0.080574825
0.075277351 -0.59250987 0.080526233
0.076376468 -0.5925082 0.080530412
0.15197863 -0.59253383 0.080564007
0.15447493 -0.59252077 0.080565795
0.15514776 -0.59252805 0.080573037
0.15624085 -0.59252876 0.080561139
0.15732901 -0.59251511 0.080524847
0.07756383 -0.58758283 0.080046713
0.083492681 -0.58758891 0.080052659
0.14550537 -0.58691841 0.080750734
0.086587876 -0.57712358 0.080210544
0.088352039 -0.57713246 0.080199555
0.13889748 -0.57711601 0.080215916
0.13921738 -0.57712376 0.080223128
0.140668 -0.5771513 0.080257826
0.142772 -0.57715762 0.080252476
0.14352754 -0.57715917 0.080252044
0.098311558 -0.57228518 0.080172256
0.099252388 -0.57227266 0.080165334
0.10064348 -0.57227647 0.080163226
0.12305092 -0.57228827 0.080175199
0.13262124 -0.57229114 0.08018446
0.13403393 -0.57229537 0.080159612
0.094933741 -0.57166266 0.080932073
0.095797285 -0.57166064 0.080910623
0.096547075 -0.57165539 0.080901563
0.11984489 -0.57164621 0.080897018
0.12053785 -0.57164347 0.080886446
0.12159053 -0.57162726 0.080863923
0.12835474 -0.57166845 0.080915377
0.12938724 -0.57165211 0.080895603
0.13042998 -0.57162368 0.080866225
0.13143745 -0.57161617 0.08084581
0.13472985 -0.57163483 0.080848135
0.13506171 -0.57163948 0.080858082
0.10651882 -0.56751859 0.080332279
0.10777095 -0.56752551 0.080343708
0.10869735 -0.56753016 0.080354244
0.10938022 -0.56753206 0.080356464
0.11011051 -0.56752837 0.080344297
0.11271811 -0.56750399 0.080320477
0.11397082 -0.56749725 0.080321513
0.10997353 -0.65381569 0.081153743
0.12883319 -0.65302157 0.081632666
0.09675467 -0.64557064 0.081043273
0.097084939 -0.64556128 0.081030525
0.09817066 -0.6455496 0.081004895
0.1366628 -0.64558899 0.081088051
0.13720295 -0.64557981 0.081066012
0.14228693 -0.64558047 0.081069008
0.091734596 -0.64477503 0.081537463
0.092856757 -0.64477956 0.081528932
0.097829901 -0.64478546 0.081544042
0.098221749 -0.64478278 0.081531264
0.14345208 -0.64482319 0.081596404
0.086700574 -0.63735408 0.081184179
0.087076813 -0.63734996 0.081178084
0.14683037 -0.63739389 0.081253186
0.15266542 -0.63738263 0.081236228
0.15327144 -0.63738054 0.081239596
0.086363249 -0.63659263 0.081719965
0.15244834 -0.63001299 0.081166275
0.076610133 -0.62925035 0.081681691
0.078386821 -0.62923318 0.081664905
0.079277024 -0.62997806 0.081112899
0.080319218 -0.62997735 0.081116937
0.081241928 -0.62960517 0.08138065
0.15332922 -0.62927079 0.081726618
0.076611206 -0.62267554 0.081289545
0.07641419 -0.62193108 0.081855625
0.076677136 -0.61610729 0.081067026
0.076327145 -0.61535484 0.081630006
0.074619107 -0.60963321 0.081133902
0.071928941 -0.60890871 0.081721544
0.072282635 -0.60891074 0.081732064
0.073042564 -0.60890347 0.08173959
0.15699272 -0.59751254 0.08125224
0.15738851 -0.59750712 0.081239298
0.07691402 -0.59675854 0.081769571
0.077432364 -0.59677076 0.081787482
0.074738652 -0.59181464 0.081173308
0.075417735 -0.59112334 0.081809886
0.15073793 -0.59183216 0.081208318
0.082091585 -0.58619422 0.081331126
0.083184078 -0.58620757 0.081342593
0.085357495 -0.58622354 0.081386685
0.14831646 -0.5862093 0.081379399
0.15222993 -0.5862304 0.081403621
0.15353614 -0.58622235 0.081397749
0.13287555 -0.58133209 0.081063323
0.14603794 -0.5813452 0.081093416
0.14421 -0.58063501 0.081706017
0.10069962 -0.5758124 0.08159253
0.12275317 -0.57576728 0.081545562
0.12899266 -0.57100821 0.081606135
0.13609055 -0.57100314 0.081604771
0.09468177 -0.57099867 0.081615642
0.097390942 -0.57099068 0.081590123
0.11960781 -0.57099289 0.081588902
0.12759015 -0.57096452 0.081560172
0.11000246 -0.56688356 0.0810491
0.11357504 -0.66054738 0.08252272
0.10751905 -0.65227014 0.082174048
0.11036678 -0.65228003 0.082183667
0.13212681 -0.65228105 0.082193196
0.13520677 -0.65225405 0.082137473
0.1064669 -0.65150225 0.082694776
0.10718258 -0.65150344 0.082700931
0.11288293 -0.65150702 0.082690217
0.11499459 -0.65148866 0.082691737
0.12881951 -0.65147901 0.082652919
0.13527435 -0.65148979 0.082658365
0.14436138 -0.64405423 0.082127847
0.087198779 -0.64324802 0.082583956
0.1408851 -0.64325011 0.082600504
0.14523785 -0.64329034 0.082651526
0.082821362 -0.63510734 0.082843572
0.083939217 -0.63510919 0.082843706
0.084638201 -0.63535398 0.082653373
0.085326105 -0.63547182 0.082547635
0.086047947 -0.63583809 0.082261011
0.076448061 -0.62850964 0.082248762
0.15421735 -0.6285249 0.08228685
0.15488724 -0.6277687 0.08283484
0.15540051 -0.62775171 0.082795799
0.075328246 -0.62045407 0.08299166
0.075791903 -0.61462021 0.082212374
0.075636633 -0.61389488 0.082803771
0.15809281 -0.60819513 0.082347989
0.071989544 -0.60745108 0.082896747
0.082320452 -0.59044194 0.08247564
0.15037654 -0.58554405 0.082052864
0.079549029 -0.58482409 0.082653031
0.080283456 -0.58482891 0.082663223
0.14540078 -0.58485287 0.082699209
0.14754279 -0.58485615 0.0827149
0.087505877 -0.57997304 0.082384825
0.088531978 -0.57998216 0.082411081
0.1338653 -0.57996166 0.082382128
0.13442022 -0.57996047 0.082370162
0.14348516 -0.57996601 0.082394257
0.14418641 -0.57996577 0.082380496
0.099590272 -0.57512635 0.082252361
0.10032262 -0.57514012 0.082266688
0.12197569 -0.57511181 0.082231171
0.096320577 -0.57446021 0.082923234
0.09846396 -0.57443213 0.082898051
0.099507526 -0.57444888 0.082908861
0.1207151 -0.57443964 0.082908407
0.12118339 -0.57444519 0.08290486
0.13078487 -0.57444751 0.082919382
0.1319017 -0.5744487 0.082911238
0.13222766 -0.57445121 0.082902327
0.11277508 -0.57031941 0.082273096
0.11687112 -0.57035178 0.082309671
0.11756708 -0.57034945 0.082307428
0.11864606 -0.57033896 0.082286641
0.11932463 -0.57033652 0.082281373
0.13678169 -0.57035744 0.082306191
0.094412357 -0.56968564 0.082986802
0.1137463 -0.5696615 0.082967386
0.1144868 -0.56966257 0.082953215
0.11540962 -0.56966001 0.082949646
0.11644104 -0.56968039 0.082972452
0.11466088 -0.65899003 0.083518408
0.10554817 -0.65070897 0.083159842
0.10617559 -0.65071827 0.083182141
0.11045399 -0.6507383 0.083221793
0.1128545 -0.65072864 0.083189368
0.12886861 -0.65071458 0.083178192
0.13247512 -0.65073484 0.083206929
0.1375778 -0.65070605 0.083168
0.11117034 -0.649966 0.083730608
0.1289407 -0.64995456 0.083702132
0.13565631 -0.6499517 0.083697423
0.086831778 -0.64246964 0.083085962
0.087219514 -0.64247531 0.083099142
0.14165862 -0.64248961 0.083127916
0.14598356 -0.64253706 0.08319921
0.086464278 -0.64170593 0.083620265
0.147346 -0.64175051 0.083685257
0.082700193 -0.63435727 0.083392248
0.083949298 -0.6343472 0.083380707
0.081799388 -0.63361388 0.083961703
0.15628794 -0.62699962 0.083333686
0.15756577 -0.62624085 0.083889678
0.15540577 -0.62045985 0.083012864
0.15646043 -0.62046206 0.083020099
0.075044356 -0.61245513 0.083993651
0.15805131 -0.60675812 0.083570555
0.15080413 -0.59467173 0.083711773
0.15137877 -0.59467459 0.083717301
0.15250291 -0.59465939 0.083714642
0.15399361 -0.59466237 0.083713584
0.1550903 -0.5946573 0.083689742
0.081724279 -0.58904058 0.083730802
0.14968657 -0.58904058 0.08377143
0.15001251 -0.58905512 0.083774015
0.1449893 -0.58416903 0.083351687
0.1481948 -0.58417249 0.083359107
0.086357921 -0.57927489 0.083017871
0.087219812 -0.57929575 0.083046369
0.13577709 -0.57926822 0.08301948
0.13631956 -0.57926726 0.083017997
