# .PCD v0.7 - Point Cloud Data file format
VERSION 0.7
FIELDS x y z
SIZE 4 4 4
TYPE F F F
COUNT 1 1 1
WIDTH 485
HEIGHT 1
VIEWPOINT 0 0 0 1 0 0 0
POINTS 485
DATA ascii
-0.13185582 -0.70138085 0.0027984728
-0.18548599 -0.70089096 0.0037361667
-0.12643963 -0.70097405 0.0036870043
-0.019363077 -0.70090568 0.0036728308
-0.18794388 -0.70044249 0.0046425103
-0.16669419 -0.70036769 0.0044967285
-0.12900575 -0.7004714 0.0045544063
-0.067614987 -0.70028877 0.0044256565
-0.016263586 -0.70046115 0.0045455219
0.034572676 -0.70042437 0.0044863652
-0.17963868 -0.69994086 0.0053885477
-0.088545904 -0.69994026 0.0053239241
-0.085720316 -0.69995683 0.0053705941
-0.043064978 -0.6996296 0.005179632
0.056211971 -0.69991517 0.0053328946
-0.16371943 -0.69943005 0.0062166844
-0.013491288 -0.69949949 0.0062418613
0.016183864 -0.69952756 0.0062447819
0.037576627 -0.69948626 0.0062148613
0.077629596 -0.69941825 0.0061768843
0.10217968 -0.69853461 0.0079786722
0.059711721 -0.69802976 0.0088222288
0.081116013 -0.69805777 0.008810957
0.10493159 -0.69857687 0.0080553768
-0.11994637 -0.69762254 0.0097589856
-0.082335882 -0.69762206 0.0097338604
-0.039716069 -0.69735646 0.0096017253
0.019321328 -0.69764245 0.0097527206
-0.10113075 -0.69707245 0.010546166
0.10835791 -0.69712698 0.010542175
-0.06093299 -0.69654697 0.011428871
-0.0099256048 -0.6966849 0.011447022
0.04149029 -0.69665962 0.011425653
0.084042571 -0.6966877 0.01143136
-0.11702619 -0.69620144 0.012361329
-0.0042026569 -0.69623834 0.012343055
0.062808007 -0.69617099 0.012316671
0.065433204 -0.69617409 0.012346941
0.11126333 -0.69620103 0.012343477
-0.097969972 -0.69568288 0.013186999
0.022915678 -0.69575799 0.013252058
0.087039195 -0.6957261 0.013133409
0.092628978 -0.76545912 0.014948182
-0.0014100504 -0.69524062 0.014016441
0.044297781 -0.69524693 0.014039008
-0.15380214 -0.70399684 0.015372093
-0.035775159 -0.70386606 0.015359813
0.025777245 -0.6948033 0.015010083
0.098302007 -0.77508026 0.01682432
0.10123512 -0.77506363 0.016848704
0.068731129 -0.69382894 0.016671548
-0.15071087 -0.70300359 0.017103041
-0.14814886 -0.70300591 0.017089987
-0.1452104 -0.70254773 0.017922012
-0.1133776 -0.70256263 0.017975453
0.0020006683 -0.70253092 0.017900297
0.10395392 -0.77390027 0.018443588
-0.094525278 -0.70203114 0.018831426
-0.032658018 -0.70198226 0.018841019
-0.11006651 -0.77333033 0.019224472
-0.10760903 -0.77332783 0.019214462
0.095932223 -0.7733379 0.019302739
-0.075481035 -0.70157123 0.019725848
0.047950588 -0.70159328 0.019703943
-0.14209493 -0.7006042 0.021382328
-0.13917318 -0.70058721 0.021389706
-0.1367424 -0.70056885 0.021386744
-0.029629318 -0.70054567 0.021384081
0.0055009532 -0.70059681 0.021372888
0.029375533 -0.70060629 0.02141672
0.091382504 -0.70062298 0.021401474
-0.10151022 -0.78168195 0.022881186
-0.053435557 -0.69988698 0.022119265
-0.050649714 -0.6993435 0.022956647
-0.10433813 -0.77037317 0.023201345
-0.13355662 -0.69964921 0.023110652
-0.10934731 -0.69965702 0.02312172
-0.071818911 -0.69960803 0.023141675
-0.026549116 -0.69961947 0.023133729
0.072824612 -0.69959533 0.02312177
-0.047998507 -0.69883192 0.02386578
-0.10657971 -0.69868469 0.024833843
-0.090390436 -0.69865078 0.024828888
-0.069169067 -0.69859183 0.02482467
-0.023353251 -0.69863099 0.024832284
0.0088014547 -0.69867945 0.024856722
0.035599381 -0.69865346 0.024828168
0.051622517 -0.69868046 0.024903672
0.094431557 -0.69867891 0.024876187
-0.13029665 -0.69818026 0.02574362
-0.020587398 -0.69814575 0.025672443
0.032837793 -0.69820142 0.025752805
0.054683831 -0.69813287 0.025637073
0.097143427 -0.69820946 0.02577268
-0.087590456 -0.69766271 0.026513949
-0.017870801 -0.69770229 0.026613424
0.011639293 -0.69768125 0.026534034
0.078669861 -0.69765544 0.026565263
0.092474736 -0.75628674 0.027825002
-0.044815283 -0.70594239 0.027833203
-0.1275104 -0.69724518 0.027480716
0.076157324 -0.69717765 0.027405189
-0.015022323 -0.69675499 0.028347267
-0.17294611 -0.70522755 0.029653972
-0.16710691 -0.70534503 0.029697658
-0.065816864 -0.70517695 0.029628005
0.057693385 -0.69622439 0.029122509
0.10052827 -0.6962499 0.029141974
-0.10300688 -0.70477784 0.030503877
-0.092277594 -0.76387644 0.031988841
0.087472811 -0.74357951 0.031147081
0.015507674 -0.74299365 0.031954013
0.10636311 -0.69479257 0.031750415
0.11704273 -0.6858812 0.031482477
0.16537602 -0.65935391 0.031627089
-0.083823875 -0.70377743 0.032185648
0.10398606 -0.70376676 0.032229338
0.06100405 -0.6942811 0.032575555
0.16823493 -0.65897316 0.032584868
-0.18827172 -0.70331454 0.033228528
0.039599087 -0.70329183 0.033071071
-0.17705752 -0.70282751 0.033993848
-0.16390726 -0.70278454 0.033953294
-0.040829487 -0.70244765 0.033790447
-0.011088561 -0.70282739 0.033983849
0.015877856 -0.70278573 0.03390453
0.14705747 -0.7621873 0.034394812
0.14200449 -0.7310341 0.034825426
-0.18529883 -0.70281494 0.034116898
-0.18276942 -0.70280313 0.034081295
-0.18016252 -0.70278323 0.034044355
-0.17446516 -0.70227683 0.034809999
-0.16136752 -0.70223761 0.034787212
-0.11812568 -0.70231843 0.034868266
-0.09937197 -0.70224768 0.034763958
-0.056667682 -0.75043362 0.035865329
-0.032198656 -0.7504037 0.035867292
0.13920236 -0.73048449 0.035646018
0.14985384 -0.73051155 0.035701059
0.15268701 -0.73048484 0.03564826
-0.15855092 -0.70173913 0.035620566
-0.062135704 -0.70166266 0.035567302
-0.008320285 -0.70180523 0.035646241
0.018717211 -0.70182931 0.035651591
0.16877417 -0.67468733 0.035751097
0.11555208 -0.73964626 0.036905825
-0.13654666 -0.72991699 0.036447316
-0.10701662 -0.72995549 0.03645622
0.14744563 -0.72998017 0.036487538
0.1554842 -0.72990024 0.036454212
-0.035058942 -0.72008127 0.036144305
0.069625489 -0.72029907 0.036292329
0.16882217 -0.72028631 0.03628955
0.058931459 -0.71073568 0.036235292
0.13415167 -0.71075398 0.036315467
0.15546457 -0.71071899 0.03626202
0.16110837 -0.71067411 0.036183417
0.16358845 -0.71068537 0.036238112
-0.045693133 -0.70992541 0.036985219
-0.096577041 -0.70122939 0.036454782
0.021505957 -0.70133239 0.036501806
0.16611676 -0.69229937 0.036005292
0.12360132 -0.68306679 0.036681235
0.11798918 -0.66556209 0.036757652
-0.14716208 -0.74936175 0.037510827
-0.10998265 -0.74940467 0.037522089
0.027148137 -0.74942964 0.037576966
0.13126282 -0.74935549 0.037480086
0.13433738 -0.74938756 0.037554555
-0.080065876 -0.73908734 0.037705399
-0.0023417259 -0.73912716 0.037714444
0.021701682 -0.73912662 0.037708677
0.043072842 -0.73908806 0.037677597
0.06475728 -0.73904008 0.03767547
-0.05873549 -0.73897874 0.037680525
-0.091308892 -0.72936201 0.03729865
-0.072419576 -0.72938675 0.03733303
0.13690148 -0.72937679 0.037233315
-0.1551659 -0.71924341 0.037926294
-0.11499275 -0.71927911 0.03798224
-0.096485928 -0.71973157 0.037062049
-0.058680706 -0.71915686 0.037921354
-0.0022836395 -0.71930534 0.037951834
0.027246624 -0.71929085 0.037999548
0.04832663 -0.71978086 0.037080191
0.064812496 -0.71921837 0.037914619
0.067288458 -0.71923786 0.037930828
0.086219922 -0.71924478 0.03790354
0.166278 -0.71971273 0.037052214
0.037749283 -0.71022576 0.03709143
0.14757343 -0.71028382 0.037139174
0.15826309 -0.71019894 0.037063148
-0.13384008 -0.70968729 0.037939996
-0.10674345 -0.70974422 0.037952475
-0.10428087 -0.70974153 0.037942
-0.09116973 -0.70969552 0.037968989
-0.048041668 -0.70943761 0.0377816
-0.023949569 -0.70970744 0.037964344
-0.021057919 -0.70968872 0.037940457
-0.018441549 -0.70968783 0.037918121
-0.015879277 -0.70972836 0.037999809
0.01362974 -0.70970821 0.037919085
0.056830037 -0.70967525 0.037883021
0.077995904 -0.70969003 0.03792838
0.080662854 -0.70968276 0.037950732
0.13703182 -0.7097103 0.037904527
0.13962859 -0.70972848 0.037966967
0.14257531 -0.70973396 0.037973452
0.15311483 -0.70972866 0.037969191
-0.15525474 -0.70077133 0.037335277
-0.11508595 -0.70080674 0.037390579
-0.03742836 -0.70048195 0.037156362
-0.034854248 -0.70055008 0.037230745
-0.0053763338 -0.70080715 0.037339706
0.00019640314 -0.70083046 0.037366837
0.0026814167 -0.7007733 0.037300445
0.024175623 -0.70082474 0.037384905
0.048387565 -0.70077872 0.037323177
0.08612749 -0.70077276 0.037312273
0.088594176 -0.70081162 0.037324306
0.091284238 -0.70078868 0.037286248
0.11008667 -0.70082062 0.037428614
0.15026629 -0.6914264 0.037830263
0.15309961 -0.69139957 0.037780274
0.15574333 -0.69136024 0.0377624
0.12079503 -0.68258977 0.037564997
0.12632273 -0.68259543 0.03757612
0.16638498 -0.67373717 0.037438899
0.12878312 -0.66507709 0.037605304
0.13707002 -0.74879986 0.038256537
-0.1607455 -0.73847294 0.038515024
-0.12305336 -0.73857075 0.038576886
-0.12033312 -0.73860461 0.038578819
-0.11750553 -0.7385534 0.038601145
-0.10162789 -0.73851341 0.038496315
-0.098740041 -0.73848331 0.038490351
-0.010312628 -0.73856252 0.038568929
0.086310111 -0.73850715 0.038481355
0.1075127 -0.73851442 0.038518548
0.1102549 -0.73855609 0.038604278
-0.14167187 -0.72884911 0.03807402
-0.1097125 -0.72831869 0.038956251
-0.069051847 -0.72827381 0.038953535
-0.047878738 -0.72801554 0.038754381
-0.01572117 -0.72830564 0.038982607
0.013641092 -0.72883016 0.038074061
0.032433402 -0.72830176 0.038951516
0.056990728 -0.72825253 0.038863376
0.0755812 -0.72826076 0.038934462
0.07800512 -0.7288121 0.038082886
0.09688466 -0.72831231 0.038967807
0.099293739 -0.7288726 0.038179986
0.12638868 -0.72887307 0.03816209
0.12896247 -0.72828084 0.038938563
0.13139085 -0.72881442 0.038089279
-0.11758854 -0.71929067 0.038020611
-0.12027384 -0.71881163 0.038834035
-0.079860024 -0.71873558 0.038777802
-0.077243581 -0.71874791 0.038792711
-0.037182476 -0.71842468 0.038572885
-0.0051422068 -0.71874928 0.038767409
0.024409555 -0.71876705 0.038813405
0.043279741 -0.71873623 0.038751293
0.046285894 -0.71872526 0.038745012
0.088830166 -0.71875417 0.038751606
0.11329922 -0.71872497 0.038729247
0.11589746 -0.71873522 0.038795002
-0.1361194 -0.70919055 0.038787503
-0.13080375 -0.70922202 0.038784415
-0.085449263 -0.70917499 0.03874271
-0.069065996 -0.70918113 0.038816482
-0.013340391 -0.70975071 0.038011286
0.01124702 -0.7092213 0.038809914
0.032426715 -0.7092095 0.038814232
0.034979947 -0.70974296 0.038000781
0.054063316 -0.70922178 0.038858321
0.096876904 -0.70921999 0.03882895
0.099434286 -0.70923537 0.03886551
0.14516041 -0.70978898 0.038058955
0.15028143 -0.70975536 0.038020521
-0.093572728 -0.70024681 0.038193095
-0.077328965 -0.70030564 0.038218353
-0.058621835 -0.70018458 0.038185082
-0.056225814 -0.7001754 0.03817312
-0.0022215925 -0.70033312 0.038212273
0.043196056 -0.70029378 0.038177587
0.046194665 -0.70028287 0.038171172
0.064871863 -0.70024621 0.038176734
0.069980733 -0.70026702 0.038223468
0.1158089 -0.70029294 0.03822035
0.11821538 -0.70030212 0.038229488
0.13976422 -0.69091475 0.038639385
0.1452935 -0.69097513 0.038729474
0.15854859 -0.69087017 0.03858231
0.16402023 -0.69084179 0.038600266
0.12650646 -0.66468567 0.038533907
0.12655127 -0.74826747 0.039169516
0.12897801 -0.74821985 0.039118167
0.13979945 -0.74824482 0.039129958
-0.09329427 -0.74763727 0.039923321
0.12115902 -0.74768704 0.039962851
-0.17612199 -0.73800302 0.039396089
-0.16542146 -0.73802102 0.039360896
0.14537962 -0.73801726 0.039430846
-0.19009139 -0.73794377 0.039492212
-0.18438025 -0.73798931 0.039526701
-0.18183927 -0.7379781 0.039487559
-0.17924519 -0.73795736 0.039449368
-0.17369156 -0.73795313 0.03935796
-0.17127566 -0.73790401 0.039315857
-0.16858943 -0.73792589 0.039317179
-0.16298023 -0.73796105 0.039351195
-0.12792757 -0.73794973 0.03935761
-0.085381001 -0.73791796 0.039264087
-0.082598597 -0.73795319 0.039287861
-0.042837691 -0.73762423 0.039184254
-0.039909944 -0.73762608 0.039170928
0.059446163 -0.73793405 0.039290309
0.083411731 -0.73790348 0.039269194
0.10228241 -0.7379595 0.039309829
0.10521216 -0.7379427 0.039333325
0.16162965 -0.73787248 0.039235711
0.16410388 -0.73788387 0.039293345
-0.13888878 -0.72775507 0.039743055
-0.13353886 -0.72771978 0.039747156
-0.053311937 -0.7276113 0.03969273
-0.05037168 -0.72752959 0.039608244
-0.03150069 -0.7276271 0.039745267
-0.026425434 -0.72769803 0.039742205
-0.023645772 -0.72774035 0.039771587
0.0058171703 -0.72774297 0.039705597
0.0087016076 -0.7277481 0.039733242
0.011404147 -0.72776932 0.039774273
0.054216787 -0.72776997 0.039824411
0.072760157 -0.72775096 0.039772991
0.094594039 -0.72777271 0.039764121
0.12114725 -0.72777718 0.039801266
-0.19002609 -0.71818066 0.039763696
-0.17120983 -0.71814066 0.039591737
-0.16291928 -0.71819741 0.039626837
-0.16053475 -0.71815044 0.03960754
-0.09853483 -0.71816069 0.039583676
-0.061455484 -0.71807581 0.039531719
0.022046147 -0.71824473 0.039616913
0.10527387 -0.71817935 0.039608795
0.10772305 -0.71819222 0.039610919
0.11046629 -0.71823317 0.039693397
0.11844715 -0.71821457 0.03963957
-0.13889514 -0.70869219 0.039624132
-0.087793231 -0.70867848 0.039625056
-0.050379407 -0.70846635 0.039495811
-0.026428191 -0.70863551 0.039624821
0.0058094249 -0.70868009 0.039587189
0.0086995549 -0.70868546 0.03961451
0.075722061 -0.70865339 0.039641093
0.094586365 -0.70870978 0.039643638
0.12910308 -0.7086733 0.039644733
0.067504652 -0.69976562 0.039045408
0.11336156 -0.69978273 0.03900985
0.12104499 -0.69979692 0.039078459
0.13167509 -0.69039452 0.039469849
0.13731471 -0.69041204 0.039440285
0.1428616 -0.69043589 0.039508238
0.14800575 -0.69047028 0.039517716
0.16168833 -0.690346 0.039408926
0.13988753 -0.67289853 0.039241921
0.1533758 -0.67289835 0.039244153
0.16165476 -0.67281473 0.039153259
0.12409505 -0.66424954 0.0393949
0.13168532 -0.66419065 0.0393565
-0.11206234 -0.74711084 0.040778946
-0.074390553 -0.74770457 0.040006995
0.11862141 -0.74711889 0.040772457
0.12426585 -0.74712098 0.040752705
0.15877022 -0.7373538 0.040088985
-0.103769 -0.73685151 0.040942371
-0.036801204 -0.7365405 0.040754765
-0.0047730478 -0.73686415 0.040960647
-0.1466011 -0.72718668 0.040597137
-0.14404173 -0.72718859 0.040584102
-0.11207384 -0.72722989 0.040637583
-0.093166165 -0.72718269 0.040590629
-0.074258089 -0.72724974 0.040670954
-0.055823717 -0.72711194 0.040568277
0.0032331871 -0.72720921 0.040552352
0.051605061 -0.72722828 0.040615164
0.091837473 -0.72722441 0.040537268
-0.18163346 -0.71768433 0.040593676
-0.17903253 -0.71766424 0.040556211
-0.17348181 -0.71765947 0.040467173
-0.16837592 -0.71763337 0.040429357
-0.16521759 -0.7177273 0.040471155
-0.082389347 -0.71766001 0.040399451
-0.039696407 -0.71733356 0.040291615
-0.0099567221 -0.71770984 0.040494189
-0.0074886475 -0.71768773 0.040450141
0.019548824 -0.71771181 0.040455129
0.040884353 -0.71767431 0.040432692
0.062363628 -0.71763659 0.040408965
0.083624646 -0.71761054 0.040382288
-0.14660233 -0.70815337 0.040496118
-0.14124842 -0.70818204 0.040452845
-0.07426098 -0.70821625 0.040567923
-0.071832471 -0.708175 0.040535111
0.072906196 -0.70817292 0.040497888
0.12425347 -0.70820689 0.040509146
0.12682229 -0.70820546 0.040536422
0.13183072 -0.70814764 0.040466834
0.12924379 -0.68992001 0.040352076
0.13488747 -0.68994051 0.040398262
0.13486063 -0.67243987 0.040155012
0.14298648 -0.67245096 0.040127922
0.14556885 -0.67250472 0.040207636
0.15069731 -0.67247123 0.040170245
0.15617053 -0.67240542 0.040104788
0.15882756 -0.6724 0.040064793
0.16429667 -0.67237175 0.040081624
0.1212927 -0.66380352 0.040293615
-0.15172996 -0.74655175 0.041516151
-0.1869055 -0.73687017 0.04111845
-0.087434195 -0.73625958 0.041752428
-0.063712478 -0.73617733 0.041736577
-0.061092217 -0.73616189 0.041701846
-0.012701153 -0.736301 0.041830413
-0.0072681764 -0.73630339 0.041789744
0.019769607 -0.73632747 0.041794278
0.081315428 -0.73623389 0.041766953
-0.15174723 -0.72669953 0.041396454
-0.14924358 -0.72666574 0.041414361
-0.02870463 -0.72659153 0.041437022
0.00089563004 -0.72672188 0.041447241
0.030405825 -0.72669494 0.041507922
0.12440182 -0.72669542 0.041437015
0.13504307 -0.72666752 0.041464929
-0.1840207 -0.71716553 0.041465815
-0.17577203 -0.7171793 0.041339606
-0.12508933 -0.71716082 0.041319024
-0.12255082 -0.71718848 0.041337464
-0.10112616 -0.7171309 0.041259125
-0.063784309 -0.71703154 0.041235033
0.017158983 -0.71713805 0.041248318
0.1026412 -0.7171362 0.041256461
-0.04247855 -0.716802 0.041140813
-0.1517572 -0.70769572 0.041315243
-0.10927295 -0.70768124 0.041351035
-0.028702259 -0.70758796 0.041355055
0.027854465 -0.70770568 0.04140215
0.030407952 -0.70769113 0.041422527
0.051751122 -0.70768005 0.041357271
0.14828271 -0.67203087 0.0410145
0.13774578 -0.67151898 0.041815851
-0.15740766 -0.74590898 0.042329073
-0.095584519 -0.74589938 0.04230934
-0.076636069 -0.74597484 0.042373188
0.046902318 -0.74595255 0.042324718
0.11391041 -0.74595231 0.042306677
-0.12486895 -0.7357471 0.042639136
-0.066076286 -0.73564267 0.042562392
-0.044745408 -0.73540473 0.042450465
0.038697034 -0.73570222 0.04256735
0.041251935 -0.73573083 0.042587675
0.062729664 -0.73569328 0.042562798
-0.15740965 -0.72608602 0.042228382
-0.18669224 -0.71663523 0.042262949
-0.12742473 -0.7165969 0.042139124
-0.066146456 -0.71652615 0.042079724
-0.14909405 -0.70714694 0.042176165
-0.14374433 -0.7071256 0.042171516
-0.11178061 -0.70716655 0.042224173
-0.052871458 -0.70700347 0.042110048
-0.031060429 -0.70701998 0.042162303
0.14344823 -0.75568569 0.043148044
0.14603592 -0.75574148 0.043241158
-0.15426886 -0.74536693 0.043147307
-0.11408864 -0.74540293 0.043204043
0.025156504 -0.7454204 0.043202501
-0.14881101 -0.74479735 0.043955557
-0.020121217 -0.73512149 0.043389894
-0.017498998 -0.73512012 0.043365452
0.035915639 -0.73517549 0.043452602
-0.12986083 -0.73461056 0.044203855
0.1675189 -0.73453128 0.044179752
0.001615078 -0.74370629 0.045603905
0.068607248 -0.74364144 0.045572147
-0.032725245 -0.74056053 0.049481254
