# .PCD v0.7 - Point Cloud Data file format
VERSION 0.7
FIELDS x y z
SIZE 4 4 4
TYPE F F F
COUNT 1 1 1
WIDTH 1429
HEIGHT 1
VIEWPOINT 0 0 0 1 0 0 0
POINTS 1429
DATA ascii
0.91720331 0.9274196 2.9968328
0.8583771 0.82259905 3.0009112
0.80223107 0.7236473 3.0109756
0.74802667 0.62901872 3.0257826
0.67046088 0.49749437 3.0689301
0.61761242 0.40437534 3.0785229
0.55831897 0.27684686 2.9590719
0.51428229 0.22321068 3.102381
0.46270365 0.1275458 3.0847261
0.41245112 0.035118073 3.0719168
0.3632116 -0.055639874 3.0582731
0.28891993 -0.18356645 3.0885699
0.2394845 -0.27061769 3.0978527
0.18944271 -0.3577866 3.112618
0.14032198 -0.44603974 3.1119239
0.091165267 -0.53445172 3.1106982
0.040254809 -0.62382871 3.1217988
-0.011017293 -0.7143293 3.1302187
-0.089162566 -0.8525911 3.1412067
-0.14631929 -0.9501735 3.1692724
-0.20562147 -1.0513581 3.1987374
-0.25165099 -1.1408516 3.1597133
-0.32039848 -1.2543578 3.2153163
-0.37891245 -1.3587567 3.2186399
-0.44399983 -1.4718916 3.2392447
-0.53271925 -1.6334683 3.2257271
-0.57733762 -1.7239472 3.1668401
-0.67109466 -1.8781327 3.246161
-0.73851031 -2.0002849 3.2394359
-0.8266356 -2.1517541 3.2770219
-0.68876225 -1.9930187 2.7761486
-0.89304328 -2.3067341 3.0746074
-0.88912594 -2.3443866 2.8221512
-0.93745303 -2.4416642 2.7624607
-1.0379467 -2.6166077 2.7928221
-1.0341593 -2.6376889 2.6353118
-0.83599794 -2.3626595 2.1802616
-0.9549126 -2.5659778 2.2370603
-0.8373642 -2.4059255 1.9496301
-0.92365617 -2.5705371 1.8943883
-1.0375055 -2.7710423 1.9157412
-1.0183653 -2.7611933 1.7773302
-1.001984 -2.7547064 1.6478914
-0.99103224 -2.7561369 1.528764
-0.97636151 -2.7507482 1.4104609
-0.9716081 -2.7699859 1.2535528
-0.96087778 -2.7696881 1.1464323
-0.56561244 -2.1196463 0.81180197
-0.59177548 -2.1887505 0.68656045
-0.25471401 -1.6275455 0.44001693
-0.23325945 -1.5981361 0.38862616
-0.23674636 -1.6201605 0.29946604
-0.23069891 -1.6173825 0.25381219
-0.22145052 -1.6127576 0.18612225
-0.21981527 -1.6178498 0.14073461
-0.20818684 -1.621227 0.0036469805
-0.18092564 -1.6283937 -0.31346723
-0.17694201 -1.6307452 -0.3671757
-0.17182933 -1.6311873 -0.42154324
0.26277387 -0.77628946 0.0019361883
0.27616492 -0.75326258 -0.0038120265
0.28654224 -0.73453367 -0.0032628516
0.29209962 -0.72425467 -0.0015602745
0.30924639 -0.69342321 -0.0013213949
0.31690964 -0.67965168 -0.001264264
0.32686424 -0.6621002 -0.0031097038
0.33160475 -0.65281808 0.0012417374
0.33941504 -0.63974005 -0.0041370066
0.34536752 -0.62905389 -0.0041675982
0.34899887 -0.62198043 -0.0010494246
0.35430139 -0.6126042 -0.0018910873
0.36166373 -0.59983754 -0.0044885427
0.36460632 -0.59414655 -0.002197922
0.37145564 -0.58240032 -0.0053596548
0.37409151 -0.5773344 -0.0034907537
0.37877157 -0.56885654 -0.003098462
0.38116997 -0.56432158 -0.0018216308
0.38969785 -0.54960471 -0.0052466411
0.39403197 -0.54169667 -0.0045665107
0.39822051 -0.53433537 -0.0054984335
0.41067946 -0.512649 -0.0094631063
0.41855511 -0.49746993 -0.0036791482
0.42068848 -0.49400815 -0.0057813013
0.42479292 -0.48680902 -0.0067832922
0.43302578 -0.47221294 -0.0079139136
0.43927157 -0.46108809 -0.0084789665
0.44140545 -0.45731789 -0.0088440692
0.44783574 -0.44587213 -0.0094670579
0.45429316 -0.43424979 -0.0093680052
0.46075696 -0.42248544 -0.008531278
0.47035494 -0.4054887 -0.0099412566
0.47548205 -0.39645818 -0.010966441
0.48038727 -0.3875902 -0.010660724
0.48808321 -0.37369749 -0.010292591
0.4939822 -0.3633104 -0.011479771
0.50213492 -0.34843084 -0.010168016
0.50851673 -0.33708254 -0.010820711
0.51712137 -0.32117918 -0.0083074141
0.52549303 -0.30665806 -0.011208935
0.53362 -0.29228991 -0.012494451
0.54224265 -0.27700388 -0.013620393
0.55218327 -0.25954807 -0.015850231
0.56396234 -0.23770608 -0.01197186
0.58007073 -0.20881325 -0.012153134
0.59340459 -0.18519093 -0.013948613
0.6315347 -0.11711089 -0.016075967
1.4822031 1.2757865 -0.77165878
1.4766086 1.2810512 -0.68527013
1.4655569 1.2768551 -0.59699827
1.4660504 1.2982163 -0.48142934
1.4394614 1.2667918 -0.38945478
1.4509332 1.2993107 -0.32211825
1.4204201 1.2600697 -0.2345134
1.3919373 1.2235088 -0.15235212
1.432593 1.3063972 -0.096336573
1.4267212 1.3088289 -0.023129741
1.4207606 1.3173008 0.085070729
1.4113389 1.3132025 0.15738058
1.4060938 1.3164665 0.22893807
1.3933436 1.3061703 0.29998422
1.3780371 1.2910631 0.36976588
1.3721529 1.293029 0.44047505
1.3655182 1.2936881 0.51141196
1.3518702 1.2879615 0.61735386
1.3499627 1.2977599 0.69199806
1.3425531 1.2974502 0.76532346
1.3338075 1.2947937 0.83893752
1.3328766 1.3073981 0.91953993
1.3285445 1.3139049 1.0001788
1.313344 1.30743 1.1176506
1.3531331 1.4026608 1.2522144
1.4101478 1.5347089 1.4201387
1.3975743 1.5291259 1.5160464
1.3848619 1.5238773 1.6152537
1.3732703 1.5216659 1.7202611
1.3447264 1.4966221 1.8681395
1.3343642 1.4992809 1.9882072
1.3251777 1.505862 2.1185174
1.2449051 1.358577 2.1002519
1.2911669 1.4896866 2.3719509
1.2751064 1.486254 2.5153956
1.245437 1.4724706 2.7383537
1.2385384 1.4969997 2.9469085
1.182515 1.4070144 3.0065367
1.1049991 1.2631341 2.9795663
1.0382168 1.1432523 2.9793589
0.97392452 1.0275198 2.9773476
0.91378307 0.92070264 2.9836228
0.82820743 0.76998037 2.9997206
0.7748999 0.67876202 3.0248435
0.72180748 0.58723068 3.0460172
0.66820908 0.49259618 3.054785
0.61676049 0.40463352 3.0794578
0.56516385 0.31525132 3.0976098
0.4875766 0.17624654 3.098917
0.43655381 0.081033714 3.0782948
0.38680872 -0.0099699171 3.0685036
0.33774564 -0.098653428 3.0649095
0.28777486 -0.18291657 3.0955102
0.23765346 -0.26945794 3.114763
0.18874995 -0.35795462 3.1106095
0.11478801 -0.49031126 3.1127312
0.064806297 -0.57913321 3.1176803
0.014837708 -0.66856682 3.1190395
-0.035952218 -0.75907069 3.122683
-0.091280356 -0.85370553 3.1490173
-0.14855383 -0.95153588 3.1770258
-0.21074334 -1.0555599 3.2198992
-0.25397554 -1.1633948 3.0488842
-0.34986857 -1.3059872 3.215678
-0.4065209 -1.4087905 3.2092795
-0.47362897 -1.5248859 3.2338226
-0.53987318 -1.6415623 3.2463179
-0.60482711 -1.7580293 3.2469084
-0.67670041 -1.8847108 3.2599607
-0.78054601 -2.0723109 3.2530115
-0.85684711 -2.2086761 3.256247
-0.87426901 -2.2644522 3.117671
-0.89406627 -2.3223369 2.9912751
-0.85898358 -2.3001971 2.7604449
-0.96439481 -2.4802568 2.8120265
-1.0342183 -2.6103399 2.7850552
-1.0426573 -2.6625798 2.5753028
-0.88387012 -2.4453642 2.1921222
-0.89065146 -2.4771492 2.0811994
-0.86532098 -2.4583035 1.9306824
-0.94128585 -2.5973125 1.9155587
-1.0255299 -2.7510946 1.9009221
-1.0121838 -2.7503223 1.7698271
-1.0017253 -2.7629702 1.5921373
-0.99203569 -2.766144 1.4758308
-0.97631627 -2.7587247 1.3582269
-0.97138941 -2.7685199 1.2528094
-0.96066147 -2.7681928 1.1457529
-0.43273711 -1.9251755 0.55472183
-0.24873279 -1.6155975 0.43778217
-0.24550118 -1.617993 0.39138913
-0.22239012 -1.6127806 0.18607379
-0.22508256 -1.6257397 0.14006574
-0.20589238 -1.6194063 -0.0190807
-0.17675593 -1.623274 -0.33705509
-0.17148288 -1.623158 -0.38998067
-0.16748571 -1.6259149 -0.44620395
0.25396037 -0.79068869 -0.00073973683
0.27310073 -0.75751799 -0.0075523024
0.28810155 -0.72893071 0.0017929163
0.29402372 -0.71947718 -0.0049179886
0.30504531 -0.69870478 0.00062212243
0.31191501 -0.68679535 -0.0018178881
0.3194834 -0.67312092 -0.0013685322
0.32607156 -0.66147006 -0.0024131753
0.3305558 -0.65278161 0.0011752642
0.33638752 -0.64258152 -0.00039619446
0.34473559 -0.62796849 -0.0025841712
0.34794575 -0.62194192 -0.0011174607
0.3536205 -0.61159271 -0.00025231301
0.36308581 -0.59540898 -0.00492978
0.36583689 -0.59019667 -0.0034080425
0.37278906 -0.5780533 -0.005395066
0.37527081 -0.57340652 -0.0043376177
0.38202393 -0.56142491 -0.0052190204
0.38429725 -0.55724853 -0.0047066375
0.39078483 -0.5457285 -0.0055028875
0.39922929 -0.53071076 -0.0064137001
0.40132734 -0.52672875 -0.0052213622
0.40545401 -0.51972026 -0.0075188274
0.41155696 -0.5084753 -0.0059725209
0.41754237 -0.49749815 -0.004746981
0.42163002 -0.49035206 -0.0058918186
0.4277333 -0.47950017 -0.0065711387
0.43183392 -0.47220281 -0.006991663
0.43394688 -0.46850976 -0.0075869211
0.44017795 -0.457369 -0.0079291807
0.44444323 -0.44979024 -0.0084293913
0.45067796 -0.43843874 -0.0076164366
0.45516032 -0.43049952 -0.008281257
0.45967391 -0.42244273 -0.0085981134
0.46926937 -0.40544638 -0.010007019
0.4765707 -0.39232779 -0.010026706
0.48334137 -0.37968749 -0.0073637511
0.48729464 -0.37326947 -0.011228168
0.49538758 -0.35862714 -0.01066509
0.50354224 -0.34367931 -0.0090000862
0.51028728 -0.33177045 -0.010180935
0.51711863 -0.31958836 -0.010692562
0.52477139 -0.30607662 -0.012021825
0.5336808 -0.29055527 -0.014741759
0.54328024 -0.27248535 -0.010083814
0.55692482 -0.24937384 -0.017942421
0.56664634 -0.23188867 -0.017798189
0.58026606 -0.20675717 -0.014010664
0.59494627 -0.18100353 -0.017437233
0.63179928 -0.11486489 -0.017627357
1.4823874 1.2855016 -0.73197997
1.4769776 1.2908901 -0.64663583
1.4497713 1.2596297 -0.54731345
1.4633801 1.295875 -0.4805108
1.4572603 1.2989767 -0.40089455
1.4492433 1.2985615 -0.32191315
1.4081109 1.2473196 -0.19426791
1.3981847 1.2425491 -0.12053989
1.4303612 1.3109736 -0.060218737
1.4258424 1.315726 0.012477407
1.4181265 1.314751 0.085235387
1.4096947 1.3123816 0.15737152
1.4044582 1.3156389 0.2288956
1.3839625 1.2976142 0.33492014
1.3748325 1.2936625 0.40519306
1.366914 1.2919177 0.47564885
1.3587414 1.2897433 0.5462541
1.3521448 1.2905792 0.61788595
1.3502245 1.3003587 0.69263351
1.3418986 1.2983177 0.76554686
1.330034 1.2968025 0.87732613
1.3257201 1.3030611 0.95645493
1.3240376 1.3148803 1.0403208
1.3188916 1.3204675 1.1240965
1.4176377 1.5328438 1.3228472
1.398175 1.522523 1.4619449
1.3851202 1.5161475 1.5583414
1.3722404 1.5107762 1.6586384
1.3621577 1.5119845 1.7677554
1.3488415 1.507431 1.8771064
1.344262 1.5225195 2.0088637
1.3174595 1.4913871 2.1047845
1.2093526 1.296241 2.0983379
1.2763326 1.4746931 2.4276595
1.2603245 1.472195 2.5759528
1.2538968 1.4943746 2.7665665
1.2428439 1.5094879 2.9641628
1.1724908 1.3850281 2.9743016
1.0751808 1.21492 2.9998555
1.0065683 1.0894766 2.9867597
0.94476926 0.97942877 2.991576
0.88776731 0.88065255 3.0114472
0.82637757 0.76745528 2.9942954
0.77365446 0.677921 3.0230007
0.72090834 0.5875026 3.0469379
0.6424337 0.45234087 3.0789342
0.58515483 0.33837998 3.0157347
0.53875762 0.27224204 3.1125412
0.48639163 0.17482957 3.0930612
0.4354344 0.079216093 3.0694556
0.38615194 -0.019854242 3.0093017
0.33690429 -0.099795461 3.0569727
0.28670365 -0.18288778 3.096494
0.21323384 -0.31477761 3.0961812
0.16309604 -0.40209129 3.1111891
0.11314245 -0.49040157 3.11869
0.063989267 -0.57913321 3.1156838
0.014048965 -0.668504 3.1170499
-0.040159184 -0.761127 3.143338
-0.11763772 -0.89976859 3.1455157
-0.17720157 -1.0001765 3.1821299
-0.24173017 -1.1072652 3.2313495
-0.25484207 -1.1632183 3.0479221
-0.35403591 -1.3094071 3.2278368
-0.41164377 -1.4134483 3.2240479
-0.50201571 -1.5760105 3.2217934
-0.56865942 -1.6936785 3.2326431
-0.63634616 -1.8140956 3.2385309
-0.71033388 -1.9441659 3.2537746
-0.7856198 -2.0776262 3.2630219
-0.66401356 -1.9428753 2.7908163
-0.88353664 -2.2757893 3.1359584
-0.90232992 -2.346909 2.9243722
-0.89047718 -2.3574009 2.7446675
-1.0245911 -2.58059 2.8435123
-1.043985 -2.6366036 2.7234898
-0.99446148 -2.5880792 2.4952188
-0.90401483 -2.4742498 2.2209392
-0.82399738 -2.3725028 1.9841779
-0.88229418 -2.482841 1.9517593
-0.99111408 -2.684191 1.9173591
-1.0218005 -2.7535305 1.8365821
-1.0191512 -2.7695136 1.7192289
-0.99408931 -2.7485237 1.5835055
-0.9857251 -2.7537374 1.4690577
-0.97327775 -2.7516091 1.3546915
-0.97670859 -2.7841191 1.2055455
-0.95924169 -2.7723136 1.0949651
-0.43246195 -1.9277099 0.52493256
-0.24203558 -1.6058009 0.41274011
-0.24139139 -1.6206027 0.32235613
-0.23320913 -1.6220311 0.23110165
-0.22338693 -1.6163647 0.16336149
-0.21437682 -1.6244512 0.025988052
-0.18089333 -1.6289738 -0.33989063
-0.17798238 -1.6335993 -0.39565322
-0.17306511 -1.6346117 -0.45134467
-0.15889731 -1.6230625 -0.52990746
0.2538493 -0.78846782 0.00094009796
-0.15168796 -1.6329764 -0.65925622
0.27697 -0.74682695 0.0016525945
0.28690636 -0.72895682 0.0018054533
0.31383663 -0.6815263 -0.0034991868
0.31882954 -0.67191917 0.00012695827
0.32564446 -0.65971941 -0.0001084746
0.33204821 -0.64827555 -0.00044534699
0.34005341 -0.63464141 -0.0046803318
0.3439621 -0.62695527 -0.00091451959
0.34931639 -0.61752713 -0.0020000841
0.35475683 -0.60770917 -0.0017557247
0.36204609 -0.59501165 -0.0040214974
0.3669253 -0.58631825 -0.0044405456
0.37171629 -0.57771176 -0.0044559687
0.37418967 -0.57307917 -0.0033914868
0.38082954 -0.56146538 -0.0051953876
0.38527727 -0.55344296 -0.0050294162
0.38964429 -0.54550374 -0.0045156702
0.39388806 -0.53789735 -0.0046323743
0.39805445 -0.53054655 -0.0054094195
0.4143396 -0.50112963 -0.0045379205
0.41635352 -0.49754277 -0.0047195242
0.42051753 -0.49043909 -0.0068606068
0.4246363 -0.48318934 -0.0077171358
0.4327648 -0.46855465 -0.0075592222
0.43687251 -0.46116883 -0.0075340383
0.43914822 -0.45731905 -0.0088855503
0.44144559 -0.4534156 -0.01015338
0.44969258 -0.43831345 -0.0085553806
0.45439827 -0.43014437 -0.010169056
0.4585017 -0.4224878 -0.0085700797
0.46860364 -0.4049156 -0.011826884
0.47729233 -0.38862821 -0.0080098147
0.48306057 -0.37861454 -0.0099754119
0.48892379 -0.36833829 -0.011420056
0.49519092 -0.3573916 -0.013172374
0.50088561 -0.34707528 -0.012680938
0.50983626 -0.3308323 -0.011744404
0.516693 -0.31860048 -0.012213156
0.52653092 -0.30062923 -0.010507974
0.53547287 -0.28498593 -0.012845022
0.54749352 -0.26321438 -0.011800097
0.55750841 -0.24545702 -0.013071039
0.57103068 -0.22209257 -0.018226253
0.58338004 -0.1987813 -0.011811364
0.59631556 -0.17564791 -0.012320161
0.61567152 -0.14202505 -0.018664772
0.64142036 -0.095994286 -0.019749379
1.4794891 1.2822952 -0.73024184
1.4664204 1.2750309 -0.63878721
1.4583771 1.2755314 -0.55441654
1.4636079 1.3046124 -0.44317099
1.4528884 1.2998326 -0.36150321
1.4466301 1.3022832 -0.28421986
1.4021562 1.2387711 -0.19214332
1.4306248 1.3004553 -0.13230143
1.4268578 1.3065881 -0.059475724
1.4218276 1.3167369 0.04883847
1.4154606 1.318114 0.12115478
1.4069074 1.3155119 0.19315401
1.4000847 1.3159301 0.26467311
1.3761499 1.2852949 0.33424222
1.3565432 1.2621298 0.40213263
1.3653717 1.2909741 0.47556999
1.3531294 1.2877702 0.58156198
1.3459115 1.2875016 0.65320754
1.3433285 1.2961328 0.72814333
1.3361621 1.2963666 0.80210674
1.3311477 1.3009633 0.87890142
1.3319737 1.317205 0.96227592
1.3250624 1.3189548 1.0422218
1.3098497 1.3127922 1.1616201
1.4053231 1.5197997 1.3632357
1.399022 1.5263973 1.4643946
1.390834 1.5299716 1.5676045
1.3729689 1.5145118 1.6613849
1.3688749 1.5282203 1.7803512
1.3377517 1.4984946 1.9279541
1.3294888 1.5063221 2.0559692
1.290822 1.4497253 2.1282263
1.2452126 1.3777763 2.1841316
1.282588 1.4912382 2.4463129
1.2449477 1.4574974 2.6373348
1.2262002 1.4521461 2.7972105
1.2109998 1.4582733 2.9859922
1.1395177 1.330279 2.9875433
1.0685418 1.2011123 2.9773302
1.0024072 1.0816962 2.9731252
0.94086164 0.97206157 2.9776621
0.85683709 0.82714301 3.0107517
0.79960728 0.7251327 3.0146081
0.74579543 0.63185632 3.0331635
0.69355804 0.54267269 3.0588834
0.64124519 0.45235398 3.0789528
0.57728451 0.30827832 2.9132957
0.53706682 0.26948249 3.1019258
0.45977625 0.12930647 3.0935166
0.40937343 0.03660842 3.080761
0.3599982 -0.05457009 3.0661714
0.31064978 -0.14073741 3.0796387
0.26086873 -0.22670822 3.0986068
0.21091565 -0.31377432 3.1131287
0.16165213 -0.40198424 3.1141901
0.088207513 -0.53456831 3.1096892
0.038194917 -0.62357348 3.1138558
-0.012797858 -0.71375406 3.1213219
-0.066787787 -0.80684602 3.1427364
-0.12109508 -0.90156108 3.1581962
-0.18219805 -1.0035504 3.2014766
-0.24271779 -1.1070329 3.2304001
-0.29387355 -1.2229959 3.0937471
-0.38241726 -1.3594683 3.2204802
-0.44079575 -1.4648042 3.2172067
-0.50265563 -1.5753158 3.2199936
-0.55230731 -1.6717552 3.1784804
-0.64144605 -1.8190864 3.2498691
-0.69452232 -1.9217976 3.2076457
-0.82058871 -2.1397028 3.2546847
-0.64776856 -1.9323225 2.6737063
-0.89781439 -2.3094406 3.0785067
-0.89275771 -2.3315396 2.9022324
-0.90497071 -2.3767333 2.7706032
-1.0284855 -2.5846 2.8485379
-1.0262353 -2.6084309 2.6909454
-0.8344512 -2.3558562 2.1730325
-0.93879467 -2.5367794 2.2087877
-0.83130264 -2.3919435 1.9369923
-0.90405756 -2.525115 1.9222225
-1.0133183 -2.7175312 1.9428977
-1.0169762 -2.7440741 1.8299136
-1.0165492 -2.763562 1.7153703
-0.99973166 -2.7654574 1.5339714
-0.98512697 -2.7602336 1.4152899
-0.97690666 -2.7648475 1.3057673
-0.97294527 -2.7760608 1.2021441
-0.9612745 -2.7739563 1.095595
-0.60135567 -2.1810894 0.79562175
-0.59443736 -2.1818085 0.72132123
-0.25921276 -1.6257955 0.4634786
-0.23618767 -1.5937821 0.41080698
-0.24189828 -1.6236734 0.29963851
-0.23730999 -1.6235212 0.25389951
-0.22904874 -1.6167154 0.20851034
-0.2215234 -1.61113 0.16368851
-0.21512969 -1.6281862 0.0022278659
-0.20654149 -1.6206818 -0.042528175
-0.18784642 -1.6306502 -0.28879225
-0.17690001 -1.6242702 -0.36385399
-0.17106943 -1.623211 -0.41706815
-0.16842477 -1.6288882 -0.47604036
0.25809702 -0.77924526 -0.00038072458
0.26951104 -0.75874901 -0.00036979435
0.27962476 -0.74068236 -0.00090161525
0.2891621 -0.72356284 -0.00093979808
0.29813829 -0.70738119 -0.0005875795
0.3039487 -0.69795084 -0.006282005
0.31337392 -0.68027252 -0.0020246468
0.32735178 -0.65514219 -0.0018856308
0.3312732 -0.64770275 0.00035730601
0.33728319 -0.63699478 -0.00014045161
0.34533244 -0.62299585 -0.0027513721
0.3508527 -0.61308312 -0.0027761545
0.35607353 -0.60377359 -0.0031729389
0.36118886 -0.5945732 -0.0031165229
0.36605242 -0.58590603 -0.0035204052
0.37082756 -0.57732636 -0.0035216925
0.37751997 -0.56566757 -0.0055964245
0.38201496 -0.55759329 -0.0056128064
0.38643229 -0.54959613 -0.0052772146
0.39288139 -0.53788978 -0.0046153739
0.39498231 -0.53410345 -0.0045543914
0.39912719 -0.52676493 -0.0051777572
0.40530777 -0.51598847 -0.0070360387
0.41131526 -0.50470179 -0.0042685191
0.41742167 -0.49399981 -0.0058095022
0.41950956 -0.49043062 -0.0068444158
0.42362782 -0.48318091 -0.007700983
0.42975852 -0.47220516 -0.0079404758
0.43586245 -0.4611603 -0.0075179986
0.440119 -0.45362711 -0.0081748031
0.4465363 -0.44216433 -0.0085685151
0.44868106 -0.43830493 -0.0085394485
0.4553352 -0.42641416 -0.0089162299
0.4697721 -0.4008404 -0.010987715
0.47871789 -0.38418511 -0.0077089374
0.48234007 -0.37823331 -0.010839712
0.48977011 -0.36454678 -0.0089359628
0.49636197 -0.35312545 -0.01130464
0.50420928 -0.33851644 -0.0084191952
0.51062423 -0.32701021 -0.0085135521
0.52741849 -0.29785544 -0.014196754
0.53738678 -0.2793524 -0.010815513
0.54810143 -0.26076582 -0.014504589
0.5611155 -0.23706259 -0.012626072
0.57298619 -0.21610977 -0.014666492
0.58673513 -0.19195434 -0.017657613
0.60224444 -0.1631963 -0.012518208
0.619403 -0.13287877 -0.015265118
1.4799627 1.2920048 -0.69094777
1.4684954 1.2871968 -0.60185319
1.4635909 1.2928176 -0.52038413
1.4353393 1.258845 -0.42588255
1.4479295 1.2932308 -0.35928839
1.430377 1.2763485 -0.27671576
1.3935865 1.2320037 -0.15425083
1.4303087 1.3081082 -0.096639328
1.4249318 1.3114103 -0.023484914
1.4188095 1.3132923 0.049201019
1.4144082 1.3181354 0.12116735
1.4087831 1.3207687 0.19305834
1.3917506 1.3028393 0.26443449
1.3752657 1.2919197 0.36984932
1.368427 1.292136 0.44038683
1.3651009 1.2988914 0.51225603
1.3534752 1.290393 0.58209139
1.3485429 1.2944274 0.65487188
1.343637 1.298726 0.72887677
1.3301243 1.2939147 0.83866549
1.324407 1.2972887 0.91567433
1.3235971 1.3105471 0.99877298
1.3176477 1.3143145 1.0803586
1.305925 1.3071455 1.1586887
1.4122587 1.5357728 1.372282
1.3878129 1.5158601 1.5076121
1.3782742 1.5169612 1.6105325
1.2810287 1.3376473 1.5833646
1.354682 1.5124248 1.8240805
1.3414127 1.5085198 1.9365451
1.33362 1.5174881 2.0662189
1.281023 1.4307803 2.1095839
1.2713253 1.4527173 2.3318481
1.2646637 1.4699028 2.49649
1.2551842 1.4835402 2.6696591
1.2355547 1.4766438 2.8297229
1.2078205 1.453267 2.9788439
1.135386 1.3228076 2.9761322
1.0371137 1.1486841 2.9886746
0.97264254 1.0326747 2.9868598
0.91248226 0.92602122 2.994199
0.8540042 0.82211816 3.0000193
0.79762137 0.72240144 3.0082486
0.74471784 0.63188285 3.0331733
0.691998 0.54100668 3.054213
0.63889515 0.44741771 3.0638046
0.55395943 0.275969 2.9561849
0.50998294 0.22241348 3.0994689
0.45838127 0.12600198 3.0778799
0.40826747 0.034851145 3.0709312
0.35904872 -0.055878922 3.0572817
0.30927888 -0.1396448 3.0885804
0.23520254 -0.27057001 3.0998397
0.18550397 -0.35801417 3.1096244
0.13588795 -0.446107 3.1149056
0.086683936 -0.53461266 3.1136737
0.036853079 -0.62364072 3.1158462
-0.014883034 -0.71427959 3.1282375
-0.092642091 -0.85220349 3.1372852
-0.15173504 -0.95137596 3.1760592
-0.21015352 -1.0518472 3.2006519
-0.25471759 -1.1398962 3.1549373
-0.32292473 -1.2527703 3.2087083
-0.38572514 -1.3618901 3.2288609
-0.44708759 -1.4708096 3.2355611
-0.53599823 -1.6325628 3.2230241
-0.58675915 -1.7307841 3.1826632
-0.67274487 -1.8750652 3.239238
-0.74101669 -1.9982846 3.2351906
-0.82940739 -2.1500783 3.2736962
-0.69532311 -1.9964899 2.7817726
-0.89680028 -2.3063614 3.0737991
-0.8891207 -2.3385568 2.8138511
-0.94699478 -2.449692 2.7726424
-1.0428662 -2.6179068 2.794205
-1.0382926 -2.6378067 2.6352837
-0.83557838 -2.3558106 2.1730392
-0.95736659 -2.5634701 2.2345212
-0.84370524 -2.4093745 1.9526018
-0.92159545 -2.5608182 1.8865503
-1.0471052 -2.7797525 1.9220507
-1.0193315 -2.7561305 1.773806
-1.0070997 -2.7562883 1.6487944
-0.99287349 -2.7523782 1.526543
-0.98341167 -2.7555017 1.4128612
-0.97372735 -2.7576547 1.3024094
-0.96007288 -2.7526309 1.1922512
-0.56546646 -2.1122804 0.8091439
-0.60259473 -2.1875582 0.7601853
-0.2570115 -1.6241436 0.43936348
-0.23753056 -1.5981565 0.38859877
-0.23693062 -1.6208884 0.25385621
-0.22819132 -1.6132046 0.20858814
-0.22602357 -1.6213582 0.14043063
-0.2110824 -1.6186302 0.0041349609
-0.18733405 -1.632491 -0.31544119
-0.18002963 -1.6283091 -0.36594495
-0.17534915 -1.6295829 -0.42067066
-0.16325982 -1.6219424 -0.50018394
0.25846705 -0.77629328 0.0019162589
0.26914558 -0.75731075 0.00084167172
0.27989751 -0.73786896 0.001617694
0.29200464 -0.71680444 -0.0022083602
0.30435458 -0.69472289 -0.0027483841
0.31426495 -0.67589623 0.0030863406
0.32654989 -0.65457106 -0.0010982135
0.33510461 -0.6397453 -0.0041551623
0.34105679 -0.62905943 -0.0041856011
0.34468815 -0.62198615 -0.0010673205
0.35215864 -0.60913932 -0.004311963
0.35519537 -0.60332668 -0.0022881918
0.36258274 -0.59024382 -0.0033556335
0.36514214 -0.58551294 -0.0026039968
0.36779267 -0.58043712 -0.0008273875
0.37695399 -0.56399029 -0.00090264884
0.38336363 -0.55286068 -0.0030933176
0.38967359 -0.54195702 -0.0055497363
0.39183441 -0.53790665 -0.0046015587
0.39808056 -0.52678233 -0.0051639099
0.40014216 -0.52320302 -0.0058554197
0.40219632 -0.51944703 -0.0054884395
0.40834638 -0.5086475 -0.0069077872
0.41228861 -0.50113893 -0.0045082779
0.41637871 -0.49401754 -0.0057962206
0.42249447 -0.4831869 -0.0066921515
0.4245986 -0.47955087 -0.0075093117
0.43071514 -0.46856403 -0.0075302669
0.43694913 -0.45742333 -0.0078726709
0.44121641 -0.44984466 -0.0083729727
0.445499 -0.44218236 -0.0085560372
0.44998899 -0.43426129 -0.0093794269
0.45645395 -0.42249742 -0.0085420255
0.46873903 -0.40085876 -0.01097579
0.47091523 -0.3967877 -0.010065385
0.47636807 -0.38725862 -0.011565402
0.48348349 -0.37409776 -0.0094290897
0.48936996 -0.36373821 -0.010633154
0.49783882 -0.34844568 -0.010174995
0.50387508 -0.33757699 -0.010020787
0.51067364 -0.32551602 -0.010858931
0.52345502 -0.30342788 -0.015728181
0.52971536 -0.29174209 -0.013228172
0.5379526 -0.27702135 -0.013624456
0.55003387 -0.25501966 -0.011882678
0.56430578 -0.23066403 -0.019024476
0.57795483 -0.20547271 -0.015155348
0.58912164 -0.18521178 -0.013949593
0.60841405 -0.15186624 -0.021198401
0.62067008 -0.12926701 -0.017823054
1.4789262 1.2772704 -0.77251208
1.4723939 1.2809997 -0.68524808
1.4647 1.2823597 -0.59959245
1.4597723 1.2879082 -0.51831859
1.4411032 1.2766089 -0.39293402
1.4472195 1.3000826 -0.32235208
1.4122875 1.2532754 -0.23269086
1.3833047 1.2158021 -0.15061101
1.4288884 1.3071872 -0.096466891
1.4225259 1.308761 -0.023103062
1.4155866 1.3154937 0.085238472
1.4071479 1.3131307 0.15740843
1.3999572 1.3128994 0.22896898
1.379476 1.2886075 0.29933023
1.3743294 1.2918622 0.36986348
1.3679661 1.2929525 0.44050422
1.360389 1.2918689 0.5111655
1.3476855 1.2878824 0.6173839
1.3466946 1.2994007 0.69247568
1.3379197 1.296514 0.76509714
1.3336191 1.3023405 0.8415848
1.3286958 1.3073144 0.9195717
1.3243644 1.3138201 1.000211
1.3192171 1.3191893 1.0827028
1.3489586 1.4025707 1.2522488
1.399269 1.5211641 1.4122335
1.3911011 1.5243638 1.5130976
1.3810672 1.5245438 1.6158183
1.3691014 1.5215685 1.7202983
1.3391795 1.4936327 1.8657804
1.3308545 1.5005943 1.9894975
1.3203672 1.5043895 2.1172485
1.2434686 1.3644935 2.1063986
1.2866976 1.4889407 2.3712842
1.2731458 1.4911692 2.5212591
1.2376715 1.4640584 2.7277117
1.230256 1.487192 2.9336061
1.1801265 1.4113013 3.0130181
1.1010047 1.2635692 2.9804263
1.0322508 1.13868 2.9717901
0.97095335 1.0307556 2.9834158
0.91101575 0.92465657 2.9915667
0.82603514 0.77602684 3.0132875
0.77113402 0.68022126 3.0285363
0.71712816 0.58576316 3.0423217
0.66525942 0.49740967 3.0689347
0.61234176 0.40399379 3.0775738
0.56001616 0.31093636 3.0822344
0.50886512 0.22169654 3.0965583
0.43230289 0.081969291 3.0832162
0.38249445 -0.0099963676 3.0685182
0.33351642 -0.099208742 3.0609593
0.28291664 -0.18159211 3.1084421
0.2336008 -0.26983368 3.1097949
0.18552028 -0.35859647 3.0956738
0.13595515 -0.44623637 3.1029541
0.060784612 -0.57902521 3.1147077
0.01018948 -0.66868412 3.1210215
-0.04034321 -0.75905377 3.1226852
-0.095516041 -0.85355759 3.1480396
-0.15333152 -0.95181727 3.1789663
-0.21516912 -1.0555241 3.2198961
-0.23675156 -1.1207421 3.0701165
-0.356215 -1.3080076 3.2231619
-0.41450748 -1.412764 3.2222061
-0.47304893 -1.5188051 3.2165129
-0.54155958 -1.6380409 3.2373466
-0.60727048 -1.7553401 3.2407327
-0.68029565 -1.8834217 3.2573531
-0.76041615 -2.0225742 3.2833586
-0.86242485 -2.2099657 3.2586722
-0.87882775 -2.2643399 3.1176462
-0.90044987 -2.3248057 2.9951231
-0.86315984 -2.2995441 2.7596686
-0.96974242 -2.4812622 2.8134573
-1.032851 -2.6013916 2.774451
-1.0447748 -2.6587205 2.57127
-0.88757926 -2.4439623 2.1908166
-0.88746971 -2.4651093 2.0701253
-0.86680102 -2.4534142 1.9265568
-0.94139194 -2.5901818 1.9099568
-1.0296544 -2.7502406 1.9003655
-1.010331 -2.7398939 1.7628179
-1.0114378 -2.7711859 1.5970924
-0.99896407 -2.7698796 1.477913
-0.98230767 -2.7609553 1.3593714
-0.97738993 -2.7707891 1.2538576
-0.96424508 -2.7664382 1.145079
-0.44160113 -1.9327492 0.55643547
-0.25411251 -1.61726 0.43809938
-0.24053964 -1.6015693 0.38907477
-0.24035661 -1.621109 0.27663314
-0.23685357 -1.622866 0.23111798
-0.22677226 -1.6127348 0.18608092
-0.18276595 -1.6264992 -0.33866048
-0.17461702 -1.6207129 -0.38865826
-0.17064649 -1.6235087 -0.44478801
0.24968751 -0.79070008 -0.00070925429
0.26021299 -0.77224034 -0.0031750996
0.27254781 -0.74967384 -0.00077864662
0.28221226 -0.73242813 -0.0013739344
0.29194441 -0.71475172 -0.00022130809
0.30108386 -0.6980651 0.001347839
0.30651921 -0.68936324 -0.0046481495
0.31522775 -0.673141 -0.0013331836
0.32630312 -0.65280324 0.0012115403
0.33456531 -0.63862991 -0.0025558821
0.33830723 -0.63141721 0.00023360235
0.34390101 -0.62145489 -0.00024425599
0.3513487 -0.6086458 -0.0034617761
0.35668948 -0.59892863 -0.0027597756
0.35946164 -0.5936985 -0.0013404734
0.36641654 -0.58159876 -0.0035697615
0.36891457 -0.57694066 -0.0026038261
0.37567952 -0.56498557 -0.0037235215
0.38006207 -0.55727851 -0.004664659
0.38655195 -0.54575956 -0.0054601333
0.39081436 -0.53812379 -0.0055854409
0.401218 -0.51958972 -0.0064887651
0.40531185 -0.51223683 -0.0065207188
0.40726385 -0.50827211 -0.0039444515
0.41532284 -0.49393997 -0.0048144474
0.41949254 -0.48679885 -0.0068123299
0.4235059 -0.47953478 -0.0065290593
0.42984539 -0.46849567 -0.008536146
0.43595207 -0.45740455 -0.0078878775
0.43824074 -0.45351642 -0.0091587212
0.4425312 -0.44586477 -0.0094945999
0.45093629 -0.43053627 -0.0082408553
0.45760256 -0.4185333 -0.0081125684
0.46721429 -0.40144661 -0.0091573903
0.4720763 -0.39269719 -0.0090841409
0.4756397 -0.38689744 -0.012477702
0.48277399 -0.37369552 -0.010317572
0.49052685 -0.35952142 -0.008936015
0.49682486 -0.34843078 -0.010192149
0.50536633 -0.33279598 -0.008550765
0.51290411 -0.31963089 -0.010654688
0.5209341 -0.30557886 -0.012736438
0.52908295 -0.2911644 -0.013975016
0.54108089 -0.26953611 -0.013509233
0.55313009 -0.24880016 -0.018572086
0.56202084 -0.23257881 -0.017119886
0.57823282 -0.20344639 -0.016973937
0.59074759 -0.18105516 -0.017399848
0.60989672 -0.14634049 -0.015486578
0.62760878 -0.11492115 -0.017589677
1.4803301 1.2884103 -0.73359603
1.4735012 1.2914934 -0.64695621
1.4356993 1.2426455 -0.53973532
1.4594159 1.2956955 -0.48044327
1.4528037 1.2979764 -0.40053609
1.4457588 1.2992193 -0.32210609
1.403947 1.2406212 -0.22933246
1.3936973 1.2415313 -0.1203043
1.4273573 1.3125228 -0.060434777
1.4213578 1.3146943 0.012643917
1.4160932 1.3180593 0.085015617
1.410096 1.3200612 0.1571127
1.3980188 1.3111099 0.22895777
1.380931 1.2929362 0.29948828
1.3703363 1.2926328 0.40516326
1.3628925 1.2917634 0.4757044
1.3547159 1.2895907 0.54630876
1.3522896 1.2982175 0.61964506
1.3466511 1.3010689 0.69291019
1.3387659 1.2998781 0.76611364
1.3281941 1.3008752 0.87891364
1.3234056 1.3062567 0.95786595
1.3204167 1.3155611 1.0407432
1.3152591 1.3211387 1.1245501
1.4063247 1.5182214 1.3150479
1.4054463 1.5353273 1.4206324
1.3810844 1.5159953 1.5583909
1.3674649 1.5091146 1.6576027
1.3577579 1.5110956 1.7672321
1.3472012 1.5123454 1.8813469
1.3405433 1.5230786 2.0095363
1.3140389 1.4926186 2.1061356
1.2193494 1.3136628 2.0547829
1.2702709 1.4700958 2.4226882
1.2576017 1.4751394 2.5796938
1.2480292 1.4900832 2.7612672
1.2399683 1.51221 2.9681261
1.1690707 1.3865473 2.9767556
1.0961026 1.2535176 2.9647305
1.0041119 1.0937507 2.9944732
0.94078743 0.97979671 2.992475
0.8805095 0.87188292 2.9937246
0.82454515 0.77430618 3.0096645
0.76921755 0.67709118 3.0211883
0.71617776 0.58567768 3.0423079
0.63852662 0.45352983 3.0827396
0.58241588 0.34509072 3.0387297
0.5349164 0.27447557 3.1212523
0.48212937 0.17479901 3.0930715
0.43111572 0.078419141 3.0655396
0.3818047 -0.018236224 3.0191734
0.33258316 -0.099672198 3.0579681
0.28255573 -0.18330379 3.0925212
0.20751844 -0.31356245 3.1171
0.15850747 -0.40199679 3.1141756
0.10949115 -0.49035734 3.111721
0.059976529 -0.57900441 3.1127002
0.0091403453 -0.66872811 3.1209984
-0.044996873 -0.76137048 3.146281
-0.12361249 -0.90097874 3.1542757
-0.1821934 -1.0006275 3.1850162
-0.24451964 -1.1055962 3.22367
-0.26193962 -1.165903 3.0592775
-0.35944691 -1.3103589 3.2315619
-0.41662562 -1.4139321 3.2258735
-0.48055965 -1.5264152 3.2383337
-0.57231444 -1.6924876 3.2299511
-0.64057946 -1.8135853 3.2376292
-0.71488702 -1.9440315 3.253742
-0.78888083 -2.0757201 3.2596433
-0.65664375 -1.9264232 2.7622068
-0.88672394 -2.2736614 3.1327355
-0.88635272 -2.3030713 2.9625494
-0.89317387 -2.3544717 2.7409234
-1.0221735 -2.5700331 2.83056
-1.0474222 -2.6346197 2.7213671
-0.98715293 -2.5698948 2.4758277
-0.90610164 -2.4702272 2.2170515
-0.82687336 -2.3696918 1.9816818
-0.88077593 -2.4731255 1.9435111
-0.99485677 -2.6825843 1.9162266
-1.0319208 -2.7620599 1.8426987
-1.0205688 -2.7641153 1.715796
-1.0001405 -2.7506084 1.5848165
-0.99699324 -2.7643769 1.4749128
-0.98126698 -2.7569289 1.3573726
-0.98136079 -2.7839239 1.2054967
-0.96486425 -2.7737544 1.0955333
-0.60241473 -2.1767981 0.79419124
-0.44387817 -1.9395261 0.52732706
-0.24256712 -1.5988327 0.41159433
-0.25027227 -1.6202701 0.36843753
-0.24635799 -1.6213733 0.3223938
-0.24020402 -1.6184359 0.27647841
-0.22593491 -1.6127679 0.16353384
-0.21838909 -1.6234808 0.02610825
-0.18126152 -1.631081 -0.39438352
-0.17479643 -1.6289657 -0.44811365
0.24912815 -0.78918314 0.00035638723
0.27496597 -0.74347347 -0.0034534538
0.28255481 -0.7289288 0.0017779708
0.29128554 -0.7133801 0.0010632306
0.30207649 -0.69468701 -0.002808027
0.30751213 -0.68425059 0.0010337953
0.31475502 -0.67127913 0.00083860516
0.32155678 -0.6591022 0.00062578591
0.32746485 -0.64882398 -0.0012588527
0.33350548 -0.63807017 -0.0017986916
0.3413986 -0.62451106 -0.005304358
0.3471534 -0.61403805 -0.00453099
0.3504186 -0.60768896 -0.0017856391
0.35755435 -0.59542638 -0.0049393009
0.362589 -0.58629924 -0.0044712191
0.36525622 -0.58119667 -0.0027091617
0.37197235 -0.56954104 -0.0050377147
0.37438756 -0.56497854 -0.0037731221
0.37884873 -0.55696189 -0.003767048
0.38525766 -0.5457539 -0.0055101062
0.39165694 -0.53409511 -0.0046040537
0.3999179 -0.51942265 -0.0055516069
0.40399724 -0.51210046 -0.0055786348
0.41001314 -0.50111663 -0.0045701368
0.4161931 -0.49042729 -0.0068922867
0.42022172 -0.48316661 -0.0067527266
0.42433217 -0.47588378 -0.0073183659
0.4325538 -0.46116045 -0.0075642522
0.43681231 -0.45362812 -0.0082206503
0.44537839 -0.43830776 -0.0085844742
0.45182189 -0.42663333 -0.0080076866
0.45441207 -0.42225432 -0.0095461514
0.46622005 -0.40114999 -0.010113467
0.47109926 -0.39237273 -0.010025413
0.47846374 -0.37898853 -0.0091217812
0.48648623 -0.36455828 -0.0089773322
0.4924252 -0.35401869 -0.009673682
0.49842927 -0.34326386 -0.0098128626
0.50554335 -0.33083913 -0.011768829
0.52224398 -0.30063951 -0.010531257
0.53158081 -0.28442165 -0.013584935
0.54321384 -0.26322889 -0.011822123
0.55364859 -0.24484205 -0.013746629
0.56548256 -0.22406793 -0.01636464
0.57832736 -0.20144868 -0.018802049
0.5920527 -0.17567205 -0.012339578
0.61096233 -0.14277096 -0.018154899
0.63671029 -0.096770279 -0.019283261
1.4764231 1.283677 -0.73108077
1.4686162 1.2851015 -0.64385092
1.4394467 1.2505569 -0.54332477
1.4549645 1.289917 -0.47818047
1.4479122 1.2980043 -0.36094609
1.443615 1.3037843 -0.28469607
1.3996259 1.2411394 -0.19276005
1.4271243 1.3011328 -0.13246709
1.4248379 1.3098476 -0.060024407
1.4183503 1.3111389 0.013056251
1.4124565 1.3196741 0.12105894
1.4053649 1.319694 0.19307393
1.3878474 1.3008907 0.26439866
1.376505 1.2929862 0.33471617
1.3563825 1.2689431 0.4028326
1.3628112 1.2934099 0.47594348
1.3541566 1.2903628 0.54646218
1.3451557 1.2933623 0.65466517
1.3402582 1.2976654 0.72863656
1.3321837 1.2961836 0.80211949
1.328051 1.3024668 0.87952912
1.325408 1.3120077 0.96024871
1.3223608 1.3212456 1.0433539
1.3046476 1.3101777 1.1603731
1.4041898 1.5251743 1.3664163
1.3927513 1.5214823 1.4615184
1.3827337 1.5212878 1.5619851
1.3694023 1.5150601 1.6619459
1.3628064 1.5235735 1.7769451
1.3277335 1.4854318 1.9169412
1.3281527 1.5116869 2.0611086
1.2856263 1.4468164 2.1255805
1.2343856 1.3624582 2.1682415
1.2763691 1.4859384 2.4406028
1.2628019 1.4892204 2.5967224
1.22349 1.4548625 2.8010993
1.2110156 1.4675879 2.9995322
1.1353207 1.3295615 2.9867454
1.0643348 1.2004335 2.9765105
0.99819207 1.0810556 2.972285
0.93766534 0.97422183 2.9820292
0.8553921 0.83459419 3.0268753
0.79524624 0.724231 3.0127962
0.74280703 0.63541746 3.0424049
0.68932205 0.54224145 3.0579519
0.63589388 0.44761959 3.0647454
0.57334846 0.3093369 2.9171267
0.53305101 0.27043128 3.1057918
0.45547071 0.12842925 3.0896025
0.40510976 0.035325777 3.0738695
0.35567364 -0.053999234 3.070121
0.30633345 -0.14063174 3.0806239
0.25685966 -0.22723818 3.0926287
0.20692378 -0.31405368 3.1081376
0.15714413 -0.40191093 3.1161706
0.084053665 -0.53449577 3.107687
0.034054831 -0.623429 3.1118579
-0.016924929 -0.71353763 3.1193311
-0.070745081 -0.80644733 3.1397734
-0.12607072 -0.90190107 3.1610992
-0.18515263 -1.002095 3.1937187
-0.2482478 -1.1079262 3.2351646
-0.28510818 -1.2087051 3.0390704
-0.38526449 -1.3574159 3.2139378
-0.44589406 -1.4652575 3.2190096
-0.50999558 -1.5784582 3.2289917
-0.55290753 -1.6665553 3.1660125
-0.64249063 -1.8142534 3.2393699
-0.69259542 -1.9129047 3.1896639
-0.82498848 -2.1390131 3.253813
-0.65452486 -1.9349931 2.6785052
-0.90509444 -2.3127153 3.0839567
-0.89641851 -2.3296959 2.8998935
-0.9097501 -2.3764722 2.7705543
-1.0144982 -2.5566509 2.8140628
-1.0306638 -2.6075425 2.6901996
-0.82044041 -2.3165128 2.2036381
-0.93977129 -2.5306354 2.20309
-0.83520252 -2.3903456 1.9357456
-0.90708822 -2.5220804 1.9198856
-1.0325303 -2.7399387 1.9602255
-1.0359539 -2.76631 1.8457844
-1.0218587 -2.7640078 1.7158006
-1.0059872 -2.7674615 1.5352309
-1.0008982 -2.7778959 1.4245715
-0.9803074 -2.7621732 1.3045944
-0.97343642 -2.7685122 1.1990207
-0.95881754 -2.7614019 1.090917
-0.60360843 -2.1767378 0.79420853
-0.59864116 -2.1807599 0.72104281
-0.26476103 -1.6273633 0.46380219
-0.24123485 -1.5945083 0.41092372
-0.24547575 -1.621799 0.29951063
-0.23748717 -1.6235757 0.2083548
-0.22752143 -1.613623 0.163513
-0.22502775 -1.6253778 0.07167244
-0.22041608 -1.6252059 0.025831252
-0.19238399 -1.630528 -0.28880972
-0.18143278 -1.6241508 -0.36387065
-0.17139447 -1.6256337 -0.47412631
0.2530295 -0.78070438 -0.0015208668
0.26481655 -0.75945443 -0.00096644653
0.27527863 -0.74066728 -0.00089852477
0.28482008 -0.72355002 -0.00093606988
0.29563165 -0.70336473 0.0034909083
0.29961324 -0.69794184 -0.0062771654
0.30932003 -0.67963922 -0.0012909537
0.32327506 -0.65455651 -0.001105179
0.32915524 -0.64428914 -0.0027397871
0.3353734 -0.63303214 -0.002207628
0.33862951 -0.6269536 -0.00088888494
0.34418181 -0.6170277 -0.0011294298
0.35159063 -0.60423857 -0.0040349951
0.35687914 -0.59457904 -0.0031070306
0.35961539 -0.58939427 -0.0015691803
0.36640084 -0.57771516 -0.0044281576
0.37109941 -0.56921077 -0.0040483451
0.37560782 -0.56114596 -0.0042250017
0.38213459 -0.54960901 -0.0052652359
0.38434029 -0.54551017 -0.0044863871
0.38651577 -0.54144967 -0.0036179963
0.39275596 -0.53055441 -0.0053794226
0.40100354 -0.5158577 -0.0060339514
0.40706894 -0.50482392 -0.0052489601
0.41307139 -0.49396247 -0.0047998368
0.41522637 -0.49045134 -0.0068308567
0.42336515 -0.4759078 -0.0072575836
0.42747745 -0.4685694 -0.0075293463
0.43371293 -0.45742992 -0.0078714537
0.43781501 -0.44997719 -0.0073934263
0.44655773 -0.43445557 -0.0084150853
0.45106751 -0.42644227 -0.0089019546
0.455834 -0.41807291 -0.009978801
0.46551052 -0.40087149 -0.010973118
0.47258019 -0.38796243 -0.0097708832
0.47808373 -0.37826693 -0.01082483
0.48583165 -0.36416835 -0.0097752344
0.4924393 -0.35272181 -0.012125312
0.50030857 -0.3380754 -0.0092101963
0.50709689 -0.32604086 -0.01006896
0.52456844 -0.29458946 -0.0095775435
0.53355008 -0.27880967 -0.011504104
0.5422436 -0.26325256 -0.011768163
0.55604911 -0.23839617 -0.011327219
0.56661808 -0.21947306 -0.011579621
0.57989395 -0.19609997 -0.014122965
0.5971384 -0.1646737 -0.011413492
0.61337847 -0.13584834 -0.013191425
0.64003021 -0.08819887 -0.014158339
1.4770674 1.2933071 -0.69170493
1.4703968 1.2964685 -0.60628498
1.4640828 1.2998209 -0.52340299
1.4207721 1.2406129 -0.41904423
1.4455291 1.2954671 -0.36006188
1.4255202 1.2744316 -0.27618119
1.3931397 1.2377162 -0.15553647
1.4264289 1.3078687 -0.096588641
1.4200631 1.3094496 -0.023190595
1.4159052 1.3147901 0.049075879
1.4070855 1.3118123 0.12158614
1.4004943 1.3126853 0.19326939
1.3779556 1.2910658 0.29946572
1.3694316 1.2882017 0.36962095
1.3611755 1.2858058 0.4397088
1.3559917 1.2890955 0.51078385
1.3486176 1.2884443 0.58179224
1.3492233 1.3028467 0.65698248
1.3406148 1.3002316 0.72940248
1.3266299 1.2945565 0.83900023
1.3248265 1.305481 0.91895568
1.3200814 1.311175 0.99917299
1.3153768 1.3173958 1.0819564
1.3015623 1.3061385 1.1583105
1.4119439 1.5427308 1.376394
1.3827333 1.513315 1.5061643
1.3750896 1.5182778 1.6116318
1.2846618 1.3531617 1.5950938
1.3500385 1.5107588 1.8229533
1.3361119 1.5054631 1.9341359
1.3273906 1.5124172 2.0617812
1.2563047 1.3990744 2.1417363
1.2597647 1.4356992 2.3135822
1.2628993 1.4747357 2.5023546
1.2475107 1.4748933 2.6591761
1.2288234 1.470063 2.8212471
1.2073121 1.4614925 2.9908094
1.1289495 1.3167644 2.9671917
1.0336244 1.1500498 2.9912376
0.96997595 1.0363444 2.9937866
0.90901381 0.92770624 2.997741
0.85176635 0.8274976 3.0116789
0.79371995 0.72310811 3.0100882
0.74065059 0.63217872 3.0341141
0.6877985 0.5409469 3.0542285
0.60954016 0.40573335 3.0832992
0.54890251 0.2719323 2.941762
0.50564492 0.22191465 3.0975356
0.45423609 0.12744643 3.0847313
0.40396988 0.035026312 3.0719192
0.35476121 -0.056169517 3.0553064
0.30481663 -0.13915548 3.0925505
0.25499046 -0.22586197 3.107569
0.18112695 -0.35797414 3.1096201
0.13314323 -0.44627064 3.0969763
0.082164884 -0.53457236 3.1146595
0.032550845 -0.62352318 3.1148453
-0.018902697 -0.71396261 3.1252656
-0.074085414 -0.80793452 3.1535254
-0.15513194 -0.95034093 3.1702168
-0.21446551 -1.0515472 3.1996701
-0.26202139 -1.1425663 3.1673048
-0.32632619 -1.251413 3.2039735
-0.3880949 -1.3592815 3.2204618
-0.45426571 -1.4736739 3.2447066
-0.51384801 -1.5817189 3.238035
-0.59522116 -1.7354448 3.1940699
-0.67740577 -1.8748658 3.2392018
-0.74827057 -2.0014882 3.2419136
-0.83311623 -2.1484907 3.2711751
-0.7114262 -2.0120986 2.8083467
-0.88754338 -2.2864525 3.0431209
-0.88069153 -2.3193834 2.7874751
-0.94671071 -2.4421041 2.763118
-1.0345342 -2.5982504 2.7708921
-1.0393997 -2.632055 2.6291149
-0.83986282 -2.3549547 2.1723428
-0.96210682 -2.5632236 2.2344747
-0.84363359 -2.4017568 1.9459581
-0.92721081 -2.56198 1.8876201
-1.0477967 -2.7730269 1.9172443
-1.0300531 -2.7654326 1.7802401
-1.0118481 -2.7560353 1.6487459
-1.0023202 -2.759793 1.5308682
-0.98529792 -2.7505701 1.4103786
-0.97989911 -2.7597909 1.3034834
-0.97011501 -2.7612569 1.195959
-0.56259578 -2.0934455 0.83890527
-0.6047551 -2.183217 0.75885856
-0.2624923 -1.6257401 0.43965396
-0.23857197 -1.5920122 0.38772261
-0.24649203 -1.6218051 0.29952148
-0.24141742 -1.6207767 0.25383416
-0.23510285 -1.6174644 0.20848249
-0.23050566 -1.6212484 0.14040874
-0.22709568 -1.6231949 0.094782203
-0.21602501 -1.6193905 0.0039409343
-0.1880285 -1.6250027 -0.31196424
-0.18326402 -1.6257783 -0.36470479
-0.18021132 -1.6302787 -0.42114368
-0.17708299 -1.6350552 -0.47990978
0.25378403 -0.77700716 0.0013390686
0.26516598 -0.7565636 0.0014347465
0.27557734 -0.73784655 0.0016119931
0.28347379 -0.72423768 -0.0015850818
0.30208299 -0.6901716 0.0021748778
0.30829057 -0.6796391 -0.0012879031
0.3227413 -0.65339082 0.00044491916
0.32859093 -0.6431694 -0.0011472204
0.3345598 -0.6324954 -0.001390281
0.34217551 -0.61952007 -0.0053513465
0.34569216 -0.61259854 -0.0019130537
0.3510696 -0.60285532 -0.0014212357
0.35584518 -0.59457701 -0.0031069003
0.36084861 -0.58550346 -0.0026079668
0.36560884 -0.5769521 -0.0025950372
0.37227851 -0.56533653 -0.0046504834
0.37675816 -0.55729163 -0.0046554501
0.38109758 -0.54960567 -0.0052671377
0.38538748 -0.54195088 -0.0055533955
0.38962239 -0.53433794 -0.0055185813
0.39379695 -0.52677727 -0.0051674745
0.39585912 -0.52319825 -0.0058588698
0.39996555 -0.51585364 -0.0060368944
0.40196955 -0.51198697 -0.004528414
0.40599039 -0.50471658 -0.0042581363
0.41209948 -0.49401581 -0.0057990691
0.42022121 -0.47955406 -0.0065169013
0.42232695 -0.47590339 -0.0072607878
0.42842767 -0.46490985 -0.0070628007
0.43694282 -0.44984743 -0.0083749369
0.43925735 -0.44588634 -0.0094810314
0.44766715 -0.43055877 -0.0082266713
0.45196223 -0.4227325 -0.0075957021
0.45672449 -0.41434079 -0.0085049104
0.46421257 -0.40116858 -0.010059454
0.46664825 -0.39679563 -0.010066342
0.4718217 -0.38761228 -0.010670414
0.47952065 -0.37372142 -0.010301321
0.48542184 -0.36333567 -0.011487827
0.49324355 -0.34891137 -0.0093487352
0.49996203 -0.3371112 -0.010827072
0.50641549 -0.32553044 -0.010858616
0.52507466 -0.29232419 -0.012498194
0.53370053 -0.27704 -0.013623312
0.5490793 -0.25007424 -0.017218191
0.55332315 -0.24095631 -0.0087682046
0.57202142 -0.20953262 -0.020792557
0.58488125 -0.18523805 -0.013946942
0.60417819 -0.15189525 -0.021195203
0.62281919 -0.11912183 -0.025010966
1.4758425 1.2786574 -0.77335954
1.4688427 1.281635 -0.68562692
1.4621098 1.2845969 -0.60068709
1.4567084 1.2893764 -0.51897454
1.4390182 1.2797585 -0.39407545
1.4431856 1.2999395 -0.32232577
1.4126663 1.2607104 -0.2346881
1.3807316 1.218215 -0.15115863
1.4253418 1.3079019 -0.096597552
1.4194697 1.3103439 -0.023321532
1.4135075 1.318827 0.084983394
1.4084845 1.3225771 0.15704422
1.390066 1.3022797 0.22900152
1.3744552 1.2867229 0.29928637
1.370756 1.2926013 0.36995664
1.3629574 1.2910719 0.44032133
1.3563312 1.2917349 0.51118946
1.3436245 1.2877498 0.6174075
1.3426332 1.2992679 0.69249922
1.3347583 1.2980915 0.76563501
1.3322177 1.3072947 0.84335226
1.3281189 1.3139001 0.92218512
1.3215812 1.3161808 1.0013036
1.3100675 1.3169961 1.1225617
1.3448981 1.4024352 1.2522726
1.3940363 1.5186478 1.4108571
1.3870515 1.5242213 1.5131227
1.3755219 1.5213494 1.6137333
1.358894 1.5087157 1.7108606
1.335119 1.4934951 1.8658042
1.3244725 1.495519 1.9851359
1.3147112 1.5008181 2.1140063
1.2403027 1.3663698 2.1084573
1.2811702 1.4855691 2.3677871
1.2668542 1.4860229 2.515456
1.2330818 1.4627407 2.7262082
1.2288287 1.4933436 2.9422605
1.1749086 1.4084381 3.009011
1.0960559 1.2613604 2.9771426
1.0298806 1.1430626 2.9794087
0.96467078 1.0249763 2.9730814
0.90361178 0.91561633 2.9739928
0.82007068 0.77064806 3.0015647
0.76671034 0.67938584 3.0267136
0.7136696 0.5881623 3.0488405
0.66167182 0.49961782 3.075536
0.60975975 0.41074193 3.0994909
0.55552071 0.30955121 3.0774298
0.50415021 0.21856141 3.083945
0.45312268 0.12596202 3.0778847
0.37825564 -0.010680352 3.0645742
0.32917273 -0.098832972 3.0639329
0.27928117 -0.18326192 3.092541
0.23005623 -0.27079377 3.0968502
0.18151544 -0.35877421 3.0916867
0.13081746 -0.44613299 3.1119127
0.056690149 -0.57895237 3.1127183
0.0059850095 -0.6686095 3.1200268
-0.046639744 -0.76027077 3.1354728
-0.10004035 -0.85366154 3.1490104
-0.15806495 -0.95210081 3.1808996
-0.21915299 -1.0551207 3.2179613
-0.24177875 -1.1213505 3.0729651
-0.35943803 -1.3066654 3.2184672
-0.41590536 -1.4092556 3.2111049
-0.47987342 -1.5215952 3.2246921
-0.54459721 -1.636251 3.232852
-0.61260647 -1.7563859 3.2433553
-0.68753415 -1.886943 3.2651029
-0.76585966 -2.0237682 3.2858746
-0.86760348 -2.2108011 3.2602835
-0.88544559 -2.2671919 3.1224003
-0.89620942 -2.3123016 2.9765086
-0.86578268 -2.2967396 2.7558851
-0.97774261 -2.4862354 2.8199954
-1.0338082 -2.5959876 2.7680817
-1.0460148 -2.6536376 2.565908
-0.90219355 -2.4592643 2.2061758
-0.87221527 -2.4345446 2.0418642
-0.86868209 -2.4492218 1.9230179
-0.95170361 -2.5991788 1.917183
-1.0387155 -2.7573066 1.9056257
-1.0231271 -2.7530131 1.77177
-1.0098914 -2.7612031 1.5911807
-0.99876821 -2.7620277 1.4736725
-0.98874813 -2.7639921 1.3609071
-0.9833644 -2.773077 1.2549068
-0.97119737 -2.7703869 1.1466802
-0.60029554 -2.1741092 0.75601768
-0.43669218 -1.9165487 0.55279702
-0.25803277 -1.6163578 0.43793139
-0.24150364 -1.5954921 0.38820916
-0.23639548 -1.6140872 0.23110053
-0.23118231 -1.6126913 0.18606997
-0.2290158 -1.624971 0.094572835
-0.21746111 -1.6202867 0.0037658829
-0.18593022 -1.6240141 -0.33745661
-0.18185864 -1.6262991 -0.39172146
-0.17623824 -1.6258433 -0.44619936
0.24571502 -0.78995466 -0.00015550245
0.25728035 -0.76931775 -0.00083735975
0.2675412 -0.75110722 -0.0020068467
0.28015786 -0.72755969 0.0031033151
0.2851207 -0.72017777 -0.005552968
0.29616001 -0.69938815 -3.7369988e-05
0.30133912 -0.69128305 -0.0067987125
0.31090257 -0.67315012 -0.0013348699
0.3241854 -0.64941835 -0.0019966683
0.32804716 -0.64205545 0.00043456545
0.33595499 -0.62852758 -0.0033733386
0.34155339 -0.61852694 -0.0036712869
0.3448672 -0.61211663 -0.0010685212
0.35005751 -0.60285938 -0.0014304873
0.35712948 -0.59065866 -0.0042642266
0.36209753 -0.58161336 -0.0035705529
0.36884084 -0.56991631 -0.0059187757
0.37126505 -0.56533968 -0.0046601603
0.37784886 -0.55374408 -0.0059646228
0.38649777 -0.53814101 -0.0055858227
0.39690319 -0.51960784 -0.0064889779
0.40501311 -0.50482029 -0.0052630669
0.4090046 -0.49754989 -0.0047042058
0.41108081 -0.49401543 -0.0058105108
0.4151862 -0.48681664 -0.006812159
0.41930136 -0.47954899 -0.0075237746
0.42554352 -0.46851313 -0.0085357781
0.43165281 -0.45742178 -0.0078873951
0.43592036 -0.44984323 -0.0083877873
0.44234854 -0.43832168 -0.008541977
0.44664297 -0.43055287 -0.0082401177
0.45308259 -0.41879395 -0.0071694986
0.46318558 -0.40116012 -0.010073767
0.46806365 -0.392382 -0.0099863429
0.47325501 -0.38312623 -0.010376791
0.47879237 -0.37332416 -0.011188111
0.4868888 -0.35868216 -0.010625271
0.49287984 -0.34799182 -0.011017133
