# .PCD v0.7 - Point Cloud Data file format
VERSION 0.7
FIELDS x y z
SIZE 4 4 4
TYPE F F F
COUNT 1 1 1
WIDTH 1424
HEIGHT 1
VIEWPOINT 0 0 0 1 0 0 0
POINTS 1424
DATA ascii
0.33130363 -2.5776935 0.31367618
0.34411716 -2.5782738 0.38650969
0.35689402 -2.5692737 0.45912945
0.36962622 -2.5657063 0.53149903
0.38233823 -2.5605745 0.60375345
0.38868335 -2.5570495 0.63980043
0.40159398 -2.5589783 0.71319556
0.41415453 -2.5444582 0.7845909
0.42753708 -2.5528688 0.86066705
0.74528933 -8.9733047 2.6692376
0.83888441 -6.2417197 3.1994081
0.84226048 -5.7998786 3.2183583
0.86404985 -5.5953784 3.3420188
0.84165084 -4.9977922 3.2144983
0.87012637 -4.7441139 3.3761163
0.86350721 -4.3900776 3.3383548
0.86178124 -4.1048532 3.3284223
0.8361097 -3.6849601 3.1824293
0.8663184 -3.6532259 3.3539965
0.86007714 -3.4017513 3.3184438
0.85157728 -3.1575434 3.2700708
0.85189337 -2.9762809 3.2717977
0.8596918 -2.7567971 3.31601
0.8592515 -2.5940988 3.313453
0.8329013 -2.3388264 3.1637158
0.86220402 -2.3062689 3.3301272
0.85504246 -2.1421225 3.2894049
0.84898818 -1.9906937 3.2549787
0.84485155 -1.8525791 3.2314498
0.8473863 -1.6783684 3.2458017
0.84392822 -1.5542982 3.2261355
0.84450525 -1.4428993 3.2293882
0.84384441 -1.331738 3.2256134
0.84378767 -1.2241235 3.2252703
0.84506315 -1.1203021 3.2324944
0.80278397 -0.96881396 2.9923971
0.84747535 -0.8645587 3.2461491
0.82529157 -0.74952406 3.1201735
0.83730125 -0.65802139 3.1883521
0.83316797 -0.55888909 3.1648722
0.83051515 -0.46166143 3.1497998
0.4069331 -0.43872347 0.74501544
0.39319137 -0.41784292 0.6671809
0.39170152 -0.41066387 0.65878379
0.39068359 -0.40329912 0.65306586
0.3904618 -0.39489824 0.65186739
0.39084759 -0.38527557 0.65411747
0.39108995 -0.36607859 0.65561354
0.39376724 -0.34411627 0.67089874
0.39301845 -0.33539489 0.66670859
0.3910459 -0.32510415 0.65560341
0.3909184 -0.31996876 0.65490973
0.39133495 -0.30692706 0.6573332
0.3902787 -0.29291028 0.6514284
0.39045271 -0.27936912 0.65247494
0.38977402 -0.26216313 0.64871246
0.39018148 -0.24541192 0.65108293
0.3908008 -0.22613923 0.65465504
0.39170694 -0.20343842 0.65985364
0.62958795 1.6762722 2.0094478
0.60220867 1.6929992 1.8541251
0.58440024 1.7000091 1.7531039
0.56560349 1.6904119 1.6464823
0.54917139 1.6971496 1.5532769
0.53170544 1.6855662 1.454214
0.51702917 1.7007133 1.3709748
0.48937699 1.5271685 1.2141687
0.47408929 1.5042005 1.1274788
0.45452711 1.5102696 1.0165534
0.4434559 1.5503958 0.9537729
0.43065572 1.5543482 0.88119572
0.41576472 1.4918195 0.79678011
0.40459055 1.5295649 0.73342103
0.39235905 1.5334071 0.66407603
0.38005623 1.5287908 0.59433109
0.36821803 1.5606229 0.52721113
0.34980664 1.5584052 0.42284033
0.33747545 1.5711708 0.3529337
0.3251698 1.5664628 0.28318
0.31261668 1.5752014 0.21201877
0.30012032 1.5734265 0.1411849
0.28769019 1.5661504 0.070730425
0.27478328 1.5700495 -0.0024316686
0.25578186 1.5581968 -0.11012899
0.24364045 1.5371284 -0.17893496
0.23688838 1.4257104 -0.21712978
0.22600676 1.3944187 -0.27878201
0.25099373 0.65310037 -0.13653056
0.24218445 0.65447068 -0.18643597
0.27907208 0.16324888 0.023158468
0.27073869 0.18639305 -0.024055216
0.27394718 0.11585613 -0.0057562259
0.27430275 0.073119327 -0.0036525149
0.27371353 0.040325515 -0.0069120466
0.27401865 0.0043162196 -0.0050970349
0.27392763 -0.026684981 -0.0055310158
0.27399021 -0.05644824 -0.0050940816
0.27340147 -0.081040308 -0.008353848
0.27355611 -0.10787614 -0.0073958812
0.27366325 -0.13296281 -0.0067081763
0.27355281 -0.1558371 -0.0072553698
0.27362511 -0.17834066 -0.006766153
0.27263793 -0.20655178 -0.012249365
0.27296481 -0.22775467 -0.010316691
0.27314097 -0.24762605 -0.0092394203
0.27282879 -0.26550353 -0.010933085
0.27312213 -0.28436139 -0.009191501
0.27322292 -0.30216858 -0.0085427305
0.27311519 -0.31909263 -0.009077169
0.27311891 -0.3358584 -0.0089793783
0.2732321 -0.35244191 -0.0082609411
0.27294308 -0.36819571 -0.0098241176
0.27309397 -0.3842743 -0.0088921217
0.27299234 -0.40768081 -0.0093546258
0.27287149 -0.42311087 -0.0099641494
0.27284467 -0.43851829 -0.010040603
0.27291143 -0.45388412 -0.0095862951
0.27272406 -0.46922421 -0.010573452
0.27262995 -0.48462483 -0.011031642
0.27262968 -0.50006711 -0.010957829
0.27255124 -0.51565379 -0.011327241
0.27261421 -0.53916389 -0.010857176
0.27260786 -0.555103 -0.010817911
0.27253368 -0.57137483 -0.011163305
0.27223054 -0.5883348 -0.012807064
0.27237135 -0.60492516 -0.011933343
0.27213091 -0.62263221 -0.01322161
0.27224091 -0.64909106 -0.012484862
0.27199394 -0.66819984 -0.013809988
0.27173206 -0.68808019 -0.015219522
0.27161926 -0.70830649 -0.015783601
0.27076611 -0.73193234 -0.020545568
0.27201429 -0.76014662 -0.013355051
0.27174932 -0.78423113 -0.014781605
0.27141142 -0.81000072 -0.016621429
0.27102861 -0.83756632 -0.018715791
0.27211875 -0.8734628 -0.012421131
0.27170035 -0.9055981 -0.014716663
0.27087069 -0.9427647 -0.019343315
0.096262701 -2.3900993 -1.0088948
0.095632076 -2.5420387 -1.0123649
0.0949421 -2.710705 -1.0161693
0.14982554 -2.614058 -0.70481908
0.22801569 -2.5975654 -0.26116088
0.26261851 -2.6041601 -0.064815864
0.2899088 -2.5919871 0.090027198
0.30322984 -2.5846107 0.16560876
0.32927147 -2.5726802 0.31336311
0.34210137 -2.565268 0.38615537
0.36122558 -2.5653234 0.49465838
0.37397352 -2.5624871 0.56698245
0.38663188 -2.5531082 0.6387912
0.39944822 -2.5511055 0.71150225
0.41882452 -2.5466335 0.82143116
0.73944253 -8.8693628 2.6398821
0.69657439 -4.9656806 2.3966928
0.84832734 -6.1127973 3.257237
0.84632927 -5.6354065 3.2459273
0.8713001 -5.4739084 3.387547
0.85709864 -4.9732466 3.3070531
0.86470759 -4.7085266 3.3502352
0.85992706 -4.3713579 3.3231702
0.857844 -4.0850887 3.3114042
0.85126048 -3.6783574 3.2741482
0.86730707 -3.556639 3.3651865
0.86338162 -3.3261108 3.342983
0.85706258 -3.0997403 3.3072093
0.85291195 -2.900116 3.2837324
0.8556065 -2.7442808 3.2990699
0.85605729 -2.5862787 3.301686
0.83650947 -2.358228 3.1909096
0.8599121 -2.2322085 3.3236985
0.85346168 -2.0744927 3.2871878
0.84883785 -1.9306699 3.2610347
0.84609371 -1.7987487 3.2455399
0.84349287 -1.6724887 3.2308586
0.84192622 -1.5532315 3.2220416
0.84314018 -1.4432632 3.228992
0.84368807 -1.2800909 3.2321994
0.84344876 -1.1730063 3.2309101
0.84523898 -1.0703477 3.2411294
0.80209237 -0.92282397 2.9965456
0.8448441 -0.86392701 3.2390275
0.82935035 -0.75319761 3.1512425
0.83462435 -0.65786052 3.1812165
0.83064556 -0.55900049 3.1587248
0.40448833 -0.43322471 0.74248463
0.39094919 -0.42251787 0.66583294
0.38950017 -0.41089472 0.65770686
0.38831452 -0.40380478 0.65104395
0.38799083 -0.38684151 0.64932913
0.38873821 -0.38088322 0.6535973
0.38923892 -0.36081564 0.65655732
0.39137271 -0.33975852 0.66874754
0.39044395 -0.33158123 0.66354132
0.38943058 -0.32927099 0.65782487
0.38844988 -0.31589529 0.65235406
0.38868356 -0.30337155 0.65373933
0.38800615 -0.28769791 0.64998829
0.38856265 -0.27877134 0.6531741
0.38814038 -0.26021218 0.65086967
0.38853619 -0.24338301 0.65317422
0.38865325 -0.21848552 0.6539281
0.64362133 1.7178289 2.0999901
0.61827666 1.6812963 1.9563253
0.59812069 1.6746556 1.8420838
0.58022434 1.6795609 1.7406552
0.56214523 1.6756036 1.6381892
0.54644209 1.6891254 1.5491964
0.52286369 1.6998267 1.4155706
0.50829011 1.7152877 1.332981
0.48116854 1.538976 1.1792343
0.46759552 1.5418772 1.1023175
0.45262778 1.5131036 1.017491
0.44139615 1.5503658 0.95384949
0.42819804 1.5445799 0.87905645
0.41448906 1.5153588 0.80136621
0.39648905 1.5357451 0.69936454
0.38423643 1.5383666 0.6299302
0.37193891 1.5325222 0.56024063
0.36001894 1.5671633 0.49268913
0.34770769 1.5694083 0.42291927
0.33536029 1.5731766 0.35294327
0.32291913 1.578444 0.28243443
0.30435801 1.5701798 0.17724085
0.29214436 1.5572808 0.10802108
0.2791076 1.5694413 0.03412991
0.26644245 1.5641783 -0.037653435
0.25357863 1.5601541 -0.11056485
0.25197873 1.3401502 -0.11957125
0.2372684 1.3841338 -0.20296136
0.23030902 1.298285 -0.24237801
0.20853503 1.3372707 -0.36581156
0.25436839 0.68948048 -0.1057547
0.2486228 0.65668637 -0.1382895
0.23623978 0.64872533 -0.20845038
0.27619997 0.17081238 0.018342512
0.27230224 0.15691687 -0.0037110385
0.27266434 0.11027974 -0.0015977458
0.2728397 0.069247112 -0.00054437673
0.27216414 0.037319697 -0.0043184641
0.27213663 0.0035974914 -0.0044161449
0.27242246 -0.029501589 -0.0027364949
0.27103531 -0.065417893 -0.010519241
0.27206862 -0.084310018 -0.0046281274
0.27119115 -0.11862022 -0.0095196888
0.27111566 -0.14237639 -0.0098902797
0.27094504 -0.16461241 -0.010800864
0.27109602 -0.18704593 -0.0098868087
0.27127308 -0.2085444 -0.0088248746
0.27130902 -0.22868669 -0.0085636741
0.27133846 -0.24805802 -0.0083393399
0.27134973 -0.26671809 -0.0082182121
0.27133206 -0.28473079 -0.0082614059
0.27143869 -0.302506 -0.0075992057
0.27091244 -0.32705432 -0.010499322
0.27134579 -0.33613062 -0.0080122137
0.27114081 -0.3603178 -0.0090896655
0.27107489 -0.37625429 -0.0094066812
0.27093729 -0.39193267 -0.010130491
0.27124098 -0.40780196 -0.0083505148
0.27112445 -0.42319793 -0.0089549497
0.27092832 -0.43851867 -0.010010951
0.27098197 -0.46154678 -0.0096213669
0.27098849 -0.46920848 -0.0095559675
0.27080095 -0.49230963 -0.010534837
0.27067843 -0.50785327 -0.011173339
0.27082348 -0.52334023 -0.010293611
0.27072135 -0.53916824 -0.010816516
0.27054882 -0.55531573 -0.011738723
0.27065206 -0.5795694 -0.011068013
0.2705735 -0.59633136 -0.011457278
0.27044174 -0.61358845 -0.0121483
0.27042702 -0.63105631 -0.012175241
0.2702122 -0.64949 -0.013337675
0.2706055 -0.67635065 -0.011021137
0.27010408 -0.69722342 -0.013809969
0.27006525 -0.71754885 -0.013973987
0.26944479 -0.74081618 -0.017438365
0.26944679 -0.76295382 -0.017370595
0.26934373 -0.78659421 -0.017899027
0.27009442 -0.82026225 -0.013554714
0.26994607 -0.84731245 -0.014340339
0.26965377 -0.87688679 -0.015942741
0.26926097 -0.9091484 -0.018115543
0.27028212 -0.95202613 -0.012236344
0.092095628 -2.2745423 -1.0233511
0.091628566 -2.4133265 -1.0259534
0.097366385 -2.5929208 -0.99331903
0.097450033 -2.7613721 -0.99279636
0.12696858 -2.6559892 -0.82522643
0.2192729 -2.5955634 -0.30109543
0.23282304 -2.6093953 -0.22414017
0.26122791 -2.5963936 -0.062821999
0.30155295 -2.5816464 0.16621059
0.33381107 -2.5882866 0.34943843
0.34668764 -2.5805888 0.42258018
0.35943696 -2.5673113 0.4950006
0.37206161 -2.5544896 0.56671447
0.39114311 -2.549926 0.67511261
0.40421349 -2.5565016 0.74935281
0.41701999 -2.5485597 0.82209527
0.67767698 -4.9574814 2.3017869
0.84138715 -6.0591116 3.2310255
0.85167372 -5.7139044 3.2894652
0.86958063 -5.4788213 3.3911529
0.86268711 -5.0426364 3.3520887
0.85875624 -4.6779914 3.3298388
0.8665269 -4.2978559 3.3740296
0.8441506 -3.8798995 3.2470951
0.85118651 -3.6922631 3.287086
0.86103189 -3.5326784 3.3430223
0.8554666 -3.2946312 3.3114972
0.85192925 -3.0848045 3.2914817
0.84928674 -2.893477 3.2765448
0.85043418 -2.7311401 3.2831175
0.85953623 -2.5324268 3.3348665
0.84483188 -2.327198 3.2514749
0.85536933 -2.2242742 3.3113401
0.84751165 -2.0626519 3.2668064
0.84591436 -1.928653 3.2578032
0.84268892 -1.7955916 3.2395594
0.84023184 -1.6699479 3.2256768
0.84154415 -1.500523 3.2332189
0.840922 -1.3879313 3.2297509
0.83988106 -1.2774179 3.2239065
0.84097403 -1.1725739 3.2301733
0.84225142 -1.0693258 3.2374871
0.79708683 -0.91987199 2.9812217
0.84047252 -0.86206889 3.2275202
0.8348195 -0.75772464 3.1955018
0.83162344 -0.60839617 3.1774611
0.82908225 -0.51037198 3.1631045
0.40239134 -0.43328953 0.74159771
0.39057896 -0.42109349 0.67467731
0.38859263 -0.41409776 0.66346437
0.3874186 -0.41108614 0.65683144
0.38688734 -0.3987155 0.65390742
0.38624442 -0.38651717 0.6503498
0.38646355 -0.3723748 0.651685
0.3878012 -0.35463732 0.65936881
0.38945672 -0.33974263 0.66882652
0.38822198 -0.33250463 0.66187984
0.38710326 -0.32510886 0.65559155
0.38638809 -0.31641072 0.65159398
0.38676822 -0.30335718 0.65381318
0.38622922 -0.28708225 0.65084672
0.3862159 -0.27407116 0.65083307
0.38586 -0.25484717 0.64890641
0.38632026 -0.23723409 0.65158153
0.38721624 -0.21559496 0.65673023
0.6395092 1.7037346 2.0890839
0.61539382 1.6757145 1.95228
0.59548169 1.6705849 1.8393351
0.57084179 1.695801 1.6995963
0.5527482 1.6890087 1.5969728
0.53706491 1.7007985 1.5080318
0.52054083 1.697158 1.414317
0.50395906 1.6849573 1.320273
0.4787277 1.5334122 1.1771135
0.46581835 1.5466379 1.1039166
0.45078164 1.5169574 1.0186383
0.4331542 1.5575559 0.91870344
0.41985112 1.5465132 0.84326786
0.40687987 1.5355719 0.76971591
0.3944461 1.5347675 0.69921637
0.38218752 1.5363868 0.62971199
0.35802251 1.5681654 0.49270841
0.33955094 1.5701011 0.38797787
0.32723883 1.5676311 0.31816977
0.3149038 1.5656774 0.24823181
0.30227363 1.5751313 0.17662187
0.28984523 1.569119 0.10615368
0.27703935 1.5723689 0.033545591
0.26428309 1.5690302 -0.03878215
0.25211358 1.5495056 -0.1077839
0.24739154 1.389856 -0.13455489
0.22992299 1.3699183 -0.23359627
0.2225977 1.2926923 -0.27512127
0.25011697 0.666435 -0.11897849
0.2439035 0.64036977 -0.154183
0.27515289 0.16324715 0.023189321
0.2734361 0.11041325 0.013525674
0.26947114 0.099503554 -0.0089163361
0.26945627 0.060882159 -0.0089492174
0.26923174 0.026686072 -0.010170937
0.2699281 -0.010534418 -0.0061677308
0.26947963 -0.038513325 -0.0086589064
0.26953325 -0.067442462 -0.0083011854
0.26957557 -0.094528742 -0.0080070831
0.269577 -0.11986838 -0.0079448242
0.26936895 -0.14298086 -0.0090706842
0.26949006 -0.16630672 -0.0083287582
0.26965138 -0.18865228 -0.0073585375
0.26983818 -0.21006079 -0.0062435931
0.26973003 -0.22964185 -0.0068020117
0.2696093 -0.24851243 -0.007431725
0.26978195 -0.26754755 -0.006396608
0.26976925 -0.28549588 -0.0064131459
0.26940727 -0.31082284 -0.0083837062
0.26919433 -0.32736224 -0.0095361704
0.26925606 -0.34405708 -0.0091303242
0.26925707 -0.36033303 -0.0090688905
0.26936167 -0.37646028 -0.0084195547
0.2692253 -0.39210418 -0.0091377636
0.26935768 -0.4078168 -0.0083308201
0.26924127 -0.42321265 -0.0089356536
0.26898217 -0.44620538 -0.010322616
0.26909918 -0.46156126 -0.0096031306
0.26896214 -0.47691703 -0.01032532
0.26891854 -0.49232388 -0.010517511
0.26896879 -0.50776291 -0.010177058
0.26876956 -0.52349335 -0.011252484
0.26866859 -0.5393557 -0.011770534
0.26878887 -0.56323934 -0.011005818
0.26860324 -0.57984173 -0.012004748
0.26869258 -0.59634489 -0.011443253
0.26839709 -0.6139273 -0.013066032
0.26838481 -0.63142788 -0.013081787
0.26801297 -0.65028453 -0.015138498
0.26825845 -0.67767853 -0.013665262
0.26791912 -0.69817513 -0.015538327
0.26788673 -0.71856147 -0.015669603
0.26827487 -0.74913114 -0.013388471
0.26820591 -0.77186662 -0.013728455
0.26818246 -0.79556912 -0.013810726
0.26754576 -0.82342082 -0.017374488
0.26754892 -0.84994859 -0.01730703
0.2684226 -0.88808233 -0.012274538
0.26815051 -0.92050081 -0.013771714
0.26794913 -0.95501012 -0.014868516
0.094869912 -2.3070104 -0.99741983
0.094364904 -2.4500527 -1.0002849
0.093071394 -2.6144991 -1.0076336
0.09973187 -2.7240839 -0.9698264
0.12970991 -2.6109793 -0.7996152
0.17086653 -2.6140025 -0.56593508
0.18705145 -2.6063046 -0.47403589
0.21694227 -2.6050317 -0.30431098
0.25958437 -2.5934808 -0.062171772
0.29314756 -2.5866885 0.1284188
0.30622271 -2.5858777 0.20266716
0.33217862 -2.5693049 0.35006651
0.34494328 -2.5685952 0.42255238
0.35773256 -2.5733132 0.49517524
0.3767297 -2.5566058 0.60305971
0.38953507 -2.5558867 0.67579144
0.40242663 -2.5545316 0.74900234
0.41558796 -2.5573997 0.82374156
0.67306077 -4.9151444 2.2839942
0.83327615 -6.4942002 3.1924367
0.8388291 -6.0457578 3.2241964
0.84295005 -5.6378226 3.2478118
0.8619082 -5.4188318 3.3555307
0.87862486 -5.020721 3.4506345
0.86047763 -4.5506082 3.3479235
0.86203712 -4.2758112 3.3569431
0.82531917 -3.7611766 3.148881
0.84941179 -3.6908 3.2856636
0.85610443 -3.5125608 3.323765
0.84840351 -3.2640905 3.2802286
0.85453904 -3.0152256 3.3152232
0.85173517 -2.8274593 3.2994449
0.85353929 -2.6711094 3.3097982
0.85095334 -2.5043523 3.2952471
0.84756881 -2.3435743 3.2761619
0.85031301 -2.2124639 3.2918365
0.84495527 -2.0597808 3.2615521
0.83993006 -1.9159789 3.2331502
0.84308207 -1.7406312 3.2511811
0.84020901 -1.6156394 3.2349815
0.83986753 -1.5005677 3.2331409
0.83742368 -1.3845775 3.2193723
0.8366915 -1.2749841 3.2153122
0.838103 -1.1709292 3.2234118
0.83274466 -1.0598089 3.1931052
0.79947144 -0.92409003 3.0044327
0.83817488 -0.81113899 3.2241359
0.83271319 -0.70798779 3.1932387
0.82938594 -0.60829568 3.1744499
0.82701337 -0.51039499 3.1610768
0.40058661 -0.42755207 0.74201214
0.38830274 -0.42599338 0.67237991
0.38663977 -0.42298156 0.66297543
0.38537094 -0.40695736 0.65589857
0.38519377 -0.40283343 0.65492386
0.38425571 -0.39115858 0.64969289
0.38419724 -0.37782544 0.64945292
0.38686961 -0.3522101 0.6647386
0.38741821 -0.34019396 0.66791296
0.38633913 -0.33251762 0.66185164
0.3853704 -0.32462189 0.65641642
0.3849268 -0.30912295 0.653992
0.38453624 -0.29872608 0.65183759
0.3844845 -0.28649378 0.65160602
0.3840189 -0.26878563 0.64905739
0.38423455 -0.2535226 0.65034384
0.38481152 -0.23516409 0.65368104
0.38593599 -0.21201266 0.66012579
0.63565522 1.6887019 2.0775902
0.60624433 1.6958839 1.9108233
0.58591264 1.6844075 1.7955309
0.56756783 1.6820357 1.6915139
0.55073088 1.687211 1.596054
0.53379327 1.6847153 1.5000209
0.51831591 1.6925834 1.4122758
0.49768934 1.625087 1.2952957
0.47661009 1.5296427 1.1757393
0.45869538 1.5735878 1.0742086
0.44360638 1.5416057 0.98865628
0.43118832 1.5555888 0.91827118
0.41778517 1.541599 0.84228915
0.40474969 1.5276726 0.76839352
0.3924326 1.529798 0.69857872
0.38030922 1.5373659 0.62986493
0.34995893 1.5680878 0.45784897
0.33763546 1.5720956 0.38800058
0.3252984 1.5706251 0.31807384
0.31285045 1.5746442 0.24752031
0.30043745 1.5711656 0.17716335
0.28786603 1.5711024 0.10590905
0.26895329 1.5651749 -0.0012885345
0.25616291 1.5615289 -0.073784553
0.24528968 1.5157853 -0.13541827
0.23636553 1.4415406 -0.18600428
0.2282175 1.3661848 -0.2321876
0.25871643 0.75029057 -0.059316196
0.25819764 0.64476538 -0.062232215
0.24902417 0.65656835 -0.11420452
0.24017735 0.65981871 -0.16432607
0.27008563 0.16686474 0.0053519071
0.26804802 0.13793749 -0.0061551719
0.2680867 0.095579691 -0.0058888281
0.26809561 0.057068326 -0.005790161
0.26835883 0.020014063 -0.004248464
0.26861301 -0.014114467 -0.0027570534
0.26831082 -0.042664435 -0.0044198316
0.2682603 -0.070770912 -0.0046548424
0.26779053 -0.095153734 -0.0072667794
0.26704609 -0.12933996 -0.011409279
0.26706097 -0.15295754 -0.011271819
0.2669751 -0.17506127 -0.011705316
0.26706174 -0.19681172 -0.011160167
0.26716459 -0.21768196 -0.010522824
0.26727039 -0.2377238 -0.009868402
0.26752409 -0.25741649 -0.0083748605
0.26760197 -0.27594373 -0.0078784535
0.26732385 -0.29310769 -0.0094006201
0.2674886 -0.31080252 -0.0084109223
0.26744148 -0.32763413 -0.008622746
0.26750472 -0.3442952 -0.008208585
0.26750699 -0.36053702 -0.0081399642
0.26719078 -0.38409245 -0.0098494673
0.26747707 -0.39223921 -0.0081978766
0.26710865 -0.41533753 -0.010203436
0.26721126 -0.43084615 -0.0095653208
0.26706135 -0.44618294 -0.010359359
0.26717809 -0.46153864 -0.0096410345
0.26704061 -0.47689411 -0.010364375
0.26682338 -0.49237034 -0.011540152
0.26687381 -0.50784397 -0.011197908
0.26704085 -0.53115106 -0.010165879
0.26698744 -0.5470199 -0.010412457
0.26686481 -0.56321508 -0.011051605
0.26667851 -0.57981718 -0.012051848
0.26668683 -0.60492051 -0.01192029
0.26677611 -0.62194395 -0.011357554
0.26649639 -0.64022344 -0.012887923
0.26634654 -0.65880305 -0.013681738
0.26617378 -0.67809081 -0.01460552
0.26598945 -0.69814879 -0.015595059
0.26614618 -0.72832471 -0.014622414
0.26605192 -0.75019342 -0.015101528
0.26584637 -0.77355999 -0.016211793
0.26597115 -0.7967453 -0.015448846
0.26534021 -0.82465142 -0.018972564
0.26627934 -0.86033601 -0.013563406
0.2658596 -0.89152712 -0.015889928
0.26488337 -0.92838407 -0.021373602
0.26671132 -0.96794403 -0.010924173
0.090201244 -2.3258102 -1.0121365
0.089293495 -2.4734006 -1.0172493
0.089104705 -2.630137 -1.0182865
0.11701594 -2.6283174 -0.8598991
0.13574655 -2.6156032 -0.75360793
0.18551718 -2.5988705 -0.47115791
0.21561427 -2.5926838 -0.30034757
0.29131526 -2.578747 0.12929761
0.3042942 -2.5808921 0.20296136
0.33653629 -2.5772736 0.3859562
0.34933349 -2.5712867 0.45858911
0.36209574 -2.5677299 0.53102273
0.37483776 -2.5626073 0.6033414
0.3875837 -2.5569093 0.67568135
0.40678862 -2.54847 0.78469503
0.42007107 -2.5529544 0.86008573
0.84452009 -6.3851256 3.2666521
0.84781325 -5.9310527 3.2854795
0.85869652 -5.2162418 3.347465
0.86173946 -4.8924632 3.3648512
0.85192049 -4.4974537 3.3093212
0.8508212 -4.2067022 3.3032148
0.81971931 -3.7353532 3.1270216
0.86336851 -3.6771162 3.3746438
0.85783988 -3.4283929 3.343416
0.85199285 -3.1968875 3.31038
0.84740376 -2.9885523 3.2844729
0.84835881 -2.8201325 3.2899954
0.84984618 -2.6629074 3.2985344
0.82558787 -2.409339 3.1611087
0.85062963 -2.3617704 3.3031857
0.85048425 -2.1505687 3.3025162
0.84490669 -2.0000517 3.2709963
0.84188873 -1.8644089 3.2539871
0.84070915 -1.739211 3.2474005
0.83573294 -1.6094726 3.2192872
0.83470225 -1.4935839 3.2135439
0.83535469 -1.3841579 3.2173431
0.83616084 -1.2237556 3.222064
0.83792394 -1.1207089 3.2321608
0.8080132 -0.98312372 3.0626674
0.8119027 -0.89018846 3.08482
0.83471096 -0.81010646 3.2142448
0.83062321 -0.70799685 3.1911674
0.826078 -0.60800362 3.1654963
0.8231799 -0.51036119 3.1491649
0.39964953 -0.43856061 0.74784917
0.39859712 -0.42757261 0.74196219
0.3858386 -0.42190281 0.66973621
0.38419345 -0.41469651 0.66048741
0.3831926 -0.40719634 0.65489209
0.38301441 -0.4030892 0.65392166
0.38262078 -0.39492959 0.65176982
0.38217598 -0.37783825 0.64940816
0.38579512 -0.3497836 0.6700936
0.38538879 -0.34020689 0.66787028
0.3837491 -0.32879621 0.65869337
0.38305345 -0.31999782 0.6548295
0.38273859 -0.30967858 0.65312546
0.38263229 -0.29816338 0.65260446
0.38216454 -0.28124326 0.65007484
0.38209689 -0.26815283 0.64977372
0.38191327 -0.24748406 0.6488567
0.38312474 -0.23308995 0.65577
0.38333842 -0.20639011 0.65710819
0.62442148 1.6968668 2.0249987
0.60318029 1.6868097 1.9046392
0.58383393 1.6835107 1.7950257
0.56494308 1.6759834 1.6879942
0.54779243 1.6775434 1.5908331
0.52514732 1.70254 1.4625696
0.50921732 1.7033609 1.3723302
0.47997889 1.5076225 1.2065549
0.46734792 1.5248054 1.1350275
0.45709133 1.5821248 1.0769794
0.441603 1.5435101 0.98922908
0.42840639 1.5400498 0.91448712
0.41523048 1.52985 0.83986026
0.39646095 1.5295377 0.73356402
0.38434243 1.5393418 0.66494119
0.37209648 1.5417268 0.59559321
0.36010906 1.5676053 0.52772117
0.34774348 1.5570933 0.45768982
0.33544496 1.5711019 0.38804954
0.32311222 1.5686361 0.31820855
0.30442354 1.5732303 0.21237613
0.29214561 1.562557 0.14284277
0.27943838 1.5661792 0.070881993
0.26651931 1.5700836 -0.0022793598
0.2538569 1.5625188 -0.073990494
0.24268124 1.5225356 -0.13728669
0.2355895 1.4149323 -0.17745949
0.22008909 1.3589928 -0.26524103
0.20979308 1.3242991 -0.32354778
0.24978136 0.72426754 -0.097067088
0.24636908 0.66108209 -0.11636113
0.23425204 0.65188962 -0.18494149
0.27288321 0.17026173 0.033973757
0.26772115 0.1677098 0.0047861449
0.26669618 0.13067162 -0.00096267188
0.26634806 0.091655076 -0.0028752184
0.26648974 0.052487198 -0.0020111832
0.26642925 0.017799858 -0.0022913744
0.26510355 -0.022414101 -0.0097077293
0.26514354 -0.052328385 -0.0094161509
0.26492554 -0.079044819 -0.010586002
0.26507089 -0.10596134 -0.0096960207
0.26489145 -0.12992711 -0.010646064
0.26504961 -0.15409032 -0.0096823368
0.26511356 -0.17668113 -0.0092519652
0.26505834 -0.19782777 -0.0094967075
0.2651647 -0.21863775 -0.0088253496
0.26542842 -0.23907223 -0.0072616753
0.26521528 -0.25740275 -0.0084006498
0.26529059 -0.27593014 -0.0079045473
0.2653341 -0.29381126 -0.0075882869
0.265172 -0.31078926 -0.0084375078
0.26488847 -0.3355608 -0.0099399704
0.26483268 -0.3519364 -0.010186309
0.26488164 -0.36817467 -0.0098387059
0.26503366 -0.38425371 -0.0089069735
0.26511481 -0.4000127 -0.0083768591
0.26494816 -0.41543001 -0.009251629
0.26487559 -0.43083414 -0.0095929606
0.26507038 -0.44624117 -0.0084186569
0.26484278 -0.46918854 -0.0096042007
0.26474947 -0.48455468 -0.010063513
0.2647498 -0.49996251 -0.0099920891
0.26467174 -0.51551485 -0.010364999
0.26468974 -0.53114009 -0.010193623
0.26446357 -0.54719979 -0.011406871
0.26433995 -0.5634293 -0.012038865
0.26451769 -0.5877685 -0.010928255
0.26432586 -0.60491031 -0.011947705
0.26408675 -0.62261766 -0.01323575
0.26380932 -0.64096254 -0.014741396
0.26397958 -0.65879339 -0.013708753
0.26384801 -0.68761325 -0.014355211
0.26403794 -0.7068398 -0.013212311
0.26362425 -0.72883052 -0.015492974
0.2636773 -0.75018448 -0.015127653
0.2631858 -0.77469814 -0.017851233
0.26406825 -0.80691218 -0.012752185
0.2635361 -0.83498526 -0.015708866
0.26338312 -0.86300391 -0.016516035
0.26322895 -0.89290822 -0.017331373
0.26356789 -0.93836826 -0.015322627
0.26364592 -0.97246408 -0.0148248
0.091553353 -2.3661344 -0.99114835
0.090996936 -2.5158215 -0.99432355
0.08979255 -2.6872191 -1.0011868
0.11380121 -2.6368973 -0.86497653
0.13452432 -2.6042416 -0.7474035
0.21947277 -2.6108782 -0.26544008
0.27558309 -2.5887196 0.052946132
0.28860414 -2.5965626 0.12682712
0.308355 -2.5904284 0.23890308
0.32136843 -2.5846567 0.31274942
0.33426908 -2.5772579 0.38595718
0.34708109 -2.5752683 0.4586587
0.35982412 -2.5667112 0.53097332
0.37263855 -2.5665691 0.60368651
0.37893853 -2.5590613 0.63942045
0.39173856 -2.5550516 0.71206135
0.40474787 -2.5553365 0.78588593
0.73869604 -9.001647 2.674752
0.6588487 -4.9939103 2.2251847
0.83530402 -6.2978444 3.2248147
0.84243828 -5.8929911 3.2656248
0.85277736 -5.5672092 3.3245475
0.84064204 -5.0677295 3.2561738
0.85452795 -4.8476 3.335129
0.85819381 -4.4160395 3.3563263
0.85732222 -4.1355634 3.3516543
0.82828224 -3.6921287 3.1873956
0.85916078 -3.6638627 3.3625524
0.85316199 -3.4134555 3.3287883
0.84618855 -3.177022 3.2894881
0.84461099 -2.9851887 3.2807477
0.84391183 -2.8093505 3.2769752
0.85257888 -2.60447 3.3263583
0.82446444 -2.3419774 3.1672139
0.8547017 -2.3124731 3.3387306
0.84587198 -2.1424885 3.2888553
0.84130913 -1.9957486 3.2631536
0.83778757 -1.8590715 3.2433479
0.83529842 -1.7309992 3.229389
0.83509582 -1.5557203 3.228457
0.83335501 -1.4396614 3.2187304
0.8328138 -1.3291546 3.2158008
0.83556896 -1.2262752 3.2315528
0.83581775 -1.1208646 3.2330968
0.79259396 -0.96835619 2.9882097
0.83877927 -0.91674101 3.2501459
0.81776309 -0.79966956 3.1311369
0.82812107 -0.65848225 3.1900425
0.82361412 -0.559205 3.1646156
0.8226741 -0.46197453 3.1594086
0.39692393 -0.43868706 0.74587017
0.38340905 -0.42641577 0.66939241
0.38178819 -0.41908166 0.66027462
0.38098267 -0.41131037 0.65577924
0.38008118 -0.39519605 0.6508112
0.37997201 -0.38653362 0.65026385
0.38013288 -0.37714607 0.65124768
0.38055012 -0.36685008 0.65368527
0.3833921 -0.34456283 0.66990829
0.38264358 -0.33587229 0.66573584
0.38163629 -0.33346123 0.66005981
0.38025147 -0.31589842 0.65235043
0.38038003 -0.30967212 0.65311557
0.38041779 -0.29758376 0.65340161
0.37994733 -0.28062204 0.65084165
0.38001075 -0.26686209 0.65127361
0.3798179 -0.24611537 0.65028852
0.3804397 -0.22686809 0.65388775
0.38111153 -0.20565446 0.65777117
0.62032777 1.6833148 2.0148821
0.59957099 1.6761829 1.897256
0.57423991 1.7007387 1.7537347
0.55550641 1.6920359 1.6475779
0.53872031 1.6952852 1.5524657
0.52170593 1.6890715 1.4560559
0.50678021 1.7015449 1.3714932
0.47924456 1.529882 1.21538
0.46369094 1.5032007 1.1272455
0.45523444 1.589739 1.0793827
0.43322128 1.5532486 0.95464939
0.41988522 1.5445659 0.87909204
0.40607467 1.512401 0.80083781
0.39422038 1.5305254 0.73368829
0.38191041 1.5314004 0.66395009
0.36988384 1.5447134 0.59582162
0.35783851 1.5656047 0.52758813
0.33937052 1.5604016 0.42296016
0.3270371 1.5701727 0.35308927
0.31469467 1.5684639 0.28316444
0.30219471 1.5732226 0.21234727
0.2897284 1.5704709 0.14171889
0.2772204 1.5661699 0.070853531
0.26434338 1.5690953 -0.0021031806
0.2515243 1.5654188 -0.074733034
0.23381479 1.5247301 -0.17507167
0.22912522 1.3803589 -0.20163362
0.22125508 1.3085636 -0.24621503
0.206448 1.3399348 -0.33011091
0.24595639 0.69039208 -0.10614888
0.2406764 0.652237 -0.13603349
0.23186985 0.65362591 -0.18590763
0.2639834 0.15691926 -0.0037092562
0.26309153 0.11986668 -0.0087084686
0.26342806 0.077021815 -0.0067426097
0.26304713 0.04260575 -0.0088434061
0.26322451 0.0072572161 -0.0077783451
0.26324245 -0.0245487 -0.007616322
0.26342297 -0.055069946 -0.0065321508
0.26309112 -0.081026644 -0.0083523942
0.26311404 -0.10723364 -0.0081606479
0.26294312 -0.13114458 -0.0090676388
0.26310933 -0.15525153 -0.0080627343
0.26318103 -0.17778459 -0.0075932574
0.26313326 -0.19887224 -0.0078008529
0.26309475 -0.21913694 -0.0079557607
0.2632075 -0.23908666 -0.0072526541
0.26254112 -0.26549461 -0.010935059
0.2628369 -0.28435317 -0.0091935201
0.26277673 -0.30181879 -0.0094700642
0.26283428 -0.31908557 -0.0090789711
0.26267317 -0.33557615 -0.0099276071
0.26278684 -0.35219395 -0.0092178173
0.26283807 -0.3683984 -0.0088619068
0.26282105 -0.38426954 -0.0088928239
0.26290306 -0.40002868 -0.0083621191
0.26273727 -0.41544616 -0.0092363125
0.2625781 -0.43851548 -0.010039732
0.26264662 -0.45388192 -0.0095848944
0.26263455 -0.46920526 -0.0095868418
0.26254192 -0.48457158 -0.01004557
0.26254281 -0.49997959 -0.0099735567
0.26229298 -0.51565385 -0.011323357
0.26252934 -0.53899133 -0.0098823551
0.26252335 -0.55489677 -0.009848915
0.26228076 -0.57137692 -0.011156837
0.2619791 -0.58833748 -0.012799799
0.2616258 -0.60585505 -0.014735203
0.26188228 -0.62263596 -0.013212654
0.26199433 -0.64909577 -0.01247455
0.26190612 -0.6677826 -0.012906183
0.2616429 -0.68763208 -0.014329812
0.26061711 -0.71073627 -0.020077432
0.26067364 -0.73142427 -0.019687232
0.26137033 -0.78482717 -0.015561475
0.26079243 -0.83757585 -0.018696614
0.26065353 -0.86570001 -0.019412711
0.25827304 -0.92399126 -0.032802232
0.26099336 -0.94058245 -0.017304461
0.26085392 -0.9762578 -0.018021446
0.087115496 -2.3821218 -1.0029527
0.085242108 -2.5436864 -1.0134785
0.085604742 -2.7031689 -1.0113223
0.10630876 -2.6857688 -0.89383566
0.13313998 -2.5937645 -0.74161309
0.21784739 -2.5966341 -0.26080614
0.24590966 -2.595216 -0.10150576
0.29269922 -2.5975342 0.16412114
0.30590037 -2.5894578 0.23906471
0.31892952 -2.5806887 0.31303304
0.33176643 -2.5842841 0.38591415
0.34458482 -2.5722969 0.45868716
0.36368927 -2.5635018 0.56715071
0.37650639 -2.5630698 0.63992006
0.38932651 -2.5590432 0.71269989
0.40223461 -2.5553672 0.78597939
0.42119542 -2.5341659 0.89361966
0.72914428 -8.8761101 2.6419144
0.65524459 -4.9855962 2.2220533
0.82728094 -6.2421441 3.1983006
0.8268131 -5.7588 3.1956041
0.85244519 -5.5958142 3.3410265
0.84668541 -4.974894 3.3083189
0.85848618 -4.7445421 3.3752739
0.8516326 -4.3888984 3.3363888
0.84987956 -4.1037102 3.3264518
0.82597101 -3.6959145 3.1908152
0.8546133 -3.6536314 3.3533447
0.84675503 -3.3929536 3.3087838
0.84907711 -3.1130903 3.3220003
0.84660769 -2.9206536 3.308022
0.84682786 -2.75225 3.309305
0.84718889 -2.5932968 3.3113897
0.8229478 -2.3464477 3.1739023
0.85010934 -2.3055749 3.3280351
0.84141934 -2.1364772 3.2787764
0.83500624 -1.984467 3.2424366
0.838238 -1.8058963 3.2608359
0.83456492 -1.676358 3.2400434
0.8323766 -1.5553429 3.2276745
0.8318001 -1.4415945 3.2244499
0.82846391 -1.325914 3.2055707
0.83104587 -1.2231424 3.2202642
0.83264476 -1.1199366 3.2293811
0.79065317 -0.96890336 2.9912226
0.83468544 -0.86416161 3.2410741
0.81436825 -0.75043416 3.1258695
0.8253448 -0.65830564 3.1881819
0.82067925 -0.55906141 3.1617627
0.81905758 -0.46193317 3.1526105
0.39450213 -0.43306127 0.7445001
0.38090917 -0.42670664 0.66749424
0.37949306 -0.41488963 0.65955985
0.37866554 -0.40719894 0.65493131
0.37815174 -0.40357542 0.65204978
0.37765774 -0.38685384 0.64937818
0.37824029 -0.38122091 0.65271491
0.37872508 -0.36611155 0.65556186
0.38087922 -0.34020835 0.66790891
0.38025925 -0.33112347 0.66445684
0.37909234 -0.32928273 0.65787053
0.37811062 -0.31590703 0.65239877
0.37882242 -0.30750233 0.6564675
0.37791064 -0.29293993 0.6513918
0.37808442 -0.27939844 0.65244049
0.37753597 -0.26153558 0.64942437
0.37793931 -0.24475816 0.65177405
0.37867737 -0.22475308 0.656021
0.64018965 1.6901342 2.1390326
0.61143243 1.7088277 1.9759862
0.58839357 1.679653 1.845364
0.57010412 1.6812778 1.7416724
0.55306226 1.6877459 1.6450555
0.53631145 1.690907 1.5500904
0.51948434 1.6864088 1.4546951
0.50444263 1.6970078 1.3694211
0.47679985 1.523416 1.2127355
0.45624003 1.5239162 1.0961913
0.44295999 1.5245798 1.0209137
0.43112329 1.550365 0.9538132
0.41769335 1.5387307 0.87768918
0.4036895 1.4996477 0.79832059
0.39219332 1.5275671 0.73314899
0.38005656 1.5353724 0.66435122
0.36188912 1.549468 0.56136614
0.34975424 1.5651498 0.4925738
0.33745751 1.5623913 0.42287076
0.32514349 1.5681603 0.35306525
0.31279564 1.5684465 0.28306955
0.30028495 1.5741959 0.21214674
0.28784326 1.5704458 0.141619
0.26890531 1.5684297 0.034262128
0.25624821 1.5631713 -0.03748871
0.24343726 1.558187 -0.11011312
0.24077033 1.358285 -0.12508944
0.22725375 1.380313 -0.2017311
0.21832459 1.324386 -0.25230739
0.2043146 1.3435626 -0.33174855
0.24502669 0.67766267 -0.10036546
0.23738204 0.66734213 -0.1436739
0.26255438 0.20013601 -0.00042559468
0.26255772 0.15196955 -0.00031880115
0.26169202 0.11503967 -0.0051483
0.26172519 0.074655324 -0.0048755412
0.26158258 0.038796842 -0.0056024836
0.26154223 0.0050278455 -0.0057499651
0.26144746 -0.025998237 -0.0062074368
0.26163331 -0.056469299 -0.0050728605
0.26117635 -0.081718184 -0.0075881775
0.26147029 -0.10915731 -0.0058413651
0.26144698 -0.13358775 -0.0058963289
0.26027784 -0.16352704 -0.012417838
0.26056609 -0.18654908 -0.010705189
0.26043633 -0.2070774 -0.011365863
0.26061356 -0.22778085 -0.010284334
0.26063445 -0.24721447 -0.010090481
0.26063758 -0.26593783 -0.0099976799
0.26077306 -0.28438956 -0.0091539267
0.26087457 -0.30219737 -0.0085033281
0.26093262 -0.31943119 -0.0080993529
0.26093888 -0.33616424 -0.0079896105
0.26105434 -0.35271466 -0.0072602807
0.26093727 -0.36864319 -0.0078505268
0.26092023 -0.38448015 -0.0078732129
0.26082107 -0.40783587 -0.0083249956
0.26052877 -0.4231447 -0.0099098729
0.26067594 -0.43860519 -0.0090006674
0.26057005 -0.45391929 -0.0095275966
0.26055694 -0.46924272 -0.0095278295
0.26046336 -0.48460913 -0.0099848313
0.26023951 -0.50788772 -0.011143478
0.26020968 -0.52351385 -0.01123827
0.26044729 -0.53902924 -0.0098153232
0.26002854 -0.57165694 -0.012041608
0.25989449 -0.58837587 -0.012726982
0.25904521 -0.60682064 -0.017470231
0.25996464 -0.63109136 -0.012139403
0.25990623 -0.64913446 -0.012394334
0.25950241 -0.6686666 -0.014608798
0.25955293 -0.68767118 -0.014244893
0.25928652 -0.71858418 -0.01563932
0.25940457 -0.73926216 -0.014891005
0.25838539 -0.76522619 -0.020593498
0.25913495 -0.78545451 -0.016261145
0.25798357 -0.81497449 -0.022711759
0.25970814 -0.8460362 -0.012805863
0.25953013 -0.87487686 -0.013732166
0.25482258 -0.93181092 -0.040348489
0.25865391 -0.9420855 -0.018531015
0.083177589 -2.3966403 -1.0133605
0.082381696 -2.550385 -1.0177169
0.080600418 -2.7293129 -1.0276496
0.13760343 -2.6133056 -0.70402586
0.21574469 -2.5957515 -0.26018444
0.25004569 -2.6081254 -0.065314278
0.26397935 -2.5976119 0.013835565
0.29066128 -2.5896151 0.16541746
0.33595553 -2.5726037 0.42274916
0.34871992 -2.5703201 0.49527222
0.36157671 -2.5754454 0.5683251
0.37429491 -2.5660174 0.64058393
0.39368704 -2.5644009 0.75075233
0.40640771 -2.5524805 0.82301259
0.41901585 -2.537025 0.89463109
0.64675194 -4.9010115 2.1891408
0.83202904 -6.0794845 3.2417076
0.83970243 -5.7050362 3.2850637
0.85704511 -5.4649806 3.3833926
0.85030591 -5.0307722 3.3449035
0.84873074 -4.6860628 3.3357854
0.84614646 -4.3670244 3.3209565
0.84308434 -4.0738716 3.3034334
0.83212072 -3.7537398 3.2410443
0.85676223 -3.5721281 3.3808634
0.8502121 -3.3257794 3.3435743
0.84366268 -3.0980775 3.3063021
0.84098846 -2.9055822 3.291048
0.84250003 -2.743962 3.2995722
0.84394819 -2.5900767 3.3077416
0.82360321 -2.3584859 3.1921687
0.84229612 -2.2862206 3.2982681
0.83921194 -2.070308 3.2806985
0.83597589 -1.9308233 3.2622919
0.83246505 -1.7967615 3.2423294
0.82987064 -1.6706332 3.2275734
0.82749975 -1.5497167 3.2140901
0.82903457 -1.4406966 3.2227812
0.826038 -1.325672 3.2057507
0.83085901 -1.1732087 3.2330899
0.83215338 -1.0698595 3.2404199
0.78854758 -0.92187673 2.9928939
0.83195335 -0.86365199 3.2392526
0.82528692 -0.75826693 3.2014012
0.82211345 -0.65773576 3.1833763
0.81780404 -0.55874079 3.1589062
0.39201826 -0.43320733 0.74258375
0.37835962 -0.41820514 0.66521746
0.37719429 -0.41505957 0.65863389
0.37670228 -0.4113023 0.65587103
0.37567058 -0.39975914 0.65010417
0.37592518 -0.39057079 0.65160662
0.37575653 -0.37274212 0.65076518
0.37708554 -0.36496928 0.65833408
0.37912473 -0.34455329 0.66998833
0.37837896 -0.33586314 0.6658141
0.37697363 -0.32926527 0.65789825
0.37599382 -0.31589046 0.65242451
0.37573713 -0.29929629 0.65105236
0.37593657 -0.2923364 0.65221143
0.37624469 -0.27815166 0.65401405
0.37568656 -0.26020876 0.65093023
0.37621 -0.24269769 0.65395254
0.37632191 -0.21776325 0.65466642
0.63152122 1.7203066 2.1017056
0.60597128 1.6822067 1.9568015
0.58543456 1.6722598 1.8403277
0.56793392 1.6804913 1.7410712
0.55064273 1.6843374 1.6430067
0.53391874 1.6874256 1.5481622
0.51051873 1.6998817 1.4154587
0.49581933 1.7134945 1.3320971
0.46883118 1.5390124 1.1791334
0.4552657 1.5419075 1.1022155
0.44009942 1.5093024 1.0162388
0.42894527 1.5474871 0.95298064
0.41506553 1.524132 0.87429923
0.40175027 1.5026057 0.79882044
0.38411921 1.532775 0.69884843
0.37198117 1.5403517 0.63003069
0.35978583 1.5434868 0.56089133
0.34780079 1.5771441 0.49292478
0.33543131 1.5633911 0.42281017
0.32311863 1.5681579 0.35300559
0.31067604 1.5764227 0.28246182
0.29228437 1.5612149 0.17821117
0.27966705 1.5651466 0.10668031
0.26685068 1.5694013 0.034020372
0.25407085 1.5670576 -0.038427066
0.2422217 1.5407876 -0.10557657
0.23848779 1.3630544 -0.12657309
0.22060123 1.4578342 -0.22806287
0.21219181 1.2935938 -0.2755639
0.25312403 0.65223092 -0.042831551
0.24414308 0.66315138 -0.093731143
0.23215818 0.65447384 -0.16162771
0.2595371 0.20851599 -0.0058028991
0.2602838 0.15360118 -0.0014615796
0.26024148 0.11024117 -0.0016050335
0.26062906 0.067654468 0.00069000165
0.25845578 0.028151466 -0.01151374
0.25829306 -0.0040806741 -0.012348117
0.25867382 -0.037144557 -0.010098356
0.25858456 -0.065455377 -0.010518477
0.25834382 -0.091334857 -0.011799924
0.25873113 -0.11865711 -0.0095169721
0.25879166 -0.14300089 -0.0090901023
0.25876415 -0.16576734 -0.0091639021
0.25862321 -0.18708204 -0.0098821176
0.25879613 -0.2085802 -0.0088196667
0.25882804 -0.2287222 -0.0085580572
0.25885352 -0.24809326 -0.0083333887
0.25827539 -0.2744194 -0.011495448
0.25916117 -0.28551483 -0.0064287852
0.25846511 -0.31019029 -0.01026107
0.25841048 -0.32708839 -0.010492645
0.25846663 -0.34381664 -0.010095944
0.25863141 -0.36035129 -0.0090829358
0.25839147 -0.37609664 -0.010366724
0.25859201 -0.39212215 -0.0091512213
0.25837609 -0.40759075 -0.010298913
0.25842753 -0.42314312 -0.0099296635
0.25857401 -0.43860325 -0.0090212878
0.25810167 -0.4615784 -0.011585095
0.25830796 -0.47693416 -0.010337438
0.2584337 -0.49227118 -0.0095469756
0.25658038 -0.50882429 -0.019983051
0.25827563 -0.52337092 -0.010288758
0.25816971 -0.53919864 -0.010811967
0.25758344 -0.57213575 -0.013981709
0.25817445 -0.59606856 -0.010512159
0.25770849 -0.61394316 -0.0130765
0.25785396 -0.63108528 -0.012172638
0.24853198 -0.68202406 -0.064921051
0.25786617 -0.67681724 -0.011904722
0.2573629 -0.69772089 -0.014678379
0.25702178 -0.7190764 -0.016531883
0.2569949 -0.74031383 -0.016602706
0.25655699 -0.76409936 -0.019003564
0.25772673 -0.79438007 -0.012246305
0.25694093 -0.82280582 -0.01661744
0.25745833 -0.84668273 -0.013598671
0.25664809 -0.87895858 -0.018105561
0.25533617 -0.9327423 -0.025409739
0.078899831 -2.2769008 -1.0251727
0.084682375 -2.4387276 -0.9921484
0.083673596 -2.599577 -0.99768567
0.083404504 -2.7715714 -0.99901879
0.13529681 -2.6141398 -0.70462149
0.2064957 -2.5936928 -0.30044159
0.21988343 -2.6103721 -0.22441901
0.24811412 -2.6022606 -0.064150244
0.32104653 -2.5743201 0.34990069
0.3338438 -2.5736144 0.42255673
0.34662914 -2.5723348 0.49514407
0.35933948 -2.5634959 0.56730002
0.37855649 -2.5608735 0.67639655
0.39158785 -2.5634463 0.75039572
0.40444067 -2.5554626 0.82337552
0.83038712 -6.0823345 3.2426267
0.84043401 -5.732327 3.2994676
0.85633934 -5.4763036 3.3896079
0.84314513 -4.9839783 3.3145225
0.84287643 -4.6534662 3.3128695
0.84155226 -4.3464255 3.3052475
0.83043361 -3.873817 3.2420051
0.83919227 -3.6975105 3.291672
0.84763873 -3.529125 3.3395753
0.84206986 -3.2911992 3.3079283
0.83788264 -3.0781529 3.2841365
0.83601117 -2.8909445 3.2735002
0.83865881 -2.7354875 3.2885225
0.84511322 -2.5255783 3.3251591
0.83095968 -2.3228738 3.2448401
0.84147936 -2.2201855 3.3045595
0.83709514 -2.0699553 3.2796981
0.83183616 -1.9245952 3.2498779
0.83000779 -1.7956189 3.2395313
0.8273958 -1.6695828 3.2247419
0.82969004 -1.5022569 3.2378173
0.82809126 -1.3876444 3.2287853
0.82588398 -1.2752328 3.2163036
0.82797813 -1.172109 3.2282324
0.83010453 -1.0699674 3.2403464
0.78339863 -0.91884655 2.975373
0.82782078 -0.86208349 3.2274888
0.82285893 -0.7581563 3.1993878
0.82001412 -0.60872173 3.1833289
0.8159132 -0.51032919 3.1601171
0.38951805 -0.42766666 0.7410506
0.37791884 -0.42558792 0.67532426
0.37608105 -0.42268082 0.66493976
0.37495229 -0.41507509 0.65862095
0.37428164 -0.40284505 0.65494418
0.37333718 -0.39117002 0.64971405
0.37376174 -0.37681064 0.65225112
0.37482655 -0.35506687 0.65846306
0.37648115 -0.34020355 0.66793561
0.37555107 -0.3320578 0.66274428
0.37427443 -0.32513142 0.65558702
0.37370205 -0.31590331 0.65242517
0.37343797 -0.29930878 0.65105492
0.37338576 -0.28710446 0.65084374
0.37350333 -0.27346396 0.65159583
0.37300646 -0.2548691 0.64890426
0.37346315 -0.23725586 0.65157956
0.37447652 -0.21489723 0.65741247
0.62681425 1.703742 2.0890141
0.60238075 1.673293 1.950475
0.58218277 1.6656147 1.8359628
0.55820429 1.69666 1.7000353
0.5398441 1.6872599 1.59595
0.52440113 1.7016883 1.5084109
0.50764358 1.6953427 1.4134167
0.49126807 1.6858733 1.3205907
0.46613619 1.5362055 1.1781112
0.45280823 1.5428469 1.1025722
0.4378365 1.5140778 1.0177138
0.41955659 1.5391076 0.91411382
0.40635875 1.5279138 0.83931506
0.39376554 1.5257072 0.76794404
0.38160372 1.5337591 0.69901782
0.36960056 1.5492955 0.63098907
0.34522173 1.5731385 0.49281701
0.32671854 1.5680742 0.38794824
0.3143867 1.5686005 0.31805408
0.3021014 1.5626574 0.24842477
0.2896969 1.5621942 0.17811643
0.27712533 1.5641446 0.10685834
0.2640152 1.5772381 0.032540143
0.25145954 1.568014 -0.038626999
0.2403679 1.525313 -0.10147839
0.22842632 1.3882108 -0.16908936
0.20790124 1.5145837 -0.28552234
0.20879057 1.305622 -0.28034112
0.24590036 0.66114813 -0.069488861
0.23814988 0.65470445 -0.11339045
0.22874463 0.66416216 -0.16668844
0.25579157 0.19416592 -0.012817468
0.25633761 0.14273249 -0.0096218539
0.25633976 0.10024821 -0.0095154578
0.25675923 0.058540337 -0.0070405989
0.25642583 0.025155801 -0.0088411737
0.25688308 -0.010578406 -0.006153414
0.25680295 -0.04064171 -0.0065173679
0.25673386 -0.068825282 -0.0068191742
0.25637949 -0.093930662 -0.0087412214
0.2563712 -0.11929769 -0.0086986376
0.25643456 -0.14361393 -0.0082499543
0.25655344 -0.16691139 -0.0074864295
0.25627103 -0.18763803 -0.0090012485
0.25659624 -0.20960665 -0.0070669986
0.25647977 -0.22921847 -0.0076404088
0.25586575 -0.25621474 -0.010995186
0.25609067 -0.2752288 -0.0096313329
0.25612709 -0.29317489 -0.0093377298
0.25595862 -0.3102189 -0.01020754
0.25623459 -0.32770219 -0.008554277
0.25612527 -0.34410486 -0.0090886038
0.25612125 -0.36038101 -0.0090255607
0.25622076 -0.37650844 -0.0083746035
0.25607947 -0.39215264 -0.0090912245
0.25587565 -0.41540834 -0.010120029
0.25597352 -0.43091738 -0.0094791381
0.25599253 -0.44628963 -0.0092862099
0.25593123 -0.46161079 -0.0095493039
0.25596276 -0.47693196 -0.0092856241
0.25574094 -0.49237394 -0.010460377
0.25526878 -0.50812674 -0.013056578
0.25558236 -0.52354389 -0.011191962
0.25564745 -0.53923291 -0.010738394
0.25525159 -0.56374031 -0.012860131
0.25539929 -0.57989317 -0.011938042
0.25581557 -0.59581178 -0.0094910944
0.25518367 -0.61397928 -0.012995603
0.25536361 -0.63992655 -0.011849465
0.24665096 -0.68043774 -0.061237197
0.25502834 -0.67773134 -0.013587873
0.25499067 -0.69728935 -0.01371962
0.2546472 -0.71861494 -0.015587876
0.25417635 -0.74141252 -0.018179918
0.25481215 -0.77249408 -0.014447686
0.25478742 -0.79622507 -0.014507299
0.25414988 -0.82410473 -0.018047132
0.25441381 -0.84934735 -0.016468313
0.25539836 -0.8867479 -0.010758066
0.25463095 -0.92199469 -0.01503722
0.0817561 -2.3063452 -0.99662614
0.080424845 -2.4558396 -1.004138
0.080420569 -2.6096499 -1.0041169
0.084376395 -2.7437117 -0.98160708
0.11445486 -2.6310096 -0.81072164
0.15757127 -2.6140995 -0.56570661
0.27954578 -2.5946596 0.12757806
0.29272789 -2.5898988 0.20251459
0.30569196 -2.5904236 0.27621284
0.33148032 -2.5826216 0.42282075
0.34429136 -2.5793304 0.49565384
0.36336726 -2.5655837 0.60410863
0.37626526 -2.5668108 0.67739052
0.38931781 -2.5693469 0.75159431
0.40222332 -2.5623019 0.8249647
0.81689543 -6.464088 3.1793876
0.82754785 -6.0758443 3.2400472
0.83319813 -5.6813431 3.2723005
0.86230171 -5.3607869 3.4377532
0.8631888 -5.0080557 3.4429436
0.84621167 -4.5479589 3.346714
0.8487193 -4.2803149 3.3610849
0.80894345 -3.7441163 3.1354077
0.84011233 -3.7203062 3.312475
0.83998817 -3.4993885 3.311888
0.84654123 -3.2325768 3.3492603
0.83876336 -3.005815 3.3052115
0.83860439 -2.8310101 3.3044143
0.84029138 -2.6738913 3.3140945
0.83701539 -2.5041256 3.2955952
0.83217913 -2.3379021 3.2682354
0.83667326 -2.2132654 3.2938471
0.83056748 -2.0580997 3.2592754
0.83281451 -1.8727392 3.2721717
0.82772422 -1.7367424 3.2433617
0.82772672 -1.6187832 3.2434657
0.82512259 -1.4986292 3.2287686
0.82382506 -1.3849674 3.2214892
0.82226276 -1.2739284 3.2127056
0.82400429 -1.170457 3.2226801
0.81949651 -1.0604119 3.1971712
0.78283685 -0.9210996 2.9891093
0.8240695 -0.81078345 3.2233472
0.81809217 -0.70740741 3.1894925
0.8170166 -0.60853583 3.1834688
0.81239229 -0.51009458 3.1572957
0.3870776 -0.43321064 0.74264085
0.37474853 -0.42141968 0.6727913
0.37293234 -0.41430274 0.66255599
0.37176153 -0.40696031 0.655985
0.37158298 -0.40283641 0.65500969
0.37064111 -0.39116192 0.64977711
0.37050459 -0.38251051 0.64907891
0.37067628 -0.3683466 0.65016919
0.37292576 -0.35302511 0.66301888
0.37415573 -0.3445586 0.6700412
0.37255344 -0.33298871 0.66105914
0.37158537 -0.32512394 0.65563941
0.37085143 -0.31075898 0.6515879
0.37075242 -0.29930192 0.6511032
0.37083983 -0.28649595 0.65167689
0.37081981 -0.27345741 0.65164077
0.37058261 -0.25352466 0.65041053
0.37115625 -0.23516573 0.65374565
0.37227702 -0.21201357 0.66018784
0.62171859 1.6880578 2.0768793
0.59253067 1.6968309 1.9112778
0.57248873 1.6878785 1.7975638
0.5536868 1.6812848 1.690891
0.53677988 1.6855584 1.5949796
0.52041292 1.6892574 1.5021342
0.50476962 1.6953807 1.4133986
0.48413727 1.627915 1.2963279
0.463052 1.5324976 1.1766826
0.44463742 1.5679253 1.0722588
0.42973351 1.5387572 0.9877187
0.41645771 1.5323299 0.91242582
0.40356243 1.5279248 0.83929437
0.39121774 1.5335939 0.76929086
0.37877345 1.5317836 0.69872141
0.36673355 1.5443252 0.63045102
0.33626294 1.5660677 0.45767084
0.32395956 1.5690677 0.38790563
0.31164554 1.5675932 0.3180798
0.29931152 1.5656352 0.24814126
0.28674585 1.572107 0.17689003
0.2742548 1.5690677 0.10606154
0.25525889 1.566082 -0.0016516969
0.2426355 1.5585389 -0.073230162
0.23250088 1.4983965 -0.1306897
0.22572117 1.3881894 -0.16911356
0.21837007 1.3059469 -0.21077543
0.24543306 0.74464935 -0.057174653
0.2423321 0.67300689 -0.0747099
0.23534958 0.65648377 -0.11426806
0.22234966 0.70475894 -0.18797059
0.26144055 0.17017801 0.033982433
0.25482878 0.18005785 -0.0034664483
0.25434166 0.1378645 -0.0061597237
0.25448364 0.094718508 -0.0052825492
0.25449371 0.056229088 -0.0051531373
0.25429332 0.022170421 -0.006217422
0.25453058 -0.012029462 -0.0047978098
0.25446194 -0.042043142 -0.0051137027
0.25388801 -0.067498751 -0.0082966657
0.25432578 -0.096513249 -0.005738066
0.25433525 -0.12177146 -0.005609632
0.25332227 -0.15303226 -0.011245974
0.25426292 -0.16804019 -0.00587021
0.25331622 -0.19688667 -0.011129743
0.2543228 -0.21061632 -0.0053795627
