# .PCD v0.7 - Point Cloud Data file format
VERSION 0.7
FIELDS x y z
SIZE 4 4 4
TYPE F F F
COUNT 1 1 1
WIDTH 392
HEIGHT 1
VIEWPOINT 0 0 0 1 0 0 0
POINTS 392
DATA ascii
-0.2598663 -0.74948788 0.0021600428
-0.24315406 -0.74949425 0.0021016826
-0.21839914 -0.74968761 0.0023660203
-0.12223589 -0.74957728 0.0022106366
-0.2280404 -0.74892139 0.0029003113
-0.25533575 -0.74902797 0.0030405896
-0.20577206 -0.74902672 0.0031138482
-0.20129715 -0.74907285 0.0031447073
-0.18257068 -0.74908042 0.0032021815
-0.17095034 -0.74905789 0.0030778986
-0.16486996 -0.74900156 0.0030219061
-0.24893056 -0.74846828 0.0038546668
-0.23828343 -0.74829221 0.0035906746
-0.23386616 -0.74826658 0.0035144363
-0.19399127 -0.74847293 0.003963911
-0.17540027 -0.74846333 0.0038893037
-0.15564634 -0.74850881 0.0038725527
-0.13272505 -0.74851912 0.0039227232
-0.26126319 -0.74784482 0.0046149716
-0.21968685 -0.74798334 0.0047842977
-0.19822688 -0.7479915 0.00480376
-0.18926366 -0.74798608 0.004847968
-0.16014831 -0.74789447 0.0046672807
-0.15115783 -0.74788684 0.0046749352
-0.2441926 -0.74727976 0.0054031266
-0.22927661 -0.74717069 0.0052797855
-0.211475 -0.74740332 0.0056164656
-0.17948785 -0.74740624 0.0056164428
-0.14392397 -0.74735743 0.005493904
-0.13685292 -0.74736553 0.0055473107
-0.12365367 -0.74733114 0.005494066
-0.22122993 -0.74681783 0.0063558975
-0.20239174 -0.74679875 0.0063611954
-0.14119707 -0.74682915 0.0063320473
-0.12783921 -0.74686384 0.0063591474
-0.20670316 -0.74630892 0.0072327983
-0.18619516 -0.74626261 0.0072780657
-0.17209443 -0.74626029 0.007155919
-0.16584706 -0.74622059 0.0071299546
-0.14803933 -0.74622214 0.0071136481
-0.2225671 -0.74513501 0.0087929629
-0.19483227 -0.74511296 0.0088568581
-0.17624566 -0.74509573 0.0087942462
-0.14527845 -0.74510401 0.0087585878
-0.13369837 -0.74514651 0.0088179223
-0.15214111 -0.74455214 0.0095829023
-0.12899153 -0.74461889 0.0096467789
-0.12461969 -0.7445448 0.009591721
-0.26624891 -0.75468153 0.010443752
-0.11999421 -0.754691 0.010470147
-0.13782454 -0.7440058 0.010414324
-0.25551328 -0.75411534 0.011238328
-0.23436488 -0.75331992 0.011740467
-0.1562869 -0.7434262 0.011185885
-0.24937123 -0.75352454 0.012063757
-0.21207522 -0.7530185 0.01299891
-0.26153457 -0.75296301 0.012860627
-0.25093374 -0.75292724 0.012861053
-0.23855588 -0.7528863 0.012710709
-0.13046157 -0.74292451 0.012089462
-0.26763439 -0.75247478 0.01376601
-0.24447328 -0.75179917 0.014477197
-0.22951075 -0.75163859 0.014221559
-0.1982038 -0.75189507 0.014609759
-0.18944928 -0.75187403 0.01463404
-0.16007504 -0.75179869 0.014466817
-0.1211663 -0.75182462 0.014506768
-0.22319485 -0.75128996 0.01529883
-0.21339303 -0.75132281 0.01544175
-0.20256798 -0.75123811 0.015352279
-0.18212347 -0.75128651 0.015464326
-0.16620822 -0.75130278 0.01534451
-0.23969664 -0.7505914 0.015962947
-0.13425322 -0.74065888 0.015340382
-0.2687313 -0.75013423 0.016939301
-0.2628606 -0.75063527 0.016071865
-0.2565743 -0.75061226 0.01606199
-0.2520234 -0.75010413 0.016911373
-0.22460821 -0.75006175 0.016833926
-0.17222214 -0.75068343 0.016135091
-0.1615577 -0.75008076 0.016895128
-0.14818949 -0.75008142 0.016915655
-0.23523761 -0.74987471 0.016618416
-0.2149079 -0.75022352 0.017051939
-0.18615682 -0.75017995 0.017079653
-0.17917894 -0.75016981 0.0170817
-0.24560332 -0.74955732 0.017736468
-0.20661953 -0.74966234 0.017864563
-0.19052249 -0.74956948 0.017844213
-0.16750583 -0.74958014 0.017772466
-0.14089859 -0.74955416 0.017723076
-0.21633333 -0.74907255 0.018669842
-0.19492501 -0.74901992 0.018653732
-0.27026844 -0.74834704 0.019332577
-0.25776976 -0.74828047 0.019272147
-0.24097678 -0.74830657 0.01923549
-0.23033433 -0.7482034 0.019027151
-0.18314281 -0.74840593 0.019503133
-0.17609578 -0.74844116 0.01942517
-0.15645872 -0.74838483 0.019303795
-0.15208608 -0.74841726 0.019358024
-0.1247334 -0.7484464 0.019386794
-0.22585234 -0.7476781 0.01996322
-0.24683768 -0.74726588 0.020956412
-0.16882399 -0.7472623 0.020987952
-0.16257684 -0.74722123 0.020943711
-0.14484496 -0.74781245 0.020124836
-0.13773234 -0.74726218 0.020991586
-0.21776761 -0.74728829 0.021021169
-0.20782959 -0.747329 0.021090832
-0.20344651 -0.74727213 0.021035373
-0.19900489 -0.74726498 0.021021038
-0.20951344 -0.74674541 0.021880385
-0.17312524 -0.74665755 0.021795645
-0.12163205 -0.74664861 0.021764768
-0.21920776 -0.74610853 0.022599185
-0.19161795 -0.74608809 0.022673462
-0.18710785 -0.74615103 0.022706283
-0.17999713 -0.74613822 0.022722354
-0.15784317 -0.74607694 0.022551026
-0.14892326 -0.74607378 0.022572529
-0.13021885 -0.74614638 0.022623669
-0.26319161 -0.7560246 0.023490176
-0.15331131 -0.74552584 0.023377091
-0.12570128 -0.74559832 0.023448063
-0.195641 -0.74502814 0.024309207
-0.17704158 -0.74501002 0.024327267
-0.16364309 -0.74497133 0.024196191
-0.14164945 -0.74494439 0.024188926
-0.1344464 -0.74496722 0.024203388
-0.25216293 -0.75493956 0.02511365
-0.23541203 -0.75419575 0.025701767
-0.16960865 -0.7438221 0.025814813
-0.13865277 -0.7438274 0.025802115
-0.27066776 -0.75371128 0.026724974
-0.23089887 -0.7535165 0.026382649
-0.15881427 -0.74319917 0.026576685
-0.14995939 -0.74325007 0.026607798
-0.12705435 -0.74327123 0.026671674
-0.25808579 -0.75311762 0.027478108
-0.22610699 -0.75297195 0.02725615
-0.13131514 -0.74267274 0.027466804
-0.26422727 -0.75259411 0.028386325
-0.2200686 -0.75259525 0.028332811
-0.19945651 -0.75253004 0.028369943
-0.18335338 -0.75260371 0.028477058
-0.26575235 -0.75202447 0.029163226
-0.21006516 -0.75200969 0.02922719
-0.20368481 -0.75206393 0.029232595
-0.25951013 -0.75197726 0.029095758
-0.25336176 -0.75193793 0.029070171
-0.24718767 -0.75193101 0.029098809
-0.24093692 -0.75190324 0.029049793
-0.23647527 -0.75127953 0.029762749
-0.23206872 -0.75114387 0.02957961
-0.24858847 -0.75075895 0.030670987
-0.17323565 -0.75079918 0.030766862
-0.14481975 -0.75077456 0.030683421
-0.27162337 -0.75024104 0.031545918
-0.24236822 -0.75021356 0.031503394
-0.19160268 -0.75022501 0.031593792
-0.18721162 -0.75024819 0.031624667
-0.26689145 -0.74963051 0.032319371
-0.26082844 -0.74955958 0.032248899
-0.25456634 -0.74952281 0.032231703
-0.22724703 -0.74943811 0.03200737
-0.21125166 -0.74972147 0.032417193
-0.16409163 -0.74967182 0.032347694
-0.15334825 -0.74960744 0.03225939
-0.12157712 -0.74964148 0.032322105
-0.23771355 -0.74894184 0.032970205
-0.25004029 -0.74903041 0.033092838
-0.22087167 -0.74902666 0.033046365
-0.21295388 -0.7491259 0.033233557
-0.20047718 -0.7490288 0.033166114
-0.19600533 -0.74907219 0.03319728
-0.17980744 -0.74904639 0.033255935
-0.14164433 -0.74843735 0.033889517
-0.13456683 -0.7484526 0.033919089
-0.27106956 -0.76946902 0.03471978
-0.16799776 -0.75831771 0.034967996
-0.20470336 -0.74854219 0.034030154
-0.17714086 -0.74848926 0.03405194
-0.26198012 -0.74783742 0.034666095
-0.23284592 -0.7476871 0.034419503
-0.22842777 -0.74766231 0.034342684
-0.21439116 -0.7479248 0.034795552
-0.18856339 -0.74785674 0.034793638
-0.18398233 -0.74792457 0.034861971
-0.16996995 -0.74785078 0.034718808
-0.16537558 -0.74788487 0.034723803
-0.15929446 -0.74783158 0.034667913
-0.13878156 -0.74786305 0.03469057
-0.19281062 -0.76889592 0.035581909
-0.1742214 -0.76887059 0.03557875
-0.1563866 -0.76878661 0.035414707
-0.13606972 -0.76885694 0.035473656
-0.12559202 -0.75833964 0.035020195
-0.18930425 -0.75768661 0.035842061
-0.22231853 -0.74716502 0.035341632
-0.21607892 -0.74729252 0.035530645
-0.20808861 -0.74730402 0.035596166
-0.20618767 -0.74731678 0.035608914
-0.18120283 -0.7472927 0.03563913
-0.1608512 -0.74725753 0.035490364
-0.14572963 -0.7472468 0.035484724
-0.12715328 -0.74731636 0.035548881
-0.12632985 -0.74731368 0.03555138
-0.14291716 -0.76819515 0.03621332
-0.2600027 -0.76752913 0.036950957
-0.23244046 -0.76742053 0.036727902
-0.22205949 -0.76748508 0.036855865
-0.27164072 -0.75710738 0.036574192
-0.25015515 -0.75712603 0.036507156
-0.23794919 -0.75701213 0.036414757
-0.21502124 -0.7571376 0.036587674
-0.20508718 -0.75717705 0.036659226
-0.20070533 -0.75712198 0.036603101
-0.17754269 -0.75713307 0.036678527
-0.15100248 -0.7570973 0.036524147
-0.22296694 -0.75695807 0.03633476
-0.19266073 -0.74675649 0.036410462
-0.18561327 -0.74671745 0.036415447
-0.1784305 -0.74670267 0.036439065
-0.17406747 -0.74673128 0.036407135
-0.17139739 -0.74666262 0.036318421
-0.16695789 -0.74670804 0.036312997
-0.15458298 -0.74666607 0.036274213
-0.14993583 -0.7467196 0.036295746
-0.13326344 -0.74669099 0.036305279
-0.13142784 -0.74669546 0.036337163
-0.12428815 -0.74674153 0.03635478
-0.11991527 -0.74667096 0.036299411
-0.26422864 -0.76702613 0.037831165
-0.21213579 -0.76706624 0.03792033
-0.18610896 -0.76701307 0.037903648
-0.18344571 -0.76704061 0.037956785
-0.1668354 -0.76761603 0.0370331
-0.14967693 -0.76701194 0.037792146
-0.25360483 -0.76687682 0.037709471
-0.24922109 -0.76697159 0.037776623
-0.24295899 -0.76697069 0.037773762
-0.22628467 -0.76679307 0.037482701
-0.19965997 -0.76697004 0.037850413
-0.188026 -0.76697314 0.037885051
-0.17898582 -0.76698667 0.037942566
-0.15432771 -0.76695836 0.037769988
-0.17473491 -0.75655085 0.037456803
-0.15524915 -0.75647378 0.037290677
-0.13213409 -0.75651067 0.037329156
-0.19696932 -0.7460984 0.037131157
-0.18984465 -0.74608928 0.037178118
-0.14729725 -0.74609089 0.037087385
-0.14276274 -0.74608392 0.037067555
-0.13577695 -0.74612987 0.037102301
-0.12871064 -0.74612409 0.037138864
-0.12241816 -0.74616241 0.037129376
-0.15595594 -0.74547219 0.037842743
-0.14014977 -0.7454958 0.037876286
-0.25785103 -0.76636416 0.038539052
-0.24720672 -0.76632184 0.038519181
-0.24113011 -0.76636356 0.03855709
-0.23054858 -0.76612139 0.03822064
-0.21991155 -0.76635212 0.038504917
-0.21014978 -0.76645863 0.038674898
-0.20388544 -0.76645458 0.038695585
-0.19505094 -0.76639712 0.038658742
-0.19036189 -0.76637471 0.038647398
-0.17632604 -0.76640165 0.038718294
-0.16929604 -0.76635206 0.038584299
-0.14519271 -0.76633596 0.038552422
-0.12216073 -0.7664268 0.03860601
-0.26929346 -0.75532168 0.038901903
-0.26486227 -0.75531113 0.038899362
-0.25885245 -0.75524044 0.038838498
-0.25446829 -0.75578278 0.038024895
-0.2525636 -0.75521773 0.038828451
-0.25064901 -0.75527829 0.038845368
-0.24829517 -0.75588363 0.038085356
-0.24201529 -0.75590909 0.038103778
-0.22073635 -0.7552402 0.038793039
-0.21288493 -0.75599545 0.03823087
-0.19598675 -0.75591087 0.038161524
-0.17025107 -0.75587869 0.038129076
-0.16567044 -0.75530761 0.038914949
-0.15769185 -0.75526029 0.038855132
-0.15301661 -0.75528437 0.038843337
-0.14619225 -0.75586891 0.038099002
-0.14154503 -0.75528544 0.038857531
-0.1392045 -0.75588608 0.0381024
-0.1274841 -0.75593996 0.038150568
-0.12311208 -0.75596464 0.038169548
-0.14435637 -0.74488735 0.038668003
-0.26103869 -0.77624708 0.039998882
-0.25517437 -0.77683258 0.039194603
-0.2504504 -0.77625245 0.039987229
-0.26844981 -0.76571965 0.039334241
-0.26229218 -0.76577669 0.039404158
-0.25600567 -0.76571393 0.039289914
-0.25156307 -0.76570934 0.039288271
-0.24539126 -0.76570261 0.039317593
-0.23914032 -0.76567519 0.039267994
-0.2348215 -0.76563966 0.039183654
-0.20188783 -0.76583362 0.03945379
-0.18141618 -0.76578486 0.039495729
-0.17172138 -0.76574588 0.039393079
-0.16456328 -0.76577026 0.039365944
-0.16285656 -0.76579374 0.039380617
-0.15848123 -0.76571757 0.039308317
-0.15657707 -0.76571155 0.039303973
-0.15211053 -0.7657302 0.039289672
-0.13796879 -0.76574862 0.03933204
-0.1336146 -0.76575059 0.03935736
-0.13089593 -0.76575649 0.039385255
-0.1264805 -0.76578951 0.039394837
-0.22854151 -0.76491284 0.039763909
-0.22388583 -0.76495522 0.039840434
-0.17970553 -0.75530034 0.039045207
-0.26756886 -0.75463349 0.039653979
-0.26305851 -0.75475335 0.039739978
-0.25509828 -0.75462669 0.039605752
-0.24621548 -0.75463665 0.039641231
-0.2445115 -0.75465935 0.03965072
-0.24262288 -0.75468659 0.039662596
-0.23122819 -0.75445801 0.039363392
-0.21089719 -0.75479519 0.039798874
-0.20275454 -0.75480747 0.039805546
-0.17251661 -0.75473613 0.039752584
-0.13443975 -0.75470603 0.03970518
-0.12115356 -0.75474197 0.039713897
-0.20539705 -0.77631271 0.040150646
-0.24432208 -0.77560598 0.04077217
-0.22306053 -0.77546251 0.040569253
-0.18027158 -0.7756592 0.040947489
-0.15992728 -0.77562535 0.040793478
-0.2179901 -0.76516241 0.04012448
-0.20813054 -0.76516432 0.040223386
-0.19738428 -0.76509762 0.040162042
-0.14758223 -0.76514614 0.040112097
-0.14316526 -0.76510638 0.04008339
-0.14055382 -0.76511985 0.040103413
-0.12908471 -0.76514179 0.040165447
-0.24333064 -0.76453042 0.040885452
-0.21597734 -0.76452005 0.040913161
-0.12006941 -0.76453257 0.040906355
-0.25667784 -0.75406975 0.04042764
-0.23990107 -0.7540527 0.040430818
-0.23802987 -0.75401908 0.040363558
-0.21875614 -0.75411552 0.040444095
-0.2169743 -0.75410587 0.04048736
-0.20083149 -0.75415915 0.040562596
-0.1483693 -0.75411195 0.040471569
-0.23369616 -0.75399631 0.040277332
-0.22922176 -0.75326049 0.040899701
-0.22493622 -0.75389856 0.040173672
-0.22311303 -0.75391382 0.040238764
-0.21501078 -0.7750302 0.041599974
-0.21318954 -0.77507389 0.041664831
-0.26724464 -0.77495128 0.041540418
-0.19270524 -0.7645846 0.041014351
-0.26634377 -0.76385003 0.041649558
-0.23264115 -0.76377219 0.041433934
-0.20600802 -0.76396614 0.0417795
-0.18375362 -0.76394391 0.041800823
-0.16056783 -0.76391542 0.041673619
-0.13586356 -0.76391816 0.041665971
-0.12334672 -0.76395512 0.041733094
-0.20882085 -0.75354463 0.041374769
-0.19092865 -0.75353628 0.041361272
-0.18638362 -0.7535122 0.041358229
-0.17489977 -0.75353718 0.041403171
-0.16336565 -0.75352496 0.041285958
-0.16164152 -0.75352716 0.041278161
-0.15099882 -0.7534762 0.04121827
-0.13675718 -0.7535004 0.041236132
-0.26512924 -0.77438813 0.042340707
-0.20050715 -0.77444941 0.042431209
-0.19604959 -0.77438253 0.042372469
-0.17737222 -0.77439791 0.042482171
-0.23596118 -0.77365941 0.042957384
-0.22694644 -0.77355659 0.042729747
-0.25986168 -0.76322061 0.042389672
-0.23498993 -0.75219047 0.042661835
-0.22619547 -0.75209886 0.042498019
-0.19772018 -0.75225991 0.042858291
-0.19321755 -0.75233912 0.042923111
-0.18159899 -0.75234276 0.042973761
-0.1675192 -0.7522794 0.04283474
-0.15886681 -0.7528609 0.042016342
-0.12940554 -0.75229973 0.042863723
-0.23689274 -0.77053428 0.046819553
-0.2154334 -0.76873201 0.049241792
