# .PCD v0.7 - Point Cloud Data file format
VERSION 0.7
FIELDS x y z
SIZE 4 4 4
TYPE F F F
COUNT 1 1 1
WIDTH 1376
HEIGHT 1
VIEWPOINT 0 0 0 1 0 0 0
POINTS 1376
DATA ascii
0.0020010937 1.5468653 1.1511598
-0.011230632 1.5550921 1.0761696
-0.024644963 1.5556761 1.000145
-0.038009938 1.5514265 0.9244011
-0.050621621 1.5599579 0.85292602
-0.063290082 1.5639284 0.78112966
-0.076301932 1.5494527 0.70739049
-0.088498771 1.5630933 0.63826561
-0.10716471 1.5594922 0.53248245
-0.11949156 1.5629555 0.4626224
-0.13180496 1.5529429 0.39284289
-0.1441801 1.5614463 0.32270682
-0.15677162 1.5744056 0.25134173
-0.16907763 1.5629268 0.18160443
-0.18133706 1.5509785 0.11213174
-0.19954982 1.528483 0.0089251455
-0.21268608 1.5366676 -0.065528296
-0.15159972 -0.063945591 0.28180367
-0.15178102 -0.082469374 0.28082013
-0.15359502 -0.09528809 0.27061063
-0.15661773 -0.10866538 0.25358307
-0.15840529 -0.11948429 0.24352325
-0.16027334 -0.12883656 0.23300655
-0.16216004 -0.13765395 0.22238404
-0.16407911 -0.14597546 0.2115778
-0.16604374 -0.15384592 0.2005133
-0.16828011 -0.15974009 0.18790662
-0.17105147 -0.16231373 0.17226408
-0.17595337 -0.16317041 0.14457411
-0.20280817 -0.044619236 -0.0076950132
-0.20265538 -0.074370474 -0.0067372438
-0.20250492 -0.10223108 -0.0057931221
-0.20279726 -0.12644832 -0.0073620011
-0.20275126 -0.15090367 -0.00701117
-0.20293675 -0.17322573 -0.0079740649
-0.20280014 -0.19574672 -0.0071093193
-0.20370749 -0.22409821 -0.01212309
-0.20276769 -0.23709902 -0.0067461976
-0.20340183 -0.26433012 -0.010209799
-0.20350842 -0.28272206 -0.010724807
-0.20316352 -0.3016108 -0.0086783189
-0.20317821 -0.31914422 -0.0086718369
-0.20307548 -0.33646756 -0.007999015
-0.20319329 -0.35303795 -0.0085769864
-0.20303564 -0.369708 -0.0075922492
-0.20311171 -0.38578111 -0.0079329824
-0.20308724 -0.4017534 -0.0077032042
-0.20296355 -0.41760412 -0.0069102175
-0.20308799 -0.43313906 -0.0075243539
-0.20318426 -0.45637599 -0.0079320064
-0.20307316 -0.47183639 -0.0072091948
-0.20321572 -0.48729715 -0.0079244142
-0.20326428 -0.50280869 -0.0081060203
-0.20339109 -0.51845676 -0.0087307636
-0.20342162 -0.53418672 -0.0088088643
-0.20352605 -0.55015272 -0.0093053291
-0.20340985 -0.57419014 -0.0085016023
-0.20343006 -0.59063542 -0.0085186353
-0.20334403 -0.60720557 -0.0079325186
-0.20380723 -0.62518072 -0.01045898
-0.20398262 -0.64313835 -0.011352664
-0.21154949 -0.68985891 -0.054090098
-0.20427147 -0.68061239 -0.012785219
-0.2038269 -0.70845222 -0.010108605
-0.20416853 -0.72983903 -0.011938146
-0.2043431 -0.75163674 -0.012819001
-0.20463414 -0.77492237 -0.014357941
-0.20445427 -0.79747272 -0.013226322
-0.20398065 -0.83243978 -0.010370052
-0.20360227 -0.85694546 -0.0081081083
-0.2046717 -0.89058727 -0.014044016
-0.20530038 -0.92438948 -0.017478896
-0.3811138 -2.2789299 -1.012392
-0.37573624 -2.4428246 -0.98149782
-0.3758305 -2.5952249 -0.98170054
-0.37630329 -2.7677267 -0.98401529
-0.37758377 -2.9688134 -0.99086237
-0.37957376 -3.2039051 -1.0016754
-0.38083225 -3.4641523 -1.0082934
-0.38304925 -3.7772777 -1.0202572
-0.37381801 -4.1653028 -0.9670983
-0.371355 -4.5462952 -0.95238787
-0.25062934 -3.5411663 -0.26892102
-0.23081386 -3.5296435 -0.15643123
0.21948779 -10.815673 2.4111202
0.26202804 -8.8786526 2.64891
0.3618882 -6.2611442 3.21071
0.370195 -5.8712115 3.2571826
0.37778607 -5.1345139 3.2990649
0.38734773 -4.8724475 3.3528883
0.37613165 -4.4676466 3.2886703
0.38920566 -4.1493201 3.3623564
0.35409105 -3.6643107 3.1625197
0.38724029 -3.6524825 3.3505194
0.38427064 -3.4204416 3.3333693
0.37660313 -3.1800077 3.2895732
0.37400508 -2.9831653 3.274596
0.373162 -2.8071549 3.2696073
0.37511006 -2.6532979 3.2804832
0.36089203 -2.441371 3.1996088
0.37917489 -2.2950974 3.3031645
0.37655419 -2.1476202 3.2881579
0.37017307 -1.9955037 3.2518253
0.36726055 -1.8612094 3.2351911
0.36397415 -1.731617 3.2164474
0.36118102 -1.6084505 3.2005136
0.35929945 -1.4917368 3.1897612
0.36007535 -1.3836763 3.1940932
0.36418608 -1.2300037 3.2173193
0.36493716 -1.1259793 3.2215245
0.35224682 -1.0082909 3.1494951
0.32348427 -0.88262242 2.986321
0.36586213 -0.82006186 3.2266362
0.35902837 -0.71632874 3.187845
0.35432243 -0.61660832 3.1611283
0.35265326 -0.51944345 3.151638
0.34809375 -0.37551811 3.1257536
-0.071804836 -0.42644793 0.74500841
-0.072127439 -0.41524416 0.74325806
-0.071668319 -0.40306863 0.74593991
-0.082122229 -0.40129334 0.68679518
-0.084168665 -0.39011434 0.67531663
-0.086098649 -0.37467435 0.66454095
-0.086885989 -0.36676052 0.66016078
-0.087562189 -0.35859978 0.65641093
-0.087980732 -0.3496376 0.6541217
-0.088308834 -0.34020075 0.6523453
-0.088998616 -0.32628322 0.64856088
-0.089065291 -0.31511572 0.64826643
-0.089082293 -0.30319408 0.64825344
-0.08087483 -0.12418167 0.69537687
-0.084251888 -0.12463012 0.67632437
-0.08474645 -0.087588131 0.67364299
-0.08613304 -0.069689542 0.66586769
-0.086842656 -0.043138329 0.6619271
-0.086247407 0.0014229652 0.66537708
0.025921704 1.723066 1.3008413
-0.00045467381 1.5477915 1.1514918
-0.013814506 1.5541277 1.0758644
-0.027238518 1.5547017 0.99987638
-0.040403143 1.5552951 0.92535961
-0.053306833 1.557011 0.85232246
-0.066093884 1.5570226 0.77994782
-0.078741245 1.5563738 0.70836598
-0.091450401 1.5451814 0.63643754
-0.10980432 1.5604819 0.53256071
-0.12215355 1.5639472 0.46267018
-0.13451651 1.562934 0.39270353
-0.14684176 1.557446 0.32295218
-0.15956235 1.5793821 0.25095424
-0.1718092 1.5629237 0.18165067
-0.18405792 1.5499891 0.11233585
-0.20257521 1.5353308 0.0075456537
-0.21543425 1.5357002 -0.06523063
-0.15243687 -0.071820877 0.29237175
-0.15554495 -0.086997211 0.27489829
-0.15731274 -0.099967346 0.26497406
-0.15918534 -0.11046708 0.25445521
-0.16104768 -0.12037107 0.24399428
-0.16291448 -0.1297061 0.23350775
-0.16489209 -0.13765723 0.22239283
-0.16681521 -0.14597835 0.21158673
-0.16878383 -0.15384842 0.20052236
-0.17102447 -0.15974213 0.18791591
-0.17485429 -0.16614084 0.16634834
-0.1787104 -0.16317084 0.14458464
-0.20522237 -0.046697918 -0.0055497191
-0.20544523 -0.074365355 -0.0067186886
-0.20582785 -0.099655166 -0.0087937405
-0.20572568 -0.12582721 -0.0081217382
-0.20554335 -0.15089789 -0.0069959019
-0.2054415 -0.17433779 -0.0063268081
-0.205446 -0.19627027 -0.0062609804
-0.20543045 -0.21732815 -0.0060820198
-0.20556167 -0.23709236 -0.006735404
-0.20619676 -0.264323 -0.010200564
-0.20539321 -0.27578065 -0.0056014583
-0.20595837 -0.30160329 -0.0086715324
-0.205973 -0.3191365 -0.0086662732
-0.20603617 -0.33616742 -0.0089365002
-0.2059876 -0.35302979 -0.0085739512
-0.20599873 -0.36947489 -0.0085501689
-0.20573448 -0.38596317 -0.0069658756
-0.2058799 -0.4017446 -0.0077042226
-0.20608819 -0.42520756 -0.0087567763
-0.20599182 -0.44085515 -0.0081258519
-0.20573427 -0.44869423 -0.0066237226
-0.20603484 -0.47182682 -0.0082017099
-0.20600225 -0.48728713 -0.0079337759
-0.20604916 -0.50279844 -0.0081170676
-0.2063469 -0.51855093 -0.0097229294
-0.20637462 -0.53431535 -0.0097986488
-0.20630476 -0.55014175 -0.0093218256
-0.20635389 -0.57440394 -0.0094805919
-0.20620194 -0.59062397 -0.0085401852
-0.20594664 -0.60690141 -0.0070145195
-0.20657241 -0.62516868 -0.010485028
-0.20674393 -0.64312601 -0.011381129
-0.21446064 -0.69025064 -0.055023532
-0.20638558 -0.68838084 -0.009162656
-0.20626523 -0.70749998 -0.0084074428
-0.20690764 -0.72982568 -0.011979029
-0.20707588 -0.75162309 -0.012863126
-0.20721595 -0.77434909 -0.013589212
-0.20645705 -0.80643404 -0.0091856122
-0.20695697 -0.83368438 -0.01195727
-0.206562 -0.85824347 -0.0096551161
-0.20723078 -0.88989013 -0.013389726
-0.2064752 -0.93148243 -0.0090196198
-0.38390061 -2.1587574 -1.0157249
-0.38334674 -2.2788448 -1.0126376
-0.37758285 -2.4403129 -0.98003566
-0.37791213 -2.5951397 -0.98200011
-0.37867165 -2.7710328 -0.98643064
-0.37922999 -2.9661274 -0.98974752
-0.38185737 -3.2091134 -1.0048499
-0.38227451 -3.4613647 -1.0074437
-0.3849209 -3.7817528 -1.0227574
-0.37600228 -4.1782832 -0.97260559
-0.37439325 -4.5783544 -0.96391982
-0.23241895 -3.5345213 -0.15788206
0.26236993 -8.8518066 2.6402664
0.35767183 -6.2092533 3.1846445
0.37077621 -5.8776293 3.2594688
0.37399456 -5.1033759 3.2789342
0.38371933 -4.8461599 3.3344922
0.38638049 -4.4085989 3.3502905
0.38547212 -4.1293521 3.3455975
0.3523815 -3.6607559 3.1587288
0.39096713 -3.6826947 3.3775024
0.38178468 -3.413599 3.3258879
0.37484437 -3.1781847 3.2869368
0.37174267 -2.979449 3.2696941
0.37079021 -2.8035972 3.2646024
0.37929311 -2.5996983 3.3131783
0.36445642 -2.3899307 3.2294271
0.37693068 -2.2937214 3.3003311
0.37603882 -2.1523292 3.2955301
0.36746329 -1.9933629 3.2471981
0.3641634 -1.8583447 3.2287369
0.36143613 -1.7305968 3.2135103
0.35922632 -1.6090218 3.2012076
0.36079368 -1.4441373 3.2103994
0.36170372 -1.3367587 3.2157574
0.36208361 -1.2304541 3.2181075
0.36313438 -1.1268438 3.2242546
0.34442455 -1.0023732 3.1184289
0.32157379 -0.88326263 2.9891276
0.36205724 -0.81927305 3.2187097
0.3577745 -0.71711844 3.1946197
0.35234022 -0.61694205 3.1639993
0.34774122 -0.47134671 3.1381934
0.34585524 -0.37561855 3.1276734
-0.074775606 -0.42661196 0.74401981
-0.074928664 -0.41526833 0.74324608
-0.074696742 -0.39746967 0.74470109
-0.085158683 -0.3967388 0.68553609
-0.086730108 -0.39452729 0.67667401
-0.088777907 -0.37925589 0.66524798
-0.089700192 -0.36677727 0.66015613
-0.090032667 -0.36268002 0.65831673
-0.090425096 -0.35367817 0.65618289
-0.090725645 -0.34421083 0.65456992
-0.091374651 -0.33022764 0.65102679
-0.091408603 -0.31905624 0.65092534
-0.092042334 -0.30380979 0.64746886
-0.084463269 -0.12971172 0.69114906
-0.086326055 -0.091181368 0.6807766
-0.088798046 -0.067985699 0.66690111
-0.089436233 -0.040524337 0.66337997
-0.08909782 0.0014130861 0.66540086
0.029360335 1.7053857 1.3377949
-0.0030189441 1.5552809 1.1543068
-0.01684989 1.5541027 1.0759847
-0.030221669 1.5556417 1.0002664
-0.043429427 1.5552772 0.92547673
-0.056220338 1.559931 0.85305184
-0.068869799 1.5648904 0.78142869
-0.081632011 1.5613173 0.70916271
-0.10034231 1.5645027 0.60322171
-0.11280227 1.5604813 0.53266871
-0.12514618 1.5639493 0.4627766
-0.13749701 1.5609393 0.39284274
-0.14984046 1.5594507 0.32295129
-0.162478 1.5754076 0.25139987
-0.17469312 1.5589663 0.18223035
-0.18696512 1.5480291 0.11274078
-0.20520066 1.5265461 0.0094827563
-0.21846385 1.5376617 -0.065616138
-0.15657127 -0.07239709 0.28485972
-0.15703738 -0.086198121 0.28225452
-0.16010492 -0.099956289 0.26498726
-0.16086753 -0.10743415 0.26070374
-0.16383466 -0.12035915 0.24400634
-0.16569903 -0.12969376 0.2335193
-0.16767438 -0.13764447 0.22240393
-0.16959524 -0.1459652 0.21159741
-0.17156172 -0.15383489 0.20053264
-0.17390741 -0.15894023 0.18731946
-0.17668656 -0.16153482 0.17165048
-0.18171935 -0.16169313 0.14325085
-0.20837323 -0.044595551 -0.0076619266
-0.20821805 -0.074346632 -0.0067064008
-0.20833172 -0.10092172 -0.0072733848
-0.20808241 -0.12765507 -0.005782831
-0.20830861 -0.1508792 -0.0069860658
-0.20820463 -0.17431913 -0.0063176216
-0.2082072 -0.19625163 -0.0062523517
-0.20803937 -0.21780936 -0.0052209608
-0.20831953 -0.23707373 -0.006727668
-0.20889826 -0.2830866 -0.0098031834
-0.20871192 -0.30158469 -0.0086647561
-0.20888995 -0.31879249 -0.0095908241
-0.20862184 -0.3364411 -0.0079882219
-0.20858011 -0.36968115 -0.0075841253
-0.20865533 -0.38575402 -0.0079261502
-0.20880158 -0.40156981 -0.0086703422
-0.20867774 -0.41745496 -0.0078834957
-0.20874189 -0.4408367 -0.0081189126
-0.2085502 -0.45638269 -0.0069468105
-0.20878552 -0.47180837 -0.0081942612
-0.20875345 -0.48726872 -0.0079260096
-0.2086277 -0.5027101 -0.0071265399
-0.20909974 -0.51853257 -0.0097143762
-0.20895639 -0.53415763 -0.0088144718
-0.20905976 -0.55012339 -0.0093123177
-0.20940278 -0.566616 -0.011167894
-0.20896065 -0.59060562 -0.0085292179
-0.20920561 -0.60776067 -0.0098280031
-0.20933521 -0.62515044 -0.01047262
-0.20934689 -0.64274919 -0.010448581
-0.21707582 -0.68982536 -0.054108646
-0.20931362 -0.68880111 -0.010032267
-0.20904021 -0.70748174 -0.0083909882
-0.20983718 -0.73030764 -0.012814193
-0.20985898 -0.75160491 -0.012844266
-0.21000351 -0.77433097 -0.013569043
-0.21052741 -0.79979211 -0.01644239
-0.20975703 -0.83366627 -0.011933474
-0.210298 -0.89123631 -0.014802638
-0.21054959 -0.92294157 -0.016128175
-0.38683864 -2.2811632 -1.0143986
-0.38079447 -2.4403 -0.97992641
-0.38204384 -2.6025894 -0.98683524
-0.38234907 -2.7744138 -0.98838598
-0.38285822 -2.9687147 -0.99107921
-0.38480812 -3.2038052 -1.0019155
-0.38746929 -3.4811301 -1.0167586
-0.38938591 -3.7927072 -1.0273607
-0.37893701 -4.1661377 -0.96778852
-0.37701976 -4.5575438 -0.95660967
-0.23603679 -3.5345056 -0.15766884
0.25485381 -8.8044167 2.6283906
0.35423908 -6.2199702 3.1902332
0.36744833 -5.8872724 3.264936
0.3709017 -5.49335 3.2843268
0.37104917 -5.1126356 3.2849963
0.38063151 -4.8527231 3.3391984
0.37136078 -4.465385 3.2865045
0.3802112 -4.1176286 3.3365443
0.34969941 -3.6659739 3.1634645
0.38678756 -3.6782398 3.3736832
0.37962958 -3.420603 3.3330445
0.37153542 -3.1781197 3.2871115
0.36666182 -2.9702015 3.2594478
0.36827701 -2.806679 3.2685773
0.36908799 -2.6480355 3.2731543
0.35749891 -2.447252 3.2074478
0.37582234 -2.3005455 3.3112998
0.37230602 -2.1497676 3.2913666
0.36575624 -1.9970561 3.2542453
0.36220583 -1.8609135 3.2341292
0.35921371 -1.7321634 3.2171819
0.35704845 -1.6104604 3.2049251
0.35597718 -1.4952911 3.1988716
0.35829458 -1.3355315 3.2120373
0.35903278 -1.2298787 3.2162454
0.36078596 -1.1272357 3.2262075
0.34159648 -1.0021271 3.1174896
0.31877172 -0.88305342 2.9881754
0.35858673 -0.81860811 3.2138379
0.35484466 -0.7168889 3.1926677
0.35047403 -0.61709613 3.1679375
0.34514612 -0.51932222 3.1377854
0.34352279 -0.37553054 3.128649
-0.077337407 -0.4266001 0.74402279
-0.07782843 -0.4156045 0.74130881
-0.077024795 -0.40308145 0.74593091
-0.087540522 -0.39645371 0.68648392
-0.089359529 -0.38981515 0.67624646
-0.091450952 -0.37468398 0.66453534
-0.091917872 -0.37089902 0.6619246
-0.092910305 -0.35860917 0.65640628
-0.093557246 -0.34517458 0.6528458
-0.094063662 -0.33625558 0.65004671
-0.094193071 -0.3257477 0.64938384
-0.094403148 -0.31512502 0.64826405
-0.0945566 -0.30380535 0.64746523
-0.086942971 -0.12970954 0.69113845
-0.089777738 -0.085082352 0.6752578
-0.09108872 -0.066270836 0.66790271
-0.091818005 -0.039649762 0.66384387
-0.091637745 0.00052150228 0.66493928
0.020691482 1.7248938 1.3016413
-0.0052178465 1.5571665 1.1549153
-0.019120444 1.5550581 1.0762258
-0.032695759 1.5527605 0.99939078
-0.045850344 1.5533377 0.92494017
-0.058563258 1.5599307 0.85299271
-0.071459882 1.5570095 0.78000408
-0.084084213 1.5573525 0.7085588
-0.096672952 1.5531275 0.63731503
-0.11518303 1.5594751 0.53256452
-0.12753314 1.5609409 0.46267405
-0.13987854 1.559929 0.39281011
-0.15224995 1.5614359 0.32279935
-0.164404 1.5445123 0.25401816
-0.1771187 1.5599437 0.18206455
-0.18934917 1.5470245 0.11285108
-0.20769478 1.5284833 0.0090316031
-0.22089206 1.537641 -0.06565623
-0.15867159 -0.030491745 0.28678921
-0.1575772 -0.073717706 0.29301965
-0.15936661 -0.088081449 0.28295252
-0.16135135 -0.098060243 0.27177921
-0.16324663 -0.1083579 0.26111263
-0.16628617 -0.1203775 0.24399927
-0.16823666 -0.12884675 0.23301999
-0.17012416 -0.13766396 0.22239739
-0.1720441 -0.14598526 0.21159109
-0.17400961 -0.15385553 0.20052655
-0.17635441 -0.15896149 0.18731356
-0.17924453 -0.16079082 0.17101163
-0.1841646 -0.16171607 0.14324535
-0.21044996 -0.046705171 -0.0055422438
-0.21053897 -0.075042009 -0.0059798602
-0.21131277 -0.098377906 -0.010296321
-0.21080258 -0.12645121 -0.0073397546
-0.21089336 -0.15031911 -0.0077872979
-0.21064644 -0.17434709 -0.0063218134
-0.21079411 -0.19575019 -0.0070916004
-0.21062689 -0.21733826 -0.0060776942
-0.21090753 -0.23663357 -0.0076008905
-0.21116622 -0.28350738 -0.0089000445
-0.21114777 -0.31914887 -0.0086630052
-0.21104091 -0.33647242 -0.0079915691
-0.21099287 -0.36971328 -0.0075875255
-0.21089421 -0.38597718 -0.0069628754
-0.21069272 -0.40207154 -0.0057558324
-0.21108045 -0.41748828 -0.0078871166
-0.21096586 -0.4409402 -0.007140324
-0.21070626 -0.44876203 -0.0056371135
-0.21117544 -0.47184309 -0.0081983497
-0.21113949 -0.48730382 -0.007930276
-0.2111831 -0.50281554 -0.0081133936
-0.21147774 -0.51856846 -0.0097190337
-0.21150225 -0.53433329 -0.0097945277
-0.21125804 -0.5499863 -0.0083476622
-0.21130438 -0.57419783 -0.0085162837
-0.21131867 -0.59064329 -0.0085350759
-0.21089408 -0.6066286 -0.0060673538
-0.21151912 -0.62486321 -0.0095480476
-0.21168996 -0.64278811 -0.010455461
-0.21941002 -0.68986553 -0.054115955
-0.21212682 -0.68062103 -0.012811548
-0.21151723 -0.70799166 -0.0092688557
-0.21215452 -0.73034835 -0.012823049
-0.21231729 -0.75217611 -0.0136887
-0.21230778 -0.77437246 -0.013578987
-0.21168388 -0.80705988 -0.0099606812
-0.21231332 -0.83496767 -0.013475447
-0.21230164 -0.86154914 -0.013357555
-0.21244068 -0.89059752 -0.014095547
-0.2128102 -0.92298532 -0.016142042
-0.21186711 -0.96678513 -0.010726123
-0.38866761 -2.2796693 -1.0131885
-0.38259435 -2.4387426 -0.97880292
-0.38439691 -2.605967 -0.98907548
-0.38445544 -2.7761714 -0.98947209
-0.38481951 -2.9696429 -0.99161929
-0.38760322 -3.2144639 -1.0075154
-0.38929591 -3.4820921 -1.0172513
-0.38971987 -3.7754123 -1.0198224
-0.3818149 -4.1858072 -0.97527772
-0.38001734 -4.583138 -0.96535444
-0.2371809 -3.5208149 -0.15512416
0.15362166 -10.87975 2.0529923
0.21655694 -10.815813 2.4097085
0.3563638 -6.2541242 3.2064514
0.36421224 -5.86167 3.251343
0.36740789 -5.4682384 3.2698739
0.36997992 -5.1126366 3.2848377
0.38202494 -4.8742752 3.353368
0.36940512 -4.459723 3.2823122
0.38118091 -4.1339459 3.3494315
0.34745076 -3.6606939 3.1588254
0.38308808 -3.6643453 3.3608034
0.37688741 -3.4135323 3.3259704
0.36945146 -3.1753919 3.2841275
0.36687124 -2.9793847 3.2697575
0.36768809 -2.8117125 3.2746084
0.36918333 -2.6558568 3.2832916
0.35060635 -2.4266093 3.1783218
0.37328756 -2.2978957 3.307045
0.37016961 -2.148767 3.2895856
0.36280763 -1.9937705 3.2480874
0.35904786 -1.8574075 3.2269802
0.35632145 -1.7297238 3.2117198
0.35588607 -1.6123327 3.2094293
0.35447147 -1.4963167 3.2015896
0.35725963 -1.3372842 3.2176328
0.35731202 -1.2303954 3.2180951
0.35819834 -1.1265604 3.2232783
0.33880183 -1.0013652 3.1135755
0.31645599 -0.88289964 2.9871593
0.3588551 -0.82031083 3.227478
0.35146224 -0.71627927 3.1857579
0.34793466 -0.61699128 3.16593
0.34501818 -0.51952934 3.1495621
0.34075862 -0.37563556 3.1256602
-0.079528235 -0.42649513 0.7449826
-0.080024526 -0.41546497 0.74226344
-0.079396203 -0.40311551 0.74591601
-0.089753568 -0.39621249 0.6874162
-0.091493607 -0.39426047 0.67760271
-0.093546331 -0.37892389 0.66615373
-0.09431117 -0.37093338 0.66191089
-0.094806552 -0.36228445 0.65919495
-0.095961533 -0.34520859 0.65283251
-0.095908083 -0.33974388 0.6531812
-0.096159801 -0.32972583 0.65184635
-0.096818499 -0.31515861 0.64825112
-0.096975707 -0.30383879 0.64745241
-0.088756062 -0.12501238 0.69476348
-0.090777293 -0.08706589 0.68350571
-0.093289986 -0.063730359 0.66941237
-0.094124176 -0.037931558 0.66478705
-0.094039589 0.001381592 0.66537493
0.018049467 1.7248721 1.3016335
-0.0079660043 1.5552635 1.1542341
-0.021805843 1.5540826 1.0759137
-0.035234194 1.5546577 0.99992549
-0.048486717 1.5533113 0.9249323
-0.06120247 1.5599035 0.85298496
-0.074101023 1.5569814 0.7799964
-0.086655349 1.5602945 0.70896184
-0.099281937 1.555087 0.63751292
-0.11778696 1.5644375 0.53281385
-0.13018116 1.561909 0.4626835
-0.1425346 1.5608964 0.39278519
-0.15488656 1.5594053 0.3228952
-0.16716665 1.5514514 0.25340867
-0.17969252 1.5559387 0.18253772
-0.19170864 1.5361246 0.11453988
-0.21024765 1.5255122 0.0096388236
-0.22372553 1.5414844 -0.066617213
-0.16066495 -0.040034179 0.28982347
-0.16010647 -0.073749974 0.29300919
-0.16312969 -0.089816839 0.27600098
-0.16494936 -0.10183266 0.26577064
-0.16578026 -0.10839007 0.26110229
-0.16882251 -0.12040964 0.24398899
-0.17068776 -0.12974478 0.23350227
-0.17266411 -0.13769604 0.22238719
-0.17468323 -0.14518839 0.21103016
-0.17665564 -0.15307866 0.19993752
-0.17890036 -0.15899351 0.18730356
-0.1819049 -0.16005693 0.1703686
-0.18695453 -0.16028577 0.14189214
-0.2131431 -0.046044506 -0.0062598437
-0.21323667 -0.074406713 -0.0067208493
-0.21454842 -0.095198207 -0.014077741
-0.21337241 -0.12648456 -0.0073486511
-0.21388628 -0.14858939 -0.010186496
-0.21321806 -0.17438006 -0.006330532
-0.21336691 -0.195783 -0.0071002143
-0.2133515 -0.21687104 -0.0069391173
-0.21332942 -0.23713534 -0.0067397333
-0.21342535 -0.28432053 -0.0070949961
-0.21371794 -0.3016471 -0.0086760586
-0.21373047 -0.31918052 -0.0086707836
-0.2134591 -0.33679608 -0.007057413
-0.21357326 -0.35333291 -0.0076270928
-0.21358117 -0.36974436 -0.0075948285
-0.2136552 -0.38581747 -0.0079367282
-0.21380027 -0.4016335 -0.0086808
-0.21367504 -0.41751882 -0.0078938669
-0.21345164 -0.43326244 -0.0065506529
-0.21354406 -0.45644709 -0.0069569913
-0.21377808 -0.47187302 -0.0082043558
-0.21357079 -0.48729849 -0.0069519007
-0.21361722 -0.50277519 -0.0071365451
-0.21374212 -0.51838845 -0.0077655683
-0.21394289 -0.53422314 -0.0088243708
-0.21404463 -0.55018914 -0.0093221795
-0.21404596 -0.56626582 -0.0092512593
-0.21410893 -0.59093088 -0.009490232
-0.21368542 -0.60694951 -0.00701275
-0.21431175 -0.62521714 -0.010482411
-0.2144836 -0.64317471 -0.01137769
-0.21458557 -0.67076933 -0.011838116
-0.21476465 -0.6806488 -0.012813644
-0.21431327 -0.7084887 -0.01013976
-0.21465026 -0.7298755 -0.011971246
-0.21496713 -0.75220323 -0.013689179
-0.21510537 -0.77495873 -0.014395254
-0.21434282 -0.80708647 -0.0099598775
-0.21443628 -0.83247632 -0.010413155
-0.2148378 -0.86091924 -0.012612336
-0.21498525 -0.88994145 -0.013372528
-0.21411255 -0.93081456 -0.0083158687
-0.21466634 -0.96755403 -0.011380142
-0.39168635 -2.2812614 -1.014387
-0.3854095 -2.4387794 -0.97875822
-0.38703322 -2.6043456 -0.98792559
-0.38711762 -2.7745118 -0.98837531
-0.38803098 -2.9731438 -0.99352986
-0.39016333 -3.2109683 -1.0056021
-0.3913689 -3.4722409 -1.0124326
-0.38334626 -3.8107293 -0.96697468
-0.3851625 -4.1914444 -0.97730392
-0.38314015 -4.5850639 -0.96589452
-0.24031141 -3.5267293 -0.15617794
0.24981858 -8.7706184 2.6193826
0.35244322 -6.244235 3.2018023
0.36354303 -5.8872714 3.2648437
0.36517733 -5.0956779 3.2744648
0.37500969 -4.8394618 3.3302927
0.36631164 -4.4581084 3.2812028
0.37789398 -4.1308432 3.3469906
0.34601134 -3.6697557 3.1666086
0.38112271 -3.6694715 3.3655307
0.37547088 -3.4213183 3.3336506
0.36670664 -3.1754024 3.2841413
0.36336082 -2.9754608 3.2653062
0.36309326 -2.802917 3.2638972
0.36691707 -2.6576762 3.2856517
0.35264155 -2.3731136 3.2049644
0.37035552 -2.2968535 3.305366
0.36664653 -2.1457868 3.2844567
0.35866973 -1.9890976 3.2393773
0.35724354 -1.85962 3.2313895
0.35470456 -1.7321858 3.2170985
0.35317025 -1.6119821 3.2084947
0.35193202 -1.4963418 3.201566
0.35557449 -1.3387724 3.2223151
0.3534663 -1.2283546 3.2104564
0.35655844 -1.1277142 3.2280459
0.33513066 -1.0000609 3.1067772
0.31398916 -0.8829301 2.9871275
0.35554847 -0.81973594 3.2225559
0.34903118 -0.71631384 3.1857221
0.34621146 -0.6172356 3.1698272
0.3412227 -0.51942778 3.1416478
0.33924282 -0.37549853 3.1305428
-0.082208708 -0.42664701 0.74399173
-0.082713187 -0.40991756 0.74123186
-0.082456097 -0.39795554 0.74275243
-0.09207996 -0.39594841 0.68834722
-0.094067931 -0.38955209 0.67715329
-0.096162677 -0.37435493 0.66541892
-0.096949719 -0.36640862 0.66102594
-0.09762565 -0.35821593 0.65726215
-0.098427594 -0.34521952 0.65281677
-0.098371692 -0.33975479 0.6531654
-0.099061474 -0.32579219 0.64935499
-0.098795436 -0.31909558 0.65089357
-0.099422798 -0.30384946 0.64743656
-0.092116028 -0.13211678 0.68929225
-0.092871137 -0.084589615 0.68514204
-0.09539941 -0.061169356 0.67091858
-0.09632723 -0.036192738 0.66572696
-0.096324019 0.002262118 0.66580755
0.015930062 1.7248439 1.3016262
-0.010644248 1.5467814 1.1511978
-0.024003159 1.553109 1.0756048
-0.037330005 1.5555989 1.0001937
-0.050630741 1.5532932 0.92493093
-0.063490249 1.5559747 0.85216689
-0.076305024 1.5549982 0.77965653
-0.089064591 1.5493896 0.70745927
-0.10757282 1.5594776 0.60273725
-0.11995684 1.5614357 0.5326671
-0.13232405 1.5619056 0.4626925
-0.14468674 1.563895 0.3927438
-0.15703882 1.5604061 0.32285568
-0.16929553 1.5504597 0.25350827
-0.18189973 1.5589235 0.18219256
-0.21246719 1.5274826 0.0092478795
-0.2258292 1.5405314 -0.066358082
-0.162756 -0.043833632 0.291033
-0.16235791 -0.074690863 0.29332113
-0.16414142 -0.089042008 0.28328627
-0.16612032 -0.099007003 0.27214485
-0.16918747 -0.11139733 0.25487319
-0.17112252 -0.12040202 0.2439802
-0.17307283 -0.12887055 0.23300099
-0.17505233 -0.13683902 0.22185647
-0.1769772 -0.14517862 0.21102144
-0.17894758 -0.15306814 0.19992882
-0.1812972 -0.15819424 0.18668854
-0.18419215 -0.16004457 0.17036016
-0.18947528 -0.15880919 0.14054069
-0.21541609 -0.046023227 -0.0062634842
-0.21563879 -0.073715977 -0.007456996
-0.21762 -0.09131971 -0.018609019
-0.2155074 -0.12707764 -0.006577868
-0.21587618 -0.14974175 -0.0085986741
-0.21534452 -0.17491594 -0.0055204448
-0.21563664 -0.19575939 -0.0071071186
-0.21562023 -0.21684705 -0.006946547
-0.21559705 -0.23711097 -0.0067476858
-0.21601008 -0.28351399 -0.0089173
-0.21598117 -0.30162129 -0.008685776
-0.21599232 -0.31915435 -0.0086810235
-0.2158858 -0.33647737 -0.0080099786
-0.2158386 -0.36971709 -0.0076066852
-0.21574038 -0.38598046 -0.0069824182
-0.21588288 -0.40176171 -0.0077211005
-0.21592784 -0.41749039 -0.0079073766
-0.21581417 -0.44094148 -0.0071611586
-0.21579286 -0.45641774 -0.006971966
-0.21585149 -0.47184309 -0.007235182
-0.21599029 -0.48730341 -0.0079522347
-0.21586137 -0.50274467 -0.0071533695
-0.21598478 -0.51835752 -0.0077830376
-0.21618414 -0.53419179 -0.0088425027
-0.21645573 -0.55033112 -0.010310754
-0.2161615 -0.57419425 -0.0085404748
-0.21634525 -0.59089816 -0.0095108841
-0.21641918 -0.60779399 -0.0098592369
-0.2165456 -0.62518358 -0.010504651
-0.21671636 -0.64314067 -0.011400776
-0.21676214 -0.66134518 -0.011589051
-0.21635592 -0.6883952 -0.009182414
-0.21669592 -0.70892298 -0.011035517
-0.21687879 -0.72983968 -0.011998626
-0.21734279 -0.75269693 -0.014552721
-0.21718891 -0.77436274 -0.013608588
-0.21656936 -0.80704945 -0.0099912956
-0.21720357 -0.83495653 -0.013506775
-0.21706484 -0.86088127 -0.012646555
-0.21721281 -0.88990307 -0.013408285
-0.21759231 -0.92226511 -0.015479591
-0.21677928 -0.9667716 -0.0107613
-0.39393774 -2.2795968 -1.0132366
-0.38809913 -2.4402888 -0.98001379
-0.38905221 -2.6000896 -0.9852795
-0.38973585 -2.7752488 -0.98901302
-0.39092985 -2.9764955 -0.9956255
-0.39274499 -3.2108541 -1.0057412
-0.39436585 -3.4766192 -1.0147437
-0.38647765 -3.8170593 -0.96984011
-0.3873699 -4.1838603 -0.97467506
-0.38618144 -4.5896764 -0.96771228
-0.24269009 -3.521765 -0.15541649
0.25123033 -8.8654375 2.6438584
0.35130519 -6.2615108 3.2096372
0.35782832 -5.8530407 3.2464602
0.35793799 -5.4286046 3.2469723
0.36044991 -5.0746784 3.2611127
0.37466681 -4.8570733 3.3415694
0.36724329 -4.4841933 3.2994611
0.37582189 -4.1325974 3.3479812
0.34273702 -3.6631501 3.1605716
0.37865448 -3.6682076 3.3639643
0.37056264 -3.4059589 3.318121
0.36503851 -3.1783202 3.2868278
0.36094379 -2.9743364 3.2636361
0.36176983 -2.8068781 3.2683153
0.36382872 -2.65365 3.2799797
0.35372356 -2.3855922 3.2227764
0.36680594 -2.291739 3.2968676
0.36428523 -2.1449676 3.2826123
0.35877281 -1.9958451 3.251421
0.35567805 -1.8611091 3.233922
0.35299945 -1.7331712 3.2187819
0.35212582 -1.6143992 3.2138638
0.35246986 -1.4462248 3.2158568
0.35225719 -1.3366016 3.2146852
0.35249645 -1.230072 3.2160735
0.35408145 -1.1272044 3.2250817
0.33231041 -0.99926341 3.101866
0.31116444 -0.88229579 2.9821935
0.35273981 -0.81928742 3.2175984
0.34674397 -0.71629632 3.1836951
0.34045461 -0.61624092 3.1481318
0.33866444 -0.47148043 3.138061
0.33732006 -0.37564704 3.1304936
-0.084302135 -0.42665803 0.74396944
-0.084622517 -0.41548833 0.74222589
-0.084212735 -0.39751625 0.74465054
-0.093784168 -0.4003222 0.69054198
-0.096171685 -0.3895593 0.67713374
-0.097973973 -0.37858334 0.6670385
-0.099058241 -0.36641493 0.6610077
-0.09939073 -0.36230183 0.65916127
-0.10015524 -0.34922841 0.65494055
-0.10089765 -0.33579093 0.65084511
-0.10073273 -0.32974252 0.6518141
-0.10091074 -0.31910136 0.65087765
-0.10154024 -0.30385509 0.64742136
-0.09391588 -0.12976003 0.69110173
-0.095899552 -0.077582844 0.68004978
-0.097257659 -0.058604311 0.67243344
-0.09828724 -0.034449775 0.6666761
-0.098453619 0.0022557324 0.66580337
0.013954033 1.7257397 1.3020416
-0.012169744 1.5552139 1.1542699
-0.025912238 1.5559404 1.0765599
-0.039841384 1.5469282 0.99779481
-0.052635893 1.5552181 0.92545044
-0.065335639 1.5628088 0.85364294
-0.078110836 1.564836 0.78140932
-0.091133431 1.5513625 0.70777732
-0.1097187 1.5584774 0.60269642
-0.12211484 1.5594367 0.53260952
-0.13446993 1.5629061 0.46275517
-0.1468356 1.5608983 0.39284164
-0.15919682 1.559412 0.32295349
-0.17153247 1.5544512 0.25321066
-0.18400025 1.5549622 0.18271978
-0.19637562 1.5479975 0.1127528
-0.2146391 1.526518 0.0094992574
-0.16339703 -0.046247989 0.29984692
-0.16565375 -0.079013661 0.28718776
-0.16635033 -0.089037709 0.28328297
-0.16826406 -0.099923059 0.27252629
-0.17029786 -0.10837904 0.26108983
-0.17334124 -0.12039743 0.24397647
-0.17529427 -0.1288659 0.23299716
-0.17727649 -0.13683434 0.22185256
-0.17920403 -0.14517391 0.21101743
-0.18117708 -0.15306343 0.19992474
-0.18352953 -0.15818948 0.18668449
-0.18748796 -0.16389903 0.16439156
-0.19171564 -0.15880407 0.14053716
-0.21767114 -0.046015549 -0.0062626544
-0.21789552 -0.073708639 -0.0074568326
-0.21987922 -0.09131252 -0.018609159
-0.21763 -0.12768658 -0.0058029224
-0.21884136 -0.14679705 -0.012584004
-0.21760705 -0.17491008 -0.0055226455
-0.21790069 -0.19575387 -0.0071097505
-0.21788561 -0.21684191 -0.0069496236
-0.21771012 -0.23757555 -0.0058816443
-0.21828011 -0.28351006 -0.0089216558
-0.21755601 -0.29427847 -0.0047862455
-0.21826468 -0.31915116 -0.0086860135
-0.21815924 -0.33647457 -0.0080152666
-0.21793863 -0.3535623 -0.0066927159
-0.21811417 -0.36971503 -0.0076124994
-0.21801694 -0.38597876 -0.0069884784
-0.21798863 -0.40191668 -0.006754722
-0.21803372 -0.41761115 -0.0069364104
-0.21815552 -0.43314603 -0.007552471
-0.21824747 -0.4563829 -0.0079630753
-0.21813303 -0.47184339 -0.0072423173
-0.21827264 -0.48730406 -0.0079595251
-0.21831796 -0.50281554 -0.0081431828
-0.21844156 -0.51846355 -0.0087699899
-0.21846856 -0.53419352 -0.0088502225
-0.2184969 -0.55808979 -0.0089020068
-0.21827769 -0.57397187 -0.0075890282
-0.21863143 -0.59090114 -0.0095190313
-0.21870571 -0.60779738 -0.0098674931
-0.21883245 -0.62518734 -0.010513009
-0.21916588 -0.64350331 -0.012328541
-0.21904935 -0.66134965 -0.011597603
-0.21864305 -0.68840021 -0.0091911154
-0.21882939 -0.70845878 -0.010174873
-0.21916567 -0.7298454 -0.012007491
-0.21948183 -0.75217301 -0.013726614
-0.21869303 -0.78272378 -0.0091567915
-0.2188544 -0.80705649 -0.010000455
-0.21921736 -0.83370507 -0.011985562
-0.21934795 -0.86088902 -0.01265587
-0.21962187 -0.89059335 -0.014137848
-0.21861973 -0.93078458 -0.0083634667
-0.2189405 -0.96603739 -0.010112086
-0.39627686 -2.2803895 -1.0138663
-0.39082211 -2.4443507 -0.98291838
-0.39183229 -2.605082 -0.98859447
-0.39265245 -2.782052 -0.99319917
-0.39282835 -2.9739168 -0.99416161
-0.39528918 -3.2152898 -1.0080661
-0.39563614 -3.4667537 -1.010011
-0.39788461 -3.7817488 -1.0227312
-0.38989779 -4.1913524 -0.97751462
-0.38641149 -4.5603881 -0.95779562
-0.24505065 -3.5315981 -0.15731141
0.24930716 -8.8518801 2.6402671
0.34653202 -6.2237139 3.1914852
0.35678867 -5.85917 3.2496812
0.35784566 -5.44414 3.2558212
0.35543069 -5.0440984 3.2423077
0.37168241 -4.846241 3.3343947
0.36108193 -4.4493532 3.2745528
0.3695327 -4.1006808 3.3225541
0.34145185 -3.6668699 3.1637883
0.37395856 -3.6505985 3.3478291
0.37163985 -3.4228683 3.3348198
0.36351857 -3.1803074 3.2889736
0.35901991 -2.9742777 3.2636211
0.35996431 -2.8074481 3.2690654
0.36117813 -2.6505814 3.2760315
0.3454316 -2.4330518 3.1870239
0.36245409 -2.2831998 3.2834876
0.36363664 -2.149404 3.2902706
0.35506192 -1.9906198 3.2418382
0.35286206 -1.8588552 3.2294776
0.3503173 -1.7314817 3.2151639
0.34861666 -1.6109653 3.2056258
0.34818938 -1.4971299 3.2032924
0.35050943 -1.337121 3.2165463
0.35007104 -1.2294888 3.2141478
0.35181496 -1.126913 3.224098
0.33258843 -1.001869 3.1153748
0.30920768 -0.88239092 2.9831414
0.34992823 -0.81873202 3.2136607
0.34444076 -0.71614122 3.1826851
0.34127006 -0.61706048 3.1648197
0.33679849 -0.51947618 3.1395919
0.33499071 -0.3756133 3.1294761
-0.08657708 -0.42665851 0.74395919
-0.086897373 -0.41548881 0.74221545
-0.086434312 -0.40334743 0.74490494
-0.096060373 -0.40032411 0.69053173
-0.09828236 -0.38925239 0.67805988
-0.10054542 -0.37436402 0.66538966
-0.10133372 -0.36641756 0.66099703
-0.10221292 -0.35372552 0.656124
-0.10317189 -0.33579373 0.65083373
-0.10300674 -0.32974529 0.65180254
-0.10366007 -0.3151778 0.64820766
-0.10381325 -0.30385786 0.64740908
-0.096681394 -0.079623252 0.68841863
-0.099348344 -0.056891259 0.67342746
-0.10038833 -0.032702036 0.66760981
-0.1005655 0.0040362203 0.66667509
0.011594012 1.7248344 1.3015918
-0.014462821 1.5552306 1.1541945
-0.028259741 1.5550033 1.0761801
-0.041704111 1.5555911 1.0001608
-0.054846507 1.5571673 0.92585057
-0.067775525 1.5589021 0.85274798
-0.080647953 1.5569603 0.77996564
-0.093453169 1.5503727 0.70756376
-0.1118935 1.5664433 0.60330445
-0.12441086 1.5594304 0.53253186
-0.13677207 1.5608974 0.46264297
-0.14913167 1.5608865 0.39276329
-0.16152938 1.563392 0.32266811
-0.17382835 1.5544338 0.2531319
-0.18623237 1.5519643 0.18300119
-0.19869846 1.5489619 0.11251947
-0.21765813 1.5460527 0.0053226254
-0.16578974 -0.015220195 0.29901099
-0.16555008 -0.048176333 0.30040163
-0.16784714 -0.079969756 0.28750446
-0.16860265 -0.089054324 0.28326306
-0.17051537 -0.099940181 0.27250674
-0.17365339 -0.11141074 0.25485042
-0.17567196 -0.11953305 0.24349517
-0.1776294 -0.12801893 0.23248608
-0.17961591 -0.13600591 0.2213123
-0.18145034 -0.14519398 0.21099944
-0.1835248 -0.15227512 0.19932809
-0.18588132 -0.15742286 0.18606059
-0.18973155 -0.16392139 0.16437426
-0.19407755 -0.15809633 0.13984798
-0.22004297 -0.045351181 -0.0069929617
-0.21988219 -0.075077049 -0.0060136728
-0.22159038 -0.093914188 -0.0156113
-0.22000988 -0.1271016 -0.0065975343
-0.22051996 -0.14917856 -0.0094147092
-0.21999168 -0.17438178 -0.0063557206
-0.2199924 -0.19631459 -0.0062902248
-0.22027452 -0.21637309 -0.0078173205
-0.21994723 -0.23760666 -0.0058955592
-0.22025852 -0.26563585 -0.0075527006
-0.21992518 -0.27582628 -0.0056314962
-0.22048615 -0.30164939 -0.0087014986
-0.22049755 -0.31918293 -0.0086962385
-0.2203912 -0.3365064 -0.0080246776
-0.22033779 -0.35333553 -0.0076525812
-0.22034445 -0.36974707 -0.0076203085
-0.22007558 -0.38620156 -0.0060288226
-0.22021732 -0.40194893 -0.0067609306
-0.22026168 -0.41764352 -0.0069418168
-0.22049457 -0.44090402 -0.008154477
-0.22040908 -0.4486911 -0.0076356251
-0.22053269 -0.47187632 -0.0082295705
-0.2204977 -0.48733699 -0.0079612071
-0.22054246 -0.50284863 -0.0081439996
-0.22066554 -0.51849675 -0.0087699201
-0.22069207 -0.53422683 -0.0088492511
-0.22071974 -0.55812329 -0.0088996403
-0.22096272 -0.56647778 -0.010239124
-0.22068545 -0.59067595 -0.0085635502
-0.22092752 -0.6078313 -0.0098621324
-0.22105403 -0.62522137 -0.010506573
-0.22122486 -0.643179 -0.011401669
-0.22127061 -0.66138399 -0.011588891
-0.22102048 -0.68887317 -0.010065689
-0.2212041 -0.70896292 -0.011032525
-0.22138688 -0.72988021 -0.011994344
-0.22170329 -0.75220799 -0.013711987
-0.22184092 -0.77496362 -0.014417785
-0.22079843 -0.80588764 -0.0084094731
-0.22130471 -0.83311093 -0.011200252
-0.22143985 -0.86026829 -0.011890799
-0.22184594 -0.89062899 -0.014113799
-0.2222207 -0.92301667 -0.016159005
-0.22116679 -0.9660731 -0.010082757
-0.39848742 -2.2797046 -1.0131267
-0.39294633 -2.4428236 -0.98162937
-0.39417067 -2.6051736 -0.9884513
-0.39407939 -2.7736628 -0.98782647
-0.39475429 -2.9696789 -0.9915309
-0.39660347 -3.2039039 -1.0018712
-0.40016487 -3.4920161 -1.0218883
-0.39082545 -3.8153329 -0.96885622
-0.39183894 -4.1839767 -0.97443491
-0.38995293 -4.5784469 -0.96359873
-0.24817145 -3.5532408 -0.16122589
-0.22845417 -3.5376773 -0.049580697
0.24953519 -8.9135799 2.6571531
0.34646383 -6.2514358 3.2052245
0.35985863 -5.9181814 3.2809904
0.36581019 -5.1609793 3.3146057
0.36984006 -4.850246 3.3373957
0.36010677 -4.459734 3.2822988
0.36365724 -4.2064481 3.3023922
0.33919322 -3.6667442 3.1639538
0.37372777 -3.6628962 3.3594089
0.36854365 -3.4177885 3.3300896
0.36218777 -3.1849537 3.2941446
0.35720348 -2.9761214 3.2659662
0.35884601 -2.8123589 3.2752922
0.3605161 -2.6570783 3.2847764
0.34652805 -2.446125 3.2056592
0.36426875 -2.2973857 3.3061068
0.36313134 -2.1547859 3.2997127
0.35413387 -1.9942616 3.2488453
0.35305694 -1.8653179 3.2427979
0.34928387 -1.7342194 3.2214968
0.34582961 -1.6093613 3.2020018
0.34637946 -1.497709 3.2051647
0.34534985 -1.3856896 3.1993918
0.34590796 -1.2792016 3.2026041
0.3495225 -1.1265883 3.2231395
0.3325156 -1.0040625 3.1269708
0.30759886 -0.88277233 2.9860499
0.34850472 -0.81912416 3.2175565
0.34354115 -0.71665817 3.1895335
0.34020099 -0.61728382 3.170697
0.33607957 -0.51952726 3.1474414
0.33288136 -0.37552878 3.1294432
-0.088607132 -0.42651907 0.74491853
-0.089100718 -0.41548893 0.74219912
-0.088861428 -0.39774194 0.74366313
-0.098331578 -0.39540884 0.690193
-0.10007514 -0.39340654 0.68036509
-0.10259642 -0.37399253 0.66628486
-0.10338834 -0.36601418 0.66187847
-0.10406926 -0.35778996 0.65810007
-0.1048789 -0.34474728 0.65363079
-0.10524065 -0.33528274 0.65165859
-0.10522522 -0.32974946 0.65178323
-0.1058805 -0.31518224 0.64818788
-0.10603493 -0.30386242 0.64738905
-0.072604649 -0.026342332 0.83692211
-0.098624587 -0.077140503 0.69004583
-0.10140754 -0.055181894 0.67441708
-0.10246032 -0.030957948 0.66853976
-0.10280856 0.0040307459 0.66665024
-0.016729718 1.5552323 1.1541498
-0.030533802 1.5550034 1.0761374
-0.043985311 1.5555898 1.0001203
-0.057261005 1.5542537 0.92509788
-0.070034862 1.5598763 0.85291618
-0.0830108 1.5549859 0.77958971
-0.095569298 1.5582889 0.70862675
-0.10798316 1.5650085 0.63848311
-0.12672931 1.560421 0.5325563
-0.13913654 1.55089 0.46244782
-0.15149227 1.5668758 0.39263654
-0.16386038 1.5613847 0.3227509
-0.17603223 1.5444615 0.25397322
-0.18836182 1.5410357 0.18430662
-0.201042 1.5479629 0.11265948
-0.2200764 1.547019 0.0051068324
-0.16774903 -0.021958327 0.30089509
-0.16902724 -0.052414034 0.29373261
-0.16894257 -0.077548645 0.29424313
-0.17083694 -0.089997217 0.28359944
-0.17288178 -0.099029049 0.27210537
-0.17595439 -0.1114199 0.25483426
-0.17789289 -0.12042493 0.24394163
-0.17993379 -0.12802784 0.23247027
-0.181922 -0.13601469 0.22129665
-0.18385538 -0.14437363 0.21043314
-0.1858342 -0.15228355 0.19931272
-0.18819268 -0.15743111 0.18604539
-0.19216029 -0.16317473 0.1637132
-0.19639538 -0.15810403 0.13983352
-0.22212902 -0.046747137 -0.0055869697
-0.2223478 -0.074414596 -0.0067568128
-0.22272681 -0.099704407 -0.0088325953
-0.22234568 -0.12710758 -0.0066093649
-0.22257414 -0.15035959 -0.0078332825
-0.22232717 -0.1743872 -0.0063682157
-0.22247542 -0.19578992 -0.0071382863
-0.22230834 -0.21737765 -0.0061247628
-0.22298844 -0.24533686 -0.0098681003
-0.22226238 -0.25707558 -0.0057274713
-0.22226013 -0.27583027 -0.0056459187
-0.2228213 -0.30165294 -0.008716506
-0.22266796 -0.31951162 -0.0077805575
-0.22272611 -0.33650938 -0.0080406247
-0.22250438 -0.3535969 -0.0067177773
-0.22267909 -0.36974949 -0.0076372596
-0.22275177 -0.38582239 -0.0079796519
-0.22255161 -0.40195078 -0.0067789671
-0.2225958 -0.4176451 -0.0069604148
-0.22282846 -0.44090515 -0.0081739454
-0.22274283 -0.44869208 -0.0076554082
-0.22284846 -0.46414551 -0.0081848297
-0.22283071 -0.48733726 -0.0079826117
-0.22304876 -0.50291854 -0.0091484105
-0.22299781 -0.51849645 -0.0087927366
-0.22285149 -0.53408694 -0.007897676
-0.22312382 -0.55019206 -0.0093712965
-0.22312321 -0.5662685 -0.0093010878
-0.22318324 -0.59093332 -0.0095411669
-0.22309002 -0.60753685 -0.008947853
-0.22338215 -0.62521917 -0.010534906
-0.22338957 -0.64281797 -0.010511719
-0.22359678 -0.66138119 -0.011619282
-0.22398672 -0.68107289 -0.013761181
-0.22352716 -0.70895946 -0.011065784
-0.22370848 -0.72987634 -0.012028874
-0.22402328 -0.75220388 -0.013747877
-0.22430336 -0.77551842 -0.015271401
-0.22311369 -0.80588293 -0.0084489435
-0.22361763 -0.83310586 -0.011241436
-0.22375023 -0.86026293 -0.011933764
-0.22415344 -0.89062327 -0.014158732
-0.22338945 -0.93225288 -0.0097523239
-0.22404806 -0.96978301 -0.013426989
-0.40025648 -2.2765572 -1.0107572
-0.39482179 -2.4403577 -0.98001379
-0.39535853 -2.5968425 -0.98307717
-0.39529461 -2.765141 -0.98275203
-0.39651588 -2.9661729 -0.9897179
-0.39859858 -3.2029779 -1.0015806
-0.40029687 -3.4695003 -1.01129
-0.39172366 -3.80056 -0.96291667
-0.3931472 -4.1745954 -0.97114742
-0.24948505 -3.5345726 -0.15788393
-0.23027867 -3.5337138 -0.04919396
0.20518054 -10.815916 2.4092188
0.2435243 -8.8045406 2.6276705
0.34784189 -6.2830262 3.2198486
0.35646668 -5.8962483 3.2689648
0.36093283 -5.129746 3.294883
0.36989477 -4.8636527 3.3458178
0.36110184 -4.4800992 3.2964103
0.37123045 -4.1403208 3.3540211
0.33658969 -3.660845 3.1584821
0.37359551 -3.6725509 3.3678358
0.36793903 -3.4242995 3.3360703
0.36158657 -3.191237 3.3003573
0.35529369 -2.975611 3.2649686
0.3577235 -2.8156519 3.2788761
0.35730568 -2.6512091 3.2766798
0.35477862 -2.4129567 3.2626305
0.358565 -2.2837615 3.2841868
0.36155242 -2.155937 3.3012228
0.35438368 -2.0009818 3.2608352
0.3503556 -1.8632762 3.2381983
0.34750816 -1.7347753 3.2222323
0.34484869 -1.611757 3.2073252
0.34376362 -1.4964912 3.2013166
0.34440401 -1.3336625 3.2051227
0.34663025 -1.2305745 3.2178321
0.34769627 -1.1269661 3.223979
0.33289427 -1.0068805 3.140394
0.30556285 -0.88291347 2.9859509
0.3475188 -0.82000941 3.2233231
0.34168139 -0.71689904 3.1904249
0.3374632 -0.61722845 3.1666813
0.33472484 -0.51974934 3.151305
0.3304711 -0.37575155 3.1274109
-0.090841889 -0.42653418 0.74488324
-0.09133441 -0.41550374 0.74216467
-0.090870716 -0.40336248 0.74485439
-0.10056425 -0.39542019 0.69016063
-0.1023076 -0.39341724 0.68033302
-0.10452923 -0.37824017 0.66789889
-0.10561635 -0.3660233 0.6618486
-0.10629585 -0.35779873 0.65807086
-0.10649914 -0.35328379 0.65695393
-0.10704891 -0.33927557 0.65394306
-0.10744721 -0.32975739 0.65175611
-0.10810014 -0.31518972 0.64816189
-0.10825294 -0.30386972 0.64736384
-0.074066252 -0.037273929 0.84108764
-0.10043719 -0.073832899 0.69223893
-0.10333841 -0.052617759 0.67593104
-0.10457423 -0.030090291 0.66901159
-0.1049264 0.0049151168 0.66709429
-0.019461708 1.546735 1.1512243
-0.032730781 1.5549691 1.0762434
-0.046565749 1.5478705 0.99805671
-0.059458125 1.5542299 0.92520583
-0.072268046 1.5588796 0.85282087
-0.084966369 1.5628508 0.78106695
-0.097959094 1.5503584 0.7076422
-0.11023381 1.5620216 0.63828719
-0.12892494 1.5604254 0.53266996
-0.14129309 1.5638976 0.46278408
-0.15366833 1.5608917 0.39285612
-0.16602699 1.558409 0.32302225
-0.17840871 1.5564412 0.25305852
-0.19053341 1.5400738 0.18454351
-0.20331647 1.5509621 0.11231534
-0.16839889 -0.022649232 0.30941013
-0.16980062 -0.051987413 0.3015343
-0.17110002 -0.077524379 0.29423872
-0.17305489 -0.089038365 0.28324127
-0.17616937 -0.10182158 0.26571664
-0.17818159 -0.11049298 0.25439605
-0.18012364 -0.1195128 0.24347225
-0.18111004 -0.12371057 0.23792356
-0.18415964 -0.13513514 0.22076684
-0.18599889 -0.14434096 0.21042471
-0.18797593 -0.15224975 0.19930382
-0.19033276 -0.157396 0.18603626
-0.19334768 -0.15850119 0.16904867
-0.1975656 -0.15300588 0.14526042
-0.22464469 -0.044611897 -0.0077108024
-0.2244855 -0.074362725 -0.0067575197
-0.22486258 -0.099652015 -0.0088351816
-0.22461662 -0.12643942 -0.0073900488
-0.224565 -0.1508943 -0.007042998
-0.22445697 -0.17433394 -0.0063764644
-0.2247511 -0.19520639 -0.0079832496
-0.22458526 -0.21682377 -0.0069890893
-0.22471419 -0.23661813 -0.0076611475
-0.22454143 -0.25658265 -0.0066270619
-0.22497015 -0.28349003 -0.0089645814
-0.22440545 -0.29388383 -0.0057429066
-0.22446841 -0.31141412 -0.0060407594
-0.22484124 -0.33645299 -0.0080611752
-0.22478612 -0.3532815 -0.007690866
-0.22479114 -0.36969241 -0.0076603573
-0.22486235 -0.38576493 -0.0080039771
-0.22483271 -0.40173671 -0.0077771568
-0.22470351 -0.41758701 -0.0069871936
-0.22482315 -0.43312132 -0.0076042083
-0.224674 -0.4486855 -0.0067012194
-0.22477821 -0.46410364 -0.007230619
-0.22493279 -0.48727751 -0.0080147423
-0.22497608 -0.50278848 -0.0081994226
-0.22509776 -0.5184359 -0.0088272607
-0.22495036 -0.53402609 -0.0079334145
-0.22497734 -0.55786997 -0.0079953838
-0.22539072 -0.56641489 -0.010302503
-0.22511104 -0.59061223 -0.0086301183
-0.22535183 -0.60776681 -0.0099309226
-0.22547695 -0.62515616 -0.010577655
-0.22548386 -0.64275467 -0.01055583
-0.22569077 -0.66131741 -0.011664815
-0.22528175 -0.68836731 -0.0092603825
-0.2257743 -0.70936435 -0.01198443
-0.22580197 -0.72981131 -0.012079698
-0.2261171 -0.75213826 -0.013800407
-0.22610897 -0.77433389 -0.013693056
-0.2252079 -0.80581695 -0.0085056853
-0.2258483 -0.83366859 -0.012065485
-0.22597809 -0.860852 -0.0127378
-0.22612408 -0.88987356 -0.013501755
-0.22662483 -0.92294246 -0.016271746
-0.22638342 -0.97120094 -0.014814037
-0.40244478 -2.2756171 -1.010295
-0.40255117 -2.4109473 -1.0108349
-0.39759365 -2.5958517 -0.98270899
-0.39792359 -2.7675228 -0.98451263
-0.39906645 -2.9677413 -0.99091309
-0.40141311 -3.2072275 -1.0041206
-0.40204901 -3.4612436 -1.0076542
-0.40462986 -3.7798026 -1.0221857
-0.39511263 -4.166028 -0.96827501
-0.39111534 -4.5233955 -0.94560915
-0.39216474 -5.0544596 -0.95148098
-0.23274533 -3.5356112 -0.049767133
0.2437565 -8.872345 2.6448083
0.34535629 -6.2832737 3.2193265
0.34888935 -5.8408756 3.2393448
0.35308337 -5.4582458 3.2631025
0.3614811 -5.1562886 3.3106253
0.37044877 -4.8879538 3.3613722
0.36010736 -4.4900613 3.3029714
0.35654464 -4.1824183 3.2828908
0.3373208 -3.6799514 3.1743135
0.36804181 -3.6516018 3.3480361
0.36462808 -3.4174843 3.3288033
0.35876945 -3.1873975 3.2957511
0.35602567 -2.9896362 3.280308
0.35639203 -2.8190477 3.2824473
0.35698605 -2.6586795 3.2858748
0.35012561 -2.4763358 3.2471642
0.35706115 -2.2856002 3.2864792
0.3599219 -2.1571872 3.3027253
0.35277233 -2.0021667 3.2623837
0.34954476 -1.8665881 3.2442148
0.34593099 -1.7358304 3.2238634
0.3432866 -1.6127462 3.208993
0.34319773 -1.4994662 3.2085705
0.34267017 -1.3882412 3.2056694
0.34477705 -1.2308145 3.217705
0.34619021 -1.1276562 3.2257795
0.33088174 -1.0069219 3.1393199
0.30372146 -0.88313085 2.9858549
0.34569257 -0.82024854 3.2232306
0.34107357 -0.71774477 3.1972077
0.33529672 -0.61735708 3.1646397
0.33238736 -0.51992869 3.1482849
0.32906142 -0.42381987 3.1295762
-0.092760228 -0.42654517 0.74484402
-0.093251847 -0.41551474 0.74212641
-0.092957377 -0.40358189 0.74385393
-0.10405829 -0.39313111 0.68123859
-0.10658024 -0.37363309 0.66713297
-0.10721107 -0.37019011 0.66359681
-0.10821071 -0.35780415 0.65803784
-0.10863183 -0.34877935 0.6557194
-0.10937706 -0.33529624 0.6516
-0.10980379 -0.3258183 0.64925063
-0.1095373 -0.31912199 0.6507901
-0.11016531 -0.30387563 0.64733547
-0.076215707 -0.038736556 0.83971375
-0.10205851 -0.071357995 0.69388288
-0.10388759 -0.056239977 0.68361259
-0.10632146 -0.028351912 0.66996258
-0.10684391 0.0049041049 0.66709369
-0.10787017 0.060812198 0.66142464
-0.01475174 1.5419564 1.1891176
-0.034873988 1.5520692 1.0754716
-0.04817136 1.5555204 1.0003693
-0.061369669 1.556136 0.92582494
-0.074126102 1.5627636 0.85378373
-0.086945355 1.563813 0.78138292
-0.099973917 1.5503416 0.7077868
-0.11221957 1.5639992 0.63863951
-0.12475081 1.5602497 0.56786317
-0.14333658 1.5619003 0.46289819
-0.15572158 1.563899 0.39295354
-0.16810444 1.5614179 0.32301712
-0.18024963 1.5425131 0.25440979
-0.19261506 1.5410901 0.18457261
-0.20513706 1.5421022 0.11385244
-0.16812792 -0.0050689778 0.32181647
-0.17010409 -0.027466564 0.31068364
-0.17172961 -0.051974814 0.30153078
-0.17296995 -0.078457028 0.29455334
-0.17491826 -0.089958541 0.28358713
-0.17696056 -0.098988675 0.27209169
-0.18010592 -0.11047818 0.25438705
-0.18212911 -0.11861451 0.24300013
-0.18303321 -0.12369499 0.23791334
-0.18608175 -0.13511875 0.22075555
-0.18792002 -0.14432412 0.21041253
-0.18989621 -0.15223239 0.19929089
