# .PCD v0.7 - Point Cloud Data file format
VERSION 0.7
FIELDS x y z
SIZE 4 4 4
TYPE F F F
COUNT 1 1 1
WIDTH 1380
HEIGHT 1
VIEWPOINT 0 0 0 1 0 0 0
POINTS 1380
DATA ascii
-0.042529676 -0.18811035 -0.008183171
-0.042505667 -0.20904858 -0.0079396646
-0.042475652 -0.22916006 -0.007662788
-0.042452216 -0.24850002 -0.0074238284
-0.042288505 -0.26753506 -0.0063895532
-0.043003436 -0.29275626 -0.010287873
-0.043013573 -0.31015825 -0.010240659
-0.042906981 -0.32734883 -0.0095315864
-0.042853929 -0.34404352 -0.0091264648
-0.042692397 -0.36054438 -0.0081062317
-0.042935975 -0.37625542 -0.0093837641
-0.042910606 -0.39209005 -0.0091359597
-0.042786762 -0.40780258 -0.0083297109
-0.043199103 -0.43078378 -0.010511966
-0.043010611 -0.44622558 -0.0093389237
-0.042902127 -0.46154645 -0.0086194696
-0.043048166 -0.47686708 -0.0093429536
-0.043274269 -0.49230844 -0.010520005
-0.043060131 -0.50764298 -0.0092008254
-0.043269306 -0.5233385 -0.010281106
-0.043143019 -0.54683721 -0.0094060795
-0.043275774 -0.56299824 -0.010051863
-0.04347254 -0.57956648 -0.011059787
-0.043726686 -0.59662038 -0.012392168
-0.043866176 -0.61391026 -0.013073872
-0.043532591 -0.63948268 -0.011018698
-0.04385566 -0.65840465 -0.012738397
-0.044040926 -0.67766076 -0.013676006
-0.04423821 -0.69768769 -0.014680418
-0.044435292 -0.71854317 -0.015682204
-0.044063739 -0.74911278 -0.013402563
-0.044002451 -0.77127463 -0.012936837
-0.044180896 -0.79555035 -0.013827015
-0.044832077 -0.82340145 -0.017392032
-0.043663267 -0.85766858 -0.010584649
-0.044113349 -0.88875759 -0.013003815
-0.044880677 -0.92407727 -0.017215036
-0.045309611 -0.96019143 -0.01950595
-0.21968547 -2.3179114 -1.0059776
-0.21977033 -2.4580116 -1.0061498
-0.22049542 -2.6176832 -1.0099206
-0.21584576 -2.8365712 -0.98307496
-0.21670136 -3.0441115 -0.98750764
-0.21880667 -3.2938664 -0.99895847
-0.22008248 -3.5708971 -1.005661
-0.22121428 -3.8911545 -1.0114766
-0.20985396 -4.2793365 -0.94630051
-0.21330625 -4.7962766 -0.96495605
-0.16549565 -9.6166573 -0.68556452
-0.088353813 -8.2597065 -0.25022918
0.1242777 -10.902398 0.96014184
0.24844952 -10.738684 1.6639655
0.31281063 -10.768459 2.0288827
0.35891348 -4.9089375 2.2810247
0.51887882 -6.4909129 3.1903939
0.51837188 -5.972137 3.1867425
0.53336829 -5.6818995 3.2713425
0.54876167 -5.4243269 3.3582473
0.54061955 -4.9800954 3.3114467
0.55271155 -4.5954576 3.3794739
0.54962134 -4.2824621 3.3615263
0.51743764 -3.7975085 3.1783926
0.53633773 -3.6911354 3.2854295
0.54430258 -3.5200934 3.3303795
0.53734761 -3.2748437 3.2906413
0.53309953 -3.0624089 3.2663012
0.53936267 -2.8296776 3.3015518
0.53956848 -2.6660211 3.3025396
0.54283065 -2.5230379 3.3208864
0.52694261 -2.3139331 3.2305772
0.5374378 -2.211756 3.2899919
0.53211808 -2.0591285 3.2596815
0.52805614 -1.9181088 3.2365201
0.53016961 -1.7397232 3.2483511
0.52668095 -1.6133255 3.228466
0.52472645 -1.4950581 3.2172914
0.52376699 -1.3824086 3.2117674
0.52221692 -1.2717012 3.2028999
0.52431226 -1.1690522 3.2147112
0.52695227 -1.068014 3.229614
0.48274237 -0.87322015 2.9788373
0.52565396 -0.8111915 3.2220981
0.52021414 -0.70810509 3.1911998
0.51500124 -0.60790139 3.1615937
0.51004374 -0.51018661 3.1334405
0.50831729 -0.4142662 3.1236086
0.089728765 -0.42665741 0.75082147
0.088265792 -0.41602379 0.74259311
0.075141236 -0.40406993 0.66837132
0.07394246 -0.40117547 0.66161126
0.071924299 -0.377516 0.65037853
0.071657069 -0.37349403 0.64889836
0.071566187 -0.36436012 0.64845151
0.071727648 -0.35430706 0.64943427
0.071753077 -0.33911967 0.64967984
0.071758032 -0.32310614 0.64980894
0.072210416 -0.31592396 0.6524052
0.072235867 -0.29818213 0.65264922
0.072179899 -0.2859211 0.65239823
0.07650283 -0.2450361 0.67698056
0.075149991 -0.23615675 0.66938204
0.07339067 -0.22123511 0.65951324
0.072962888 -0.20640825 0.65715313
0.072633147 -0.18995461 0.65534747
0.27394894 1.6834456 1.7950634
0.25442269 1.6699232 1.6844821
0.23797852 1.6783612 1.5913515
0.22281317 1.6953108 1.5054628
0.19959487 1.7069672 1.3739777
0.17889391 1.633669 1.2567935
0.15857941 1.5435607 1.1418144
0.14514707 1.5469031 1.0657626
0.13192585 1.5492463 0.99090886
0.11826642 1.5361414 0.91358489
0.10543377 1.5347162 0.8409375
0.086776651 1.5403825 0.73531508
0.074290842 1.536348 0.66463661
0.061660711 1.5128249 0.59315658
0.05008176 1.5636011 0.52757305
0.037749525 1.5580868 0.45776707
0.025483511 1.5581009 0.38833204
0.013144218 1.5646421 0.31847659
-0.0051722135 1.5503616 0.21480438
-0.017678691 1.554644 0.14400357
-0.03043179 1.5612679 0.071803235
-0.04332485 1.5652093 -0.0011880965
-0.056173239 1.5625392 -0.07392092
0.0036248704 -0.025547175 0.26650006
0.0035799805 -0.068438262 0.26635894
0.0012683868 -0.075131588 0.25334236
-0.0015278993 -0.075975232 0.23757407
-0.0042684507 -0.078355245 0.22212283
-0.0071020573 -0.095540434 0.20619516
-0.0090300767 -0.10595211 0.19535501
-0.011276833 -0.11340597 0.18270598
-0.014004164 -0.1173303 0.16733041
-0.017717779 -0.1149306 0.14636002
-0.029885443 -0.072115593 0.077483647
-0.034637306 -0.070196927 0.050628956
-0.038734596 -0.073893458 0.0274882
-0.040353764 -0.10461447 0.018451845
-0.043030389 -0.1166397 0.0033686727
-0.041487388 -0.14736126 0.012214788
-0.045071211 -0.15521455 -0.0080137076
-0.045442086 -0.17611277 -0.010022652
-0.04520724 -0.19831915 -0.0085977977
-0.045102146 -0.2190986 -0.0079096043
-0.045303926 -0.23813957 -0.0089622149
-0.045211378 -0.25737807 -0.008346702
-0.044979949 -0.27629611 -0.0069444906
-0.045604851 -0.3014361 -0.010353338
-0.04538846 -0.31904462 -0.0090378486
-0.045553863 -0.33553472 -0.0098873805
-0.045444299 -0.35215211 -0.0091785248
-0.045397073 -0.36835614 -0.0088235438
-0.045418013 -0.3842268 -0.0088553866
-0.045511842 -0.39984617 -0.0093007935
-0.045509387 -0.4154025 -0.0092007434
-0.045500558 -0.43852362 -0.0090221474
-0.045609035 -0.4538371 -0.0095517226
-0.045450833 -0.46914274 -0.0085699698
-0.045720607 -0.4845258 -0.010014376
-0.045896068 -0.50002033 -0.010924428
-0.045631263 -0.51536375 -0.0093392571
-0.045744434 -0.53894401 -0.0098548057
-0.045583524 -0.55464125 -0.0088591566
-0.045999166 -0.57132858 -0.011131495
-0.046136905 -0.58801311 -0.011828911
-0.046329759 -0.60518795 -0.012838896
-0.046406481 -0.62258613 -0.013190865
-0.046138491 -0.6486547 -0.011548084
-0.046231881 -0.66730922 -0.011994978
-0.046345647 -0.68667299 -0.012557527
-0.046924271 -0.70826083 -0.015754698
-0.045922983 -0.7359916 -0.009957362
-0.046099793 -0.75842434 -0.010877745
-0.046657626 -0.78359824 -0.013957593
-0.047411274 -0.81118655 -0.018147266
-0.046245378 -0.84463018 -0.011418308
-0.046178002 -0.87205452 -0.010955552
-0.04734334 -0.90838134 -0.017478729
-0.047089897 -0.93906379 -0.015961822
-0.047468144 -0.97620106 -0.018024832
-0.22183627 -2.385999 -1.0059855
-0.22328696 -2.5443888 -1.0141222
-0.22358073 -2.7097604 -1.0157036
-0.21836638 -2.9381225 -0.98603082
-0.2199408 -3.1675222 -0.99487102
-0.22183482 -3.4335971 -1.0055231
-0.22156146 -3.7135069 -1.0038941
-0.22371419 -4.0754447 -1.016014
-0.21174757 -4.5014963 -0.94808608
-0.20958421 -4.9702749 -0.93575156
-0.14429918 -9.9898863 -0.56544548
-0.065519571 -8.3043108 -0.11894324
-0.030004757 -10.301506 0.082346275
0.092409991 -10.799344 0.77614319
0.15616041 -10.871301 1.1374528
0.34763584 -10.839849 2.2226684
0.5222404 -6.2737641 3.2128785
0.52349263 -5.8066463 3.2200651
0.52877945 -5.0585947 3.2502019
0.54089403 -4.8237572 3.3189383
0.54670024 -4.4106541 3.3519709
0.54637587 -4.1342158 3.35022
0.5145188 -3.6719437 3.1697843
0.54837233 -3.663342 3.3617067
0.54067641 -3.4030559 3.3181834
0.53379172 -3.1676798 3.2792568
0.52968723 -2.9637418 3.2560847
0.53130955 -2.8001175 3.2653649
0.53851372 -2.5899861 3.3063197
0.51076245 -2.329875 3.1491477
0.54241467 -2.3063307 3.3286011
0.53235799 -2.1327007 3.2717006
0.52667558 -1.983283 3.239588
0.52465355 -1.8518307 3.2282186
0.52491909 -1.672291 3.2298582
0.52221078 -1.5505583 3.2146006
0.52209139 -1.4382496 3.214015
0.52188241 -1.3284949 3.2129223
0.52178848 -1.2213154 3.2124822
0.52387875 -1.1190604 3.2244205
0.48029926 -0.96645689 2.9775486
0.52743989 -0.86497873 3.2448373
0.5062359 -0.75057995 3.1247683
0.51634854 -0.6581465 3.1821737
0.5083701 -0.5584445 3.1370561
0.50725847 -0.46219173 3.1308544
0.08574301 -0.42179066 0.74232537
0.085796207 -0.41017514 0.74270892
0.073671587 -0.40736124 0.67411613
0.071952552 -0.40041772 0.66445524
0.071082003 -0.39717689 0.65956229
0.069585107 -0.37714201 0.65128326
0.069195203 -0.36871806 0.64915562
0.06874679 -0.35554278 0.64673769
0.069192886 -0.34939757 0.64930755
0.069211639 -0.32862073 0.64957976
0.069539808 -0.32204589 0.65148157
0.069346227 -0.30560619 0.65050972
0.070048228 -0.29057652 0.65457308
0.069630481 -0.27282539 0.65233189
0.073560819 -0.23922297 0.67469752
0.071330689 -0.22682947 0.6621843
0.070832215 -0.21273181 0.65944511
0.070213027 -0.1985493 0.65602207
0.070141628 -0.17971817 0.65570533
0.28120539 1.6902635 1.8528073
0.26126149 1.6777347 1.7398719
0.24421769 1.6841434 1.6433796
0.22746587 1.68725 1.5485408
0.21063881 1.6827012 1.4532728
0.18803766 1.5955145 1.3252472
0.16285877 1.5473102 1.1826762
0.14916216 1.5493824 1.1051517
0.1354026 1.5446111 1.0272676
0.12234398 1.5474277 0.95335931
0.10848409 1.5250622 0.87489873
0.095806614 1.5231899 0.80314881
0.077517003 1.5357364 0.69964969
0.065447599 1.5493064 0.63135433
0.053297296 1.5624582 0.56260091
0.040984198 1.5651832 0.49292007
0.028668273 1.5654365 0.4232223
0.016407318 1.5562247 0.35383135
0.0041366261 1.5545493 0.28438959
-0.014445088 1.5563462 0.17923453
-0.026809167 1.5514272 0.10926276
-0.039696954 1.5597079 0.036331143
-0.052594975 1.5613492 -0.036661707
-0.060146075 1.4433743 -0.079424679
0.00012669296 -0.075828262 0.26156425
-0.0027974267 -0.074521825 0.24507789
-0.0067853821 -0.079192661 0.222601
-0.0088359201 -0.089114755 0.21105793
-0.010532936 -0.10193051 0.20151618
-0.012509574 -0.11164588 0.19039185
-0.014927137 -0.11766361 0.17677145
-0.017963517 -0.11949436 0.15964738
-0.027533447 -0.090913698 0.10556361
-0.03426674 -0.074579448 0.067504443
-0.041883517 -0.084308229 0.024505099
-0.046170332 -0.10148517 0.00032772863
-0.045718759 -0.12837376 0.0029506695
-0.047988661 -0.14227538 -0.009837958
-0.047873691 -0.1656296 -0.0091203293
-0.048013177 -0.18694389 -0.009843301
-0.047838353 -0.208442 -0.0087857386
-0.047804933 -0.22858381 -0.0085286759
-0.048420671 -0.25562516 -0.011914063
-0.047451813 -0.26742822 -0.0063921469
-0.047789842 -0.28462642 -0.0082382569
-0.047998827 -0.31037629 -0.0093189552
-0.048050664 -0.32724085 -0.0095437402
-0.047991801 -0.3439354 -0.0091413632
-0.047993731 -0.36021093 -0.0090833157
-0.047891892 -0.37633792 -0.0084373858
-0.048031423 -0.39198127 -0.0091588544
-0.048074275 -0.40757152 -0.0093326773
-0.048021246 -0.423089 -0.0089633698
-0.048111405 -0.446116 -0.0093710525
-0.048344623 -0.46143615 -0.010623844
-0.048310935 -0.47679165 -0.010364593
-0.048184101 -0.49212858 -0.0095777363
-0.049001407 -0.50805378 -0.014140813
-0.048340239 -0.52322769 -0.010326777
-0.048204388 -0.54672617 -0.0094559947
-0.049177367 -0.56401032 -0.01490271
-0.048520796 -0.57945484 -0.011115603
-0.048601907 -0.59621626 -0.011509211
-0.04906483 -0.61412328 -0.014067171
-0.048717018 -0.63974458 -0.011998735
-0.048553739 -0.65747887 -0.011009195
-0.048736107 -0.67667139 -0.011979409
-0.049083941 -0.69710493 -0.013888354
-0.049275197 -0.7179296 -0.014910743
-0.048894849 -0.74845445 -0.012663892
-0.049254257 -0.77230722 -0.014642172
-0.048998907 -0.79483438 -0.013136614
-0.049507309 -0.82202828 -0.015962478
-0.04977623 -0.84981382 -0.017432395
-0.048779324 -0.88725358 -0.01170074
-0.050023224 -0.92539972 -0.018704453
-0.22432411 -2.1908588 -1.0071913
-0.22352298 -2.3129563 -1.0026915
-0.22439383 -2.4594007 -1.0076882
-0.2245557 -2.6149669 -1.0086782
-0.22689472 -2.8076715 -1.0220392
-0.22052898 -3.0403852 -0.98609024
-0.22073749 -3.269583 -0.98742098
-0.22262922 -3.5534484 -0.99834251
-0.22237286 -3.8550272 -0.99711472
-0.21365526 -4.2819295 -0.94804579
-0.21311788 -4.7323341 -0.94537973
-0.2101537 -5.2424588 -0.92902905
-0.16509441 -9.5380516 -0.67783684
-0.090990424 -8.317337 -0.25676024
-0.002230552 -10.674944 0.24373215
0.12333148 -10.841475 0.9549216
0.18716854 -10.877048 1.3165442
0.24597628 -10.639504 1.6498933
0.31473833 -10.849577 2.0393682
0.37824512 -10.806561 2.3993359
0.42065394 -8.883194 2.6418707
0.34290662 -4.9478335 2.2059078
0.5179379 -5.9946971 3.1967022
0.53488374 -5.7241821 3.2930899
0.54190427 -5.3843393 3.3333166
0.53720456 -4.9753642 3.3072128
0.53909063 -4.6639147 3.3183172
0.54743123 -4.2898703 3.3660986
0.51942235 -3.8345804 3.2079828
0.52930719 -3.6683998 3.2642472
0.54080844 -3.5204093 3.329649
0.53662026 -3.2911391 3.3062479
0.53146726 -3.0734305 3.2773683
0.5293839 -2.8857901 3.2658472
0.5301829 -2.7225776 3.2706287
0.53861636 -2.5222161 3.3187408
0.52364409 -2.316973 3.2342169
0.53590661 -2.2208421 3.3038685
0.52707267 -2.0565414 3.2540758
0.52494621 -1.9216108 3.2422504
0.52180618 -1.7895029 3.2246795
0.52155364 -1.6117769 3.2235522
0.52019244 -1.495042 3.2160408
0.51918507 -1.3824267 3.2105286
0.52009511 -1.2758926 3.2158711
0.51998031 -1.1696262 3.2154069
0.52326453 -1.0693909 3.23419
0.47782013 -0.919801 2.9769909
0.52058411 -0.86164379 3.2193687
0.51536173 -0.70835453 3.1900527
0.51097566 -0.60844666 3.1653821
0.50667506 -0.5106613 3.1411927
0.50352246 -0.414599 3.1235034
0.08459565 -0.42664349 0.75077307
0.083124697 -0.41600901 0.74254715
0.070146695 -0.40382028 0.66928947
0.06853155 -0.39244464 0.6602962
0.067407057 -0.38530028 0.65402997
0.066346288 -0.36909768 0.648229
0.066060446 -0.36034757 0.64671403
0.066185281 -0.35027903 0.64752603
0.066388644 -0.33956316 0.64878321
0.066388704 -0.32359567 0.6489411
0.066839412 -0.31642893 0.65154773
0.066860244 -0.29873121 0.65182406
0.067078933 -0.28529564 0.65316921
0.071783513 -0.24244645 0.6799913
0.070149943 -0.23479854 0.67084062
0.068368286 -0.2197998 0.66090441
0.06780611 -0.20565546 0.65782624
0.067236409 -0.19068742 0.65470588
0.066935845 -0.16218357 0.65316659
0.26817167 1.6816016 1.7943552
0.24945092 1.6757725 1.6884001
0.23253547 1.6799748 1.592677
0.21624072 1.6844989 1.50047
0.20051412 1.6896707 1.411482
0.1747493 1.6549091 1.2656568
0.15312177 1.546316 1.1431811
0.13960856 1.548754 1.0667303
0.12627038 1.5492073 0.99126995
0.11256237 1.5351448 0.91370714
0.099546544 1.5288336 0.84006959
0.0871967 1.535519 0.77021176
0.068640925 1.5383482 0.66524601
0.055798233 1.5018942 0.59257424
0.044412691 1.5686324 0.5282113
0.03205182 1.5661359 0.45828736
0.019753288 1.5581632 0.38871405
0.0074771685 1.5567271 0.3192715
-0.004940446 1.5627912 0.24903175
-0.023462443 1.5557393 0.14425604
-0.035838999 1.5495675 0.074243613
-0.049068287 1.5643625 -0.00058772916
-0.061961453 1.5626836 -0.073523119
-0.0018915392 -0.02452415 0.2662172
-0.0018721502 -0.068355106 0.26640362
-0.0041871895 -0.0750461 0.25338611
-0.0069121094 -0.076785862 0.23804958
-0.0095701991 -0.080030344 0.22309098
-0.012302059 -0.098018467 0.20775694
-0.014122645 -0.10921153 0.19753854
-0.016253047 -0.11740439 0.18556693
-0.018751033 -0.12282107 0.17151484
-0.022656336 -0.11871231 0.14949647
-0.035391912 -0.071997337 0.077534162
-0.044503931 -0.072375722 0.026123792
-0.045611762 -0.10579742 0.019983506
-0.04895974 -0.11461806 0.0011171888
-0.04811978 -0.14241309 0.0059619574
-0.050740112 -0.1545054 -0.008784146
-0.050969195 -0.17597707 -0.0099908989
-0.051032517 -0.19715282 -0.010258545
-0.05078188 -0.21847789 -0.0087479381
-0.050677709 -0.23845801 -0.0080661112
-0.050583385 -0.25766516 -0.0074395472
-0.050670508 -0.27576926 -0.0078399861
-0.050974701 -0.30164185 -0.0094224419
-0.050923001 -0.31890815 -0.0090358863
-0.051090248 -0.33539793 -0.0098888343
-0.05098236 -0.35201532 -0.0091834702
-0.051107083 -0.368011 -0.0097950418
-0.050959978 -0.38408983 -0.0088670487
-0.05088383 -0.39984852 -0.0083406018
-0.051228721 -0.41516027 -0.01019823
-0.051133592 -0.4306688 -0.0095638502
-0.050987627 -0.45371723 -0.0085933553
-0.051179565 -0.46902215 -0.0095841335
-0.051278327 -0.48438773 -0.010047086
-0.051283412 -0.4997952 -0.0099793468
-0.051366992 -0.515347 -0.01035598
-0.051140711 -0.53863227 -0.0089291623
-0.051323999 -0.55471033 -0.0098700766
-0.05157293 -0.57118958 -0.011182589
-0.051546723 -0.58759856 -0.010936818
-0.051826715 -0.6221047 -0.012327352
-0.051566869 -0.64812469 -0.01070906
-0.05403059 -0.6730808 -0.024564018
-0.052096229 -0.68698645 -0.013510973
-0.05233955 -0.72814149 -0.014692471
-0.051708195 -0.75828409 -0.010969141
-0.051848233 -0.78169489 -0.011663595
-0.052743219 -0.83545142 -0.016534626
-0.052313734 -0.87464046 -0.01395375
-0.051991519 -0.90258443 -0.01202972
-0.052607816 -0.93819052 -0.015420723
-0.052995592 -0.97530377 -0.017517367
-0.22617728 -2.3744602 -0.99810624
-0.22760724 -2.5317416 -1.0061021
-0.22846043 -2.7010112 -1.0108309
-0.22307424 -2.9265075 -0.98017138
-0.22497682 -3.1583326 -0.99084115
-0.22495735 -3.400882 -0.99062485
-0.225464 -3.687567 -0.99338692
-0.22766355 -4.0472651 -1.0057346
-0.21512091 -4.4585996 -0.93453771
-0.21395399 -4.9402804 -0.92781562
-0.152532 -10.101991 -0.57926339
-0.070733637 -8.2353125 -0.11595017
-0.038225181 -10.640172 0.068322115
0.085763782 -10.709436 0.77072316
0.14922205 -10.800595 1.1302122
0.24680156 -10.921537 1.682896
0.34167993 -10.840228 2.2202542
0.51962447 -6.309433 3.2282956
0.5213576 -5.8443489 3.2381682
0.52547473 -5.4597621 3.2615433
0.5274055 -5.097384 3.2725384
0.53802174 -4.8467803 3.3327184
0.52773964 -4.4512582 3.2745588
0.53895175 -4.1208611 3.3381472
0.5090633 -3.6725404 3.1689689
0.54436684 -3.6727629 3.3689444
0.53611696 -3.4086387 3.3222973
0.5283795 -3.1683011 3.2785525
0.52677608 -2.9768291 3.2695422
0.52429503 -2.7931793 3.255563
0.53341997 -2.5917892 3.3073373
0.50566828 -2.3315842 3.1502666
0.5367651 -2.3059015 3.3264189
0.52805972 -2.1368215 3.2771966
0.52378434 -1.9914111 3.2530584
0.51790625 -1.8484892 3.2198458
0.51600343 -1.7228644 3.2091427
0.51753753 -1.5525972 3.217936
0.51661211 -1.4385269 3.2127674
0.51424706 -1.3249985 3.1994474
0.5156492 -1.2206215 3.207458
0.51774162 -1.1185383 3.219377
0.47464165 -0.96662217 2.9754093
0.5148651 -0.91004723 3.203232
0.51531535 -0.75987411 3.2058883
0.51108891 -0.65874046 3.1820292
0.50328583 -0.5590632 3.1379187
0.50131208 -0.46277159 3.1268144
0.080588311 -0.42728618 0.74489212
0.08000578 -0.41036421 0.74171317
0.06821242 -0.40717116 0.67505926
0.066508219 -0.40472698 0.6654501
0.065242462 -0.39300272 0.65840316
0.063954584 -0.37715426 0.65127093
0.063565068 -0.36872986 0.64914531
0.063440122 -0.35954118 0.64851761
0.063564524 -0.34940946 0.64930165
0.063837461 -0.33315879 0.65096641
0.063914433 -0.32205832 0.65148181
0.063722372 -0.30561844 0.65051365
0.064708136 -0.28941488 0.65617412
0.064010434 -0.27283815 0.65234309
0.06807936 -0.23858511 0.67545873
0.065842584 -0.2261502 0.6629138
0.065341063 -0.21202724 0.66015351
0.064602174 -0.19856299 0.65604925
0.064421162 -0.18049754 0.65510327
0.27601156 1.6899785 1.8531895
0.25632766 1.6800187 1.7418208
0.23908235 1.6847718 1.6442581
0.222395 1.6887995 1.5498549
0.20569684 1.6861014 1.455391
0.18332833 1.602656 1.3288298
0.15737066 1.544377 1.1819848
0.14396527 1.5511575 1.1061643
0.13054042 1.5531187 1.0302341
0.11674388 1.5415517 0.95220089
0.1031026 1.5240245 0.87504739
0.090788163 1.532958 0.80540413
0.078189746 1.5295053 0.73415428
0.060152493 1.5532757 0.6321485
0.047837179 1.5554823 0.56250149
0.035601825 1.5652056 0.49330667
0.023277819 1.5664747 0.42361081
0.011007292 1.5562783 0.35421896
-0.0013800764 1.5635968 0.28416422
-0.019865461 1.5564388 0.17962569
-0.032238372 1.5515355 0.10965432
-0.045034137 1.5568873 0.037288148
-0.057961576 1.559541 -0.035823118
-0.0045308899 -0.0019270098 0.26707122
-0.0054537156 -0.076675288 0.26201496
-0.0083742067 -0.075351067 0.24556077
-0.012439166 -0.079110511 0.22266793
-0.014145177 -0.092495181 0.21309121
-0.015916651 -0.10438873 0.20314375
-0.017880945 -0.11404468 0.19210444
-0.020081965 -0.12161806 0.17972472
-0.028599437 -0.10900083 0.13166271
-0.040888093 -0.068609901 0.062206812
-0.046813581 -0.061107706 0.028739441
-0.047563531 -0.084182777 0.024576908
-0.053823128 -0.14155446 -0.010572499
-0.053859528 -0.1643779 -0.010695082
-0.05371435 -0.18681136 -0.0097896922
-0.053693578 -0.20780936 -0.0095887333
-0.05366648 -0.22798187 -0.0093520507
-0.053489357 -0.24782276 -0.0082660113
-0.053325087 -0.26688966 -0.0072527798
-0.053346276 -0.28486979 -0.007289642
-0.053776119 -0.32710913 -0.009515631
-0.05372024 -0.34380385 -0.0091162371
-0.053626236 -0.37620673 -0.0084180087
-0.05376881 -0.39185002 -0.0091422088
-0.053764556 -0.42295799 -0.0089521632
-0.053859264 -0.44598505 -0.009363831
-0.053891178 -0.47662628 -0.0093784789
-0.053941168 -0.4919979 -0.009578432
-0.053912532 -0.53076154 -0.0092085442
-0.054040685 -0.53875124 -0.0098924832
-0.054128192 -0.57906604 -0.010179816
-0.054380979 -0.59608579 -0.011527556
-0.055670589 -0.61561781 -0.018744793
-0.054702338 -0.63116747 -0.013179957
-0.054441076 -0.64846182 -0.011617403
-0.054376431 -0.67610335 -0.011126007
-0.054885428 -0.69697452 -0.01392364
-0.055382855 -0.71879816 -0.016655641
-0.055706907 -0.74109435 -0.018406
-0.054930247 -0.77160376 -0.01388316
-0.054683417 -0.79410315 -0.012401535
-0.055337358 -0.82189792 -0.016018724
-0.055350132 -0.84837186 -0.01600622
-0.054248359 -0.88504153 -0.0096418951
-0.057328429 -0.93389702 -0.02699119
-0.23024172 -2.1882172 -1.0055685
-0.2289464 -2.3063111 -0.99813664
-0.22937869 -2.4485428 -1.0004818
-0.23012812 -2.6079924 -1.0046202
-0.2323695 -2.7988465 -1.0172004
-0.22461298 -3.015564 -0.97313493
-0.22731832 -3.2701347 -0.98833269
-0.2278735 -3.5367975 -0.99135625
-0.22894484 -3.8537662 -0.99729466
-0.22994477 -4.2268448 -1.0028211
-0.23100644 -4.6758995 -1.0086863
-0.20384577 -9.6505423 -0.85377508
-0.10125729 -8.4894905 -0.27304056
-0.05048997 -8.2955561 0.014417307
-0.0099988412 -10.55789 0.24404262
0.11476976 -10.791623 0.95057315
0.17924573 -10.888165 1.3156754
0.21005119 -10.829975 1.4905353
0.30639902 -10.840013 2.0360339
0.36889505 -10.766697 2.3898599
0.41350749 -8.8903913 2.6421914
0.34933582 -4.9076128 2.2785106
0.5182485 -6.0736642 3.2350433
0.52656919 -5.7063651 3.2821581
0.54860681 -5.5109429 3.4069524
0.53245991 -4.9901795 3.3155372
0.53411329 -4.6751204 3.3249226
0.54029644 -4.2833338 3.359978
0.51591086 -3.8527315 3.2219443
0.5272305 -3.6942112 3.2860777
0.53518569 -3.5231123 3.3311648
0.52931303 -3.28403 3.2979636
0.52429324 -3.0672634 3.2695949
0.53001481 -2.831785 3.3020711
0.53144693 -2.6734931 3.3102372
0.5330162 -2.5233171 3.3191814
0.51341897 -2.3005843 3.208293
0.52919048 -2.2177527 3.2976468
0.52204067 -2.0589895 3.2572331
0.51778644 -1.9175688 3.2332146
0.52049333 -1.7409569 3.2486413
0.5158506 -1.6118944 3.2224264
0.5159834 -1.4982708 3.223249
0.51451999 -1.3844595 3.2150357
0.5131222 -1.2738912 3.207195
0.51470363 -1.1703498 3.2162213
0.51784235 -1.0698731 3.2340651
0.47257403 -0.92040801 2.9778633
0.51564711 -0.81200475 3.2218263
0.51000911 -0.7088201 3.1899853
0.50511926 -0.60874671 3.1623807
0.49979118 -0.51095158 3.1322954
0.49822044 -0.41504538 3.1234825
0.079247542 -0.4265649 0.75177014
0.077607691 -0.41603276 0.74256676
0.064632684 -0.40383077 0.66931272
0.063233547 -0.39667541 0.66147226
0.061902359 -0.38530773 0.65405679
0.061400641 -0.37715438 0.65129697
0.06087631 -0.36433959 0.64844954
0.06069757 -0.3502847 0.64755881
0.06090565 -0.33956885 0.64881772
0.060912538 -0.32360113 0.64897811
0.061365988 -0.31643474 0.65158588
0.061393771 -0.29873681 0.65186489
0.061756335 -0.28469986 0.65399885
0.066734277 -0.24052888 0.68230397
0.064129077 -0.22976063 0.6676771
0.063787304 -0.22337119 0.66578311
0.062369779 -0.20566092 0.65788066
0.061918683 -0.18993783 0.65540892
0.0622021 -0.16787283 0.65709609
0.26344484 1.684778 1.7967883
0.24415532 1.6738987 1.6876709
0.22774857 1.6833279 1.5948756
0.21221495 1.6968399 1.5070235
0.18895145 1.7085829 1.3754535
0.16965841 1.6557431 1.2663114
0.14800327 1.547181 1.1437906
0.13437058 1.5477402 1.0666983
0.12074396 1.5424283 0.98963952
0.10711142 1.5292842 0.91254622
0.094305709 1.5278267 0.8401351
0.081956975 1.5345157 0.77031189
0.063700035 1.5512472 0.66708463
0.050724171 1.5118629 0.59370512
0.039169453 1.5666512 0.52838296
0.026793553 1.557163 0.45840359
0.014517097 1.5581985 0.38898844
0.0022539152 1.5547745 0.31964773
-0.010140953 1.5598564 0.24956256
-0.028619545 1.5518458 0.14507611
-0.041218527 1.5535837 0.073834598
-0.054331053 1.5644488 -0.00031302421
-0.067187138 1.5618087 -0.073011003
-0.0071033523 -0.070159599 0.2672199
-0.0095471283 -0.074994393 0.25346494
-0.012270346 -0.076732405 0.23812841
-0.015749553 -0.087068968 0.21855085
-0.017387891 -0.10053403 0.20935407
-0.019191485 -0.11167063 0.19922203
-0.02130511 -0.11980376 0.18733522
-0.027238006 -0.12409177 0.15390721
-0.041551273 -0.06672208 0.07300546
-0.049853642 -0.098639436 0.026237691
-0.054703254 -0.11265083 -0.0011003197
-0.053178031 -0.14354037 0.0076087783
-0.056301285 -0.17589895 -0.0099196602
-0.056362305 -0.19707511 -0.010189448
-0.055957098 -0.21888599 -0.0078199692
-0.056157451 -0.23792695 -0.0088783745
-0.056387927 -0.2837261 -0.0099936342
-0.056110866 -0.29321587 -0.0083872797
-0.056235392 -0.31883326 -0.0089785419
-0.056399707 -0.33532336 -0.0098329838
-0.056288753 -0.35194129 -0.009129121
-0.056070149 -0.36835408 -0.0078158472
-0.05626009 -0.38401666 -0.0088155204
-0.055836219 -0.40005514 -0.0063402196
-0.056349404 -0.41519281 -0.0091700554
-0.05642388 -0.43059683 -0.0095162587
-0.056056824 -0.44603965 -0.0073627881
-0.056635153 -0.46896815 -0.010524254
-0.056382801 -0.48426533 -0.0090204226
-0.056557979 -0.49972504 -0.0099372938
-0.05663792 -0.51527727 -0.010315125
-0.056621715 -0.5309025 -0.010148718
-0.056585532 -0.55464166 -0.0098321931
-0.056830656 -0.57112116 -0.01114592
-0.056800529 -0.58753061 -0.010901347
-0.057236001 -0.622379 -0.013219897
-0.056966577 -0.64844853 -0.011584599
-0.059266355 -0.67301357 -0.024534643
-0.057172388 -0.68646705 -0.012604859
-0.057710972 -0.72859102 -0.015511207
-0.056779347 -0.7576611 -0.010128843
-0.057199627 -0.78221846 -0.012438591
-0.057275023 -0.80667365 -0.012795834
-0.05781088 -0.83474565 -0.015761584
-0.056998041 -0.87185138 -0.011055812
-0.057179376 -0.9025225 -0.012015832
-0.057552855 -0.93666673 -0.01406528
-0.05805802 -0.9744879 -0.016861962
-0.23173453 -2.3775215 -1.0005758
-0.23273173 -2.53161 -1.0062108
-0.23366448 -2.7017188 -1.0114883
-0.23533118 -2.8985705 -1.0209334
-0.22783798 -3.1343734 -0.97849959
-0.22908726 -3.3899746 -0.98560894
-0.2302725 -3.6847034 -0.9923737
-0.23278564 -4.048996 -1.0066882
-0.23186684 -4.4291191 -1.001581
-0.21825515 -4.9286914 -0.92463118
-0.18275365 -9.9189081 -0.72554189
-0.075527273 -8.2522116 -0.11762019
-0.040838778 -10.347307 0.077877991
0.081733555 -10.759398 0.77176428
0.14516547 -10.820558 1.1309226
0.2742441 -10.897658 1.8618256
0.33868963 -10.88166 2.2267749
0.51390165 -6.2960596 3.2214973
0.51584458 -5.8347454 3.2327895
0.52691823 -5.5205121 3.2957075
0.52503777 -5.1187024 3.2853258
0.53615218 -4.8709426 3.3484442
0.53744876 -4.4185963 3.3561127
0.53759801 -4.1450725 3.3571634
0.50496203 -3.6771717 3.1726887
0.53851748 -3.6662874 3.3627493
0.53168213 -3.4108677 3.3242488
0.5241915 -3.1718161 3.2820303
0.52206767 -2.9775872 3.2701759
0.52349538 -2.8121705 3.2784154
0.52925318 -2.5948312 3.311235
0.50192726 -2.3361537 3.1567276
0.53098619 -2.3028193 3.3213429
0.52450663 -2.1414218 3.2848139
0.51778775 -1.9882163 3.2469265
0.51453531 -1.8529692 3.2286563
0.51464128 -1.6729892 3.2294617
0.51274002 -1.5530453 3.2188346
0.51246446 -1.4402453 3.2174087
0.50910056 -1.3247923 3.198499
0.51149976 -1.2220038 3.2122123
0.51375985 -1.1199762 3.2251382
0.47013837 -0.96727061 2.9783227
0.5099172 -0.85980576 3.2037103
0.51028341 -0.75995535 3.2059133
0.50587368 -0.65874952 3.1810775
0.50049376 -0.55959988 3.1507485
0.4962509 -0.46284682 3.1268556
0.075550385 -0.42144394 0.74527961
0.075085707 -0.41019261 0.74273384
0.063119829 -0.40715295 0.67510718
0.061584864 -0.40448394 0.66645765
0.060315885 -0.39270863 0.6593982
0.058859535 -0.37713495 0.65131956
0.058469333 -0.3687104 0.64919418
0.058343638 -0.35952163 0.64856678
0.058113389 -0.34539032 0.64738977
0.058738738 -0.33313915 0.65101635
0.058814734 -0.32203862 0.65153205
0.058476999 -0.30615741 0.64974767
0.059208244 -0.28468153 0.65401876
0.059617259 -0.27630222 0.65637887
0.063365638 -0.23659873 0.67774242
0.061234266 -0.22335316 0.66580206
0.061112277 -0.21554752 0.66515565
0.059490625 -0.19854283 0.65610343
0.059307754 -0.18047729 0.65515798
0.25120303 1.6817054 1.7430044
0.23377116 1.6847658 1.6443967
0.21708173 1.6887965 1.5499928
0.20030598 1.6852025 1.455096
0.17766757 1.5980929 1.3269577
0.15219238 1.5462515 1.1828208
0.13877347 1.5530581 1.1069354
0.12513213 1.5512183 1.0297855
0.11089724 1.5299761 0.94926369
0.097796656 1.5240406 0.87517303
0.085811645 1.542791 0.80741346
0.073125385 1.5384134 0.73566979
0.054911476 1.5572754 0.63268685
0.042618945 1.5634861 0.56317902
0.030290384 1.5662301 0.49346524
0.017959015 1.5645012 0.42373291
0.0056884629 1.5563064 0.35434094
-0.0065672603 1.5526528 0.28503585
-0.01904794 1.5604695 0.21446447
-0.037587941 1.5525559 0.10962013
-0.05039148 1.5579028 0.037219625
-0.063326336 1.5605508 -0.035925899
-0.00966556 -0.0018977476 0.26712528
-0.010647088 -0.075725421 0.26168114
-0.013573302 -0.07441517 0.24519531
-0.016233334 -0.07737717 0.23021375
-0.019007601 -0.095064253 0.2146159
-0.020669736 -0.1077522 0.20527752
-0.02261241 -0.11733211 0.1943529
-0.024690282 -0.12563469 0.18266368
-0.027573328 -0.1280399 0.16641988
-0.047082569 -0.061993528 0.056213632
-0.053277668 -0.067423582 0.021257339
-0.052433722 -0.085516162 0.026063316
-0.056312274 -0.10453898 0.0042128405
-0.056938656 -0.1263644 0.00073215872
-0.059080828 -0.14093511 -0.011325184
-0.058829144 -0.16490653 -0.0098363599
-0.058972612 -0.18625019 -0.010582972
-0.05877145 -0.22795142 -0.0093124406
-0.058591511 -0.2477925 -0.0082273278
-0.058742341 -0.26604521 -0.0090138158
-0.058443096 -0.2848399 -0.0072526932
-0.058866739 -0.32707965 -0.009480658
-0.058808375 -0.34377456 -0.0090820324
-0.058709487 -0.37617776 -0.008385282
-0.058849677 -0.39182124 -0.0091101881
-0.058952224 -0.43058488 -0.0095188376
-0.058866844 -0.43830246 -0.009001106
-0.058958847 -0.47659844 -0.0093501518
-0.059006397 -0.49197024 -0.0095507456
-0.059164025 -0.52306968 -0.01030635
-0.058858417 -0.54637843 -0.0084737716
-0.059179388 -0.57903934 -0.010155567
-0.059595749 -0.59635115 -0.012445834
-0.059893608 -0.61396593 -0.014065511
-0.059745036 -0.6311413 -0.013157587
-0.059641019 -0.64882606 -0.012502307
-0.059568036 -0.67651552 -0.01199047
-0.059763737 -0.69647992 -0.013033777
-0.059959296 -0.71727407 -0.014076942
-0.059876975 -0.74884361 -0.01351543
-0.059949782 -0.77157879 -0.013865283
-0.059838112 -0.79467976 -0.013171117
-0.059943132 -0.81998646 -0.01370536
-0.058918316 -0.85472554 -0.0078110425
-0.05962437 -0.88710022 -0.011753305
-0.060026079 -0.92021227 -0.013973259
-0.060348202 -0.95546377 -0.015744349
-0.23394713 -2.307868 -0.99936622
-0.23424479 -2.4493334 -1.0010799
-0.23496386 -2.6088035 -1.0051932
-0.23707765 -2.7988296 -1.0172257
-0.22962303 -3.0190449 -0.97507554
-0.23139814 -3.2638834 -0.98523366
-0.23356545 -3.5503736 -0.99764436
-0.23287271 -3.8454685 -0.99387145
-0.23517205 -4.2380319 -1.0071121
-0.22247756 -4.6987095 -0.93548781
-0.22066392 -5.2267423 -0.92555112
-0.2066848 -9.618845 -0.84951216
-0.055048209 -8.3774214 0.010037987
-0.013480487 -10.567865 0.24371995
0.04870132 -10.834004 0.59559023
0.11182276 -10.841524 0.95298016
0.17569441 -10.87717 1.3145944
0.20711945 -10.849826 1.4924374
0.298908 -10.688836 2.0124056
0.37182671 -10.952188 2.4251461
0.41274554 -8.953126 2.658632
0.32862097 -4.8998957 2.1859417
0.50763094 -6.0014029 3.1988313
0.52262104 -5.7097917 3.2840364
0.54571444 -5.5245862 3.4150355
0.52368534 -4.9515138 3.2908678
0.52764529 -4.6586556 3.3136215
0.53650254 -4.2887745 3.3642125
0.51207876 -3.8580205 3.2263708
0.52258426 -3.694134 3.2860789
0.53099024 -3.5259118 3.3339036
0.52421725 -3.2818663 3.2958465
0.51966441 -3.0678539 3.2703354
0.51822281 -2.8836613 3.2624156
0.51970303 -2.7236352 3.2710187
0.52801681 -2.522661 3.3183911
0.51217377 -2.3141301 3.2289503
0.52353477 -2.2150924 3.2934461
0.51816893 -2.0623035 3.2632799
0.51360065 -1.9197581 3.2376208
0.51013786 -1.7869545 3.2182124
0.50890195 -1.6073095 3.2114942
0.51078731 -1.4978434 3.2223458
0.50913745 -1.3837552 3.2131851
0.50821954 -1.2740816 3.2081645
0.50995404 -1.170748 3.2181551
0.51256841 -1.0695769 3.2331245
0.4667649 -0.91962981 2.9740067
0.51084769 -0.81216037 3.223803
0.50450218 -0.708556 3.1880448
0.50011766 -0.60871089 3.1633849
0.49425358 -0.51082724 3.1303465
0.49266866 -0.41499054 3.1215327
0.07405895 -0.42654324 0.75178576
0.072415166 -0.41601154 0.7425822
0.059601936 -0.40358776 0.67028725
0.058197837 -0.39639896 0.66243833
0.057093687 -0.38911024 0.65628749
0.056446858 -0.38120142 0.65272617
0.055916891 -0.37309855 0.64982647
0.055658273 -0.36432278 0.64846337
0.055474035 -0.35026824 0.64757222
0.055524763 -0.34002164 0.64796102
0.056101047 -0.32761645 0.65132654
0.055675618 -0.3123844 0.64906996
0.05615316 -0.29872119 0.65187675
0.056650676 -0.28408295 0.65479702
0.061748032 -0.23922794 0.6838237
0.059835985 -0.23278466 0.67309701
0.058158848 -0.21696402 0.66375279
0.057342641 -0.20418434 0.65923345
0.056650531 -0.18992361 0.65541726
0.055916149 -0.16453722 0.65141463
0.2579166 1.6839956 1.7962162
0.23890318 1.6756644 1.6886495
0.2223178 1.6833766 1.5948372
0.2056789 1.6844141 1.5007184
0.19023985 1.693221 1.413396
0.164625 1.6613413 1.2684846
0.14270678 1.5490915 1.1444237
0.12895605 1.5477684 1.0666554
0.11533078 1.5424533 0.98959535
0.10178424 1.5312462 0.91297829
0.08889544 1.5278453 0.84008849
0.0765775 1.5355161 0.77043515
0.058290903 1.5512582 0.66703373
0.04545486 1.520836 0.59443069
0.033761654 1.5666559 0.52832866
0.021420941 1.5681626 0.45854232
0.0091211274 1.5551969 0.38898167
-0.0031497581 1.5547694 0.31958947
-0.015573919 1.5618403 0.24933191
-0.034044143 1.5528222 0.14487767
-0.046828974 1.5604608 0.072577357
-0.059729259 1.5644279 -0.0003783459
-0.072541744 1.5608135 -0.072839946
-0.014893701 -0.075006083 0.25345978
-0.017695062 -0.075846173 0.23769169
-0.019787386 -0.085288011 0.22593547
-0.021370508 -0.099421255 0.21706103
-0.024262087 -0.11420326 0.20082475
-0.026362473 -0.12227884 0.18902348
-0.02872649 -0.12837099 0.17573008
-0.048078138 -0.059311479 0.066410467
-0.056714382 -0.10377985 0.017824484
-0.059245415 -0.140559 0.0036705332
-0.061678164 -0.17593022 -0.0099259373
-0.061890382 -0.19659139 -0.011038782
-0.061642565 -0.21794765 -0.0095466729
-0.061541002 -0.23795946 -0.0088822022
-0.061218202 -0.27611795 -0.0068746042
-0.061176918 -0.29396725 -0.0065504191
-0.061795276 -0.31855834 -0.0099154217
-0.061796743 -0.33535835 -0.0098326802
-0.06151969 -0.35221902 -0.008172662
-0.06164261 -0.3681815 -0.0087771555
-0.061665125 -0.3840529 -0.0088129491
-0.061588489 -0.39981246 -0.0082870936
-0.061587002 -0.41533491 -0.0081866067
-0.061927516 -0.43829945 -0.0099763609
-0.061690465 -0.45368415 -0.0085415812
-0.061881863 -0.46898988 -0.0095327683
-0.061806396 -0.48430443 -0.0090126935
-0.061811313 -0.4996779 -0.0089476379
-0.061894938 -0.51519585 -0.00932818
-0.062011611 -0.53877711 -0.0098491292
-0.062023014 -0.55468279 -0.0098203989
-0.062271323 -0.57116282 -0.011133125
-0.062411651 -0.58784795 -0.011834266
-0.062441792 -0.60471463 -0.011911336
-0.062523149 -0.6220805 -0.012278343
-0.062422372 -0.64849216 -0.011566834
-0.062360968 -0.66672504 -0.011125128
-0.06279026 -0.68696523 -0.013462164
-0.063065164 -0.70761502 -0.0149248
-0.063032158 -0.728122 -0.014643617
-0.062543869 -0.75882477 -0.011736724
-0.062679693 -0.78226501 -0.0124114
-0.063033313 -0.80795127 -0.014319416
-0.063299209 -0.83479327 -0.015730504
-0.062238459 -0.87053597 -0.0095808757
-0.062801786 -0.90327775 -0.01267615
-0.062701069 -0.93452263 -0.012010623
-0.063338846 -0.97302872 -0.015527283
-0.23633912 -2.3704522 -0.9950977
-0.23799154 -2.5292706 -1.0043615
-0.23885809 -2.6984835 -1.0091739
-0.24073972 -2.8969762 -1.0197344
-0.23369339 -3.1371393 -0.97968328
-0.23517497 -3.3954854 -0.9879759
-0.23571251 -3.6820838 -0.99092084
-0.23794326 -4.0417023 -1.0034535
-0.22539201 -4.4519839 -0.932217
-0.22400835 -4.9288101 -0.92427456
-0.15894461 -9.8712816 -0.55511296
-0.082375415 -8.3161192 -0.12138515
-0.048817739 -10.631181 0.068842396
0.075830214 -10.829358 0.77503347
0.13916901 -10.85046 1.1338768
0.26784948 -10.897579 1.8627478
0.33102569 -10.840189 2.2205379
0.50752854 -6.2922702 3.2203305
0.51038116 -5.8407311 3.2365425
0.52006739 -5.12783 3.2915213
0.52940744 -4.8640981 3.3444805
0.51943207 -4.4697742 3.2880611
0.52982259 -4.1316414 3.3470104
0.49908501 -3.67697 3.1730218
0.53370124 -3.6726527 3.3691266
0.52557188 -3.4092348 3.323169
0.51999736 -3.18047 3.2916806
0.5151844 -2.9721198 3.2645063
0.5160507 -2.8043959 3.2694941
0.52358258 -2.5951951 3.3122721
0.49484155 -2.3309062 3.1495974
0.52563441 -2.3041816 3.3240626
0.51827192 -2.139694 3.2824557
0.51124769 -1.9856421 3.2427652
0.5086149 -1.8523055 3.2279441
0.50561965 -1.7235444 3.2110713
0.50618052 -1.5510235 3.2143834
0.50622898 -1.4390378 3.2147498
0.50536007 -1.3280758 3.2099216
0.50610393 -1.2222898 3.2142279
0.50769317 -1.1192904 3.2233231
0.46460134 -0.96724856 2.9793758
0.50678408 -0.86166215 3.2184157
0.50336075 -0.75898194 3.1991265
0.50016665 -0.65851134 3.1811359
0.49270672 -0.55893958 3.1389866
0.49090144 -0.46261162 3.1288631
0.070165798 -0.42132086 0.7462669
0.069529541 -0.41019112 0.74274254
0.057738595 -0.40695068 0.67607838
0.055847805 -0.400179 0.66544777
0.05497634 -0.39692041 0.66055119
0.053312499 -0.37714237 0.65132439
0.05320565 -0.37274581 0.65075874
0.052798197 -0.3595292 0.64856982
0.052414145 -0.3458516 0.64651382
0.05304287 -0.33363077 0.65015525
0.052687731 -0.31854147 0.64826381
0.053407375 -0.31021157 0.65238088
0.054063834 -0.28940153 0.65622121
0.053636022 -0.27156684 0.65391988
0.057955865 -0.23594676 0.67847615
0.055944968 -0.22196941 0.66720796
0.055696137 -0.2148457 0.66583997
0.054069273 -0.19780593 0.65674829
0.053770743 -0.1804833 0.65514159
0.24570797 1.6826736 1.7433032
0.2281892 1.6848756 1.6441709
0.21134154 1.6871303 1.5488393
0.19450547 1.6825955 1.4535702
0.1662945 1.6203167 1.293895
0.14682184 1.5491095 1.1836623
0.13310702 1.5512161 1.1060727
0.11943068 1.5483896 1.0286984
0.1051278 1.5251775 0.94776601
0.092295453 1.5250365 0.87517262
0.079877302 1.531026 0.80492777
0.067511588 1.5354553 0.73497903
0.049476068 1.5622404 0.63297111
0.036987901 1.5544919 0.56232256
0.024754399 1.563207 0.49312413
0.012445629 1.5554675 0.42349106
0.00019139402 1.5542648 0.35416985
-0.012181492 1.5615798 0.28418064
-0.024511905 1.5584198 0.21442644
-0.043108657 1.5534693 0.10922167
-0.055979762 1.560764 0.036409732
-0.06877093 1.5594825 -0.035954192
-0.07910721 1.5014219 -0.094444402
-0.016075457 -0.076702081 0.26203042
-0.018994393 -0.07538002 0.24557552
-0.021568334 -0.079220101 0.23107171
-0.023121573 -0.094118521 0.22234279
-0.02489442 -0.10573084 0.21237169
-0.026759386 -0.11591925 0.20187947
-0.030074386 -0.12651181 0.18321216
-0.033271901 -0.12653381 0.16517791
-0.058028165 -0.057629798 0.025265582
-0.058286119 -0.083560385 0.023865243
-0.062312879 -0.10206126 0.0011602956
-0.064404629 -0.14162061 -0.010560085
-0.064292617 -0.16500406 -0.0098644234
-0.064434901 -0.18634817 -0.010608125
-0.064078011 -0.22851966 -0.0084624523
-0.064050525 -0.24789114 -0.0082439044
-0.063882425 -0.26695842 -0.0072288681
-0.064429849 -0.29258651 -0.0102338
-0.064486496 -0.32688725 -0.010427618
-0.064428583 -0.34361595 -0.010036066
-0.064159252 -0.37627891 -0.0083834436
-0.064298071 -0.3919228 -0.009106053
-0.06451273 -0.40739143 -0.010258336
-0.064286359 -0.42303175 -0.0089127524
-0.064201616 -0.44609487 -0.0083377836
-0.06426014 -0.46138102 -0.0086061666
-0.06457334 -0.47673646 -0.010317426
-0.064272247 -0.49200463 -0.0085491315
-0.06457077 -0.50758278 -0.010177778
-0.064600185 -0.52317429 -0.010282295
-0.064704254 -0.53900224 -0.010810062
-0.064419135 -0.56261045 -0.0091026379
-0.06460993 -0.57914501 -0.010122719
-0.064858094 -0.59616548 -0.011468412
-0.064827189 -0.61309725 -0.011233445
-0.065332241 -0.63160652 -0.014035974
-0.064806856 -0.65743029 -0.010971059
-0.064832166 -0.67618531 -0.011056796
-0.065488845 -0.69752663 -0.014721509
-0.065676287 -0.7183823 -0.015727974
-0.065997392 -0.7406494 -0.017493099
-0.064790808 -0.76939529 -0.010573852
-0.065107465 -0.79418808 -0.012316695
-0.065618776 -0.82135493 -0.01516463
-0.065890722 -0.8491143 -0.016657501
-0.064773433 -0.88582224 -0.010253057
-0.06542173 -0.92032379 -0.013884855
-0.065507829 -0.95409012 -0.014331711
-0.23914629 -2.3081465 -0.9990772
-0.23912582 -2.4471865 -0.99903035
-0.24062328 -2.6132293 -1.0076096
-0.24186677 -2.7957222 -1.014768
-0.23459731 -3.0175745 -0.97371328
-0.23659885 -3.2650554 -0.98523414
-0.23792939 -3.5415962 -0.99298525
-0.23821813 -3.8494344 -0.99486887
-0.23909406 -4.2215171 -1.000146
-0.22561182 -4.6657028 -0.92413861
-0.21288081 -9.6834736 -0.85693705
-0.059537869 -8.3425837 0.013183558
0.10638678 -10.761577 0.95065629
0.17113343 -10.888006 1.3173242
0.20308201 -10.890449 1.4984397
0.29821324 -10.839712 2.0377023
0.36338687 -10.847808 2.4070976
0.40539089 -8.9044609 2.6474066
0.32634345 -4.9432015 2.2040756
0.50626534 -6.0463929 3.2226329
0.51829028 -5.7206903 3.2912078
0.54088414 -5.5300903 3.4195242
0.52095145 -4.9753661 3.307255
0.52563292 -4.6868548 3.3341737
0.53053802 -4.2851357 3.3625197
0.50675523 -3.8590922 3.228292
0.51562279 -3.6847427 3.2788041
0.52661747 -3.5326285 3.3413441
0.51937675 -3.2855639 3.3006558
0.51522696 -3.0734115 3.2774436
0.51341206 -2.8870547 3.2674332
0.52126765 -2.6741433 3.3122814
0.52309322 -2.5250564 3.3228559
0.50566298 -2.3104031 3.2243917
0.51952642 -2.2202926 3.3031096
0.5116052 -2.0589304 3.2584667
0.50810105 -1.9197546 3.2388272
0.50526804 -1.7886153 3.2229807
0.50597852 -1.6132309 3.2272899
0.50511855 -1.49739 3.2226036
0.50330067 -1.3829947 3.212487
0.5025453 -1.2736317 3.208384
0.50393844 -1.1698123 3.2164464
0.50671577 -1.0689154 3.2323468
0.4607653 -0.91887426 2.9722219
0.50602311 -0.81232065 3.2288318
0.49258298 -0.70496321 3.1528523
0.49530166 -0.60853493 3.1684082
0.49100518 -0.51064295 3.1442199
0.48802981 -0.41445661 3.1275132
0.068825662 -0.42642021 0.75279188
0.067183845 -0.41585547 0.74358207
0.05438843 -0.40797949 0.67126656
0.053195171 -0.40493095 0.6645506
0.051708285 -0.38910797 0.65630567
0.051228017 -0.38087448 0.65367413
0.050535858 -0.37309736 0.64984167
0.050279219 -0.36432183 0.64847702
0.050279636 -0.35469154 0.64856887
0.050365873 -0.34448466 0.64914709
0.050577551 -0.32811472 0.65048087
0.050759885 -0.31641725 0.65160364
0.050642423 -0.29929292 0.6510722
0.051422656 -0.28347927 0.65558362
0.056646731 -0.23793574 0.68532568
0.054729991 -0.2314416 0.67455262
0.053044423 -0.21554656 0.66513443
0.051984958 -0.20418143 0.65921968
0.05129531 -0.18992135 0.65540099
0.051357478 -0.16941012 0.65584373
0.2528092 1.6875446 1.7980541
0.23450747 1.6861253 1.6944299
0.21652523 1.6800392 1.5926138
0.20142159 1.697922 1.5071139
0.1845922 1.6906323 1.4118286
0.16591565 1.6498219 1.3060683
0.13726005 1.5482361 1.1437875
0.12363499 1.5487908 1.0666596
0.10920168 1.5271327 0.98494649
0.096013531 1.5215894 0.91029227
0.083557211 1.5278785 0.83978689
0.071250804 1.5355377 0.77013081
0.053023797 1.5532473 0.66696537
0.040414806 1.537763 0.59558952
0.028429568 1.5616442 0.52775514
0.016118422 1.5591338 0.45806897
0.0038273102 1.5651537 0.38849759
-0.0085018817 1.5657011 0.31870928
-0.020829838 1.5627718 0.24892731
-0.039292153 1.5537307 0.14442129
-0.052041087 1.560367 0.072255068
-0.064893506 1.5633436 -0.00049822225
-0.077604488 1.5577849 -0.072451271
-0.020131687 -0.07506942 0.25341472
-0.023005266 -0.075013079 0.23721497
-0.025908496 -0.091525838 0.22088738
-0.027519362 -0.1049059 0.21184175
-0.028142424 -0.11293881 0.20835228
-0.031582341 -0.12235224 0.18898486
-0.033629216 -0.13084288 0.17746945
-0.036498096 -0.13351786 0.16129673
-0.064426519 -0.14066149 0.0036310905
-0.066709056 -0.17657952 -0.0091340505
-0.066767633 -0.19772643 -0.0093812998
-0.066816561 -0.21805176 -0.0095735779
-0.066713758 -0.23806335 -0.008905788
-0.066305593 -0.25814825 -0.0065074065
-0.066388592 -0.27622128 -0.0068918532
-0.066832758 -0.29299447 -0.0093225185
-0.066796824 -0.3189711 -0.0089892074
-0.066962339 -0.33546171 -0.0098402221
-0.066852868 -0.35207975 -0.0091328481
-0.066635892 -0.3684926 -0.0078160772
-0.0668272 -0.38415569 -0.0088124555
-0.066921547 -0.39977559 -0.0092591429
-0.06691967 -0.41533256 -0.0091603436
-0.0669958 -0.43073693 -0.0095032416
-0.067021266 -0.45376861 -0.0095142666
-0.067037724 -0.4690921 -0.0095183197
-0.066961288 -0.48440641 -0.0089957174
-0.066965222 -0.49977976 -0.0089281332
-0.067220375 -0.51541924 -0.010283603
-0.067206383 -0.53104478 -0.010113715
-0.067266211 -0.5469141 -0.010361739
-0.067252398 -0.57102281 -0.010146319
-0.067393474 -0.58767414 -0.010853603
-0.067755349 -0.60512489 -0.012811284
-0.067834057 -0.62252367 -0.013164234
-0.068116628 -0.6408686 -0.014671511
-0.06734971 -0.66640359 -0.010185536
-0.067936011 -0.68706638 -0.013411903
-0.068058439 -0.7072317 -0.014009735
-0.068177305 -0.72822309 -0.014586582
-0.067689039 -0.75892526 -0.011674569
-0.067824878 -0.78236544 -0.012345382
-0.067767479 -0.80620557 -0.011920632
-0.068444766 -0.83489394 -0.015655847
-0.068735011 -0.86358172 -0.017197417
-0.067826048 -0.90267074 -0.011893576
-0.068442494 -0.93827808 -0.015278404
-0.068716578 -0.97463787 -0.01672226
-0.24191804 -2.3738961 -0.99715483
-0.24356274 -2.5327976 -1.006281
-0.24442269 -2.7020891 -1.0109513
-0.24647868 -2.9023716 -1.022377
-0.23842908 -3.1320891 -0.97646534
-0.24103342 -3.4029222 -0.99094546
-0.24148145 -3.6887252 -0.99319261
-0.2423341 -4.0289721 -0.99769211
-0.24321361 -4.4341884 -1.0022951
-0.22960731 -4.9328713 -0.92468399
-0.19962855 -10.144521 -0.75047255
-0.08733876 -8.2474012 -0.1153052
0.006803995 -10.68556 0.42028248
0.068902932 -10.699415 0.7723555
0.13236532 -10.800507 1.1322222
0.22536178 -10.708941 1.6593395
0.32377189 -10.809418 2.2170384
0.50036734 -6.2775044 3.2144537
0.50822848 -5.8809676 3.25875
0.51928532 -5.5623579 3.321214
0.51800787 -5.1622143 3.3137381
0.5267064 -4.8902345 3.3628807
0.51550728 -4.4839506 3.2991936
0.52573073 -4.1429048 3.3569634
0.49330148 -3.6758451 3.1729572
0.52553016 -3.6568928 3.3556082
0.52212888 -3.421576 3.336237
0.51602167 -3.1889539 3.3015392
0.50984377 -2.9730525 3.2664545
0.51235485 -2.8128295 3.2806401
0.51174492 -2.6469049 3.2771409
0.48945895 -2.331105 3.1507659
0.51965564 -2.3022065 3.321907
0.51215369 -2.137315 3.279366
0.50605738 -1.9862102 3.2447994
0.50219601 -1.8493055 3.2229068
0.49951759 -1.7215513 3.2077243
0.50170445 -1.5528109 3.2201214
0.5012843 -1.4396517 3.2177465
0.49976829 -1.3274212 3.2091651
0.5000177 -1.2208917 3.2105911
0.50228846 -1.118928 3.223474
0.45940074 -0.96711248 2.9804652
0.48003846 -0.89245671 3.0974326
0.50179774 -0.76093119 3.2207639
0.49446592 -0.65801865 3.1792457
0.49031886 -0.55919129 3.1557755
0.4874832 -0.46227071 3.1397383
0.065301508 -0.42694485 0.74789411
0.064201534 -0.41033623 0.74177289
0.052926481 -0.40653363 0.67800629
0.051033802 -0.39969549 0.66735888
0.049993269 -0.39666238 0.66150165
0.048325974 -0.37680265 0.65224528
0.047773618 -0.36872044 0.64919204
0.047326647 -0.3555451 0.64677387
0.047265515 -0.34585467 0.64650357
0.047976296 -0.33862174 0.65056795
0.047825638 -0.32307789 0.64982855
0.047643654 -0.30672652 0.64891171
0.048635826 -0.2905789 0.65460789
0.049067251 -0.27569532 0.65712756
0.053073678 -0.23463455 0.67993492
0.05152851 -0.22633933 0.67125827
0.049911909 -0.20985755 0.66221511
0.049043648 -0.1970657 0.65737289
0.048517976 -0.18125226 0.6544711
0.048193853 -0.15175354 0.65274847
0.24204732 1.6955311 1.7508342
0.22210734 1.6746105 1.637959
0.20655334 1.6898917 1.5499254
0.18985775 1.687189 1.4554284
0.16785076 1.6082981 1.3308544
