# .PCD v0.7 - Point Cloud Data file format
VERSION 0.7
FIELDS x y z
SIZE 4 4 4
TYPE F F F
COUNT 1 1 1
WIDTH 476
HEIGHT 1
VIEWPOINT 0 0 0 1 0 0 0
POINTS 476
DATA ascii
-0.039679926 -0.72813731 0.0026511278
-0.092785165 -0.69824511 0.0024300853
-0.087404668 -0.69815683 0.0023344974
-0.21502884 -0.63399595 0.0028213465
0.027053699 -0.75932139 0.0039908784
0.0082872184 -0.74910748 0.0031569675
-0.05833197 -0.70735633 0.0030218798
-0.14311804 -0.66946292 0.0031994144
-0.18829554 -0.65120864 0.0036808851
-0.20144397 -0.64262217 0.00315175
-0.063288651 -0.70641142 0.0047607189
-0.15348065 -0.66848773 0.0048825252
-0.14829744 -0.66898197 0.0040376587
-0.19339879 -0.65085411 0.0045561972
-0.017727459 -0.73673087 0.0056380373
-0.068529569 -0.70600539 0.0056096073
-0.09754625 -0.69626737 0.0058270963
-0.15864871 -0.66808492 0.0057660276
-0.16902882 -0.65895873 0.0058804681
-0.20940313 -0.63288456 0.0055577322
0.041051228 -0.76842529 0.0068076965
0.003846609 -0.74630201 0.0071841781
0.078146979 -0.74571037 0.007971704
-0.04436522 -0.72485888 0.0075979014
-0.073374182 -0.70504785 0.0073564211
0.054445725 -0.76726705 0.008402939
0.02259827 -0.75590831 0.0089100059
-0.11306763 -0.68512309 0.0088788262
-0.16347364 -0.66673589 0.0084093343
-0.0089260964 -0.7445302 0.0095477281
-0.078436278 -0.70355964 0.0099132014
-0.0010443174 -0.74401075 0.01041095
-0.11793966 -0.68414187 0.010562387
-0.24311897 -0.68382454 0.010076713
-0.029975802 -0.7328403 0.011384491
-0.10201009 -0.69274634 0.011760872
-0.1737009 -0.65646535 0.01128515
0.036788814 -0.76432037 0.012380034
0.017968185 -0.75298047 0.012838167
-0.02213856 -0.73236418 0.012261966
-0.048800521 -0.72153252 0.01248704
-0.059446067 -0.71168518 0.012385149
-0.083108522 -0.70204246 0.012395479
-0.1069554 -0.692321 0.012659677
-0.12303185 -0.68315005 0.012220932
-0.1386995 -0.67322427 0.013863007
-0.17851719 -0.65560818 0.013133435
-0.20540312 -0.64673662 0.013494594
0.060992453 -0.76315993 0.014045812
0.012845678 -0.75186491 0.014550388
-0.03496157 -0.73060262 0.014644447
-0.12789468 -0.68181682 0.014895631
-0.19713049 -0.64633894 0.01443582
0.050461248 -0.77337968 0.015370134
0.031809025 -0.76199615 0.015552222
-0.053365491 -0.71991038 0.015030175
-0.06389121 -0.709719 0.015788905
-0.087536782 -0.70063227 0.015048874
-0.0051498921 -0.73950332 0.016913431
-0.14332108 -0.67183775 0.016481062
-0.22082682 -0.63667172 0.01663273
0.069320247 -0.74959415 0.017768875
-0.013212577 -0.73960191 0.017028915
-0.092792384 -0.6991784 0.017659934
-0.13246349 -0.68043929 0.017563166
-0.18331376 -0.65351969 0.017690597
-0.20975749 -0.64512533 0.017080544
0.027156856 -0.75962609 0.01873651
-0.026111484 -0.72799236 0.01889045
-0.069004752 -0.70822668 0.018307742
0.0085489322 -0.74845058 0.019388186
-0.039242502 -0.72733688 0.019660704
-0.1081886 -0.68850929 0.019617839
-0.15354814 -0.67042011 0.019047186
-0.1484483 -0.67042804 0.019051235
0.045943528 -0.76913285 0.020799315
0.075149879 -0.73734123 0.020235764
-0.073469251 -0.70671457 0.020894075
-0.097377226 -0.69705099 0.020951219
-0.20142099 -0.64347494 0.02071543
0.0034614759 -0.74671215 0.021815442
-0.11347916 -0.68758488 0.021407833
-0.18762417 -0.65189022 0.021307513
-0.21477342 -0.64305836 0.021574261
-0.15841995 -0.66861314 0.022538008
0.041340306 -0.7667461 0.023948111
-0.01722635 -0.73511159 0.023476198
-0.030689465 -0.72462434 0.023741461
-0.10259191 -0.69550228 0.023495218
-0.11811762 -0.68603307 0.023873668
-0.16870144 -0.6593923 0.023536421
-0.078675874 -0.70464182 0.024222752
-0.16321512 -0.66768765 0.024283526
-0.19763839 -0.65019637 0.024799768
0.022921614 -0.75494879 0.025126889
-0.043844346 -0.72337747 0.025304347
-0.1790968 -0.65850532 0.025415787
0.057561249 -0.77622211 0.026143692
0.017941777 -0.75373971 0.026712796
-0.0088639166 -0.74322349 0.02657517
-0.19240601 -0.64931405 0.026605992
-0.20563605 -0.64064986 0.026991077
0.0044855839 -0.7863735 0.027834844
0.036421608 -0.76432735 0.02709409
0.11611632 -0.76432228 0.027043099
-0.0005717061 -0.74266094 0.027408339
-0.048604663 -0.72166598 0.027786767
-0.082963437 -0.70261049 0.027604675
-0.12315735 -0.68410808 0.027293902
-0.13356721 -0.67528993 0.027110966
-0.14409697 -0.67477345 0.027939491
-0.17344399 -0.65756303 0.027099019
0.031385999 -0.76314527 0.028633693
0.012726768 -0.75263375 0.028430276
-0.093563296 -0.70214301 0.02849534
-0.12812574 -0.68369657 0.028245669
0.060715202 -0.76254058 0.02951913
0.066220932 -0.76251328 0.029481415
-0.053679179 -0.72061634 0.029483821
-0.064363219 -0.71110219 0.029297957
-0.088050909 -0.70166558 0.029389191
-0.24220122 -0.68238628 0.029487759
-0.13845389 -0.67387563 0.029726172
0.058301389 -0.79586869 0.030406959
-0.037311871 -0.78376544 0.030853715
0.071601354 -0.78387016 0.03088367
0.050128557 -0.77313256 0.030011892
-0.021654923 -0.730672 0.030136125
-0.21014312 -0.63900936 0.030591808
0.018697664 -0.79521757 0.031147489
0.023972461 -0.79525024 0.031153198
0.096025318 -0.79521972 0.031179292
-0.0050337249 -0.79454422 0.031882171
0.064122714 -0.79459035 0.03198481
0.11184012 -0.76074904 0.031852979
0.069160156 -0.75020385 0.031459372
-0.098618291 -0.73968035 0.031354103
-0.034579612 -0.72944337 0.031663422
-0.05864919 -0.71957922 0.031171445
-0.14882125 -0.6728422 0.031377256
0.032032989 -0.80606699 0.032466687
-0.010623694 -0.7946474 0.032027829
0.09320958 -0.78254247 0.032339349
0.026767535 -0.76016301 0.032646298
0.0082699945 -0.74968678 0.032358184
-0.18321733 -0.65498304 0.032580867
0.026854707 -0.80543828 0.033294003
0.037471186 -0.80538946 0.033244986
0.085558489 -0.80536008 0.033188626
0.043076538 -0.80474538 0.033987846
-0.012772687 -0.78138071 0.033939943
0.011086954 -0.78135657 0.033948857
0.032296527 -0.78133088 0.033878189
0.043080159 -0.78132111 0.033912349
0.0085388171 -0.77011842 0.033959288
0.045813121 -0.77004844 0.033903509
-0.098200887 -0.69892937 0.033463974
-0.1086835 -0.68965459 0.033869989
-0.15384173 -0.67193782 0.033115078
-0.15898058 -0.6626991 0.03393589
0.043148514 -0.82922381 0.034493148
0.06970901 -0.8162396 0.034760818
0.072270446 -0.80412078 0.03476499
0.00059560721 -0.79264426 0.034171347
0.082851067 -0.79203439 0.034961756
0.10151901 -0.79267532 0.034308847
0.06974113 -0.79199368 0.034881849
-0.0074755042 -0.78066373 0.034638509
0.080144942 -0.78071004 0.034679238
0.013695876 -0.7701261 0.034016661
-0.015277896 -0.76949644 0.034698088
0.0032080875 -0.76944983 0.034693904
0.077674963 -0.76948941 0.034724731
-0.084063753 -0.75832862 0.034974072
-0.058160584 -0.75871831 0.034118511
-0.052890938 -0.75866741 0.034076966
-0.012615636 -0.73757631 0.034705449
-0.068541564 -0.72716874 0.034890048
-0.039715327 -0.72766978 0.034046549
-0.074142911 -0.70797521 0.034349184
-0.06862364 -0.7079643 0.034351215
0.072340995 -0.82857299 0.035248641
0.048571125 -0.82783931 0.035929453
0.013948929 -0.80348676 0.035586689
0.035333648 -0.79138809 0.03566771
-0.025782889 -0.78004664 0.03543264
0.027255232 -0.78009903 0.035490859
0.019467905 -0.76882601 0.035441831
0.024733551 -0.76885867 0.035448503
-0.0043727923 -0.74724412 0.035458799
0.0033646245 -0.74728292 0.035505634
0.091078334 -0.74725002 0.035457715
0.075372063 -0.73697484 0.035502654
-0.089623518 -0.72673529 0.035779569
-0.079031669 -0.72660339 0.035626605
-0.073922254 -0.72662038 0.035704661
-0.17467573 -0.70750785 0.035299886
-0.078966759 -0.70689857 0.03594289
-0.21499255 -0.63697648 0.035033513
0.054179508 -0.82719094 0.036731623
0.035556559 -0.81427002 0.036990196
0.0034577125 -0.80276966 0.036225013
0.0089260116 -0.80282277 0.03626946
0.030253313 -0.79072648 0.036418844
0.041000035 -0.79071862 0.036437586
0.08868999 -0.79071367 0.036427211
-0.031216081 -0.77936107 0.036150068
0.016633613 -0.77944243 0.036249097
0.02204835 -0.77941239 0.036145646
0.038011 -0.77942133 0.036208536
0.064897709 -0.76822567 0.036299802
0.069981232 -0.7682007 0.036182195
-0.06576623 -0.76751161 0.036948029
-0.0551732 -0.76737058 0.036926471
-0.049678296 -0.76791948 0.036097229
-0.039235286 -0.76747757 0.036973897
-0.028399197 -0.76754814 0.036969446
0.030363234 -0.76760304 0.036984708
0.0010231815 -0.75709999 0.036521107
0.011563506 -0.75715309 0.036568772
0.022121774 -0.75709701 0.036471773
0.072616994 -0.75714898 0.036563776
-0.047104299 -0.75682366 0.036390524
-0.063109718 -0.72601002 0.036479533
-0.055274628 -0.71627748 0.036102127
-0.060169138 -0.71582282 0.036955599
-0.11583407 -0.69693983 0.036894564
-0.10269858 -0.69692808 0.036878988
-0.13728811 -0.68817443 0.036405839
-0.11880107 -0.68806267 0.036290057
-0.11340391 -0.6881128 0.036371443
-0.16362631 -0.66135395 0.036609668
-0.2197262 -0.63612962 0.036739241
0.046342164 -0.8142339 0.037008956
0.056748033 -0.81424326 0.037018824
0.07560537 -0.81428987 0.037035186
0.062131759 -0.81359571 0.037816118
0.067642428 -0.81356919 0.037777066
0.080656663 -0.81360734 0.037750255
0.048895933 -0.80144483 0.037700735
0.054380286 -0.80147815 0.037780248
0.075648308 -0.79012245 0.037220787
0.046516676 -0.78942376 0.037950657
0.08636269 -0.77813375 0.037685193
0.099552356 -0.77879405 0.037010822
-0.070670374 -0.76754212 0.037007477
-0.033661362 -0.76757455 0.037047233
-0.0095709143 -0.76705045 0.037890986
0.041114479 -0.76759523 0.037002802
0.083373584 -0.76700926 0.037810273
0.11015273 -0.76759535 0.03702182
0.11527453 -0.76759881 0.037011389
0.097202025 -0.76698118 0.037802428
-0.089358449 -0.7565673 0.037388083
0.006183546 -0.75653362 0.037363254
0.016848221 -0.75652486 0.037358742
0.094098412 -0.75647908 0.037278879
0.10720377 -0.75654453 0.037409849
-0.10515331 -0.74610859 0.037104722
0.078113958 -0.74614656 0.037127227
-0.10026343 -0.74599344 0.037015274
-0.078657776 -0.74544656 0.037798177
-0.01469806 -0.74556607 0.037898131
-0.0014734811 -0.74548644 0.037866566
0.083410047 -0.74554104 0.037905969
-0.076307997 -0.73514193 0.037855253
-0.025458787 -0.73578078 0.037090942
-0.022904983 -0.73583215 0.03716388
-0.017768713 -0.73584723 0.037143208
-0.044451632 -0.7252928 0.037188526
-0.11059941 -0.71546459 0.037907422
-0.076302581 -0.71534783 0.037774347
-0.070495538 -0.71536022 0.037822586
-0.11318138 -0.70590526 0.037708968
-0.18487205 -0.69707948 0.037193742
-0.17420563 -0.67833489 0.037796814
-0.1345031 -0.67837423 0.037748739
-0.18754454 -0.65240288 0.037866145
-0.20121691 -0.64423889 0.037265304
0.062289152 -0.83813787 0.03881336
0.059638269 -0.82580626 0.038086593
0.078238904 -0.8258459 0.038138513
0.041343383 -0.81290483 0.038469534
0.078316085 -0.80084121 0.038489364
0.049049832 -0.77752507 0.038501773
0.075898841 -0.76641041 0.038582951
-0.030726502 -0.75524044 0.038836736
-0.025158634 -0.75529677 0.038882628
-0.011884302 -0.75537145 0.038918637
0.086577877 -0.75527155 0.038839858
0.099902257 -0.75530255 0.038929902
-0.020282988 -0.74559969 0.038029544
-0.049233668 -0.74463385 0.038554393
-0.044230882 -0.74466664 0.038518064
-0.0093954941 -0.74499422 0.038780887
-0.046708513 -0.73435599 0.038581479
-0.035895213 -0.73457718 0.038720347
-0.030741958 -0.73457706 0.038660251
-0.12886502 -0.72504449 0.038224913
-0.11850971 -0.72494274 0.038088892
-0.094379663 -0.72493261 0.038103186
-0.049168982 -0.72414225 0.03885879
-0.17677571 -0.71493262 0.038793579
-0.091786683 -0.71487749 0.038652785
-0.081038095 -0.71483123 0.038606454
-0.065438308 -0.71478522 0.038593858
-0.12375799 -0.70539814 0.038532753
-0.11843129 -0.70532578 0.038460992
-0.19030574 -0.69600993 0.03881973
-0.11044537 -0.69600505 0.038703479
-0.14503171 -0.69593614 0.03859875
-0.1874954 -0.68721128 0.038265552
-0.17686516 -0.6871751 0.03820347
-0.14217447 -0.68663383 0.038915686
-0.12367339 -0.6866349 0.038916562
-0.16891751 -0.67786276 0.038591217
-0.16609532 -0.66919327 0.038400892
-0.23310827 -0.65976006 0.038871672
0.0918134 -0.79945737 0.039891075
0.062452558 -0.78816909 0.039532676
-0.0012567412 -0.77687562 0.039248075
0.054671831 -0.7769289 0.039344389
0.091715626 -0.77687645 0.039228804
-0.0037100555 -0.76571757 0.039303303
0.035987027 -0.76577461 0.039315522
0.089213058 -0.76574314 0.039320894
-0.035739772 -0.75463849 0.039683994
-0.0065772575 -0.75468248 0.039640956
-0.094161667 -0.7442773 0.039419346
-0.054718249 -0.74411249 0.039401177
-0.03321081 -0.74431545 0.03951396
-0.051934693 -0.73382151 0.039433971
-0.041370068 -0.73385948 0.039385132
-0.13431206 -0.72448468 0.039036542
-0.14484787 -0.72385502 0.039770164
-0.13926187 -0.72390079 0.039839666
-0.099766076 -0.72376728 0.039722234
-0.16058275 -0.71429032 0.0394172
-0.15548602 -0.71430713 0.039428703
-0.11539851 -0.71428001 0.03943526
-0.097178556 -0.71421039 0.03938067
-0.086282872 -0.71437037 0.039530311
-0.14210694 -0.70486683 0.039364349
-0.094152547 -0.70478624 0.039310284
-0.083259881 -0.70486587 0.039379932
-0.14998458 -0.69541389 0.039440062
-0.12103656 -0.6954093 0.039402194
-0.20576251 -0.68618375 0.0398959
-0.20078437 -0.68616778 0.03990972
-0.182089 -0.68665981 0.039145768
-0.14736037 -0.68608111 0.039727185
-0.19014904 -0.67740798 0.039608002
-0.18442036 -0.67744613 0.039667677
-0.14487645 -0.67733449 0.039393861
-0.13928564 -0.6773802 0.039457165
-0.21930158 -0.66867697 0.039229196
-0.21425958 -0.66870981 0.039327983
-0.18201815 -0.66869652 0.039467089
-0.21166189 -0.66004521 0.039373197
-0.2058389 -0.66007769 0.03937659
-0.20085579 -0.66006148 0.039389744
-0.16877809 -0.66003197 0.039291047
0.068051338 -0.8367222 0.040190455
0.022811938 -0.81089193 0.040610213
-0.017265633 -0.78757113 0.040268812
0.051909704 -0.78750139 0.040202066
0.057331882 -0.78750497 0.040223405
0.06806954 -0.77626663 0.040063426
0.1052518 -0.77566308 0.040837366
-0.017264679 -0.76519883 0.040164091
0.10258391 -0.7651605 0.040238336
-0.022257587 -0.76456749 0.040959451
-0.041215289 -0.75389266 0.040322572
-0.065174311 -0.74366546 0.040216021
-0.038640212 -0.74363172 0.040241361
-0.027807076 -0.74370188 0.040234845
-0.083107121 -0.73350871 0.040340845
-0.057056971 -0.73329872 0.040278543
-0.10451965 -0.72332263 0.040625829
-0.16578807 -0.71385604 0.040330935
-0.13125578 -0.71384817 0.040340722
-0.12602881 -0.71382135 0.040332764
-0.12090454 -0.71375012 0.040236749
-0.10211831 -0.71372437 0.040245507
-0.15262325 -0.70431852 0.040156625
-0.1472954 -0.70428413 0.040156916
-0.12849033 -0.70436752 0.040262546
-0.10457862 -0.70432299 0.040216237
-0.088819951 -0.70438051 0.040267419
-0.15776728 -0.70375514 0.040978856
-0.20331205 -0.69499588 0.04045596
-0.15532425 -0.69490713 0.040264148
-0.13124698 -0.69499248 0.040349562
-0.12600982 -0.69496566 0.040338986
-0.15253796 -0.68561536 0.040579248
-0.17933154 -0.67690068 0.040478379
-0.18712497 -0.66827816 0.040310424
-0.17649467 -0.66824192 0.040250033
-0.22237355 -0.65954119 0.040103812
-0.21669389 -0.65956235 0.040175438
-0.17375651 -0.65956455 0.040232945
-0.22739902 -0.65899825 0.040803548
-0.21405536 -0.6510489 0.040410474
-0.19254988 -0.65105063 0.040505685
-0.22225094 -0.64248222 0.040673316
-0.211383 -0.64253187 0.040817756
-0.20557347 -0.64256424 0.040822413
0.06569536 -0.82308567 0.041039385
0.084013723 -0.82241929 0.041719649
-0.059382282 -0.76376814 0.041617509
-0.043719042 -0.76364511 0.041495603
-0.067439944 -0.75343353 0.041243277
-0.059472278 -0.74302703 0.041025925
-0.069800839 -0.74252027 0.04186691
-0.11245326 -0.73234016 0.041952137
-0.10184295 -0.73228514 0.041882172
-0.091363467 -0.73292172 0.041135993
-0.086010993 -0.73295957 0.041189823
-0.13646454 -0.71329772 0.041175865
-0.17922167 -0.70381773 0.041246705
-0.1685036 -0.7038101 0.041075159
-0.16289218 -0.70377189 0.041025937
-0.13887799 -0.70328277 0.041915771
-0.13378765 -0.70330727 0.041929491
-0.19785638 -0.69445568 0.041323107
-0.16012622 -0.69386029 0.041941855
-0.12825081 -0.68516433 0.0415341
-0.14952092 -0.67587268 0.041974399
-0.22964084 -0.66705674 0.041513629
-0.18985145 -0.65915346 0.041196588
-0.17918648 -0.65913117 0.041205913
-0.22465761 -0.65004748 0.041971229
-0.21894546 -0.65057778 0.041199598
-0.019528871 -0.77447128 0.042480458
-0.072695531 -0.75224054 0.042814724
-0.080351837 -0.74194831 0.042622879
-0.10715907 -0.73180938 0.042821899
-0.12311963 -0.72221947 0.042247057
-0.10727767 -0.71273333 0.042026401
-0.099232361 -0.70261949 0.042636972
-0.19229475 -0.69395632 0.042187586
-0.17069259 -0.69337845 0.042890221
-0.16547635 -0.69396967 0.042026173
-0.22718774 -0.68451232 0.042119309
-0.21632871 -0.68462181 0.042373739
-0.21115308 -0.68465078 0.042452559
-0.16264632 -0.68459874 0.042316929
-0.15752828 -0.68458229 0.042272486
-0.19768767 -0.67594457 0.042164031
-0.15996218 -0.67537928 0.042806346
-0.15485995 -0.67539632 0.042816315
-0.22455901 -0.66670674 0.042592127
-0.19764091 -0.65015876 0.042257756
-0.12034632 -0.73116368 0.043487642
-0.1492319 -0.72105265 0.043850828
-0.17057119 -0.7116006 0.043653529
-0.22186612 -0.68410081 0.043155015
-0.19439277 -0.68420464 0.043352365
-0.23229077 -0.68336737 0.043644048
-0.20784591 -0.674986 0.043867081
-0.20269588 -0.67499924 0.0438639
-0.19197507 -0.67498982 0.043905914
-0.17052427 -0.67492765 0.043769702
-0.18381605 -0.65828228 0.043008707
-0.20784169 -0.65779376 0.0437827
-0.20269588 -0.65780681 0.043779992
-0.2161039 -0.64123547 0.04342239
-0.13054794 -0.73068768 0.044399016
-0.12533028 -0.73066074 0.044393502
-0.2370654 -0.6828115 0.044413224
-0.23472658 -0.67417896 0.044134337
-0.19415848 -0.66592431 0.044628114
-0.11443326 -0.74017799 0.045014597
-0.10920449 -0.73968482 0.045940381
-0.20727438 -0.69086105 0.047211885
-0.061048571 -0.74797833 0.048276622
