# .PCD v0.7 - Point Cloud Data file format
VERSION 0.7
FIELDS x y z
SIZE 4 4 4
TYPE F F F
COUNT 1 1 1
WIDTH 458
HEIGHT 1
VIEWPOINT 0 0 0 1 0 0 0
POINTS 458
DATA ascii
0.06361261 -0.77137506 0.0028245472
0.03927451 -0.76046383 0.0024514655
-0.019240495 -0.73890698 0.0023234203
-0.016636424 -0.73891968 0.00235797
-0.13915613 -0.68840796 0.0028040253
-0.12322844 -0.68830699 0.0026705677
0.01534465 -0.74906194 0.0030797704
-0.09614078 -0.70716327 0.0039849742
-0.1418284 -0.68748534 0.0045318115
-0.12562001 -0.68736255 0.0043937964
0.0372416 -0.75815541 0.0056411717
0.013256832 -0.74737412 0.0055525606
-0.18428545 -0.66857809 0.0051039862
-0.18119848 -0.66857708 0.0050322753
-0.15700904 -0.67678815 0.0067421803
-0.18930888 -0.66817313 0.0060364646
-0.18675637 -0.6681397 0.0060009151
0.085753478 -0.77936804 0.0074371402
0.06151839 -0.76784569 0.0076232385
-0.09315259 -0.70516402 0.0074389023
-0.15954754 -0.676341 0.0076354225
0.082960613 -0.7781747 0.008983776
0.011240109 -0.74572968 0.008068433
-0.023859667 -0.73508042 0.0081379991
0.059237443 -0.76669043 0.0092430748
0.035433289 -0.7552582 0.009616944
-0.098145679 -0.70360422 0.009916856
-0.025921412 -0.73346186 0.010649986
0.080854923 -0.77634549 0.011323705
0.05711931 -0.76490474 0.011584861
0.0086906776 -0.74350005 0.011261711
-0.02833722 -0.73287135 0.011425661
-0.068587109 -0.71233261 0.011551932
-0.063037448 -0.71225631 0.011558403
-0.14317402 -0.68373513 0.011472699
-0.16181044 -0.67452246 0.011125992
0.0063699796 -0.74240041 0.012935615
-0.030580761 -0.73227829 0.012178808
-0.033463571 -0.73169428 0.012979033
-0.073430017 -0.71185988 0.012452777
-0.065722726 -0.71179056 0.012402403
-0.10028316 -0.70203644 0.012402828
0.078587562 -0.7745685 0.013688893
-0.12655303 -0.6918993 0.013547751
-0.17725675 -0.66415185 0.013854682
0.054956246 -0.76256597 0.014790257
0.030602174 -0.75188106 0.014540745
-0.035856355 -0.73066992 0.014733508
-0.070579678 -0.71082103 0.014109299
-0.10268228 -0.70100552 0.014123033
0.076330684 -0.77338868 0.015348753
-0.038412917 -0.73009831 0.015534231
-0.10480867 -0.70001513 0.015795141
-0.14507671 -0.68133521 0.015799819
0.071234681 -0.77220678 0.016887616
-0.075649269 -0.70930374 0.016680945
0.073819451 -0.77157921 0.01765725
0.034184761 -0.76080376 0.017164161
0.052443709 -0.7608248 0.017253902
-0.040601641 -0.72895408 0.017152619
-0.078248382 -0.70877439 0.017500566
-0.12897205 -0.68999583 0.017027665
-0.16336739 -0.68035364 0.017460268
-0.043302014 -0.72778881 0.018736895
-0.16577096 -0.67990285 0.018356713
-0.14709148 -0.67989719 0.018370159
0.05022331 -0.75905198 0.019609451
0.0052340971 -0.74788833 0.020215109
-0.10691608 -0.69758582 0.020130236
-0.13094723 -0.68806046 0.020494364
0.069609061 -0.76855326 0.021524709
-0.10910889 -0.69665617 0.021885859
0.02946551 -0.75671637 0.022765214
0.0031244885 -0.74611712 0.022578057
-0.17048077 -0.67759693 0.022743899
-0.16757742 -0.67756671 0.022722935
0.099159002 -0.77867705 0.023077151
0.027106917 -0.75610107 0.023528075
0.00040279687 -0.74554461 0.023371996
-0.045223709 -0.7244603 0.023714062
-0.079574935 -0.71485877 0.023452885
-0.11150744 -0.69568002 0.023663728
0.091323793 -0.77744174 0.02458477
0.093976907 -0.77746558 0.024603577
0.10194275 -0.76616502 0.024850072
-0.047537379 -0.72385991 0.024478497
-0.081957668 -0.71432161 0.024264606
0.15540986 -0.77681106 0.025379658
0.048896972 -0.76552051 0.025526056
-0.0019463996 -0.74381101 0.025802974
-0.049977776 -0.72327602 0.025297133
0.019505505 -0.753766 0.026758652
0.025185328 -0.7537787 0.026745265
-0.084515691 -0.71278042 0.026822597
-0.11656274 -0.6935764 0.026973991
0.073014453 -0.78702861 0.027042868
-0.025498023 -0.78636968 0.027823288
-0.014781341 -0.78641272 0.027807672
0.089318678 -0.77498174 0.02770697
0.046664368 -0.76369864 0.027818708
-0.0042249588 -0.74264854 0.027416438
-0.052467015 -0.72166204 0.027819807
-0.13226891 -0.69314462 0.027897591
-0.14834245 -0.68410474 0.027310282
-0.1724205 -0.67523015 0.0271105
-0.027733758 -0.78569305 0.028509801
-0.022787338 -0.78578562 0.028643619
0.022392208 -0.75259298 0.02832506
-0.006402059 -0.74148726 0.028976724
-0.054941546 -0.72115964 0.028676709
-0.11866072 -0.69255555 0.028628759
-0.1747735 -0.67476416 0.028021509
-0.038499471 -0.78500789 0.029290544
-0.0093957288 -0.78512388 0.029388497
-0.011795809 -0.7410273 0.029889612
-0.0092641739 -0.7409839 0.029901879
-0.086815029 -0.71121371 0.029377092
-0.1130425 -0.70166481 0.029403092
-0.13444218 -0.69215292 0.029616507
-0.15056926 -0.68264526 0.029896067
0.020129105 -0.79588628 0.030440426
-0.020045428 -0.78451276 0.0301398
-0.016941413 -0.78450274 0.030076031
-0.011769701 -0.78453732 0.030139523
-0.006241974 -0.78442329 0.030025978
-0.035754126 -0.78380394 0.030857308
0.068390302 -0.77313763 0.030024497
0.041563209 -0.76192206 0.030244147
0.044160873 -0.76193643 0.030282814
0.11357265 -0.75143266 0.030021828
-0.089144677 -0.71072525 0.03025955
-0.17669353 -0.67339474 0.030659176
0.095240861 -0.81894708 0.031898826
0.10833493 -0.80672109 0.031814072
0.025948487 -0.79525656 0.03118079
0.028424487 -0.79522753 0.031148162
0.11384615 -0.77194816 0.031687275
0.10569794 -0.76133734 0.031050162
0.10838133 -0.76073593 0.031866506
0.017826088 -0.75022876 0.031562813
-0.15263532 -0.68170273 0.031617649
0.081865542 -0.80605739 0.032465648
0.10327163 -0.78259975 0.032499421
0.065861814 -0.77128804 0.032370448
-0.048738401 -0.75980824 0.032443956
-0.013973356 -0.73929429 0.032274868
-0.059299238 -0.7185092 0.032815944
-0.056742158 -0.71846855 0.032800246
-0.091086499 -0.70913482 0.0327213
-0.17948194 -0.6724534 0.032471139
0.044654775 -0.80540627 0.033290025
0.079461262 -0.80542284 0.033301022
0.11147082 -0.80540413 0.033276375
0.12477655 -0.80540121 0.033218116
0.042196557 -0.80473489 0.033991225
0.047714151 -0.80470699 0.033919957
0.050366648 -0.80472267 0.033991367
0.039680257 -0.78128332 0.033856023
0.076534763 -0.78196865 0.033147603
0.0099151116 -0.77074659 0.033221543
0.018231619 -0.77007246 0.03396067
0.063576825 -0.77007645 0.033949096
0.11691653 -0.77004945 0.033846166
0.12754926 -0.77012569 0.0339089
0.13058192 -0.77006072 0.033866614
0.14621638 -0.77000242 0.033839833
0.11982679 -0.75952524 0.033346508
0.14125417 -0.75948584 0.03333845
0.015657019 -0.74908459 0.033223793
0.11679344 -0.74903011 0.033044819
0.12492214 -0.74846655 0.033877518
-0.01933204 -0.73813498 0.03392224
-0.13667305 -0.68966895 0.033869468
0.082197793 -0.82922387 0.034456972
0.11703981 -0.81624204 0.034753934
0.13072418 -0.8162533 0.034775924
0.058345493 -0.79265666 0.034193933
0.063744783 -0.792023 0.03497991
0.066301599 -0.79200321 0.034952398
0.11694648 -0.79263854 0.034120064
0.13062117 -0.79264981 0.034141265
0.11174262 -0.7806949 0.034709271
0.1224504 -0.78069341 0.034648661
0.1383882 -0.78070378 0.034784861
0.023497095 -0.7694701 0.034684103
0.055513084 -0.76947248 0.034769092
-0.10449734 -0.7588852 0.034147844
0.0024296851 -0.75831956 0.03494554
0.039877843 -0.75828362 0.034904938
0.11181106 -0.7583245 0.034990836
0.012811801 -0.74791825 0.034742765
-0.016109545 -0.73755181 0.034669053
0.098313726 -0.84160972 0.035246514
0.12023488 -0.8409102 0.035870388
0.085151896 -0.82783014 0.035890248
0.1119261 -0.82786208 0.035965532
0.016034458 -0.80346471 0.035600167
0.023611659 -0.80344599 0.035471946
0.052986939 -0.80343938 0.035522703
0.055624433 -0.80344868 0.035560735
0.087593369 -0.80342782 0.035452593
0.093263678 -0.79135793 0.03568178
0.13331802 -0.79138362 0.035718873
0.042466432 -0.7800523 0.0354467
0.087605804 -0.78005713 0.035421908
0.14160597 -0.78002363 0.03539297
0.021031421 -0.76885176 0.03548824
0.029194992 -0.76883626 0.035443347
0.058587201 -0.76883608 0.035470512
0.15225497 -0.76877517 0.035345856
0.13845836 -0.75833279 0.03506396
0.03745202 -0.75771427 0.035738941
0.12265287 -0.75772089 0.035717402
0.010347174 -0.74734789 0.03558195
-0.021542637 -0.7370016 0.035570022
-0.098925464 -0.72656649 0.0356507
-0.096211426 -0.72659689 0.035633568
-0.093632504 -0.72666216 0.035709791
-0.064411506 -0.7169503 0.035287756
-0.061697058 -0.71692318 0.035293981
-0.12021375 -0.69795388 0.035174921
-0.13894199 -0.68867439 0.035560124
-0.1816432 -0.67104387 0.03509061
-0.18964072 -0.67058367 0.035984043
-0.18404526 -0.67060548 0.035996493
0.072309047 -0.81425887 0.036948826
0.12031102 -0.81492776 0.036244392
0.090929843 -0.80210495 0.036967162
0.031855207 -0.79075503 0.036465898
0.069507025 -0.7907204 0.036444116
0.096053578 -0.79073876 0.036454819
0.098565601 -0.79073852 0.036492191
0.12035035 -0.79073405 0.036408216
0.13603249 -0.79074848 0.036517724
0.048118778 -0.77939528 0.036144033
0.053133458 -0.77943951 0.036256488
0.082539506 -0.77943325 0.036173083
0.085224673 -0.77940422 0.036167461
0.12544554 -0.77880418 0.036947742
0.14432019 -0.77876204 0.036978036
0.061450154 -0.76820767 0.036227651
0.13342963 -0.768233 0.036261085
0.14934073 -0.76814866 0.036138244
-0.074874111 -0.76754242 0.036991261
-0.066580728 -0.76753068 0.036973447
-0.064156681 -0.76749903 0.036946014
-0.061438702 -0.76747227 0.036951255
-0.058606464 -0.76742518 0.036949009
-0.053519625 -0.76735443 0.036935948
-0.050902247 -0.76731294 0.036901902
-0.10121088 -0.7570107 0.0364278
0.13607053 -0.75713241 0.036599718
-0.06154434 -0.73623109 0.036237366
-0.026349341 -0.73633724 0.036252227
-0.023963457 -0.73638415 0.036325652
-0.06670361 -0.7164374 0.03613903
-0.069113508 -0.71590096 0.036997449
-0.14140095 -0.70644516 0.036897071
-0.1117233 -0.70647937 0.036928929
-0.10918236 -0.70650178 0.036962241
-0.1064759 -0.70647925 0.036888208
-0.093559593 -0.70695776 0.036023688
-0.12805796 -0.69702655 0.036962658
-0.15996744 -0.6787768 0.036786359
0.10163517 -0.83950502 0.037358709
0.10409381 -0.83954054 0.037453216
0.12549284 -0.82649499 0.037347205
0.066652484 -0.8142423 0.037028987
0.069592908 -0.81424493 0.037012447
0.10405923 -0.81427813 0.037138756
0.13353547 -0.81426537 0.037042767
0.10684974 -0.81359625 0.03777121
0.12297071 -0.81359088 0.037718847
0.018743711 -0.80212063 0.037014112
0.085476279 -0.80143589 0.037662033
0.034553625 -0.79011577 0.037234936
0.072348557 -0.79009181 0.037136808
0.10177349 -0.789433 0.037989363
0.10689987 -0.78945524 0.037980195
-0.029164039 -0.77810454 0.037667446
0.04546459 -0.77817917 0.037783019
0.051038317 -0.77815223 0.037743561
0.080273047 -0.77819574 0.037792277
0.10927314 -0.77881134 0.037028112
-0.072121583 -0.76755691 0.037016667
-0.069148995 -0.76753831 0.037009358
0.026987316 -0.76763326 0.037026688
-0.055908982 -0.76676911 0.037706062
0.15514794 -0.76696515 0.037769407
-0.026179142 -0.75648332 0.037276573
-0.02123154 -0.75657415 0.037404973
-0.087960348 -0.74615145 0.037174918
-0.085492834 -0.74611032 0.03712539
-0.095840968 -0.74543977 0.037804957
-0.12230156 -0.73521304 0.0378801
-0.056009289 -0.73557007 0.037026513
-0.029240329 -0.73572618 0.037033312
-0.053337887 -0.73496664 0.037840083
-0.050718572 -0.73492533 0.03780828
-0.045200024 -0.73494536 0.037770707
-0.090274669 -0.72560138 0.037381608
-0.087897919 -0.72560215 0.037427459
-0.085425064 -0.7255612 0.037379209
-0.082680903 -0.72553885 0.037329137
-0.079675712 -0.72549087 0.037275102
-0.12806222 -0.71600062 0.037028637
-0.12534364 -0.71545225 0.037833698
-0.13857169 -0.70596713 0.037752539
-0.10383917 -0.70588058 0.037673205
-0.095848486 -0.7058329 0.037620496
-0.19704984 -0.68764657 0.037364393
-0.15436368 -0.68760538 0.03718216
-0.15715007 -0.67831326 0.037643354
-0.18620427 -0.66968489 0.037736844
0.10701213 -0.83813834 0.038767148
0.088037521 -0.82580829 0.038072046
0.093662061 -0.82579488 0.038081057
0.11494444 -0.82584244 0.038209781
0.12837201 -0.8251856 0.038815156
0.075019024 -0.81296325 0.038500451
0.077450365 -0.81293815 0.038480554
0.13637519 -0.81293464 0.038551103
0.12832424 -0.80086255 0.038447436
0.013451101 -0.77758563 0.038548052
0.016584529 -0.77757627 0.038626596
0.032241374 -0.76640022 0.038582388
-0.039794128 -0.75515097 0.038793575
-0.036935847 -0.75582635 0.038079567
-0.034459792 -0.75588042 0.038114373
-0.031616874 -0.75530571 0.038929652
-0.028942462 -0.75524247 0.038823314
-0.023522381 -0.75532651 0.038925216
-0.01846854 -0.75535685 0.038943455
-0.015378121 -0.75534701 0.038881935
-0.012815119 -0.75536841 0.038908441
-0.01034868 -0.75598246 0.038157228
-0.0076879505 -0.75533807 0.038957071
-0.0048153894 -0.75587028 0.038048491
-0.093126282 -0.74491698 0.038680438
-0.090047948 -0.74497473 0.038719956
-0.11963626 -0.73457426 0.038639564
-0.11691672 -0.73457921 0.038654197
-0.047645561 -0.73433381 0.038569737
-0.04260508 -0.73442674 0.038641922
-0.03163657 -0.73464191 0.038750548
-0.16780025 -0.72502083 0.038182728
-0.13594168 -0.72504884 0.038234301
-0.13295028 -0.72503275 0.038245387
-0.16218226 -0.72442126 0.038959324
-0.15962058 -0.72440267 0.038929313
-0.15408576 -0.72442615 0.038949069
-0.14901257 -0.72439384 0.038930446
-0.077000715 -0.72493905 0.038115334
-0.18918581 -0.7149244 0.038883291
-0.18100515 -0.71491581 0.038854629
-0.12215713 -0.71487379 0.038622819
-0.19426225 -0.70544279 0.038718086
-0.19160794 -0.7054202 0.038725805
-0.17042555 -0.70538342 0.038571406
-0.13585743 -0.70543176 0.038602464
-0.10082791 -0.70528257 0.038436256
-0.098405361 -0.70527256 0.038471069
-0.19967207 -0.69598019 0.038732998
-0.1463699 -0.69592083 0.038573634
-0.14116438 -0.68712282 0.038098287
-0.14348367 -0.68659443 0.038911883
0.12325716 -0.83743852 0.039422985
0.091369696 -0.82443351 0.039541312
0.1151581 -0.80018139 0.039301939
0.062084042 -0.79947847 0.039922353
0.038088325 -0.78815776 0.039459787
-0.042453617 -0.75448823 0.039602049
-0.002079916 -0.75468034 0.039676324
-0.14096858 -0.73407078 0.0395585
-0.11440305 -0.734025 0.039515898
-0.15680687 -0.72386503 0.039740339
-0.14623241 -0.71429104 0.039425336
-0.1859041 -0.70494145 0.039612193
-0.17278779 -0.70485681 0.039450984
-0.13272299 -0.70488578 0.039448857
-0.1489044 -0.69540054 0.039420202
-0.12199976 -0.69544351 0.03943859
-0.18895613 -0.68616736 0.039993491
-0.17833261 -0.6866591 0.03910486
-0.17507847 -0.68616217 0.039882213
-0.17270212 -0.68612379 0.039852511
-0.16748968 -0.68614066 0.039791014
0.11799531 -0.84980488 0.040329404
0.080778927 -0.83606851 0.040930528
0.10978933 -0.83674955 0.04021972
0.0087124389 -0.7763325 0.040093541
0.00062180369 -0.7540943 0.04046249
-0.12750725 -0.74379104 0.040310051
-0.079170711 -0.74368906 0.040204491
-0.076639958 -0.74369639 0.040228724
-0.065994948 -0.74368417 0.040240459
-0.14327545 -0.73346955 0.0403203
-0.10859919 -0.73355418 0.040432509
-0.1058783 -0.73353231 0.040354125
-0.10339797 -0.73346394 0.040302776
-0.036530431 -0.73341465 0.040303379
-0.034053266 -0.73346859 0.040337257
-0.13005272 -0.72334677 0.040682506
-0.14326368 -0.71376228 0.040295631
-0.11933863 -0.71372002 0.04022989
-0.18329099 -0.70439261 0.040445328
-0.17501146 -0.70436543 0.040316604
-0.16742723 -0.70434386 0.040222887
-0.16452849 -0.70431381 0.040202703
-0.16195178 -0.70430356 0.040183317
-0.13010502 -0.70434755 0.040271223
-0.1592451 -0.70375544 0.040989939
-0.15657745 -0.70377678 0.040984925
-0.12488375 -0.69496256 0.040317833
-0.18581916 -0.68620831 0.040008109
-0.18335351 -0.68618953 0.040006414
-0.19387668 -0.68567932 0.040803641
-0.19122532 -0.68565691 0.040811669
-0.18064418 -0.68565816 0.040820636
-0.17004409 -0.68562078 0.040662736
0.035362434 -0.76394087 0.041700207
0.0089385733 -0.75355262 0.041308697
-0.044480611 -0.75262934 0.041893922
-0.1246617 -0.74261194 0.04188326
-0.073996671 -0.74252087 0.041850448
-0.07124722 -0.74253488 0.041875612
-0.068276405 -0.74251646 0.041868322
-0.063283101 -0.7424776 0.041807622
-0.057733059 -0.74240398 0.041812327
-0.13784753 -0.73240232 0.041998826
-0.10038744 -0.732822 0.041033227
-0.039381254 -0.732768 0.041041065
-0.0740555 -0.72270268 0.041409235
-0.20207439 -0.71327323 0.041260809
-0.1164812 -0.71318036 0.041071028
-0.11409803 -0.71320009 0.041124035
-0.17797801 -0.70383167 0.041230172
-0.1617125 -0.6851005 0.041457523
-0.031022625 -0.77439278 0.04236893
-0.0016289732 -0.77436876 0.042329066
0.0037166949 -0.77439731 0.042316452
-0.10558509 -0.75293595 0.042065646
-0.097703643 -0.75218678 0.042761248
-0.11070719 -0.73181063 0.042816579
-0.16978377 -0.72220433 0.042284042
-0.16418545 -0.72219479 0.042245347
-0.15079637 -0.72218454 0.042195529
-0.071163915 -0.72215736 0.04225067
-0.19909519 -0.71271616 0.042065933
-0.15341143 -0.70271903 0.042678349
-0.15070453 -0.70271373 0.04266027
0.0068171322 -0.75169879 0.043610401
-0.20412128 -0.71166706 0.043735959
-0.19579905 -0.71108967 0.044589095
-0.16383544 -0.68361098 0.044034824
-0.081338897 -0.74021095 0.0450413
0.041885059 -0.80552244 0.046472665
0.0072507402 -0.77124941 0.046156563
