# .PCD v0.7 - Point Cloud Data file format
VERSION 0.7
FIELDS x y z
SIZE 4 4 4
TYPE F F F
COUNT 1 1 1
WIDTH 1381
HEIGHT 1
VIEWPOINT 0 0 0 1 0 0 0
POINTS 1381
DATA ascii
-0.26431638 -0.10931781 0.21425553
-0.26625717 -0.1185979 0.20334731
-0.26882815 -0.12248582 0.18886772
-0.30276448 0.0020615878 -0.0030925695
-0.30321109 -0.026746623 -0.0055387593
-0.30289435 -0.057874899 -0.0036587839
-0.30334485 -0.083072506 -0.0061269379
-0.3033137 -0.10919981 -0.0058655352
-0.30319944 -0.13423248 -0.0051330803
-0.30407891 -0.16524859 -0.0099905804
-0.30392894 -0.1876532 -0.009056245
-0.30405402 -0.20812209 -0.0096808411
-0.30387208 -0.22876486 -0.0085654221
-0.30384707 -0.24813665 -0.0083398456
-0.30368155 -0.26720396 -0.0073178932
-0.30370131 -0.28518498 -0.0073465803
-0.30376005 -0.30258599 -0.0075964788
-0.30370137 -0.31978717 -0.0071810093
-0.30369475 -0.33648726 -0.0070610298
-0.303579 -0.35300434 -0.0063226712
-0.30352622 -0.36910722 -0.0059417561
-0.30377057 -0.39248484 -0.0072052823
-0.30381301 -0.40800703 -0.007365196
-0.30393299 -0.42336878 -0.0079654567
-0.30395931 -0.43870765 -0.0080349836
-0.30389231 -0.45400476 -0.0075761392
-0.30407986 -0.46927625 -0.0085611576
-0.30410004 -0.49225616 -0.0085591776
-0.30405444 -0.50762624 -0.0082237683
-0.30391487 -0.52300972 -0.0073562092
-0.30419409 -0.53890842 -0.0088646449
-0.3042022 -0.55478007 -0.0088362722
-0.30444682 -0.57122689 -0.010150381
-0.30458361 -0.58787882 -0.010853992
-0.30400741 -0.61205041 -0.0074786777
-0.30452091 -0.63042986 -0.010322253
-0.30474231 -0.64879936 -0.011510109
-0.30498961 -0.66787755 -0.01284664
-0.30456084 -0.69543761 -0.010316508
-0.30495167 -0.73773003 -0.0124112
-0.3048259 -0.75913334 -0.011638993
-0.30551457 -0.78492528 -0.015492105
-0.30493832 -0.84543949 -0.012093199
-0.30524057 -0.87493664 -0.01376417
-0.3080954 -0.9212656 -0.029935963
-0.30463693 -0.94989341 -0.010240859
-0.47619146 -2.429177 -0.98514688
-0.47680357 -2.5864716 -0.98881698
-0.47808895 -2.7674918 -0.99635023
-0.47858933 -2.9627311 -0.99946302
-0.48099062 -3.2040856 -1.0134399
-0.48196122 -3.463623 -1.019345
-0.47405046 -3.8049257 -0.97502565
-0.47549912 -4.1819706 -0.98387229
-0.47382823 -4.583169 -0.9750874
-0.40140536 -10.093603 -0.57481027
-0.34686416 -10.459246 -0.26633874
-0.28682882 -10.592484 0.073723279
-0.19410422 -10.754092 0.59903002
-0.069309458 -10.726453 1.3065008
-0.037266962 -10.758943 1.4879245
0.031031866 -10.959495 1.8750373
0.091578037 -10.809035 2.2189004
0.087689102 -4.95293 2.2095082
0.11687014 -4.9151831 2.375206
0.25113177 -6.1078668 3.1344414
0.28354058 -5.7679548 3.3191118
0.27702203 -4.9359403 3.2840157
0.28769487 -4.6999221 3.3451242
0.28168505 -4.3549762 3.3118231
0.2785168 -4.0629196 3.2945302
0.25762266 -3.6789515 3.1768756
0.28092584 -3.6049786 3.309289
0.2833131 -3.3062427 3.3235548
0.27705088 -3.0819302 3.2885656
0.27391976 -2.8887787 3.2712722
0.2752544 -2.72786 3.279242
0.27723718 -2.5776343 3.2908647
0.25294819 -2.332108 3.1536624
0.27765355 -2.2834651 3.2939606
0.27520028 -2.0701976 3.2805767
0.26972699 -1.9243548 3.2498915
0.26564002 -1.7894623 3.227046
0.26454145 -1.6677803 3.2211225
0.26160896 -1.5460129 3.2047954
0.26060799 -1.4324336 3.1994054
0.26049927 -1.3234987 3.1990647
0.26405501 -1.1696883 3.2196221
0.25117993 -1.0495567 3.146894
0.22293168 -0.92071027 2.9869952
0.26685092 -0.86308974 3.2362432
0.25961155 -0.75749421 3.1954436
0.25690702 -0.65737867 3.1803498
0.25237569 -0.55845171 3.1548915
0.24819435 -0.41355637 3.1315269
0.24653208 -0.31790379 3.1223273
-0.17241101 -0.40364173 0.74666673
-0.17332447 -0.39282113 0.74158651
-0.17362499 -0.3813214 0.7399829
-0.1728285 -0.3679221 0.74460274
-0.18424243 -0.35067198 0.68019158
-0.18543133 -0.34288374 0.67354345
-0.18659636 -0.32971758 0.66707921
-0.18773058 -0.31639794 0.66078931
-0.18836187 -0.30696091 0.65730447
-0.18841366 -0.30114985 0.65705961
0.10441052 1.6787033 2.320533
0.078059331 1.6542553 2.1711195
0.064706534 1.7125598 2.0955133
0.040221184 1.6823277 1.9566745
0.020063376 1.675687 1.8424035
-0.0043745125 1.7036273 1.703923
-0.022609564 1.6961052 1.6005546
-0.040077943 1.6884129 1.5015339
-0.17610084 0.23632133 0.72875535
-0.18063819 0.24303134 0.70310456
-0.18453912 0.25911507 0.68107194
-0.19746448 0.19394785 0.60785741
-0.20343861 0.15450354 0.57401592
-0.20835327 0.12818748 0.54619581
-0.21270505 0.10758223 0.52157384
-0.21663551 0.091922127 0.49934602
-0.22031835 0.077392146 0.47852403
-0.22379622 0.063079014 0.45886496
-0.22862881 0.052280694 0.43156463
-0.23172295 0.04128148 0.4140853
-0.23470034 0.031680215 0.39726937
-0.23757856 0.022506993 0.38101643
-0.24037246 0.013785136 0.36524215
-0.24312438 0.0065189376 0.34970731
-0.24580072 -0.0012630319 0.33460093
-0.24847697 -0.0075906194 0.31949618
-0.25118569 -0.012492428 0.30420834
-0.25273764 -0.038961712 0.29546678
-0.25524208 -0.044675574 0.28133753
-0.25901705 -0.052762538 0.26004019
-0.26156133 -0.05786445 0.24568561
-0.26285905 -0.077866949 0.23839213
-0.26428032 -0.094346277 0.23040044
-0.26641178 -0.10225276 0.21838625
-0.26812041 -0.11395421 0.20876822
-0.270412 -0.12009136 0.19584717
-0.27318561 -0.12267789 0.18019409
-0.30669579 0.025831908 -0.0095568132
-0.30587441 -0.012083412 -0.0048391949
-0.30569088 -0.043486442 -0.0037354787
-0.30599692 -0.07022962 -0.0054053003
-0.30607331 -0.096567713 -0.0057715899
-0.30592537 -0.12244161 -0.0048645777
-0.30612096 -0.14544281 -0.0059042624
-0.30701655 -0.17573631 -0.010876412
-0.30611035 -0.18982279 -0.005701866
-0.30682573 -0.21829742 -0.0096493205
-0.30671972 -0.23830855 -0.0089743789
-0.30662349 -0.25754726 -0.0083538927
-0.30638865 -0.2764653 -0.0069467155
-0.30650535 -0.29395577 -0.0075325593
-0.3063395 -0.31158504 -0.0065151495
-0.30638602 -0.32835054 -0.0067017348
-0.30632269 -0.34494469 -0.0062645585
-0.30632079 -0.36111903 -0.0061752875
-0.30663845 -0.38457263 -0.0078583099
-0.30655736 -0.40029711 -0.0073186746
-0.30689695 -0.41557565 -0.0091645885
-0.30679742 -0.43104962 -0.0085193878
-0.30660364 -0.44642159 -0.0073391376
-0.30683756 -0.46167287 -0.0085844444
-0.30663189 -0.47692391 -0.0073358314
-0.30692965 -0.50002164 -0.0089009237
-0.30821612 -0.51639324 -0.016115332
-0.30682299 -0.53097361 -0.0081294235
-0.30688253 -0.54677409 -0.0083834073
-0.30751926 -0.56357652 -0.011910897
-0.30684403 -0.58708841 -0.0079533877
-0.30737349 -0.60474867 -0.010871228
-0.30696422 -0.62105501 -0.0084638139
-0.30741575 -0.63961208 -0.01093882
-0.3164562 -0.68091059 -0.062133145
-0.30725417 -0.68549132 -0.0098040318
-0.30753696 -0.70601833 -0.011320014
-0.30781081 -0.72743416 -0.012784489
-0.30806187 -0.74978876 -0.014119224
-0.30813342 -0.77255327 -0.014434864
-0.30727842 -0.80459785 -0.009448722
-0.30756375 -0.83127755 -0.010974982
-0.30761582 -0.85846925 -0.01117732
-0.30830306 -0.89097416 -0.01498119
-0.30856535 -0.92349172 -0.016373802
-0.4851642 -2.3341079 -1.017601
-0.47968501 -2.5055761 -0.9863199
-0.4802213 -2.6700125 -0.98921341
-0.48182508 -2.8635776 -0.99815053
-0.48271614 -3.0742853 -1.0030349
-0.48449484 -3.3237112 -1.0129378
-0.47823989 -3.6555502 -0.97717446
-0.47711036 -3.9646959 -0.9705444
-0.47815841 -4.3662195 -0.97622889
-0.48127159 -4.8899188 -0.99357581
-0.43494081 -9.9882269 -0.72784424
-0.38049293 -10.243366 -0.41864422
-0.32408363 -10.584796 -0.098270565
-0.232053 -10.815619 0.42425439
-0.10588899 -10.861128 1.140455
-0.0092098666 -10.9209 1.6890564
0.051513348 -10.777807 2.0334179
0.092955284 -4.8687553 2.2658093
0.24653395 -6.3712969 3.1376498
0.27065954 -5.9055028 3.274339
0.27783102 -5.546545 3.3148983
0.28552517 -5.2306619 3.3584454
0.28819531 -4.9023929 3.3734949
0.27663293 -4.4925795 3.307786
0.2758494 -4.2043014 3.3032715
0.24221006 -3.7154329 3.1123161
0.283788 -3.6462927 3.3482075
0.28079775 -3.4141285 3.3312111
0.27679077 -3.1933403 3.3084552
0.27206832 -2.9844625 3.2816489
0.27139482 -2.8086262 3.2778239
0.27296606 -2.6524696 3.2867417
0.26189676 -2.4527276 3.2239461
0.27753714 -2.2947814 3.3127055
0.27615082 -2.150763 3.3048596
0.26920921 -1.9959718 3.2655013
0.26430738 -1.8552941 3.23772
0.26482993 -1.7351738 3.2407165
0.25984246 -1.6057025 3.2124572
0.25863671 -1.489736 3.2056556
0.2583288 -1.324657 3.2039721
0.26039988 -1.2211759 3.2157667
0.2616483 -1.1176906 3.2228971
0.24827176 -0.99899364 3.1470647
0.22138973 -0.87492645 2.994622
0.26099944 -0.80995554 3.2193749
0.25518969 -0.70681024 3.186475
0.23747054 -0.60303169 3.0860193
0.24851158 -0.46130005 3.148746
0.24490887 -0.36536494 3.1283743
0.24367675 -0.26968461 3.1214526
-0.17584519 -0.40446261 0.74185324
-0.17629129 -0.38735986 0.73942912
-0.17611711 -0.37514839 0.74048847
-0.18631265 -0.34946233 0.68293881
-0.1876622 -0.34200245 0.67535526
-0.18858154 -0.33357903 0.67021239
-0.18939674 -0.32488891 0.66566062
-0.19042264 -0.31110933 0.6599502
-0.19045477 -0.30529517 0.65980464
-0.19181138 -0.29232582 0.65221882
0.11470879 1.6829162 2.3918109
0.065848745 1.5151393 2.1147022
0.073766239 1.7168993 2.1597543
0.05064933 1.7028458 2.0287116
0.028685067 1.6871647 1.9042066
0.009251086 1.6829964 1.7940578
-0.01493147 1.7096252 1.6570282
-0.032554369 1.7052411 1.5571535
-0.18074034 0.24073902 0.71631092
-0.18516603 0.24884535 0.69128656
-0.18866713 0.27211058 0.6715126
-0.19736038 0.20110166 0.62225217
-0.2035643 0.16140048 0.5871228
-0.20861788 0.13566373 0.55852336
-0.21312435 0.11458699 0.53302878
-0.2172097 0.09740065 0.50992405
-0.22097804 0.083274342 0.48861864
-0.22457096 0.067343399 0.46830711
-0.2294682 0.059043307 0.44063801
-0.23263714 0.047358446 0.42273286
-0.23415789 0.038281277 0.41414016
-0.23860815 0.028158328 0.38900492
-0.24145766 0.019701011 0.37291279
-0.24426053 0.012688933 0.35708565
-0.24698924 0.005147547 0.34167889
-0.24967697 -0.0019237804 0.32650456
-0.25238079 -0.0075565637 0.31123978
-0.25489315 -0.016592493 0.29705888
-0.25784975 -0.041848466 0.28038639
-0.26039067 -0.047150709 0.26604515
-0.2629658 -0.052037474 0.25151002
-0.26478043 -0.066513181 0.24128298
-0.26598358 -0.086550534 0.23452072
-0.26807991 -0.095200002 0.22269875
-0.26966435 -0.10851385 0.2137772
-0.27188846 -0.11529731 0.20123123
-0.27427444 -0.12090254 0.18776762
-0.30798656 0.0019887881 -0.0030769915
-0.30842707 -0.026819153 -0.0055205268
-0.30861276 -0.055219017 -0.0065188198
-0.30881143 -0.081832089 -0.0075900927
-0.30851245 -0.10927081 -0.0058396808
-0.30867022 -0.13309942 -0.006678002
-0.30849132 -0.15712136 -0.0056073056
-0.30826181 -0.18011206 -0.0042493329
-0.30922881 -0.20819114 -0.0096460227
-0.30904186 -0.22883327 -0.0085287308
-0.30901191 -0.24820453 -0.0083014155
-0.30884153 -0.26727119 -0.0072777481
-0.30885649 -0.28525174 -0.0073048356
-0.30891046 -0.30265221 -0.0075531956
-0.3088471 -0.31985286 -0.0071362029
-0.30883586 -0.33655241 -0.0070147528
-0.30871555 -0.35306889 -0.006274939
-0.30882815 -0.36896339 -0.0068559404
-0.30884087 -0.38476598 -0.0068706106
-0.30904955 -0.42343116 -0.0079116262
-0.30889818 -0.43882176 -0.0069963606
-0.30830598 -0.45413551 -0.0035810235
-0.30901009 -0.46931958 -0.0075187394
-0.30927405 -0.48466861 -0.0089605162
-0.30880269 -0.50747657 -0.0062038982
-0.30917636 -0.5232079 -0.0082690287
-0.30927965 -0.53896701 -0.0088009108
-0.3087745 -0.55421412 -0.0058813416
-0.30935615 -0.57104254 -0.009128334
-0.30965751 -0.58793598 -0.010786094
-0.3095856 -0.63048565 -0.01025072
-0.30980337 -0.64885479 -0.011437014
-0.31036165 -0.66877794 -0.014556943
-0.31030568 -0.68778235 -0.014192141
-0.31014466 -0.73831314 -0.013165626
-0.31041387 -0.78438979 -0.014610663
-0.31023282 -0.84680253 -0.013489675
-0.31039748 -0.87566906 -0.014391784
-0.31398121 -0.92626703 -0.034713756
-0.30977735 -0.95068532 -0.010800684
-0.48662847 -2.400068 -1.0155602
-0.48116466 -2.5807967 -0.98472184
-0.48249337 -2.7616835 -0.99244058
-0.4833858 -2.9602606 -0.99771154
-0.48565209 -3.1997988 -1.0108324
-0.48795384 -3.4745367 -1.0242058
-0.4789516 -3.8022869 -0.97352087
-0.48025361 -4.1764917 -0.98137057
-0.48044431 -4.6078744 -0.98300195
-0.40856782 -10.182199 -0.58304775
-0.35305497 -10.507188 -0.26867831
-0.29265651 -10.6215 0.073697783
-0.23101459 -10.755665 0.42309487
-0.13728073 -10.76149 0.95467937
-0.072277591 -10.907695 1.3231167
-0.043052908 -10.758862 1.4889355
0.024731258 -10.938588 1.8731956
0.082988963 -10.71731 2.2040238
0.080154464 -4.9203358 2.197093
0.24443889 -6.0914617 3.1272905
0.2750479 -5.7344747 3.3015599
0.29409727 -5.5092354 3.4100268
0.26858127 -4.9071803 3.266293
0.28099999 -4.6873813 3.3371453
0.27536181 -4.3459373 3.3057652
0.27490011 -4.0735445 3.3036418
0.25250018 -3.6787062 3.1772723
0.28946462 -3.5782492 3.387212
0.27759236 -3.3025055 3.3203762
0.27197015 -3.0816672 3.2889073
0.26898426 -2.889158 3.2723496
0.26951027 -2.7245162 3.2756693
0.27260816 -2.5791283 3.2935481
0.25036108 -2.3413553 3.1678104
0.27729428 -2.2294495 3.3208778
0.26880568 -2.0655601 3.2730675
0.26408711 -1.9222654 3.2466097
0.26093945 -1.7900338 3.2290459
0.25825015 -1.6643807 3.214072
0.25757363 -1.5478873 3.2105014
0.25510904 -1.431181 3.1967893
0.25750911 -1.2730571 3.210779
0.25938797 -1.1698884 3.221684
0.24379991 -1.0463706 3.1335449
0.21793512 -0.92044955 2.9871175
0.26098481 -0.86210346 3.2314851
0.25408703 -0.75689268 3.1926117
0.25207219 -0.65715981 3.1814277
0.246696 -0.50964236 3.1512969
0.24283303 -0.41330418 3.1296253
0.2416876 -0.31756312 3.123368
-0.17715926 -0.40346703 0.74768651
-0.178074 -0.39261326 0.74259841
-0.17854464 -0.38132226 0.74003011
-0.17758214 -0.36764705 0.74559504
-0.18887882 -0.34450996 0.68188614
-0.19025749 -0.33715409 0.6741609
-0.19080471 -0.33317277 0.67110497
-0.19190788 -0.31965327 0.66499406
-0.19251744 -0.31009707 0.66163528
-0.193552 -0.29589155 0.6559149
0.095833018 1.6573642 2.3012323
0.073514655 1.6590476 2.1747246
0.058950387 1.7088046 2.0922813
0.035001185 1.6824939 1.9564753
0.014745707 1.6750081 1.8416529
-0.0086223288 1.7131879 1.709295
-0.026832456 1.7067177 1.6060759
-0.043345537 1.7107917 1.5125008
-0.18067998 0.24178852 0.73112607
-0.18564092 0.24301241 0.70307148
-0.19715801 0.21073578 0.63785446
-0.20364946 0.16987978 0.60104644
-0.20892923 0.14281845 0.57113487
-0.21359019 0.12129416 0.54474258
-0.217778 0.10457718 0.52104247
-0.22166446 0.089886792 0.499055
-0.22529756 0.077333428 0.47850829
-0.23035428 0.065571882 0.44992903
-0.23359935 0.054212261 0.43158528
-0.23671077 0.045209184 0.41400358
-0.23969223 0.033602212 0.39715457
-0.24261217 0.02641299 0.38066193
-0.24545047 0.018665593 0.36463153
-0.2482314 0.011371664 0.34892714
-0.25100335 0.0055191452 0.33327606
-0.25372022 -0.00086269825 0.31793648
-0.25651476 -0.0048613357 0.30216044
-0.25800622 -0.033322465 0.29373404
-0.26060119 -0.038158968 0.27908835
-0.26449984 -0.045452315 0.25708455
-0.26680425 -0.054320619 0.24408017
-0.26796716 -0.076181717 0.23752834
-0.26915056 -0.09534362 0.23086499
-0.27144939 -0.10150444 0.21789652
-0.27334541 -0.11153074 0.20720635
-0.27594307 -0.11524154 0.19254684
-0.27989167 -0.12156767 0.17026073
-0.31097648 0.021208985 -0.0056192279
-0.31144956 -0.0086530065 -0.0082725482
-0.31090513 -0.042263873 -0.0051604295
-0.3109549 -0.070397459 -0.0054095774
-0.31089199 -0.097379424 -0.0050177355
-0.31114525 -0.12138084 -0.0064141504
-0.31092066 -0.14620183 -0.0051015294
-0.31106687 -0.16826774 -0.0058874534
-0.31185651 -0.19763257 -0.010295499
-0.31174779 -0.21847376 -0.0096335085
-0.31163657 -0.23848593 -0.0089557944
-0.31145513 -0.27625418 -0.0078293923
-0.31124485 -0.29449454 -0.0065867212
-0.31127781 -0.32853341 -0.0066704922
-0.31120956 -0.34512866 -0.0062309448
-0.31201002 -0.36829898 -0.010690487
-0.31143391 -0.37694889 -0.0073968419
-0.31159896 -0.40034652 -0.0082523134
-0.31148374 -0.43131 -0.0074908058
-0.31145799 -0.44661346 -0.0072907261
-0.31164917 -0.47715333 -0.0082670525
-0.31186536 -0.49256182 -0.0094398465
-0.31164718 -0.53117216 -0.0080682356
-0.31170082 -0.54697388 -0.0083197867
-0.31217846 -0.57989788 -0.010926778
-0.31183934 -0.60433447 -0.0089255013
-0.31224257 -0.62228709 -0.011164617
-0.31235847 -0.64019388 -0.011773663
-0.32054815 -0.6896894 -0.05820426
-0.31201723 -0.68570089 -0.0097185317
-0.31270966 -0.69756025 -0.013628229
-0.31255633 -0.72764677 -0.012692237
-0.31294331 -0.75054777 -0.014849146
-0.31300172 -0.77334249 -0.015141839
-0.31212738 -0.80542982 -0.01011975
-0.31253004 -0.8327812 -0.012374251
-0.31230474 -0.858688 -0.011063579
-0.31297782 -0.89119494 -0.014862101
-0.31193712 -0.93215638 -0.0089137796
-0.48819622 -2.1981032 -1.011133
-0.48934937 -2.3353534 -1.0178576
-0.4836868 -2.5060294 -0.98594111
-0.48386782 -2.6679521 -0.98719871
-0.48593587 -2.8666101 -0.99923241
-0.48646605 -3.0747488 -1.0025604
-0.48844761 -3.327744 -1.0142087
-0.48983669 -3.6116924 -1.0225557
-0.4824639 -3.993906 -0.98134661
-0.48138589 -4.3676262 -0.97587168
-0.48388544 -4.884685 -0.99096906
-0.48133531 -5.4262252 -0.9774673
-0.43185619 -9.8119659 -0.70488262
-0.38164493 -10.289536 -0.42087781
-0.32454538 -10.604036 -0.097480424
-0.26333457 -10.72426 0.24961632
-0.10685798 -10.790261 1.1373847
-0.009982178 -10.889954 1.6871675
0.053272523 -10.848653 2.046344
0.08793693 -4.841753 2.2554257
0.24496479 -6.3816533 3.1436789
0.27058947 -5.9332056 3.2900913
0.2664344 -5.4611402 3.2675028
0.28334442 -5.2377329 3.3639755
0.28288883 -4.8835983 3.3621483
0.2714459 -4.4774795 3.2980671
0.27194428 -4.2006121 3.3015003
0.23920192 -3.7195363 3.1166892
0.28088546 -3.6508698 3.3534694
0.27868456 -3.4234908 3.3414826
0.27095214 -3.1825881 3.2981305
0.26647335 -2.9760761 3.2731745
0.26716349 -2.8074841 3.2774758
0.26769143 -2.647145 3.280839
0.25053269 -2.4235671 3.1839597
0.26717758 -2.3435771 3.2786202
0.26966926 -2.1432614 3.2932243
0.26323971 -1.9907855 3.257086
0.25981733 -1.8548083 3.2379782
0.25743583 -1.7273744 3.2247591
0.25380674 -1.601859 3.2044559
0.25514969 -1.4916573 3.212333
0.25064078 -1.3727299 3.1870222
0.25516874 -1.2199346 3.2130685
0.25671482 -1.1170015 3.2220764
0.24108143 -0.99588025 3.1336501
0.21774702 -0.87560594 3.0015323
0.25544307 -0.80901408 3.2155559
0.24856056 -0.70549583 3.1767392
0.23236638 -0.60255599 3.0850952
0.24284384 -0.46086943 3.1448445
0.23973456 -0.36497492 3.127413
0.23882262 -0.26919329 3.1224442
-0.18102737 -0.39884558 0.74084705
-0.18112174 -0.38716274 0.74041152
-0.18112211 -0.37517565 0.74050933
-0.19205791 -0.34034625 0.67893964
-0.19355391 -0.32784009 0.67059457
-0.19440822 -0.31914043 0.66584259
-0.19470631 -0.31433979 0.66419929
-0.19535068 -0.30478522 0.66063887
-0.19671825 -0.29177281 0.65302163
0.10886183 1.6802373 2.3888695
0.062213697 1.5266644 2.1241584
0.06861911 1.7186617 2.1607356
0.044354174 1.6958425 2.0231237
0.022244301 1.678318 1.8977427
-0.0024491712 1.7088085 1.7577791
-0.021391077 1.6984912 1.6503766
-0.037880462 1.7053516 1.5569021
-0.18032591 0.24621466 0.74769628
-0.18595065 0.23980513 0.71586138
-0.19049558 0.24602818 0.6901626
-0.19668664 0.22386675 0.65510267
-0.203814 0.17621136 0.61471158
-0.20923612 0.14978005 0.58401179
-0.21402267 0.12881114 0.55692244
-0.2183544 0.11160775 0.53241652
-0.22236696 0.096376516 0.50972319
-0.22612879 0.082243413 0.48845348
-0.22965531 0.070292093 0.46852052
-0.23458621 0.061000094 0.44066381
-0.23776731 0.049315244 0.42269129
-0.24082784 0.041005675 0.40540546
-0.24377547 0.031105688 0.38875926
-0.24668019 0.024627408 0.37235904
-0.24951379 0.017593227 0.35636207
-0.25230342 0.011008588 0.34061518
-0.25510013 0.0058528488 0.32482925
-0.25785208 0.00015664811 0.30929711
-0.26173651 -0.012244179 0.2873781
-0.26343924 -0.034334041 0.27778849
-0.26596457 -0.040665653 0.2635425
-0.26864824 -0.044723861 0.24839975
-0.26992041 -0.066562749 0.24125403
-0.27112487 -0.086599469 0.23449387
-0.27322268 -0.095248848 0.22267275
-0.27516684 -0.10513399 0.211723
-0.2771292 -0.11450706 0.20067061
-0.2809661 -0.1211231 0.17902873
-0.31337586 0.0033897317 -0.0044572316
-0.31358159 -0.02687919 -0.0055542784
-0.31351554 -0.056641158 -0.0051089521
-0.31370869 -0.083200715 -0.0061315838
-0.31367469 -0.10932571 -0.0058652032
-0.31454518 -0.14198847 -0.010688417
-0.31486568 -0.16369258 -0.012429439
-0.31457642 -0.18671234 -0.010711822
-0.31422171 -0.22887896 -0.0085430862
-0.31419542 -0.24824846 -0.0083140619
-0.31402883 -0.26731333 -0.0072887419
-0.31404763 -0.28529215 -0.0073143034
-0.3141056 -0.30269092 -0.0075612143
-0.31404635 -0.31988981 -0.0071428153
-0.3138724 -0.3368631 -0.0060733161
-0.31404039 -0.36899516 -0.0068586916
-0.31428653 -0.39242113 -0.0081277844
-0.31427827 -0.423457 -0.0079103559
-0.31430528 -0.43879363 -0.0079774754
-0.31408057 -0.46932259 -0.0065296176
-0.31427673 -0.49226445 -0.0075110151
-0.31406054 -0.50749278 -0.0061969259
-0.31444007 -0.52322251 -0.0082610324
-0.31454933 -0.53897995 -0.0087919114
-0.31388026 -0.55401713 -0.0049081654
-0.31480673 -0.57129413 -0.01007288
-0.31494626 -0.58794391 -0.010774053
-0.31505367 -0.63084769 -0.01115553
-0.31511673 -0.6488567 -0.011421336
-0.31489563 -0.67605734 -0.010028413
-0.31494606 -0.69548911 -0.010221048
-0.31520039 -0.73724723 -0.011474538
-0.31480169 -0.79208136 -0.0089736339
-0.31536579 -0.84547663 -0.011976209
-0.31567734 -0.87497169 -0.013642897
-0.31805491 -0.91847169 -0.027022589
-0.31533143 -0.9514088 -0.011426565
-0.49486849 -2.2826428 -1.0291083
-0.48729393 -2.4309275 -0.98593217
-0.48892781 -2.5965495 -0.9950276
-0.48847303 -2.7616804 -0.99227321
-0.4899551 -2.9654512 -1.0004853
-0.49227151 -3.2050881 -1.0134102
-0.48531547 -3.5033295 -0.97365445
-0.48597404 -3.8114748 -0.97713453
-0.48728669 -4.1848741 -0.98428857
-0.48638725 -4.5965042 -0.97887093
-0.41569734 -10.102592 -0.57419014
-0.35861945 -10.247769 -0.25019914
-0.30194604 -10.699398 0.071666799
-0.20888007 -10.704034 0.59979206
-0.14650582 -10.731472 0.95376062
-0.081788793 -10.876753 1.3210837
-0.050252315 -10.859251 1.4999421
0.013887394 -10.866245 1.8637739
0.072780542 -10.677869 2.1977363
0.070338018 -4.8795075 2.1810322
0.26052272 -6.115726 3.2605085
0.26781487 -5.734478 3.3017302
0.26721597 -4.9566708 3.298063
0.27413741 -4.6873999 3.3372486
0.26924592 -4.3507519 3.3094056
0.26585087 -4.0564756 3.2900736
0.25833496 -3.6465209 3.2473526
0.27467546 -3.528661 3.3400407
0.26834688 -3.2865746 3.3041046
0.26515785 -3.0790398 3.2859924
0.26062799 -2.8789272 3.2602813
0.26347679 -2.7251894 3.2764401
0.26648995 -2.5791917 3.2935355
0.24691415 -2.3514817 3.1824872
0.27100348 -2.2284966 3.3191605
0.26195827 -2.062731 3.2678647
0.25758222 -1.9205323 3.2430606
0.25384107 -1.7867397 3.2218616
0.25149605 -1.6621269 3.2085855
0.25052327 -1.5451156 3.2030952
0.25324872 -1.3838261 3.2185977
0.25152066 -1.2726123 3.2088282
0.25343415 -1.1695166 3.219713
0.24128132 -1.0502222 3.1508238
0.21530528 -0.92350453 3.0035446
0.25513655 -0.86195195 3.229471
0.24896471 -0.75723004 3.1945066
0.24612081 -0.65708292 3.1784163
0.23888621 -0.50953567 3.1374481
0.23748875 -0.41344362 3.1295626
0.23637854 -0.31770656 3.1233063
-0.18280877 -0.40358183 0.74667412
-0.18355131 -0.39255387 0.74255568
-0.18402047 -0.38126263 0.73998731
-0.18388994 -0.36896646 0.74081898
0.23379165 0.64066684 3.108983
-0.19535503 -0.33038136 0.67632657
-0.19607462 -0.32684651 0.67229348
-0.19738466 -0.31376934 0.66500556
-0.19755287 -0.30843863 0.66409791
-0.19874366 -0.2946749 0.65748584
0.11788727 1.6728092 2.4523084
0.089257322 1.64459 2.2900791
0.070024624 1.6665821 2.1811068
0.054143421 1.7071103 2.0911286
0.029570658 1.6759185 1.9519076
0.0031275155 1.6955469 1.8021011
-0.014494901 1.7011129 1.7022707
-0.031462166 1.706656 1.6061556
-0.18611504 0.24002242 0.730317
-0.1911338 0.24029601 0.70195794
-0.19525626 0.25258282 0.67867428
-0.20382197 0.18703403 0.63024092
-0.20961498 0.15746409 0.59750909
-0.21458185 0.13611206 0.56945693
-0.21910624 0.11747184 0.54391229
-0.22322096 0.10270196 0.52068835
-0.22708149 0.08899489 0.49890524
-0.23069967 0.077435583 0.47849512
-0.23575819 0.066678129 0.44996727
-0.23901495 0.056323208 0.43160588
-0.24214332 0.046323795 0.41397244
-0.24516666 0.037714999 0.39693373
-0.24811777 0.030519508 0.3803038
-0.25100845 0.023753524 0.36401632
-0.2538535 0.017426483 0.34798741
-0.2566677 0.011541107 0.33213314
-0.25954378 0.008042342 0.31592688
-0.26239696 0.0039713648 0.29985076
-0.26512578 -0.029825931 0.28454629
-0.26786482 -0.033106532 0.26911703
-0.2705287 -0.03788409 0.25411472
-0.27239147 -0.053252779 0.24366096
-0.27326837 -0.078721486 0.23880281
-0.27534324 -0.088121466 0.2271429
-0.27708372 -0.10047615 0.21738078
-0.27908498 -0.10966931 0.20613828
-0.28265738 -0.11838549 0.18603685
-0.31650731 0.02142369 -0.0056222114
-0.31646931 -0.042046428 -0.0051712408
-0.31653431 -0.070178539 -0.0054239715
-0.31839845 -0.10101964 -0.015826402
-0.3176443 -0.12941797 -0.011434471
-0.31654215 -0.14597873 -0.0051260684
-0.31641322 -0.16916132 -0.0042821416
-0.31735978 -0.19791973 -0.0094831334
-0.31726021 -0.21872942 -0.0088070687
-0.31715795 -0.23870952 -0.0081162527
-0.31699419 -0.27641192 -0.0069668619
-0.31711695 -0.29390213 -0.0075531187
-0.31700918 -0.32829645 -0.0067232763
-0.31695142 -0.34489039 -0.0062866528
-0.31776738 -0.36805752 -0.010750324
-0.31728071 -0.38451767 -0.0078819124
-0.31737679 -0.40010282 -0.0083181802
-0.31806779 -0.41520673 -0.012127787
-0.31728181 -0.43106362 -0.0075627179
-0.31726617 -0.44636571 -0.0073657092
-0.31785244 -0.46161678 -0.010581452
-0.31747767 -0.47690248 -0.0083483057
-0.31743601 -0.49987763 -0.007949559
-0.31855604 -0.516092 -0.014191014
-0.31751156 -0.53091639 -0.0081611201
-0.31757569 -0.54671657 -0.0084161805
-0.31804803 -0.56329364 -0.010985199
-0.31771532 -0.58730602 -0.0089356862
-0.31808251 -0.60469019 -0.010908175
-0.31784058 -0.62133855 -0.009427472
-0.31829458 -0.6399278 -0.011891539
-0.31769922 -0.6657393 -0.0083520422
-0.3186399 -0.67773181 -0.013628733
-0.31811783 -0.70547366 -0.010503822
-0.31854808 -0.72737402 -0.012831329
-0.31880361 -0.74972832 -0.014167917
-0.31793478 -0.78019339 -0.009075461
-0.31803006 -0.80453706 -0.009502382
-0.31885231 -0.83378774 -0.014048363
-0.31889278 -0.86108452 -0.014162875
-0.31969342 -0.89438581 -0.018584063
-0.31805149 -0.93187332 -0.0091047157
-0.31859398 -0.96953243 -0.012059764
-0.4910605 -2.3640079 -0.98888963
-0.49136302 -2.5111763 -0.99042225
-0.49263182 -2.6824577 -0.99741989
-0.49363327 -2.8711553 -1.0028921
-0.49465749 -3.0837677 -1.0084803
-0.48849624 -3.3683558 -0.97324073
-0.48927885 -3.6554105 -0.97741824
-0.48894373 -3.975682 -0.97524047
-0.48988172 -4.3764143 -0.98023641
-0.492901 -4.8992848 -0.99696445
-0.44291151 -9.8362389 -0.71028
-0.39044085 -10.162572 -0.41252539
-0.33460853 -10.517812 -0.095697328
-0.24310616 -10.72559 0.42332298
-0.11609801 -10.922015 1.1436766
-0.020921227 -10.880294 1.6831365
0.04238582 -10.839164 2.0419805
0.07890898 -4.8228726 2.2460821
0.24990325 -6.2766819 3.2161531
0.25804964 -5.8836651 3.2621813
0.25546548 -5.429008 3.2473583
0.26577541 -5.1461029 3.3057132
0.27532375 -4.8827424 3.3597641
0.26190862 -4.4596515 3.2835753
0.2750549 -4.1420522 3.3580327
0.24145758 -3.6675036 3.1674278
0.2759929 -3.663358 3.3632517
0.2691763 -3.4080083 3.3245602
0.26348221 -3.1785786 3.2922459
0.25906485 -2.9722373 3.2671819
0.25886008 -2.7994263 3.2660143
0.26010174 -2.6424801 3.2730553
0.23934856 -2.3331268 3.15539
0.26836574 -2.2997947 3.319937
0.26324889 -2.143007 3.2909415
0.25595215 -1.9877619 3.2495914
0.25256148 -1.8520252 3.2303934
0.2494164 -1.7228043 3.2125921
0.2477368 -1.6021929 3.2031035
0.24986808 -1.4378965 3.2152443
0.24750538 -1.3243083 3.2018907
0.24940842 -1.2206368 3.2127244
0.25099349 -1.117704 3.2217579
0.22465059 -0.98453468 3.0724604
0.22049218 -0.88390231 3.0489383
0.25034636 -0.81007254 3.2182453
0.24554527 -0.65810293 3.1911128
0.233408 -0.55726165 3.1223645
0.23629236 -0.46153337 3.1387792
0.23407897 -0.36566618 3.1262958
0.23284847 -0.27005517 3.1193867
-0.18660115 -0.39862636 0.74171937
-0.18686086 -0.38713491 0.74032009
-0.18685603 -0.37514848 0.74042082
-0.18476458 -0.35282034 0.75238806
0.22906938 0.69188762 3.0987053
-0.19777988 -0.34030545 0.67886102
0.22259592 0.84566939 3.0621421
-0.19850418 -0.32545069 0.67486674
-0.19923417 -0.32197249 0.67076558
-0.20043609 -0.30845156 0.66406411
-0.20097174 -0.29831427 0.66110271
0.10311858 1.6761696 2.3858616
0.058709163 1.5376439 2.1341689
0.062998943 1.7152035 2.1586177
0.037891287 1.6859457 2.0163696
0.01067073 1.7055161 1.8622016
-0.0079778517 1.7060206 1.756577
-0.027184684 1.693079 1.6477845
-0.043576661 1.7007447 1.5549549
-0.18635792 0.24078597 0.74525201
-0.19175072 0.23706004 0.71475887
-0.196219 0.24418309 0.68951029
-0.20404436 0.19458552 0.64521253
-0.21003954 0.16477469 0.61129558
-0.2151738 0.14306414 0.58226132
-0.21980746 0.12496492 0.55606574
-0.22408687 0.10871914 0.53187877
-0.22972943 0.096904412 0.50000477
-0.23339103 0.085379943 0.47932127
-0.2368959 0.073086932 0.45952582
-0.24022126 0.063072473 0.44074863
-0.24341714 0.052391998 0.42270505
-0.24649797 0.04408351 0.40531451
-0.24950244 0.037173558 0.38835734
-0.25242686 0.029685104 0.37185341
-0.25531647 0.02362247 0.35554749
-0.25817379 0.01799228 0.33942467
-0.26104972 0.013770479 0.32319689
-0.26541275 0.0087963957 0.29857737
-0.26790848 -0.0025833326 0.28450114
-0.26961356 -0.025725674 0.27490062
-0.27231577 -0.030295683 0.25965694
-0.27472234 -0.039098244 0.24608684
-0.27566087 -0.065553553 0.24082902
-0.27897468 -0.094269946 0.22218069
-0.28101385 -0.10331434 0.21069208
-0.28317603 -0.11104604 0.19850689
-0.28578857 -0.11510906 0.18377069
-0.31846112 0.033479914 -0.0011226424
-0.31882098 0.0020686828 -0.0031049049
-0.31889418 -0.028860221 -0.0034624294
-0.31912503 -0.084375627 -0.0046540112
-0.32027754 -0.11745471 -0.011095425
-0.31993866 -0.14302991 -0.0091158738
-0.31876314 -0.15933479 -0.0024255784
-0.32024676 -0.18658139 -0.010741823
-0.31973338 -0.22922109 -0.0077121244
-0.31985778 -0.24812275 -0.0083564846
-0.31968823 -0.26718941 -0.0073349783
-0.31954297 -0.28554443 -0.0064510345
-0.31975898 -0.30257016 -0.0076144375
-0.3195312 -0.32007974 -0.0062628631
-0.3198916 -0.34436446 -0.008214335
-0.31978455 -0.37669951 -0.0074867546
-0.31992072 -0.39230904 -0.0081983833
-0.31990457 -0.42334813 -0.0079868501
-0.31975392 -0.4387387 -0.0070734094
-0.31935269 -0.46160954 -0.0047100801
-0.31986755 -0.4692362 -0.0075993775
-0.3200565 -0.49223256 -0.0085827727
-0.32000765 -0.50760198 -0.0082478747
-0.32020891 -0.52326316 -0.0093312478
-0.32014108 -0.53888291 -0.0088897869
-0.31985727 -0.56238759 -0.0071958578
-0.32038787 -0.57120007 -0.010176593
-0.32013243 -0.59551573 -0.0086455317
-0.32043371 -0.6129986 -0.010299775
-0.32045206 -0.63040072 -0.010350447
-0.32067087 -0.64876962 -0.011538893
-0.3209157 -0.6678471 -0.012876029
-0.32048303 -0.69540626 -0.010346847
-0.3206827 -0.7161094 -0.011430716
-0.32116392 -0.73875707 -0.01411321
-0.32131723 -0.76133668 -0.014937209
-0.32156906 -0.78547889 -0.016321896
-0.32096049 -0.81969267 -0.012806619
-0.32084781 -0.84540385 -0.012128162
-0.3214027 -0.87626427 -0.015240463
-0.32191843 -0.90920782 -0.018133953
-0.32089061 -0.9520849 -0.012255877
-0.49285591 -2.433964 -0.98867339
-0.49422514 -2.5980098 -0.99658352
-0.49646369 -2.7886231 -1.0094578
-0.49546227 -2.9704545 -1.0039588
-0.49848667 -3.219023 -1.0213689
-0.49166319 -3.5221798 -0.98300827
-0.49176916 -3.8260231 -0.98395807
-0.49268785 -4.1968322 -0.98960817
-0.49248347 -4.6237497 -0.98897296
-0.49304107 -5.1618137 -0.99281251
-0.41927731 -10.155193 -0.58140612
-0.36467835 -10.544976 -0.2724742
-0.27295277 -10.616072 0.24733351
-0.21110806 -10.694074 0.59776276
-0.14908573 -10.681621 0.94932538
-0.084411517 -10.836032 1.3156813
-0.05314412 -10.808674 1.4928107
0.010667972 -10.814934 1.854776
0.10714245 -10.806086 2.4020381
0.1483418 -8.862359 2.6387651
0.065991305 -4.8741479 2.1780128
0.25548893 -6.0991058 3.2510209
0.25512612 -5.6412024 3.2497244
0.27541617 -5.4349895 3.3651712
0.26453626 -4.9678774 3.3042443
0.2612552 -4.6147976 3.2862382
0.2637763 -4.3406672 3.3010159
0.25612193 -3.8935683 3.2583828
0.26168182 -3.6958535 3.2902751
0.26994354 -3.526792 3.3374441
0.26390055 -3.2868569 3.3036001
0.25948355 -3.0732949 3.2789364
0.25618765 -2.8798418 3.2605987
0.25721306 -2.7180712 3.2667167
0.26558781 -2.51794 3.3145933
0.24781655 -2.3025439 3.2142036
0.26340762 -2.2189724 3.3027909
0.25607926 -2.0595915 3.2615302
0.25086749 -1.9153334 3.2322474
0.25036407 -1.7907873 3.2296309
0.24688646 -1.663148 3.2101538
0.24826556 -1.4948885 3.2182968
0.24741906 -1.3825135 3.2137108
0.24615394 -1.2722894 3.2067466
0.24770153 -1.1687748 3.2157173
0.24570721 -1.0620832 3.2046096
0.20931892 -0.92283958 2.9985561
0.24983145 -0.86202979 3.228363
0.24443904 -0.708188 3.1980703
0.23970644 -0.60790044 3.1714203
0.23592559 -0.50996172 3.1501606
0.2324224 -0.41362166 3.1304705
0.23111781 -0.31789848 3.1232407
-0.18816972 -0.40360922 0.74662364
-0.18891279 -0.39258036 0.74250692
-0.18955095 -0.38153026 0.7389847
-0.18855342 -0.36161423 0.74478424
0.22380577 0.68520999 3.0833168
-0.20009756 -0.32858339 0.67979789
-0.20082252 -0.32498613 0.67573357
-0.20214996 -0.31172544 0.66834599
-0.20295541 -0.30256638 0.66387141
-0.20381925 -0.2935425 0.6590656
0.1121619 1.6719961 2.4517283
0.077731244 1.6066049 2.256573
0.063975185 1.6634406 2.1786754
0.047467344 1.699159 2.0851674
0.016942583 1.6985365 1.9122115
-0.002946568 1.691299 1.7995163
-0.020184062 1.700207 1.7018592
-0.038154218 1.6952423 1.6000434
-0.19179773 0.23635936 0.72871941
-0.19646668 0.24121591 0.70233124
-0.2038589 0.20183299 0.66049182
-0.2100662 0.17181325 0.62537318
-0.21537751 0.14977172 0.59533697
-0.22016639 0.13125965 0.56826389
-0.22454816 0.11551579 0.54349983
-0.2303341 0.10336618 0.51081681
-0.23412111 0.090263769 0.4894259
-0.23768462 0.079341613 0.46930274
-0.24109209 0.068679914 0.45006457
-0.24435414 0.059328087 0.43165115
-0.24750304 0.051329017 0.41387966
-0.25055307 0.04271476 0.39666882
-0.25354618 0.0365039 0.37978125
-0.25649086 0.03070911 0.36316836
-0.2594018 0.025336249 0.34674683
-0.26379576 0.019653996 0.32195899
-0.26675892 0.016760735 0.305242
-0.26985228 0.016151529 0.28778699
-0.27086931 -0.022207405 0.28210208
-0.27377015 -0.023699244 0.26573905
-0.27661774 -0.026747275 0.24967784
-0.27762476 -0.054155249 0.24405174
-0.2807202 -0.087227136 0.22667004
-0.28365108 -0.10244431 0.21018022
-0.28582036 -0.11019486 0.19796631
-0.28843951 -0.11427795 0.18320175
-0.32171023 0.056237876 -0.0052272202
-0.32133153 0.0184635 -0.0029937532
-0.32119447 -0.014897965 -0.0021297706
-0.32137293 -0.044118349 -0.0030543052
-0.32259735 -0.079782031 -0.0098649114
-0.32434082 -0.097861759 -0.019661987
-0.3227683 -0.13000835 -0.010656768
-0.3227554 -0.15359785 -0.01049424
-0.32240644 -0.17730668 -0.0084259566
-0.32261029 -0.1979088 -0.0094916867
-0.32250699 -0.21871863 -0.0088153956
-0.32209158 -0.23960674 -0.0063693272
-0.3220706 -0.27679223 -0.0060675945
-0.32202572 -0.29460856 -0.0057211528
-0.32202262 -0.31184661 -0.0056114043
-0.32223606 -0.32828656 -0.0067291036
-0.32252577 -0.35250136 -0.0082320236
-0.32247749 -0.36867157 -0.0078647425
-0.3224977 -0.38450828 -0.0078854933
-0.32241914 -0.4002327 -0.0073458096
-0.32241589 -0.41572002 -0.0072328048
-0.32249108 -0.43105468 -0.0075639482
-0.32247302 -0.44635692 -0.0073660691
-0.32253587 -0.46160799 -0.0076265046
-0.32267994 -0.47689402 -0.0083467858
-0.32263497 -0.49986938 -0.0079465136
-0.32289091 -0.51547432 -0.0092996247
-0.32287803 -0.53106499 -0.0091285622
-0.32310975 -0.54709059 -0.010343136
-0.3230699 -0.56306106 -0.010017995
-0.32307079 -0.58757436 -0.0098726759
-0.32326937 -0.60468304 -0.010897135
-0.32335237 -0.62201566 -0.011265774
-0.32347843 -0.63992095 -0.011877517
-0.32363814 -0.65846884 -0.012679054
-0.32382113 -0.67772532 -0.013611412
-0.32360125 -0.70643711 -0.012206429
-0.32372659 -0.72736788 -0.012809468
-0.32339326 -0.75853956 -0.010757198
-0.32434115 -0.77363414 -0.016072774
-0.32361689 -0.8063786 -0.011801061
-0.32402813 -0.83378237 -0.014016505
-0.32419762 -0.86174852 -0.014860184
-0.32486942 -0.89438099 -0.018546561
-0.32358316 -0.93406254 -0.011077876
-0.32422709 -0.97254676 -0.014598766
-0.49716049 -2.3704445 -0.99349403
-0.49833202 -2.525151 -0.999874
-0.4986755 -2.6892169 -1.0015461
-0.49991915 -2.8806357 -1.0082901
-0.50157744 -3.1004388 -1.0173509
-0.49460107 -3.3773963 -0.97733152
-0.49563664 -3.6682544 -0.98277378
-0.49759978 -4.0220976 -0.99340063
-0.49733797 -4.4084215 -0.99136919
-0.49870256 -4.9050503 -0.9984287
-0.45159128 -9.9623394 -0.72468883
-0.39881742 -10.316013 -0.42486393
-0.31122351 -10.689364 0.072516218
-0.24921651 -10.666557 0.42425799
-0.12361761 -10.810202 1.1369586
-0.027138192 -10.880166 1.6841308
0.065712966 -10.747665 2.2104757
0.23464982 -6.164989 3.1632102
0.24704626 -5.8269067 3.2331538
0.2549184 -5.4807129 3.2774384
0.24672908 -5.0228868 3.2305286
0.26545548 -4.8468332 3.3365593
0.25574738 -4.455348 3.2811208
0.26626691 -4.1192513 3.3404686
0.2365758 -3.6717799 3.1716709
0.27030221 -3.662359 3.3629479
0.26252827 -3.4013796 3.3186357
0.25694886 -3.1728594 3.2868047
0.25291514 -2.9686947 3.2637672
0.25338411 -2.7991626 3.2662995
0.2542271 -2.6404097 3.2709656
0.23292114 -2.3289564 3.1499135
0.26294449 -2.2995234 3.3201742
0.25544143 -2.1347387 3.2775159
0.24949677 -1.9842089 3.2437103
0.247196 -1.8517586 3.2305856
0.24406734 -1.7225382 3.2127712
0.24497814 -1.5506867 3.2178471
0.24652556 -1.4415334 3.2265682
0.24237415 -1.3243322 3.2029703
0.24429272 -1.2206254 3.2138026
0.24437052 -1.1156336 3.2141969
0.20252572 -0.96539557 2.9768548
0.22949618 -0.89661878 3.1297622
0.24558736 -0.75989014 3.220947
0.23895809 -0.65727276 3.1833186
0.23464632 -0.558281 3.1588335
0.23008098 -0.46126387 3.1329131
0.22927283 -0.36532623 3.1282959
0.22753786 -0.26985487 3.1184244
-0.19173536 -0.3985655 0.7417506
-0.19216301 -0.38729915 0.73939049
-0.1919874 -0.37508759 0.74044949
0.22919096 0.59304792 3.1274383
0.22038709 0.73900288 3.0774679
-0.20244336 -0.32761407 0.68157911
-0.2035991 -0.319493 0.67509472
-0.20449938 -0.31063688 0.67005771
-0.20566098 -0.29658222 0.66357189
0.098162264 1.6749253 2.3842797
0.054308604 1.5401036 2.1358848
0.056765694 1.7045206 2.1496956
0.026532564 1.7132332 1.9783899
0.0052993246 1.6998832 1.8580979
-0.012939829 1.7036374 1.7547606
-0.03178101 1.694096 1.6480259
-0.048171692 1.7017699 1.5551637
-0.19165654 0.23722379 0.74353439
-0.19682297 0.23619975 0.71432108
-0.20365505 0.2078298 0.67569697
-0.20996432 0.17951013 0.64003688
-0.21546584 0.15717416 0.60894924
-0.22042257 0.13828164 0.58094639
-0.22491275 0.12306087 0.55558407
-0.23085521 0.11060814 0.5220229
-0.23476148 0.096943438 0.49996939
-0.23842536 0.085416876 0.47928733
-0.24190815 0.075116962 0.45963055
-0.24524137 0.066103593 0.44082019
-0.24845725 0.057423104 0.4226746
-0.25157589 0.050109155 0.40507874
-0.25461796 0.04318637 0.38791645
-0.2575801 0.035677955 0.37120798
-0.26055488 0.031568497 0.3544237
-0.26352105 0.02786248 0.33768764
-0.26800999 0.023646336 0.31235677
-0.27117774 0.024268651 0.2944724
-0.27376941 0.012733369 0.27986908
-0.27523476 -0.01625561 0.27167347
-0.27805683 -0.020013191 0.25575429
-0.27971506 -0.040006675 0.24645385
-0.28233796 -0.081140064 0.231787
-0.2842184 -0.092511632 0.22121605
-0.28736353 -0.10542312 0.20351467
-0.28970805 -0.11175101 0.19030613
-0.3237184 0.034973443 -0.002446918
-0.32338664 -0.00087259611 -0.00044491398
-0.32357427 -0.030997636 -0.0013951153
-0.32374448 -0.059246954 -0.0022486059
-0.32506439 -0.093309663 -0.0095755551
-0.32494235 -0.11931928 -0.0087747937
-0.32488143 -0.14363535 -0.0083226142
-0.3249087 -0.16637351 -0.008372318
-0.3247551 -0.18871902 -0.0073971734
-0.32472616 -0.20962758 -0.0071304394
-0.32469139 -0.22970876 -0.0068315822
-0.32466331 -0.24901785 -0.006571928
-0.32449514 -0.26802129 -0.0055180863
-0.32467338 -0.28556311 -0.0064303554
-0.32504576 -0.31089059 -0.0083952583
-0.32509947 -0.32772261 -0.0086022252
-0.32487503 -0.34464267 -0.0072319331
-0.3250469 -0.3606261 -0.0081099151
-0.3247771 -0.37690994 -0.0064830934
-0.32491797 -0.39248535 -0.007185908
-0.32496268 -0.40800706 -0.0073434259
-0.32508498 -0.42336842 -0.0079413028
-0.32511371 -0.43870685 -0.0080084382
-0.32522288 -0.45398605 -0.0085318619
-0.3252129 -0.47691643 -0.0083317496
-0.32526371 -0.49225372 -0.0085241757
-0.32522103 -0.50762331 -0.0081863096
-0.3252565 -0.52314544 -0.0082914643
-0.3255381 -0.53907835 -0.0097919628
-0.3257184 -0.55519181 -0.010717672
-0.32545921 -0.57913548 -0.0091033168
-0.32571396 -0.59612292 -0.010450165
-0.32585439 -0.61334693 -0.011148538
-0.32587799 -0.63078201 -0.011184017
-0.32610217 -0.64918357 -0.012355851
-0.32572266 -0.67599612 -0.010055753
-0.32608116 -0.69636881 -0.011986794
-0.3264342 -0.71763337 -0.013885922
-0.32647339 -0.73878133 -0.014005432
-0.32586673 -0.76964402 -0.010412334
-0.32605204 -0.79383564 -0.011356712
-0.32643998 -0.82034671 -0.013447379
-0.32672817 -0.84805322 -0.014970998
-0.32702559 -0.87765378 -0.01654469
-0.32606158 -0.91769588 -0.010913985
-0.32640871 -0.95285356 -0.012762807
-0.50032085 -2.4462492 -0.99692202
-0.50071108 -2.6023057 -0.99887043
-0.50309533 -2.7938643 -1.0120835
-0.49542108 -3.0103695 -0.96819001
-0.49762493 -3.2585983 -0.98031163
-0.49923134 -3.5368321 -0.98900878
-0.50039786 -3.8547115 -0.99516374
-0.50148624 -4.2287283 -1.0008078
-0.5010426 -4.6522689 -0.99770409
-0.48614255 -5.1920915 -0.9124431
-0.42739558 -10.093636 -0.57299191
-0.28278601 -10.704054 0.24799304
-0.22070469 -10.704021 0.60012364
-0.15857004 -10.701494 0.95255476
-0.096575141 -10.676495 1.3041674
-0.062059343 -10.859223 1.5003083
0.03057305 -10.727483 2.0253117
0.059410982 -4.8813281 2.1818926
0.24619363 -6.0791473 3.2423227
0.24717674 -5.634728 3.2474246
0.26672512 -5.4209137 3.3580487
0.2562474 -4.956625 3.2981691
0.25345179 -4.6070824 3.2819791
0.2668584 -4.275322 3.3576982
0.24182788 -3.8403854 3.2153757
0.25238186 -3.6776907 3.2750938
0.26024839 -3.5070424 3.3195717
0.25518659 -3.2733386 3.2906921
0.25051978 -3.0589302 3.2640774
0.25001025 -2.879534 3.2610729
0.2498693 -2.7122269 3.2601743
0.25955433 -2.5176377 3.314997
0.24375705 -2.3093355 3.2253063
0.25599942 -2.2135305 3.2946973
0.24945845 -2.0568841 3.2575428
0.24505801 -1.9150567 3.2325418
0.24365433 -1.7879801 3.2245481
0.24279983 -1.6088039 3.2196674
0.2424369 -1.4942864 3.2175944
0.24063371 -1.3800954 3.2073593
0.24089314 -1.27259 3.2088275
0.24163245 -1.1678023 3.213022
0.24425219 -1.0668296 3.2278841
0.20297605 -0.9217518 2.9938419
0.24462833 -0.81140298 3.230052
0.23813763 -0.70752639 3.1932707
0.23412214 -0.60762846 3.1705294
0.22828074 -0.50952208 3.13744
0.22671011 -0.41344869 3.1285696
0.22612046 -0.31759042 3.1252644
-0.19347301 -0.40359303 0.74667919
-0.19421513 -0.39256564 0.74256122
-0.19468389 -0.38127497 0.73999339
-0.19368745 -0.36130986 0.74577725
0.21829751 0.68458718 3.0814676
0.2165603 0.79290164 3.0716918
-0.20564152 -0.31761268 0.67856276
-0.20685631 -0.30966589 0.67176968
-0.2076751 -0.30038974 0.66722167
-0.20883772 -0.29239878 0.66072506
0.10555975 1.6634432 2.4434414
0.067912817 1.5769442 2.2301466
0.059581976 1.6688633 2.1830366
0.034841638 1.7219523 2.0429685
0.01154409 1.6969389 1.9110211
-0.0080627287 1.6921711 1.7999967
-0.027194876 1.68309 1.6916641
-0.042545661 1.7040091 1.6047698
-0.19725172 0.23451477 0.72794515
-0.20321499 0.22079784 0.69424427
-0.21001317 0.18865485 0.65580785
-0.21576974 0.16513133 0.62327659
-0.22094947 0.14493895 0.5940153
-0.22558759 0.12929089 0.5678246
-0.23168504 0.11655644 0.53341383
-0.23565488 0.10432171 0.5110116
-0.23943086 0.092215367 0.4897081
-0.24299535 0.082295306 0.46960372
-0.24641585 0.072638266 0.45031551
-0.24970604 0.06329 0.43176588
-0.25288615 0.05628965 0.41384089
-0.2559886 0.049665492 0.39635625
-0.25902784 0.043436553 0.37922978
-0.26356393 0.037458953 0.35367057
-0.26505709 0.035170417 0.34525764
-0.26961866 0.031347591 0.31955484
-0.27295142 0.035151232 0.300769
-0.27664301 -0.01559647 0.28002781
-0.27994487 -0.011530563 0.26141709
-0.28260908 -0.018450581 0.24641541
-0.28496543 -0.067075178 0.23323902
-0.28629315 -0.08551079 0.22580518
-0.28830892 -0.095318601 0.21447599
-0.29152039 -0.10772976 0.19641852
-0.32631963 0.088371977 -0.00043952811
-0.32839179 0.046259146 -0.01205369
-0.32800233 0.0093312925 -0.009766439
-0.32775438 -0.023961533 -0.0082799178
-0.32670167 -0.0448654 -0.0022764914
-0.32791993 -0.080490813 -0.0090522571
-0.32803893 -0.10609531 -0.0096430564
-0.32822046 -0.13006151 -0.010587952
-0.32792175 -0.15479828 -0.0088124089
-0.32785627 -0.1773603 -0.0083580269
-0.32761219 -0.19950764 -0.0068917824
-0.32765064 -0.21974224 -0.0070258221
-0.32769269 -0.2392071 -0.0071805082
-0.3275927 -0.25838324 -0.0065305433
-0.32751426 -0.276847 -0.0060026045
-0.32813364 -0.30193987 -0.0093868971
-0.32791343 -0.31951562 -0.0080562942
-0.32774138 -0.33652422 -0.006998762
-0.3277941 -0.35279897 -0.0072150314
-0.3279126 -0.36872754 -0.0078042648
-0.32775971 -0.38473806 -0.006856191
-0.32785022 -0.40028909 -0.0072874003
-0.32801762 -0.41567215 -0.0081548765
-0.32774431 -0.43118125 -0.0065254429
-0.32793882 -0.45403847 -0.0075075617
-0.32795277 -0.46929207 -0.0075071696
-0.32804766 -0.48458874 -0.0079659885
-0.3282223 -0.50001436 -0.0088775009
-0.32812947 -0.51541042 -0.0082737254
-0.32811397 -0.5309667 -0.0081090173
-0.32851359 -0.54714894 -0.010298025
-0.32832575 -0.57101548 -0.0091205295
-0.32846436 -0.58763331 -0.0098322919
-0.32849309 -0.60443306 -0.0099222725
-0.32857314 -0.62173289 -0.010304268
-0.32901818 -0.64035511 -0.012756844
-0.32856616 -0.66663784 -0.010090557
-0.32868186 -0.68593949 -0.010679395
-0.32911026 -0.70698214 -0.013043267
-0.32922533 -0.72794342 -0.013632206
-0.32873172 -0.75860035 -0.010740572
-0.32858187 -0.78083646 -0.0098320516
-0.3289372 -0.80643982 -0.011791868
-0.32960373 -0.83512926 -0.015520392
-0.32840347 -0.87018681 -0.0086363563
-0.32895872 -0.90290469 -0.011742698
-0.32908738 -0.93558753 -0.012432936
-0.32981974 -0.97487319 -0.016555231
-0.50242895 -2.3744326 -0.99666286
-0.50340396 -2.5284212 -1.0023655
-0.50421536 -2.6975961 -1.0071704
-0.49860567 -2.9212115 -0.97565705
-0.49906969 -3.1379132 -0.97858679
-0.5012086 -3.4052498 -0.99109918
-0.50270432 -3.7066128 -1.0000337
-0.50211805 -4.0304298 -0.99722028
-0.50172848 -4.4187446 -0.99564379
-0.49033865 -4.9611111 -0.93200916
-0.45424375 -10.048695 -0.7367382
-0.3679764 -10.202892 -0.2483404
-0.31177795 -10.739408 0.068993248
-0.24938841 -10.725664 0.42242834
-0.1248009 -10.710623 1.1281803
0.065856583 -10.747942 2.2085619
0.046664257 -4.9297409 2.1116798
0.23189849 -6.1590543 3.1591394
0.25014386 -5.886425 3.2631416
0.25644854 -5.52178 3.2996583
0.23966691 -4.9842358 3.2056899
0.25827113 -4.8107228 3.311528
0.24926099 -4.4290118 3.261291
0.26090696 -4.1048503 3.3280277
0.23270683 -3.6698637 3.1691508
0.26714534 -3.6649168 3.3643808
0.25899839 -3.4024448 3.3187988
0.25075504 -3.1602559 3.2726302
0.2474563 -2.9611731 3.254396
0.24738568 -2.7900732 3.2543983
0.25598258 -2.5870168 3.3036101
0.22783341 -2.3259382 3.1446807
0.25813472 -2.2977538 3.3165016
0.24917506 -2.1285841 3.2661278
0.24464864 -1.9831415 3.2408278
0.24195884 -1.8499055 3.2259102
0.23843279 -1.7200271 3.2062471
0.23988356 -1.549946 3.2148924
0.24170038 -1.4415418 3.2254591
0.23914959 -1.327294 3.2112889
0.23985751 -1.2214733 3.2155654
0.22701052 -1.0993184 3.14307
0.19657876 -0.96455902 2.9709637
0.23846659 -0.90960705 3.2084646
0.23869108 -0.75906563 3.2101126
0.23356323 -0.65745407 3.1813107
0.22954808 -0.55859852 3.158807
0.22736691 -0.46157762 3.1466899
0.2233846 -0.36577854 3.1243646
0.22264506 -0.27002585 3.1204107
-0.19736065 -0.39887598 0.74083292
-0.19762345 -0.38741818 0.73944139
-0.19745357 -0.37520632 0.7405023
-0.19686618 -0.36195287 0.74393028
0.21372643 0.73626715 3.0722504
0.21128851 0.84389716 3.0586786
-0.20864299 -0.31215298 0.67779487
-0.20974079 -0.3037371 0.67166644
-0.21074164 -0.29501364 0.66608763
0.11406802 1.6576133 2.5097573
0.091134876 1.6695747 2.3799081
0.049281217 1.5474387 2.1426587
0.044433188 1.7385277 2.1155758
0.019765284 1.7089895 1.9758357
-0.00018878074 1.7063261 1.8628429
-0.019307783 1.7026081 1.7545799
-0.038150415 1.6930568 1.6478742
-0.054467104 1.701604 1.5555066
-0.19747059 0.23620874 0.7432608
-0.20310789 0.22872928 0.71138549
-0.21007285 0.19745703 0.67195398
