# .PCD v0.7 - Point Cloud Data file format
VERSION 0.7
FIELDS x y z
SIZE 4 4 4
TYPE F F F
COUNT 1 1 1
WIDTH 1425
HEIGHT 1
VIEWPOINT 0 0 0 1 0 0 0
POINTS 1425
DATA ascii
0.33371672 1.558135 -0.38039982
0.31930512 1.5576836 -0.46213409
0.30564168 1.5430776 -0.53962189
0.28370202 1.5303059 -0.66404951
0.27201477 1.4880112 -0.730322
0.39942294 0.18611859 -0.0073018703
0.39951923 0.13893074 -0.0067283837
0.39923558 0.098916247 -0.0083117457
0.39922902 0.060316898 -0.0083233537
0.39901301 0.026144002 -0.0095239431
0.39971772 -0.011053211 -0.0055009089
0.39902839 -0.037617307 -0.0093881562
0.39921138 -0.067241199 -0.0083262846
0.39940149 -0.1202828 -0.0072014248
0.39947569 -0.16722375 -0.0067351805
0.39964885 -0.18951082 -0.0057306788
0.39954656 -0.20985921 -0.0062888586
0.39944381 -0.22944008 -0.006850041
0.39900705 -0.25681111 -0.0092954868
0.39892825 -0.27497944 -0.0097209895
0.39881349 -0.29256666 -0.010350899
0.39898187 -0.31029451 -0.0093743177
0.39910471 -0.327452 -0.0086563416
0.3996768 -0.34489042 -0.0053897859
0.39935115 -0.36058038 -0.0072164922
0.39929366 -0.37644833 -0.0075217658
0.39916408 -0.39205763 -0.0082362453
0.39880481 -0.41515592 -0.010243483
0.3989135 -0.43066475 -0.009606475
0.39894322 -0.4460367 -0.0094174119
0.39889255 -0.46135744 -0.009684368
0.39876127 -0.476713 -0.010408794
0.39872342 -0.4921197 -0.010603242
0.39875668 -0.51534516 -0.010384346
0.39861166 -0.53112656 -0.011186815
0.39856553 -0.54702991 -0.011428506
0.39845037 -0.5632593 -0.012061693
0.3984395 -0.57963669 -0.012103431
0.39845711 -0.6047402 -0.011973604
0.39822629 -0.62244743 -0.013263012
0.39827907 -0.64004332 -0.012943688
0.39813542 -0.65862298 -0.013738801
0.39796883 -0.67791075 -0.014663936
0.39821354 -0.70666933 -0.013246123
0.39795652 -0.72814494 -0.014684333
0.39772269 -0.7505582 -0.01599109
0.39781106 -0.77280688 -0.015470042
0.39724484 -0.79897225 -0.018662216
0.39775246 -0.83481425 -0.015753208
0.39812246 -0.86015701 -0.013634664
0.39783338 -0.89065355 -0.015254863
0.39685842 -0.92748541 -0.020765657
0.39823243 -0.97002935 -0.01294205
0.22140673 -2.330265 -1.0159769
0.22012021 -2.4812169 -1.0232532
0.22576168 -2.671006 -0.99121863
0.22435841 -2.8628895 -0.99915689
0.22390015 -3.069222 -1.0017343
0.22179131 -3.3221245 -1.0136744
0.21967351 -3.6132379 -1.0256652
0.21923757 -3.9295609 -1.028115
0.22639577 -4.8645 -0.98745012
0.30888656 -8.2358398 -0.51936847
0.35546547 -8.3053303 -0.25512365
0.44933847 -8.7901592 0.27742589
0.5003081 -8.9562082 0.56657821
0.60096544 -10.881204 1.1376181
0.6950388 -10.809077 1.6712894
0.75813663 -10.778279 2.0292468
0.97182053 -6.3340092 3.2415874
0.97540444 -5.887023 3.2619402
0.98219824 -5.5258541 3.3005033
0.98580855 -5.1739645 3.3210073
0.99686807 -4.9216189 3.3837702
0.9836843 -4.4975839 3.3090043
0.98111194 -4.1957984 3.2944362
0.9608264 -3.683275 3.1793954
0.99590594 -3.6816449 3.3784239
0.99103999 -3.4363103 3.3508456
0.98196137 -3.1867898 3.2993693
0.979559 -2.9899986 3.2857671
0.97918934 -2.815232 3.2836964
0.98093957 -2.6594326 3.2936518
0.95214266 -2.3876603 3.1303146
0.98796988 -2.3095157 3.3336027
0.98081064 -2.1452072 3.293016
0.97491306 -1.9940845 3.2595866
0.97172016 -1.8584067 3.2415011
0.96956879 -1.73121 3.2293243
0.96906918 -1.6126083 3.2265182
0.96741843 -1.4950901 3.2171822
0.96882272 -1.3322902 3.2251921
0.96825945 -1.2238959 3.2220256
0.97003573 -1.1208512 3.2321322
0.92567235 -0.96701014 2.9804814
0.97217458 -0.91601473 3.2443256
0.9653163 -0.80915064 3.2054477
0.9557054 -0.70455492 3.1509535
0.96071655 -0.55993623 3.1794288
0.95771343 -0.46217871 3.1624227
0.53209901 -0.43846104 0.74784565
0.51763505 -0.42242056 0.66584283
0.51617569 -0.41516051 0.65758556
0.51568753 -0.41141966 0.6548273
0.5148356 -0.39966747 0.65002733
0.51503897 -0.38612545 0.65121436
0.51611573 -0.37948406 0.65733474
0.51643509 -0.36450467 0.6591804
0.51942462 -0.34150872 0.67617553
0.51758397 -0.33577424 0.66575527
0.51688814 -0.33242393 0.66181868
0.51639289 -0.31156087 0.65905422
0.51559937 -0.30271611 0.65457487
0.51545149 -0.291069 0.65375894
0.51521128 -0.27929062 0.65241915
0.51514298 -0.26611894 0.65205473
0.51483059 -0.24601451 0.65031737
0.51509291 -0.2288883 0.65182918
0.75303972 1.6656827 2.002111
0.73689103 1.6949688 1.9105226
0.71012425 1.7083365 1.7587039
0.69162196 1.7024064 1.6537575
0.67454451 1.7032217 1.5568955
0.65780252 1.7007575 1.461936
0.64204454 1.7033854 1.3725597
0.61392713 1.5234252 1.2130387
0.60026878 1.525795 1.1355739
0.58632416 1.5175145 1.0564831
0.56787097 1.5417235 0.95182979
0.55317384 1.4968992 0.86846447
0.54221886 1.5399697 0.80634189
0.53010291 1.5543218 0.73762858
0.51745081 1.5453974 0.66586995
0.50523257 1.5508006 0.59657484
0.49297395 1.5507443 0.52704942
0.47466263 1.5665333 0.42319825
0.46242136 1.5573212 0.35376951
0.44997752 1.571606 0.28319499
0.43785366 1.5554792 0.21443111
0.42570201 1.5448902 0.14551018
0.41333276 1.5417247 0.07535553
0.39447162 1.5390362 -0.031619642
0.38167956 1.5371742 -0.10417339
0.36820468 1.5440652 -0.18059987
0.35397011 1.5573978 -0.26133591
0.33963373 1.5646071 -0.34265056
0.3259474 1.556505 -0.4202798
0.31168342 1.5516897 -0.50118607
0.28970307 1.5422218 -0.62586206
0.28383586 1.4423465 -0.6591444
0.39950845 0.20455143 -0.0030331544
0.39939857 0.15710697 -0.0036430508
0.39934957 0.1136649 -0.0039070505
0.39951244 0.072546296 -0.0029685977
0.39928043 0.037510462 -0.0042696623
0.3995519 -0.029310687 -0.0026986429
0.39900744 -0.055563014 -0.0057713613
0.39908016 -0.083462164 -0.0053425105
0.39899123 -0.10893257 -0.0058307075
0.39799368 -0.14100745 -0.011464745
0.39811036 -0.16441914 -0.010786026
0.39797342 -0.18579234 -0.011545943
0.39830101 -0.2078508 -0.009670523
0.39818722 -0.22755378 -0.010298979
0.39854732 -0.26652426 -0.0082215751
0.39869699 -0.28491163 -0.0073550469
0.39855349 -0.31920323 -0.008134421
0.39856911 -0.33593607 -0.0080285035
0.39852548 -0.3522442 -0.0082585122
0.39831427 -0.37605897 -0.0094306627
0.39818311 -0.39173704 -0.010157518
0.39814866 -0.40736219 -0.010335492
0.39821017 -0.42291468 -0.0099691655
0.39836669 -0.43837509 -0.0090636853
0.39827013 -0.4536888 -0.0095943268
0.39826638 -0.46901199 -0.0095983027
0.39808849 -0.49211267 -0.010581837
0.39814502 -0.50755173 -0.010244052
0.39812389 -0.52314293 -0.010346936
0.39802817 -0.53897065 -0.010873086
0.39786211 -0.55511779 -0.011798611
0.3977994 -0.57142395 -0.012137725
0.39790288 -0.59613299 -0.011525663
0.39794171 -0.61306441 -0.011289003
0.39744526 -0.63157362 -0.01408986
0.39740124 -0.64968115 -0.014323753
0.39732686 -0.66843158 -0.014730027
0.39692339 -0.68879718 -0.017003933
0.39743677 -0.71734869 -0.014067668
0.39726442 -0.73902613 -0.01503088
0.39697528 -0.76219374 -0.016657121
0.39659446 -0.78698039 -0.018804019
0.39776525 -0.81880313 -0.012138895
0.39722273 -0.847767 -0.015204614
0.39706805 -0.87668502 -0.016069716
0.39643645 -0.91035974 -0.01964231
0.39748093 -0.95331043 -0.013697407
0.22062039 -2.2663829 -1.017539
0.22583432 -2.4318464 -0.98797476
0.22413832 -2.5983372 -0.99762708
0.22343764 -2.7745521 -1.0016351
0.2229349 -2.9699514 -1.0045258
0.22092643 -3.2070396 -1.0159723
0.21952698 -3.4711316 -1.0239717
0.22802266 -3.8043568 -0.97583789
0.22758488 -4.1645961 -0.97840977
0.2277334 -4.5873256 -0.97767377
0.28270176 -8.3169641 -0.66679728
0.33241487 -8.2403955 -0.38468605
0.37891787 -8.3221235 -0.12083564
0.49983028 -8.882226 0.56509787
0.56810397 -10.771467 0.95193446
0.63019162 -10.726503 1.3042525
0.66162616 -10.729207 1.4825999
0.72393882 -10.695291 1.8362197
0.82329869 -10.806406 2.4000254
0.79004413 -4.9653025 2.213269
0.97428107 -6.1165934 3.2583902
0.9675774 -5.5901518 3.2205372
0.99976259 -5.5015955 3.4032159
0.9834519 -4.9802022 3.3108485
0.98461866 -4.6620789 3.3175902
0.98206139 -4.3452492 3.3032
0.97055233 -3.8703983 3.2380755
0.98101717 -3.7053685 3.2975295
0.98768806 -3.5259645 3.3354595
0.98432845 -3.3006661 3.3164885
0.97811764 -3.0765765 3.2813382
0.97648984 -2.8907332 3.2721813
0.9781692 -2.7309978 3.2817822
0.98656344 -2.52947 3.3295083
0.97140229 -2.3227639 3.2435665
0.98132294 -2.2180588 3.2999125
0.97327656 -2.0563362 3.2543278
0.97102523 -1.9209508 3.2416167
0.97074479 -1.7964859 3.2400856
0.96669686 -1.6668985 3.2171786
0.96863979 -1.4992841 3.2282872
0.96718758 -1.3853115 3.2201037
0.96796948 -1.2781667 3.2245946
0.96772265 -1.1713537 3.2232482
0.9681477 -1.0673054 3.2257133
0.9267242 -0.92203581 2.9907379
0.96772999 -0.86198884 3.223448
0.95805621 -0.70621824 3.1686373
0.95871508 -0.60860276 3.1724265
0.95357549 -0.51048499 3.1433148
0.53061181 -0.43306774 0.7434991
0.5176056 -0.42181221 0.669756
0.51610887 -0.41882673 0.66127741
0.51528931 -0.41536716 0.65664089
0.51463819 -0.40323898 0.6529882
0.5144847 -0.38583314 0.6521734
0.51486909 -0.37123454 0.65439677
0.51921868 -0.34563088 0.67912149
0.51770443 -0.3388046 0.67055732
0.51576382 -0.32822293 0.65958762
0.51492631 -0.31990892 0.65486348
0.51520354 -0.30741221 0.65646523
0.51530373 -0.30105695 0.65704817
0.51461428 -0.28521267 0.65317893
0.5145961 -0.27211919 0.65310466
0.514103 -0.25344452 0.6503498
0.51431185 -0.23717001 0.65156472
0.5144912 -0.21984701 0.65261221
0.73557359 1.4671296 1.9075146
0.74008799 1.7276641 1.9332283
0.71767759 1.700201 1.8060896
0.6999585 1.7050568 1.7055776
0.68231493 1.7037258 1.6054926
0.66465324 1.6944329 1.5053028
0.6486842 1.6970489 1.4147199
0.62647575 1.6084768 1.2887133
0.60637325 1.525888 1.1746575
0.58646762 1.5336454 1.061753
0.57339931 1.536814 0.98762935
0.56038898 1.5362118 0.9138341
0.54765278 1.53675 0.84159458
0.53516704 1.5395452 0.77077693
0.52276206 1.540759 0.70041716
0.50454527 1.5557623 0.59709728
0.49222073 1.5517262 0.52719289
0.4800131 1.5552027 0.45795384
0.46775272 1.5672221 0.38841733
0.4554542 1.56577 0.31866151
0.44313574 1.5638373 0.24879265
0.43107221 1.5475076 0.18036686
0.41233286 1.5496043 0.0740804
0.40029246 1.5330908 0.0057860538
0.38728574 1.5394201 -0.067985453
0.3731575 1.5621511 -0.14811654
0.35983086 1.5606645 -0.2237049
0.34586695 1.56472 -0.30290765
0.3320424 1.5609552 -0.38132128
0.31158617 1.5435559 -0.49735206
0.29701492 1.5382475 -0.58000243
0.2818929 1.5338629 -0.66577727
0.39897382 0.17783813 -0.0017215
0.39861107 0.13489628 -0.0037632817
0.39867315 0.092622235 -0.0033943905
0.39887476 0.017978733 -0.0022149594
0.39719307 -0.020112045 -0.011725611
0.39713603 -0.077552065 -0.012009598
0.39737886 -0.12974693 -0.010590878
0.39761594 -0.17650118 -0.0092034871
0.39753062 -0.21797282 -0.0096441312
0.39779899 -0.23843838 -0.0080995206
0.3979058 -0.25764591 -0.0074714245
0.3978315 -0.27575049 -0.0078704711
0.39755875 -0.29291433 -0.0093954224
0.39744624 -0.31858122 -0.0099995965
0.39768687 -0.32744125 -0.0086230971
0.39746609 -0.36799473 -0.0098183285
0.39745489 -0.38389996 -0.0098588206
0.39771479 -0.39983299 -0.0083612381
0.3975561 -0.41525018 -0.0092383614
0.39749143 -0.43065426 -0.0095820436
0.39752042 -0.44602627 -0.0093942946
0.39730459 -0.46902582 -0.010583818
0.39739266 -0.48437473 -0.010060861
0.39722779 -0.49986944 -0.010972916
0.39733043 -0.5153349 -0.010367173
0.39718464 -0.53111631 -0.011170996
0.39696732 -0.54721016 -0.012380819
0.39717117 -0.57117903 -0.011189067
0.39704379 -0.5878638 -0.011888624
0.39686128 -0.60503882 -0.01290082
0.39679477 -0.62243724 -0.013255009
0.39652482 -0.64078182 -0.014763655
0.39638507 -0.65942574 -0.015533478
0.39673606 -0.68697894 -0.013507436
0.39662638 -0.7071439 -0.014106827
0.39622283 -0.72916448 -0.016373929
0.39584905 -0.75218123 -0.018472277
0.39690474 -0.78227669 -0.012448361
0.39642814 -0.80857813 -0.015130506
0.39617977 -0.83544701 -0.016517838
0.3960368 -0.86349183 -0.017307175
0.39671975 -0.90399438 -0.013399677
0.39612773 -0.93964976 -0.016738139
0.39610589 -0.97454697 -0.016841371
0.22414218 -2.367368 -0.99266875
0.22259139 -2.525285 -1.0014657
0.22086942 -2.701946 -1.0112365
0.22046305 -2.8868005 -1.0135446
0.21922778 -3.1032405 -1.0205604
0.22629091 -3.3803103 -0.98049021
0.22547391 -3.6693971 -0.98514426
0.22488852 -4.0047207 -0.98849148
0.22446498 -4.4011536 -0.9909299
0.22245035 -4.9100614 -1.0024132
0.30693278 -8.2645741 -0.52347213
0.35455751 -8.276413 -0.25324401
0.4732092 -8.8904896 0.41990611
0.5288651 -9.6479969 0.73558128
0.59899449 -10.830409 1.1333058
0.78736377 -10.728707 2.2020907
0.78956455 -4.9719152 2.2156053
0.96282262 -6.245265 3.1984191
0.9718942 -5.8651981 3.2499676
0.98549139 -5.57375 3.3271778
0.96528912 -4.9986396 3.2126734
0.9859671 -4.8414469 3.3300352
0.9890129 -4.4053402 3.3474166
0.98811936 -4.125165 3.3424134
0.95966822 -3.6857867 3.1810889
0.99120778 -3.6621554 3.3600523
0.98339933 -3.4012046 3.3158147
0.97677386 -3.1672621 3.2782845
0.97490704 -2.9745035 3.267746
0.98199522 -2.7521131 3.3080285
0.98221588 -2.5926027 3.3093276
0.95624661 -2.339071 3.1620555
0.98292267 -2.2970517 3.3134284
0.97553748 -2.1329577 3.2715774
0.97155797 -1.9887027 3.2490449
0.9677074 -1.8516418 3.2272429
0.96974313 -1.67645 3.2388535
0.96674758 -1.5536735 3.2219
0.96796918 -1.4437084 3.2288702
0.96647388 -1.3310801 3.2204268
0.96623731 -1.2233717 3.2191241
0.96733248 -1.1195284 3.2253759
0.9251762 -0.96839076 2.9862535
0.96911192 -0.91485947 3.2355483
0.96425498 -0.75972134 3.2080507
0.9605611 -0.65873045 3.1871324
0.95676863 -0.55969381 3.1656542
0.5298149 -0.4330999 0.74348933
0.51778352 -0.42553061 0.67526734
0.51577967 -0.42277682 0.66391063
0.51466286 -0.41520381 0.65759921
0.51384228 -0.40326568 0.65298033
0.51329362 -0.39541486 0.64989221
0.51374924 -0.39023003 0.65248948
0.51407558 -0.37126067 0.65439063
0.5163762 -0.35607654 0.66746831
0.51790971 -0.34155339 0.67619389
0.51552606 -0.3319982 0.66270727
0.51512516 -0.32776412 0.66044503
0.51531869 -0.31001508 0.66158044
0.5147056 -0.30634868 0.65811449
0.51407552 -0.29052413 0.65457737
0.51340431 -0.27403086 0.65080678
0.51341915 -0.26015827 0.65091622
0.51356739 -0.24469325 0.65178287
0.51322454 -0.22274728 0.649876
0.74984902 1.7312098 1.9927135
0.72794408 1.7134024 1.8684595
0.70807469 1.7031134 1.7557554
0.68916947 1.692755 1.6485213
0.67223203 1.694275 1.5524528
0.65493506 1.6844712 1.454343
0.63375777 1.717028 1.3342367
0.60614216 1.5333089 1.17756
0.59261459 1.5361547 1.1008372
0.57911479 1.5341088 1.0242714
0.56587702 1.5310318 0.94919211
0.55276805 1.5241191 0.87484276
0.54098445 1.547767 0.80801731
0.52221972 1.5486577 0.70159417
0.50977147 1.5443889 0.6309939
0.49759308 1.5505491 0.56192601
0.48538479 1.554258 0.49268854
0.47316167 1.5585113 0.42336676
0.46092016 1.5573051 0.35393998
0.44852442 1.5676057 0.28364003
0.43028703 1.5494953 0.18020612
0.41807222 1.5416536 0.11092984
0.40576813 1.5352757 0.041147362
0.39324054 1.5322325 -0.029902432
0.37950128 1.5516883 -0.10782306
0.36730787 1.532619 -0.17697939
0.35218167 1.5621636 -0.26276699
0.33239758 1.5452199 -0.37497544
0.31735894 1.5541055 -0.46026939
0.30387056 1.5377696 -0.53677183
0.28892592 1.5343432 -0.62153429
0.28839669 1.381785 -0.62453586
0.39846632 0.15220678 -0.0002037239
0.39792335 0.11288201 -0.0032665678
0.39830828 0.070230275 -0.0010656691
0.39820299 0.034506936 -0.0016449593
0.39696679 -0.038287528 -0.0086103901
0.39689615 -0.066547222 -0.0089919353
0.39627454 -0.090444431 -0.012498545
0.39694184 -0.11902636 -0.0086936168
0.3965947 -0.14157815 -0.010642833
0.39685783 -0.16552074 -0.0091302134
0.39687374 -0.18736543 -0.0090196896
0.39705947 -0.20883398 -0.0079457834
0.39695063 -0.22847575 -0.0085427277
0.39716098 -0.26691377 -0.0073081213
0.3971512 -0.28489405 -0.0073428554
0.39679396 -0.31026924 -0.0093381656
0.39675045 -0.32713407 -0.0095639648
0.39681751 -0.34382889 -0.0091625489
0.39665473 -0.35987934 -0.010064956
0.39693385 -0.37623194 -0.0084603848
0.39680278 -0.39187548 -0.0091827447
0.39676827 -0.40746596 -0.0093574151
0.39682949 -0.42298371 -0.0089889131
0.39663884 -0.43830392 -0.010049406
0.39652711 -0.46133134 -0.010651406
0.39656895 -0.4766871 -0.010392896
0.3965306 -0.49209377 -0.010589207
0.39641351 -0.5076369 -0.011232341
0.39639211 -0.52326268 -0.011332526
0.39629632 -0.53912473 -0.01185483
0.39642441 -0.56300837 -0.011096539
0.39624384 -0.57961029 -0.012099932
0.39617229 -0.59640551 -0.012484804
0.39588362 -0.61402053 -0.014101692
0.39571631 -0.63191175 -0.015029954
0.39641312 -0.65737695 -0.011045282
0.39577022 -0.6778838 -0.014672175
0.3955915 -0.69794166 -0.015665511
0.39526308 -0.71932721 -0.017508404
0.39480737 -0.74218333 -0.020073604
0.39589441 -0.77163309 -0.013875719
0.39573658 -0.795937 -0.014751196
0.39537722 -0.82255691 -0.016770242
0.39524946 -0.84971356 -0.017475622
0.39600456 -0.88854289 -0.013162266
0.39574006 -0.92098552 -0.014644026
0.39519769 -0.95774686 -0.017702892
0.22179197 -2.3112154 -1.0016222
0.22090024 -2.457618 -1.0066788
0.22052044 -2.6148026 -1.0088326
0.2175207 -2.8134418 -1.025856
0.22525786 -3.0323541 -0.98195761
0.22363521 -3.2765491 -0.99117506
0.22234221 -3.5532875 -0.99852699
0.22154252 -3.8686724 -1.0030859
0.2221667 -4.2195592 -0.99957198
0.23371355 -5.2596064 -0.93415588
0.28346834 -8.2069674 -0.65221947
0.35418162 -8.2474957 -0.25101891
0.39986861 -8.4363899 0.0081688119
0.4469251 -8.8691521 0.27509066
0.4980098 -8.9152517 0.56492138
0.56602269 -10.761547 0.95052761
0.62956852 -10.816263 1.3110512
0.69458753 -10.890635 1.6799202
0.75594711 -10.778485 2.0280697
0.86373806 -8.8764887 2.63995
0.80091792 -4.9192624 2.2842407
0.95259446 -6.3942819 3.1445479
0.96751946 -6.0598326 3.2292962
0.96503735 -5.5816741 3.2153106
1.0021328 -5.345664 3.4258358
0.99674958 -4.9402246 3.395381
0.98591727 -4.5335441 3.334012
0.98953927 -4.2749743 3.3546243
0.94884717 -3.7327366 3.1238728
0.98021269 -3.7108455 3.3018463
0.98149794 -3.4988964 3.3091946
0.98426807 -3.211705 3.324991
0.98070097 -3.0074153 3.3048093
0.97827369 -2.8218799 3.2910914
0.98075348 -2.6688173 3.305208
0.97035056 -2.4706328 3.246244
0.97624397 -2.3470058 3.2797229
0.97678989 -2.2080202 3.2828655
0.97678357 -2.0071185 3.2828972
0.9725728 -1.8675278 3.2590544
0.970631 -1.7401046 3.2480822
0.96728408 -1.6140788 3.2291379
0.96612924 -1.4974891 3.2226286
0.96532959 -1.3849506 3.2181334
0.96294171 -1.2726283 3.2046282
0.96793717 -1.1214231 3.2330287
0.94334137 -0.98969483 3.0935345
0.93013179 -0.87998533 3.0186343
0.96528918 -0.8110835 3.2181268
0.94237179 -0.69929087 3.0881515
0.95704073 -0.60879952 3.1714103
0.95450705 -0.51098084 3.1570756
0.53017938 -0.4383803 0.74982452
0.51553905 -0.42231295 0.66683108
0.51407802 -0.41501752 0.65856856
0.51325911 -0.40735999 0.65394884
0.51216316 -0.39169407 0.64778358
0.51286066 -0.38148269 0.65176684
0.51352024 -0.36604923 0.65554875
0.51751184 -0.34606934 0.67822188
0.51584435 -0.33971182 0.6687876
0.51421613 -0.32825291 0.65958947
0.51351112 -0.3079859 0.65564281
0.51340491 -0.29638392 0.65506685
0.51320714 -0.28463992 0.65397131
0.51332074 -0.27088973 0.65464264
0.51230085 -0.24742422 0.64890993
0.51314276 -0.2351149 0.65370047
0.74118608 1.5920242 1.9478073
0.73594689 1.7054209 1.9181234
0.71556008 1.6942106 1.8024858
0.69769615 1.6972314 1.7011633
0.67917156 1.686133 1.5960908
0.65601957 1.7060078 1.4647818
0.63987529 1.704168 1.3732144
0.61083698 1.5112616 1.2084713
0.59802425 1.5256919 1.135807
0.58316648 1.5012546 1.0515356
0.57192206 1.5367614 0.98777151
0.55760723 1.5060892 0.90657938
0.54010576 1.5438316 0.80732936
0.52763957 1.5463647 0.73662907
0.51516199 1.5433645 0.66586399
0.5029707 1.549765 0.59672397
0.49074507 1.5527102 0.52738845
0.47852424 1.554194 0.45808023
0.46629608 1.5572202 0.38873032
0.44778952 1.5666156 0.2837739
0.4356406 1.5534959 0.21487162
0.42376539 1.5320301 0.14752121
0.41138297 1.5318984 0.077295616
0.39872721 1.5350745 0.0055197775
0.38558209 1.5443051 -0.069031894
0.37151986 1.5650746 -0.14878519
0.35194251 1.5536778 -0.2598196
0.33812565 1.5534745 -0.33818361
0.32403123 1.551983 -0.41812247
0.30986726 1.5463419 -0.49845642
0.29504231 1.5436674 -0.58254015
0.28653231 1.4700818 -0.63080502
0.39811867 0.17206189 0.0021758121
0.39590475 0.12248468 -0.01035329
0.39623168 0.079575047 -0.0084787328
0.39618391 0.04282761 -0.0087293228
0.39565641 0.011868734 -0.011700823
0.39651272 -0.025034074 -0.0068220538
0.39611933 -0.080147676 -0.0090106996
0.39614427 -0.10638122 -0.0088472916
0.39653018 -0.13272771 -0.0066360906
0.39642876 -0.1556022 -0.0071893404
0.3962189 -0.17701632 -0.0083575053
0.39629087 -0.21891311 -0.007904307
0.39640996 -0.23886278 -0.0072060404
0.3963618 -0.25761595 -0.0074564735
0.39605585 -0.28412825 -0.0091580041
0.39606643 -0.31886023 -0.0090519926
0.39607891 -0.33562639 -0.0089581441
0.39620081 -0.35221046 -0.0082435627
0.39626011 -0.36838078 -0.0078839213
0.39608014 -0.3840434 -0.0088820001
0.39616889 -0.39980245 -0.008355218
0.39601004 -0.41521949 -0.009233281
0.39586127 -0.4382883 -0.010042499
0.3957631 -0.45363677 -0.010576163
0.39593151 -0.46897775 -0.0095973294
0.39567253 -0.48439565 -0.011043465
0.39568087 -0.49983829 -0.010972923
0.39578336 -0.51530373 -0.010368098
0.39585787 -0.53876275 -0.0099105323
0.39568916 -0.55487549 -0.01084451
0.39545515 -0.57138908 -0.012148961
0.39516228 -0.58838272 -0.01378737
0.39514828 -0.60531574 -0.013843744
0.39541969 -0.63082236 -0.012269133
0.39520967 -0.64925545 -0.013437571
0.39513117 -0.66797388 -0.013860013
0.39487794 -0.68785417 -0.015273715
0.39477375 -0.70808071 -0.015842007
0.39505246 -0.7384609 -0.014226492
0.39504594 -0.7604813 -0.014240829
0.39465263 -0.78518176 -0.016449668
0.39460436 -0.80977631 -0.016701138
0.39423025 -0.83734179 -0.018801458
0.39507851 -0.87460387 -0.013955134
0.39492282 -0.90537548 -0.014816627
0.3945758 -0.93961686 -0.016763896
0.21973468 -2.3888254 -1.0087953
0.21811394 -2.548934 -1.0179816
0.21643962 -2.7269995 -1.0274738
0.22321166 -2.9420893 -0.98903656
0.22069347 -3.1821649 -1.0033224
0.21950807 -3.4413188 -1.0100484
0.21983574 -3.7213619 -1.0081919
0.21650301 -4.1010346 -1.0271125
0.23017161 -4.5030332 -0.94956523
0.32919884 -8.2631874 -0.38793185
0.37717569 -8.2352886 -0.1157046
0.47149205 -8.9104843 0.41939032
0.53357208 -10.719372 0.77145576
0.59761161 -10.861375 1.1348003
0.66429663 -11.036672 1.5131403
0.72370499 -10.805404 1.8502471
0.78196508 -10.609645 2.1808364
0.78649193 -4.9516201 2.2072408
0.94905502 -6.1024961 3.1295037
0.98037559 -5.7505846 3.3072824
0.99574727 -5.4882402 3.3945506
0.97550666 -4.9327374 3.2797968
0.98904306 -4.7197871 3.3566473
0.98360842 -4.3767538 3.3258762
0.98265684 -4.0981278 3.3205342
0.95963013 -3.6965175 3.1899581
0.9866156 -3.6440365 3.3430982
0.98647583 -3.3267243 3.3423805
0.97952598 -3.0969992 3.3030016
0.97776061 -2.9090776 3.2930336
0.97791386 -2.7411914 3.2939489
0.97933447 -2.5874753 3.3020535
0.9589501 -2.3560123 3.1864519
0.97968954 -2.2913837 3.3041563
0.97617757 -2.0736468 3.284296
0.97264022 -1.9330916 3.2642696
0.96944594 -1.7997733 3.2461889
0.96797699 -1.6762166 3.237896
0.96514261 -1.5538297 3.2218561
0.96341133 -1.4379976 3.2120743
0.9630453 -1.3280147 3.2100379
0.96534973 -1.1716728 3.2231722
0.96764666 -1.0699149 3.2362435
0.92794907 -0.92598188 3.0110543
0.9667449 -0.86342138 3.2312064
0.96041298 -0.75850856 3.1953206
0.95809853 -0.65852916 3.1822281
0.9534381 -0.55948859 3.1558254
0.52807254 -0.43319526 0.74252409
0.51580173 -0.43038157 0.67293036
0.5139128 -0.4186846 0.66225541
0.51277387 -0.4112584 0.65582186
0.51243967 -0.40302709 0.65395385
0.51155514 -0.39569277 0.64896381
0.51171613 -0.38213173 0.64991963
0.51640052 -0.3521761 0.67655605
0.51580691 -0.3375203 0.67323065
0.51379788 -0.33247 0.66185993
0.51354998 -0.32776663 0.66046774
0.51344824 -0.31107667 0.65993345
0.51279455 -0.30164298 0.6562531
0.51211065 -0.28584051 0.65241551
0.51196158 -0.27340326 0.65159827
0.51210302 -0.25884807 0.65242994
0.51157326 -0.23927829 0.64946705
0.51200706 -0.22059102 0.65195805
0.73403412 1.4724923 1.9119494
0.74593443 1.7125368 1.9795214
0.72453266 1.6975907 1.8581176
0.70430034 1.6827074 1.7433491
0.68062204 1.7097285 1.6090465
0.66371 1.7094691 1.5131177
0.64661992 1.6996691 1.4161777
0.62988752 1.6857009 1.3212664
0.60426658 1.5286149 1.1759092
0.59031552 1.5238421 1.0967797
0.57729745 1.5293094 1.0229448
0.5646739 1.5387441 0.95134866
0.54542905 1.5386674 0.84219635
0.53329331 1.5532999 0.77336788
0.52063459 1.5476661 0.70157045
0.5082292 1.5453855 0.63121033
0.49603322 1.5505549 0.56203902
0.48383781 1.5562662 0.49287078
0.47160342 1.5645239 0.42348158
0.4532373 1.556796 0.31931326
0.44088244 1.5608693 0.24923982
0.42881498 1.5455501 0.18079509
0.41654339 1.540694 0.1111932
0.40414667 1.5372709 0.040881202
0.39129603 1.5420121 -0.032005671
0.37745443 1.5623535 -0.11051399
0.35838878 1.5455116 -0.21865374
0.34451672 1.5497565 -0.29733652
0.33065271 1.5480534 -0.37597454
0.31623363 1.548679 -0.4577617
0.30209464 1.5405256 -0.53796077
0.28599489 1.5494195 -0.62928373
0.27210152 1.5291063 -0.70809048
0.39535651 0.18866456 -0.0088082207
0.39604914 0.13656124 -0.0048558512
0.39534006 0.061141763 -0.0088321688
0.39546698 0.024715988 -0.0080882814
0.39581805 -0.010275396 -0.0060725515
0.39587247 -0.041033119 -0.0057396344
0.39555934 -0.067851841 -0.0074917376
0.39122286 -0.073689736 -0.032070793
0.39561844 -0.1202241 -0.0071071186
0.39554664 -0.16660552 -0.0074646925
0.39556819 -0.18839173 -0.0073174858
0.39560884 -0.20930013 -0.0070616975
0.39565521 -0.22938117 -0.0067733442
0.39585072 -0.24912883 -0.005638795
0.39545628 -0.27570212 -0.0078387922
0.39518282 -0.29286575 -0.0093650082
0.39535204 -0.31056091 -0.0083794501
0.39514357 -0.32709977 -0.009536868
0.39537734 -0.3440538 -0.0081848912
0.39538425 -0.36029571 -0.0081200125
0.39532426 -0.3761977 -0.0084349653
0.39519233 -0.3918412 -0.0091578485
0.39517522 -0.41520086 -0.0092166346
0.39510992 -0.43060482 -0.0095613692
0.39496487 -0.44594145 -0.010358862
0.39508635 -0.46129739 -0.0096439635
0.39495373 -0.47665277 -0.010370735
0.39491454 -0.49205941 -0.010567525
0.39479658 -0.50760251 -0.011211142
0.3949708 -0.53091002 -0.010184234
0.39475185 -0.54696929 -0.011401089
0.39463532 -0.56319851 -0.012036717
0.39445534 -0.57983428 -0.013032285
0.39421862 -0.596955 -0.014350081
0.39440629 -0.62238628 -0.013246886
0.39429668 -0.64035642 -0.013843425
0.39431253 -0.65856165 -0.013728051
0.39352047 -0.67960131 -0.018197352
0.3936584 -0.69884533 -0.017389441
0.39442611 -0.72705394 -0.01299512
0.39389324 -0.75049633 -0.015993943
0.39398006 -0.77274507 -0.015476165
0.39368975 -0.7977069 -0.017098766
0.39444956 -0.83218235 -0.012749811
0.39428598 -0.86009526 -0.013653598
0.39399534 -0.8905915 -0.015278291
0.39326021 -0.92598438 -0.01942578
0.39298013 -0.96142656 -0.020991286
0.21856062 -2.3229604 -1.0107657
0.216208 -2.4818099 -1.0241032
0.22289246 -2.662411 -0.98615015
0.22054113 -2.8626778 -0.99948388
0.22058527 -3.0637634 -0.99922502
0.21899354 -3.3103304 -1.0082526
0.21702215 -3.5985243 -1.0194383
0.22666506 -3.9443386 -0.96471244
0.22948876 -4.2826447 -0.94869357
0.22233874 -4.868094 -0.98929083
0.30424255 -8.2704391 -0.52469504
0.35163912 -8.2992535 -0.25572485
0.44542649 -8.7771425 0.2764723
0.49607924 -8.8692436 0.56391484
0.59536779 -10.750628 1.1271926
0.6920765 -10.859887 1.6759167
0.75242728 -10.718267 2.0184071
0.95112467 -6.3988857 3.146486
0.97719085 -5.9510322 3.2944701
0.97309238 -5.4760413 3.2712827
0.98853827 -5.2371669 3.3589723
0.99492908 -4.9403028 3.3952866
0.97931218 -4.495585 3.3067381
0.97833109 -4.2056847 3.3012218
0.94671881 -3.7305062 3.1219156
0.98131704 -3.7295051 3.3182561
0.98624712 -3.4325006 3.346293
0.97968596 -3.1967685 3.3091092
0.97681934 -2.9969869 3.2928851
0.97568172 -2.8181746 3.2864699
0.9762013 -2.6568472 3.2894561
0.94981182 -2.3949482 3.1397665
0.97854459 -2.3623364 3.3028259
0.97902673 -2.153137 3.3056157
0.97241032 -1.9992024 3.268111
0.96940356 -1.8636495 3.2510858
0.9658559 -1.732439 3.2309911
0.96278846 -1.6077727 3.2136209
0.96339279 -1.4955028 3.217083
0.96126294 -1.3806868 3.2050319
0.96423858 -1.2243088 3.2219646
0.9651711 -1.1201388 3.227288
0.92200303 -0.96776956 2.9823885
0.96113104 -0.91000038 3.2044294
0.96216559 -0.81017172 3.2103314
0.94910336 -0.7036432 3.1362491
0.95321995 -0.60823107 3.1596382
0.95232165 -0.4625783 3.1545885
0.52814537 -0.43850937 0.7478838
0.51389599 -0.43109858 0.66707492
0.51239121 -0.41500509 0.6585924
0.51173228 -0.41145426 0.65486771
0.51087922 -0.39970133 0.65006894
0.51080775 -0.39109737 0.64969134
0.51141149 -0.38554215 0.65313095
0.51260352 -0.36910424 0.65993637
0.51546419 -0.34154624 0.67622393
0.51362288 -0.33581024 0.66580415
0.51252699 -0.32824045 0.65961409
0.5121128 -0.30688474 0.6573199
0.51185739 -0.29579806 0.65589869
0.51124644 -0.2793245 0.65247422
0.51057726 -0.26211685 0.64871937
0.5107373 -0.24672972 0.64965582
0.51100332 -0.22962882 0.6511935
0.75455058 1.7069694 2.0332735
0.73316884 1.6963904 1.9119828
0.71340597 1.6899992 1.7998779
0.68770319 1.7022276 1.6540862
0.67054504 1.7021742 1.556761
0.65297151 1.6898235 1.4570782
0.63826919 1.7050743 1.3736883
0.6100052 1.5233107 1.2133397
0.59628773 1.524752 1.1355374
0.58218765 1.5136188 1.0555632
0.56399512 1.5426128 0.9523865
0.54913414 1.4939117 0.86809319
0.53833103 1.5408956 0.80683011
0.5257197 1.5374866 0.73530424
0.513466 1.5423846 0.66580826
0.50128096 1.5487829 0.59670216
0.48908889 1.5547236 0.52755642
0.47074038 1.5565331 0.42349482
0.45849279 1.5583303 0.35403436
0.44612724 1.5656406 0.28390503
0.43403834 1.5495417 0.21534394
0.42196983 1.5370073 0.14689915
0.40943697 1.5407898 0.075820878
0.39669147 1.5448862 0.0035366092
0.37667435 1.5604347 -0.10998846
0.36447838 1.5403261 -0.17915609
0.35004044 1.5574961 -0.26104096
0.33626252 1.5563135 -0.33918202
0.32235408 1.5520226 -0.41806361
0.30789632 1.5500095 -0.50006139
0.28698838 1.5291249 -0.6186409
0.27902672 1.4511636 -0.66378772
0.39466673 0.21216251 -0.0077494499
0.39530459 0.15798749 -0.0041063344
0.39524764 0.11452492 -0.0044043469
0.39518437 0.074939623 -0.0047377809
0.39504954 0.039081637 -0.0054770922
0.39517522 -0.02712751 -0.004712407
0.39525023 -0.056866229 -0.004260689
0.3949357 -0.082744434 -0.0060188798
0.3949753 -0.10887118 -0.0057677641
0.395098 -0.13390347 -0.0050451504
0.3939448 -0.16379756 -0.011547463
0.39409664 -0.1862604 -0.010659321
0.39442506 -0.2082893 -0.0087693986
0.39431199 -0.22796164 -0.0093841432
0.39434293 -0.24736394 -0.009181764
0.39419731 -0.26564839 -0.0099808481
0.3943401 -0.28410015 -0.0091439411
0.39461192 -0.30225033 -0.0075747175
0.39451414 -0.31914163 -0.0081024785
0.39452758 -0.33587447 -0.0079990476
0.39448184 -0.3521826 -0.0082314825
0.39454037 -0.36835298 -0.0078723123
0.3941341 -0.3916752 -0.010136363
0.39426979 -0.4074226 -0.0093392665
0.3941569 -0.42285287 -0.0099526439
0.39413795 -0.4382607 -0.010032911
0.39421254 -0.45362708 -0.0095823696
0.3940331 -0.46896732 -0.010573268
0.39394686 -0.48436821 -0.011035182
0.39378148 -0.49989766 -0.011946163
0.39405647 -0.52308112 -0.010345221
0.39395851 -0.53890878 -0.010873687
0.39379016 -0.5550558 -0.011801564
0.39372516 -0.57136196 -0.01214305
0.39343148 -0.5883556 -0.013781901
0.39369753 -0.61332774 -0.012231667
0.39336273 -0.63151139 -0.014103857
0.39331624 -0.64961892 -0.014340341
0.39323938 -0.66836929 -0.014749283
0.39368451 -0.69602311 -0.012183279
0.39304221 -0.71828586 -0.015799999
0.3930206 -0.73949337 -0.015895477
0.39301983 -0.76157236 -0.015872888
0.39263257 -0.78633004 -0.018042868
0.39245385 -0.8115958 -0.019029852
0.3931132 -0.84770471 -0.015248884
0.39282829 -0.87730432 -0.016838444
0.39244288 -0.90959007 -0.018998405
0.39312747 -0.95473409 -0.015074562
0.21649371 -2.2654037 -1.0171417
0.22158559 -2.4316483 -0.98821896
0.22065358 -2.591507 -0.99348414
0.21962251 -2.770113 -0.99931216
0.21881846 -2.9680197 -1.0038532
0.21637371 -3.209486 -1.0177038
0.21512315 -3.4718273 -1.0247809
0.22401087 -3.7995594 -0.9743318
0.22115278 -4.1952033 -0.99053437
0.22360906 -4.5824027 -0.97658837
0.28158075 -8.1722412 -0.64772308
0.32713228 -8.2750893 -0.3892895
0.37455383 -8.2991028 -0.1202445
0.46965414 -8.8704672 0.419278
0.56404793 -10.851431 0.95471132
0.62633175 -10.786399 1.308068
0.65905404 -10.849694 1.4937001
0.72411299 -10.897511 1.8628014
0.7846837 -10.758373 2.2064512
0.78654736 -4.977592 2.2175059
0.9651795 -6.0634866 3.2308974
0.96954173 -5.6561208 3.2556987
0.9965927 -5.5131197 3.4091973
0.97404677 -4.9352665 3.2813604
0.98401862 -4.692759 3.3379762
0.9770667 -4.3400159 3.2985911
0.96716112 -4.0001845 3.2424502
0.97481728 -3.6930823 3.2859502
0.98600525 -3.5414302 3.3494608
0.97912753 -3.2954555 3.3104918
0.97457153 -3.0802658 3.284692
0.97230875 -2.8910718 3.2718999
0.97413373 -2.731951 3.2822962
0.97704494 -2.5851207 3.2988536
0.96124965 -2.371675 3.2092946
0.97970676 -2.2271512 3.3140597
0.97414726 -2.0726693 3.2825644
0.96936685 -1.9285395 3.2554879
0.96646041 -1.7963794 3.239042
0.96497172 -1.6730764 3.230638
0.96163273 -1.5498707 3.2117376
0.9662149 -1.3914959 3.2377925
0.96419847 -1.2790226 3.2263944
0.96345395 -1.1714128 3.2222114
0.96557987 -1.0694793 3.2343116
0.92125893 -0.92091525 2.9829261
0.96450156 -0.8629809 3.2282751
0.95799375 -0.75806588 3.1913972
0.95480835 -0.6089384 3.1733871
0.95227516 -0.5110479 3.1590564
0.52645093 -0.43309522 0.74350882
0.51383179 -0.43049029 0.67195684
0.51194203 -0.41884521 0.66128951
0.51097274 -0.41124582 0.65582591
0.51081121 -0.4071219 0.65492731
0.510373 -0.39022025 0.65251225
0.51069587 -0.37125081 0.65441447
0.51520383 -0.34524265 0.68004131
0.51368552 -0.33838364 0.67146349
0.51198703 -0.33245742 0.66186339
0.51132393 -0.3235606 0.65813679
0.51102412 -0.30742699 0.65648931
0.51112384 -0.30107164 0.65707284
0.51029402 -0.28582811 0.65241838
0.50983065 -0.26807794 0.64984286
0.51041502 -0.25817993 0.65317583
0.51000208 -0.23787725 0.65088648
0.510185 -0.22057873 0.65195966
0.74091423 1.5363399 1.9610445
0.7411952 1.6891209 1.9626793
0.71399009 1.7034518 1.8083991
0.69588763 1.7049628 1.7057399
0.67840719 1.7053896 1.6066093
0.66151786 1.7050467 1.5108317
0.64445084 1.6951684 1.4140459
0.6251623 1.6461536 1.3046561
0.60226721 1.5258394 1.1748036
0.58844274 1.52292 1.0964125
0.56942689 1.5396643 0.98858935
0.55677336 1.5478271 0.91684109
0.54388994 1.546509 0.8437885
0.5311898 1.5444525 0.77177584
0.51862991 1.540748 0.70055836
0.50642693 1.5473859 0.63136625
0.4881067 1.5547235 0.52748805
0.47587413 1.5572088 0.45812762
0.46363991 1.5552346 0.38875768
0.45130184 1.5657855 0.31879881
0.43905488 1.5588763 0.24935623
0.4269326 1.5465393 0.18062079
0.41470566 1.5397005 0.11129182
0.39622992 1.5301907 0.0065303179
0.38311163 1.5394589 -0.067855045
0.36912385 1.5593101 -0.14717257
0.35618591 1.5512 -0.2205355
0.34180108 1.5628918 -0.30210596
0.32798395 1.5591558 -0.38045651
0.31363505 1.5577868 -0.46182364
0.29384008 1.5267271 -0.57407027
0.27752197 1.5356814 -0.66660875
0.26624823 1.4890027 -0.73053211
0.39424074 0.18201637 -0.0044172537
0.39415571 0.13654672 -0.0048663085
0.39452532 0.091865666 -0.0027362076
0.39310881 0.063425131 -0.01073819
0.39449784 0.018753152 -0.0028249964
0.39403906 -0.011011029 -0.0053937337
0.39404374 -0.069876909 -0.0052996217
0.39398655 -0.1214736 -0.0055560553
0.39333585 -0.17647186 -0.0091624744
0.39313725 -0.19710343 -0.010254937
0.39309409 -0.21745889 -0.010465644
0.39320275 -0.23750132 -0.0098150903
0.39330202 -0.25677186 -0.0092176748
0.39354017 -0.27572256 -0.0078323809
0.39326528 -0.29288664 -0.0093577337
0.39359722 -0.31090802 -0.0074402448
0.3929916 -0.33507779 -0.010824509
0.39328796 -0.34381661 -0.00912611
0.39316326 -0.36796826 -0.0097820787
0.39315003 -0.38387376 -0.009822797
0.39323604 -0.39966762 -0.0093005942
0.3930746 -0.41511968 -0.010182067
0.39318058 -0.4306289 -0.0095465295
0.39320758 -0.44600117 -0.0093588978
0.39315423 -0.46132222 -0.0096272565
0.39307493 -0.48435029 -0.010025644
0.39308101 -0.49975845 -0.0099566439
0.3930088 -0.515311 -0.010331999
0.39286104 -0.53109264 -0.011135811
0.39281216 -0.5469963 -0.011378833
0.39269423 -0.56322592 -0.012013358
0.39288026 -0.58756578 -0.010906476
0.39269406 -0.60470766 -0.011928594
0.3926236 -0.62207341 -0.012293859
0.39234948 -0.64038563 -0.013814649
0.39296991 -0.66629517 -0.010243387
0.39188251 -0.6787554 -0.016395152
0.3924351 -0.70663846 -0.013208853
0.39202642 -0.72862905 -0.015492956
0.3919386 -0.75052774 -0.015957041
0.39173964 -0.77392346 -0.017051417
0.39234948 -0.80732763 -0.013540272
0.39209136 -0.83414245 -0.014970505
0.39168024 -0.86347264 -0.017268721
0.39128402 -0.89479148 -0.019482544
0.39223945 -0.93670678 -0.014011003
0.39185554 -0.97377425 -0.016154956
0.22056308 -2.3609562 -0.98788458
0.21856961 -2.521986 -0.99916303
0.21786264 -2.6893466 -1.0031431
0.21701592 -2.8773527 -1.0079162
0.21529569 -3.0979741 -1.0176458
0.21422671 -3.3416185 -1.0236812
0.22292919 -3.6447177 -0.97426534
0.22231469 -3.9778199 -0.97772437
0.22201423 -4.3691936 -0.97940284
0.21947008 -4.8834209 -0.99381286
0.30212247 -8.276474 -0.52479315
0.34903282 -8.3401566 -0.25862831
0.37630087 -10.603385 -0.10394478
0.46865013 -8.8834734 0.42006007
0.52326542 -9.4770794 0.72992611
0.59259212 -10.680748 1.1232401
0.68928897 -10.819098 1.6718624
0.75411904 -10.849516 2.0396979
0.96197522 -6.2883606 3.2192712
0.97180265 -5.9128313 3.2750571
0.96903622 -5.4541612 3.2593966
0.97350502 -5.1156387 3.28478
0.98508853 -4.8720703 3.3505239
0.9774245 -4.4953551 3.3070757
0.973131 -4.1810198 3.2827477
0.95442504 -3.6804447 3.176671
0.99007773 -3.6825783 3.3789546
0.9803102 -3.4089239 3.3235703
0.97360873 -3.1740232 3.285579
0.97100049 -2.977067 3.2708082
0.97365719 -2.8173146 3.2859044
0.97361875 -2.6536059 3.2857106
0.95096517 -2.3356521 3.1572356
0.98145157 -2.3075905 3.3302052
0.97368091 -2.141397 3.2861466
0.96714896 -1.9886371 3.2491148
0.96486127 -1.8559626 3.2361598
0.96269673 -1.7289547 3.2239029
0.95960993 -1.6045465 3.2064145
0.96455747 -1.4455956 3.2345133
0.961748 -1.3304262 3.2185977
0.96167845 -1.2230434 3.2182238
0.96328229 -1.1199092 3.2273431
0.92112738 -0.96870762 2.9882321
0.96627223 -0.91619879 3.2443445
0.96062225 -0.8101871 3.2123144
0.95635724 -0.6587286 3.1881499
0.9506588 -0.55926961 3.1558442
0.94852376 -0.46234968 3.1437523
0.52572769 -0.43290904 0.74548954
0.51379657 -0.42975387 0.67783999
0.51138693 -0.4183192 0.66421592
0.50973552 -0.411448 0.65487832
0.50868553 -0.39567572 0.64898169
0.5087527 -0.38677117 0.64939207
0.50957572 -0.37604985 0.65409029
0.51065379 -0.35918546 0.66024935
0.51346552 -0.34153864 0.67622739
0.51146853 -0.33625734 0.66492945
0.51067859 -0.32774997 0.66047776
0.50983995 -0.3137086 0.65576488
0.5096342 -0.30274504 0.65462685
0.50962579 -0.29051042 0.65460801
0.50938082 -0.27870417 0.65324765
0.50944078 -0.26486284 0.65361649
0.5089879 -0.24536172 0.65109068
0.5086503 -0.22345328 0.6492188
0.74612361 1.7361166 1.9961331
0.72398931 1.716768 1.8706088
0.70409495 1.706552 1.7577895
0.68516439 1.6962626 1.6504378
0.66828346 1.6987302 1.5547111
0.65171689 1.6979893 1.4607682
0.63618392 1.7033178 1.3726876
0.60779029 1.5196579 1.211682
0.58817631 1.5352362 1.1004668
0.57493281 1.537958 1.0253745
0.56162304 1.5339514 0.9499076
0.5473969 1.499781 0.86924696
0.53632349 1.5399317 0.80646026
0.52390504 1.5434233 0.73604918
0.51156938 1.5463588 0.66610801
0.49319738 1.5515548 0.56194234
0.4809795 1.555263 0.49267003
0.46874687 1.5615143 0.42331398
0.45648932 1.5593042 0.35381794
0.44427055 1.5536373 0.28454289
0.43205133 1.5485082 0.21526542
0.41993675 1.5379522 0.1465826
0.40133044 1.5352637 0.041093167
0.38848668 1.5400128 -0.031726629
0.37483126 1.5565002 -0.10915135
0.36311057 1.5278157 -0.17559586
0.34795299 1.5583563 -0.26154172
0.33422714 1.5562204 -0.33936208
0.34274641 1.2471945 -0.29096708
0.29947409 1.5368336 -0.53639585
0.28355202 1.5440166 -0.62667239
0.27072465 1.5134032 -0.69939059
0.39252308 0.21293886 -0.0083362376
0.39325389 0.15792513 -0.0041517643
0.39371756 0.11046826 -0.001483388
0.39367673 0.070990108 -0.0016775181
0.39333597 0.036753912 -0.0035734058
0.3936083 -0.03002014 -0.0019552566
0.3929373 -0.055565234 -0.0057253749
0.39173624 -0.090463951 -0.012484211
0.39199057 -0.11719827 -0.01100568
0.39303523 -0.13396761 -0.005062243
0.39188004 -0.1638626 -0.0115616
0.39203075 -0.18632555 -0.010671268
0.39235809 -0.20835443 -0.0087792017
0.39239711 -0.22849678 -0.0085225925
0.39242968 -0.24786815 -0.008302711
0.39260268 -0.26693529 -0.0072863395
0.39226857 -0.28416607 -0.0091462834
0.3920655 -0.3099657 -0.010245549
0.3926056 -0.31951714 -0.0071648126
0.39245284 -0.33594084 -0.0079962648
0.39225259 -0.36012778 -0.0090795122
0.39218983 -0.37606421 -0.0094003696
0.39222687 -0.39189917 -0.0091553582
0.39201769 -0.40736777 -0.010306693
0.39224893 -0.42300794 -0.0089600626
0.39222929 -0.43838114 -0.0090363622
0.39212942 -0.453695 -0.0095677059
0.39212239 -0.46901837 -0.009572383
0.3921127 -0.49204987 -0.0095744906
0.39199266 -0.50755858 -0.010219839
0.3917962 -0.52328885 -0.011298648
0.39169797 -0.53915119 -0.011820112
0.3916994 -0.55512518 -0.011776389
0.39180714 -0.57937896 -0.011111695
0.39156535 -0.59643298 -0.012446973
0.39143825 -0.6137231 -0.013131598
0.39110413 -0.63193995 -0.014990089
0.39105862 -0.65008003 -0.015211781
0.39146382 -0.67703646 -0.012859122
0.39127684 -0.69703239 -0.013882406
0.39093962 -0.71835732 -0.015757363
0.39076927 -0.74009472 -0.016685875
0.39154798 -0.77051651 -0.012213722
0.39137998 -0.79476422 -0.013128099
0.39073989 -0.82258767 -0.016718771
0.39074001 -0.84908885 -0.016678968
0.39033428 -0.87942237 -0.018939622
0.39133286 -0.91957891 -0.013217571
0.39089391 -0.95555013 -0.015665071
0.21284519 -2.2756824 -1.0249764
0.21792279 -2.4431477 -0.99608237
0.21627548 -2.6099188 -1.0053428
0.21461135 -2.795727 -1.0146933
0.21421516 -2.9915764 -1.0168501
0.21141291 -3.2387989 -1.032637
0.2191371 -3.5325367 -0.98869723
0.21893531 -3.8374715 -0.98971981
0.21759938 -4.2140508 -0.99715358
0.21703975 -4.6534863 -1.0001667
0.27716893 -8.252593 -0.65795052
0.32575563 -8.2175255 -0.38239446
0.37256041 -8.2642775 -0.11692122
0.4416557 -8.9021673 0.27514473
0.49278381 -8.8892574 0.56511474
0.56105119 -10.791485 0.95283037
0.62496501 -10.857065 1.315326
0.65830708 -10.942102 1.5044358
0.71872109 -10.774588 1.847032
0.81517524 -10.776059 2.3940804
0.85841084 -8.8695946 2.6388025
0.77931702 -4.9051013 2.1892583
0.96475953 -6.0828233 3.2413492
0.95840693 -5.5622492 3.2052128
0.98955542 -5.4656796 3.3818703
0.97571862 -4.9685464 3.303297
0.97724503 -4.6539717 3.3119023
0.98644376 -4.2866015 3.3640218
0.96134394 -3.8505554 3.2215908
0.97542644 -3.7099066 3.3014519
0.98105901 -3.5238826 3.3333797
0.97595823 -3.2889273 3.3044229
0.97188777 -3.076648 3.2813148
0.96961147 -2.8875875 3.2683885
0.97877187 -2.680052 3.3203347
0.97939199 -2.5255179 3.3238435
0.96538317 -2.3233705 3.2443757
0.97561848 -2.2196651 3.302428
0.96789533 -2.0588193 3.2586186
0.96443152 -1.9196436 3.2389703
0.9636817 -1.7940022 3.2347171
0.96432567 -1.6176182 3.2383711
0.96221882 -1.498648 3.226423
0.96242285 -1.387832 3.2275827
0.95955652 -1.274348 3.2113287
0.96131819 -1.1709116 3.2213233
0.95767331 -1.0619326 3.2006547
0.92117083 -0.92259514 2.9936357
0.96254802 -0.86272228 3.2283082
0.94302762 -0.70170438 3.1176069
0.95286345 -0.60868639 3.1733925
0.94738245 -0.51049632 3.142312
0.5255059 -0.4383707 0.74985158
0.51120037 -0.42199847 0.66880363
0.50970304 -0.41903016 0.66032815
0.50888324 -0.41558772 0.65569502
0.50857437 -0.40735906 0.65397519
0.5084725 -0.38994119 0.65346009
0.5087927 -0.37090585 0.65533811
0.51298273 -0.34565985 0.67914277
0.51131094 -0.33927163 0.66969371
0.50992465 -0.33247036 0.66186368
0.50868601 -0.31993768 0.65488559
0.50896323 -0.30744085 0.65648729
0.50856823 -0.29695669 0.65427732
0.5083732 -0.2852411 0.65320092
0.50777221 -0.26809299 0.64983702
0.50848854 -0.25753888 0.65391237
0.50819582 -0.23650359 0.6522947
0.50750959 -0.21583711 0.64844531
0.74663961 1.6680118 2.0039165
0.73356318 1.7227504 1.9297616
0.7114526 1.6976838 1.8044055
0.6932928 1.6981977 1.7014436
0.67601931 1.7002234 1.6035076
0.65829015 1.6899725 1.5029925
0.64256108 1.6952291 1.4138134
0.61184734 1.491576 1.2397454
0.59413391 1.5360789 1.1393086
0.57920539 1.5117582 1.0546826
0.56746382 1.5387199 0.98810691
0.55477238 1.5458957 0.91615313
0.54153621 1.5347736 0.84111845
0.52917778 1.5414923 0.77105296
0.5168522 1.5466762 0.7011742
0.49840647 1.550754 0.59659886
0.48617971 1.5546925 0.52728015
0.4739677 1.5641694 0.45804214
0.46170083 1.558189 0.38850021
0.44943324 1.5587428 0.31895071
0.43716645 1.5558281 0.24940725
0.4251439 1.5395249 0.1812555
0.40679899 1.5308455 0.077254824
0.3942171 1.5320629 0.0059209624
0.38104427 1.5422783 -0.068769805
0.3670865 1.5611331 -0.14791739
0.35365316 1.5615557 -0.22408137
0.33985639 1.5627766 -0.30230743
0.32584271 1.5618144 -0.38176304
0.3055149 1.5425754 -0.49700865
0.29062834 1.5408424 -0.58141565
0.27842638 1.5057882 -0.65057838
0.39307463 0.17446741 0.00049177045
0.39262331 0.13241437 -0.0020131744
0.39258689 0.090991117 -0.0021650416
0.39244747 0.018666599 -0.0028513975
0.39087501 -0.020168535 -0.011700287
0.39120144 -0.079578042 -0.0097506214
0.39244458 -0.098874204 -0.0026723715
0.39131993 -0.13100886 -0.0089842323
0.3913464 -0.1545423 -0.0087881014
0.39141738 -0.17710461 -0.0083398279
0.39122057 -0.19770676 -0.009411579
0.39133081 -0.21851718 -0.008741376
0.39144376 -0.238498 -0.0080561452
0.39123246 -0.25686017 -0.0092111574
0.39162907 -0.27620178 -0.0069171698
0.39151722 -0.29369235 -0.0075082048
0.3915239 -0.31099644 -0.0074271793
0.39108333 -0.33544257 -0.0098618725
0.39120063 -0.35206068 -0.0091534248
0.3910858 -0.36805722 -0.0097620487
0.39107141 -0.38396284 -0.0098008262
0.39115626 -0.39975673 -0.0092766983
0.39116633 -0.41531375 -0.0091769118
0.3910985 -0.43071821 -0.0095188497
0.39112437 -0.44609058 -0.0093293395
0.3910774 -0.46907356 -0.009531524
0.39081535 -0.48449209 -0.010974904
0.39099365 -0.49984825 -0.0099205179
0.39092019 -0.51540095 -0.010293975
0.39059967 -0.53133893 -0.012068565
0.39098814 -0.55476618 -0.0097998353
0.3907496 -0.57124645 -0.01110894
0.39061883 -0.58793163 -0.01180639
0.39043289 -0.60510707 -0.012816404
0.39019975 -0.62284774 -0.01409389
0.38992834 -0.64122534 -0.015587837
0.39039639 -0.66765314 -0.012864996
0.39029169 -0.68704891 -0.013412429
0.38972247 -0.70866811 -0.016593477
0.38991943 -0.72872061 -0.015429182
0.3893925 -0.75225276 -0.018368782
0.39016157 -0.78352344 -0.013934521
0.38996136 -0.80865031 -0.015019534
0.38957515 -0.83616221 -0.017157894
0.38943133 -0.86423385 -0.017920984
0.39023638 -0.90406775 -0.013276087
0.38963839 -0.93972379 -0.016609924
0.3894968 -0.97537583 -0.017354831
0.21649945 -2.3747151 -0.99771172
0.21487148 -2.5336378 -1.0068041
0.21364912 -2.7063034 -1.0135856
0.21198981 -2.9032505 -1.0228286
0.21964738 -3.1374063 -0.97917414
0.21777588 -3.4002473 -0.98957354
0.21739469 -3.6850929 -0.99150252
0.21536016 -4.0419731 -1.0027596
0.21737193 -4.4032035 -0.99105817
0.21497823 -4.917841 -1.0042403
0.29955891 -8.2597427 -0.52183342
0.34726134 -8.2645645 -0.25116679
0.40672779 -10.149546 0.087601826
0.46565327 -8.8905277 0.42104167
0.52417135 -10.149699 0.75396985
0.58987314 -10.72064 1.127164
0.71790683 -10.815111 1.8536251
0.78423041 -10.881211 2.2299521
0.78409398 -4.994019 2.2251103
0.95329213 -6.217144 3.1858585
0.96598995 -5.8781829 3.2576683
0.97476709 -5.5371032 3.3072345
0.96002299 -5.0144968 3.2232425
0.97926998 -4.8436632 3.3323228
0.97999591 -4.3890915 3.3361459
0.98100799 -4.1233363 3.3417175
0.95328367 -3.688549 3.1841593
0.98354828 -3.6567581 3.3558342
0.97598767 -3.3973954 3.3127818
0.97051263 -3.1697214 3.2815826
0.96986544 -2.9827659 3.2777987
0.97418851 -2.7469125 3.3021834
0.9763661 -2.595856 3.3144481
0.95001465 -2.3404899 3.1648126
0.97803563 -2.3031373 3.3237503
0.9699567 -2.1361871 3.2778256
0.9652499 -1.9893719 3.2510436
0.96173406 -1.8531281 3.2310243
0.96332902 -1.6765707 3.2399766
0.96148545 -1.5562733 3.2294545
0.96044081 -1.4414836 3.2234683
0.95928073 -1.3296399 3.2168293
0.95955449 -1.2228425 3.2183268
0.96083122 -1.1192571 3.2255154
0.92260396 -0.97253931 3.0086074
0.96204841 -0.86313432 3.2322884
0.95624614 -0.75850725 3.1993246
0.95342577 -0.65818107 3.1832769
0.94964403 -0.5592857 3.1617777
0.52345538 -0.43301874 0.74453157
0.51135045 -0.43002599 0.67590779
0.50924051 -0.42279175 0.66397017
0.50797313 -0.41106343 0.6568253
0.50746852 -0.40304029 0.65399188
