# .PCD v0.7 - Point Cloud Data file format
VERSION 0.7
FIELDS x y z
SIZE 4 4 4
TYPE F F F
COUNT 1 1 1
WIDTH 455
HEIGHT 1
VIEWPOINT 0 0 0 1 0 0 0
POINTS 455
DATA ascii
-0.32612824 -0.36312187 0.0024907873
-0.35401317 -0.31573766 0.0055375574
-0.35060087 -0.29988366 0.0080293342
-0.34761348 -0.29996461 0.0080577284
-0.35222277 -0.30972105 0.011800253
-0.33640951 -0.31002328 0.01275415
-0.32761833 -0.35830548 0.014756675
-0.35315314 -0.31143758 0.016463809
-0.31704977 -0.36662242 0.01771049
-0.34259102 -0.30352345 0.017267156
-0.34966895 -0.30531374 0.021828357
-0.34725258 -0.30528757 0.021832155
-0.35279042 -0.31412798 0.023863193
-0.35137162 -0.30606547 0.023693824
-0.33739081 -0.30646336 0.024632614
-0.025638305 -0.44754791 0.02510388
-0.33732671 -0.35345152 0.025110476
-0.30839434 -0.36897275 0.027406517
-0.34569302 -0.35490242 0.03076751
-0.35093135 -0.30925226 0.031982169
-0.34253791 -0.3089292 0.031047955
-0.32838011 -0.3089242 0.03108977
-0.3518191 -0.30958161 0.032881513
-0.35141581 -0.35567603 0.033644285
-0.31829095 -0.36339971 0.034760941
-0.34871855 -0.30276084 0.035542011
-0.08975666 -0.39288241 0.038685769
-0.34109607 -0.35728979 0.039356802
-0.34571055 -0.30457175 0.040091466
-0.23023841 -0.34328482 0.041975528
-0.32991421 -0.31287283 0.041169506
-0.34993801 -0.30532309 0.041948684
-0.33686396 -0.30537495 0.041986659
-0.033334397 -0.45485073 0.042665891
-0.24572407 -0.38642827 0.042591687
-0.26445174 -0.37947914 0.04219212
-0.3475526 -0.35806721 0.042190731
-0.34849387 -0.30575001 0.042873345
-0.051595762 -0.45463222 0.04364631
-0.027463529 -0.45483589 0.043588929
-0.038337309 -0.4480401 0.043791957
-0.030382544 -0.44813237 0.043801505
-0.024993487 -0.44814935 0.043758754
-0.043821942 -0.44792598 0.043803733
-0.051673289 -0.4411492 0.043130342
-0.046687026 -0.44111705 0.043104686
-0.040948655 -0.44120234 0.043065973
-0.030414084 -0.43464249 0.043512784
-0.025030255 -0.43465996 0.043470617
-0.02237992 -0.43472123 0.04351458
-0.040773988 -0.42776272 0.043997146
-0.027367301 -0.42791325 0.043996513
-0.04380431 -0.42091003 0.043700587
-0.027454918 -0.41427007 0.043430317
-0.022368863 -0.41436246 0.043467667
-0.016864281 -0.41439018 0.043478105
-0.033165582 -0.4074488 0.043387085
-0.32624358 -0.36554691 0.043393098
-0.046433967 -0.45461747 0.044603691
-0.040693827 -0.45470241 0.044566426
-0.067619666 -0.44816086 0.044826206
-0.061977752 -0.44810614 0.044788543
-0.056990534 -0.4480291 0.044796254
-0.072665423 -0.44142976 0.044106465
-0.06503918 -0.44139287 0.044109829
-0.059605338 -0.4413248 0.044082183
-0.054437399 -0.44122925 0.04410341
-0.049018733 -0.44116318 0.044094615
-0.033067204 -0.44143808 0.044113938
-0.027369605 -0.44140592 0.044052601
-0.075146645 -0.43471265 0.044463534
-0.06201512 -0.43465108 0.04449936
-0.057026085 -0.4345738 0.044508565
-0.043680836 -0.43450648 0.044501085
-0.038200036 -0.43462059 0.044487737
-0.019599257 -0.42804796 0.044086099
-0.09928067 -0.42799807 0.044963062
-0.04651041 -0.42767733 0.044037271
-0.035684731 -0.42789111 0.044039045
-0.033065263 -0.4279452 0.044057559
-0.08069966 -0.42125416 0.044666003
-0.075106718 -0.42122096 0.044640567
-0.070087954 -0.42123896 0.044709243
-0.051375672 -0.42100316 0.04470009
-0.03815427 -0.42112914 0.044664919
-0.024812052 -0.42123842 0.044628706
-0.05951868 -0.4143104 0.044441506
-0.054331899 -0.41421509 0.044464909
-0.040690433 -0.414242 0.044412252
-0.035597987 -0.4143703 0.044450905
-0.080744103 -0.40760264 0.044333138
-0.096474774 -0.39380547 0.044444021
-0.10695652 -0.38706484 0.044781081
-0.29549894 -0.32174167 0.044219926
-0.07797388 -0.44146475 0.045050792
-0.03551558 -0.44143593 0.04507798
-0.11518945 -0.43479845 0.045460328
-0.10193214 -0.43480033 0.045462348
-0.088612229 -0.43485999 0.04549982
-0.069958754 -0.43480068 0.045516457
-0.093732923 -0.4280937 0.045959566
-0.091376439 -0.42804641 0.045004245
-0.085684679 -0.42811376 0.045046791
-0.080645949 -0.42804739 0.045010928
-0.077793702 -0.42809409 0.045972742
-0.072490342 -0.42802438 0.04503135
-0.067553274 -0.42800722 0.045055009
-0.064856336 -0.42798722 0.045034908
-0.059430078 -0.42791924 0.045009177
-0.054252721 -0.4278239 0.04503148
-0.04884287 -0.42775798 0.045024451
-0.14698277 -0.42131475 0.045619026
-0.13370556 -0.42142189 0.045691878
-0.11764199 -0.4213298 0.045610417
-0.10935692 -0.42142066 0.045700312
-0.10438644 -0.42139977 0.045678947
-0.096303292 -0.42128465 0.045607049
-0.088563018 -0.42140326 0.045670897
-0.083045453 -0.42139941 0.045662839
-0.056806535 -0.42118663 0.045665853
-0.093821682 -0.41452006 0.045386381
-0.085600294 -0.41462702 0.045452196
-0.077877417 -0.41452029 0.045398813
-0.072406545 -0.41453794 0.045438938
-0.067464173 -0.41452059 0.045461688
-0.061830781 -0.41446567 0.045428019
-0.048758429 -0.4142715 0.045437057
-0.030048579 -0.41452694 0.045421932
-0.088603534 -0.40778694 0.0453333
-0.074984185 -0.40770909 0.045285393
-0.069961265 -0.40772685 0.045352206
-0.06184306 -0.40764713 0.045320004
-0.056850072 -0.40756962 0.045332186
-0.051247764 -0.40749118 0.045347515
-0.046264924 -0.40746051 0.045325458
-0.12833109 -0.40095735 0.045353666
-0.099194288 -0.40085599 0.045274567
-0.085604891 -0.40097189 0.045352995
-0.067464046 -0.4008655 0.045363795
-0.10439628 -0.39409333 0.045482561
-0.083053149 -0.39409336 0.045466445
-0.07784541 -0.39401281 0.045432847
-0.11509418 -0.38716966 0.045690019
-0.12585022 -0.38014528 0.045112945
-0.138897 -0.37322396 0.045619894
-0.29808921 -0.36608067 0.045270726
-0.09617734 -0.43481129 0.046416935
-0.082915887 -0.43492633 0.046474297
-0.11995994 -0.4282178 0.046951365
-0.11230733 -0.4281435 0.046007533
-0.10677447 -0.42820352 0.046040848
-0.13877243 -0.42148989 0.046634547
-0.13069342 -0.42151982 0.04668735
-0.12563206 -0.42150787 0.04662928
-0.14392225 -0.41464525 0.046373229
-0.13627441 -0.41474459 0.046423797
-0.12815668 -0.41473421 0.046430778
-0.12294827 -0.41471151 0.046377543
-0.12004419 -0.41467851 0.046372514
-0.11500353 -0.4146654 0.046381842
-0.10669034 -0.41475153 0.046442613
-0.10174796 -0.41466695 0.046383806
-0.099020615 -0.41463327 0.046348572
-0.17074169 -0.40789106 0.046328839
-0.16254634 -0.40793735 0.04627341
-0.13881715 -0.40790826 0.046292957
-0.1256761 -0.40792593 0.046286732
-0.11751512 -0.40785256 0.046249464
-0.11222488 -0.40789106 0.046298455
-0.1042617 -0.40792203 0.046316482
-0.096173771 -0.40780756 0.046246123
-0.091131866 -0.40788105 0.046277907
-0.082919575 -0.40792185 0.046300363
-0.06460201 -0.4078213 0.046309602
-0.14392704 -0.40102497 0.046271849
-0.12294678 -0.40109089 0.046273541
-0.11500597 -0.40104502 0.046279211
-0.10921899 -0.40112406 0.046344008
-0.10669537 -0.40113103 0.046338517
-0.10175163 -0.40104634 0.046281174
-0.093654811 -0.40102181 0.046262287
-0.072240166 -0.40103957 0.046314601
-0.14132892 -0.3942174 0.046408869
-0.12563585 -0.39427119 0.046421964
-0.11747672 -0.39419797 0.046386927
-0.14384714 -0.38734061 0.046650622
-0.13872603 -0.3874048 0.046677869
-0.13619916 -0.38743964 0.046696972
-0.12286058 -0.38740617 0.046649683
-0.13358949 -0.38037175 0.046121895
-0.16513354 -0.36632755 0.046238832
-0.19476484 -0.35917255 0.04611614
-0.20786354 -0.35226196 0.046981286
-0.15999974 -0.41478789 0.047347602
-0.15174143 -0.41483533 0.047342461
-0.16500206 -0.40806222 0.047267023
-0.1493002 -0.40800539 0.047232289
-0.14119577 -0.40801117 0.047246736
-0.13340765 -0.40808365 0.047305185
-0.15732387 -0.40799105 0.047230259
-0.1945892 -0.40128082 0.047364019
-0.19190991 -0.40128091 0.047365818
-0.16761169 -0.40124625 0.047288187
-0.15174846 -0.4012492 0.047235101
-0.14667134 -0.40117472 0.047240283
-0.13055526 -0.40127498 0.047324568
-0.20514686 -0.39448768 0.04747875
-0.18896843 -0.39445087 0.047494557
-0.16496249 -0.39444232 0.047397397
-0.16233858 -0.39445579 0.047379106
-0.15728201 -0.39437088 0.047362287
-0.14926268 -0.39438495 0.04736419
-0.13337111 -0.39446339 0.047436278
-0.11984217 -0.3943961 0.04736672
-0.11200916 -0.39441043 0.047404386
-0.090923257 -0.39440036 0.047384966
-0.21041818 -0.38765779 0.047707971
-0.18635073 -0.38763779 0.04774804
-0.16753392 -0.38759604 0.047659546
-0.15992346 -0.38755164 0.047612239
-0.15167104 -0.38759875 0.047606707
-0.14658862 -0.3875246 0.047612987
-0.13047287 -0.38762477 0.047694124
-0.1279074 -0.38761991 0.047668807
-0.1089662 -0.38763028 0.047686096
-0.10150027 -0.38755253 0.047625404
-0.22378838 -0.38068268 0.04788579
-0.15715532 -0.38069519 0.04797544
-0.14914034 -0.38070899 0.047977231
-0.141205 -0.38050759 0.047028564
-0.11988636 -0.38051215 0.047015134
-0.15992707 -0.37362954 0.047507707
-0.14658992 -0.3736026 0.04750938
-0.17308357 -0.36655253 0.047246344
-0.15173185 -0.36655691 0.047160219
-0.34167311 -0.30762157 0.047429278
-0.18100472 -0.40821737 0.048360396
-0.17293426 -0.40818587 0.048295464
-0.18626325 -0.40144402 0.048354886
-0.17812894 -0.4014115 0.048353344
-0.15983237 -0.40135843 0.04821315
-0.15414637 -0.40136942 0.048208963
-0.22373967 -0.39453173 0.048242509
-0.20763218 -0.39466172 0.048447207
-0.18365307 -0.39466301 0.048481196
-0.18096642 -0.39463142 0.048482109
-0.17552699 -0.39461458 0.048451114
-0.17290042 -0.39459994 0.048420012
-0.13590771 -0.39463609 0.048388008
-0.21852551 -0.38780427 0.04858854
-0.21286185 -0.38784295 0.048654482
-0.20202011 -0.38784358 0.048688348
-0.19433905 -0.38782123 0.048698809
-0.17805183 -0.38779566 0.048715387
-0.17030826 -0.38776907 0.04864724
-0.1540665 -0.38775402 0.048574567
-0.23146482 -0.38077983 0.04863245
-0.21575038 -0.38097718 0.048986707
-0.18884327 -0.38077497 0.048102777
-0.18101333 -0.38078189 0.048120469
-0.17295179 -0.38075033 0.048061263
-0.16483811 -0.38076684 0.048008893
-0.21853073 -0.3739163 0.048474774
-0.19434462 -0.37393346 0.048583295
-0.18618177 -0.37394074 0.04859722
-0.17805886 -0.37390789 0.048599862
-0.17031181 -0.3738814 0.048534676
-0.16212553 -0.37392592 0.048478216
-0.15407082 -0.37386659 0.048462681
-0.19171064 -0.36683077 0.048236575
-0.18097226 -0.36682594 0.048258208
-0.22102477 -0.35991028 0.048824407
-0.21844709 -0.35993117 0.048863251
-0.18866251 -0.35993659 0.048974413
-0.22361948 -0.35268447 0.048677184
-0.21574864 -0.35277075 0.048811167
-0.20195526 -0.35280916 0.048871644
-0.18866505 -0.40834898 0.049317978
-0.21015556 -0.40162057 0.049285032
-0.2019254 -0.40161601 0.049298353
-0.21570222 -0.39479205 0.049351882
-0.19933775 -0.39481586 0.049416374
-0.19662662 -0.38804829 0.049661107
-0.22898406 -0.3877508 0.049286366
-0.22092982 -0.38797343 0.049514309
-0.27633113 -0.38116539 0.049947169
-0.2469953 -0.38100216 0.049757916
-0.22635466 -0.38104394 0.049734294
-0.20751619 -0.38102007 0.049051277
-0.19938622 -0.38100111 0.049049504
-0.18353124 -0.38102111 0.049081974
-0.23922981 -0.38087341 0.049619686
-0.19158353 -0.38099435 0.049061634
-0.17540462 -0.38097292 0.049053848
-0.26576281 -0.37412918 0.049446914
-0.25770852 -0.37400174 0.049371973
-0.22093746 -0.37411997 0.049394384
-0.21269807 -0.37417999 0.049499199
-0.20476067 -0.37418339 0.049534816
-0.20185807 -0.37418029 0.049533013
-0.19663624 -0.37419429 0.049538627
-0.24992818 -0.37398234 0.04931742
-0.23651567 -0.3737857 0.049097005
-0.23396543 -0.37384829 0.049090426
-0.30928922 -0.36720157 0.049984731
-0.2764664 -0.3670353 0.04911831
-0.24696024 -0.3671141 0.049887221
-0.23126382 -0.3670997 0.049726751
-0.22631523 -0.36715648 0.049862437
-0.22341043 -0.36721134 0.049939245
-0.21571045 -0.36705571 0.049119707
-0.20748356 -0.36709827 0.049183704
-0.19934686 -0.36707973 0.049180843
-0.1834925 -0.36709917 0.049211022
-0.16725719 -0.36703849 0.049123731
-0.23919292 -0.36698538 0.049751904
-0.26568124 -0.36017793 0.049827434
-0.25762779 -0.3600508 0.049755652
-0.24984673 -0.36003131 0.049701896
-0.21261652 -0.36022887 0.049878366
-0.2046783 -0.36023232 0.049914099
-0.19655745 -0.36024281 0.049917303
-0.236433 -0.35983485 0.049485061
-0.21000852 -0.35309023 0.049803812
-0.25509012 -0.35290775 0.04965261
-0.23923422 -0.35273331 0.049441576
-0.23131144 -0.35284737 0.049415335
-0.25762361 -0.34572875 0.049705274
-0.24980426 -0.33849958 0.049827602
-0.24975055 -0.38802713 0.050400786
-0.23633905 -0.3878307 0.050176714
-0.25491223 -0.38125551 0.050801914
-0.23371798 -0.38110045 0.0505298
-0.28949901 -0.37430227 0.050346326
-0.28141648 -0.37431404 0.050430927
-0.273496 -0.37429774 0.050397538
-0.26042113 -0.3742663 0.050360709
-0.24436721 -0.37413767 0.050201882
-0.22882186 -0.37412304 0.050130349
-0.28685167 -0.36737767 0.050933365
-0.26305762 -0.36725482 0.05002486
-0.25487843 -0.36740163 0.050922457
-0.24165089 -0.3672975 0.050774835
-0.20996784 -0.36734173 0.050123088
-0.17519698 -0.36729291 0.050140545
-0.28133523 -0.36039683 0.05080362
-0.27341318 -0.36038056 0.050771795
-0.25235066 -0.36028901 0.050683722
-0.2442874 -0.36022061 0.050579183
-0.22874218 -0.3602066 0.050507735
-0.27875873 -0.35328966 0.050718255
-0.27057695 -0.35326707 0.050686203
-0.24683619 -0.35313791 0.05052045
-0.2416997 -0.35307914 0.050454848
-0.2337251 -0.35303086 0.050334755
-0.22618665 -0.35318089 0.05049444
-0.28942192 -0.34609467 0.050659429
-0.26551014 -0.34614804 0.050715625
-0.2523528 -0.34600046 0.050625306
-0.24428454 -0.3459321 0.050521344
-0.23626061 -0.34580562 0.050380774
-0.30204201 -0.33900458 0.050933074
-0.29433447 -0.33894882 0.050881486
-0.28684658 -0.33880618 0.050818227
-0.27870771 -0.33893567 0.050921042
-0.27052736 -0.33891296 0.050889872
-0.26288545 -0.33892405 0.050859414
-0.28949201 -0.33135328 0.050200973
-0.27623376 -0.33139855 0.050280768
-0.24151038 -0.38135985 0.051614285
-0.26800442 -0.37456226 0.051368859
-0.25225601 -0.37443131 0.051266454
-0.29416588 -0.36776412 0.051958807
-0.2787165 -0.36750725 0.051044501
-0.2705332 -0.36748481 0.051011533
-0.31932002 -0.36067981 0.051790029
-0.29952401 -0.3607541 0.051765386
-0.29177263 -0.36063737 0.051703706
-0.28398323 -0.36060739 0.051715631
-0.2679247 -0.36067906 0.051732708
-0.26016983 -0.36060768 0.051685806
-0.30899692 -0.35350165 0.051562171
-0.30192554 -0.35363406 0.051678609
-0.29421413 -0.35357934 0.051624522
-0.26276693 -0.35355428 0.051602028
-0.28397846 -0.34635273 0.051644869
-0.27599752 -0.34643182 0.051681567
-0.26792189 -0.34642422 0.05166012
-0.2601648 -0.34635231 0.051614992
-0.2995964 -0.33179086 0.051221222
-0.28404406 -0.33164585 0.051175438
-0.2679894 -0.33171716 0.051188819
-0.25481465 -0.33160716 0.051109213
-0.30408162 -0.3245022 0.051656019
-0.33110058 -0.30947551 0.051983923
-0.30188122 -0.36781788 0.052015331
-0.31289622 -0.36091095 0.052642729
-0.30649737 -0.36092114 0.052676972
-0.30393428 -0.35387781 0.052604824
-0.29678643 -0.35386607 0.052572161
-0.28909957 -0.3538079 0.052517034
-0.28656173 -0.35371175 0.052504428
-0.30649635 -0.34670001 0.052595705
-0.29935896 -0.34679091 0.052634399
-0.29160482 -0.34667519 0.052573945
-0.30389196 -0.33959043 0.052787982
-0.29673886 -0.33957875 0.052755978
-0.28096282 -0.33953342 0.052782439
-0.27303857 -0.33951738 0.052752979
-0.34767219 -0.30212319 0.052858237
-0.31072876 -0.35405707 0.053452089
-0.30861819 -0.3397992 0.053629585
-0.29151109 -0.33232719 0.053024299
-0.29659688 -0.32517463 0.053475544
-0.33740842 -0.31025112 0.053822935
-0.30607313 -0.33300301 0.054908063
-0.3014639 -0.31797883 0.054085102
-0.32227641 -0.31062526 0.054792371
-0.34466222 -0.30294374 0.054638356
-0.31674618 -0.36174464 0.055596653
-0.34303159 -0.35458678 0.055371664
-0.31035572 -0.34042105 0.055499684
-0.28049394 -0.32581317 0.055351939
-0.31207004 -0.34815142 0.057271034
-0.34578899 -0.35546678 0.058255352
-0.31396466 -0.34876561 0.059191044
-0.341418 -0.305222 0.060068265
-0.33225021 -0.31328809 0.061165333
-0.30908036 -0.32851055 0.06266392
-0.34653813 -0.30641335 0.062817618
-0.344309 -0.30687001 0.063729994
-0.3386054 -0.35739461 0.064872317
-0.32417643 -0.3147558 0.064795583
-0.30642858 -0.32250643 0.065928169
-0.32522225 -0.36505607 0.067901343
-0.33699039 -0.30881551 0.068255544
-0.30985481 -0.33820188 0.069773376
-0.33184418 -0.35904947 0.070589393
-0.34423631 -0.35955724 0.072451562
-0.34373689 -0.3033413 0.072755978
-0.31358635 -0.34638476 0.073424011
-0.32564113 -0.31111014 0.073701747
-0.31129351 -0.34666747 0.074298471
-0.33246928 -0.3115294 0.074616626
-0.31500143 -0.35402703 0.07620398
-0.34005383 -0.30497244 0.076313563
-0.31524238 -0.36320445 0.084819354
-0.30630171 -0.33186409 0.089859143
-0.31603464 -0.35189149 0.090272695
-0.31057042 -0.32529056 0.090410165
-0.31778076 -0.35867786 0.09124206
-0.31232959 -0.34571803 0.091286756
-0.3103905 -0.33920428 0.091478854
-0.30820096 -0.33261004 0.091734201
-0.31920451 -0.35927194 0.093106925
