# .PCD v0.7 - Point Cloud Data file format
VERSION 0.7
FIELDS x y z
SIZE 4 4 4
TYPE F F F
COUNT 1 1 1
WIDTH 1393
HEIGHT 1
VIEWPOINT 0 0 0 1 0 0 0
POINTS 1393
DATA ascii
-0.34036809 -0.60368645 -0.0081980666
-0.3406066 -0.62126172 -0.0095316814
-0.34088412 -0.63947612 -0.011087463
-0.34103191 -0.65799159 -0.011908925
-0.34069374 -0.68535525 -0.0099686198
-0.3406609 -0.7049123 -0.0097688679
-0.34122634 -0.72729695 -0.012963667
-0.34072515 -0.75790983 -0.010106199
-0.3404302 -0.77952963 -0.0084252963
-0.34105846 -0.80630761 -0.011984094
-0.34131819 -0.83306807 -0.013454997
-0.34134364 -0.86033857 -0.013599535
-0.34200296 -0.89291883 -0.017344654
-0.3407006 -0.93252885 -0.0099646384
-0.34087473 -0.96794701 -0.010965853
-0.51276106 -2.3605235 -0.98708791
-0.51391804 -2.5149808 -0.99385828
-0.51358217 -2.6729407 -0.99217719
-0.51519066 -2.8674328 -1.0015749
-0.51615292 -3.0799742 -1.0073423
-0.50907052 -3.3545873 -0.9676162
-0.50954449 -3.6377656 -0.97073925
-0.51023179 -3.9726121 -0.97515935
-0.51103789 -4.3733063 -0.9803654
-0.51318902 -4.8837757 -0.99338013
-0.51179814 -5.4474277 -0.9864189
-0.46672148 -10.048409 -0.7387113
-0.40882519 -10.10961 -0.4107658
-0.35394657 -10.555667 -0.10057504
-0.26199117 -10.608613 0.4203659
-0.13838543 -10.631905 1.1206942
-0.041174605 -10.809132 1.6714748
0.021957934 -10.778304 2.0294337
0.061944194 -4.875751 2.2667534
0.21386428 -6.3503575 3.1253657
0.22052278 -5.9275136 3.1638968
0.22106616 -5.4928899 3.1677854
0.26120079 -5.2951379 3.3957012
0.26113033 -4.9397411 3.3959703
0.24463423 -4.4893775 3.3032982
0.24523586 -4.2122321 3.3072391
0.2077712 -3.697823 3.0958204
0.24314004 -3.7036793 3.2963386
0.24165879 -3.4761112 3.2883842
0.24503176 -3.194844 3.3080602
0.24129857 -2.991178 3.2872977
0.24033807 -2.8138373 3.2822051
0.24036385 -2.6508656 3.2826772
0.23990069 -2.4942424 3.2803659
0.2295647 -2.3083756 3.2221434
0.2393814 -2.2044291 3.2780073
0.23120235 -2.0434945 3.2319658
0.2328189 -1.858255 3.241508
0.23205367 -1.7347186 3.2374222
0.22589438 -1.6027088 3.2027762
0.22594483 -1.4897997 3.2032938
0.22457081 -1.3770245 3.1957357
0.22510988 -1.2704675 3.1990097
0.22630812 -1.1667401 3.2060134
0.22922978 -1.0664207 3.2227786
0.18480887 -0.91832924 2.9712918
0.22762476 -0.81007224 3.2141984
0.22178659 -0.70708793 3.1813142
0.21825977 -0.6077562 3.1615229
0.21499632 -0.5102163 3.1432199
0.21409728 -0.41385826 3.1383145
0.20966631 -0.31879473 3.1133878
0.20882529 -0.22335026 3.1088066
0.20664999 -0.080364496 3.0967526
0.20453283 0.014691276 3.0849342
0.20387641 0.11186635 3.0813961
0.20598167 0.2142027 3.0935159
0.20624129 0.31615758 3.0951729
0.21095367 0.42861924 3.1220794
0.19332153 0.49878266 3.022284
0.20214063 0.68015236 3.072576
0.19915304 0.78477389 3.055824
0.19638965 0.89230818 3.0403447
0.19409707 1.004123 3.0275373
0.19487335 1.1300433 3.03214
0.19292285 1.2514988 3.0212796
0.19502822 1.3941587 3.0334322
0.18545341 1.7164854 2.9796586
0.1179532 1.6700363 2.5970852
0.090786651 1.662361 2.4431322
0.060135167 1.620465 2.2693846
0.043722861 1.6601293 2.1764419
0.028086433 1.702076 2.0878985
-0.0023662043 1.7024205 1.915343
-0.022656225 1.6919417 1.8003594
-0.040076695 1.6991671 1.7016605
-0.056946255 1.7055681 1.6060826
-0.20563926 0.24391079 0.76167083
-0.21221983 0.22626176 0.72439486
-0.2189649 0.20037588 0.68617731
-0.22473519 0.18206005 0.65349376
-0.23011729 0.16416942 0.62301093
-0.23503992 0.14877871 0.59513545
-0.23956384 0.13608269 0.56952304
-0.24382363 0.12429374 0.54540861
-0.2495987 0.11519708 0.51273018
-0.25161842 0.10581202 0.50129378
-0.25525555 0.098306596 0.48071361
-0.26046208 0.09063606 0.45125923
-0.26383868 0.085312739 0.43215787
-0.26714763 0.080315471 0.41344029
-0.27042162 0.077659957 0.39492336
-0.27374172 0.079335637 0.37614903
-0.32158211 1.5671399 0.10650729
-0.33445165 1.5723665 0.033591952
-0.35344616 1.5624815 -0.074043132
-0.3667241 1.5647912 -0.1492777
-0.380135 1.5642085 -0.22526914
-0.29759336 -0.0054107476 0.24123876
-0.30335349 -0.052777804 0.20867659
-0.34122643 0.18342668 -0.0056748749
-0.34131411 0.13791682 -0.0061694738
-0.34126806 0.095558576 -0.0059023816
-0.34136403 0.057812784 -0.0064358679
-0.34121493 0.021478454 -0.0055781687
-0.3412047 -0.011259226 -0.0055042757
-0.3413935 -0.040603135 -0.0065551079
-0.34145087 -0.068786696 -0.0068596071
-0.34126189 -0.09646336 -0.005766693
-0.34138075 -0.1211062 -0.006415931
-0.34129551 -0.14533883 -0.0059075048
-0.34115547 -0.16855055 -0.0050870692
-0.3411234 -0.19024925 -0.0048774229
-0.34182402 -0.21867843 -0.0088033583
-0.34117097 -0.23058844 -0.0050876234
-0.34112588 -0.24983548 -0.0048011192
-0.34109992 -0.26836914 -0.004622105
-0.34146482 -0.29421148 -0.0066411812
-0.34128964 -0.31180832 -0.0056149671
-0.34165949 -0.32795593 -0.00767715
-0.3414228 -0.34484279 -0.0063010422
-0.34141368 -0.36101735 -0.0062144701
-0.34147209 -0.37685153 -0.0065101329
-0.34160298 -0.39242691 -0.0072161276
-0.34161925 -0.41568336 -0.0072540194
-0.34140402 -0.4234845 -0.0060156076
-0.34142205 -0.43875337 -0.0060809702
-0.34153596 -0.46157223 -0.0066707944
-0.34167019 -0.47682354 -0.0073943296
-0.34153834 -0.49205637 -0.0066090049
-0.34183249 -0.5075655 -0.0082388073
-0.34185827 -0.52308774 -0.0083468035
-0.34154624 -0.54629296 -0.0065201414
-0.34167045 -0.56235206 -0.007185935
-0.3416914 -0.57856047 -0.0072661135
-0.3419396 -0.59548074 -0.008634829
-0.34207386 -0.61263835 -0.00935743
-0.34225374 -0.63036627 -0.010338736
-0.3418946 -0.65640235 -0.0082439557
-0.34223533 -0.67593914 -0.010137454
-0.34212324 -0.69490337 -0.0094631929
-0.34232396 -0.71557623 -0.010562886
-0.34295398 -0.73872411 -0.014097387
-0.34204695 -0.76844043 -0.0088957017
-0.342228 -0.79257554 -0.0098843826
-0.34247652 -0.81840211 -0.011256167
-0.34289527 -0.84668434 -0.013593757
-0.34167346 -0.88254136 -0.0066077802
-0.34221902 -0.91620129 -0.009665736
-0.34256113 -0.95131117 -0.01157027
-0.51480365 -2.433929 -0.98862052
-0.51561356 -2.5930023 -0.99321896
-0.5163464 -2.7690866 -0.9973852
-0.51722836 -2.9678264 -1.0024034
-0.51081824 -3.2290177 -0.96606511
-0.51223922 -3.5031214 -0.97416043
-0.51244456 -3.8057477 -0.97536939
-0.51410961 -4.1846733 -0.98487848
-0.51354533 -4.6029272 -0.9817552
-0.44461402 -10.263579 -0.59215027
-0.38814932 -10.544956 -0.2719546
-0.2345539 -10.74403 0.59920394
-0.10873026 -10.79613 1.3128859
-0.076880753 -10.808615 1.4934665
-0.012299811 -10.845565 1.8596711
0.04709664 -10.678015 2.1965351
0.044921547 -4.8935575 2.186029
0.20890407 -6.0683074 3.1155999
0.22553653 -5.7849216 3.2100348
0.22908087 -5.3997083 3.2302878
0.23484774 -4.9032302 3.2632
0.25128639 -4.7163072 3.3565125
0.24381012 -4.3581738 3.3142726
0.24294063 -4.0815763 3.3094721
0.21588905 -3.6548047 3.1562574
0.24820697 -3.6378992 3.3395631
0.24145769 -3.3848083 3.3014181
0.24213691 -3.0973341 3.3054311
0.23782741 -2.8971503 3.281106
0.23775825 -2.729109 3.2808161
0.23979728 -2.57883 3.292475
0.21227199 -2.3203826 3.1365287
0.24297272 -2.2940876 3.310672
0.2326943 -2.1206262 3.2524958
0.22770785 -1.9742628 3.2243187
0.23036805 -1.7954084 3.239538
0.22646329 -1.6662487 3.2174902
0.22453125 -1.5467623 3.2066257
0.22192636 -1.4298633 3.1919456
0.22216761 -1.3217809 3.1934018
0.22421673 -1.2186689 3.2051079
0.20902959 -1.0937346 3.1190846
0.1820384 -0.96363938 2.9661288
0.22287613 -0.9079296 3.1977694
0.22278507 -0.75775075 3.1973841
0.21820299 -0.65679973 3.1714897
0.20119812 -0.55567437 3.0751522
0.21067294 -0.46162021 3.1289654
0.20949933 -0.36589056 3.1223977
0.20740126 -0.27076581 3.1105878
0.206286 -0.17542024 3.1043515
0.20318532 -0.033144616 3.0869007
0.20420767 0.06539613 3.0927877
0.20324932 0.16307104 3.0874431
0.20603868 0.26773432 3.1033528
0.2059644 0.37047237 3.1030235
0.20964801 0.48285601 3.1240077
0.18416436 0.53500479 2.9795752
0.19857664 0.73134238 3.0614562
0.19479266 0.83464754 3.0400925
0.19261841 0.94492131 3.0278599
0.19146682 1.0618846 3.0214291
0.18974213 1.1811347 3.0117497
0.19129489 1.317737 3.0206625
0.19398083 1.4663212 3.0360057
0.15802738 1.6653299 2.8323436
0.10320688 1.6696068 2.5215898
0.079275995 1.6761341 2.3859441
0.033522975 1.5285565 2.126492
0.03907017 1.7143961 2.158076
0.013981813 1.6851195 2.0158517
-0.012922967 1.7071495 1.8633744
-0.032029476 1.7034539 1.7550805
-0.050600696 1.6965225 1.6498204
-0.066758029 1.7069062 1.5582556
-0.21047059 0.23533569 0.74279374
-0.21731497 0.21127371 0.70402282
-0.2234226 0.19095701 0.66943121
-0.22899508 0.17282693 0.63787508
-0.23408991 0.15711281 0.60902834
-0.23881181 0.14305279 0.58229697
-0.24316601 0.13177428 0.55765176
-0.24728222 0.12146907 0.53435653
-0.25121674 0.11124139 0.51209152
-0.25491837 0.10413308 0.49114823
-0.25852939 0.095254205 0.47071803
-0.26365176 0.09104389 0.44174454
-0.26701194 0.086380385 0.4227384
-0.27032369 0.083047979 0.40400729
-0.27366817 0.085044645 0.38509288
-0.31672573 1.5694172 0.14164211
-0.32940629 1.5710196 0.069784798
-0.34220213 1.5709666 -0.0027273407
-0.36107978 1.5561936 -0.10970962
-0.37442881 1.5580891 -0.18535873
-0.38853624 1.5674552 -0.26530564
-0.29886141 -0.030828338 0.24265517
-0.34267437 0.15928827 -0.0054247039
-0.34294829 0.11738134 -0.0069462829
-0.3429198 0.076932356 -0.0067525147
-0.34306759 0.041006356 -0.0075564417
-0.34275749 0.0049730092 -0.0057637831
-0.34284425 -0.026053295 -0.0062195747
-0.34265029 -0.056524444 -0.0050834073
-0.34283817 -0.08308582 -0.0061108801
-0.34306875 -0.10795428 -0.0073798317
-0.34295377 -0.13304171 -0.0066894148
-0.34262988 -0.15763761 -0.0048138765
-0.34253997 -0.18005514 -0.0042644092
-0.34350282 -0.20813419 -0.009663186
-0.34259212 -0.22116877 -0.0044795847
-0.34328049 -0.24814826 -0.0083214846
-0.34266034 -0.25920102 -0.0047847419
-0.34311971 -0.28519613 -0.0073274719
-0.343171 -0.3025969 -0.0075769895
-0.34293982 -0.32010686 -0.0062245387
-0.3430911 -0.33649769 -0.0070407218
-0.3429682 -0.35301453 -0.0063019274
-0.34290832 -0.36911717 -0.0059205652
-0.34291732 -0.38488579 -0.0059296177
-0.34299988 -0.40040255 -0.0063558011
-0.3431178 -0.42346513 -0.0069615263
-0.34305242 -0.43115595 -0.0065696896
-0.34306315 -0.4540309 -0.0065675364
-0.34307051 -0.46924981 -0.0065673552
-0.34315902 -0.48451179 -0.0070275976
-0.34332755 -0.49990278 -0.0079416558
-0.34340143 -0.51538622 -0.008319024
-0.34337974 -0.53094274 -0.0081543885
-0.34316629 -0.55437148 -0.0068816287
-0.34340781 -0.57075006 -0.0082104178
-0.34337518 -0.58705872 -0.0079844045
-0.34340176 -0.60379195 -0.008094376
-0.34364331 -0.62136793 -0.0094240634
-0.34337664 -0.64724243 -0.0078512896
-0.34391642 -0.65769243 -0.010893348
-0.34374228 -0.68546331 -0.0098463874
-0.3441686 -0.70647532 -0.012226134
-0.34428212 -0.7274065 -0.012831871
-0.34378716 -0.75801969 -0.0099671911
-0.34363693 -0.78022748 -0.0090778889
-0.34399229 -0.80580306 -0.011057847
-0.34399456 -0.83125156 -0.011035361
-0.34442386 -0.86045104 -0.013436747
-0.34352744 -0.8993488 -0.0083002001
-0.34403136 -0.93410468 -0.01112804
-0.34397495 -0.96806073 -0.010777658
-0.51570779 -2.3592305 -0.9854334
-0.51689827 -2.5136492 -0.99222392
-0.51640916 -2.6698935 -0.98949027
-0.51860404 -2.8694577 -1.0020031
-0.51128554 -3.1034541 -0.96055722
-0.51231384 -3.3539946 -0.96648312
-0.51297957 -3.6389873 -0.9703725
-0.51403928 -3.9784853 -0.97652745
-0.51428217 -4.3698592 -0.97807926
-0.51675051 -4.8840919 -0.99232262
-0.47208685 -10.092351 -0.74171293
-0.41561869 -10.261236 -0.42150149
-0.26672667 -10.666648 0.42283469
-0.14119551 -10.800384 1.1348146
-0.048936151 -10.678885 1.6583095
0.014995837 -10.707885 2.0210428
0.055943191 -4.8496499 2.2571127
0.20829651 -6.3362703 3.1206028
0.22085637 -5.9804764 3.1921024
0.22280422 -5.5553679 3.2034376
0.24296694 -5.3542919 3.3179753
0.25210458 -4.8985901 3.3701296
0.24597368 -4.5325561 3.3355939
0.24035966 -4.2062106 3.3039665
0.2064414 -3.7157457 3.1118639
0.23747602 -3.6927795 3.2879653
0.24164549 -3.4993579 3.311759
0.23373471 -3.2506409 3.2670531
0.23830856 -2.9952884 3.2931869
0.23592369 -2.8108425 3.2797892
0.23749039 -2.6546037 3.2887909
0.23907335 -2.5058169 3.2978792
0.22681145 -2.3117313 3.2284546
0.23651469 -2.2070563 3.2835791
0.22914959 -2.0483756 3.2419107
0.22560437 -1.9098246 3.2218988
0.22696166 -1.7306141 3.2297273
0.2229044 -1.6037725 3.2068017
0.22168043 -1.4880002 3.1999402
0.22147804 -1.3775249 3.1988697
0.22137581 -1.269768 3.1983643
0.22343519 -1.1672859 3.2101157
0.2255315 -1.0657917 3.2220743
0.18185428 -0.91847301 2.9744253
0.2260462 -0.81100154 3.2251575
0.21937558 -0.70720828 3.187386
0.21552773 -0.6075694 3.165622
0.21211435 -0.50987875 3.1463196
0.20950028 -0.41359469 3.1315489
0.20734827 -0.31810191 3.1193969
0.20548786 -0.22297552 3.1088967
0.20426136 -0.12756486 3.1019902
0.20193362 0.015748963 3.0888593
0.20316224 0.11534445 3.0958736
0.20274059 0.21456049 3.0935259
0.20335597 0.31706369 3.0970583
0.20626935 0.42619339 3.1136229
0.19765678 0.51485395 3.0648122
0.20287952 0.63448501 3.0944715
0.19824401 0.79102534 3.0682309
0.19252945 0.89036745 3.0358508
0.19103645 1.0044473 3.0274127
0.19154185 1.129335 3.0303068
0.18875189 1.2474591 3.0145082
0.19034474 1.3875914 3.0235653
0.19258431 1.5382117 3.0362878
0.18109037 1.7097156 2.9711239
0.1485579 1.6996692 2.7866294
0.11584336 1.6744503 2.6011033
0.089755572 1.673375 2.4531612
0.062537678 1.6541066 2.2988107
0.039801516 1.652655 2.1698785
0.025409151 1.7030373 2.0882654
0.0021070081 1.6814568 1.9561247
-0.025025457 1.6954308 1.8022664
-0.04263046 1.7010026 1.7024355
-0.059496205 1.7074258 1.6067975
-0.21527226 0.22443968 0.72356135
-0.22187541 0.20037636 0.68614841
-0.22758478 0.18299633 0.65380406
-0.23291764 0.16606461 0.62359548
-0.23780248 0.15165241 0.59592766
-0.24230015 0.13995093 0.57045549
-0.24658184 0.12819074 0.54620862
-0.25059801 0.11841965 0.52346742
-0.2544204 0.1097528 0.50182533
-0.25807941 0.10226221 0.48110959
-0.26161835 0.095009267 0.46107507
-0.26671386 0.090284772 0.43222952
-0.27005672 0.087285511 0.41330627
-0.27339742 0.087615646 0.39439449
-0.31142002 1.5591946 0.17837693
-0.32391515 1.5591816 0.10753076
-0.33692554 1.57034 0.03375892
-0.34970897 1.5679852 -0.038721487
-0.36910069 1.5618294 -0.14866918
-0.38259277 1.5631738 -0.2251697
-0.3962225 1.5615335 -0.30244991
-0.34453514 0.14109395 -0.0085074855
-0.3444092 0.097864255 -0.0077388231
-0.3443028 0.058521137 -0.0070819943
-0.34439698 0.023650864 -0.0075639323
-0.34440571 -0.0091575962 -0.0075617293
-0.34423769 -0.040659022 -0.0065569347
-0.34429976 -0.068841979 -0.006858333
-0.3442485 -0.095875166 -0.00651681
-0.34437516 -0.12054451 -0.0071851271
-0.34429756 -0.14480439 -0.0066948221
-0.34430873 -0.16748479 -0.0067082345
-0.34428677 -0.18924144 -0.00653385
-0.34379488 -0.21161963 -0.0036936034
-0.34419951 -0.23016977 -0.0059394329
-0.34416017 -0.24944727 -0.0056667831
-0.34398103 -0.2684187 -0.0046009738
-0.34398767 -0.28630236 -0.0045891344
-0.34450558 -0.31120518 -0.0074525378
-0.34412858 -0.32039678 -0.0052891141
-0.34431532 -0.34488961 -0.0062736939
-0.34430864 -0.36106354 -0.0061859163
-0.34436941 -0.37689713 -0.0064804461
-0.34450257 -0.39247191 -0.0071853721
-0.34419492 -0.40823686 -0.005390062
-0.34458995 -0.43106174 -0.0075545339
-0.34439084 -0.44639859 -0.0063741226
-0.34461963 -0.4616144 -0.0076205265
-0.34440899 -0.47683024 -0.0063741766
-0.34445307 -0.49209729 -0.0065722526
-0.34457684 -0.50750136 -0.0072218683
-0.34477773 -0.5231275 -0.0083085038
-0.34488103 -0.53888607 -0.0088412818
-0.34488538 -0.5547567 -0.0088124396
-0.34478757 -0.57885683 -0.0081765838
-0.34470463 -0.59522533 -0.0076515516
-0.34500784 -0.61267471 -0.0093152821
-0.34502855 -0.63004363 -0.0093765417
-0.34483615 -0.6564371 -0.008200217
-0.34502411 -0.67553496 -0.009207923
-0.34507158 -0.69493687 -0.0094181607
-0.34542647 -0.7161091 -0.011370068
-0.34561551 -0.73769671 -0.012380627
-0.3457782 -0.76021737 -0.013240347
-0.34533331 -0.793208 -0.010622893
-0.34531304 -0.81780291 -0.010442143
-0.34574121 -0.84605777 -0.012800994
-0.34591696 -0.87489784 -0.013727234
-0.34521031 -0.91622913 -0.0096144387
-0.34567598 -0.95208156 -0.012177008
-0.51768929 -2.4307265 -0.9861908
-0.51904291 -2.5938628 -0.99365026
-0.51916748 -2.7640281 -0.99412912
-0.5203889 -2.9652562 -1.0007951
-0.52207196 -3.1978304 -1.0100442
-0.51520276 -3.4958942 -0.97068435
-0.51661354 -3.813133 -0.97829241
-0.5178256 -4.1846929 -0.98471171
-0.51537806 -4.5698519 -0.9703545
-0.44735265 -10.129329 -0.57792264
-0.39056996 -10.311539 -0.25554982
-0.33296627 -10.67038 0.071679808
-0.24003263 -10.714057 0.59900022
-0.1161127 -10.66666 1.3020208
-0.081602454 -10.849428 1.4979784
0.043478698 -10.738143 2.2072375
0.041303407 -4.8991823 2.1883461
0.20936804 -6.1250238 3.1429145
0.22323799 -5.8062096 3.2212379
0.22839308 -5.4344487 3.2500796
0.21727508 -4.9529934 3.1865122
0.24481812 -4.6959376 3.3424666
0.23992005 -4.3582845 3.3143392
0.24043123 -4.0910153 3.3169687
0.21309265 -3.6609526 3.1614773
0.24450207 -3.6380184 3.3396111
0.23646991 -3.3771505 3.2938008
0.23921777 -3.1008046 3.3091264
0.23551255 -2.9030619 3.2879276
0.23456489 -2.7304688 3.2823961
0.23735259 -2.5830765 3.2980773
0.20833996 -2.3182733 3.1332848
0.24168091 -2.3016446 3.3223841
0.23059158 -2.124764 3.2593362
0.22643438 -1.9805052 3.2356381
0.22715032 -1.7955513 3.2395513
0.22376001 -1.6675653 3.2202218
0.22121897 -1.5465502 3.2057171
0.22143403 -1.4352214 3.2068539
0.21891254 -1.3216391 3.1924694
0.22048467 -1.2177869 3.2013118
0.20617294 -1.0941111 3.1200528
0.18007341 -0.96493 2.9719369
0.20035052 -0.89024973 3.0868926
0.22053993 -0.75833321 3.2013109
0.2158148 -0.65717429 3.1744463
0.19762583 -0.55569625 3.0712254
0.20851384 -0.46178779 3.132916
0.20667182 -0.36605984 3.1224098
0.20546609 -0.27058825 3.1155133
0.2035107 -0.17559309 3.1043665
0.20079212 -0.033007126 3.0888638
0.2001339 0.063692197 3.0850735
0.20208925 0.16491511 3.0961015
0.20204091 0.26548097 3.0957675
0.20333643 0.37028673 3.1030512
0.20819922 0.48494503 3.1305571
0.17298841 0.51583332 2.9308786
0.19636343 0.73196483 3.0632946
0.19291462 0.83620924 3.0436761
0.19075879 0.94660592 3.0313852
0.18812163 1.0586903 3.0163636
0.18688914 1.1793489 3.0093009
0.18805493 1.3141832 3.0158267
0.19136198 1.4649432 3.0344818
0.18687408 1.6646558 3.0089071
0.15863284 1.67957 2.8487756
0.13078335 1.6858174 2.6908741
0.10093749 1.6694367 2.5216722
0.077605367 1.6796302 2.3893862
0.029747846 1.5186061 2.1181707
0.037152182 1.7165833 2.1600239
0.013930381 1.7017571 2.0283873
-0.0081291012 1.6852605 1.9033439
-0.033988543 1.7058852 1.7567389
-0.051442847 1.7102737 1.6577936
-0.069067739 1.7059265 1.5578889
-0.21296139 0.23622026 0.74323106
-0.21988255 0.21125574 0.70404279
-0.22586782 0.19280955 0.67015618
-0.23145364 0.17470646 0.63853455
-0.23651049 0.15997314 0.60990965
-0.24125093 0.14594491 0.5830785
-0.245584 0.13566868 0.55855423
-0.24972415 0.1253951 0.535124
-0.25368279 0.11519418 0.51272309
-0.25738665 0.10910031 0.49176338
-0.26269844 0.10400809 0.46170413
-0.26449111 0.096624233 0.45156401
-0.26958239 0.094393261 0.42275286
-0.27295905 0.094056547 0.40364373
-0.30632237 1.5632616 0.21327658
-0.31862837 1.5565889 0.14353861
-0.33143872 1.5651649 0.070927791
-0.34437671 1.570051 -0.0024036095
-0.35728163 1.5683053 -0.075541936
-0.37653664 1.556262 -0.18466085
-0.39023393 1.5590413 -0.26229635
-0.30249915 -0.056465812 0.23670271
-0.3826535 0.71308035 -0.21839888
-0.34529477 0.16017984 -0.0059680347
-0.34579036 0.1198508 -0.0087059317
-0.34567466 0.078560911 -0.0079770032
-0.34561071 0.04108144 -0.0075445506
-0.34578046 0.0079744337 -0.0084412405
-0.34552202 -0.025269575 -0.0069097178
-0.34546447 -0.05508307 -0.0065203398
-0.34566483 -0.081695385 -0.0075962301
-0.34563744 -0.10787516 -0.0073811291
-0.34552649 -0.13296188 -0.0066931029
-0.34549078 -0.15640986 -0.0064332839
-0.34541103 -0.17888454 -0.0059244744
-0.34545082 -0.19991243 -0.0060949419
-0.34532973 -0.22060107 -0.0053534708
-0.34536129 -0.24000368 -0.0054787449
-0.34540862 -0.25869387 -0.0056939409
-0.34532285 -0.27712521 -0.0051548146
-0.34526926 -0.29490885 -0.0047988491
-0.34553841 -0.32001939 -0.0062483111
-0.34569165 -0.3364093 -0.0070664817
-0.34557071 -0.35292545 -0.0063297241
-0.34568253 -0.36881927 -0.006913675
-0.34569448 -0.38462135 -0.0069312896
-0.34560776 -0.40031099 -0.0063896789
-0.34576917 -0.41565865 -0.0072553987
-0.34557563 -0.43872774 -0.0060837287
-0.34563777 -0.4463298 -0.0064115776
-0.3458595 -0.46917191 -0.0075953235
-0.34577605 -0.48441571 -0.007073075
-0.34594625 -0.49980575 -0.0079893544
-0.34584945 -0.51516658 -0.0073914775
-0.34600183 -0.53084397 -0.0082066571
-0.34579095 -0.55427176 -0.0069374307
-0.34603438 -0.57064933 -0.0082687
-0.34600359 -0.58695716 -0.0080451965
-0.34619731 -0.60399842 -0.0090943919
-0.34643906 -0.62160647 -0.010415629
-0.34655875 -0.63947868 -0.011044716
-0.3465535 -0.65758723 -0.01096517
-0.34622809 -0.68490314 -0.0090451725
-0.3466602 -0.70588315 -0.011444355
-0.34692857 -0.72729808 -0.012914831
-0.3471742 -0.74965191 -0.014255872
-0.34615004 -0.77952993 -0.0083727436
-0.34637609 -0.80446094 -0.0096013406
-0.34652299 -0.83049715 -0.010380782
-0.34683189 -0.85899997 -0.012077458
-0.34738529 -0.89083433 -0.015158672
-0.34623548 -0.93106502 -0.0085578226
-0.34688705 -0.96945447 -0.01219231
-0.52411038 -2.331327 -1.0163221
-0.51935017 -2.508441 -0.98917097
-0.51892477 -2.664567 -0.98663276
-0.52029866 -2.8554451 -0.99427801
-0.52132976 -3.0668669 -0.99996853
-0.52292597 -3.3134842 -1.0088443
-0.51570797 -3.6313796 -0.96768099
-0.51643109 -3.9642758 -0.97155917
-0.51642865 -4.3488827 -0.97129512
-0.51913744 -4.8628597 -0.98633391
-0.47719377 -10.109945 -0.74541521
-0.36356294 -10.574634 -0.10076304
-0.30249587 -10.675015 0.24559855
-0.14696699 -10.720673 1.127612
-0.052611966 -10.728712 1.6625981
0.0092229499 -10.668645 2.0131805
0.051751871 -4.837986 2.2513554
0.22376841 -6.0531301 3.2273746
0.22162165 -5.5785856 3.2149844
0.24412242 -5.3976483 3.3424993
0.23631169 -4.9590216 3.298018
0.23161836 -4.5938668 3.2712519
0.23975745 -4.2248192 3.3172631
0.22065037 -3.8341763 3.2087634
0.23173836 -3.6754148 3.2715886
0.24247569 -3.522136 3.3324296
0.23474619 -3.2726433 3.2885165
0.23109801 -3.0636301 3.2677665
0.22914635 -2.8769994 3.2566481
0.22966799 -2.712903 3.2595661
0.23792963 -2.5125852 3.3063753
0.21918516 -2.2936518 3.2000289
0.23594512 -2.2147181 3.2950659
0.22788951 -2.0531797 3.2493565
0.22361965 -1.9120744 3.2251239
0.22015108 -1.7797477 3.2054398
0.21873136 -1.6580487 3.1973794
0.22110341 -1.4925265 3.2108245
0.219125 -1.3782516 3.1996026
0.21954119 -1.2712859 3.2019634
0.22094786 -1.1677001 3.2099433
0.22322832 -1.0664132 3.2228804
0.18093011 -0.92040813 2.9830191
0.22333045 -0.86171514 3.2234745
0.21664447 -0.75687742 3.1855702
0.21224013 -0.60769945 3.1606138
0.2074459 -0.51003683 3.1334426
0.2062297 -0.41406319 3.1265628
0.20478059 -0.31853157 3.1183639
0.20310119 -0.22334881 3.1088605
0.20188181 -0.12793455 3.1019673
0.20042522 -0.03240633 3.0937304
0.20145372 0.066375792 3.0995862
0.19987673 0.21347561 3.0906827
0.20100288 0.31670624 3.0970957
0.20342611 0.42490938 3.1108646
0.20673518 0.53843892 3.1296577
0.20069924 0.63450998 3.0954635
0.087451458 0.45612851 2.4533534
0.1898815 0.88912499 3.0342083
0.18687612 0.9982999 3.0172033
0.18667468 1.1202523 3.0160985
0.18408442 1.238422 3.0014503
0.18615873 1.3798131 3.0132527
0.19010924 1.5372876 3.0356953
0.18593888 1.6670538 3.0120926
0.15347953 1.6610953 2.8280859
0.11459858 1.680445 2.6076915
0.088701949 1.6810516 2.4608991
0.066304743 1.6932756 2.33395
0.03661605 1.6470981 2.1656561
0.02427977 1.7123091 2.0957575
0.00070403673 1.6893811 1.9621269
-0.019404929 1.6837692 1.8481544
-0.038002148 1.6829472 1.7427545
-0.061786812 1.7090573 1.6079679
-0.21754734 0.22717045 0.72480136
-0.2242351 0.20222545 0.68692172
-0.22989897 0.18581384 0.65484822
-0.23530512 0.16796868 0.62423575
-0.24015598 0.15454119 0.59677219
-0.24467343 0.14286973 0.57119918
-0.24897492 0.13113572 0.54685062
-0.25298083 0.12237183 0.52417827
-0.25682914 0.11372895 0.5023995
-0.26047787 0.10824656 0.48175266
-0.26409128 0.098021179 0.46130553
-0.26750121 0.098048702 0.44201353
-0.27090314 0.097391844 0.42276669
-0.31408262 1.5612268 0.17833045
-0.32648987 1.5572597 0.10803179
-0.33956435 1.5704006 0.033953082
-0.35227841 1.5661037 -0.038085002
-0.36551794 1.5697889 -0.11310101
-0.37839195 1.5610385 -0.18604672
-0.39890137 1.5616233 -0.30225766
-0.3868787 0.6937331 -0.23403585
-0.34555361 0.15115695 0.00025620856
-0.34536114 0.10626061 0.0013788758
-0.34515712 0.065335162 0.0025675467
-0.34741458 0.026676999 -0.010179324
-0.34671426 -0.010543912 -0.006176874
-0.34703469 -0.039217882 -0.0079600578
-0.34710252 -0.067452617 -0.0083111627
-0.34692353 -0.095182091 -0.007263124
-0.34705159 -0.11987924 -0.0079555064
-0.34697512 -0.14416775 -0.0074882894
-0.34684327 -0.16743676 -0.0067071728
-0.34681883 -0.18919416 -0.0065348428
-0.34692591 -0.20957302 -0.0071079792
-0.34687996 -0.22965448 -0.0068136905
-0.34668475 -0.24940228 -0.0056733037
-0.34650299 -0.2683745 -0.0046091932
-0.34666818 -0.28588423 -0.0055119689
-0.34671405 -0.3032198 -0.0057384376
-0.34706265 -0.32796165 -0.0076644253
-0.3469936 -0.34458977 -0.0072396039
-0.34698567 -0.3607983 -0.0071615162
-0.34687445 -0.37685761 -0.0064977491
-0.3470048 -0.39243311 -0.0072038998
-0.34686655 -0.40807697 -0.0063872794
-0.34680468 -0.42349097 -0.0060037398
-0.34682196 -0.43875995 -0.0060693133
-0.3469201 -0.45396954 -0.0065935114
-0.34689423 -0.47679555 -0.0063990722
-0.34710822 -0.49213302 -0.0075806454
-0.34705523 -0.5074681 -0.0072489539
-0.34725252 -0.52309495 -0.0083366819
-0.34735209 -0.53885424 -0.0088705542
-0.34735253 -0.55472559 -0.0088428045
-0.34708086 -0.5785681 -0.0072573097
-0.34716141 -0.59519613 -0.007684655
-0.34729588 -0.61232066 -0.0084183635
-0.34747607 -0.63001585 -0.0094119562
-0.34785262 -0.64874339 -0.011519757
-0.34730285 -0.6750707 -0.0083611403
-0.34750086 -0.69491166 -0.0094578154
-0.34754896 -0.71508467 -0.0097053023
-0.34788519 -0.73714298 -0.011587841
-0.34804451 -0.75963509 -0.012467771
-0.34731734 -0.79138076 -0.0083092423
-0.34743559 -0.81652325 -0.0089589832
-0.34760094 -0.84341323 -0.009877244
-0.34791088 -0.87283218 -0.011617627
-0.34745097 -0.91549128 -0.0089841941
-0.34756142 -0.94909132 -0.0095972242
-0.34768826 -0.98556304 -0.010305772
-0.51854426 -2.4217825 -0.97998732
-0.51912427 -2.578068 -0.98336184
-0.51855457 -2.7410896 -0.98022515
-0.52019829 -2.945298 -0.98967057
-0.52306813 -3.1898451 -1.0061011
-0.52454609 -3.4536233 -1.0146579
-0.51657677 -3.7919283 -0.96970212
-0.51760906 -4.160388 -0.97582167
-0.44717437 -10.155174 -0.58130348
-0.38948172 -10.2836 -0.25433758
-0.3319883 -10.660383 0.071288235
-0.27013525 -10.550615 0.42203665
-0.11303691 -10.796177 1.312443
-0.082300499 -10.748994 1.4868479
0.048980094 -10.880957 2.2313066
0.21314391 -6.1753654 3.166718
0.22802266 -5.8644915 3.2514031
0.22766018 -5.434453 3.2497611
0.23637165 -5.1370268 3.299459
0.23968084 -4.8216472 3.3185363
0.23010792 -4.4340096 3.2646241
0.23138043 -4.1653872 3.2721097
0.21163538 -3.6601913 3.1606331
0.24611713 -3.6562939 3.3562059
0.23994823 -3.4054251 3.321475
0.23330699 -3.1713176 3.2840509
0.23064576 -2.9744437 3.2691629
0.22812723 -2.7908518 3.2550719
0.22998445 -2.6372991 3.2657671
0.20768654 -2.3935378 3.1395674
0.23531695 -2.2851915 3.2963834
0.23325042 -2.139739 3.2848189
0.22560538 -1.9837642 3.2416306
0.22295302 -1.8504965 3.2267325
0.2199403 -1.7218063 3.2097864
0.21662845 -1.5975428 3.1911397
0.21699359 -1.485744 3.193331
0.21746424 -1.3227707 3.1961753
0.2188437 -1.2185235 3.204109
0.22091396 -1.1165698 3.2159567
0.20546733 -0.99580789 3.1284971
0.1807742 -0.87440151 2.9886112
0.21953447 -0.80906498 3.2084563
0.21319078 -0.70603341 3.1725934
0.19909513 -0.60382456 3.092777
0.20614408 -0.46173444 3.1328874
0.20427476 -0.36600477 3.1223841
0.2020027 -0.27094972 3.1095958
0.20071499 -0.17574359 3.102387
0.19953838 -0.080259852 3.0958068
0.19777922 0.015104922 3.0859225
0.20002431 0.11584499 3.0987425
0.19813183 0.26347753 3.0881445
0.19908226 0.36743233 3.0936222
0.20295097 0.47980815 3.1156483
0.16889207 0.51267624 2.922595
0.19675376 0.68389004 3.0806799
0.19108462 0.78161067 3.0486174
0.18944231 0.89206779 3.0393903
0.18325242 1.0517695 3.0044162
0.18321368 1.1762497 3.0042832
0.18393679 1.309233 3.0084715
0.18316774 1.4426934 3.0041978
0.19008137 1.6173559 3.0434983
0.17066815 1.6774694 2.9334831
0.13754857 1.6621014 2.7457256
0.10010861 1.6815312 2.5335004
0.076341517 1.6899393 2.3987784
0.027992779 1.5262146 2.1246207
0.033780124 1.7135396 2.1575313
0.010786665 1.7002202 2.0271873
-0.010365882 1.6910511 1.9072828
-0.029917896 1.6861601 1.7964544
-0.048547108 1.6812481 1.6908582
-0.064794689 1.6925224 1.5987706
-0.21320565 0.23404059 0.75689501
-0.22007838 0.21165885 0.71796012
-0.2263446 0.19111504 0.68246472
-0.23376469 0.1803868 0.64045006
-0.23890489 0.16476072 0.61134094
-0.2436277 0.15174535 0.58459938
-0.248073 0.13957004 0.55943167
-0.2522026 0.13030608 0.53605479
-0.25616279 0.12112214 0.51363856
-0.25992343 0.11406393 0.49235439
-0.26357868 0.1062192 0.47166759
-0.2670784 0.10261492 0.45186391
-0.27051482 0.1013045 0.43241966
-0.30318084 1.5716327 0.24764045
-0.32165328 1.5605321 0.14294854
-0.33430862 1.5631731 0.071226135
-0.34709165 1.5641558 -0.0012204837
-0.36004546 1.5643932 -0.074635513
-0.373236 1.5647591 -0.14939265
-0.38685876 1.5679779 -0.22659992
-0.30673835 -0.036540356 0.22753838
-0.38829091 0.74277574 -0.23466168
-0.3928428 0.69303018 -0.26044014
-0.34723163 0.17760105 -0.0018405301
-0.34718761 0.13142261 -0.0015563634
-0.34710759 0.089232758 -0.0010671199
-0.34728169 0.052429188 -0.0020176556
-0.34722081 0.016998714 -0.0016352094
-0.34730822 -0.01487639 -0.0020927063
-0.34860936 -0.052386846 -0.0094113518
-0.34869105 -0.079759404 -0.0098351464
-0.34853667 -0.10664899 -0.0089201415
-0.34856844 -0.13118914 -0.0090599852
-0.34854031 -0.15472208 -0.0088598924
-0.34832212 -0.17782852 -0.0075819688
-0.34806797 -0.19994611 -0.0060997596
-0.34840012 -0.21918042 -0.0079413103
-0.34812847 -0.23958386 -0.0063592461
-0.34817639 -0.25830573 -0.0065886592
-0.3480911 -0.27676922 -0.0060625658
-0.34803796 -0.2945855 -0.0057186168
-0.3480266 -0.31182349 -0.0056113307
-0.34846133 -0.33616957 -0.0080112442
-0.34850901 -0.3524777 -0.0082379738
-0.34828249 -0.3688558 -0.0069098915
-0.34829316 -0.38465819 -0.0069265291
-0.34820527 -0.40034807 -0.006383921
-0.34819284 -0.41580069 -0.0062691914
-0.34825903 -0.43110046 -0.0065998738
-0.34823218 -0.44636777 -0.0064026904
-0.34827891 -0.46919301 -0.0066001108
-0.34824839 -0.47679991 -0.0064043724
-0.34836468 -0.49975777 -0.0069953962
-0.34826773 -0.51508415 -0.0063999472
-0.34842026 -0.53072739 -0.0072186291
-0.34864527 -0.54668397 -0.0084479982
-0.34859917 -0.56258613 -0.0081400517
-0.34895572 -0.57934552 -0.010114559
-0.34861925 -0.60373062 -0.008136142
-0.34869915 -0.62096405 -0.0085415458
-0.34898368 -0.63914603 -0.010106734
-0.34898025 -0.65722275 -0.010038927
-0.34931776 -0.67682242 -0.01190364
-0.34878841 -0.70447183 -0.0088290982
-0.34876749 -0.72476655 -0.0086607179
-0.34902856 -0.7469728 -0.010090631
-0.34953782 -0.77131295 -0.0129268
-0.34868374 -0.80327392 -0.0080081383
-0.34883764 -0.82925618 -0.0088282069
-0.34915376 -0.85770679 -0.010567022
-0.34958956 -0.88879609 -0.012983412
-0.34997955 -0.92195845 -0.01513905
-0.34878027 -0.9649725 -0.0082573025
-0.52513164 -2.3204446 -1.0076452
-0.51897097 -2.4848344 -0.97258198
-0.51934737 -2.6462655 -0.97460848
-0.52091581 -2.8375959 -0.98338205
-0.52171129 -3.0451541 -0.98776531
-0.5242992 -3.3011644 -1.0022922
-0.52435869 -3.5647242 -1.0024775
-0.52531278 -3.8830423 -1.0077128
-0.51583183 -4.3011127 -0.95371044
-0.42257205 -10.261124 -0.42202052
-0.3656753 -10.565708 -0.099199139
-0.30478173 -10.704034 0.24621744
-0.18046254 -10.711566 0.95129526
-0.085437007 -10.778831 1.4901787
0.011429311 -10.829456 2.0394151
0.072719313 -10.724623 2.386873
0.10953441 -8.6943064 2.5947556
0.037698012 -4.8936372 2.1859269
0.2237615 -6.0795503 3.2413797
0.22975208 -5.6876078 3.2752011
0.24119478 -5.3921843 3.3399751
0.22983994 -4.9226432 3.2754264
0.23895681 -4.6738367 3.3270352
0.23628877 -4.355104 3.3118017
0.23238041 -4.0568314 3.2895451
0.21999836 -3.6156561 3.2192028
0.24376544 -3.544127 3.3539467
0.23416314 -3.2827604 3.2994266
0.23057146 -3.0733683 3.2790055
0.2294731 -2.8902023 3.2727315
0.22884008 -2.7199965 3.2691016
0.23169087 -2.5736628 3.285233
0.20733453 -2.3277695 3.1470754
0.23689158 -2.2262712 3.3146501
0.22814275 -2.0616195 3.2650123
0.2239219 -1.9199636 3.2410553
0.22002724 -1.7858076 3.218951
0.21800409 -1.6620697 3.2074618
0.21703893 -1.5450892 3.2019737
0.21460649 -1.4286792 3.1881678
0.21502431 -1.3210219 3.1905248
0.21641497 -1.2169753 3.1983991
0.21530741 -1.0594866 3.1921048
0.17809603 -0.91981369 2.9811156
0.22205213 -0.86242086 3.2303295
0.21537133 -0.75734568 3.1924443
0.21080272 -0.65656734 3.1665361
0.20682986 -0.55823314 3.1440067
0.20417088 -0.46173489 3.1289275
0.20265131 -0.31817633 3.1203065
0.20080015 -0.22301336 3.1098082
0.19803084 -0.12866287 3.0941052
0.19744141 -0.032631487 3.0907605
0.19864701 0.066237368 3.0975919
0.19803734 0.16453314 3.0941322
0.19949211 0.26736268 3.1023753
0.19998279 0.42329463 3.1051505
0.20379864 0.53765219 3.1267762
0.19390646 0.62463152 3.0706964
0.19290903 0.7328586 3.065037
0.19069286 0.84067464 3.0524685
0.18665697 0.94575107 3.0295849
0.18201829 1.1127486 3.0032799
0.1800649 1.2326502 2.9921985
0.18133029 1.3702813 2.9993596
0.18410142 1.5218602 3.0150533
0.18516621 1.6748207 3.0210731
0.15147638 1.663262 2.8301141
0.12232187 1.6613553 2.6648643
0.094341256 1.6539652 2.5062716
0.065531336 1.7038331 2.3429766
0.026390869 1.5936162 2.12115
0.024445375 1.7313536 2.1101112
-0.00037253968 1.7000192 1.9694575
-0.020838551 1.6921709 1.8534687
-0.039855432 1.6881379 1.7456942
-0.05720555 1.6921452 1.6473665
-0.21774432 0.22445348 0.73778355
-0.22411652 0.205746 0.70169801
-0.23019163 0.18535258 0.6672973
-0.23550428 0.1709345 0.63721728
-0.24241781 0.15935916 0.59807771
-0.24511825 0.14498614 0.58278984
-0.25125909 0.13701235 0.54802978
-0.25533056 0.12730193 0.52498484
-0.25918418 0.11967508 0.50317425
-0.26290488 0.11222765 0.48211738
-0.26649344 0.10600319 0.46180919
-0.26995695 0.10504452 0.44220829
-0.27340025 0.10739067 0.42272115
-0.29794133 1.5644486 0.28324217
-0.31028843 1.5622507 0.2132819
-0.32902762 1.562176 0.10710198
-0.34183252 1.566447 0.034544885
-0.3546004 1.5641233 -0.037800379
-0.36742306 1.5591271 -0.11045527
-0.38079089 1.5609977 -0.18620273
-0.39514229 1.5741177 -0.26752913
-0.42305648 1.5681345 -0.42570165
-0.38149133 0.75909126 -0.1897721
-0.38871935 0.68762928 -0.23067577
-0.34863043 0.15604545 -0.003179573
-0.34846941 0.11102629 -0.0022203927
-0.34884226 0.073858112 -0.0042898646
-0.34863159 0.035757937 -0.0030511911
-0.34876543 0.0028137928 -0.0037671106
-0.34859473 -0.029553751 -0.0027568801
-0.34876186 -0.057853065 -0.0036628197
-0.34868017 -0.085674442 -0.0031585698
-0.34889567 -0.11043559 -0.0043398412
-0.34890491 -0.13481098 -0.0043519312
-0.34871286 -0.15874839 -0.0032231731
-0.34975314 -0.18762849 -0.0090623936
-0.34956941 -0.20909695 -0.0079815583
-0.34968042 -0.22873919 -0.0085721174
-0.34933525 -0.24898729 -0.0065765544
-0.34899798 -0.26839763 -0.0046261009
-0.34916374 -0.28590715 -0.0055277604
-0.3492102 -0.30324247 -0.0057531418
-0.34930488 -0.32006815 -0.0062520667
-0.34928858 -0.33673435 -0.0061221141
-0.34916341 -0.35321724 -0.0053749727
-0.34927139 -0.36907768 -0.0059496579
-0.34910858 -0.38501972 -0.0049893935
-0.34936649 -0.40809813 -0.0063957311
-0.34947827 -0.42342469 -0.0069923769
-0.34967014 -0.43867588 -0.008042939
-0.34942201 -0.45398995 -0.0065994002
-0.34942856 -0.46920863 -0.0065997243
-0.34943873 -0.49208319 -0.0066020829
-0.34968418 -0.499861 -0.007975026
-0.34958607 -0.52297521 -0.0073636761
-0.34968752 -0.53869981 -0.0079021156
-0.34952021 -0.5543288 -0.0069168299
-0.34976119 -0.57070708 -0.0082461433
-0.34989488 -0.58729106 -0.0089673009
-0.34964311 -0.61201322 -0.0074849254
-0.34982678 -0.62967545 -0.0084893899
-0.35020724 -0.64837039 -0.010609088
-0.35029447 -0.66699356 -0.01106667
-0.35055709 -0.68678045 -0.012518253
-0.35006934 -0.71510148 -0.0096980026
-0.34996578 -0.73556995 -0.0090739839
-0.35042539 -0.75909239 -0.011641876
-0.35040882 -0.78194487 -0.011510604
-0.35075396 -0.80760378 -0.013429208
-0.35114464 -0.83506167 -0.015605885
-0.3500672 -0.87080151 -0.0094420994
-0.35012636 -0.90071595 -0.0097391289
-0.35109752 -0.93844527 -0.015205072
-0.35112971 -0.97329587 -0.01534853
-0.52462256 -2.3767052 -0.99854147
-0.52582306 -2.5323937 -1.005289
-0.52722365 -2.7066987 -1.013168
-0.52194083 -2.9340813 -0.98313701
-0.52132863 -3.1395593 -0.97960258
-0.52224231 -3.3916481 -0.98471099
-0.52398467 -3.6937032 -0.9945097
-0.52690029 -4.0646157 -1.0109496
-0.51372373 -4.4686894 -0.93614829
-0.51322621 -4.9648213 -0.93322307
-0.4507471 -10.12934 -0.57814157
-0.39343813 -10.274638 -0.2532329
-0.33635283 -10.699368 0.070446685
-0.14817671 -10.840288 1.1372334
-0.054403037 -10.768244 1.6687677
0.013266487 -10.911397 2.0524259
0.048147041 -4.8322163 2.2496071
0.20082822 -6.325491 3.1153593
0.22984022 -5.9183002 3.2798214
0.21406992 -5.3296103 3.1903791
0.24935657 -5.2845359 3.3904414
0.23281097 -4.4784546 3.2966084
0.23300579 -4.1984324 3.2977097
0.19963787 -3.7120075 3.108521
0.22986044 -3.6839612 3.2798779
0.23991558 -3.4209287 3.336894
0.23226103 -3.1801317 3.2935028
0.23125781 -2.9907937 3.2878237
0.22859661 -2.805275 3.2727458
0.22973338 -2.6474786 3.2792017
0.22830422 -2.4869845 3.2711115
0.22206408 -2.3167262 3.2357469
0.22913414 -2.2025156 3.2758436
0.22678269 -1.9949809 3.2625344
0.22265586 -1.8565834 3.2391536
0.21858805 -1.7246032 3.2161083
0.21643907 -1.6027375 3.2039418
0.21538317 -1.4874042 3.1979728
0.21535313 -1.3773034 3.1978195
0.21442477 -1.268201 3.192574
0.21922155 -1.1174195 3.2197936
0.21828952 -1.0127435 3.2145276
0.17706087 -0.87310392 2.9808199
0.21841691 -0.80986828 3.2152853
0.21243738 -0.70676881 3.1814053
0.20512347 -0.60629022 3.1399612
0.20327367 -0.50966251 3.129493
0.20309715 -0.41372678 3.1285102
0.20026982 -0.27069265 3.112509
0.19882007 -0.17548689 3.1043084
0.19765422 -0.079933994 3.0977166
0.1957339 0.015325833 3.086848
0.19714101 0.11506091 3.0948412
0.19723158 0.21496923 3.095371
0.1986843 0.31891829 3.1036217
0.20126145 0.42766365 3.1182458
0.1759766 0.53314579 2.9749393
0.19397639 0.68237412 3.0769861
0.1889569 0.78165692 3.0485466
0.1868618 0.89075184 3.0366833
0.18597665 1.0068024 3.031678
0.18349232 1.1215414 3.0176067
0.18366642 1.2501146 3.0186036
0.1799819 1.4380364 2.9977317
0.18488869 1.6032422 3.0255511
0.17395103 1.7032237 2.9635601
0.13898739 1.6802076 2.7653883
0.1088744 1.6681478 2.5947125
0.081845373 1.6611011 2.4415183
0.046665415 1.5901577 2.2421281
0.035479192 1.6633439 2.1787319
0.012279022 1.7274002 2.0472457
-0.01133665 1.7000862 1.9134047
-0.031136567 1.6937305 1.8011912
-0.048920203 1.6975546 1.7004061
-0.065521747 1.7065351 1.6063211
-0.21519265 0.23674038 0.75815338
-0.22187114 0.21714279 0.72032779
-0.22817191 0.19668011 0.68464357
-0.23380136 0.18019067 0.65276444
-0.23895779 0.16607879 0.62356627
-0.24374846 0.15358977 0.59644145
-0.24825926 0.14190704 0.57090288
-0.25428778 0.1342319 0.53677523
-0.25646242 0.12434521 0.52446461
-0.26203445 0.11902503 0.49292427
-0.26568899 0.11319063 0.47223875
-0.26924843 0.10760574 0.45209226
-0.2727049 0.10930054 0.43252814
-0.29286462 1.5676063 0.31801888
-0.30510062 1.5586762 0.24868396
-0.31758904 1.5631897 0.17791508
-0.32997942 1.5582205 0.10770392
-0.34924918 1.565123 -0.0014944999
-0.36204234 1.5614703 -0.073989496
-0.37516883 1.5609007 -0.14837493
-0.38887689 1.5660609 -0.22605865
-0.40270913 1.5672073 -0.30444565
-0.41656277 1.5633831 -0.38295305
-0.37774435 0.75717151 -0.16266419
-0.38662523 0.75246149 -0.2129797
-0.39045051 0.69455326 -0.2346236
-0.34981161 0.18090636 -0.004070275
-0.34989029 0.13545686 -0.0044762022
-0.34994188 0.093950011 -0.0047292244
-0.34992117 0.055482544 -0.0045729461
-0.34987855 0.019960454 -0.0042932038
-0.34986281 -0.012729285 -0.0041662431
-0.34954599 -0.044802252 -0.0023324837
-0.34983912 -0.071494006 -0.0039576725
-0.3499026 -0.097779274 -0.0042811297
-0.3498787 -0.12298316 -0.0041092453
-0.35006514 -0.14595617 -0.0051303427
-0.34977898 -0.16969812 -0.0034721189
-0.34988871 -0.19080798 -0.004058612
-0.35073748 -0.21870682 -0.0088178497
-0.35062218 -0.23868704 -0.0081288135
-0.35051662 -0.25789431 -0.0074953078
-0.3504324 -0.27638969 -0.0069827507
-0.35038009 -0.29423833 -0.0066511701
-0.3503693 -0.31150916 -0.0065551433
-0.3504087 -0.32827449 -0.0067436812
-0.35033807 -0.34486854 -0.0063084899
-0.35032877 -0.36104271 -0.0062211934
-0.35021642 -0.37706739 -0.0055494788
-0.35051745 -0.39245158 -0.0072215698
-0.35036039 -0.41581208 -0.0062791849
-0.35042477 -0.43111187 -0.0066094911
-0.35039604 -0.44637918 -0.0064119394
-0.35044837 -0.46159527 -0.0066739796
-0.35040843 -0.47681138 -0.0064129056
-0.35062286 -0.4921484 -0.0075938287
-0.35074311 -0.50758749 -0.0082409056
-0.3505733 -0.53073889 -0.007225954
-0.35062572 -0.54650474 -0.0074882591
-0.35057876 -0.56237274 -0.0071871332
-0.35093465 -0.57909834 -0.0091696018
-0.35084665 -0.59550071 -0.008635642
-0.35114458 -0.61298352 -0.010289248
-0.35063943 -0.63803399 -0.0073725316
-0.3509582 -0.65682775 -0.0091440305
-0.35113981 -0.6759575 -0.010137772
-0.3514874 -0.69632965 -0.012072092
-0.35152847 -0.7165938 -0.012268872
-0.35115442 -0.74698454 -0.010093844
-0.35109189 -0.76903063 -0.0097027449
-0.35154679 -0.79439718 -0.012244238
-0.35164922 -0.8196767 -0.012787299
-0.35075131 -0.85504222 -0.0076409802
-0.35082591 -0.88394558 -0.008025418
-0.35184655 -0.92053181 -0.01377131
-0.35169792 -0.95281172 -0.012889236
-0.52582186 -2.4493115 -0.99959314
-0.52606535 -2.6046188 -1.0009029
-0.52803171 -2.7928402 -1.0119721
-0.52006865 -3.0067008 -0.96672493
-0.52209383 -3.2530801 -0.97811264
-0.5231722 -3.5248768 -0.98412544
-0.52449435 -3.8444111 -0.99150813
-0.52527308 -4.2136154 -0.99579674
-0.52626824 -4.6606035 -1.0012925
-0.51119953 -5.2005782 -0.91567433
-0.45355886 -10.21783 -0.58742231
-0.36422187 -10.213206 -0.080878966
-0.30608571 -10.558063 0.2488465
-0.24454863 -10.66506 0.59779227
-0.18101035 -10.841384 0.95810252
-0.11845169 -10.796165 1.3128015
-0.088214032 -10.719148 1.4841108
-0.022215847 -10.83571 1.858201
0.039305877 -10.738145 2.206861
0.034646843 -4.8759966 2.178946
0.20036143 -6.0746765 3.1185272
0.21625453 -5.7823534 3.2085538
0.22439419 -4.8898931 3.2545285
0.23789123 -4.6795287 3.3310049
0.23608173 -4.3670416 3.3207035
0.23562166 -4.0925393 3.3180621
0.20798393 -3.6609218 3.1613445
0.2404733 -3.6445656 3.3455238
0.23292716 -3.3863063 3.3027294
0.22443348 -3.1433282 3.2545693
0.23029844 -2.9030185 3.2878177
0.22891217 -2.7285764 3.279963
0.23110449 -2.5789135 3.2923994
0.20373875 -2.3210218 3.1372733
0.23489931 -2.2962916 3.3139391
0.22524858 -2.1247091 3.2592473
0.21922462 -1.9748147 3.2251189
0.21732001 -1.8443298 3.2143459
0.21833546 -1.6675032 3.2201438
0.21658276 -1.5482781 3.2102387
0.21563838 -1.4345038 3.2049181
0.21408807 -1.3227402 3.1961653
0.21514474 -1.2179748 3.2021937
0.20520651 -1.1001146 3.1458941
0.17416161 -0.96447951 2.9699404
0.21004243 -0.90410066 3.1733971
0.2130421 -0.7571016 3.1904752
0.21158122 -0.65764964 3.1822445
0.19232596 -0.55568445 3.0731349
0.20232937 -0.46170163 3.1299028
0.20063999 -0.36604163 3.1203833
0.19906707 -0.2707772 3.1115267
0.19743749 -0.17571031 3.1023512
0.19554573 -0.032443397 3.0917258
0.19400917 0.063407265 3.0830843
0.19543599 0.16388974 3.0912476
0.19788739 0.26817033 3.1052239
0.19831061 0.37185258 3.1077042
0.20313719 0.48668033 3.1351562
0.17535532 0.53420943 2.9777131
0.19428875 0.68587941 3.0851636
0.18662433 0.83544385 3.0418479
0.18352421 0.94296324 3.0243702
0.1816317 1.0573047 3.0137453
0.18140645 1.1815847 3.0125809
0.18237853 1.3159792 3.018213
0.18324658 1.4568361 3.0232627
0.18053274 1.66415 3.0080745
0.15018335 1.6685342 2.8360732
0.12340572 1.6797895 2.6843255
0.09457238 1.6688317 2.5209103
0.0704033 1.6738756 2.3839476
0.024544662 1.5254796 2.1239238
0.030213889 1.7120057 2.1562393
0.0059705959 1.6890576 2.0188386
-0.015517407 1.6763219 1.8970649
-0.040115558 1.7076457 1.7577174
-0.058890749 1.6990744 1.6513263
-0.21942239 0.22987583 0.74028122
-0.22596039 0.20941167 0.70323753
-0.23193036 0.19093688 0.66941512
-0.23733133 0.17564422 0.63882059
-0.24233992 0.1618758 0.61045146
-0.24695422 0.15076239 0.58431941
-0.25131437 0.1405264 0.55962867
-0.2554487 0.13126883 0.53621864
-0.26116505 0.12460502 0.50385988
-0.26311606 0.11801338 0.49281144
-0.26849642 0.11396118 0.46235931
-0.27200845 0.11301658 0.44248396
-0.30036241 1.5654196 0.2832031
-0.31268141 1.5612282 0.21341498
-0.32507649 1.5585186 0.14319706
-0.33805928 1.5720009 0.069663018
-0.35082895 1.5709648 -0.0026768432
-0.3698017 1.5581266 -0.11016752
-0.38301417 1.5571363 -0.18501766
-0.39678115 1.5608422 -0.26300663
-0.4110333 1.5661157 -0.34374434
-0.4252896 1.5653318 -0.42451182
-0.37951279 0.81989402 -0.16573742
-0.3833504 0.75459874 -0.18751909
-0.38872105 0.71211469 -0.21796846
-0.35114416 0.15928711 -0.0054345261
-0.35141087 0.11738026 -0.0069580455
-0.35126561 0.076154098 -0.0061464333
-0.35128778 0.039495885 -0.0062797382
-0.35119876 0.0049720239 -0.0057809651
-0.351033 -0.027468454 -0.0048456788
-0.3512055 -0.05584332 -0.0058238967
-0.35125998 -0.083086669 -0.0061325012
-0.35121423 -0.10921369 -0.0058721784
-0.35108551 -0.1342461 -0.0051407553
-0.35117534 -0.15706475 -0.0056461557
-0.35137427 -0.17842191 -0.0067688785
-0.35125923 -0.19999525 -0.0061124801
-0.35112914 -0.22068457 -0.0053700218
-0.35181332 -0.24771033 -0.0092372634
-0.35147798 -0.26721576 -0.0073309592
-0.35148433 -0.28519654 -0.007360355
-0.35136646 -0.30293927 -0.0066855359
-0.35129252 -0.32010722 -0.0062595797
-0.35143799 -0.33649799 -0.0070767882
-0.35147765 -0.35277286 -0.0072945761
-0.3512432 -0.36911741 -0.0059587429
-0.35124624 -0.384886 -0.0059688333
-0.35115078 -0.40054187 -0.0054208566
-0.35130376 -0.41585574 -0.006281327
-0.35144475 -0.43876895 -0.0070709954
-0.35136476 -0.45403087 -0.0066114636
-0.35153958 -0.46926719 -0.0075970129
-0.35144818 -0.48451167 -0.0070736813
-0.35161039 -0.49990261 -0.0079888366
-0.35167786 -0.51538599 -0.0083673252
-0.35164964 -0.53094244 -0.0082038334
-0.35142618 -0.55437118 -0.0069328309
-0.351661 -0.57074964 -0.0082628271
-0.35178837 -0.58733386 -0.0089846859
-0.35164103 -0.60379148 -0.0081492895
-0.35187542 -0.62136739 -0.0094802985
-0.35159776 -0.64724183 -0.0079095447
-0.35152784 -0.66534692 -0.0075173117
-0.35194802 -0.68546259 -0.0099075716
-0.3523663 -0.70647448 -0.012288908
-0.3526203 -0.72792065 -0.013740452
-0.35299644 -0.75084966 -0.015887402
-0.35208562 -0.78140211 -0.010740075
-0.35201412 -0.80518645 -0.010352391
-0.35240924 -0.83253616 -0.012616904
-0.35243353 -0.85978079 -0.01277975
-0.35189593 -0.9007619 -0.0097710639
-0.35190633 -0.93264073 -0.0098653995
-0.52450293 -2.3663874 -0.99093527
-0.52501184 -2.5160754 -0.99409741
-0.52597445 -2.685797 -0.99987298
-0.52614641 -2.8677118 -1.0011942
-0.51966858 -3.1113701 -0.96494305
-0.52043033 -3.3602557 -0.9697488
-0.5212636 -3.6490057 -0.97504425
-0.52126592 -3.9756727 -0.97571135
-0.52260458 -4.3858027 -0.98412699
-0.52393502 -4.8840599 -0.99268222
-0.50834823 -5.494122 -0.90558785
-0.47879541 -10.135998 -0.74776101
-0.42025524 -10.189495 -0.41610253
-0.3316265 -10.229702 0.086106166
-0.27216858 -10.745659 0.42199033
-0.1482712 -10.660757 1.1243386
-0.051856909 -10.788115 1.6706355
0.010015598 -10.717822 2.0217035
0.047857322 -4.8322315 2.249366
0.20903923 -6.4233775 3.1599815
0.22021171 -6.0456252 3.2241914
0.22201575 -5.6149483 3.235388
0.23943831 -5.3835464 3.3347201
0.23190242 -4.9502578 3.2929549
0.23702797 -4.5156798 3.3230047
0.23529829 -4.2197204 3.3138642
0.21284421 -3.8077788 3.1874521
0.2292913 -3.685462 3.2810078
0.23590666 -3.5073869 3.3189301
0.22935164 -3.2660391 3.2823038
0.22673264 -3.0632842 3.2679129
0.22362842 -2.8715162 3.2507453
0.23270027 -2.6655557 3.3026609
0.23231472 -2.5082312 3.300832
