# .PCD v0.7 - Point Cloud Data file format
VERSION 0.7
FIELDS x y z
SIZE 4 4 4
TYPE F F F
COUNT 1 1 1
WIDTH 1405
HEIGHT 1
VIEWPOINT 0 0 0 1 0 0 0
POINTS 1405
DATA ascii
0.45902643 -10.765711 2.3959842
0.50300181 -8.8757467 2.6436973
0.43857512 -4.888288 2.2735937
0.60973459 -6.0891581 3.2470536
0.61832547 -5.7232738 3.2954946
0.63828045 -5.5068479 3.4086373
0.61739528 -4.9434204 3.2894733
0.62366199 -4.6695504 3.3248227
0.63184452 -4.2928762 3.3709717
0.61141539 -3.8880882 3.2545815
0.61574584 -3.6823623 3.2790151
0.62410927 -3.5144515 3.3263929
0.62022328 -3.286751 3.3041461
0.61538851 -3.0705178 3.2765245
0.62020946 -2.8303418 3.3037465
0.62192613 -2.6732514 3.3133962
0.62251574 -2.5190015 3.3166497
0.60733771 -2.3128135 3.2303097
0.61869198 -2.2137458 3.2947538
0.61140895 -2.054673 3.2532997
0.60932344 -1.9198077 3.2413878
0.6070115 -1.7898812 3.2281961
0.60827112 -1.6153827 3.2352784
0.60534531 -1.494839 3.2186136
0.60470766 -1.3827775 3.214952
0.60315424 -1.2719733 3.2060928
0.604904 -1.1687386 3.2160003
0.60702211 -1.0670413 3.2280016
0.56223309 -0.91830045 2.9735885
0.60190946 -0.80771554 3.1989026
0.60042685 -0.70747465 3.1904626
0.59642494 -0.60767961 3.1677179
0.59112102 -0.5097279 3.1375825
0.58921528 -0.41368893 3.1267471
0.16949894 -0.4158341 0.74363101
0.15704601 -0.41682103 0.6729995
0.15537734 -0.40964448 0.66359991
0.15453081 -0.40628451 0.65883106
0.15495203 -0.39216202 0.66133428
0.1527676 -0.38250974 0.64904541
0.15273692 -0.37346441 0.64894599
0.15265438 -0.35953221 0.64858949
0.15324627 -0.34808511 0.65202367
0.15428108 -0.33995387 0.65793437
0.15370075 -0.32562348 0.65475154
0.15340868 -0.30966935 0.6532045
0.15245059 -0.3015959 0.64784074
0.15174372 -0.28616035 0.64393944
0.15330322 -0.26557383 0.65286189
0.15439983 -0.24549504 0.6591565
0.15380168 -0.23308173 0.65583402
0.15283412 -0.21369556 0.65045065
0.39716542 1.7130437 2.0366402
0.37405977 1.688634 1.9055547
0.35453856 1.6836798 1.7948086
0.33540243 1.6735648 1.6862535
0.31887886 1.68118 1.5925208
0.3016704 1.674996 1.4949098
0.2803725 1.7080338 1.3741007
0.25612459 1.5837327 1.2366012
0.23936339 1.5436703 1.1415541
0.22595198 1.5469984 1.0654985
0.21260761 1.5464436 0.98982668
0.19987155 1.5536731 0.91760457
0.18731457 1.5621574 0.84639901
0.17445871 1.558212 0.77350515
0.15569563 1.5591971 0.66711766
0.14340486 1.5656307 0.59742737
0.13103315 1.5635966 0.52728343
0.1186763 1.5440718 0.45723483
0.1065459 1.533075 0.38846725
0.094394103 1.5376369 0.3195698
0.076116346 1.5363777 0.21594533
0.063399903 1.5535804 0.14383692
0.050581284 1.5631517 0.071153522
0.037839107 1.5631545 -0.0010898252
0.031470105 1.4110608 -0.037068378
0.021642961 1.3638281 -0.092737041
0.012340634 1.3140162 -0.14542492
-0.007892861 1.3448755 -0.26016405
-0.016744796 1.2919611 -0.31029287
0.065202668 -0.010743403 0.15594473
0.061246194 -0.026367748 0.13362168
0.058218248 -0.033641744 0.1165225
0.054683067 -0.037661083 0.096542358
0.051131919 -0.042583693 0.076472156
0.041554056 -0.055021148 0.022323564
0.037482671 -0.11359183 -0.0005022299
0.0403907 -0.15046796 0.016108027
0.0358942 -0.17675865 -0.0092331134
0.035388809 -0.1963599 -0.012007643
0.035204846 -0.22639881 -0.012910572
0.036041673 -0.2386948 -0.0081124259
0.03597955 -0.25747922 -0.0083717816
0.03621063 -0.27639711 -0.0069669508
0.03558635 -0.30153769 -0.010372619
0.035802297 -0.31914607 -0.0090547455
0.035803653 -0.33591202 -0.0089554852
0.035577744 -0.35201171 -0.010146719
0.035623267 -0.36824974 -0.0097973524
0.035771739 -0.38432842 -0.0088638822
0.035677698 -0.39994791 -0.0093073417
0.035679787 -0.41550428 -0.0092053413
0.03551475 -0.43857306 -0.010007359
0.03557926 -0.45393905 -0.0095515922
0.035563324 -0.469262 -0.0095526539
0.035466939 -0.48462793 -0.010010533
0.035464086 -0.50003552 -0.0099376775
0.035210755 -0.51570952 -0.011286676
0.035441417 -0.53904629 -0.00984444
0.035431858 -0.55495131 -0.0098102037
0.035185978 -0.57143116 -0.01111734
0.035047889 -0.58811587 -0.011812813
0.034854755 -0.60529089 -0.012820808
0.034451455 -0.62337315 -0.015021648
0.03488462 -0.64914829 -0.01243141
0.034950532 -0.66741222 -0.011969576
0.034527104 -0.687684 -0.014284919
0.034409761 -0.70787972 -0.014863236
0.035109837 -0.73662436 -0.010759055
0.034648269 -0.76020485 -0.01329103
0.034522295 -0.78370184 -0.013918577
0.033632416 -0.8119064 -0.018881172
0.035063598 -0.84407753 -0.01062871
0.034999385 -0.87215781 -0.010905975
0.034326136 -0.90565741 -0.01463927
0.033851109 -0.94063056 -0.017247699
0.035272751 -0.98403627 -0.0090499772
-0.14092647 -2.3902349 -1.0087357
-0.14205092 -2.5462711 -1.0150187
-0.14299481 -2.7175517 -1.0202768
-0.13693513 -2.9383614 -0.98574609
-0.13915725 -3.1748252 -0.99825621
-0.14069858 -3.437433 -1.0069026
-0.14082441 -3.722882 -1.0075165
-0.13495739 -4.155704 -0.97407591
-0.13059179 -4.5064554 -0.94920349
-0.028463457 -8.1054592 -0.36904013
0.015628058 -8.3164005 -0.11877374
0.17292818 -10.699407 0.77405077
0.26900929 -10.876904 1.3193268
0.36661977 -10.94867 1.8734095
0.42653289 -10.778604 2.2134752
0.60476339 -6.2977085 3.2254105
0.60370946 -5.8036718 3.2194972
0.60902923 -5.4345593 3.2497549
0.62494731 -5.2032866 3.340157
0.63247764 -4.9187593 3.3829606
0.61885405 -4.4915614 3.3057199
0.61676526 -4.1938663 3.2939379
0.59564674 -3.6761467 3.1742039
0.62971944 -3.6688406 3.367631
0.62316978 -3.4147303 3.3305364
0.61801291 -3.187798 3.3013461
0.61625963 -2.9942381 3.2914705
0.6136108 -2.8085856 3.2765133
0.61406261 -2.6476426 3.2791517
0.59220511 -2.3334599 3.1552296
0.62177902 -2.3022652 3.3231268
0.61577016 -2.1423533 3.2891037
0.61015284 -1.9923285 3.2573028
0.60693991 -1.8567473 3.2391462
0.60429347 -1.7284276 3.2242045
0.60071039 -1.6029003 3.2039475
0.60300052 -1.4388804 3.2170575
0.60279745 -1.3290254 3.2159812
0.60237348 -1.2212262 3.2136519
0.60395557 -1.1182597 3.2227061
0.55906618 -0.96423185 2.9680545
0.57982177 -0.89015973 3.0859108
0.59245318 -0.80283916 3.1576655
0.5952177 -0.65716898 3.1734688
0.5931446 -0.5589757 3.1617823
0.58804649 -0.4618485 3.13293
0.16705698 -0.42155093 0.74428725
0.15363757 -0.40862197 0.6683383
0.15227965 -0.40585092 0.66067272
0.15119396 -0.3941071 0.65463197
0.1509762 -0.39000708 0.65343624
0.15024886 -0.37784287 0.64942884
0.15018573 -0.36873534 0.64915073
0.15020999 -0.35429275 0.6494084
0.1510679 -0.34178475 0.65435666
0.15121388 -0.33073971 0.65526515
0.15097715 -0.32051775 0.65400189
0.1506658 -0.31022838 0.65231526
0.1496353 -0.29646987 0.64658791
0.15021811 -0.27472967 0.65001547
0.15140545 -0.25497982 0.65683323
0.15138395 -0.23998897 0.65679151
0.15098411 -0.22617167 0.654603
0.14992969 -0.20673902 0.64874017
0.38948283 1.6745892 2.0083017
0.36190987 1.6896056 1.8519633
0.34254935 1.6821285 1.742185
0.32515597 1.6851485 1.6435694
0.3085849 1.6900233 1.54962
0.2917645 1.6855073 1.4542559
0.27630424 1.6906095 1.3666103
0.24949698 1.5280467 1.2145729
0.23025066 1.551329 1.1054854
0.21685381 1.5532613 1.0295488
0.20344672 1.5493916 0.95355392
0.19084296 1.5582098 0.88211817
0.17794865 1.5555913 0.80903351
0.16542988 1.5591644 0.73808002
0.15206227 1.5184907 0.66230863
0.13442077 1.5634257 0.56233037
0.12201621 1.5491515 0.49202502
0.1098147 1.5353837 0.42287195
0.097685985 1.537172 0.3541328
0.085547753 1.5355202 0.28533968
0.073197231 1.5433598 0.21534258
0.054307874 1.5552735 0.10828431
0.041282825 1.5674446 0.034460522
0.028629348 1.5621947 -0.037255526
0.024265543 1.3756216 -0.061943129
0.015762268 1.3085556 -0.11011313
0.0038963261 1.308453 -0.17736004
-0.0088276342 1.31692 -0.24947487
-0.019203765 1.2874144 -0.30826953
-0.056846723 1.5050378 -0.52172518
0.064721726 -0.013855467 0.16815096
0.062114652 -0.023996258 0.15343837
0.059090406 -0.030487768 0.13635896
0.055883437 -0.036042426 0.11824286
0.050977748 -0.045032229 0.090528361
0.046654068 -0.044980254 0.066076376
0.039402787 -0.05781763 0.025093298
0.039777935 -0.087158568 0.027301079
0.035027128 -0.12665281 0.00054472301
0.03288893 -0.14122833 -0.011507419
0.032995198 -0.16463979 -0.010825028
0.03299503 -0.18654299 -0.010746489
0.033164971 -0.20807104 -0.009702757
0.033193965 -0.22824357 -0.009458703
0.033216644 -0.24764569 -0.0092504676
0.033221316 -0.2663371 -0.0091443853
0.033358134 -0.2847563 -0.0082885111
0.032819223 -0.30985534 -0.011226772
0.032928362 -0.32707906 -0.010527924
0.03298413 -0.34380725 -0.010131901
0.032979399 -0.36011687 -0.010079139
0.033248875 -0.37646899 -0.0084705576
0.033108208 -0.3921127 -0.0091890944
0.033064067 -0.40770319 -0.0093599549
0.033115655 -0.42322081 -0.0089876605
0.032850087 -0.44621319 -0.010375131
0.032962814 -0.46156889 -0.009655999
0.032821454 -0.47692445 -0.01037854
0.032946661 -0.49226147 -0.0095886439
0.032819439 -0.50777 -0.010231012
0.032787718 -0.52336109 -0.010331575
0.032681406 -0.5391888 -0.010855366
0.03267451 -0.55512816 -0.010815139
0.032601718 -0.57958913 -0.011109178
0.03235298 -0.59664309 -0.012441253
0.032383051 -0.61360759 -0.012191427
0.031878032 -0.63214993 -0.014977739
0.03214518 -0.64950854 -0.013382878
0.032376278 -0.67680699 -0.011953142
0.032026667 -0.69724113 -0.013857944
0.031532701 -0.71906596 -0.016581906
0.032064099 -0.74913549 -0.013448716
0.032416794 -0.7701503 -0.011368961
0.031961791 -0.79557312 -0.013872261
0.031994276 -0.82027829 -0.013609676
0.031579792 -0.84864008 -0.015883397
0.032308783 -0.88739109 -0.011630166
0.031906217 -0.92050391 -0.013836786
0.031699117 -0.95501298 -0.014934567
-0.14127654 -2.3054018 -0.99630332
-0.14190586 -2.4492109 -0.9998064
-0.14263602 -2.6086624 -1.0038831
-0.14494342 -2.80037 -1.0169119
-0.13725533 -3.0179713 -0.97319239
-0.1387338 -3.259217 -0.98152345
-0.14079608 -3.5438075 -0.9931711
-0.14138408 -3.8553555 -0.99645728
-0.14115268 -4.2107129 -0.99509919
-0.13074945 -4.7060251 -0.93600482
-0.081652813 -8.2588606 -0.65741718
-0.0079900967 -8.1352243 -0.2393616
0.077541165 -10.684034 0.2457898
0.13944609 -10.675076 0.59708303
0.20273043 -10.821455 0.9561851
0.26587251 -10.826123 1.3144939
0.29911116 -10.911176 1.503095
0.3637653 -10.927919 1.8700813
0.45434535 -10.714929 2.3842671
0.49750197 -8.8287096 2.6295998
0.42269322 -4.9447446 2.2059119
0.59256792 -6.1827407 3.1699295
0.61876684 -5.7682505 3.3187926
0.61055332 -4.9186211 3.2724769
0.62607503 -4.7231641 3.3606739
0.61948758 -4.3712506 3.3234284
0.61891866 -4.0958633 3.3203256
0.59471554 -3.6867871 3.1831243
0.62994683 -3.5752366 3.3831966
0.62350112 -3.3294787 3.3467395
0.61551851 -3.0942833 3.3015597
0.61398709 -2.9077287 3.2929807
0.61411721 -2.7398686 3.2938271
0.61481357 -2.5832379 3.2978849
0.59223056 -2.3435905 3.1698537
0.61934686 -2.2321076 3.3238657
0.61107135 -2.0685749 3.2770116
0.60517204 -1.921491 3.2436383
0.60394269 -1.7944256 3.2367611
0.60131246 -1.6684855 3.2219338
0.60004199 -1.5502697 3.2148209
0.5994277 -1.4369818 3.2114298
0.59858048 -1.2725531 3.2067618
0.60082 -1.1700097 3.2195604
0.60343683 -1.0687993 3.2344983
0.5596211 -0.92083055 2.9859779
0.60147196 -0.86160761 3.223526
0.59546602 -0.75719112 3.1895351
0.59088427 -0.65651536 3.163624
0.58849972 -0.51023549 3.1502199
0.58466887 -0.41393018 3.1285665
0.164223 -0.42167014 0.74330336
0.15247568 -0.41614053 0.67679381
0.15028504 -0.40494731 0.66450626
0.14925647 -0.40187964 0.65871769
0.14766076 -0.38219461 0.64989942
0.14794908 -0.37239972 0.65162891
0.14765295 -0.34897161 0.65018237
0.14846258 -0.33628449 0.65486842
0.14826345 -0.32613319 0.65383142
0.14813772 -0.31537536 0.65321052
0.14715572 -0.30160457 0.64777792
0.1469779 -0.29011497 0.6468609
0.14805757 -0.27220732 0.65307671
0.1490957 -0.24550405 0.65910125
0.14836955 -0.23378482 0.65507221
0.14791331 -0.21993427 0.65257376
0.37630773 1.6700029 1.9481736
0.3497481 1.6877707 1.7975905
0.33182782 1.6897581 1.6959916
0.31393152 1.6845951 1.5945313
0.29858512 1.6998689 1.5075308
0.28198606 1.6953087 1.4134305
0.2676481 1.7134569 1.33215
0.24041174 1.5352473 1.1777657
0.22731677 1.5456619 1.1035419
0.20746161 1.5502577 0.99100339
0.19452766 1.5536481 0.91769552
0.18200091 1.5631162 0.84669524
0.16904266 1.5562289 0.77325374
0.15669598 1.5644528 0.7032752
0.14401482 1.5532724 0.63140774
0.12554911 1.551618 0.52675396
0.11329143 1.5420818 0.45728844
0.10113928 1.5410885 0.38841724
0.088988446 1.5396534 0.31955361
0.076772355 1.5407574 0.2503182
0.064120777 1.558244 0.17860287
0.05124788 1.5720695 0.10563323
0.032396384 1.5641726 -0.0012084807
0.025348779 1.427598 -0.041041944
0.015084686 1.3869436 -0.09917827
0.0073529426 1.3064551 -0.14292245
-0.005149398 1.3144664 -0.21378592
-0.016764747 1.3038111 -0.27960587
0.067662105 0.0012891977 0.20039606
0.064241692 -0.019030537 0.18113893
0.061480325 -0.027002933 0.16556773
0.058669288 -0.034702092 0.1497146
0.055399228 -0.038901433 0.13125467
0.051913481 -0.042298593 0.11157037
0.047150314 -0.052512243 0.084688328
0.043182459 -0.055077892 0.062267821
0.036101591 -0.095560469 0.022394061
0.032713532 -0.10418346 0.0032678146
0.030438781 -0.11864891 -0.0095369918
0.029816138 -0.15184093 -0.012907151
0.030150542 -0.17563698 -0.010899377
0.030230932 -0.19735807 -0.010334123
0.030175723 -0.21771343 -0.010538991
0.030272266 -0.23775551 -0.0098826829
0.030359456 -0.25702572 -0.0092797354
0.030425766 -0.27558506 -0.0087955156
0.030460613 -0.29349864 -0.0084900623
0.030618425 -0.31116089 -0.007486769
0.030398436 -0.32766715 -0.0086279502
0.030268148 -0.35222477 -0.0092062671
0.03014244 -0.36822113 -0.0098122675
0.030117126 -0.38412651 -0.0098484298
0.030190984 -0.39992005 -0.0093217017
0.030190047 -0.41547677 -0.0092193605
0.030111246 -0.43088102 -0.0095587755
0.030126065 -0.44625312 -0.0093667442
0.029888984 -0.46925309 -0.010549822
0.029962795 -0.48460197 -0.010022529
0.029956572 -0.50000995 -0.0099491253
0.029871991 -0.51556242 -0.010320039
0.029711844 -0.53134412 -0.011119351
0.029650472 -0.54724765 -0.011357835
0.02983064 -0.57116526 -0.010170292
0.029687092 -0.5878166 -0.010873897
0.02981836 -0.60434067 -0.010017882
0.029241771 -0.62266618 -0.013176901
0.029117886 -0.64063668 -0.013767039
0.029718773 -0.66654497 -0.010188367
0.029439976 -0.6863004 -0.011655342
0.029005587 -0.7073735 -0.014003788
0.028884156 -0.72836483 -0.014576075
0.02877949 -0.75023383 -0.015052103
0.029510239 -0.78133076 -0.01072946
0.029283756 -0.806346 -0.011893045
0.028870596 -0.83374953 -0.014113357
0.028828079 -0.86104655 -0.014230093
0.029460836 -0.90139645 -0.010452382
0.029070407 -0.93549317 -0.012535835
0.028319607 -0.97477829 -0.016658742
-0.14385013 -2.3678474 -0.99209911
-0.14514004 -2.5233097 -0.99915522
-0.145309 -2.6856587 -0.99984092
-0.14648816 -2.8761444 -1.0062284
-0.14800876 -3.0941093 -1.0145227
-0.14148341 -3.3753977 -0.97703171
-0.14069657 -3.6424735 -0.97217309
-0.14275739 -3.9950051 -0.98338097
-0.14320442 -4.3894224 -0.98538166
-0.1458772 -4.906745 -0.9998768
-0.062549047 -8.2768507 -0.52258897
-0.01488553 -8.2886629 -0.25193894
0.042294335 -10.553432 0.07531637
0.10340262 -10.656608 0.42238575
0.16605075 -10.809324 0.77825236
0.23146567 -11.025861 1.1498964
0.32483619 -10.859607 1.679723
0.39018154 -10.900596 2.0506685
0.43185347 -4.9068389 2.280822
0.58623379 -6.4198394 3.1587152
0.58933413 -5.9485893 3.1758487
0.61721349 -5.5817184 3.3337581
0.63258994 -5.3338151 3.4208131
0.62574798 -4.9161935 3.3815877
0.61667162 -4.524652 3.3297126
0.62155873 -4.2757397 3.3572412
0.58063412 -3.7312303 3.1244569
0.61209702 -3.7100456 3.3030608
0.61909848 -3.4266565 3.3425896
0.6162113 -3.2108901 3.3260388
0.61057627 -2.9961064 3.293896
0.60959071 -2.8179231 3.2881804
0.60971302 -2.6547589 3.288769
0.60451329 -2.478436 3.2591405
0.60683107 -2.340744 3.2722173
0.61405748 -2.1562374 3.3131382
0.60671294 -1.9997218 3.2713614
0.60154265 -1.8579414 3.2419398
0.5989275 -1.7295243 3.2270341
0.59730458 -1.6083941 3.2177677
0.59547895 -1.490859 3.2073553
0.59531432 -1.3801165 3.2063768
0.59508032 -1.2718136 3.2050073
0.5985626 -1.1185696 3.2247183
0.57397401 -0.98719305 3.0851107
0.55733931 -0.87468642 2.9906628
0.57971835 -0.79769534 3.1176593
0.59080303 -0.70669609 3.1805446
0.58697045 -0.60729676 3.1587646
0.58461374 -0.50995123 3.1453626
0.16183443 -0.42127961 0.74627805
0.14857571 -0.41257796 0.67118078
0.14687322 -0.40113485 0.66162401
0.14580168 -0.39380822 0.65561318
0.1451887 -0.38590559 0.65220428
0.14478301 -0.38217598 0.64993691
0.14475149 -0.37309757 0.64982653
0.14466737 -0.35911652 0.64945149
0.14490095 -0.34357643 0.65087777
0.14551613 -0.33120003 0.65443397
0.14571033 -0.32511377 0.65556872
0.14541547 -0.30911455 0.65399569
0.14445479 -0.30101183 0.64861345
0.14388119 -0.28491807 0.64545846
0.14610116 -0.26106316 0.65810996
0.14598304 -0.23928118 0.65753394
0.14521323 -0.22756006 0.65323108
0.14494351 -0.21222062 0.65176249
0.38592762 1.6875058 2.0175962
0.36525992 1.6812817 1.9003922
0.34435549 1.663573 1.7818565
0.32028383 1.6887254 1.6453416
0.30410239 1.6980757 1.5535809
0.2869297 1.6901 1.4562126
0.27208135 1.7034907 1.3720131
0.24178284 1.4928926 1.2003673
0.23122174 1.5408746 1.1404616
0.21776979 1.5432173 1.0641979
0.20444454 1.5426214 0.98865628
0.18561809 1.5582602 0.8819176
0.17289154 1.5605431 0.80977052
0.16012672 1.5562383 0.73741305
0.14700677 1.526461 0.66306674
0.13537142 1.5626585 0.59707677
0.12287608 1.5456357 0.52626175
0.10459784 1.5353895 0.42266074
0.092465483 1.5381697 0.35388485
0.080334835 1.5355113 0.28512424
0.067969717 1.5443375 0.21502098
0.055108372 1.5654645 0.14208877
0.042516202 1.5651191 0.070706367
0.029688401 1.5670614 -0.0020157257
0.018678842 1.3833001 -0.064187102
0.010220656 1.3142384 -0.11203783
-0.0014522556 1.3102807 -0.1782001
-0.01288116 1.2991098 -0.24297021
0.01608103 0.73595655 -0.077944785
0.063313834 -0.019259043 0.19108416
0.061972715 -0.023431599 0.18351653
0.057844244 -0.03504876 0.16021614
0.054789111 -0.040466536 0.14296153
0.051438134 -0.044165634 0.12402617
0.047859337 -0.047125529 0.10379709
0.044476241 -0.052552283 0.084681153
0.034185711 -0.059278738 0.026482673
0.030185809 -0.11738609 0.0040760795
0.027088316 -0.16301693 -0.013261267
0.028078256 -0.17786899 -0.0075890124
0.027533181 -0.20762664 -0.010535208
0.027250219 -0.22689135 -0.012043557
0.02726203 -0.24638732 -0.011878801
0.027414991 -0.26558086 -0.010913344
0.02770545 -0.28443936 -0.0091679152
0.027803523 -0.30224729 -0.0085154157
0.027858241 -0.31948122 -0.0081096021
0.02769444 -0.33593887 -0.0089447498
0.027478054 -0.36017725 -0.010031622
0.027513718 -0.368278 -0.0097821606
0.027431507 -0.39201766 -0.010108165
0.027384624 -0.40764329 -0.010280767
0.027433671 -0.42319611 -0.0099090571
0.027404457 -0.43860441 -0.0099816769
0.027468788 -0.453971 -0.0095234765
0.027279146 -0.46931213 -0.010506716
0.027356023 -0.48466128 -0.009977404
0.027300289 -0.50783569 -0.010154115
0.027266731 -0.52342737 -0.010251407
0.027158581 -0.53925568 -0.010771851
0.026980033 -0.55540359 -0.011691529
0.026736399 -0.57195228 -0.012980252
0.027155431 -0.59612739 -0.01046184
0.027015638 -0.61335158 -0.011160671
0.026506454 -0.63186216 -0.013954705
0.026769219 -0.6491887 -0.012368861
0.026677048 -0.66787589 -0.012796115
0.026100574 -0.68863404 -0.015969992
0.02674049 -0.71663916 -0.012194659
0.026401367 -0.73878747 -0.014020259
0.026095457 -0.76192683 -0.015656456
0.025557002 -0.78727388 -0.018610351
0.026707675 -0.81909502 -0.01193292
0.026281938 -0.8474043 -0.014244392
0.02623589 -0.875615 -0.014401155
0.025949348 -0.90711981 -0.015919715
0.026706712 -0.95137531 -0.011462886
-0.1446858 -2.4260077 -0.982539
-0.14538734 -2.5832233 -0.98629528
-0.14649704 -2.7616241 -0.99234819
-0.14755639 -2.9610686 -0.99809581
-0.15032099 -3.2050405 -1.0134794
-0.15163341 -3.4672914 -1.0206046
-0.14304176 -3.7976317 -0.97141945
-0.14539552 -4.1848431 -0.98433775
-0.14435107 -4.5936413 -0.97795022
-0.088521972 -8.2709589 -0.65724289
-0.034876414 -7.9643531 -0.35300112
0.0065125576 -8.3224649 -0.11769667
0.25703627 -10.7064 1.3066646
0.29207233 -10.910957 1.5055799
0.35351977 -10.794933 1.854175
0.41688833 -10.768454 2.2137508
0.4193168 -4.9833393 2.2224739
0.58662599 -6.1858087 3.1729741
0.59871769 -5.8429513 3.2413213
0.58707976 -5.3007436 3.1748531
0.59019792 -4.9611382 3.1922951
0.62364846 -4.7521019 3.3819838
0.61510015 -4.38269 3.3332109
0.61519212 -4.1108699 3.3335507
0.58806831 -3.6809974 3.1793389
0.61744976 -3.6442478 3.3460708
0.61066508 -3.390238 3.3074172
0.61350495 -3.113169 3.3233852
0.60932714 -2.9123573 3.2995739
0.6078735 -2.7368963 3.2912428
0.61012334 -2.5868444 3.3039474
0.58400089 -2.3330441 3.1555908
0.61299562 -2.2997067 3.3201394
0.60173351 -2.1224234 3.2561641
0.6023792 -1.9291781 3.2597754
0.59948575 -1.7969041 3.2433236
0.59673041 -1.6703559 3.2276614
0.59516561 -1.5512335 3.2187622
0.59408247 -1.4368416 3.2126012
0.59272015 -1.3251082 3.20486
0.59413141 -1.2205604 3.2128627
0.59831345 -1.0687562 3.2365911
0.55553997 -0.92180437 2.9938753
0.59723544 -0.86213064 3.230479
0.5909003 -0.75727123 3.1945388
0.58754331 -0.6569168 3.1755011
0.5825302 -0.55806494 3.1470702
0.57917368 -0.46146649 3.128042
0.1589959 -0.42150614 0.74432594
0.14523494 -0.40900439 0.66644782
0.14403413 -0.40161005 0.65971267
0.14333604 -0.39819637 0.65579116
0.14251779 -0.38620755 0.65126538
0.1421857 -0.37781313 0.64945912
0.14212269 -0.36870593 0.64917934
0.1426318 -0.3578907 0.65214503
0.14308889 -0.33626008 0.65489346
0.14274161 -0.32660937 0.65300155
0.14262111 -0.31588188 0.6523962
0.1421313 -0.30615446 0.64969611
0.14199376 -0.2946794 0.64899439
0.14269508 -0.27218524 0.65308964
0.14439142 -0.24970353 0.66278893
0.14357547 -0.23859762 0.65823966
0.14316697 -0.22473067 0.65600133
0.14326061 -0.19779547 0.6566503
0.3720372 1.6790905 1.9543047
0.35141113 1.6682239 1.837396
0.33226663 1.661086 1.7288923
0.3156032 1.6697059 1.6344616
0.29332 1.7017757 1.5081989
0.27699712 1.7008585 1.415705
0.26126122 1.7006706 1.3265419
0.23503965 1.5362619 1.1779207
0.22147976 1.5391141 1.1011014
0.20809971 1.53994 1.0253036
0.19544086 1.5504152 0.95359683
0.17653513 1.5631539 0.84650743
0.1635704 1.5562574 0.77306974
0.15104672 1.5575408 0.70213413
0.13863729 1.5592508 0.63184762
0.12613387 1.5474744 0.56102943
0.11387277 1.5421575 0.49158618
0.1017057 1.5403774 0.42267716
0.083550341 1.5306411 0.31985551
0.07119862 1.5437139 0.24990162
0.058560669 1.5591968 0.17832561
0.046051569 1.5591822 0.10748112
0.033092637 1.5683759 0.034086719
0.021791659 1.529008 -0.029905908
0.017491395 1.3456173 -0.054202769
0.0076903878 1.3065771 -0.10968974
-0.010355402 1.3087497 -0.21188179
0.066424303 -0.0075938762 0.22362946
0.064211905 -0.021216931 0.21116799
0.061468881 -0.028098827 0.19569799
0.057292625 -0.038185533 0.1721431
0.054265182 -0.043129545 0.15506053
0.050945528 -0.04631605 0.13632122
0.047607969 -0.050328851 0.11748038
0.043821301 -0.052070148 0.096093193
0.039877806 -0.054082796 0.073816814
0.030532587 -0.067754328 0.021037214
0.031013386 -0.09694922 0.023845356
0.027367527 -0.10423528 0.0032561542
0.017566852 -0.084840059 -0.052229531
0.025436908 -0.14422065 -0.0075264904
0.025560625 -0.16748896 -0.0067435298
0.025282366 -0.1881859 -0.0082398504
0.024702271 -0.21727979 -0.011407157
0.024646251 -0.23689829 -0.011643878
0.025530666 -0.24901348 -0.006589042
0.024959352 -0.27524439 -0.0097074015
0.024834694 -0.29283157 -0.010333855
0.024993407 -0.310559 -0.009353837
0.025106519 -0.32771617 -0.0086325714
0.025165841 -0.34437713 -0.0082164975
0.02499502 -0.36039394 -0.0091055557
0.025095681 -0.37652087 -0.0084555522
0.024749231 -0.39982843 -0.010301492
0.02475266 -0.41541949 -0.010203439
0.024851676 -0.43092799 -0.0095636621
0.024698159 -0.4462648 -0.010356069
0.024637736 -0.46162033 -0.010620921
0.024844041 -0.47694099 -0.0093736956
0.024623051 -0.49238247 -0.010549675
0.024642078 -0.5156076 -0.010326826
0.024659138 -0.5312326 -0.010153925
0.024602573 -0.54710144 -0.010398942
0.024476862 -0.56329662 -0.01103651
0.024455316 -0.57963997 -0.01108388
0.024456732 -0.604693 -0.010964604
0.024378132 -0.62202537 -0.011336881
0.024095738 -0.64030498 -0.012865527
0.02394335 -0.65888464 -0.013657617
0.023768188 -0.67817241 -0.014579619
0.023581591 -0.69823045 -0.01556732
0.024032859 -0.72737616 -0.01290363
0.02363902 -0.7502749 -0.015069132
0.023716265 -0.77249438 -0.014563816
0.023416381 -0.79742849 -0.016198883
0.023896232 -0.83314663 -0.013380556
0.023860419 -0.86041701 -0.013521358
0.023565022 -0.89091372 -0.015136632
0.023187397 -0.92415005 -0.017220616
0.024063751 -0.96953386 -0.01216509
-0.15224123 -2.326798 -1.0125465
-0.15282319 -2.4719822 -1.0158817
-0.1475338 -2.6639237 -0.98593551
-0.14878191 -2.8539274 -0.99308896
-0.14977619 -3.065315 -0.998824
-0.15132645 -3.3119006 -1.0077429
-0.15354137 -3.6037383 -1.0204712
-0.14398786 -3.9524171 -0.96651012
-0.14236286 -4.3114901 -0.95754045
-0.14624287 -4.8440356 -0.97993046
-0.063547596 -8.2024527 -0.5139209
-0.016512213 -8.2309198 -0.24731751
0.070995197 -10.665069 0.2464703
0.16399536 -10.689417 0.77357405
0.22970189 -10.974002 1.1457239
0.32287219 -10.818922 1.6741745
0.3891657 -10.900603 2.0500154
0.49134758 -8.8353672 2.6315606
0.42447218 -4.8497825 2.2566013
0.59798944 -6.0760231 3.2393067
0.60478354 -5.693768 3.2782748
0.60919464 -5.3313622 3.3037136
0.60815382 -4.9587455 3.2982523
0.62345368 -4.603157 3.3854551
0.61994511 -4.28759 3.365947
0.59193355 -3.8323846 3.2076583
0.60668635 -3.6974466 3.2915049
0.61291963 -3.5161123 3.3270955
0.60758215 -3.2807178 3.2971396
0.60249913 -3.0640414 3.2686079
0.60355753 -2.8921728 3.2748499
0.60950977 -2.6704559 3.3089213
0.61202365 -2.5243764 3.3233886
0.59590769 -2.3146524 3.2322991
0.60651201 -2.2129233 3.2925889
0.59991825 -2.0563307 3.2554312
0.59454161 -1.9118358 3.2251613
0.59605044 -1.7328426 3.2339947
0.59585333 -1.6148297 3.2330613
0.59206325 -1.492638 3.211762
0.59154028 -1.3811147 3.2089741
0.59077382 -1.2718871 3.2048025
0.59266138 -1.1689272 3.2156699
0.59543139 -1.0680609 3.2315369
0.55121118 -0.9198603 2.981061
0.59507 -0.81179905 3.2298977
0.58786398 -0.70756721 3.1892109
0.5833053 -0.60764694 3.163527
0.57778966 -0.5098139 3.1324158
0.57724285 -0.41380805 3.1294694
0.15630528 -0.41586381 0.74352556
0.1440035 -0.416673 0.67386824
0.14215733 -0.40518463 0.66353077
0.14110304 -0.39771873 0.65763932
0.13945043 -0.37819365 0.64848411
0.13950819 -0.37348807 0.64885467
0.13926433 -0.3599624 0.64760095
0.14020176 -0.35261136 0.65295994
0.14066589 -0.33582866 0.65572143
0.14003885 -0.32155651 0.65229535
0.1403369 -0.31485933 0.65402895
0.13935101 -0.3010453 0.64856791
0.13930909 -0.2889258 0.64841717
0.14032245 -0.26431125 0.6542958
0.14140913 -0.24417998 0.66054738
0.14067498 -0.23240994 0.65647143
0.14033091 -0.21779093 0.65460849
0.38356891 1.7105647 2.0348856
0.36005318 1.6828237 1.9016272
0.34073135 1.6794156 1.7921572
0.32311767 1.683785 1.6923747
0.30499393 1.6758713 1.5896937
0.28897893 1.6829586 1.498975
0.26715165 1.7107238 1.3753499
0.23650911 1.4956075 1.201592
0.22591017 1.5436298 1.1415979
0.21194653 1.5374509 1.0625011
0.1991231 1.5464097 0.9898755
0.18632957 1.5526719 0.91741782
0.17351086 1.5543044 0.84481478
0.15484503 1.5660721 0.73910135
0.14235792 1.5691012 0.66837794
0.1297819 1.561627 0.59714556
0.11725957 1.5416105 0.52621168
0.10505646 1.5320598 0.45709205
0.092951387 1.5330634 0.3885327
0.08084178 1.5316355 0.3199462
0.062163651 1.5542727 0.21416384
0.049444992 1.56645 0.14212914
0.036957871 1.5621648 0.071400031
0.024101164 1.5651104 -0.0014218159
0.017572196 1.4168833 -0.038428366
0.0069420906 1.3849778 -0.098639734
-0.0071880659 1.3121914 -0.17867582
-0.018260965 1.2954003 -0.24139151
0.060675781 -0.029484717 0.20588055
0.05789775 -0.035682265 0.19020538
0.054790489 -0.039037637 0.17266458
0.051674649 -0.043123528 0.15507486
0.047098171 -0.051447112 0.12924106
0.043774366 -0.055792216 0.11047214
0.039882846 -0.057145085 0.08848539
0.035942469 -0.059573982 0.066221215
0.027461713 -0.10471665 0.018394735
0.024113571 -0.1135976 -0.0005134755
0.027308598 -0.15167803 0.017668068
0.022471856 -0.1541743 -0.0096780583
0.022535598 -0.17676511 -0.0092451852
0.02248013 -0.19791181 -0.0094875619
0.022738103 -0.21920662 -0.007952597
0.022694763 -0.23870212 -0.0081252949
0.02218092 -0.26556426 -0.010928136
0.022153236 -0.28367323 -0.011011198
0.022250498 -0.30154598 -0.010385568
0.022469804 -0.31915468 -0.0090677021
0.022474127 -0.3359209 -0.0089683486
0.022419343 -0.35226282 -0.0092038447
0.02246906 -0.36846715 -0.0088466089
0.022450503 -0.38433817 -0.008876224
0.022358961 -0.39995793 -0.00931942
0.022401709 -0.42326313 -0.0089629162
0.022202041 -0.43858379 -0.010018659
0.022268988 -0.45395005 -0.0095625529
0.022255339 -0.4692733 -0.0095632309
0.022161096 -0.4846395 -0.010020684
0.021987408 -0.50013447 -0.010928436
0.02207778 -0.5234046 -0.010300114
0.02214298 -0.53905886 -0.0098529402
0.021965532 -0.55517203 -0.010781457
0.021891274 -0.57144427 -0.011124714
0.02175498 -0.58812928 -0.011819583
0.021563547 -0.6053046 -0.012826942
0.020998519 -0.62372911 -0.015952542
0.02159795 -0.64916271 -0.01243591
0.021665646 -0.66742688 -0.011973383
0.021398308 -0.68724501 -0.013410443
0.021127775 -0.70789498 -0.014865466
0.021536224 -0.73769981 -0.012430575
0.0216584 -0.75910258 -0.011658329
0.021245869 -0.78371811 -0.01391789
0.021041112 -0.80884486 -0.014999079
0.021529019 -0.84540653 -0.01211224
0.021474227 -0.87353897 -0.012342486
0.021178681 -0.90496784 -0.013937634
0.020463325 -0.94137979 -0.017912965
0.020441525 -0.97632366 -0.017955238
-0.15347438 -2.3838735 -1.0039517
-0.15553319 -2.5471182 -1.0155379
-0.14932324 -2.7411122 -0.98019046
-0.15126529 -2.9479175 -0.99110949
-0.15212449 -3.1704414 -0.99588579
-0.15498734 -3.4482498 -1.0120195
-0.15476419 -3.7302232 -1.0106512
-0.14764343 -4.1454682 -0.97011375
-0.14452629 -4.5159445 -0.95232332
-0.045854818 -8.3272648 -0.39184144
0.0029409507 -8.2645531 -0.11502764
0.037050933 -10.44953 0.078722343
0.097595669 -10.656636 0.4221994
0.16026284 -10.799354 0.77770883
0.25547749 -10.856977 1.3178444
0.41781539 -10.922359 2.2386823
0.59004366 -6.2769623 3.2156425
0.59351212 -5.8336167 3.2353654
0.59849477 -5.4587297 3.2636831
0.60297477 -5.12009 3.2891548
0.61020482 -4.8390799 3.3302283
0.602117 -4.4615369 3.2844248
0.61317027 -4.129108 3.3472264
0.58175761 -3.6700175 3.1691382
0.61592978 -3.663619 3.3630319
0.60995764 -3.4132125 3.3292398
0.60364419 -3.180191 3.2935143
0.59935302 -2.9744484 3.2692597
0.59901202 -2.8009241 3.2674105
0.59997118 -2.6427159 3.2729363
0.57906234 -2.3327904 3.1544812
0.60835218 -2.3005543 3.3206871
0.60187632 -2.139231 3.2840476
0.59592843 -1.9884492 3.2504029
0.5920642 -1.8513614 3.2285769
0.58938229 -1.7234193 3.2134564
0.59220779 -1.5558169 3.2296164
0.58998382 -1.438747 3.2170942
0.58745247 -1.3247957 3.2028289
0.58918196 -1.2208289 3.2127287
0.5914368 -1.1187928 3.2256079
0.54720467 -0.96543819 2.9748418
0.57414997 -0.89674842 3.1277506
0.57915342 -0.75344062 3.1562643
0.58251756 -0.65715766 3.1754351
0.57870519 -0.55854356 3.1539052
0.57464182 -0.46169493 3.1309519
0.15375854 -0.42154989 0.74431878
0.14032476 -0.40862575 0.66837156
0.13878083 -0.40164635 0.65971136
0.13808104 -0.39823219 0.65579063
0.13748886 -0.39030397 0.65252799
0.13717923 -0.38187835 0.65086776
0.136696 -0.36911452 0.64827091
0.1367197 -0.35471976 0.64854872
0.13757795 -0.3422426 0.65351152
0.13746463 -0.32664192 0.65301198
0.13763632 -0.32052144 0.65403342
0.13713658 -0.30506766 0.65134221
0.13642736 -0.29588607 0.6474154
0.13770831 -0.27755868 0.65477467
0.13883755 -0.25104636 0.66132075
0.13759044 -0.23448782 0.65439045
0.13762423 -0.22617449 0.65462935
0.1378435 -0.1985676 0.65601403
0.36870193 1.6943905 1.9653844
0.34788007 1.6830815 1.8473877
0.32882428 1.6779875 1.7394062
0.31196707 1.6861057 1.6438919
0.29497272 1.6865748 1.5476003
0.27846801 1.6855825 1.4540857
0.25705338 1.7153583 1.3327653
0.23055081 1.5483625 1.1825696
0.21668944 1.5475907 1.1040457
0.20295179 1.5427783 1.0262237
0.19022995 1.5523188 0.95416045
0.17760094 1.5611553 0.8826232
0.16471413 1.559533 0.80962521
0.15213679 1.5621355 0.73838133
0.13259147 1.5184541 0.62766975
0.12083368 1.547454 0.56106859
0.10856725 1.5411384 0.49158818
0.096407205 1.5343583 0.42271081
0.084307931 1.5311424 0.35417706
0.071993858 1.5464523 0.28442115
0.059407327 1.563201 0.21311903
0.040897831 1.554224 0.10827158
0.027839277 1.5673739 0.034291483
0.01619406 1.536782 -0.031664293
0.0093711819 1.4064481 -0.070248477
0.0015885048 1.3218546 -0.11428539
-0.0094035221 1.3055184 -0.17653958
0.059840277 -0.032923024 0.21681553
0.057084747 -0.038716491 0.2012815
0.054095034 -0.042492799 0.18441865
0.051104039 -0.046954293 0.16754851
0.047728229 -0.048789881 0.14849493
0.044320904 -0.051479787 0.12926261
0.039437775 -0.059091091 0.10170711
0.035877317 -0.063166983 0.081606112
0.025039345 -0.067090511 0.020364964
0.023458023 -0.11133828 0.011592987
0.021225769 -0.12550719 -0.00097222114
0.019638807 -0.14249171 -0.0098764077
0.019749148 -0.16584645 -0.0091510853
0.019605486 -0.18716173 -0.0098670134
0.019775722 -0.20866027 -0.0088022193
0.019804815 -0.22880277 -0.0085383384
0.019827412 -0.24817431 -0.0083114225
0.019673239 -0.2664279 -0.0090874825
0.019807268 -0.28484756 -0.0082285842
0.019907059 -0.30262288 -0.0075639975
0.019536449 -0.32746431 -0.0095190126
0.01959111 -0.34415948 -0.0091106091
0.019585064 -0.36043575 -0.0090466412
0.019512253 -0.37637252 -0.0093614832
0.019539187 -0.39220762 -0.0091104666
0.01931997 -0.40767688 -0.010255915
0.019368153 -0.42322969 -0.0098843798
0.01927132 -0.44631022 -0.010286427
0.019207694 -0.46166641 -0.010549162
0.019237129 -0.47702259 -0.010283942
0.019186396 -0.49242982 -0.010473493
0.019229552 -0.50786918 -0.010130373
0.019195037 -0.52346087 -0.010227842
0.019324178 -0.54696018 -0.0093476241
0.019024463 -0.56334692 -0.010949374
0.018831519 -0.57994986 -0.011945342
0.018747609 -0.59674567 -0.012322675
0.018610712 -0.61403632 -0.013000499
0.018266922 -0.63225406 -0.014851849
0.018945202 -0.65771836 -0.010855594
0.018758075 -0.67691201 -0.011817882
0.018252226 -0.69781655 -0.014587986
0.017908566 -0.71917284 -0.016437832
0.018435633 -0.74924266 -0.013298222
0.018785411 -0.77025765 -0.011213965
0.018327339 -0.79568148 -0.01371193
0.018086951 -0.82164586 -0.014974735
0.017677121 -0.85006213 -0.017198285
0.018538715 -0.88819569 -0.012158672
0.018498994 -0.91917592 -0.012281765
0.017815065 -0.95661098 -0.016058272
-0.15635917 -2.3159363 -1.0037384
-0.1562164 -2.4543571 -1.002804
-0.15692228 -2.6139312 -1.0066794
-0.15957358 -2.809149 -1.021584
-0.15324597 -3.0418794 -0.98549044
-0.15498169 -3.2880256 -0.99518812
-0.1562179 -3.5649526 -1.0020443
-0.15662003 -3.8759089 -1.0041602
-0.15770668 -4.2530279 -1.010144
-0.14564495 -4.7262917 -0.94145763
-0.070523143 -8.2135105 -0.51388496
-0.020845385 -8.0686445 -0.23195837
0.063775167 -10.626115 0.24897541
0.18978375 -10.93323 0.96421337
0.25145003 -10.796093 1.3141744
0.28311294 -10.798615 1.4937141
0.34782887 -10.845474 1.8609535
0.43809399 -10.644879 2.3731167
0.48717302 -8.9036484 2.6512868
0.40649524 -4.9091997 2.1928904
0.5976038 -6.1495957 3.2775621
0.60187924 -5.7344918 3.301791
0.60123968 -4.9566865 3.2981224
0.60615444 -4.6710334 3.3260093
0.60438758 -4.3595533 3.3159845
0.59939349 -4.0533853 3.2876527
0.59276199 -3.6495125 3.250046
0.61477673 -3.5653636 3.3749917
0.60828322 -3.3199356 3.3381691
0.60231781 -3.0957875 3.304348
0.59748131 -2.8930891 3.2769368
0.59808153 -2.7282901 3.2803779
0.59956145 -2.5756884 3.2888124
0.5780912 -2.340883 3.1670306
0.60445595 -2.2269762 3.3166864
0.59737188 -2.0676041 3.2765367
0.59302044 -1.9250982 3.2518938
0.58788639 -1.7871898 3.2228127
0.5872978 -1.6668432 3.2195227
0.58634847 -1.5494442 3.2141871
0.58524334 -1.4352151 3.207969
0.58572495 -1.2731942 3.2107813
0.5874688 -1.1697898 3.2207294
0.58975047 -1.0681289 3.2337291
0.54661351 -0.92093492 2.9890556
0.58881915 -0.86184633 3.2285583
0.58229995 -0.75695109 3.1916311
0.57789338 -0.65628183 3.1666903
0.57273436 -0.50957203 3.1375122
0.57133383 -0.41348073 3.1296275
0.15053432 -0.41598079 0.7426526
0.13877507 -0.41164258 0.67605698
0.13691197 -0.40924162 0.66552591
0.13571264 -0.40188134 0.65879869
0.13436508 -0.38623676 0.65130734
0.13428782 -0.38187283 0.65090734
0.13352811 -0.36036032 0.64678955
0.13430974 -0.35344726 0.65126199
0.13493709 -0.33628866 0.65493602
0.13474037 -0.32613781 0.65389705
0.1341608 -0.31131795 0.65072483
0.13378067 -0.30103722 0.64864552
0.13360149 -0.28951976 0.64770621
0.13481425 -0.27095452 0.65466303
0.13584323 -0.24417104 0.66061604
0.13511071 -0.23240165 0.65653813
0.13377947 -0.21517347 0.64910275
0.36259326 1.6693913 1.9473616
0.3359395 1.6862655 1.7962853
0.31838298 1.6916277 1.696775
0.30047265 1.6864829 1.5952581
0.28384957 1.6875182 1.5010439
0.26827687 1.6945107 1.4127887
0.24586824 1.603089 1.2857547
0.2267196 1.5343847 1.1772138
0.20709196 1.5489162 1.066
0.19377379 1.5493374 0.99053568
0.18105172 1.5575589 0.91845345
0.16831638 1.5621563 0.84629631
0.15554187 1.5611595 0.7739172
0.14308819 1.5664294 0.70335883
0.13039237 1.5552466 0.63142651
0.11175779 1.5376062 0.52584934
0.099600077 1.5340419 0.45697081
0.087464966 1.5420367 0.38822159
0.07528583 1.5425874 0.31922266
0.062819816 1.558617 0.24859802
0.05037063 1.5611395 0.17806835
0.037826497 1.5620998 0.1070005
0.018769145 1.5621079 -0.00096844061
0.011832638 1.4236032 -0.040240169
0.00082734018 1.3983567 -0.1025809
-0.0057851658 1.2968169 -0.1400122
0.059936251 -0.028646529 0.23288071
0.05731893 -0.03563948 0.21811397
0.053139552 -0.04360088 0.194527
0.05008027 -0.046800971 0.17725405
0.046916813 -0.049883612 0.15939032
0.043738786 -0.053734027 0.14144392
0.040238149 -0.055965863 0.121668
0.035152402 -0.062564895 0.092940949
0.031128803 -0.064092651 0.070199192
0.023064483 -0.07127925 0.024618369
0.023309004 -0.099008359 0.026081385
0.018874127 -0.1149227 0.0010451888
0.018052783 -0.13549463 -0.0035364034
0.016535159 -0.15252103 -0.012066714
0.016733848 -0.17574312 -0.010863509
0.016671538 -0.19694898 -0.01114046
0.016922995 -0.21830401 -0.0096379798
0.016718939 -0.23740713 -0.010718809
0.017124165 -0.25755364 -0.0083442619
0.017198814 -0.27608088 -0.0078445207
0.016917493 -0.29324526 -0.0093635926
0.017079106 -0.31094003 -0.0083707096
0.016627921 -0.3354362 -0.010815099
0.017256688 -0.34469172 -0.0072110393
0.016786927 -0.36832559 -0.0097609377
0.016938332 -0.38440439 -0.0088261552
0.016846964 -0.40002412 -0.0092682904
0.016679097 -0.4154762 -0.010144366
0.016778724 -0.43098485 -0.0095034521
0.016757896 -0.454016 -0.0095079141
0.016570995 -0.46935666 -0.010492281
0.01665079 -0.48470533 -0.0099641653
0.016650576 -0.50011313 -0.0098899538
0.016572041 -0.51566553 -0.01026007
0.016589498 -0.53129065 -0.010085898
0.016362857 -0.54735059 -0.011296301
0.01655264 -0.57126778 -0.010107684
0.01624866 -0.58819473 -0.01175718
0.016388364 -0.60475194 -0.010890407
0.016309911 -0.6220845 -0.011261186
0.016027635 -0.64036441 -0.012788258
0.015558048 -0.65975779 -0.015378018
0.016206872 -0.68640214 -0.01158788
0.015931988 -0.70699048 -0.013074058
0.01551776 -0.72898161 -0.015350993
0.015570071 -0.75033545 -0.014982054
0.016172893 -0.78201956 -0.011455112
0.01568542 -0.808294 -0.014149123
0.015293207 -0.83577901 -0.016303414
0.015272412 -0.86315495 -0.016351487
0.015117365 -0.89305937 -0.017161835
0.015454772 -0.938519 -0.015145523
0.015076169 -0.97563356 -0.017226335
-0.15674853 -2.3680482 -0.99191815
-0.15839455 -2.5267873 -1.0012262
-0.15963273 -2.6992781 -1.0082268
-0.15951572 -2.8789163 -1.0075454
-0.15351157 -3.1282046 -0.97346538
-0.15440366 -3.3791881 -0.97853279
-0.15591983 -3.6773822 -0.98715645
-0.15741329 -4.0267243 -0.99567026
-0.15738165 -4.4187474 -0.99555212
-0.15818265 -4.9088421 -1.0001915
-0.073127933 -8.2482119 -0.51869065
-0.0023468144 -8.3045263 -0.1172501
0.093039677 -10.745666 0.42286167
0.15566733 -10.789362 0.77802831
0.21882395 -10.820354 1.1361969
0.31110045 -10.688833 1.6595054
0.37457123 -10.698031 2.0194926
0.41366488 -4.8183761 2.2440045
0.57751966 -6.449584 3.1725953
0.57277989 -5.8887305 3.1460166
0.59743428 -5.4975457 3.2860937
0.61141974 -5.2437501 3.3655787
0.61314917 -4.9069066 3.3755982
0.60482186 -4.5228739 3.328609
0.60139596 -4.2133288 3.3093848
0.5693 -3.734921 3.1276522
0.59882587 -3.7009795 3.2951751
0.60960537 -3.4406514 3.3565259
0.60267407 -3.2025633 3.3173976
0.59941763 -3.0005612 3.2990935
0.59665382 -2.8140132 3.2835767
0.59740204 -2.654026 3.2879653
0.58901519 -2.4651179 3.2405643
0.59398639 -2.3384416 3.2688868
0.60054594 -2.1521158 3.3062813
0.59205532 -1.9925636 3.2582812
0.59007919 -1.8604599 3.2472107
0.58601362 -1.7281965 3.2242925
0.58418763 -1.6067915 3.2140698
0.58509409 -1.4952046 3.2193379
0.58228123 -1.3790919 3.2035172
0.58471447 -1.2220314 3.2175038
0.58629346 -1.1189283 3.2265828
0.57716733 -1.0048558 3.174962
0.54343265 -0.87351739 2.9838023
0.56597364 -0.79688692 3.1117389
0.57755685 -0.70635748 3.1775436
0.57386619 -0.60711884 3.15674
0.56963241 -0.4616259 3.1329174
0.56793094 -0.36586231 3.1233926
0.14821927 -0.41586399 0.74358237
0.13542922 -0.41261455 0.67117923
0.13390574 -0.40541464 0.66262537
0.13285302 -0.39798281 0.6567412
0.13219503 -0.38563392 0.6531387
0.13178667 -0.38188785 0.65086585
0.13130583 -0.36912403 0.64826798
0.13149875 -0.35915405 0.64944869
0.13157256 -0.3440679 0.64999729
0.13218702 -0.33172229 0.6535694
0.13238089 -0.32565117 0.65471256
0.1320852 -0.30969667 0.65316641
0.13140874 -0.3004759 0.64941674
0.13082391 -0.28434014 0.64623117
0.13330071 -0.25917229 0.66036993
0.13303061 -0.23795472 0.65897143
0.13212523 -0.22689061 0.6539247
0.13084202 -0.20898062 0.64677984
0.37135121 1.6794978 2.0116994
0.3511163 1.6763422 1.8970374
0.32403454 1.6847643 1.7435969
0.30687389 1.6904271 1.6463718
0.29001501 1.692746 1.5508567
0.27316758 1.6882688 1.4554032
0.25838563 1.7025423 1.3716711
0.23020346 1.5215991 1.2118595
0.21748827 1.5389582 1.1398486
0.20409009 1.5422288 1.0639579
0.18484455 1.5552057 0.95495588
0.17207938 1.5611448 0.88265616
0.15915899 1.5585414 0.8094722
0.14664079 1.5631137 0.73857236
0.13368689 1.543296 0.66519016
0.12131304 1.5387119 0.59510452
0.10903829 1.530619 0.52557904
0.090883173 1.5343536 0.42275596
0.078783229 1.5311391 0.35422412
0.066478506 1.5454532 0.28453949
0.053858377 1.5641956 0.21306852
0.04132165 1.5664241 0.1420625
0.028804127 1.5631201 0.071162663
0.016483979 1.5513837 0.0013779756
0.0016914427 1.4528216 -0.082427174
-0.0070738145 1.3811563 -0.13208288
0.053838667 -0.043760579 0.2130442
0.050893188 -0.047072563 0.19642229
0.046422239 -0.052882593 0.17119001
0.04327774 -0.056242045 0.15343949
0.039814372 -0.057941522 0.1338816
0.036208086 -0.059755109 0.11351322
0.032116465 -0.059466843 0.090393715
0.027454587 -0.071096666 0.064075738
0.019292619 -0.078355528 0.017953375
0.014905998 -0.13304642 -0.0067020543
0.014019713 -0.16414629 -0.011620133
0.014871461 -0.17842449 -0.0067562801
0.014186622 -0.20763624 -0.010531204
0.014060905 -0.22736961 -0.011171914
0.014235741 -0.24727213 -0.010108417
0.014397999 -0.26640171 -0.0091158971
0.014375273 -0.28444603 -0.0091718314
0.014477116 -0.30225325 -0.0085212952
0.014535415 -0.3194865 -0.0081174234
0.014374821 -0.33594334 -0.0089544468
0.014488856 -0.35252687 -0.0082342494
0.014263532 -0.37634152 -0.0094011771
0.014122921 -0.39201948 -0.010124605
0.014251476 -0.40776625 -0.009321752
0.014304272 -0.42328364 -0.0089484146
0.014105049 -0.43860403 -0.010004119
0.014172445 -0.4539699 -0.0095479814
0.014013984 -0.4769868 -0.010335659
0.014140428 -0.49232355 -0.0095447479
0.014014325 -0.50783193 -0.010186066
0.01398378 -0.5234229 -0.010285586
0.013878632 -0.53925043 -0.01080831
0.013703107 -0.55539751 -0.011730329
0.013799509 -0.57146156 -0.011110335
0.013720565 -0.59641188 -0.011448523
0.013750111 -0.61334294 -0.011208204
0.013568432 -0.63113588 -0.012166167
0.013190974 -0.64995992 -0.014234923
0.013107412 -0.66871011 -0.014637101
0.013542674 -0.6963625 -0.012061182
0.013194729 -0.71762633 -0.013964063
0.012718921 -0.74036354 -0.016592858
0.013003178 -0.76135308 -0.014910676
0.013456634 -0.79442894 -0.012234857
0.013483753 -0.81907892 -0.01201295
0.013063704 -0.84738725 -0.014328861
0.012769706 -0.87696123 -0.015930736
0.012375413 -0.90922242 -0.018102899
0.013278744 -0.95284218 -0.012882301
-0.16511516 -2.2770162 -1.0251095
-0.1584799 -2.4323683 -0.98745
-0.15997867 -2.5972028 -0.99596155
-0.16086887 -2.7750766 -1.0010297
-0.16171217 -2.9739404 -1.0058441
-0.16320139 -3.2058012 -1.0143404
-0.15662062 -3.5095131 -0.97707617
-0.15657619 -3.8094754 -0.97691542
-0.15833171 -4.1903186 -0.98700815
-0.15867937 -4.6247158 -0.98914862
-0.050536133 -8.189044 -0.37745318
-0.0037706043 -8.224658 -0.11220861
0.059954394 -10.607079 0.24788661
0.12194113 -10.764062 0.59937245
0.18416592 -10.731546 0.95231801
0.24694739 -10.746364 1.3083928
0.27920532 -10.78877 1.4911896
0.34337097 -10.814918 1.855203
0.41195151 -10.953817 2.2441881
0.40353674 -4.9307032 2.2006791
0.57901353 -6.2346597 3.1953292
0.5874784 -5.8494544 3.2436581
0.59955031 -5.544414 3.3123953
0.57788879 -4.9589076 3.1899719
0.61187088 -4.7548909 3.3829556
0.60345262 -4.3870082 3.3355105
0.60251707 -4.1080837 3.3304515
0.57457781 -3.6737549 3.1723263
0.60723108 -3.6577332 3.3576138
0.59800422 -3.3891387 3.3055186
0.59088892 -3.1535637 3.2653794
0.59599847 -2.9088106 3.2946174
0.59680718 -2.7439766 3.299376
0.59751695 -2.5871518 3.3035676
0.57219094 -2.3366902 3.1601493
0.59944057 -2.2968328 3.3147926
0.59037215 -2.1272213 3.2635312
0.58464843 -1.9781141 3.2312264
0.58701354 -1.7980416 3.2448487
0.58391541 -1.670645 3.2274203
0.58167678 -1.5500866 3.2148612
0.58236814 -1.4394052 3.2189121
0.58132833 -1.328022 3.2131448
0.58055425 -1.2198063 3.2088811
0.58347499 -1.1188086 3.2255666
0.54170591 -0.92119259 2.9888933
0.58701748 -0.86463541 3.2459545
0.57791007 -0.75754374 3.1944253
0.57574779 -0.65767455 3.1822777
0.56967765 -0.55836481 3.1479673
0.56647873 -0.46172819 3.1299367
0.14574492 -0.42154649 0.74429345
0.13230674 -0.41317341 0.66825277
0.13095671 -0.40585086 0.66068041
0.12965117 -0.39000762 0.65344375
0.12892245 -0.37784377 0.64943624
0.12885869 -0.36873639 0.64915788
0.12888205 -0.35429394 0.64941519
0.12951642 -0.33722937 0.65313751
0.12947512 -0.32663941 0.65298617
0.12920681 -0.31644163 0.65154713
0.12929554 -0.30450642 0.65213305
0.12858516 -0.29529634 0.64818662
0.12969634 -0.27095595 0.65461212
0.13072483 -0.24417301 0.6605683
0.12986672 -0.23309776 0.65578336
0.12916614 -0.22066148 0.65189177
0.1298746 -0.19856733 0.6559912
0.35909072 1.6813885 1.9561852
0.33835196 1.669763 1.8386401
0.3204855 1.6745445 1.7373842
0.30252382 1.6713361 1.635588
0.28046295 1.7061392 1.5105772
0.2636739 1.6998684 1.4154304
0.24835257 1.7051965 1.3286068
0.2219785 1.5389972 1.1791074
0.2081777 1.5381095 1.100908
0.19495839 1.5417994 1.0260059
0.18211107 1.5484358 0.95321292
0.16950911 1.557242 0.88181108
0.15048982 1.561147 0.77404857
0.13781901 1.5575118 0.70225662
0.12470469 1.5204408 0.62795264
0.11279258 1.53748 0.56046134
0.10058399 1.5301508 0.49129093
0.088494368 1.5383681 0.42279333
0.070237152 1.5426224 0.31935114
0.057773009 1.5586594 0.24872778
0.045198336 1.567144 0.17747828
0.032755129 1.5631444 0.10697605
0.019877598 1.5693737 0.034008846
0.011462448 1.4578985 -0.013630819
0.004309895 1.3456388 -0.054108117
0.052947029 -0.044581939 0.22241195
0.050019562 -0.04751908 0.20588878
0.04708514 -0.051124617 0.18932633
0.043964379 -0.053708598 0.17170689
0.039300837 -0.0594147 0.14537801
0.035938628 -0.062299572 0.12638934
0.032115981 -0.062940277 0.10478873
0.02846688 -0.066147253 0.084173076
0.018177066 -0.072603144 0.026014684
0.017653471 -0.096266337 0.023131387
0.012143046 -0.094578207 -0.0080419062
0.0057095154 -0.090979658 -0.044451199
0.01206559 -0.14361796 -0.0083067566
0.012328573 -0.16747434 -0.0067276992
0.012196559 -0.18870133 -0.0073893592
0.011164137 -0.21629567 -0.013115008
0.011957653 -0.22875167 -0.0085700816
0.011338892 -0.2557942 -0.011948968
0.011721093 -0.27523065 -0.0096935183
0.011757274 -0.29317641 -0.009400771
0.012080809 -0.31119692 -0.0074779922
0.011864181 -0.32770306 -0.0086190514
0.011754344 -0.34410536 -0.0091542192
0.011749795 -0.36038119 -0.0090920459
0.011594734 -0.38416195 -0.0098392852
0.011672021 -0.39995533 -0.0093125375
