# .PCD v0.7 - Point Cloud Data file format
VERSION 0.7
FIELDS x y z
SIZE 4 4 4
TYPE F F F
COUNT 1 1 1
WIDTH 1374
HEIGHT 1
VIEWPOINT 0 0 0 1 0 0 0
POINTS 1374
DATA ascii
0.33130872 -3.6720853 3.1709476
0.36572596 -3.6663418 3.3655634
0.35867301 -3.4094808 3.325583
0.35132667 -3.1711352 3.2839577
0.34804443 -2.9709837 3.2653327
0.34878662 -2.8026321 3.2694788
0.34936297 -2.6425402 3.2726932
0.32950953 -2.4082842 3.1603739
0.35633942 -2.2950883 3.3120558
0.35209435 -2.1415701 3.2880211
0.34539324 -1.9882942 3.2501035
0.34310055 -1.8555954 3.237119
0.33981705 -1.7257148 3.2185361
0.33686641 -1.6018821 3.2018387
0.33646184 -1.4879842 3.1995397
0.33715135 -1.3249587 3.2034233
0.33924052 -1.22148 3.2152262
0.34118354 -1.1188964 3.226203
0.31991339 -0.99127734 3.1059542
0.29978946 -0.87489343 2.9921925
0.33954424 -0.81002045 3.2169168
0.33459374 -0.70737731 3.1889281
0.33004925 -0.6074605 3.1632357
0.32506698 -0.50968361 3.1350703
0.32328117 -0.36577129 3.1249702
-0.098639503 -0.41622084 0.74050218
-0.099319942 -0.39957836 0.7367608
-0.098894313 -0.3873575 0.73923504
-0.1100443 -0.37784705 0.67640394
-0.11265116 -0.36344349 0.66181535
-0.11312284 -0.35960954 0.65918559
-0.11448973 -0.34309864 0.65160334
-0.11455478 -0.33811912 0.65127081
-0.11530697 -0.32458988 0.64712578
-0.11529247 -0.3190417 0.64724219
-0.11595186 -0.30442992 0.64362049
-0.11624786 -0.29368338 0.64201665
-0.08091931 -0.035916243 0.84177077
-0.083564103 -0.021319356 0.82688648
-0.11184048 -0.11937594 0.66743273
-0.10886194 -0.052319378 0.68432087
-0.1106719 -0.036435306 0.67415363
-0.11185795 -0.012910133 0.66750526
-0.11240584 0.020444613 0.6644541
-0.11332723 0.078315675 0.65930659
-0.027520288 1.5483956 1.1430007
-0.041069549 1.5508311 1.066489
-0.054347541 1.5532025 0.99151045
-0.067260966 1.5585562 0.91858953
-0.080080181 1.5621905 0.84620273
-0.093323417 1.5474138 0.77143782
-0.11178493 1.5612193 0.66718608
-0.12419841 1.563677 0.59709364
-0.13663588 1.5586438 0.52687323
-0.1489426 1.5611113 0.45738411
-0.16131157 1.5801119 0.38752627
-0.17347556 1.5486674 0.31887862
-0.18562551 1.5387884 0.25028834
-0.19797285 1.5403987 0.18057044
-0.17128429 0.0056813178 0.33316338
-0.17327192 -0.019208366 0.32203302
-0.17533657 -0.036564093 0.31045973
-0.17629908 -0.071398534 0.30513442
-0.17833419 -0.081471428 0.29372057
-0.18140037 -0.094403669 0.27652135
-0.18341991 -0.10254413 0.26519364
-0.18537228 -0.11103685 0.25424606
-0.18733726 -0.11898182 0.2432266
-0.18932913 -0.12641266 0.23205471
-0.19117732 -0.13506497 0.22169626
-0.19296166 -0.14404109 0.21169913
-0.19488494 -0.1517079 0.20091532
-0.19822714 -0.16002697 0.1821516
-0.20096342 -0.16269323 0.16676719
-0.20526084 -0.15658176 0.14254931
-0.23115638 -0.043361798 -0.0038237523
-0.23108327 -0.07211154 -0.0033006114
-0.2314222 -0.097084284 -0.0051103244
-0.2324429 -0.12994348 -0.010725412
-0.23147643 -0.14590293 -0.0052057165
-0.23252428 -0.17560682 -0.010977302
-0.23244245 -0.1973272 -0.010411868
-0.23203982 -0.21913646 -0.0080328584
-0.23193306 -0.23908539 -0.007328134
-0.23230959 -0.25699273 -0.0093573043
-0.23192106 -0.27633297 -0.0070603555
-0.23204261 -0.29382268 -0.0076485258
-0.23204528 -0.31112579 -0.0075647864
-0.23193143 -0.32821622 -0.006822696
-0.2318719 -0.34480977 -0.0063880449
-0.23187385 -0.36098343 -0.0063012727
-0.23177242 -0.3770076 -0.005630156
-0.23212034 -0.4001596 -0.0074508693
-0.23211804 -0.41564634 -0.0073405509
-0.23219432 -0.43098035 -0.0076743835
-0.23217703 -0.44628203 -0.0074793003
-0.23224084 -0.46153247 -0.0077425456
-0.23221192 -0.47678298 -0.0074815662
-0.23243792 -0.49215427 -0.0086612729
-0.23242629 -0.51527464 -0.0084486473
-0.2324148 -0.53083014 -0.0082854787
-0.23247772 -0.54662985 -0.0085425926
-0.23261061 -0.56275636 -0.0091945883
-0.23280789 -0.57929033 -0.010209947
-0.23306286 -0.59631032 -0.011550779
-0.23287342 -0.61291564 -0.010380062
-0.23286913 -0.63908905 -0.010204084
-0.2328753 -0.65716529 -0.010136921
-0.23306702 -0.6763261 -0.011117093
-0.23342523 -0.69672871 -0.01303669
-0.23377785 -0.71802264 -0.014923528
-0.23425907 -0.74078923 -0.017535256
-0.23306124 -0.76953208 -0.010608825
-0.23324876 -0.79372269 -0.011558335
-0.23404627 -0.82212037 -0.015950428
-0.23275289 -0.85563749 -0.0084772892
-0.23308866 -0.88595504 -0.010256621
-0.23350902 -0.91901803 -0.01251057
-0.23478459 -0.96016681 -0.019588025
-0.40885654 -2.3124485 -1.0016296
-0.40845287 -2.4483559 -0.99909174
-0.40971681 -2.6119313 -1.0059441
-0.41104043 -2.7943861 -1.0131087
-0.38150311 -2.7852864 -0.84603733
-0.3630603 -2.7816131 -0.74171162
-0.34449667 -2.7679958 -0.63671559
-0.32812944 -2.7737598 -0.54410958
-0.3106066 -2.7562025 -0.44500139
-0.29521719 -2.7628629 -0.35792086
-0.15032248 -2.7632117 0.46193334
-0.1364454 -2.7494318 0.54043931
-0.12242793 -2.7528293 0.61976153
-0.11534091 -2.7549546 0.65972102
-0.10138164 -2.7471359 0.73866349
-0.086985581 -2.75227 0.82009155
0.23305231 -8.8557291 2.6365914
0.16919161 -4.8848143 2.2709272
0.33334577 -6.5133209 3.2007046
0.34255943 -6.1028728 3.2523282
0.34126016 -5.6326613 3.2444704
0.37208289 -5.3314238 3.418395
0.36394513 -4.9030795 3.3719523
0.36058956 -4.5579762 3.3526416
0.36109656 -4.2743196 3.3552384
0.33477169 -3.8309681 3.2060037
0.34693408 -3.6789873 3.274637
0.35398981 -3.5032873 3.3143835
0.34877267 -3.2690291 3.2847011
0.34433156 -3.0561309 3.2594321
0.35202625 -2.8306789 3.302783
0.35083538 -2.6609483 3.2959406
0.35420766 -2.5187635 3.314923
0.3383778 -2.3104124 3.2253017
0.35111186 -2.216136 3.2972565
0.34350619 -2.0559652 3.2541773
0.3398675 -1.9164941 3.2335453
0.33720955 -1.7859697 3.2184684
0.33666369 -1.6078279 3.2153261
0.33793399 -1.4968601 3.2224796
0.33581305 -1.3818493 3.2104621
0.3355847 -1.2733821 3.2091513
0.33667237 -1.1690441 3.2152858
0.33215535 -1.0592335 3.1897361
0.29535455 -0.92013514 2.9816694
0.33977789 -0.86300552 3.23282
0.33338562 -0.70838064 3.1966817
0.31458181 -0.60387856 3.0903854
0.32578161 -0.5103119 3.1537068
0.321253 -0.41393659 3.1281173
0.31945148 -0.31844172 3.1179466
-0.1010038 -0.41609213 0.74140871
-0.10184519 -0.41107285 0.73668802
-0.1012077 -0.39299095 0.74039716
-0.10167149 -0.38176736 0.73784643
-0.1116586 -0.38119256 0.68150693
-0.11439943 -0.36662561 0.66616106
-0.11549709 -0.35922089 0.66003019
-0.116664 -0.34717691 0.6535446
-0.11708976 -0.33812058 0.65121144
-0.11757625 -0.32909137 0.64853513
-0.11797585 -0.31957284 0.64634991
-0.11815412 -0.30893153 0.64541554
-0.11892376 -0.29428622 0.64117587
-0.11889413 -0.2816053 0.64141625
-0.084790349 -0.028572401 0.8343671
-0.086780667 -0.0097816233 0.8231895
-0.10985553 -0.11014508 0.69295388
-0.10959052 -0.052053742 0.69459051
-0.11184601 -0.040116929 0.68191695
-0.11331671 -0.019922977 0.67367697
-0.11560418 0.01331197 0.66085619
-0.11602528 0.052282162 0.65854377
-0.023588898 1.5436723 1.1807497
-0.036841825 1.5532508 1.105924
-0.050301775 1.5552067 1.0299305
-0.063591793 1.5552222 0.95489776
-0.082639024 1.56706 0.84736353
-0.095336623 1.5710337 0.77567804
-0.10837965 1.556566 0.70204473
-0.12076787 1.5612655 0.63210732
-0.13323848 1.5564885 0.56170636
-0.14566714 1.5392056 0.49154526
-0.15785298 1.5594332 0.42274699
-0.17012556 1.5532136 0.3534646
-0.18838044 1.5388128 0.25041169
-0.2006662 1.5374502 0.18105231
-0.17394975 0.0086430293 0.33257341
-0.17595205 -0.016268028 0.32133958
-0.17803209 -0.033648696 0.3096644
-0.17971982 -0.055123243 0.30020732
-0.18105851 -0.078616932 0.29272342
-0.18295014 -0.08998578 0.28211123
-0.18493606 -0.098870642 0.27096534
-0.18691811 -0.10718196 0.25984108
-0.18891102 -0.11494552 0.24865498
-0.19092919 -0.12219331 0.23732588
-0.19280709 -0.13067803 0.22678959
-0.19452712 -0.14033276 0.21714583
-0.19647187 -0.14780714 0.20623106
-0.19962244 -0.1573682 0.18853855
-0.20235594 -0.15971711 0.17316364
-0.20592585 -0.15759006 0.15305953
-0.23340365 -0.030182471 -0.002176991
-0.23466583 -0.066729926 -0.0091931587
-0.23503228 -0.091913968 -0.011185665
-0.23477623 -0.11859371 -0.0096592931
-0.2347149 -0.14293772 -0.0092343437
-0.23474202 -0.1657044 -0.0093098963
-0.23443992 -0.18860935 -0.0075245951
-0.23455819 -0.20901781 -0.0081162881
-0.23452279 -0.22912954 -0.0078396006
-0.23433751 -0.24890821 -0.0067158593
-0.23432456 -0.26750496 -0.0065668463
-0.234341 -0.28545338 -0.0065843575
-0.23423304 -0.30316335 -0.0058987988
-0.23400359 -0.32060722 -0.0045267222
-0.23470014 -0.34427366 -0.0083534485
-0.23437572 -0.35289603 -0.0064820987
-0.2344272 -0.37679991 -0.0066625378
-0.23473725 -0.39221856 -0.008342227
-0.23460677 -0.40789673 -0.0075315502
-0.23455262 -0.42334521 -0.0071527436
-0.23457764 -0.4386487 -0.0072218152
-0.23468348 -0.45389289 -0.0077483109
-0.23466831 -0.47677085 -0.0075551909
-0.234716 -0.49207321 -0.0077537214
-0.23467006 -0.50740802 -0.0074232775
-0.23487505 -0.52303451 -0.008512171
-0.23515354 -0.53896707 -0.010017074
-0.23498964 -0.55466461 -0.0090208538
-0.23523454 -0.57111079 -0.010336833
-0.23498233 -0.59542674 -0.0088079898
-0.23495775 -0.61225873 -0.0086013451
-0.23514557 -0.62995362 -0.0095963683
-0.23553027 -0.64868075 -0.011705584
-0.23577859 -0.66775823 -0.013044172
-0.23588674 -0.68715382 -0.013590746
-0.2352507 -0.71502119 -0.0098971138
-0.23574264 -0.73760891 -0.012616565
-0.23561752 -0.75901181 -0.011846755
-0.23602819 -0.78362733 -0.014108768
-0.23516914 -0.81645852 -0.009159741
-0.2354735 -0.84400415 -0.010823491
-0.23540552 -0.87140292 -0.010382427
-0.23595653 -0.90417045 -0.01344513
-0.23643599 -0.93909538 -0.016105201
-0.2351267 -0.98319876 -0.0086215921
-0.41157985 -2.387712 -1.0071599
-0.41279948 -2.5445061 -1.0141019
-0.40619776 -2.735024 -0.97681695
-0.40632632 -2.9235172 -0.9776181
-0.37700522 -2.8180144 -0.81169873
-0.35592103 -2.7821279 -0.69240081
-0.33724567 -2.7626755 -0.58673412
-0.30440867 -2.7580857 -0.40094608
-0.28247482 -2.7833998 -0.27685788
-0.15893865 -2.7675762 0.42216769
-0.14493415 -2.766181 0.50141549
-0.13095942 -2.7609806 0.5804987
-0.10989915 -2.7573683 0.69974232
-0.089191541 -2.7355444 0.8169924
0.1545859 -4.9169173 2.1943114
0.31742465 -6.0685983 3.1144266
0.33464321 -5.7914071 3.2121193
0.3473081 -4.9387746 3.2846661
0.35628134 -4.6879663 3.3357067
0.35246152 -4.3601007 3.3144619
0.35003701 -4.0725813 3.3010745
0.32739609 -3.676254 3.1734469
0.35741928 -3.6433604 3.3433504
0.34782511 -3.3738327 3.2894006
0.35044742 -3.0976782 3.3045869
0.34824201 -2.9077804 3.2923567
0.3472549 -2.7349973 3.2870021
0.34945655 -2.5850599 3.2996616
0.32201636 -2.3268681 3.1447759
0.35311979 -2.3013372 3.3207824
0.34208381 -2.1249809 3.2586
0.33755395 -1.9797812 3.233186
0.33850884 -1.7957673 3.2388644
0.33506098 -1.6677798 3.2195549
0.33344266 -1.5489146 3.2105846
0.33263987 -1.4354352 3.2062216
0.33106741 -1.3236068 3.1975045
0.33295006 -1.2200724 3.2083204
0.33570316 -1.1188533 3.224057
0.29201496 -0.96626854 2.9771924
0.3382023 -0.86393642 3.2386079
0.33356112 -0.75980443 3.2125287
0.32792237 -0.65787637 3.1808057
0.32356912 -0.55894941 3.1563504
0.31931096 -0.46199715 3.1324308
0.31777546 -0.36619896 3.1239078
-0.10237791 -0.42103252 0.74794465
-0.10422318 -0.41092852 0.73759967
-0.10441011 -0.39960021 0.73663419
-0.10398851 -0.38737968 0.73911095
-0.11556989 -0.37369904 0.67387223
-0.11758509 -0.36307889 0.66260773
-0.11854325 -0.35544115 0.65727752
-0.11891627 -0.34630737 0.6552577
-0.1197421 -0.33312351 0.65072143
-0.12026449 -0.32408231 0.64785677
-0.12055598 -0.31399992 0.64629865
-0.12127438 -0.29936752 0.64237088
-0.12202503 -0.29044151 0.63821512
-0.085880972 -0.03453986 0.84311295
-0.088418938 -0.019160829 0.82885373
-0.10998249 -0.048754759 0.7072078
-0.11301118 -0.043107517 0.69016558
-0.11613004 -0.021659847 0.67266655
-0.1173759 0.0028310779 0.66572142
-0.11810487 0.036333397 0.66170627
-0.11742291 0.092922874 0.66568804
-0.033495985 1.5436127 1.1415987
-0.046849411 1.5488564 1.0661623
-0.066339768 1.5590609 0.95606196
-0.079199858 1.5640736 0.8834151
-0.091938667 1.5683775 0.81145346
-0.10503686 1.5552468 0.73744613
-0.11746792 1.5592251 0.66722441
-0.1298639 1.5616866 0.59719986
-0.14218251 1.567645 0.52761525
-0.1607199 1.5674512 0.42289498
-0.17291489 1.5422444 0.35398608
-0.18513371 1.5415888 0.28496048
-0.19763331 1.5533968 0.21435598
-0.17516166 0.011177745 0.34047407
-0.17724107 -0.013535524 0.32877734
-0.17937642 -0.030712884 0.31676981
-0.18142006 -0.04625627 0.30528226
-0.18238211 -0.078243993 0.29989973
-0.18447344 -0.086579464 0.28814775
-0.1865554 -0.094349064 0.27644905
-0.18850118 -0.10340125 0.26551977
-0.19166823 -0.11312293 0.24772373
-0.19361131 -0.12127656 0.23681024
-0.19455998 -0.12548436 0.23148273
-0.19731174 -0.13860992 0.21603294
-0.19906551 -0.14776017 0.20618947
-0.20117213 -0.15401758 0.19435236
-0.20368753 -0.15762448 0.1802052
-0.20689309 -0.15733601 0.16215746
-0.23705894 -0.053608645 -0.0081341583
-0.23726909 -0.080272391 -0.009260118
-0.23698001 -0.10776428 -0.0075631328
-0.23673126 -0.13345273 -0.0060928557
-0.23683658 -0.15629841 -0.0066230414
-0.23705103 -0.17768313 -0.0077693164
-0.23695073 -0.1992851 -0.0071356054
-0.23698744 -0.21951874 -0.0072758463
-0.23702788 -0.23898262 -0.0074365269
-0.23676826 -0.25858083 -0.0059001385
-0.23668565 -0.2770119 -0.0053640353
-0.23730063 -0.30205372 -0.0087370826
-0.23724228 -0.31928664 -0.0083373245
-0.23706864 -0.33629462 -0.0072852043
-0.23712026 -0.35256836 -0.0075066094
-0.23706754 -0.36870393 -0.0071377172
-0.23708364 -0.38450569 -0.007157926
-0.23717333 -0.40005565 -0.0075940639
-0.23716702 -0.41554227 -0.0074871196
-0.23723926 -0.43087614 -0.0078243073
-0.23721798 -0.44617769 -0.0076325662
-0.23727287 -0.46905434 -0.0078358548
-0.2373675 -0.48434994 -0.0082995323
-0.23736872 -0.49968743 -0.0082349209
-0.23744892 -0.51516962 -0.0086170826
-0.2374333 -0.530725 -0.0084573394
-0.23766287 -0.54671514 -0.0096846139
-0.23747692 -0.57052946 -0.0085259546
-0.23761776 -0.58711243 -0.0092517883
-0.23814556 -0.60480416 -0.01216691
-0.23789538 -0.62148535 -0.010681099
-0.23818091 -0.63973159 -0.012226186
-0.23801833 -0.6574654 -0.011236499
-0.23769823 -0.68478107 -0.0093211355
-0.23813501 -0.70576042 -0.011723536
-0.23825838 -0.72666007 -0.012353138
-0.23880316 -0.7500726 -0.015367942
-0.23805869 -0.78116918 -0.011054639
-0.23800291 -0.80495244 -0.010672831
-0.23828241 -0.83165789 -0.012189263
-0.2385864 -0.86021286 -0.013845303
-0.23900934 -0.8914032 -0.016175946
-0.23832889 -0.93459547 -0.01223245
-0.23838912 -0.96932834 -0.012513772
-0.41008902 -2.3563039 -0.98442328
-0.41110954 -2.5090187 -0.99021423
-0.41103548 -2.6685181 -0.98981816
-0.41173151 -2.8534882 -0.99379444
-0.3850778 -2.7780418 -0.84290463
-0.36566395 -2.7626734 -0.73300391
-0.34811321 -2.7596262 -0.63364899
-0.3247194 -2.7810788 -0.50121897
-0.30738547 -2.7625985 -0.40307972
-0.29316631 -2.7875972 -0.32258648
-0.16871814 -2.7691574 0.38204432
-0.15473929 -2.7591815 0.46120292
-0.14076222 -2.7603996 0.54034436
-0.12682331 -2.7548177 0.61927456
-0.11277708 -2.7533898 0.69880277
-0.098872751 -2.7431841 0.77754992
-0.084733784 -2.7390227 0.85762066
0.160915 -4.8289423 2.2463636
0.31894082 -6.3832474 3.1393564
0.3407062 -5.8907409 3.2629354
0.35892731 -5.2496467 3.366607
0.36069298 -4.912694 3.3769047
0.34869289 -4.4993968 3.3093815
0.34715223 -4.2054529 3.3009472
0.31392503 -3.7203329 3.1133924
0.34552491 -3.7002852 3.292249
0.35508609 -3.4329791 3.346642
0.34949014 -3.2026854 3.3152249
0.34359482 -2.9875789 3.2821043
0.34263805 -2.8104026 3.276895
0.34461427 -2.6560297 3.2882621
0.33978191 -2.4813967 3.2611272
0.33770192 -2.3272502 3.2495484
0.34198937 -2.2027297 3.2739694
0.3402113 -1.9971187 3.2641742
0.33528048 -1.8564297 3.2364588
0.33372313 -1.7310203 3.2278161
0.33013031 -1.6053293 3.207659
0.3297182 -1.4912025 3.205487
0.3303495 -1.3820438 3.2092135
0.32925639 -1.2722319 3.2031853
0.33304611 -1.1195016 3.2248476
0.31825945 -0.99914026 3.1413641
0.29042909 -0.87439376 2.984098
0.33255115 -0.8115809 3.2224956
0.32741386 -0.70863283 3.1935837
0.32268059 -0.60848081 3.1669552
0.3183791 -0.51062632 3.1427672
0.31644496 -0.41437474 3.1319692
-0.10641109 -0.41624388 0.74029762
-0.10707971 -0.4053511 0.73660851
-0.10684415 -0.38760474 0.73808128
-0.1053964 -0.37960491 0.74631864
-0.11715866 -0.37661442 0.67995822
-0.11980645 -0.3669799 0.66511589
-0.12074353 -0.35921568 0.65990603
-0.12160081 -0.34629396 0.65519369
-0.12257882 -0.33359393 0.6497981
-0.12268012 -0.32858345 0.64927101
-0.12293773 -0.31850475 0.64790571
-0.12360638 -0.30384809 0.64426076
-0.1245719 -0.28981012 0.63893604
-0.090973906 -0.018445676 0.82951319
-0.09304063 0.00024016347 0.81791675
-0.11502062 -0.03723127 0.69390482
-0.11737437 -0.025295706 0.68068111
-0.11897112 -0.005039176 0.67174315
-0.12004852 0.023119081 0.66574657
-0.12023953 0.065883033 0.66477025
-0.029541789 1.5370233 1.1786443
-0.049193002 1.5526048 1.0676053
-0.062473342 1.5550209 0.99255991
-0.075432152 1.559446 0.91933399
-0.088284731 1.5621336 0.846708
-0.10075989 1.5719998 0.77621973
-0.113578 1.5664672 0.70378476
-0.12607008 1.568243 0.63319689
-0.1448251 1.5556946 0.52721292
-0.1570745 1.5681791 0.45800141
-0.16941938 1.5672053 0.38824421
-0.18156229 1.543788 0.31962067
-0.19370121 1.535936 0.2510255
-0.17651813 0.0175591 0.34783041
-0.1786713 -0.0079531744 0.33572531
-0.18084474 -0.025916647 0.32350844
-0.18304455 -0.039345529 0.31114408
-0.18423791 -0.069367334 0.30446759
-0.18616886 -0.08134938 0.29362494
-0.18822967 -0.089878149 0.28204894
-0.19021484 -0.098759688 0.27090058
-0.19226977 -0.1061612 0.25935823
-0.19434656 -0.11304549 0.2476923
-0.19741367 -0.12367202 0.23046529
-0.19918324 -0.1332231 0.22053657
-0.20087841 -0.14306325 0.21102862
-0.20290704 -0.14993738 0.19963515
-0.205219 -0.15486729 0.18663947
-0.20807783 -0.15651117 0.17055085
-0.2390926 -0.042448681 -0.0046222294
-0.23953687 -0.068546422 -0.0070589581
-0.23922528 -0.096865661 -0.005219894
-0.23948832 -0.1208643 -0.0066303993
-0.23955427 -0.14450811 -0.0069255512
-0.23957211 -0.16718826 -0.006948025
-0.23940915 -0.18947493 -0.0059474809
-0.2402826 -0.21746148 -0.010769275
-0.239329 -0.23034255 -0.0053352551
-0.23993295 -0.25719574 -0.0086317249
-0.23986027 -0.27572268 -0.0081401588
-0.23998187 -0.29324454 -0.008747506
-0.23965539 -0.31123236 -0.0068197255
-0.23970419 -0.32799709 -0.0070147058
-0.23964277 -0.34459078 -0.0065859552
-0.23964284 -0.36076447 -0.0065049436
-0.23953965 -0.37678888 -0.0058395164
-0.23985071 -0.39217195 -0.0075175343
-0.2397218 -0.40781507 -0.0067063603
-0.23978145 -0.43083113 -0.0069207316
-0.2399361 -0.44606271 -0.0077133933
-0.23982409 -0.46131349 -0.0069973334
-0.23996753 -0.47656366 -0.0077265222
-0.24001795 -0.49186525 -0.0079293512
-0.24014799 -0.50730354 -0.0085825929
-0.24018274 -0.52282488 -0.0086965412
-0.23988342 -0.54602939 -0.0068790126
-0.24018642 -0.56231195 -0.0085106418
-0.24021488 -0.57855332 -0.0085889138
-0.2404709 -0.59550577 -0.0099547654
-0.24061257 -0.61269546 -0.010673569
-0.2402823 -0.63812047 -0.0086805131
-0.24044995 -0.65653878 -0.0095463777
-0.24064158 -0.67566764 -0.010547892
-0.2408458 -0.69556946 -0.011620768
-0.24150258 -0.71780097 -0.015254569
-0.24124208 -0.73791891 -0.01369786
-0.24049462 -0.76816535 -0.0093442788
-0.24082467 -0.79290068 -0.011129525
-0.24107978 -0.81875342 -0.012490776
-0.24137414 -0.84640479 -0.014074284
-0.24167779 -0.87595183 -0.015710652
-0.24084233 -0.9166401 -0.010859985
-0.24119139 -0.95177221 -0.012753814
-0.41446027 -2.4381123 -0.99311894
-0.41575232 -2.6014452 -1.0003674
-0.4156256 -2.7701042 -0.99958813
-0.3964158 -2.7688723 -0.89080548
-0.37843272 -2.7725139 -0.78896415
-0.35196084 -2.7702925 -0.63904464
-0.33586547 -2.7798104 -0.54788417
-0.30342147 -2.777657 -0.36412573
-0.16476215 -2.7654767 0.42132872
-0.15082134 -2.7581117 0.500305
-0.13676484 -2.7649224 0.57993454
-0.12275684 -2.7609167 0.65930879
-0.10888115 -2.7491364 0.73791456
-0.094856277 -2.7424679 0.81736434
0.22615169 -8.8563643 2.633471
0.14986038 -4.941504 2.2024677
0.32820037 -6.0270729 3.2117829
0.33832785 -5.6824956 3.2692177
0.34105012 -4.9421148 3.2848752
0.34927988 -4.6847076 3.3315609
0.34329852 -4.3401604 3.2978351
0.35028321 -3.992738 3.3375268
0.34136784 -3.6954641 3.2871919
0.35403615 -3.5523832 3.3589821
0.34769744 -3.3088195 3.3232219
0.33945081 -3.0737319 3.276664
0.33846608 -2.8912351 3.2711949
0.33768159 -2.7204137 3.2668576
0.3398174 -2.5711761 3.2790437
0.31855544 -2.3377106 3.1588302
0.34748161 -2.2330005 3.3226588
0.33919469 -2.0694537 3.2758629
0.33251414 -1.9200885 3.2381558
0.33206466 -1.795295 3.2357073
0.32639247 -1.6619202 3.2037041
0.3255702 -1.5453954 3.1991441
0.32607973 -1.4349154 3.2021201
0.32755738 -1.2748029 3.2106192
0.32947925 -1.1716132 3.2215858
0.33075145 -1.0686418 3.2288752
0.28802466 -0.92197543 2.9871812
0.3318848 -0.86430788 3.2354672
0.32691744 -0.76006091 3.2074461
0.3067168 -0.65239805 3.0932214
0.31696442 -0.55953526 3.151298
0.31351981 -0.41472322 3.1319349
0.31136495 -0.31919059 3.1198266
-0.10835034 -0.42141497 0.74487466
-0.1096745 -0.41094387 0.73746479
-0.10887138 -0.39260453 0.74213445
-0.10967658 -0.38179514 0.73766112
-0.12100779 -0.37369627 0.67374688
-0.12125771 -0.36412317 0.67241555
-0.12285849 -0.36269894 0.6633985
-0.12434718 -0.34629995 0.65513986
-0.12493274 -0.33764976 0.65190905
-0.12501784 -0.33263078 0.65146875
-0.12554127 -0.32355878 0.64858937
-0.12615255 -0.30892801 0.64525396
-0.1265543 -0.29877034 0.64306289
-0.091981471 -0.023604428 0.83910364
-0.094583355 -0.0083572688 0.82446033
-0.096833117 0.0094475318 0.81180936
-0.11516822 -0.031350009 0.70830005
-0.11856388 -0.028258907 0.68916547
-0.12054111 -0.012139107 0.67805636
-0.12175786 0.013422593 0.67124957
-0.12402914 0.052279159 0.65851408
-0.12337591 0.11187515 0.66228491
-0.044826832 1.5540285 1.1067734
-0.058172729 1.557935 1.0313224
-0.071507774 1.5570408 0.95593321
-0.084424905 1.5601093 0.88290823
-0.097063869 1.5663679 0.81145668
-0.11011662 1.554234 0.73766589
-0.12871563 1.5602766 0.63252217
-0.14106566 1.563503 0.5627051
-0.15358281 1.5362649 0.49194714
-0.1657322 1.5635166 0.42326075
-0.17795333 1.5473261 0.35417572
-0.19009799 1.5387007 0.28552189
-0.17771232 0.018829454 0.35605833
-0.18000436 -0.004493427 0.34317273
-0.18228061 -0.021271477 0.33037519
-0.18449672 -0.03547186 0.3179177
-0.18646504 -0.051928721 0.30686301
-0.18777385 -0.077195726 0.29954264
-0.19095436 -0.088915072 0.28166765
-0.19301267 -0.096887924 0.27010202
-0.19500469 -0.10522327 0.25891167
-0.19708627 -0.11212182 0.24721405
-0.19911937 -0.11941428 0.23579097
-0.2009227 -0.12880456 0.22566876
-0.20265247 -0.13849241 0.21596293
-0.20450668 -0.14682089 0.20555258
-0.20682734 -0.15149806 0.19250137
-0.20935616 -0.1551659 0.17827177
-0.24165943 -0.027812159 -0.0043418617
-0.241973 -0.055478532 -0.0060285442
-0.24204519 -0.082721196 -0.0063491436
-0.24308358 -0.11649369 -0.012095669
-0.24190502 -0.13388006 -0.0053800694
-0.24158418 -0.15841992 -0.003476429
-0.24278867 -0.18676645 -0.010163847
-0.24246746 -0.20876545 -0.0082583893
-0.24258882 -0.22840707 -0.0088582542
-0.24240969 -0.248217 -0.0077572754
-0.24240249 -0.26684517 -0.0076295771
-0.24242447 -0.28482541 -0.0076670735
-0.24232203 -0.30256796 -0.0070002945
-0.2422635 -0.31973559 -0.0065821256
-0.2422573 -0.33640152 -0.0064602578
-0.24214207 -0.35288447 -0.0057211649
-0.24243046 -0.36853591 -0.0072667114
-0.24245003 -0.38433823 -0.0072905393
-0.24237078 -0.40002832 -0.0067551187
-0.2426763 -0.42300203 -0.0083538881
-0.24270532 -0.43834007 -0.0084309671
-0.24264097 -0.45363659 -0.0079796817
-0.2426578 -0.46888983 -0.0079875756
-0.24275576 -0.48418587 -0.0084546711
-0.24246801 -0.50704688 -0.0066948561
-0.242844 -0.51500666 -0.0087790545
-0.24278969 -0.53836203 -0.0083399825
-0.24280274 -0.55419862 -0.0083259139
-0.24288443 -0.57036853 -0.0087000616
-0.2431962 -0.58722699 -0.010376262
-0.24339485 -0.60433489 -0.011411866
-0.24347769 -0.62166709 -0.011791876
-0.24321923 -0.64763898 -0.010195385
-0.24332002 -0.66622972 -0.01067627
-0.24344173 -0.68553066 -0.011275182
-0.24297856 -0.71376055 -0.0085185468
-0.24414855 -0.72804677 -0.015094073
-0.24351536 -0.75819021 -0.011374065
-0.24351393 -0.78101385 -0.01127404
-0.24387525 -0.80664355 -0.013226142
-0.24414927 -0.83343053 -0.014683491
-0.24457707 -0.86273348 -0.017010164
-0.24367315 -0.90178525 -0.011753015
-0.24417572 -0.93663597 -0.014500271
-0.24457322 -0.97370255 -0.01665175
-0.41808459 -2.373462 -0.99805784
-0.41973102 -2.5323598 -1.0072268
-0.41954795 -2.6924267 -1.0060387
-0.41460091 -2.9211164 -0.97781146
-0.38595384 -2.8227096 -0.81561029
-0.34595457 -2.7649071 -0.58904529
-0.32926598 -2.7622662 -0.49449319
-0.31336704 -2.7642307 -0.40440843
-0.2982367 -2.7731082 -0.31867105
-0.17466949 -2.7621183 0.3815425
-0.13977599 -2.7589669 0.57928598
-0.11874649 -2.7554162 0.69843459
-0.1045868 -2.7541103 0.77863729
-0.090780012 -2.7381217 0.85683602
0.31972182 -6.2152767 3.1820896
0.33324328 -5.8852172 3.2585275
0.33555815 -5.4790621 3.2715139
0.32741815 -5.0221243 3.2253149
0.34168968 -4.8080473 3.3060606
0.34741285 -4.3955593 3.338383
0.34790534 -4.1257682 3.3411317
0.31715468 -3.6712546 3.1669874
0.35128066 -3.6642237 3.3601985
0.34348664 -3.4032145 3.3160625
0.33674699 -3.1685307 3.2779069
0.33266363 -2.9645836 3.2547994
0.33390331 -2.7990711 3.2618356
0.34253237 -2.5949571 3.3107247
0.3137942 -2.3306756 3.1480639
0.34445494 -2.3034749 3.3216755
0.33830011 -2.1430459 3.2868731
0.33068776 -1.986927 3.2438252
0.3279129 -1.8530883 3.2281661
0.32445163 -1.7230725 3.2086256
0.32582998 -1.5524448 3.2165143
0.32474136 -1.4380792 3.2104132
0.32486993 -1.3290077 3.2112055
0.32545647 -1.2228969 3.2145929
0.32705453 -1.1198659 3.2237089
0.30683213 -0.99339569 3.1093106
0.28931361 -0.87916493 3.010221
0.3250528 -0.81093878 3.2126043
0.31958145 -0.7081539 3.1817138
0.31679055 -0.56027567 3.1660416
0.31116489 -0.4629584 3.1342838
0.30964914 -0.36708456 3.1257932
-0.11215349 -0.410824 0.73840934
-0.11250976 -0.39965129 0.73647559
-0.11203259 -0.39326274 0.73921835
-0.12255961 -0.37665418 0.67987663
-0.12534271 -0.36235484 0.66428918
-0.12630333 -0.354651 0.65893519
-0.1272006 -0.34176666 0.65398234
-0.12781513 -0.33314383 0.65058827
-0.12818643 -0.32358715 0.64857143
-0.12862523 -0.31401893 0.64617282
-0.12884702 -0.30330846 0.64500314
-0.12995236 -0.28984275 0.63887465
-0.095647931 -0.014128503 0.83353829
-0.098082043 0.0024367662 0.81985277
-0.10008177 0.022458313 0.80862796
-0.11906527 -0.025537642 0.70140874
-0.1216685 -0.01505432 0.686764
-0.12324253 0.0062877256 0.67795062
-0.1258333 0.03990097 0.66343206
-0.12615974 0.083761409 0.66169375
-0.041223381 1.5471801 1.1434468
-0.05475371 1.5496426 1.066965
-0.068061054 1.5510803 0.99174494
-0.080908976 1.5574226 0.9191283
-0.09367428 1.562063 0.84697849
-0.11266638 1.5660571 0.73963451
-0.1253269 1.5621727 0.66807282
-0.13773499 1.5646684 0.5979439
-0.15011106 1.5656636 0.52799547
-0.16246411 1.5631746 0.45817503
-0.17470573 1.5392148 0.38897085
-0.18683101 1.5328193 0.3204366
-0.18053533 0.024758765 0.35525554
-0.18279973 -0.00056614436 0.34250605
-0.18370603 -0.016776361 0.33740714
-0.18729332 -0.032572202 0.31721851
-0.18942091 -0.046171568 0.30525079
-0.18936256 -0.073177159 0.30560312
-0.19265339 -0.083670735 0.28709516
-0.19462104 -0.093329415 0.27603465
-0.19671325 -0.10056481 0.26427093
-0.19874917 -0.10818323 0.25282538
-0.20080841 -0.11528783 0.241248
-0.20281786 -0.12278145 0.22995189
-0.20449859 -0.13319786 0.22051382
-0.20628928 -0.14220779 0.21045436
-0.20842335 -0.14829144 0.19845344
-0.21189845 -0.15595245 0.1789023
-0.21465428 -0.15872417 0.16338456
-0.24389231 -0.045175109 -0.0017993151
-0.24431756 -0.071171217 -0.0041459482
-0.24521708 -0.10633523 -0.0091444626
-0.24525453 -0.13087556 -0.0092959991
-0.24494679 -0.15555689 -0.0074944189
-0.24501881 -0.17751615 -0.0078403065
-0.2452171 -0.19808824 -0.0089001358
-0.24510777 -0.21886837 -0.0082193362
-0.24499598 -0.23881838 -0.0075242692
-0.24457876 -0.25884101 -0.0051009008
-0.2448139 -0.2764588 -0.0063681584
-0.24492826 -0.29391664 -0.0069518923
-0.24492401 -0.31118774 -0.006864585
-0.24497001 -0.32795322 -0.0070615727
-0.24473768 -0.34480703 -0.0056836875
-0.24503289 -0.36854637 -0.0072594397
-0.24521965 -0.38417482 -0.0082533434
-0.24496487 -0.4000394 -0.0067485971
-0.24495697 -0.4154923 -0.0066412962
-0.24502772 -0.43079215 -0.0069793216
-0.24500515 -0.44605982 -0.0067895027
-0.24506369 -0.46127599 -0.0070592333
-0.24520363 -0.47652686 -0.0077900668
-0.24542403 -0.49189839 -0.0089769373
-0.24523164 -0.51489866 -0.0077974647
-0.24521545 -0.53042042 -0.0076462687
-0.24544433 -0.54637671 -0.0088833598
-0.24557105 -0.56250364 -0.0095428051
-0.24576183 -0.57903796 -0.010565819
-0.24567732 -0.59547436 -0.010030789
-0.24551231 -0.62065786 -0.0090133287
-0.24596101 -0.63921344 -0.011500665
-0.24579869 -0.65691632 -0.010528556
-0.24598238 -0.67607749 -0.011517595
-0.24633174 -0.69648004 -0.013446701
-0.24603914 -0.72600549 -0.011717142
-0.24585445 -0.74666744 -0.010624934
-0.24636483 -0.77100658 -0.013473173
-0.24639215 -0.79468089 -0.013586616
-0.24703373 -0.82250357 -0.017184163
-0.24572133 -0.85606486 -0.0096925888
-0.24591409 -0.88571364 -0.010753979
-0.24631919 -0.91877645 -0.01302349
-0.24687712 -0.95546615 -0.016164659
-0.42147353 -2.3165228 -1.0065085
-0.42128524 -2.4549849 -1.0056087
-0.42184496 -2.6137671 -1.0089798
-0.41701081 -2.831696 -0.98189437
-0.39160666 -2.7672191 -0.83793509
-0.37431681 -2.774842 -0.74002618
-0.35625717 -2.7665987 -0.6377334
-0.32266709 -2.7585931 -0.44747841
-0.30744219 -2.768162 -0.36126208
-0.18336451 -2.7730551 0.34151328
-0.16233507 -2.767175 0.46063918
-0.1482853 -2.7713978 0.54021204
-0.13434626 -2.7618225 0.61918378
-0.1273085 -2.7609646 0.65899265
-0.11329608 -2.755132 0.73842239
-0.092255235 -2.7430344 0.85769945
0.22613497 -8.9183769 2.64872
0.15874451 -4.9011412 2.2752011
0.32007092 -6.4880719 3.1856678
0.33120865 -6.1039329 3.2495468
0.33137801 -5.6512151 3.2514532
0.34439066 -5.374577 3.3257396
0.35676032 -4.9448214 3.3967156
0.3458102 -4.5380306 3.3355715
0.34852493 -4.2730513 3.3515248
0.31676319 -3.7936871 3.1726832
0.33792999 -3.7023559 3.2927768
0.34054941 -3.4993279 3.3080688
0.33495402 -3.2638402 3.2769103
0.33998895 -3.0098128 3.3060088
0.33872727 -2.8298614 3.2992787
0.33800858 -2.6626184 3.2955978
0.34088928 -2.5186903 3.3122501
0.32615584 -2.3147218 3.2292886
0.3363125 -2.2115321 3.2870562
0.32998803 -2.0560434 3.2516103
0.32582605 -1.9152619 3.2283788
0.3265489 -1.7339996 3.2329109
0.32311615 -1.6084839 3.2137766
0.32401159 -1.4968659 3.2191193
0.32300168 -1.3841151 3.2136757
0.32123399 -1.2730279 3.2039375
0.32328615 -1.1703147 3.2158082
0.30937609 -1.0489972 3.1373444
0.28125337 -0.92054838 2.9784312
0.32610795 -0.86403841 3.2325287
0.31863138 -0.70887238 3.1905735
0.30485418 -0.60606945 3.1128235
0.31114218 -0.51122171 3.1486492
0.30867597 -0.41480684 3.1349177
0.30580309 -0.31937408 3.1188805
-0.11403704 -0.41601244 0.74218887
-0.11487815 -0.40522292 0.73752177
-0.11424964 -0.39284143 0.74117649
-0.11488611 -0.3818239 0.7376678
-0.12402774 -0.3797673 0.68603617
-0.12758006 -0.36160064 0.66614717
-0.12837799 -0.35846516 0.66167343
-0.12939754 -0.34588495 0.65603608
-0.12960772 -0.34130675 0.65489149
-0.13048051 -0.32811144 0.65008533
-0.13119006 -0.3140119 0.64620423
-0.13121919 -0.30839005 0.64608574
-0.13148499 -0.29761586 0.64467305
-0.1319731 -0.28099129 0.642048
-0.099520132 -0.006151088 0.826478
-0.10178563 0.011723325 0.81375039
-0.10495763 0.041457701 0.79594278
-0.11897807 -0.018935954 0.71660393
-0.12272446 -0.01810188 0.69547033
-0.12600757 0.0045509799 0.67702377
-0.12745968 0.02932764 0.66890794
-0.12820522 0.065856531 0.66480601
-0.1291838 0.13364054 0.65945864
-0.051258907 1.5407733 1.1024102
-0.064009771 1.554092 1.0302991
-0.083409123 1.5632647 0.92057282
-0.096200615 1.5679507 0.84822041
-0.10912127 1.5640812 0.77512658
-0.12190207 1.557525 0.70282125
-0.13429132 1.5612615 0.63274419
-0.1467371 1.5565119 0.56233722
-0.15918069 1.5322602 0.49192074
-0.17130564 1.5695102 0.42337629
-0.18949708 1.5328256 0.32043424
-0.18157983 0.024888484 0.36376357
-0.18396522 0.0017736588 0.35030779
-0.18631625 -0.014804944 0.33705384
-0.18859971 -0.028818345 0.32418543
-0.19086719 -0.040288415 0.31141028
-0.19250755 -0.06169185 0.30217564
-0.19419663 -0.07848727 0.29267019
-0.19620787 -0.087984279 0.28134838
-0.19826815 -0.09597002 0.2697506
-0.20033559 -0.10341284 0.25811288
-0.20242468 -0.11034179 0.24635324
-0.20446503 -0.11766689 0.23486923
-0.20719862 -0.13149379 0.21949162
-0.20889999 -0.14137104 0.20992468
-0.2108323 -0.14909336 0.1990523
-0.21314509 -0.15404308 0.18602847
-0.21578081 -0.15724003 0.17117797
-0.24738869 -0.039612263 -0.0074486523
-0.24758655 -0.067151323 -0.0085194381
-0.24741228 -0.094880708 -0.0074829352
-0.24768282 -0.118961 -0.0089612072
-0.24761523 -0.14327705 -0.0085247941
-0.24749218 -0.16657448 -0.0077730683
-0.24747665 -0.18836069 -0.0076285093
-0.24744214 -0.20926912 -0.0073752534
-0.24740204 -0.22935018 -0.0070893178
-0.2472126 -0.24909794 -0.0059571839
-0.24703676 -0.2680701 -0.0049010036
-0.24789894 -0.29283449 -0.0096882833
-0.2475718 -0.31085578 -0.0077739051
-0.247196 -0.32004851 -0.0056152004
-0.247557 -0.34428194 -0.0075630029
-0.24738629 -0.36071542 -0.0065322346
-0.24762192 -0.37635776 -0.0078011649
-0.2475886 -0.39212376 -0.0075472188
-0.24745715 -0.40776744 -0.0067371489
-0.24757549 -0.42309344 -0.0073410235
-0.24742669 -0.4384495 -0.0064319777
-0.24772425 -0.46126702 -0.0080164066
-0.24769115 -0.47651812 -0.0077617639
-0.24756557 -0.4917509 -0.006983099
-0.24769357 -0.50715488 -0.0076401979
-0.2478988 -0.52278072 -0.0087343911
-0.24800627 -0.53853923 -0.0092748068
-0.2480146 -0.55441016 -0.0092536723
-0.24809128 -0.5706141 -0.0096195424
-0.24784333 -0.59487987 -0.0081124343
-0.24798626 -0.61200356 -0.0088532446
-0.24833749 -0.63005573 -0.010773676
-0.24840072 -0.64803368 -0.011062977
-0.24849518 -0.66665632 -0.011529201
-0.24807695 -0.69412273 -0.009057316
-0.24858904 -0.71576333 -0.011889052
-0.24878138 -0.7373507 -0.012909948
-0.24880297 -0.75931239 -0.012963789
-0.24921235 -0.78395551 -0.015214377
-0.24835299 -0.81682968 -0.010244392
-0.24865639 -0.84440118 -0.011895256
-0.24884234 -0.87318909 -0.012881263
-0.24950708 -0.90673745 -0.01658009
-0.24804442 -0.94653773 -0.0081941634
-0.24830927 -0.98370564 -0.0096289646
-0.41959426 -2.4194169 -0.97997284
-0.42041063 -2.5773175 -0.98457038
-0.42116353 -2.7522085 -0.98881286
-0.41964489 -2.9254954 -0.98018914
-0.38691396 -2.7830303 -0.79469818
-0.32662001 -2.773524 -0.4529449
-0.31148875 -2.7861176 -0.36717191
-0.29608923 -2.789732 -0.27987632
-0.17242469 -2.774471 0.42121786
-0.15842782 -2.7691033 0.50057673
-0.1444844 -2.7619307 0.57963365
-0.11650741 -2.7521148 0.73823631
-0.10241356 -2.7474027 0.81813335
0.14145976 -4.9332128 2.199028
0.30616334 -6.1090064 3.1315277
0.33850634 -5.7665629 3.3148971
0.33311898 -4.9421921 3.2847962
0.344329 -4.7093663 3.348429
0.33723432 -4.3546133 3.308445
0.33722562 -4.0843616 3.3085632
0.31257102 -3.6733282 3.1691623
0.34253865 -3.6406059 3.3389595
0.34334427 -3.3290355 3.3437505
0.33637834 -3.0992301 3.3044648
0.3324756 -2.9009373 3.2825167
0.33297589 -2.7352509 3.2854924
0.33434823 -2.5818131 3.2934034
0.30767596 -2.3265643 3.1425371
0.33947337 -2.3037992 3.3226984
0.32878634 -2.12833 3.2623289
0.32352892 -1.9806165 3.232698
0.32482207 -1.7974457 3.2402208
0.32204053 -1.6709496 3.2246048
0.31931677 -1.5493723 3.2093151
0.31852722 -1.4359211 3.2049763
0.31896439 -1.3276337 3.207583
0.31936392 -1.221397 3.2099762
0.32094252 -1.1185342 3.2190456
0.27800572 -0.96680337 2.9760485
0.32431552 -0.86474085 3.2384729
0.3181358 -0.75965244 3.2036107
0.31372529 -0.65851569 3.1787663
0.30990934 -0.55975378 3.1572886
0.30671069 -0.46275878 3.1393061
0.30414397 -0.36691713 3.124902
-0.11732541 -0.4107863 0.73847592
-0.11785499 -0.39980409 0.73557478
-0.117433 -0.38761854 0.73806286
-0.12790412 -0.37692928 0.67900401
-0.12908608 -0.3641209 0.6724562
-0.1306814 -0.35765842 0.66351819
-0.13132925 -0.35421279 0.65989763
-0.13202287 -0.34585959 0.65606672
-0.13270101 -0.33214381 0.65237254
-0.13366441 -0.31903735 0.64706272
-0.1335279 -0.31289962 0.64788514
-0.13439757 -0.29876748 0.6431067
-0.1340555 -0.28489017 0.64514333
-0.097910114 0.0041919444 0.85037839
-0.10429046 0.012517757 0.81439185
-0.10690571 0.028485678 0.79968292
-0.12424694 -0.0079062348 0.70174688
-0.12713397 0.00085295376 0.68549567
-0.12884241 0.022255005 0.67592436
-0.13006933 0.051614184 0.66908348
-0.13203868 0.10175666 0.65809453
-0.046663344 1.5444294 1.1423591
-0.066341877 1.5569962 1.03107
-0.079530962 1.5589877 0.95647734
-0.092377268 1.5640196 0.88382715
-0.10536798 1.5604898 0.81035507
-0.11791631 1.5651066 0.73939174
-0.13058507 1.5602192 0.66774195
-0.14311053 1.5537368 0.59690273
-0.1553311 1.5636871 0.5277974
-0.17381307 1.5605137 0.42327508
-0.18601002 1.5443223 0.35429117
-0.18287757 0.031819321 0.37152368
-0.18534975 0.007929666 0.35760614
-0.1877549 -0.0094247395 0.34407121
-0.19007233 -0.024213793 0.33103421
-0.19239585 -0.035480238 0.31796417
-0.19445886 -0.05001504 0.30636793
-0.19583112 -0.074351795 0.29867873
-0.19788595 -0.083670355 0.28713107
-0.19991976 -0.092402697 0.27570269
-0.20201841 -0.099652797 0.2639077
-0.20521803 -0.10946148 0.2459231
-0.207267 -0.11680396 0.23440929
-0.20908575 -0.12624738 0.22419818
-0.21073589 -0.13683036 0.21494129
-0.21269962 -0.14437935 0.20390989
-0.21482562 -0.15071684 0.19196005
-0.21746856 -0.15362988 0.17708418
-0.25029412 -0.023598468 -0.0084739281
-0.24999516 -0.054827668 -0.0067030899
-0.25006965 -0.082096748 -0.0070454068
-0.25017866 -0.10762093 -0.0075824158
-0.25021181 -0.13210644 -0.0076893563
-0.25004283 -0.15615739 -0.006651443
-0.25011459 -0.17808795 -0.0069760028
-0.25001463 -0.19966152 -0.0063279695
-0.25005156 -0.21986595 -0.0064545935
-0.25024727 -0.23884568 -0.007479745
-0.24983358 -0.25886828 -0.0050543724
-0.25046799 -0.28448707 -0.0085213818
-0.25069374 -0.30157781 -0.009716088
-0.25030965 -0.31946373 -0.0074573671
-0.25030449 -0.33616355 -0.0073443321
-0.25019017 -0.35268065 -0.0066128373
-0.25030902 -0.36857504 -0.0072017498
-0.25032786 -0.38437784 -0.0072242813
-0.25042012 -0.39992875 -0.0076626749
-0.25024357 -0.41552144 -0.0065785577
-0.25031784 -0.43082151 -0.0069149123
-0.25029889 -0.44608933 -0.0067234007
-0.25035751 -0.46891516 -0.0069292756
-0.25062841 -0.48422876 -0.0083795954
-0.25063217 -0.49956736 -0.0083169406
-0.25054219 -0.51492912 -0.0077235578
-0.25070167 -0.53060704 -0.0085432436
-0.25093344 -0.54659796 -0.0097725317
-0.25092009 -0.57065564 -0.0095722834
-0.25089452 -0.58699799 -0.0093445042
-0.25076267 -0.6034559 -0.0085150655
-0.25101328 -0.62103122 -0.009852374
-0.2509194 -0.64729661 -0.0091976365
-0.25086322 -0.66543376 -0.008797951
-0.25098819 -0.68467247 -0.0094250534
-0.25127482 -0.70516807 -0.010968483
-0.25170153 -0.72706777 -0.013306321
-0.25195327 -0.74942195 -0.014653478
-0.2510778 -0.77989024 -0.0095755234
-0.25130585 -0.80484951 -0.010790288
-0.25172067 -0.83219826 -0.013064536
-0.25163519 -0.85877395 -0.012504961
-0.25076392 -0.89759791 -0.0074565182
-0.25116843 -0.93157285 -0.0096769193
-0.42354122 -2.3584526 -0.98658347
-0.42484996 -2.5136871 -0.99400645
-0.42446697 -2.6707907 -0.9918496
-0.42559993 -2.8601031 -0.99830008
-0.39750451 -2.7699566 -0.83902878
-0.37997881 -2.7749474 -0.73968244
-0.33837467 -2.7864826 -0.50383312
-0.32108855 -2.769033 -0.40582851
-0.30593586 -2.7779584 -0.31992409
-0.1821796 -2.766134 0.38177389
-0.16819422 -2.7701669 0.46107203
-0.15419641 -2.7683864 0.54044461
-0.14022745 -2.7627952 0.61965662
-0.12614004 -2.7623408 0.69958717
-0.11244599 -2.7432113 0.7772671
-0.098193884 -2.7429867 0.85809624
0.32349691 -6.3452787 3.2453642
0.32726318 -5.8998699 3.2670901
0.3463133 -5.2652159 3.3756185
0.33588111 -4.5110126 3.3171945
0.33388141 -4.2128282 3.3061502
0.31046292 -3.6784456 3.173959
0.34341168 -3.6638372 3.3607199
0.33987439 -3.4275908 3.34092
0.33273226 -3.1893032 3.300698
0.32939368 -2.9878354 3.2819991
0.32965884 -2.8163211 3.2836957
0.32944834 -2.6520636 3.282692
0.32389039 -2.4747519 3.2514009
0.32338086 -2.3269424 3.2486904
0.33330685 -2.1531627 3.3051546
0.32527483 -1.9949977 3.2598314
0.32237279 -1.8601613 3.2435546
0.31814229 -1.7275735 3.2197497
0.31598806 -1.6055406 3.2076991
0.31558052 -1.4914095 3.2055378
0.31456149 -1.3791534 3.1999099
0.31800491 -1.2238008 3.2196245
0.31874835 -1.1194708 3.2239733
0.30705741 -1.0025752 3.1578875
0.27654135 -0.87472034 2.9851642
0.31826374 -0.81164086 3.221628
0.31227151 -0.70828384 3.1878135
0.30824122 -0.60854602 3.1651099
0.3032546 -0.51068437 3.1369867
0.30132776 -0.41463768 3.126194
-0.11989734 -0.41625622 0.74032962
-0.12056385 -0.40536299 0.73664165
-0.11993335 -0.39301535 0.74030131
-0.12022971 -0.38154927 0.73870993
-0.12963264 -0.37477073 0.68561327
-0.13278033 -0.36591321 0.6679101
-0.13420847 -0.35421568 0.65994823
-0.13474371 -0.34542453 0.65700197
-0.13533467 -0.33671206 0.65373975
-0.13583049 -0.32759032 0.65101641
-0.13654332 -0.31344679 0.64710635
-0.13642946 -0.30725157 0.64779419
-0.13749312 -0.29367995 0.64189595
-0.13652296 -0.27656814 0.64747798
-0.10570805 0.0055119339 0.82249856
-0.1081611 0.022514099 0.80868459
-0.11031627 0.042295914 0.79655808
-0.12400269 0.0021710035 0.71917957
-0.12820545 -0.00044879146 0.69545054
-0.13045591 0.015067838 0.68278289
-0.13181005 0.041821759 0.67519343
-0.13420743 0.083794951 0.66173393
-0.13364516 0.147567 0.66500133
-0.062171545 1.5602049 1.070104
-0.075861067 1.5550147 0.99261564
-0.088799149 1.5594407 0.91938394
-0.10148643 1.5660412 0.84757262
-0.11438838 1.5621482 0.77454472
-0.12685986 1.5674535 0.70395499
-0.13948385 1.5612777 0.63250107
-0.15806395 1.5576876 0.52733564
-0.17043228 1.5291808 0.45733064
-0.18254459 1.5362045 0.38877374
-0.18413705 0.032624237 0.38001874
-0.18672192 0.010968827 0.36545569
-0.18921641 -0.0051661544 0.35140431
-0.19159406 -0.019741232 0.33801487
-0.19392775 -0.031771634 0.32487446
-0.19617899 -0.043218538 0.31220117
-0.197501 -0.070333228 0.30479494
-0.19959293 -0.079468295 0.29302427
-0.20172411 -0.087087937 0.28103107
-0.20490548 -0.097856417 0.26312858
-0.20703246 -0.10462219 0.25115919
-0.20911171 -0.11179219 0.23946026
-0.2110541 -0.12022175 0.22853705
-0.21265773 -0.13154206 0.21953388
-0.21445766 -0.14059186 0.20941821
-0.21660002 -0.14671773 0.1973618
-0.2190344 -0.15094452 0.18365026
-0.25268456 -0.04039273 -0.0067197015
-0.25262558 -0.069245622 -0.0062987246
-0.25231209 -0.09753935 -0.0044350992
-0.2524353 -0.12212776 -0.005046451
-0.25249508 -0.14571679 -0.005298425
-0.25279516 -0.16722174 -0.0069120834
-0.25248629 -0.1900395 -0.0050746724
-0.25335512 -0.21798258 -0.0098678898
-0.25340757 -0.23753993 -0.010077955
-0.25316 -0.25723344 -0.0085876212
-0.25308833 -0.27576125 -0.0080941319
-0.25304839 -0.29364276 -0.0077803484
-0.25288552 -0.31127271 -0.0067697731
-0.25293508 -0.32803836 -0.0069628223
-0.25287458 -0.34463292 -0.0065320698
-0.25287548 -0.36080754 -0.0064490535
-0.25294381 -0.37664169 -0.0067481953
-0.25311887 -0.39998573 -0.0076075704
-0.25295672 -0.4078609 -0.0066442862
-0.25290525 -0.4232749 -0.0062639695
-0.25317273 -0.4461109 -0.007645939
-0.25306171 -0.46136254 -0.0069275917
-0.25320581 -0.4766137 -0.0076545095
-0.25325704 -0.49191618 -0.0078549879
-0.25338781 -0.50735545 -0.0085058361
-0.25325134 -0.52273887 -0.0076420777
-0.25329667 -0.54627401 -0.007762609
-0.25342968 -0.56236708 -0.008424894
-0.25345919 -0.57860941 -0.0085004298
-0.25371605 -0.59556288 -0.0098634744
-0.2540231 -0.61307877 -0.011510566
-0.25336966 -0.63780546 -0.0076685059
-0.25369969 -0.65659904 -0.0094443848
-0.25373632 -0.67529088 -0.009557344
-0.25425169 -0.69610095 -0.012381617
-0.25505707 -0.71886402 -0.016848046
-0.25380135 -0.74621308 -0.0095889829
-0.25489342 -0.77281719 -0.015676949
-0.25408581 -0.79296708 -0.011003029
-0.25488365 -0.82133722 -0.015421716
-0.25477096 -0.84712923 -0.014681679
-0.25469154 -0.87465799 -0.014128632
-0.25798255 -0.93972266 -0.032608297
-0.25481746 -0.95407265 -0.014575965
-0.42796117 -2.4407279 -0.99453622
-0.42886767 -2.6008089 -0.99946994
-0.43098119 -2.7898002 -1.0112214
-0.41281313 -2.8002276 -0.9081558
-0.39041764 -2.7585628 -0.78116846
-0.34902167 -2.7771976 -0.54631031
-0.33214799 -2.7690482 -0.45059025
-0.31649229 -2.7721126 -0.36176392
-0.19239101 -2.7710733 0.34241545
-0.1783946 -2.773505 0.42184317
-0.16442086 -2.7671232 0.50113571
-0.143528 -2.7577927 0.61969161
-0.13644619 -2.7609107 0.65984541
-0.12231896 -2.7600124 0.73995829
-0.10851128 -2.7444081 0.81824797
0.2166888 -8.9739132 2.6662161
0.13167873 -4.8856258 2.1813371
0.31506503 -6.0436077 3.2214973
0.32634166 -5.7092056 3.2851789
0.32551911 -4.9324751 3.2800198
0.3366071 -4.6990347 3.3427241
0.33191779 -4.3629084 3.3159556
0.32883856 -4.0698791 3.2983472
0.31729132 -3.6326041 3.2326853
0.33972174 -3.5519514 3.3597896
0.33204889 -3.3007483 3.3161957
0.32663602 -3.0806735 3.2854338
0.32412347 -2.8901703 3.2711306
0.32554722 -2.7292297 3.279156
0.32733229 -2.5778067 3.289238
0.3035748 -2.3339462 3.1545227
0.33468112 -2.2372019 3.3308346
0.3259947 -2.0719342 3.2815797
0.32013002 -1.9246602 3.2483287
0.31610262 -1.7897944 3.2254994
0.31441951 -1.6665813 3.2159638
0.31282845 -1.547842 3.2069552
0.31139314 -1.4331878 3.1988339
0.31370699 -1.2746512 3.2119768
0.31513056 -1.1706979 3.2200682
0.31640625 -1.0677921 3.2273247
0.27357507 -0.92105949 2.9846125
0.31823638 -0.86414975 3.2377594
0.31138286 -0.75868398 3.1989541
0.30629244 -0.65744638 3.170145
0.30075213 -0.55865109 3.1387899
0.29912964 -0.46232611 3.1296401
0.29742807 -0.31876624 3.1200697
-0.11997963 -0.4201813 0.75480855
-0.12285423 -0.4107711 0.73859489
-0.12303887 -0.39940855 0.73762506
-0.12302573 -0.38177851 0.73781466
-0.13318916 -0.37141389 0.68041599
-0.13507523 -0.36519238 0.66980636
-0.13586439 -0.36194682 0.66537368
-0.13700703 -0.34959683 0.65901643
-0.13757028 -0.34082854 0.65590346
-0.13844426 -0.32758898 0.6510694
-0.13885288 -0.31798047 0.64883316
-0.13886398 -0.31235763 0.64880997
-0.13959332 -0.29759583 0.64479667
-0.10270126 -0.0077486718 0.85426062
-0.10388612 0.017678022 0.84763074
-0.1089761 0.017901784 0.81887132
-0.11183429 0.032445248 0.80275965
-0.12822147 0.0056639677 0.71014941
-0.13144855 0.012110551 0.6919474
-0.13330412 0.032848172 0.68151921
-0.13612251 0.067685567 0.66567987
-0.13658844 0.11371789 0.6631313
-0.058285762 1.5560052 1.1072588
-0.071936175 1.5541819 1.03001
-0.085100584 1.5561326 0.9555161
-0.097883195 1.5621015 0.88318682
-0.11082204 1.559527 0.80997074
-0.12365701 1.5532624 0.73734266
-0.14215894 1.5632559 0.63265842
-0.15465042 1.5555048 0.56197691
-0.16686884 1.567214 0.49284801
-0.17919937 1.5554714 0.42307758
-0.18533005 0.040256049 0.38807002
-0.18800308 0.017845117 0.37300119
-0.19053298 -4.5501718e-05 0.35874444
-0.19297762 -0.014403825 0.3449716
-0.1953706 -0.026227077 0.33149219
-0.19767921 -0.037479877 0.3184908
-0.19967954 -0.052959774 0.30723432
-0.20113902 -0.075364865 0.29903936
-0.20330399 -0.082794279 0.28685251
-0.20547068 -0.089686275 0.27465603
-0.2086916 -0.099865146 0.25652608
-0.21072376 -0.10774914 0.24509111
-0.21286465 -0.11425135 0.23304044
-0.21451707 -0.12546329 0.22375527
-0.21626408 -0.13522732 0.21393463
-0.21823479 -0.14281693 0.20284726
-0.22152959 -0.15177368 0.18429783
-0.2548686 -0.027949579 -0.0042499751
-0.25505033 -0.056298964 -0.005211324
-0.25524518 -0.082859859 -0.006246686
-0.25480714 -0.1108755 -0.0036974202
-0.2550965 -0.13401935 -0.0052675856
-0.25505647 -0.15741158 -0.0049720663
-0.25582227 -0.18743791 -0.0092060147
-0.25594577 -0.20790623 -0.0098364679
-0.25576207 -0.22854894 -0.0087269908
-0.25542295 -0.24879768 -0.006737025
-0.25540936 -0.2673946 -0.0065909862
-0.25542513 -0.28534314 -0.0066113616
-0.25564346 -0.30236879 -0.0077791684
-0.25541779 -0.31987903 -0.0064321561
-0.25557488 -0.33626944 -0.0072533879
-0.25528881 -0.35302857 -0.0055643017
-0.2554031 -0.36888894 -0.0061434107
-0.25564528 -0.39226562 -0.0074135372
-0.25533351 -0.40031332 -0.0056132977
-0.25563169 -0.42323601 -0.0072014197
-0.25565612 -0.43853965 -0.0072728777
-0.25576124 -0.45378384 -0.00780178
