# .PCD v0.7 - Point Cloud Data file format
VERSION 0.7
FIELDS x y z
SIZE 4 4 4
TYPE F F F
COUNT 1 1 1
WIDTH 527
HEIGHT 1
VIEWPOINT 0 0 0 1 0 0 0
POINTS 527
DATA ascii
-0.13504671 -0.62543559 0.0025647529
-0.060099293 -0.59175682 0.0026659099
-0.027540788 -0.57607967 0.0023141843
-0.1810738 -0.65117943 0.0035683319
-0.17817637 -0.6511519 0.0035205181
-0.097331643 -0.60814983 0.0037286058
-0.15634029 -0.64132786 0.0056490647
-0.094436318 -0.60720479 0.006547336
0.059740607 -0.52857947 0.0064679459
-0.11556958 -0.61524534 0.0072734808
-0.061725296 -0.5903405 0.0074025551
0.030369688 -0.54347432 0.0079840636
0.1168121 -0.48372871 0.0076644695
0.12472317 -0.49843648 0.0087283282
-0.023529708 -0.57400554 0.0099035921
-0.02059182 -0.57399958 0.009874559
-0.11234472 -0.61387306 0.010948048
-0.090911493 -0.605582 0.011201612
0.14148213 -0.52773845 0.011255823
-0.17411363 -0.6470964 0.012503256
0.14983866 -0.54249728 0.012832274
-0.13064897 -0.62947458 0.013650414
-0.052639797 -0.58818763 0.01392035
-0.15221012 -0.63740051 0.014729303
-0.10874985 -0.61211699 0.015511787
-0.087016657 -0.60392916 0.015813483
0.12309019 -0.49060091 0.015001656
-0.17107226 -0.64545512 0.016094623
0.13153528 -0.51234311 0.016145144
0.11535597 -0.47602448 0.016173825
-0.054546908 -0.58702898 0.017715123
-0.14867634 -0.63584071 0.018375065
-0.084083118 -0.60287523 0.018577373
0.064418085 -0.52667975 0.018102126
0.14005199 -0.526712 0.018181758
-0.12723815 -0.62721539 0.019104103
0.035117947 -0.54114521 0.019575013
-0.16752671 -0.64343435 0.020568876
0.067785539 -0.5262202 0.020982264
0.12164585 -0.49016887 0.020908888
-0.048583504 -0.58589613 0.021456633
0.0084298765 -0.5557127 0.021660376
-0.19399986 -0.65982157 0.022787735
-0.14537272 -0.63391638 0.022920962
-0.10466374 -0.61743939 0.022711715
-0.015829325 -0.5706448 0.022232715
0.011466893 -0.55527622 0.023606563
-0.19085076 -0.65895355 0.024609311
-0.08047393 -0.60090363 0.024123557
-0.045488335 -0.58504558 0.024261585
-0.012856713 -0.57013774 0.024178594
-0.16364785 -0.64138198 0.025029192
-0.042448919 -0.58482742 0.025232924
0.12760094 -0.5040943 0.025094233
-0.14196086 -0.6323967 0.026558867
-0.12336113 -0.62419051 0.026398256
0.14706726 -0.54700071 0.026765341
-0.076963075 -0.59961325 0.02790321
-0.0092599485 -0.5690403 0.027931936
0.11454369 -0.47562861 0.027020195
-0.10125692 -0.61526072 0.028217252
-0.074278355 -0.59927922 0.028837778
0.071746998 -0.52502578 0.028814917
-0.18723421 -0.65635324 0.029926576
-0.13852528 -0.63124895 0.029325331
-0.09817829 -0.61419308 0.030986166
0.045077022 -0.5390619 0.030209515
-0.184432 -0.65544146 0.031694598
-0.038702242 -0.5828414 0.03184332
0.13704002 -0.52434623 0.032715976
-0.135249 -0.62929875 0.033882584
0.12138738 -0.48926711 0.03364956
0.1454865 -0.53827465 0.034081325
-0.032291237 -0.58173388 0.03562836
-0.0053933356 -0.56694579 0.035540882
-0.17241067 -0.68811291 0.036413997
-0.17819743 -0.65320748 0.036071632
-0.0027177476 -0.56668466 0.036487415
0.075762533 -0.52377313 0.036569715
0.059577875 -0.58862251 0.037762251
0.049021255 -0.53751355 0.037908372
0.076052643 -0.47531372 0.037898496
-0.16948669 -0.68662542 0.038959526
-0.14266723 -0.67782944 0.038539652
-0.11008819 -0.65192908 0.038639158
-0.13175187 -0.64339417 0.038996324
-0.08606755 -0.64340484 0.038983461
0.00041592872 -0.61142719 0.038406156
0.027714258 -0.60361969 0.038758744
-0.069847919 -0.59601742 0.038140722
0.062858567 -0.58833945 0.038810633
0.12726846 -0.5026269 0.038771115
0.11412363 -0.47522813 0.03886361
-0.17487106 -0.6866377 0.039025981
-0.14790761 -0.67731529 0.039363261
-0.16941649 -0.66866225 0.039286397
-0.16702163 -0.66864765 0.039280538
-0.16116811 -0.66864282 0.039214693
-0.19107649 -0.66006804 0.039416254
-0.16696621 -0.65142548 0.039478999
-0.1642175 -0.65143842 0.039455008
-0.15300345 -0.6429075 0.039771862
-0.08038725 -0.6428839 0.039797924
-0.06676583 -0.64285189 0.039807029
-0.112852 -0.6348905 0.039466526
-0.13167466 -0.62694752 0.03932884
-0.11287821 -0.61895579 0.03922426
-0.1017718 -0.61888683 0.039148171
-0.080442242 -0.61101979 0.039309468
-0.061767966 -0.59563863 0.039065447
-0.058534492 -0.5952661 0.039976392
0.011461596 -0.59581572 0.039126087
0.024932053 -0.58064836 0.039440397
0.043678924 -0.56588906 0.039321121
0.068118833 -0.56590807 0.039384391
0.079136737 -0.56594652 0.039364435
0.098069072 -0.56595981 0.039459508
0.11121009 -0.56592613 0.039354607
0.025035895 -0.55140901 0.039876748
0.079235725 -0.55139786 0.039850827
0.052028377 -0.53716528 0.039905261
0.065623604 -0.53718567 0.03995923
0.14370717 -0.53738642 0.039034788
0.079196848 -0.5232774 0.039479904
0.13564174 -0.52327967 0.039535638
0.11945637 -0.4888168 0.039511032
-0.17983189 -0.6856584 0.040820919
-0.17740349 -0.68563837 0.040800571
-0.15027374 -0.67685175 0.040210214
-0.17464545 -0.6682049 0.04022041
-0.17173843 -0.66818058 0.040169615
-0.12098937 -0.66818047 0.040085021
-0.1258667 -0.66774845 0.04099397
-0.15013658 -0.65908211 0.040945455
-0.14761305 -0.65906107 0.040959839
-0.14471814 -0.6590628 0.040980961
-0.14221768 -0.65909064 0.040995441
-0.13959828 -0.65958709 0.040129375
-0.1716899 -0.65098959 0.040385
-0.16096668 -0.65098214 0.040300719
-0.15859288 -0.65096492 0.040288694
-0.15588413 -0.6509853 0.040284596
-0.14475775 -0.64245766 0.040675625
-0.14225537 -0.64248568 0.040689241
-0.13948283 -0.642528 0.040700793
-0.13404736 -0.64255548 0.040773429
-0.090844087 -0.64252359 0.040741157
-0.082655363 -0.64253718 0.040721074
-0.074747801 -0.64245433 0.040701795
-0.069436796 -0.64243895 0.040692784
-0.1180091 -0.63442987 0.040293496
-0.11527988 -0.63444287 0.040287919
-0.10718499 -0.63453662 0.040401977
-0.12842572 -0.6265496 0.040177319
-0.085830972 -0.62656742 0.040222172
-0.082742117 -0.62654459 0.040176224
-0.077683039 -0.6264509 0.04010088
-0.074829362 -0.62646216 0.04015832
-0.072310135 -0.62645406 0.040160511
-0.069519542 -0.62644672 0.04015059
-0.066689953 -0.62643719 0.040157098
-0.05852953 -0.62634665 0.040118571
-0.050635483 -0.62620896 0.040108781
-0.045323085 -0.6262421 0.040082593
-0.042742837 -0.62626606 0.040062916
-0.047900941 -0.62580949 0.040984608
-0.10978243 -0.61863607 0.04019862
-0.10721062 -0.61863357 0.040171526
-0.09089981 -0.61072445 0.040278498
-0.064199544 -0.5953455 0.040014949
-0.028854789 -0.59504718 0.040911864
-0.026217956 -0.59506607 0.040891107
-0.018251522 -0.59548527 0.040044032
-0.012552585 -0.59516317 0.040936071
0.0088438774 -0.59515727 0.040990289
-0.047892898 -0.59479511 0.040873013
-0.028943609 -0.58026707 0.040324934
-0.0020575833 -0.58030707 0.04033374
0.0061655911 -0.58035344 0.040395718
0.0087566776 -0.58037728 0.040401231
0.011701925 -0.58038461 0.040399607
0.019793699 -0.58033878 0.040384322
0.022338394 -0.58033639 0.040354092
0.028032325 -0.58038372 0.040442079
0.03873368 -0.58028221 0.040332548
0.043837488 -0.58028781 0.040312726
-0.015239106 -0.57302791 0.04026762
0.00079551945 -0.56567496 0.040313423
0.0087657562 -0.56571966 0.040358413
0.011710211 -0.56572711 0.040357046
0.025104132 -0.5656985 0.040340714
0.033105437 -0.56568795 0.04031191
0.041254595 -0.56561291 0.040264301
0.054925591 -0.56566924 0.040372841
0.05739399 -0.56566304 0.0403491
0.06005526 -0.56566232 0.040307898
0.071148083 -0.56565762 0.040294513
0.076376691 -0.5657143 0.040322885
0.08172635 -0.56568277 0.040321473
0.087004356 -0.56565386 0.040277556
0.089938402 -0.56567985 0.04032886
0.095228516 -0.5656532 0.040316623
0.1032348 -0.56567848 0.040361185
0.10617611 -0.56569189 0.040358767
0.11678362 -0.56564534 0.040263183
0.030602779 -0.55117887 0.040832158
0.036137465 -0.55114895 0.040796902
0.038841844 -0.55110961 0.040787097
0.041354738 -0.55109829 0.040760964
0.046926785 -0.55112517 0.040787105
0.049512468 -0.55110222 0.040750373
0.052173354 -0.5511353 0.040815398
0.055028733 -0.55115449 0.040867686
0.057496779 -0.5511483 0.040843975
0.063267969 -0.55117261 0.040907998
0.065768927 -0.55115592 0.040870782
0.073838592 -0.5511995 0.040846113
0.0764798 -0.55119938 0.040817812
0.081830353 -0.5511682 0.040816266
0.084447503 -0.55117702 0.040838126
0.087107942 -0.55113941 0.040774036
0.10627774 -0.5511775 0.040854067
0.11148421 -0.55115265 0.040801123
0.13843617 -0.55114669 0.040855136
0.14145552 -0.55115277 0.04085068
0.1440217 -0.55116618 0.040914103
0.055054367 -0.5369935 0.040922947
0.060190979 -0.53698707 0.040862348
0.0684155 -0.53697348 0.040886935
0.095356107 -0.5369783 0.040869813
0.14147875 -0.53699207 0.040907264
0.081800595 -0.52311677 0.040458623
0.079483852 -0.47518289 0.040842529
0.11159431 -0.47516316 0.040836345
-0.16671523 -0.69440782 0.0411922
-0.16396998 -0.69442117 0.041167758
-0.16084671 -0.69440347 0.041122772
-0.15280035 -0.67637503 0.041098412
-0.1447099 -0.67634749 0.041108366
-0.15831907 -0.67587435 0.041957192
-0.1852597 -0.6678108 0.041207206
-0.18277474 -0.66777664 0.041205101
-0.17975761 -0.6677562 0.04117671
-0.17732081 -0.66773635 0.04115599
-0.13126189 -0.66729677 0.041934039
-0.12830164 -0.66775924 0.041001964
-0.10709133 -0.65915966 0.041062068
-0.15265283 -0.65863633 0.041847873
-0.096324466 -0.65856099 0.041820932
-0.17443676 -0.6505751 0.041318651
-0.12581292 -0.65058833 0.041223761
-0.12336736 -0.65057749 0.04119781
-0.12078132 -0.65055066 0.04118586
-0.11513515 -0.65051764 0.041147776
-0.1125578 -0.65055829 0.041228626
-0.14749599 -0.64203328 0.041548256
-0.13636667 -0.64212942 0.041640934
-0.10418278 -0.64208871 0.041578248
-0.093210787 -0.64204389 0.041546505
-0.088288896 -0.64213216 0.041660625
-0.12334822 -0.63409579 0.041234426
-0.12076068 -0.63406867 0.04122328
-0.10426637 -0.62612802 0.041048903
-0.093295276 -0.62608397 0.041018546
-0.090767413 -0.62614095 0.041102737
-0.088367805 -0.62617201 0.041128948
-0.080150336 -0.62607843 0.041052595
-0.064041175 -0.62603527 0.041070025
-0.061451938 -0.62600327 0.041050341
-0.09885738 -0.62563044 0.041898169
-0.055826459 -0.62591308 0.041070942
-0.053375673 -0.62587315 0.041039001
-0.031221043 -0.62567711 0.041955166
-0.028702218 -0.62567133 0.041944213
-0.088336304 -0.61039692 0.041223429
-0.085636504 -0.61040145 0.041222502
-0.082556114 -0.61037821 0.041177996
-0.077492677 -0.61028522 0.041105524
-0.074638046 -0.61029637 0.041161455
-0.069329321 -0.61028099 0.041154992
-0.066498652 -0.61027145 0.041161209
-0.061417438 -0.61022794 0.041148365
-0.058341861 -0.61018085 0.04112573
-0.053340394 -0.61009771 0.041140035
-0.047868762 -0.6100347 0.041088194
-0.04513593 -0.61007673 0.04109161
-0.031348642 -0.61029255 0.041145507
-0.023228409 -0.61037111 0.041188493
-0.020735458 -0.61040336 0.041220617
-0.018066129 -0.61039948 0.041199565
-0.0099067828 -0.61041498 0.04120785
-0.0044497149 -0.61032963 0.041149218
-0.042387713 -0.60974312 0.04199104
0.014495707 -0.59517759 0.04101881
0.017023766 -0.59515119 0.041006707
-0.055653911 -0.59457248 0.041882075
-0.050301358 -0.59447837 0.041832447
-0.045000508 -0.59451181 0.041806486
-0.042409115 -0.59453648 0.041786052
-0.039535917 -0.59460849 0.041817129
-0.036955744 -0.59466636 0.041835982
-0.031208366 -0.59472728 0.041855052
-0.023089521 -0.59480602 0.041896239
-0.020592174 -0.59483802 0.041927211
-0.014975592 -0.59482765 0.041876614
-0.0097648818 -0.59484923 0.041913912
-0.0068336255 -0.59478885 0.041857898
-0.0043097814 -0.59476429 0.041857474
-0.0018079318 -0.59476149 0.041852385
0.0010412119 -0.59478694 0.041873038
0.0039112591 -0.59479851 0.041890785
0.0064185956 -0.59480768 0.041915528
0.020045385 -0.59479326 0.041904408
0.041447431 -0.58733755 0.041465841
0.057582889 -0.58738786 0.041553363
-0.020675695 -0.58009118 0.04134861
-0.012480021 -0.58009094 0.041289806
-0.0043964665 -0.58001733 0.041280448
0.00095411733 -0.58004016 0.041296341
0.0038246373 -0.58005166 0.041313831
0.014571007 -0.58010501 0.041370586
0.017103739 -0.58007854 0.04135897
0.030662388 -0.58005887 0.041321538
-0.026139157 -0.57999414 0.041247062
0.052221436 -0.57268643 0.041218601
0.065817431 -0.57270747 0.041276183
0.073888548 -0.57275075 0.041252434
0.0038340818 -0.5654276 0.041281939
0.0063405382 -0.56543708 0.04130454
0.014578298 -0.56548077 0.041336354
0.019970184 -0.56542224 0.041292857
0.022513714 -0.56541997 0.041263707
0.02820646 -0.56546688 0.04134937
0.030669929 -0.56543475 0.041288678
0.036200218 -0.56540513 0.041252933
0.038908076 -0.56536567 0.041242566
0.049582839 -0.56535798 0.041203797
0.10084555 -0.56541914 0.041318763
0.11444025 -0.56540465 0.041253597
0.022617389 -0.5509392 0.041767456
0.033377878 -0.55094814 0.04176658
0.044119406 -0.55089086 0.041728739
0.068558685 -0.55090958 0.041790709
0.071418516 -0.55091834 0.041750465
0.090209439 -0.55093986 0.041783072
0.10094881 -0.55093825 0.041821897
0.10350965 -0.55093873 0.041815288
0.10900141 -0.5509842 0.041856572
0.11454527 -0.55092371 0.041757029
0.11977281 -0.55091625 0.04169732
0.12274721 -0.55094963 0.041732933
0.12526104 -0.55094326 0.041767925
0.12774634 -0.55095714 0.041752022
0.13049378 -0.55096036 0.041787881
0.13345008 -0.55095631 0.041833073
0.13601339 -0.55095035 0.041826874
0.057692453 -0.53679645 0.041866023
0.063463673 -0.53682071 0.041928843
0.07144361 -0.53679192 0.041814353
0.074032977 -0.53684771 0.041867405
0.079598382 -0.53682095 0.041832212
0.084642597 -0.53682482 0.0418589
0.098529421 -0.536834 0.041925814
0.10097442 -0.53681141 0.041884292
0.10647234 -0.53682607 0.041876495
0.10902889 -0.53685695 0.04191716
0.11168348 -0.53680092 0.041823555
0.11708105 -0.53677899 0.041782644
0.11979935 -0.53678972 0.041761287
0.12277301 -0.53682274 0.041796301
0.12528588 -0.53681654 0.041830316
0.12777117 -0.53683037 0.041815072
0.13051894 -0.53683347 0.041850679
0.13347717 -0.53682947 0.041894536
0.13604037 -0.53682333 0.041888561
0.087249145 -0.52293175 0.041392334
0.092704594 -0.5229184 0.041401964
0.1034858 -0.52295548 0.041470252
0.11702796 -0.51601684 0.041356798
0.12271972 -0.51606053 0.041369952
0.12525578 -0.50916702 0.041502632
0.092780448 -0.50225765 0.041703492
0.095546134 -0.50227129 0.041732937
0.1064896 -0.50230974 0.041770227
0.11171196 -0.50228375 0.04171735
0.11981951 -0.5022732 0.041657772
0.076680459 -0.48873356 0.041549455
0.092763394 -0.48866153 0.041521363
0.095529318 -0.48867562 0.041550931
0.10355209 -0.48869866 0.041585702
-0.18255509 -0.68467832 0.042556416
-0.15545873 -0.67541027 0.042814244
-0.13913202 -0.67544818 0.042857718
-0.18763858 -0.66683978 0.042938855
-0.123114 -0.66679871 0.04270643
-0.1336969 -0.65825272 0.042835906
-0.10398647 -0.65820915 0.042746171
-0.16890046 -0.65012485 0.04214124
-0.12809663 -0.65016073 0.042118032
-0.11771534 -0.65006655 0.042039864
-0.071834087 -0.64962715 0.042984154
-0.063723698 -0.64959919 0.042987086
-0.14986776 -0.64163166 0.042426527
-0.10938816 -0.64171106 0.042567179
-0.09878049 -0.64155883 0.042412315
-0.09619873 -0.64156491 0.042423762
-0.12563466 -0.63369989 0.042159356
-0.096110359 -0.62524623 0.042815659
-0.036813192 -0.62522489 0.042840093
-0.033954706 -0.62527472 0.042847369
-0.025908597 -0.62529886 0.042827725
-0.022939684 -0.62536448 0.042906456
-0.014951658 -0.61003458 0.042088967
-0.012361237 -0.6100443 0.0420787
-0.071956135 -0.6099301 0.042083804
-0.063847765 -0.60990179 0.042086754
-0.055631917 -0.60977972 0.042089671
-0.05027999 -0.60968554 0.04203717
-0.039513927 -0.60981518 0.04202427
-0.036936205 -0.60987306 0.042044587
-0.033919357 -0.60956442 0.04297106
-0.028668238 -0.60992867 0.042053431
-0.026032949 -0.6099472 0.042031556
-0.0068110251 -0.60999602 0.042068657
-0.0017889871 -0.6099683 0.042063359
0.025433155 -0.6022228 0.042396586
0.030831704 -0.60221863 0.042395528
-0.053032521 -0.59420717 0.042784892
-0.033940446 -0.59439039 0.042773906
0.033459004 -0.58710372 0.042452391
0.036383264 -0.58708 0.042441983
0.049777579 -0.58703226 0.042388838
0.052424602 -0.5870654 0.042458065
0.055278908 -0.58708495 0.042513773
-0.02301112 -0.57976705 0.042260502
-0.017840747 -0.57979476 0.042269576
-0.0096835373 -0.57980961 0.042276569
-0.0067546833 -0.57974952 0.042223036
0.047143113 -0.57240134 0.042136978
0.063482419 -0.57244837 0.042261679
0.084663473 -0.57245314 0.042191848
0.017283326 -0.56519532 0.042276431
0.092797875 -0.56512386 0.042190455
0.10906389 -0.56520665 0.04230652
0.060433861 -0.55790222 0.042401053
0.028478159 -0.55076069 0.042810421
0.092903599 -0.55067682 0.042703319
0.095669143 -0.55068898 0.042732213
0.098674446 -0.55073595 0.042823888
0.1172243 -0.55068094 0.04267852
0.076846339 -0.5366565 0.042806599
0.082197793 -0.53662574 0.042804904
0.092931353 -0.53658414 0.042774234
0.10370948 -0.53662109 0.042844135
0.11474299 -0.53660595 0.042786468
0.13880567 -0.53660405 0.042843893
0.084757216 -0.52281159 0.042423546
0.090349466 -0.52279967 0.042410966
0.095641546 -0.52277499 0.042403873
0.098641999 -0.52282089 0.042490769
0.10108871 -0.52279854 0.042450085
0.10658653 -0.5228135 0.042442732
0.10914507 -0.52284366 0.04248118
0.11180226 -0.52278805 0.042389803
0.11468847 -0.52278376 0.04238585
0.11991472 -0.52277714 0.042328626
0.12539947 -0.52280378 0.04239611
0.12788473 -0.52281749 0.04238151
0.13359298 -0.5228166 0.04245941
0.13063689 -0.51593214 0.042398721
0.079739518 -0.50904924 0.042481754
0.082175113 -0.5090453 0.042487875
0.08478684 -0.50905252 0.042506404
0.08745192 -0.50901693 0.042450503
0.09037891 -0.50904065 0.042494804
0.098669782 -0.50906205 0.042573892
0.10369038 -0.5090403 0.042526621
0.10917628 -0.50908452 0.042563409
0.117272 -0.50215733 0.042657919
0.071527049 -0.49543077 0.042051282
0.07411661 -0.49548551 0.042098131
0.098609366 -0.49547115 0.042155962
0.1065568 -0.49546477 0.042110428
0.084816396 -0.48864058 0.042546723
0.087483935 -0.48860589 0.04249467
0.10114741 -0.48862845 0.042575911
0.10920824 -0.48867247 0.04260277
0.11187182 -0.48861796 0.042516779
0.08214397 -0.4818925 0.042123374
0.084752128 -0.4818987 0.042139906
0.095638603 -0.4818643 0.042127769
0.087551095 -0.47508162 0.042783685
0.093002543 -0.47506729 0.042792644
0.098760396 -0.47512561 0.0429013
0.10121269 -0.47510391 0.04286344
0.10379417 -0.47510433 0.042855445
0.10671023 -0.47512007 0.04285752
0.10927528 -0.47514749 0.042888653
-0.13611835 -0.68417126 0.043228459
-0.16349523 -0.67494023 0.043734714
-0.11745106 -0.67488337 0.043660391
-0.13603351 -0.66636091 0.043638315
-0.11472312 -0.66626936 0.043522716
-0.098591112 -0.65764761 0.043563984
-0.092858858 -0.6577096 0.043590497
-0.077048875 -0.64918554 0.043808576
-0.10105602 -0.64116579 0.0433167
-0.039228272 -0.62477666 0.043724842
0.0042245467 -0.61710292 0.043796498
0.022834387 -0.60186166 0.043294214
0.047345314 -0.58674735 0.043366451
0.090575926 -0.53643113 0.04377877
0.076994687 -0.50895351 0.043467298
0.10129032 -0.50891799 0.043511525
0.11489177 -0.50890315 0.043447606
0.12313645 -0.50209635 0.043650147
0.06884788 -0.49533314 0.043069229
0.07985229 -0.49537119 0.04304564
0.082291156 -0.49536756 0.043051817
0.090492994 -0.49536249 0.043058693
0.11733964 -0.49532959 0.043000229
0.11492418 -0.48854363 0.043494947
0.090517364 -0.48183465 0.043113668
-0.10086836 -0.65722328 0.044453613
-0.060903315 -0.64069653 0.044256195
0.087986656 -0.53602487 0.045664478
-0.15744027 -0.69078088 0.047019862
