# .PCD v0.7 - Point Cloud Data file format
VERSION 0.7
FIELDS x y z
SIZE 4 4 4
TYPE F F F
COUNT 1 1 1
WIDTH 434
HEIGHT 1
VIEWPOINT 0 0 0 1 0 0 0
POINTS 434
DATA ascii
0.025400599 -0.79531986 0.0020881689
-0.083350167 -0.69813818 0.0023073654
-0.13105437 -0.66068542 0.0023154879
0.031301215 -0.79408628 0.0036630887
-0.067370139 -0.71746206 0.0031446391
-0.0620391 -0.71737021 0.0031290452
-0.11231538 -0.66944504 0.0032173262
0.076711632 -0.83033293 0.0049943454
-0.00059177767 -0.77021033 0.0044220272
-0.04579252 -0.73704618 0.0046815048
-0.040299304 -0.73717046 0.0048154788
-0.14375746 -0.65080476 0.0044039018
0.071044445 -0.8303557 0.005016664
0.044832386 -0.80457562 0.0055655907
-0.056423359 -0.72575939 0.0058901152
-0.12507845 -0.66760349 0.0066205552
-0.10624594 -0.67625481 0.0075756465
0.058701068 -0.81452203 0.0085846363
0.10612468 -0.81449342 0.0085214367
0.11174172 -0.8144871 0.0084709469
-0.018782284 -0.75648558 0.0080493353
-0.013121955 -0.75589144 0.0089287432
-0.028893804 -0.74515963 0.0088182837
-0.024013815 -0.74574417 0.0080079855
0.0056900266 -0.77823108 0.0090499725
-0.11916768 -0.66630554 0.0093502114
0.10402346 -0.81259769 0.010866777
0.0376206 -0.80018884 0.010937206
0.024368744 -0.7885552 0.0106419
0.011057304 -0.77698809 0.010613438
-0.089976333 -0.69385958 0.010170656
-0.10047277 -0.68407524 0.01050616
0.14399344 -0.83762372 0.011361061
0.069795683 -0.82447022 0.011727227
-0.033986341 -0.74336606 0.011121378
-0.094914369 -0.69338691 0.011030813
0.13651404 -0.84968483 0.012903954
0.088623315 -0.83631569 0.012881827
0.096457653 -0.82373387 0.012444597
0.051087357 -0.81131947 0.012376008
-0.1132352 -0.67369068 0.012999137
0.064907506 -0.82310033 0.013199225
-0.0072034942 -0.76371789 0.013195992
-0.078722782 -0.70157039 0.013280836
-0.13724163 -0.65565366 0.013101344
-0.13145782 -0.65478563 0.014847015
-0.15018897 -0.64624333 0.014232067
-0.083458111 -0.70005381 0.015838318
0.07566236 -0.8330273 0.016596653
0.03076824 -0.79582065 0.016328402
0.017325724 -0.78363001 0.016878445
-0.14458859 -0.64507091 0.01698881
0.08127556 -0.83230716 0.017255768
0.044467628 -0.80675912 0.017515313
-0.0008244674 -0.77156454 0.017701382
0.0042810994 -0.77158386 0.017664947
-0.046237212 -0.72826284 0.017889056
-0.072573863 -0.7087695 0.017530158
-0.067372993 -0.70875978 0.017484691
-0.10678504 -0.67988104 0.018337952
-0.12576357 -0.66194022 0.018160252
-0.15190433 -0.64421105 0.018725654
0.058122005 -0.81723279 0.019924488
-0.0086430609 -0.75899291 0.019502301
-0.035174489 -0.73782146 0.019402556
0.023475785 -0.79271293 0.020264402
-0.013558008 -0.75851667 0.020407224
-0.061299521 -0.71633881 0.020967668
-0.095730573 -0.68800908 0.020460527
-0.090773106 -0.6880613 0.020515995
-0.10140305 -0.68791789 0.020363275
0.01556065 -0.779908 0.021494344
-0.024142304 -0.74732971 0.021052947
-0.042789571 -0.73602706 0.021727713
-0.040392302 -0.73665059 0.02100049
-0.051050834 -0.72600651 0.021175716
-0.11993519 -0.66903591 0.021671325
0.14330743 -0.8400743 0.022900585
0.095533259 -0.82763177 0.022414237
0.028979613 -0.79076588 0.022428749
-0.018741842 -0.75672901 0.022766475
-0.029327169 -0.74607998 0.022546755
-0.13822907 -0.6514197 0.022024142
0.10384047 -0.8139357 0.023608889
0.037316434 -0.80161816 0.023565134
0.010781601 -0.77874476 0.023113566
-0.058416035 -0.72446406 0.023742782
-0.055855084 -0.72443146 0.023709143
-0.084932551 -0.6956026 0.023557819
0.063961461 -0.82561356 0.024591422
0.069584191 -0.8256281 0.024519999
0.056100745 -0.81326634 0.024329271
0.11168388 -0.81325948 0.024325738
-0.0022000188 -0.76612234 0.024748236
-0.074216522 -0.70466274 0.024267307
0.088019997 -0.83738506 0.025842011
0.050672859 -0.81262481 0.025097426
-0.036607139 -0.74378419 0.02583511
-0.079203993 -0.7036224 0.02588789
-0.1137821 -0.67619383 0.025385005
-0.10827052 -0.67573559 0.026267432
0.035473745 -0.79844993 0.02741611
0.022260386 -0.78637689 0.027816191
-0.13206837 -0.65763974 0.027121672
0.080757938 -0.83536315 0.028003756
0.075216003 -0.83470291 0.028746367
0.048907708 -0.80930823 0.028755873
-0.041625764 -0.78556436 0.028433887
-0.036153764 -0.7856847 0.028582616
-0.0096486444 -0.763156 0.028733691
-0.068115219 -0.7116732 0.028505484
-0.12641189 -0.66547447 0.028717214
0.0037708576 -0.77376461 0.029251499
-0.046664622 -0.73031998 0.029883012
-0.14480476 -0.64759004 0.029973963
0.043575212 -0.80804461 0.030331582
0.0093920324 -0.78451705 0.030131215
-0.054657005 -0.78358632 0.030755548
-0.049406156 -0.78352821 0.030692939
-0.11544494 -0.6733191 0.030549983
0.033366024 -0.85904562 0.03136839
0.062674969 -0.8196165 0.031212281
0.041274123 -0.80670166 0.031742997
-0.038654398 -0.7951349 0.031143798
0.0040935241 -0.79523098 0.031165417
-0.030381758 -0.79450005 0.03181519
0.01474963 -0.78322089 0.031652838
-0.10202816 -0.68162596 0.031573098
0.078364551 -0.87240207 0.032157078
0.04952272 -0.83124006 0.032301601
0.023079433 -0.80607814 0.032527413
0.017517382 -0.79393256 0.032677621
0.028243363 -0.79396045 0.032690484
-0.062290784 -0.71910846 0.032019001
-0.096539825 -0.69004798 0.032903153
0.060549892 -0.88510257 0.033884462
0.075974606 -0.88583469 0.033168852
0.094964765 -0.88507038 0.033804394
0.084052384 -0.84367138 0.033077158
0.094982393 -0.82989579 0.033755194
0.12130603 -0.82992893 0.033770844
0.10291433 -0.81762064 0.033477571
-0.027361408 -0.80470473 0.033950858
-0.014390844 -0.78199053 0.03313854
-0.00059904851 -0.78129917 0.033925191
-0.0035704046 -0.77004349 0.033918105
-0.014332415 -0.759565 0.033377662
-0.030000985 -0.74837619 0.033804741
0.092392743 -0.89931571 0.034590162
0.052287392 -0.88435555 0.034525022
0.11070938 -0.86946958 0.034800649
0.081824929 -0.85619378 0.034125064
0.12692714 -0.85622513 0.034131713
0.060736351 -0.85550714 0.034887783
0.10037918 -0.85544759 0.034837227
0.063249908 -0.84230453 0.034545582
0.14283551 -0.84230524 0.034578182
0.041743249 -0.82921141 0.03447732
0.11346187 -0.82920885 0.034494095
0.054910157 -0.81695122 0.034159165
-0.032531779 -0.80404538 0.034752291
-0.014127707 -0.80412912 0.034722861
-0.0060061491 -0.80403781 0.034666833
0.010064924 -0.80479437 0.034034248
0.033869136 -0.80477029 0.034007184
-0.011010213 -0.79207718 0.034990285
-0.003409788 -0.79198992 0.034948669
0.0072652833 -0.78071469 0.034686364
-0.024358734 -0.76947868 0.034735765
-0.069682591 -0.75884974 0.034182854
-0.019417098 -0.75897038 0.034229919
-0.02433872 -0.74789959 0.034749221
0.08963488 -0.88359517 0.035159562
0.09781713 -0.86876452 0.035535034
0.020508833 -0.84161687 0.035248399
0.02866558 -0.84161758 0.035216726
0.078936547 -0.84163678 0.035276484
0.10321908 -0.84162128 0.035325851
0.087000363 -0.84088105 0.035848472
0.12440495 -0.84090972 0.0358935
0.068774782 -0.82852739 0.035237074
0.13216497 -0.82856369 0.035292365
0.034194045 -0.82788461 0.035953902
0.10058502 -0.82782263 0.035944015
0.12725978 -0.82789254 0.035933133
0.020589145 -0.8156088 0.035597291
0.028738786 -0.81560946 0.035567109
0.036896847 -0.81559956 0.035574906
0.11649132 -0.81556994 0.035488721
-0.061711326 -0.79124582 0.035659593
-0.043171268 -0.79114509 0.035559852
-0.0058654523 -0.7800113 0.035381362
-0.082823701 -0.72666138 0.035705332
-0.074791923 -0.72663051 0.035658322
-0.06685888 -0.72660971 0.03570731
-0.11758264 -0.71699929 0.035308812
-0.077561691 -0.71699154 0.035272673
-0.15460199 -0.70749372 0.035152871
-0.14898358 -0.68858862 0.035466783
0.071668595 -0.88214892 0.036451511
0.042022124 -0.86804092 0.036166977
0.092817627 -0.86731124 0.036885753
0.095400438 -0.85406107 0.036202412
0.12172406 -0.85409427 0.036219951
0.07664822 -0.8533867 0.036932949
0.098027892 -0.8402068 0.036654837
0.11104503 -0.84019291 0.036605071
-0.010723431 -0.82723558 0.036706474
0.052699752 -0.82718444 0.036682423
0.013090072 -0.81497943 0.036357407
0.047881342 -0.81421566 0.03694294
-0.019098148 -0.80282462 0.036278594
0.013131277 -0.79078549 0.036518689
0.020765422 -0.79074597 0.036491368
-0.026820283 -0.77876389 0.03693901
-0.010771076 -0.76828349 0.036286816
-0.077300966 -0.7675395 0.036933362
-0.058517929 -0.7674365 0.036977444
-0.10917011 -0.74675167 0.036367759
-0.04288068 -0.73556608 0.036984805
-0.12249785 -0.71595305 0.036956459
-0.092840493 -0.71594983 0.036990982
-0.074582554 -0.70639586 0.036810063
-0.090353556 -0.69702041 0.036973275
-0.10918903 -0.67935526 0.036040105
-0.13805304 -0.65280157 0.036827911
0.066139974 -0.89634657 0.037222706
0.087198041 -0.89633727 0.037141558
0.074372396 -0.89566511 0.037909102
0.1086209 -0.88143271 0.0372582
0.048010927 -0.88064939 0.037773024
0.058389574 -0.86660731 0.03755337
0.087274343 -0.86658597 0.037487641
0.052853156 -0.85266328 0.037642617
0.069182403 -0.85264236 0.0376385
0.047928594 -0.83947796 0.037251089
0.06619218 -0.83950108 0.037344191
0.074297093 -0.83956248 0.037366282
0.092918254 -0.83949786 0.037345417
0.11940143 -0.83952379 0.037285279
0.1382378 -0.83954155 0.037451975
0.039828975 -0.83878392 0.037975445
-0.016270183 -0.81429225 0.037038554
-0.0082230475 -0.8142795 0.037089661
0.0051098373 -0.81425625 0.037014101
-0.021229411 -0.81365031 0.03784373
0.0077814967 -0.81361175 0.037757047
0.015801402 -0.81360143 0.037786104
0.039792564 -0.81354731 0.037689444
0.1112614 -0.81356692 0.037734713
-0.023984082 -0.80214214 0.037012432
0.0025469468 -0.80212462 0.037007857
0.026425453 -0.80218369 0.037091527
-0.037467904 -0.76689756 0.037769657
-0.04825053 -0.7562089 0.037174378
-0.026744407 -0.75647616 0.037286181
-0.087752715 -0.74555558 0.037940536
-0.058347858 -0.74535298 0.037855454
-0.045284566 -0.74525172 0.037766237
-0.085127912 -0.73523206 0.037951484
-0.077123389 -0.73515207 0.037830971
-0.056081932 -0.73557758 0.037057079
-0.12485216 -0.71543503 0.037818901
-0.10097192 -0.71532559 0.037728492
-0.069005795 -0.71535528 0.037835795
-0.079625614 -0.70584923 0.037645161
-0.12243886 -0.68760633 0.037170596
-0.098456293 -0.68751496 0.037108574
-0.13290457 -0.65236264 0.037741002
0.069319844 -0.89486581 0.038551472
0.08499229 -0.87994385 0.038527004
0.050548363 -0.86586589 0.03820318
0.066336572 -0.8658759 0.038251776
0.10638634 -0.86590135 0.03826176
0.11966882 -0.86517912 0.038877103
0.072114959 -0.85123682 0.038949281
0.10883593 -0.85195839 0.038383044
0.0027315023 -0.82581711 0.038142242
0.010773797 -0.82586241 0.038141619
0.026608957 -0.82587636 0.038228892
0.061448354 -0.82515365 0.038873505
0.031786628 -0.81292474 0.038476981
-0.0080383327 -0.78946882 0.038027328
-0.015955957 -0.78883928 0.03873184
-0.021059832 -0.7664398 0.038655855
-0.015966658 -0.76641279 0.038584225
-0.034314375 -0.75527126 0.038921077
-0.090067312 -0.73467028 0.038754635
-0.068864882 -0.73457599 0.038724441
-0.061131489 -0.73451817 0.038687818
-0.053234093 -0.73439956 0.038635653
-0.047990635 -0.73434281 0.038579211
-0.087689593 -0.72503501 0.038214445
-0.11941335 -0.72439384 0.038895927
-0.10318796 -0.72440088 0.038938437
-0.095509052 -0.72436875 0.038931351
-0.071645148 -0.72438729 0.038972866
-0.058139417 -0.72427338 0.038951259
-0.13277315 -0.71492767 0.038718686
-0.10873918 -0.7149328 0.038722117
-0.063654341 -0.71480173 0.038615238
-0.10325527 -0.70534265 0.038492944
-0.082310028 -0.70536667 0.038524412
-0.1087332 -0.69601792 0.038692791
-0.12469616 -0.69597548 0.038615689
-0.11698659 -0.69590634 0.038585924
-0.10081597 -0.69586623 0.038529243
-0.092541851 -0.6959461 0.038615741
-0.16986772 -0.6866129 0.038964011
-0.15659966 -0.68659014 0.038877562
-0.12999952 -0.68668765 0.038988952
-0.16464694 -0.67785275 0.038544293
-0.1194727 -0.67779803 0.038478948
-0.12732059 -0.66049677 0.038406026
-0.16169304 -0.65184236 0.038529228
-0.14080022 -0.65188575 0.038588319
0.082697071 -0.89413869 0.039178036
0.055886611 -0.87851483 0.039943609
0.03748294 -0.85124576 0.039030943
0.045075912 -0.85126179 0.039071705
0.1303461 -0.85125744 0.039022099
0.090447173 -0.8505128 0.03969501
0.11719603 -0.85050887 0.039635934
0.13566472 -0.85056144 0.039773654
0.058742922 -0.83742952 0.039455667
0.106617 -0.8374427 0.039479144
-0.0051742718 -0.82439852 0.039468411
0.018703617 -0.82443458 0.039535027
0.00043887857 -0.81155986 0.039955709
-0.044924933 -0.77601218 0.039901745
-0.01853824 -0.77696329 0.039328486
0.0029689481 -0.77691942 0.039315999
-0.02905733 -0.76567459 0.039240234
-0.042372867 -0.76491821 0.03999263
-0.060979657 -0.75458008 0.039650071
-0.079337224 -0.74428147 0.039426193
-0.05053404 -0.74406934 0.039403357
-0.037151776 -0.74425483 0.039463226
-0.084834546 -0.7143485 0.039518911
-0.13763361 -0.70490485 0.039407752
-0.11134105 -0.70487761 0.039422307
-0.13755092 -0.68617183 0.039810371
-0.11125338 -0.68614489 0.039824311
-0.10302543 -0.68607956 0.03973271
-0.15384138 -0.67735177 0.039379686
-0.14315996 -0.67737883 0.039394826
-0.14831442 -0.66862589 0.039207768
-0.14070149 -0.66866934 0.039274924
-0.12206613 -0.66864324 0.039203998
-0.1588894 -0.65139359 0.039392941
0.064297087 -0.87777215 0.040594041
0.104129 -0.87778336 0.040669274
0.11446331 -0.86372274 0.040290978
0.0083150342 -0.83606976 0.040878415
0.016206561 -0.83675456 0.040199883
0.024537588 -0.83606738 0.040895313
0.032068044 -0.83674657 0.040158138
0.045315251 -0.82378668 0.040317301
0.10919494 -0.82377636 0.040325344
-0.020781025 -0.78758067 0.040313017
-0.031577192 -0.77624279 0.040056191
-0.06327682 -0.76445103 0.040851831
-0.03951608 -0.75395012 0.040353559
-0.071431361 -0.74370378 0.040269829
-0.079124697 -0.72325915 0.040558781
-0.10582495 -0.71382487 0.040372826
-0.097929791 -0.71368319 0.04019371
-0.14566629 -0.70428926 0.040167559
-0.095276952 -0.70425153 0.040156811
-0.087315261 -0.70435804 0.040253274
-0.1190447 -0.70374644 0.04095789
-0.1511803 -0.69491786 0.040316585
-0.13246907 -0.69498295 0.040378362
-0.10580819 -0.69496882 0.040379036
-0.17773247 -0.67691147 0.04045333
-0.12438899 -0.67688853 0.040269896
-0.12977768 -0.66825485 0.040184494
-0.15862854 -0.66767704 0.040930443
-0.153704 -0.65955138 0.040097564
-0.14560619 -0.65096372 0.040299777
0.079996087 -0.90693724 0.041590918
0.07492917 -0.86305982 0.041012645
0.056119803 -0.84913754 0.041168053
-0.0022503266 -0.82237446 0.041705232
-0.055302128 -0.76369959 0.041619796
-0.050163992 -0.76363558 0.04158571
-0.052802436 -0.75325871 0.041167066
-0.031344112 -0.75346267 0.041272268
-0.07368701 -0.75285226 0.04197963
-0.063238099 -0.74309444 0.041035164
-0.10028107 -0.74248612 0.041771237
-0.091999754 -0.74256462 0.041862339
-0.097653002 -0.7322436 0.04182874
-0.11099443 -0.7227875 0.041484483
-0.12962589 -0.71331114 0.041201107
-0.089627758 -0.7132712 0.041168101
-0.11347547 -0.71266598 0.04195359
-0.14288504 -0.70381188 0.041014571
-0.13491206 -0.7038368 0.04110473
-0.12690106 -0.7038222 0.041071109
-0.15861386 -0.69437617 0.041098002
-0.11345056 -0.69386995 0.041998807
-0.14542922 -0.68508679 0.041443165
-0.15101032 -0.67637622 0.041143563
-0.13231149 -0.67644149 0.041206114
-0.16110988 -0.6758756 0.041968968
-0.11637255 -0.67585033 0.041965187
-0.16933382 -0.66724169 0.041899234
-0.13732532 -0.66776979 0.041023202
-0.1641995 -0.65911341 0.041000064
-0.14271687 -0.65867043 0.041867692
-0.13472883 -0.65869558 0.041952137
-0.14795677 -0.65052706 0.041179847
-0.089494877 -0.75292629 0.042080011
-0.081733204 -0.75288326 0.042030942
-0.065764859 -0.75283152 0.042030625
-0.10555158 -0.73238546 0.042013656
-0.11335264 -0.73174161 0.042746596
-0.12670842 -0.72223306 0.042280324
-0.14024933 -0.69391418 0.042030662
-0.126653 -0.68464905 0.04236041
-0.17479327 -0.67594653 0.042131465
-0.16656527 -0.66679662 0.042748071
-0.15591404 -0.66674972 0.042684134
-0.15069993 -0.65818346 0.042768691
0.10194253 -0.88889706 0.043804217
-0.070927151 -0.76262569 0.04321276
-0.16649882 -0.68413758 0.043207753
-0.13452062 -0.68416363 0.043248046
-0.17166248 -0.67492175 0.043809723
-0.1450436 -0.66627699 0.043561265
-0.065322906 -0.77243763 0.044617776
-0.094578005 -0.75102127 0.04434808
-0.16023278 -0.69078225 0.047032215
