# .PCD v0.7 - Point Cloud Data file format
VERSION 0.7
FIELDS x y z
SIZE 4 4 4
TYPE F F F
COUNT 1 1 1
WIDTH 1471
HEIGHT 1
VIEWPOINT 0 0 0 1 0 0 0
POINTS 1471
DATA ascii
0.31676239 0.18228725 -0.78326017
0.31424299 0.10856918 -0.79746014
0.27552822 0.15115495 -1.0169952
0.27546394 0.091683939 -1.0172979
0.27547741 0.033611253 -1.0171598
0.31655928 -0.095404401 -0.78408223
0.27616075 -0.079559989 -1.0131611
0.2764658 -0.13424444 -1.0113695
0.31393576 -0.22954923 -0.79878426
0.27436012 -0.26458067 -1.0231591
0.27497649 -0.31717747 -1.0196017
0.27487725 -0.36884949 -1.020103
0.2743983 -0.42022851 -1.0227579
0.27423099 -0.47167033 -1.023645
0.31290022 -0.51537985 -0.8042689
0.31467205 -0.55846345 -0.79415977
0.31462732 -0.60213798 -0.79435295
0.27372852 -0.70553982 -1.0262135
0.27392665 -0.75845629 -1.0250264
0.27462456 -0.81134677 -1.0210048
0.3149032 -0.80375153 -0.79251277
0.31570676 -0.84913898 -0.7878933
0.31236652 -0.90338916 -0.80677336
0.31445533 -0.94831604 -0.79486412
0.27527761 -1.1248901 -1.0169411
0.27344275 -1.4681523 -1.0269971
0.27603483 -1.5735949 -1.0121883
0.27637574 -1.6541648 -1.0101798
0.2756874 -1.7444261 -1.0140054
0.27503142 -1.8404421 -1.0176451
0.27437979 -1.9431604 -1.021258
0.27337033 -2.0557828 -1.0268966
0.27422425 -2.1652393 -1.0219672
0.27914372 -2.3195584 -0.99393827
0.27853432 -2.4634726 -0.99729604
0.27743495 -2.6263411 -1.0034261
0.27479675 -2.8216126 -1.0182725
0.27414975 -3.02125 -1.0218232
0.28234497 -3.267653 -0.97517931
0.30853271 -3.2032967 -0.82661599
0.32785615 -3.2101948 -0.71696121
0.84368539 -4.9529748 2.2107008
0.87402773 -4.9309216 2.3828564
1.0128447 -6.1828961 3.1707664
1.0289084 -5.8844323 3.2618308
1.0189494 -4.9852705 3.2051277
1.056101 -4.805285 3.4158785
1.0461115 -4.4220171 3.3591335
1.0438474 -4.1315446 3.346242
1.0152709 -3.6915433 3.1840458
1.0467896 -3.6679788 3.3628757
1.0395768 -3.4106953 3.3219249
1.0337156 -3.1808536 3.2886522
1.0306963 -2.9820359 3.2715099
1.0379061 -2.7603691 3.3124092
1.038963 -2.6044395 3.318403
1.0122879 -2.3480363 3.1670585
1.0413171 -2.3144827 3.331763
1.0335274 -2.1484497 3.2875736
1.0269773 -1.9958512 3.2504199
1.0254524 -1.8655268 3.2417784
1.0234426 -1.7389278 3.2303889
1.0222819 -1.5617384 3.2238235
1.0233302 -1.4515754 3.229785
1.0213262 -1.3382365 3.2184315
1.0214102 -1.2313132 3.2189248
1.0236795 -1.1292449 3.2318144
0.97998327 -0.97642118 2.9839573
1.0185999 -0.9182418 3.2030344
1.0191082 -0.81828624 3.205936
1.0070699 -0.71265274 3.1376677
1.0127629 -0.56915903 3.1699893
1.0097563 -0.47192708 3.1529536
0.58614278 -0.44890708 0.75020969
0.5744698 -0.43985331 0.68407625
0.57229841 -0.43698901 0.67178595
0.57098144 -0.43376818 0.66434222
0.57006311 -0.41756785 0.65923691
0.56936532 -0.40992287 0.65533072
0.56988591 -0.38661727 0.65841174
0.57078511 -0.37513188 0.66356289
0.57455802 -0.35006717 0.68503624
0.57246095 -0.35035166 0.6731686
0.57113296 -0.33797231 0.66571337
0.57118082 -0.32653883 0.66603518
0.57055753 -0.31710169 0.66255069
0.5704397 -0.30544177 0.66193241
0.56967938 -0.28954262 0.65769565
0.56960589 -0.27637076 0.65732831
0.56967902 -0.26167098 0.65779179
0.56917471 -0.24126074 0.65500504
0.81064701 1.6788802 2.0241334
0.79026443 1.6751586 1.9085709
0.76961577 1.660068 1.7915035
0.74428642 1.5896623 1.647909
0.7385664 1.7033561 1.6154678
0.71507776 1.7230393 1.482302
0.697842 1.7097361 1.3845925
0.68295169 1.7200565 1.300177
0.65464669 1.5137724 1.1397618
0.64226353 1.5330328 1.0695637
0.62898511 1.5334014 0.9942956
0.61462075 1.5027654 0.91288114
0.60303092 1.5304849 0.84717882
0.59090632 1.5460914 0.77844858
0.57213432 1.5460719 0.67204392
0.55978191 1.5475155 0.60202742
0.54751033 1.5514557 0.53246766
0.53523439 1.5549268 0.46288362
0.52296227 1.5479312 0.3933256
0.51057523 1.5614517 0.32310614
0.49833289 1.5515164 0.25371802
0.48578775 1.5580053 0.18260475
0.46675789 1.5628657 0.074733183
0.45402569 1.560847 0.00256208
0.44157779 1.5484149 -0.067991734
0.42871147 1.5430666 -0.14092232
0.40239868 1.5316929 -0.29007483
0.38792244 1.5393333 -0.37214437
0.37235567 1.5545188 -0.46040377
0.38044098 1.2069293 -0.41430065
0.33654398 1.5276636 -0.66340852
0.31971028 1.5340581 -0.75885147
0.30266476 1.5352287 -0.8554939
0.28714702 1.5171945 -0.94346094
0.2830613 1.4074835 -0.96653545
0.28227577 1.1622399 -0.97077388
0.36114621 0.56387323 -0.5230338
0.27568233 0.9363668 -1.007941
0.27618966 0.83845168 -1.0049651
0.27623498 0.74894738 -1.0046138
0.27581945 0.36929229 -1.0065297
0.31561112 0.18084948 -0.7806586
0.31458202 0.12972917 -0.78641915
0.27424195 0.15033552 -1.0151898
0.27417925 0.090928987 -1.0154643
0.27353746 0.034224018 -1.0190252
0.31443554 -0.094557516 -0.78690368
0.27420786 -0.079081133 -1.0150619
0.27467626 -0.13405846 -1.0123252
0.31230325 -0.22958067 -0.7987749
0.27342123 -0.26517764 -1.0192488
0.27317461 -0.31711319 -1.0205694
0.27289912 -0.36875048 -1.022054
0.27293757 -0.42030439 -1.0217576
0.2729415 -0.47171164 -1.021657
0.31264088 -0.51513386 -0.79637319
0.31319529 -0.5584265 -0.79315329
0.31314784 -0.6020664 -0.79334742
0.27310976 -0.70464391 -1.0203478
0.27312869 -0.75754523 -1.0201609
0.2729719 -0.81138968 -1.0209701
0.27248812 -0.86667168 -1.0236336
0.3137103 -0.84975737 -0.78973854
0.3108646 -0.90309834 -0.80580139
0.27128884 -1.040086 -1.0301896
0.27361143 -1.1249343 -1.0168906
0.27133206 -1.4698758 -1.0293781
0.27148041 -1.5461882 -1.0284438
0.27509466 -1.6523229 -1.0078051
0.274654 -1.7411922 -1.0102055
0.27346674 -1.8398068 -1.0168362
0.27243945 -1.9446217 -1.0225562
0.27262011 -2.0499799 -1.0214229
0.27297878 -2.1622684 -1.019276
0.27797157 -2.3156652 -0.99079078
0.27764049 -2.4570479 -0.99254137
0.27630308 -2.6214149 -0.99998903
0.27409035 -2.8123331 -1.0123882
0.27459767 -2.9996488 -1.0093579
0.27300289 -3.2335811 -1.0182287
0.30679631 -3.2033372 -0.82644808
0.57513773 -3.0674567 0.6966759
0.91954696 -8.9072208 2.6539335
0.840442 -4.9333925 2.203223
1.0146378 -6.2267833 3.1922507
1.0260859 -5.8745632 3.2570567
1.0266906 -5.453186 3.2603095
1.0167693 -4.9825749 3.2038209
1.0387566 -4.8383522 3.3285258
1.0419217 -4.404294 3.3463185
1.0421809 -4.1329484 3.3476884
1.0120353 -3.6823454 3.1764758
1.0458642 -3.6736822 3.3684282
1.038081 -3.4126728 3.3241789
1.0302098 -3.1718471 3.2794411
1.027799 -2.9766495 3.2657044
1.0279728 -2.8059664 3.266643
1.0305859 -2.6552031 3.28143
1.0084467 -2.3400798 3.1557336
1.0406671 -2.3185902 3.3385468
1.0327586 -2.1518211 3.293637
1.0259287 -1.9980731 3.2548525
1.0234869 -1.8649651 3.2409716
1.0202113 -1.7351459 3.2223632
1.0179117 -1.612874 3.2092948
1.0212096 -1.4508076 3.2279789
1.0195388 -1.3381219 3.2184823
1.01946 -1.2309418 3.2180192
1.0215631 -1.1286837 3.2299356
0.97804302 -0.9761284 2.9830239
1.0091159 -0.91109407 3.1592941
1.0166553 -0.81769335 3.2020521
1.009981 -0.7149052 3.1641777
1.0111622 -0.61779386 3.1708655
1.0062735 -0.47182918 3.1431165
0.58440971 -0.44887605 0.75021648
0.57066959 -0.44128641 0.67235225
0.56898552 -0.42538685 0.66289639
0.56765223 -0.41417575 0.65540648
0.56775641 -0.39198893 0.6561166
0.56918561 -0.37965283 0.66426879
0.57267374 -0.35046262 0.68414217
0.57051015 -0.34554428 0.67191988
0.56981021 -0.34217933 0.66797435
0.56930655 -0.32702768 0.66518748
0.5688327 -0.31707576 0.66254646
0.56857324 -0.30598959 0.66112077
0.5678193 -0.29013288 0.65691364
0.56775033 -0.27698833 0.65656716
0.56782818 -0.26231512 0.65705246
0.5674541 -0.24123608 0.65499657
0.81026709 1.6885024 2.0311992
0.78862935 1.6751953 1.9085253
0.76750666 1.6559094 1.7887774
0.7456913 1.6188377 1.6651125
0.73735374 1.7077608 1.6178118
0.72022659 1.705832 1.5207165
0.69712687 1.7216398 1.3897588
0.68138224 1.7210103 1.3005054
0.65306216 1.5147372 1.1400619
0.64067352 1.534008 1.0698318
0.62738872 1.534386 0.99453163
0.61238474 1.489204 0.90951109
0.60131252 1.528551 0.8467356
0.58922994 1.5451283 0.77824461
0.57662308 1.5424503 0.70679337
0.55804181 1.5415592 0.60148162
0.54579628 1.544486 0.53207695
0.53358054 1.5539474 0.46283758
0.52128381 1.5569504 0.3931433
0.5089668 1.5564791 0.32333684
0.49646753 1.5654842 0.25249085
0.48415217 1.5570334 0.18269995
0.46518877 1.5599329 0.075222902
0.45232841 1.561847 0.002335246
0.44050035 1.5348533 -0.064677656
0.42709294 1.5421287 -0.14067078
0.40072706 1.5317178 -0.29009238
0.38579375 1.5458497 -0.37474304
0.37159559 1.5426695 -0.45521182
0.38409585 1.2189304 -0.38404015
0.33469009 1.5294431 -0.66437525
0.31837818 1.5306611 -0.75683314
0.301916 1.5268754 -0.8501395
0.28405604 1.5286982 -0.95137626
0.28104398 1.4099157 -0.96832055
0.31006223 1.0725116 -0.80345678
0.27987701 1.1668063 -0.97465736
0.35883158 0.5675627 -0.52640533
0.2735793 0.93849146 -1.0100729
0.27432734 0.83916217 -1.005704
0.27436414 0.74963236 -1.0053755
0.27391073 0.36983874 -1.0073923
0.31339484 0.18230093 -0.78328103
0.31251025 0.13064972 -0.78820378
0.27215084 0.15116669 -1.017015
0.27175587 0.092413075 -1.0191549
0.27143046 0.034926601 -1.0209012
0.31100214 -0.091586396 -0.79633927
0.27242237 -0.079028144 -1.0150776
0.27271834 -0.1337797 -1.0133014
0.27166051 -0.18601424 -1.0192043
0.27145171 -0.26498234 -1.0202434
0.2712009 -0.31695166 -1.0215694
0.27126783 -0.36876243 -1.0210932
0.27165034 -0.42035055 -1.0188278
0.31141931 -0.47166568 -0.79320639
0.31014585 -0.51521933 -0.80033797
0.31104529 -0.55851144 -0.7951473
0.31151408 -0.60190678 -0.79239869
0.27111116 -0.70473695 -1.0213517
0.27146852 -0.75729024 -1.0192269
0.27046049 -0.81222421 -1.0248432
0.27031416 -0.86712319 -1.0255725
0.31188709 -0.84969836 -0.78977782
0.30903676 -0.90303814 -0.80584246
0.26992461 -1.0389423 -1.027474
0.27159688 -1.1252714 -1.0178363
0.26959506 -1.5461131 -1.0285068
0.27306837 -1.6528765 -1.0086384
0.2728878 -1.7404597 -1.0095341
0.27181664 -1.8383653 -1.0154716
0.27089652 -1.9424217 -1.0205475
0.27129433 -2.0462439 -1.01815
0.2711671 -2.1614335 -1.0187204
0.2761448 -2.3147969 -0.99028277
0.27579972 -2.4561579 -0.99206716
0.27415463 -2.6229906 -1.0012025
0.27212349 -2.8122492 -1.0125086
0.27288014 -2.9969664 -1.0080098
0.2704376 -3.2396755 -1.021605
0.30356786 -3.2186658 -0.83366829
0.32448411 -3.2055545 -0.71501523
0.91559917 -8.8657932 2.6424911
0.83860654 -4.9334741 2.2029335
1.0116739 -6.2134342 3.1854174
1.0246118 -5.878231 3.2585642
1.0157472 -4.9894915 3.2076972
1.0351733 -4.8227358 3.3177705
1.040413 -4.4060273 3.3472321
1.0384017 -4.1183162 3.3356547
1.0113629 -3.6892629 3.1820538
1.0432357 -3.6679647 3.362818
1.035671 -3.40856 3.3197761
1.0313351 -3.1869791 3.2950723
1.0265321 -2.9787431 3.2677302
1.0276685 -2.8123844 3.2741003
1.0292169 -2.6565306 3.282814
1.0062271 -2.3379591 3.1522944
1.0374178 -2.3128846 3.329186
1.0306801 -2.1504421 3.2909126
1.0247631 -1.9995997 3.257302
1.0226446 -1.8672736 3.2452443
1.0187501 -1.7356672 3.2231159
1.0180651 -1.6171082 3.219197
1.0212396 -1.4541759 3.2371554
1.0187594 -1.3396949 3.2230608
1.0183561 -1.231828 3.2207472
1.0199592 -1.1287928 3.2298141
0.97727644 -0.97718012 2.987745
1.0075115 -0.91119808 3.1591823
1.0179864 -0.81987119 3.21856
1.0075157 -0.7145713 3.159168
1.0081767 -0.61747605 3.1628971
1.0065866 -0.47192881 3.1538541
0.58279502 -0.448805 0.75113797
0.56876862 -0.43695572 0.67173213
0.5674504 -0.43373486 0.66428834
0.56684321 -0.42576316 0.66090459
0.56582963 -0.40988982 0.65527588
0.56602085 -0.38726851 0.65650517
0.5673756 -0.37964743 0.66421258
0.57086211 -0.35045782 0.68408686
0.5686956 -0.34553894 0.67186499
0.56759012 -0.33794034 0.66565615
0.56748796 -0.32702199 0.66513348
0.56653178 -0.31293643 0.6597988
0.56623691 -0.30187708 0.65818322
0.56654352 -0.29421166 0.65994775
0.56592333 -0.2769821 0.65651518
0.56612879 -0.26163974 0.65773284
0.56562293 -0.24122964 0.65494579
0.80849731 1.6876667 2.0305867
0.78745085 1.6792582 1.9113307
0.76259631 1.6273675 1.7705213
0.74676633 1.6453848 1.6808189
0.73539555 1.7051146 1.6163632
0.71851176 1.7058131 1.5207009
0.6953994 1.7216251 1.3897443
0.67964578 1.7209986 1.3004915
0.65136361 1.5156702 1.1403816
0.6388011 1.5321015 1.0692068
0.62561619 1.5343838 0.99451578
0.61081296 1.4940559 0.91068625
0.59985101 1.5373563 0.84856349
0.58716255 1.5362693 0.7766906
0.57474816 1.5394856 0.70636773
0.55621386 1.5405719 0.60138184
0.54406911 1.5544829 0.53257918
0.53172874 1.5459611 0.46268663
0.51945931 1.5539649 0.39318195
0.50710881 1.5584923 0.32322127
0.49447101 1.5754637 0.25162083
0.48189908 1.5759112 0.18040834
0.46344468 1.556015 0.075895116
0.45056537 1.5589353 0.0029380217
0.43811959 1.5465209 -0.067547679
0.42578053 1.5306188 -0.13742509
0.39882797 1.5317459 -0.29010329
0.38427731 1.5403162 -0.37254012
0.36940044 1.546355 -0.45682412
0.38240182 1.2162631 -0.38276112
0.33292693 1.5277278 -0.66342992
0.31643939 1.5306966 -0.75684237
0.29921383 1.5336218 -0.85443902
0.28359431 1.5164486 -0.94291246
0.27887407 1.4115509 -0.96951622
0.30711487 1.0795406 -0.8090508
0.27767611 1.1683527 -0.97596371
0.35674402 0.56832296 -0.52710271
0.27184173 0.9371382 -1.0086738
0.27207744 0.84053588 -1.0071867
0.27289942 0.74709588 -1.0023783
0.27189359 0.36987072 -1.0074173
0.31138211 0.18232939 -0.78330988
0.31065002 0.13023937 -0.78734803
0.26980114 0.15197834 -1.0188552
0.27004656 0.091725796 -1.017344
0.26955771 0.034629971 -1.0199983
0.27011144 -0.023130497 -1.0167413
0.26937279 -0.077447042 -1.0208143
0.27050295 -0.13352749 -1.0142906
0.26909953 -0.18541491 -1.0221343
0.26870963 -0.26439956 -1.0241746
0.26948926 -0.31713554 -1.0196412
0.26938111 -0.36880755 -1.0201415
0.26906672 -0.42022157 -1.0218114
0.26993287 -0.47162887 -1.0167884
0.30843481 -0.51512837 -0.79840249
0.30777156 -0.55897844 -0.80205697
0.30927807 -0.60199094 -0.79341102
0.26886111 -0.70487237 -1.0223556
0.26836416 -0.75841433 -1.0250583
0.26905355 -0.81130481 -1.0210358
0.26822725 -0.86710387 -1.0256034
0.30964321 -0.84997314 -0.79075211
0.30761284 -0.90171891 -0.80214995
0.26815388 -1.0382081 -1.0256655
0.26772553 -1.0991424 -1.0279723
0.26761955 -1.5455121 -1.0277371
0.27135429 -1.6509763 -1.0063686
0.2710278 -1.7391359 -1.0080732
0.27032667 -1.8349442 -1.0118949
0.26913625 -1.94029 -1.018482
0.26916218 -2.0462339 -1.0181726
0.26971617 -2.1568961 -1.0148653
0.26890418 -2.2862651 -1.0192852
0.27355498 -2.4569585 -0.99266458
0.27259147 -2.6180089 -0.99791497
0.27043295 -2.8080025 -1.009914
0.27072474 -2.9969602 -1.0080227
0.26925716 -3.2290747 -1.0160668
0.30148628 -3.2177541 -0.83326221
0.32206029 -3.2092304 -0.71656448
0.82203531 -4.9502134 2.1207047
1.0081917 -6.196311 3.1772487
1.023152 -5.8843646 3.2618299
1.0147399 -4.9987721 3.2134569
1.0362666 -4.8492165 3.3354099
1.0280319 -4.4700565 3.2884443
1.039351 -4.1392484 3.3523974
1.0085673 -3.6839294 3.1775367
1.042665 -3.676688 3.3708825
1.0350324 -3.4162853 3.3274381
1.0297301 -3.1889713 3.2972329
1.0253344 -2.9826255 3.272187
1.0264972 -2.8161056 3.2786875
1.0269618 -2.6552713 3.2812347
1.0045376 -2.3390229 3.1539176
1.0376554 -2.320776 3.3417032
1.0288607 -2.1508839 3.2917535
1.0237144 -2.0023587 3.2625058
1.0209899 -1.8680918 3.2469993
1.0190052 -1.7413033 3.2356946
1.0157789 -1.6162995 3.2173531
1.0160588 -1.5034083 3.218899
1.0127691 -1.386564 3.2002056
1.017068 -1.2328017 3.2245297
1.0180016 -1.1287302 3.2297902
0.97395062 -0.97559464 2.9799864
0.99440384 -0.90096402 3.095932
1.0156868 -0.81956303 3.2165768
1.0093675 -0.71642613 3.1807218
1.0069163 -0.61762118 3.1668005
1.0047313 -0.52018976 3.1543896
0.58062488 -0.44885808 0.75013149
0.56665808 -0.43262526 0.67107368
0.56519276 -0.42536676 0.6628148
0.56364411 -0.40585533 0.65415531
0.56412792 -0.39164287 0.65696836
0.56494296 -0.37583342 0.66165799
0.56888431 -0.3504422 0.68406403
0.56709987 -0.34986591 0.67397428
0.56561589 -0.33792508 0.66563368
0.56489587 -0.3175993 0.66164458
0.56478214 -0.3059684 0.66104537
0.56402791 -0.29011151 0.65683895
0.56395906 -0.27696687 0.65649295
0.56403708 -0.26229358 0.65697867
0.56354004 -0.24192145 0.65422702
0.80683571 1.6901145 2.0322964
0.78527522 1.6776692 1.910133
0.75664198 1.5921899 1.747927
0.7499854 1.6951427 1.7101712
0.73358613 1.7069057 1.61725
0.71645439 1.7049617 1.5201861
0.69349116 1.7225748 1.390077
0.67766666 1.7210326 1.3004237
0.64950794 1.5175792 1.1409929
0.63698757 1.5349822 1.070057
0.62354541 1.532487 0.99391019
0.60917675 1.5018413 0.91253084
0.5982393 1.5471591 0.85054868
0.58558261 1.5490912 0.77885157
0.57279909 1.5404934 0.70644253
0.55439383 1.5505482 0.60217816
0.54209656 1.5544951 0.53251672
0.52977914 1.5529702 0.46274489
0.51750821 1.5469739 0.39323986
0.50512898 1.5594964 0.32310742
0.49235013 1.5854288 0.25069997
0.48032883 1.5570534 0.18262571
0.46739551 1.5708317 0.10935115
0.44852573 1.5608867 0.0024664081
0.4366141 1.5358402 -0.064988896
0.42372003 1.5325315 -0.13802928
0.39686474 1.5317305 -0.29016453
0.38192496 1.545861 -0.37481502
0.39149255 1.2348096 -0.32030123
0.37999758 1.2216367 -0.38540384
0.33037958 1.5338212 -0.66683298
0.31448174 1.5306638 -0.75690353
0.29725716 1.5335853 -0.85450029
0.281739 1.5155896 -0.94240844
0.27650708 1.4147042 -0.97194457
0.30594552 1.0740647 -0.80476099
0.2755121 1.1698201 -0.97730666
0.35495353 0.56756526 -0.52646488
0.27016902 0.93570459 -1.0073011
0.2699028 0.84182978 -1.0086918
0.27032375 0.75026518 -1.0061889
0.2710104 0.43554598 -1.0018673
0.26985905 0.37032408 -1.0082972
0.30920202 0.18322989 -0.78507006
0.30846894 0.13107714 -0.78913778
0.26793453 0.15192986 -1.0188751
0.26802287 0.092035353 -1.0182812
0.2683579 0.033278346 -1.0162898
0.26792774 -0.022595255 -1.0186388
0.26719067 -0.076979421 -1.0227289
0.26832294 -0.13312769 -1.01622
0.26743343 -0.18565659 -1.021176
0.26688057 -0.26445106 -1.0241803
0.26766527 -0.31718722 -1.0196449
0.26773545 -0.36892939 -1.019161
0.26812091 -0.42044869 -1.0168903
0.26690835 -0.47168136 -1.0236799
0.30628306 -0.51524198 -0.80036718
0.26802188 -0.57429409 -1.0171973
0.30748311 -0.60203522 -0.79340398
0.26724812 -0.70477051 -1.0213722
0.26777884 -0.7571339 -1.0182787
0.26660296 -0.81225979 -1.0248593
0.26662743 -0.86690092 -1.0246352
0.30787608 -0.85001904 -0.79073524
0.30568704 -0.90209121 -0.80306226
0.26640415 -1.0382651 -1.0256418
0.26598212 -1.0991999 -1.0279464
0.26780045 -1.1875467 -1.0175074
0.26676518 -1.5420454 -1.0229129
0.26600072 -1.626054 -1.0271475
0.27000517 -1.7359155 -1.004305
0.26903868 -1.8329588 -1.0096785
0.26796839 -1.9375225 -1.0156366
0.26739413 -2.0470266 -1.0187799
0.26750684 -2.1607311 -1.0180267
0.26705796 -2.2878814 -1.0204506
0.27184126 -2.4578292 -0.99316221
0.27109122 -2.6172421 -0.99727666
0.269036 -2.8063693 -1.008775
0.2696813 -2.9918275 -1.0049654
0.26844618 -3.2211926 -1.0117936
0.29181141 -3.1932447 -0.87929165
0.32031554 -3.2120421 -0.71760511
0.82353657 -4.9940009 2.1374841
1.0071417 -6.1997647 3.179215
1.0226666 -5.8939323 3.2671421
1.0318871 -5.5570536 3.3193109
1.0190833 -5.0520592 3.2465265
1.0345087 -4.8465838 3.3339436
1.0258218 -4.464251 3.2845638
1.0367333 -4.1313338 3.3463585
1.0064405 -3.680022 3.1744475
1.0421662 -3.6831279 3.377068
1.0349208 -3.4246316 3.3359258
1.0287619 -3.192245 3.3009572
1.0246319 -2.9870839 3.2775052
1.0241883 -2.8128254 3.2749703
1.0253134 -2.6551387 3.2813385
1.0035853 -2.3416939 3.1580923
1.0342088 -2.3142841 3.3317733
1.0277692 -2.1527548 3.2952509
1.021856 -2.0017624 3.2617173
1.019117 -1.8675282 3.2461908
1.0163255 -1.7387391 3.2303689
1.0146844 -1.6176761 3.2210734
1.0126781 -1.4998673 3.2097096
1.0145371 -1.3386371 3.2202742
1.0149589 -1.2321657 3.2226834
1.0165569 -1.1290625 3.2317626
0.98579884 -0.99075425 3.0573709
0.98694265 -0.89569139 3.06388
1.0131862 -0.81896168 3.2127118
1.008759 -0.71692491 3.1876307
1.0059553 -0.61777318 3.1717565
1.0037628 -0.5201689 3.1593492
0.57900935 -0.44877887 0.75113851
0.56503755 -0.43246329 0.67207068
0.56370932 -0.42935818 0.66456985
0.5629068 -0.42162177 0.66007996
0.56223047 -0.41390929 0.65630555
0.56248945 -0.39131379 0.65792364
0.56313658 -0.37583014 0.66168201
0.56707323 -0.35043854 0.68408787
0.56490684 -0.34552068 0.67186624
0.56380117 -0.33792269 0.66565752
0.56307662 -0.31759763 0.66166836
0.56244648 -0.30186078 0.65818471
0.56220287 -0.29011077 0.65686262
0.56213152 -0.27696642 0.65651655
0.56220692 -0.2622934 0.65700215
0.56170619 -0.24192183 0.65425038
0.5619638 -0.23219149 0.65573913
0.80503845 1.6917557 2.0334721
0.78367025 1.6809846 1.9123832
0.74849468 1.5377097 1.7130561
0.74923646 1.7071743 1.7172631
0.73158449 1.7069335 1.6172411
0.71453315 1.7058768 1.5206245
0.69819522 1.7061154 1.4280524
0.68236428 1.7061731 1.3383552
0.64752614 1.5175899 1.1409886
0.63505912 1.5359415 1.0703571
0.62166017 1.5344149 0.9944492
0.60715657 1.5008738 0.91228956
0.59636736 1.5500941 0.85115945
0.58317977 1.5353022 0.77645427
0.57108742 1.5513819 0.70794743
0.55229461 1.5425709 0.60148913
0.54000062 1.5415031 0.53184456
0.52779394 1.5499586 0.46269158
0.51549804 1.5589577 0.39303228
0.50316358 1.5584817 0.32315773
0.49025461 1.59338 0.25001198
0.47814563 1.5669588 0.18142495
0.46539655 1.5717969 0.10919659
0.4466283 1.5589049 0.0028760093
0.4347311 1.5338722 -0.064511672
0.4218024 1.5315412 -0.13775682
0.39502084 1.5298185 -0.28948945
0.37989831 1.5467533 -0.37518239
0.38933504 1.2375168 -0.32149634
0.37774938 1.225197 -0.38712379
0.32716274 1.5468992 -0.67399251
0.31270814 1.5289062 -0.75588685
0.29625234 1.5251532 -0.84913433
0.27979204 1.5155423 -0.9424057
0.27425277 1.4170524 -0.97371829
0.30390868 1.0747977 -0.80537099
0.27312839 1.1727912 -0.9798829
0.35316205 0.566796 -0.52577525
0.26737899 0.94051945 -1.0122482
0.26799148 0.84178227 -1.0086788
0.26948059 0.74507552 -1.0001392
0.26882246 0.43655944 -1.0035187
0.26751739 0.37177774 -1.010836
0.30715922 0.18365723 -0.78591657
0.30658138 0.1310351 -0.789114
0.26621267 0.1514933 -1.0179462
0.26581919 0.092706531 -1.0200969
0.26598799 0.034209717 -1.0190594
0.26522213 -0.021178521 -1.0233233
0.2664915 -0.078836329 -1.0160453
0.26712817 -0.1340723 -1.0123562
0.26539335 -0.18551043 -1.0221167
0.26585901 -0.23894966 -1.0193981
0.26562718 -0.31712684 -1.020597
0.2663914 -0.36918262 -1.0161862
0.2653909 -0.42031783 -1.0217835
0.26504797 -0.47172493 -1.0236516
0.3040674 -0.51535207 -0.80230534
0.26547143 -0.57461613 -1.021098
0.30527097 -0.60228419 -0.79533195
0.2649059 -0.67895442 -1.0241529
0.26592693 -0.75717628 -1.018249
0.26576841 -0.81095243 -1.0190719
0.26511469 -0.8664254 -1.0227028
0.30551714 -0.85093528 -0.79352891
0.30349997 -0.90278149 -0.80489272
0.26472342 -1.0379483 -1.0246923
0.26414132 -1.0992413 -1.0279162
0.26627415 -1.1867108 -1.0157069
0.26353386 -1.547963 -1.0308505
0.26458848 -1.6242467 -1.0247902
0.26831603 -1.7352988 -1.0035329
0.2674765 -1.8316338 -1.0082095
0.26591083 -1.9389758 -1.0170014
0.26606062 -2.0441401 -1.016066
0.26558995 -2.1615243 -1.0186462
0.26580697 -2.2840343 -1.0173258
0.27127436 -2.448159 -0.98619092
0.26969463 -2.6139636 -0.99504983
0.26818034 -2.7979267 -1.0035335
0.26799986 -2.9909985 -1.0044514
0.26685166 -3.2194638 -1.010849
0.29057744 -3.1869895 -0.87624902
0.31154272 -3.1749153 -0.75729871
1.0105799 -6.261817 3.2090068
1.0210819 -5.8966165 3.2685359
1.0275193 -5.1470771 3.3049881
1.0369984 -4.8839269 3.3587394
1.0264783 -4.4845128 3.2990522
1.0253656 -4.1951389 3.2927365
1.0037173 -3.6747746 3.1699479
1.041301 -3.6897464 3.3831363
1.0321206 -3.419718 3.3310761
1.0274471 -3.1956911 3.3045843
1.0263435 -3.0054898 3.2983432
1.023708 -2.8197844 3.2834175
1.0240357 -2.6581843 3.2853005
0.99629414 -2.3915486 3.1279881
1.025399 -2.3611438 3.2930872
1.0266804 -2.1557915 3.3004007
1.0206263 -2.0041463 3.2660983
1.0172721 -1.8680034 3.2471099
1.0144787 -1.7391827 3.2313032
1.0139626 -1.62071 3.2284138
1.0111537 -1.5009302 3.212522
1.0108089 -1.3898813 3.2106059
1.0107255 -1.2818903 3.2101727
1.01419 -1.1286498 3.2298822
0.98445141 -0.99155426 3.0612764
0.97719139 -0.88868803 3.0201488
1.0123532 -0.81985229 3.2195942
1.0079272 -0.71757251 3.1945391
1.0035622 -0.61770588 3.1698315
1.0011923 -0.52015388 3.1564376
0.57719368 -0.44873738 0.75215203
0.56316876 -0.43682349 0.67273831
0.56172311 -0.42938569 0.66459966
0.56075746 -0.41754267 0.65921283
0.56022578 -0.4096393 0.65625739
0.56047857 -0.40041724 0.65775055
0.56127805 -0.38037232 0.6624034
0.56545198 -0.35502318 0.68616152
0.56330138 -0.34988928 0.67402595
0.56221908 -0.34218228 0.66794848
0.56108999 -0.31762362 0.66169524
0.56045967 -0.30188656 0.65821123
0.56062686 -0.2948229 0.65918911
0.56001127 -0.27763471 0.65578824
0.56009024 -0.26298788 0.65629631
0.56028897 -0.24668738 0.65748304
0.55900097 -0.22967859 0.65026981
0.8035391 1.6965145 2.0370886
0.78184545 1.68341 1.9141376
0.73976183 1.4789728 1.6755663
0.74890369 1.7242866 1.7274669
0.72946435 1.7069033 1.6173
0.71265107 1.7085204 1.5220244
0.69607788 1.7060866 1.4281106
0.68045175 1.7089064 1.3395673
0.65156519 1.5064901 1.1758302
0.63236678 1.5254536 1.0670632
0.61955911 1.5343894 0.99450266
0.60510057 1.5018191 0.91258037
0.59415823 1.5471354 0.85059845
0.58120114 1.5392175 0.7771911
0.56874585 1.5414563 0.70662951
0.55646569 1.5481163 0.63706172
0.53802025 1.5544637 0.53256702
0.52567983 1.5449384 0.46265766
0.51343501 1.5469396 0.39329043
0.50105506 1.5594606 0.32315823
0.48810726 1.5963498 0.2498071
0.47606653 1.5659481 0.18159688
0.46364897 1.5589395 0.111251
0.45073321 1.5651302 0.038081065
0.43271598 1.5319164 -0.063984267
0.419655 1.5324879 -0.13797738
0.40841487 1.4959944 -0.20164764
0.39339539 1.522288 -0.28674421
0.37818593 1.5411781 -0.37291792
0.38753673 1.2338501 -0.31984964
0.37582085 1.2233877 -0.38621625
0.36342055 1.2173423 -0.45646322
0.31078058 1.527184 -0.75482142
0.29423928 1.5243078 -0.84854698
0.27708578 1.5204513 -0.94574374
0.27152315 1.4218392 -0.97722542
0.27081424 1.1742963 -0.98113167
0.35076916 0.56898171 -0.52776104
0.26518267 0.94121063 -1.0129184
0.26528135 0.84512466 -1.012302
0.26575366 0.44026709 -1.0093386
0.26578465 0.37077603 -1.0091058
0.30560306 0.18224519 -0.78328866
0.3039442 0.13278532 -0.79263657
0.26403379 0.15188342 -1.0188338
0.26477703 0.090555899 -1.0145632
0.26348415 0.035186455 -1.0218371
0.26354679 -0.02176306 -1.0214256
0.26532692 -0.080130018 -1.0112764
0.26445159 -0.13317172 -1.0161833
0.30312303 -0.22997288 -0.79686528
0.26369485 -0.23879188 -1.0203625
0.26449722 -0.29172182 -1.0157578
0.26336825 -0.36876202 -1.0220762
0.26323718 -0.42028061 -1.0227646
0.26307136 -0.47172236 -1.0236502
0.3026202 -0.51524705 -0.7993536
0.26350215 -0.57461303 -1.0210997
0.3038277 -0.6019699 -0.79239756
0.30336252 -0.64625037 -0.79498082
0.26328889 -0.7579354 -1.0221231
0.26364699 -0.81117302 -1.0200404
0.26316646 -0.86642081 -1.0227134
0.26371232 -0.92109704 -1.0195671
0.30090377 -0.90408111 -0.80863065
0.26278791 -1.0379429 -1.0247083
0.26221034 -1.0992354 -1.027934
0.26513064 -1.1845131 -1.0113019
0.26269835 -1.624239 -1.0248246
0.26291412 -1.7084441 -1.0235604
0.26573059 -1.8309437 -1.0075305
0.26453748 -1.9361389 -1.0142604
0.26467845 -2.0412056 -1.013427
0.2647689 -2.1547229 -1.0128827
0.26418924 -2.2824705 -1.0161415
0.2694529 -2.4481497 -0.98625177
0.26837212 -2.6098087 -0.99236208
0.26611134 -2.8004603 -1.0051708
0.26665714 -2.9866583 -1.0020669
0.26631656 -3.2062087 -1.003998
0.28829017 -3.1932719 -0.8793565
0.30873346 -3.1886103 -0.7633937
0.9051649 -8.7710485 2.6176291
1.0086113 -6.2546673 3.2053607
1.0208303 -5.909019 3.2748277
1.0263286 -5.1496611 3.3063974
1.0339508 -4.8707023 3.3497818
1.0251492 -4.4861689 3.3000758
1.0249795 -4.203845 3.2992811
0.99277365 -3.7259781 3.1169016
1.0370793 -3.6736929 3.368253
1.0323198 -3.4303603 3.3414221
1.0255256 -3.1943617 3.3030522
1.021771 -2.9910898 3.2819068
1.0225399 -2.8223345 3.2863994
1.023836 -2.6648364 3.2938776
1.0054957 -2.4357455 3.1900373
1.0204351 -2.3491919 3.274853
1.0251997 -2.156821 3.3020487
1.0202079 -2.0084004 3.2738709
1.016863 -1.8719766 3.2550273
1.0132844 -1.7408365 3.2348573
1.0106708 -1.6173644 3.220155
1.0112562 -1.5050598 3.2235894
1.0064622 -1.3852702 3.1965234
1.0088443 -1.281914 3.2101419
1.0129685 -1.1295725 3.2336941
0.98458183 -0.99386525 3.072855
0.97337663 -0.88698721 3.0094304
1.009041 -0.81889772 3.2117574
1.0056362 -0.71741784 3.1925623
1.00282 -0.61809123 3.1767035
0.99662042 -0.51990992 3.1416583
0.57517916 -0.44874391 0.75215155
0.56119996 -0.43234044 0.6730746
0.5595575 -0.42520431 0.66383731
0.5581944 -0.40964493 0.65626067
0.55780971 -0.39264831 0.65423203
0.55894798 -0.37623677 0.66080254
0.56340706 -0.35502845 0.68616772
0.56140983 -0.34945607 0.67491788
0.55976278 -0.33795395 0.66569257
0.55876404 -0.33012581 0.66010541
0.55949986 -0.32179418 0.66431737
0.55927199 -0.31071371 0.66310203
0.55856341 -0.29482752 0.65919924
0.5579434 -0.27763918 0.65579927
0.5580194 -0.26299226 0.65630794
0.55821496 -0.24669167 0.65749526
0.5571596 -0.22822006 0.65162623
0.80208683 1.7021037 2.0412652
0.77956164 1.6825899 1.9136004
0.73834306 1.4856809 1.6798836
0.74635744 1.7208573 1.7254657
0.72752815 1.7095267 1.6187595
0.71046156 1.7085198 1.5220513
0.6930809 1.6961164 1.4235587
0.67737937 1.6969391 1.3345913
0.64950776 1.5083563 1.1765614
0.63082695 1.5368651 1.0707401
0.61747068 1.5363106 0.99507016
0.60308552 1.5056989 0.91355759
0.59204543 1.5490899 0.8510319
0.57901651 1.5392156 0.77721459
0.5665853 1.5424442 0.70678967
0.55411798 1.5391634 0.63615781
0.54198021 1.5522984 0.56739819
0.52353519 1.557933 0.46290293
0.51125199 1.5469357 0.39331156
0.49888152 1.5584579 0.32323033
0.48596984 1.5933564 0.25008455
0.47405514 1.5580026 0.18257634
0.46111572 1.5717736 0.10926741
0.44855469 1.5651237 0.038099375
0.4365927 1.5412964 -0.029675752
0.41743326 1.5334408 -0.13823195
0.40565291 1.5064471 -0.20497863
0.39122552 1.5222782 -0.28672871
0.37549731 1.5485848 -0.37585446
0.38565764 1.2301856 -0.31823143
0.37381345 1.2215788 -0.38533726
0.36126301 1.2173302 -0.45644832
0.30871499 1.5263113 -0.75430346
0.29199323 1.5251297 -0.84907347
0.27553597 1.5155187 -0.94234592
0.26990193 1.4178274 -0.97425312
0.26879022 1.1735222 -0.98047554
0.34874359 0.56823611 -0.52707148
0.26725355 0.96721727 -0.98909938
0.2627641 0.84711123 -1.0144856
0.26348209 0.44077456 -1.0101583
0.2641122 0.36925334 -1.0065312
0.30285731 0.18410322 -0.7867465
0.30212432 0.13188839 -0.79084539
0.26368722 0.17781107 -1.0087761
0.26071006 0.094832093 -1.0255764
0.26152718 0.034836143 -1.0208856
0.26125962 -0.021495719 -1.022346
0.26270202 -0.079378724 -1.0141078
0.26199165 -0.13274738 -1.0180792
0.26161641 -0.18591695 -1.0201496
0.29930192 -0.27323496 -0.80634677
0.26185778 -0.29138267 -1.0186641
0.26107237 -0.36871934 -1.023031
0.26094052 -0.42027313 -1.02372
0.26094773 -0.47175014 -1.0236204
0.30048168 -0.51527113 -0.79932022
0.26137704 -0.57464141 -1.0210675
0.30116883 -0.60230792 -0.79530007
0.30104887 -0.64641434 -0.7959193
0.26033792 -0.73222357 -1.0267847
0.26185635 -0.81075293 -1.0180832
0.26204285 -0.86489809 -1.0169662
0.2607511 -0.92258936 -1.024235
0.29957724 -0.90247983 -0.80393088
0.26065484 -1.037974 -1.0246639
0.26039585 -1.0984856 -1.0260749
0.26087743 -1.1589304 -1.0232849
0.26082557 -1.6230416 -1.0232105
0.26493955 -1.7320445 -0.99978876
0.26395851 -1.828932 -1.0053008
0.2626282 -1.9347594 -1.0127954
0.26228431 -2.0427036 -1.0146948
0.26283658 -2.153249 -1.0115111
0.26257265 -2.2786207 -1.0129594
0.26217383 -2.4164338 -1.015175
0.26668459 -2.6056995 -0.9895137
0.26586702 -2.7826881 -0.9941107
0.26560494 -2.9754369 -0.9955588
0.26413161 -3.2062461 -1.0038841
0.28563502 -3.198699 -0.88182992
0.30595687 -3.1959505 -0.76647848
0.86383611 -10.765096 2.3984299
0.90718865 -8.8724108 2.6447549
1.008376 -6.2833619 3.219445
1.0162088 -5.8877611 3.263988
1.0114585 -5.412436 3.2371631
1.0255281 -5.1665564 3.3170629
1.0357842 -4.9087729 3.3753312
1.0239625 -4.4974332 3.3083827
1.0245134 -4.2195454 3.3115995
0.99131596 -3.7335837 3.1234064
1.034968 -3.6765609 3.3711116
1.0313437 -3.4394972 3.3506379
1.0236017 -3.1977184 3.3068075
1.0211891 -3.0008795 3.2932022
1.0216202 -2.8298366 3.2957234
1.0221372 -2.6683991 3.2987309
1.0109475 -2.4678209 3.2353384
1.0177774 -2.3486023 3.2741494
1.0245022 -2.1627781 3.3123984
1.0174098 -2.0074205 3.2722418
1.0143811 -1.8719374 3.2551324
1.0119222 -1.7436465 3.2412553
1.0078851 -1.6165795 3.218425
1.0087999 -1.5050259 3.2236817
1.0063272 -1.3895644 3.2097239
1.0065709 -1.2821589 3.2111735
1.0100303 -1.1288688 3.2308955
0.98029375 -0.99174058 3.0622954
0.97114581 -0.88712007 3.010474
1.0090461 -0.82058001 3.2255123
1.0027183 -0.71713406 3.1896865
1.000429 -0.61807054 3.1767681
0.99684238 -0.52015293 3.1564898
0.57293218 -0.44874343 0.75218761
0.55896312 -0.43234086 0.67310762
0.55749398 -0.42501414 0.66483605
0.55649769 -0.41754916 0.65924644
0.55613345 -0.40938705 0.65724194
0.5559144 -0.39199847 0.65612257
0.55712944 -0.38488972 0.66304559
0.56118864 -0.35503003 0.68619382
0.55919427 -0.34945783 0.67494309
0.5578025 -0.34265867 0.66711062
0.55670398 -0.32961294 0.66097248
0.55682594 -0.31763074 0.6617263
0.55656701 -0.30657363 0.66031981
0.55622345 -0.29543191 0.65843314
0.55574602 -0.27764201 0.65581846
0.55569547 -0.26366434 0.65559447
0.55589777 -0.24738942 0.6568045
0.55594981 -0.23078538 0.65716279
0.80634964 1.672381 2.0778031
0.77758634 1.6842147 1.9147571
0.73664629 1.4898618 1.6825907
0.74455178 1.7242725 1.7275212
0.72520143 1.7077644 1.617831
0.70838666 1.7093978 1.5225246
0.6915918 1.7042607 1.4273309
0.67591238 1.7061321 1.3384653
0.64742666 1.5092789 1.1769384
0.6341995 1.515703 1.1019825
0.61533612 1.5363009 0.99509454
0.60229713 1.5367391 0.92120647
0.58966428 1.5422347 0.84962302
0.57680011 1.5362536 0.77672613
0.56446183 1.5424376 0.70681453
0.55212367 1.5461192 0.63690358
0.53982508 1.5493009 0.56721741
0.52750868 1.5460082 0.49742967
0.50911015 1.5559323 0.39318311
0.49677798 1.5574583 0.32330826
0.48382869 1.5953493 0.24994029
0.47194505 1.5580044 0.18260351
0.45908839 1.5688138 0.1097573
0.4468776 1.5523674 0.040569905
0.43460217 1.5383798 -0.028983066
0.41561332 1.5276822 -0.13657466
0.40354559 1.5064579 -0.20494983
0.38852412 1.531688 -0.2900669
0.37384552 1.5421096 -0.37324142
0.38390148 1.2256323 -0.3162044
0.34436622 1.5442677 -0.54028428
0.35964197 1.2120512 -0.45364937
0.31269613 1.5469849 -0.7197479
0.28997436 1.524321 -0.84850258
0.2740182 1.5106367 -0.93892163
0.26809824 1.415466 -0.97244161
0.31331304 0.96289271 -0.71605253
0.26575854 1.1795963 -0.98561567
0.34615591 0.57118559 -0.52974761
0.26439431 0.97149783 -0.99325377
0.26404607 0.87592232 -0.99517798
0.26150155 0.44028804 -1.0093142
0.26183352 0.36979735 -1.0073773
0.26285753 0.30010888 -1.001516
0.30047128 0.13061127 -0.78819269
0.2604467 0.18070479 -1.0150734
0.26001856 0.12130203 -1.0174447
0.25873893 0.036187217 -1.0246152
0.25846344 -0.020276615 -1.0261204
0.3004984 -0.14093761 -0.78772378
0.26053631 -0.13359657 -1.0142529
0.25965422 -0.18605623 -1.019197
0.25944006 -0.23876579 -1.0203539
0.25989699 -0.29145154 -1.0177054
0.2594682 -0.34305382 -1.0200791
0.25900677 -0.39449951 -1.0226378
0.25881338 -0.47169426 -1.0236479
0.29783973 -0.51532841 -0.8023051
0.25924236 -0.57458413 -1.0211003
0.2995663 -0.60194612 -0.79239893
0.29892823 -0.64636528 -0.79595882
0.2590574 -0.73129576 -1.0219767
0.25890735 -0.78480625 -1.0227703
0.25873291 -0.86664826 -1.0236739
0.25878087 -0.92223471 -1.0233452
0.29762098 -0.90210146 -0.80305457
0.25868019 -1.0375519 -1.0238034
0.25857845 -1.0976396 -1.0243244
0.25905514 -1.1580199 -1.0215658
0.25896031 -1.6217402 -1.0217538
0.25889242 -1.7071218 -1.0220877
0.26220131 -1.826815 -1.003249
0.43497032 -0.96320683 -0.023426354
0.26141539 -2.2715521 -1.0075194
0.26045009 -2.4131641 -1.0129515
0.25831801 -2.5785391 -1.0250028
0.26482981 -2.7724359 -0.9880197
0.2638965 -2.9710298 -0.99328089
0.26304677 -3.1946902 -0.9980725
0.28007704 -3.2390718 -0.90146244
0.3027066 -3.2105012 -0.77309519
0.90447104 -8.8522711 2.6387661
0.83911473 -4.8774085 2.2692709
0.99388355 -6.3928318 3.1465628
1.0202724 -5.9506197 3.2963905
1.0140687 -5.4559026 3.2613947
1.0357655 -5.2769728 3.3845317
1.032694 -4.8973322 3.3672743
1.0247754 -4.5178199 3.3225341
1.0221274 -4.2149744 3.3076634
0.98910606 -3.730665 3.1206093
1.0183166 -3.6956813 3.2863266
1.0293391 -3.4382336 3.3490038
1.0218344 -3.1978643 3.3065832
1.0205954 -3.0069273 3.2996805
1.0193015 -2.8274596 3.2924645
1.0203532 -2.6685371 3.2985446
1.0131378 -2.4840147 3.2577529
1.0162722 -2.3498235 3.2756376
1.0176539 -2.2142808 3.2835855
1.0116363 -2.0601404 3.2495785
1.0128759 -1.8729366 3.2567728
1.0100985 -1.7437657 3.2411339
1.0057322 -1.6159462 3.216486
1.0064741 -1.5041132 3.2208002
1.0051453 -1.3909112 3.2133727
1.0043888 -1.2817156 3.2091897
1.0064533 -1.1790301 3.2210021
0.98222262 -1.0450972 3.0837073
0.96703929 -0.88517874 2.9977636
1.007345 -0.82079965 3.2264276
1.0008376 -0.71722817 3.1896305
0.99888897 -0.61826658 3.1786847
0.99494898 -0.5202412 3.156445
0.57112581 -0.44868761 0.75314558
0.55720282 -0.44106248 0.67429185
0.5556488 -0.42922923 0.66558439
0.55450976 -0.41755942 0.65922964
0.55416429 -0.39606312 0.65744603
0.55486155 -0.38074681 0.661506
0.55919415 -0.35503963 0.68618584
0.55735439 -0.34902862 0.67582166
0.55580527 -0.34266743 0.66710556
0.55470484 -0.32962123 0.66096961
0.55482554 -0.31763881 0.66172493
0.55442315 -0.30715501 0.65951318
0.55422056 -0.29543951 0.65843469
0.55419451 -0.28234577 0.65835798
0.55368948 -0.26367137 0.65559959
0.55376565 -0.24809089 0.65610266
0.55319893 -0.22676714 0.65299463
0.80442679 1.6731523 2.0784388
0.78287053 1.6639965 1.9562457
0.74033773 1.46566 1.7150398
0.74233752 1.722548 1.7265347
0.72324961 1.7086304 1.618336
0.70619255 1.7076087 1.5216572
0.68992186 1.708786 1.4294381
0.67407918 1.7088885 1.3396453
0.64545429 1.5102082 1.1773157
0.63267386 1.524209 1.1048923
0.61953062 1.528811 1.0304081
0.60055888 1.5435286 0.9228965
0.58766949 1.5432103 0.84984916
0.57480091 1.537236 0.77691776
0.56243426 1.5424351 0.7068342
0.55009812 1.5461166 0.63692236
0.5378018 1.5492979 0.56723517
0.5255 1.5480034 0.49751526
0.51324385 1.5562363 0.42805442
0.49475574 1.5584521 0.32327077
0.48198608 1.5843853 0.25089657
0.46998164 1.5560124 0.18285511
0.45705974 1.5697936 0.10961343
0.44461524 1.5602112 0.039075863
0.43257049 1.5393436 -0.029196624
0.41966113 1.5383365 -0.10237231
0.4011901 1.5131011 -0.20707509
0.38672927 1.5288526 -0.28905374
0.37200955 1.5402369 -0.37250289
0.38185999 1.2265277 -0.31659773
0.3434045 1.5325601 -0.53467512
0.35711306 1.2182095 -0.4568809
0.31171715 1.5374296 -0.71433866
0.29487535 1.5398214 -0.80983561
0.27210739 1.5106 -0.93893337
0.26556516 1.4202191 -0.97600836
0.26442611 1.1757814 -0.98239136
0.34515676 0.56530464 -0.52435595
0.26225093 0.97286808 -0.99464774
0.26215008 0.8758769 -0.99517667
0.25932232 0.44129533 -1.0109701
0.26145342 0.36474356 -0.99883127
0.25898311 0.30615729 -1.0128
0.29825336 0.13143997 -0.78993225
0.25888699 0.17983362 -1.0132494
0.25894848 0.11936995 -1.0128521
0.25877586 0.06110739 -1.0137829
0.25692651 -0.020923825 -1.0242031
0.29997313 -0.1200486 -0.77991569
0.25782412 -0.13253629 -1.0190111
0.2579605 -0.18631296 -1.0181879
0.29528874 -0.27324867 -0.80631453
0.25786427 -0.29139805 -1.0186344
0.25760996 -0.34312356 -1.0200276
0.25732416 -0.39462295 -1.0215997
0.25717729 -0.4460595 -1.0223831
0.29551485 -0.49361753 -0.80476886
0.257393 -0.57465953 -1.0210338
0.29751197 -0.60211563 -0.79330343
0.29739222 -0.64615315 -0.79393017
0.25670135 -0.73189586 -1.0248086
0.25672656 -0.78530246 -1.0246154
0.25591025 -0.84070331 -1.0291983
0.25677863 -0.92261064 -1.0241951
0.29624301 -0.90119708 -0.80016249
0.25700989 -1.0372795 -1.0227828
0.25642878 -1.0985084 -1.0260314
0.25706911 -1.1585311 -1.0223475
0.43430999 -0.7759701 -0.016091619
0.43422389 -0.79975355 -0.016518945
0.43405944 -0.82515931 -0.017390991
0.4347412 -0.86146897 -0.013429514
0.43447301 -0.89119917 -0.014890805
0.43435073 -0.9221974 -0.015524236
0.43368381 -0.95885223 -0.019249329
0.25971881 -2.2708786 -1.0066907
0.25885618 -2.4116721 -1.0115447
0.25781313 -2.5679975 -1.0174242
0.26330274 -2.7699981 -0.98619908
0.26287717 -2.9633439 -0.98857701
0.2614941 -3.1921511 -0.99639338
0.27293938 -3.3020914 -0.9313798
0.85811704 -10.724809 2.3910999
0.83545393 -4.8616076 2.2633078
0.98885161 -6.3636079 3.1339705
0.99893481 -5.9781203 3.1912959
1.0130216 -5.4721313 3.2713857
1.0305679 -5.2538424 3.3710573
1.0315404 -4.9103675 3.3766654
1.0233066 -4.5273046 3.3300221
1.0212585 -4.2281513 3.3184824
0.98757565 -3.738122 3.1274021
1.0180831 -3.7110748 3.3006248
1.0194165 -3.5001278 3.3082721
1.0220889 -3.213342 3.3235583
1.0174127 -3.0040982 3.2970972
1.0171876 -2.8297749 3.2958977
1.018396 -2.6713462 3.3028333
1.0122044 -2.4907031 3.2677712
1.0134885 -2.3490856 3.275136
1.0147212 -2.2130597 3.2822082
1.0097692 -2.0623777 3.2541807
1.0068702 -1.9253962 3.2378049
1.0076417 -1.7439924 3.2422986
1.0068249 -1.6243858 3.23774
1.0035429 -1.5032554 3.2191913
1.0035349 -1.3925943 3.2192235
1.0022925 -1.2823743 3.2122505
1.0036898 -1.1786215 3.2202582
0.98660946 -1.0534648 3.1234009
0.96385318 -0.93120307 2.9943309
1.0049322 -0.82076323 3.2275863
0.99929762 -0.71759707 3.1956887
0.99596941 -0.61801094 3.1768811
0.99238157 -0.52009368 3.1566002
0.56904358 -0.4485907 0.754219
0.5548991 -0.43217197 0.67414415
0.55325603 -0.42500153 0.66489917
0.55242199 -0.42164296 0.66020596
0.5522477 -0.41320437 0.65929705
0.55124617 -0.39727604 0.65377349
0.55271327 -0.38521785 0.66218072
0.55692631 -0.35501513 0.68625355
0.55508554 -0.34900445 0.67588723
0.5535351 -0.3426435 0.66716897
0.55243194 -0.32959741 0.66102993
0.55255026 -0.31761488 0.66178322
0.55214578 -0.30713111 0.65956944
0.55194092 -0.29541555 0.65848893
0.55191249 -0.28232172 0.65841019
0.55190456 -0.26836869 0.65844792
0.55147767 -0.24806671 0.6561498
0.5516507 -0.23076768 0.65721595
0.80239767 1.6763632 2.0808868
0.77981067 1.659197 1.9527936
0.73820251 1.4681951 1.7167137
0.7402578 1.7260236 1.7285815
0.72090238 1.7095487 1.6188303
0.70423782 1.7129956 1.5243561
0.68669176 1.6988556 1.4248751
0.67159045 1.7080046 1.3392755
0.6432333 1.5130424 1.1783901
0.63037986 1.5261317 1.1055485
0.61727643 1.5317104 1.0312866
0.6042968 1.5354468 0.95772791
0.58547896 1.5491071 0.85109174
0.57242393 1.5382476 0.77710247
0.56000191 1.5414711 0.70671082
0.54774255 1.5491258 0.63724494
0.53542614 1.552316 0.56745511
0.52308017 1.5470293 0.49749476
0.510827 1.557261 0.42806858
0.4923344 1.5584769 0.32328534
0.47954485 1.5854067 0.25082585
0.46761686 1.5530603 0.18323046
0.45487148 1.5609304 0.11101565
0.44221106 1.5592562 0.03928021
0.43028575 1.5354733 -0.028293699
0.41721469 1.5383646 -0.10235472
0.40431675 1.5326897 -0.17543639
0.38414946 1.530763 -0.2897079
0.36960635 1.5393422 -0.37211335
0.37940398 1.226561 -0.31658155
0.3398554 1.5451792 -0.54069614
0.35358301 1.2297245 -0.46287358
0.30860907 1.5435319 -0.71776009
0.29245788 1.5390159 -0.80928719
0.26968464 1.509827 -0.93834025
0.26251674 1.4242609 -0.9789443
0.30910563 0.96135181 -0.71479285
0.26098841 1.1818709 -0.98753673
0.34220597 0.56827658 -0.52703822
0.25898534 0.97716641 -0.99880695
0.25796884 0.88480043 -1.0045229
0.25633883 0.44295198 -1.0134717
0.25845951 0.366312 -1.0013891
0.25566983 0.30857521 -1.0171491
0.29525909 0.13282141 -0.79259861
0.25601795 0.180721 -1.0150557
0.25639415 0.11944554 -1.0128617
0.25589237 0.061868854 -1.0156461
0.25519457 -0.022305638 -1.0195109
0.29538903 -0.13988149 -0.79151022
0.25542608 -0.13267776 -1.0180744
0.25522006 -0.1860369 -1.0191807
0.29290974 -0.27332547 -0.80537641
0.25528872 -0.29130933 -1.0186672
0.25485855 -0.34294587 -1.021045
0.25474289 -0.39453068 -1.0216393
0.25528783 -0.44603541 -1.0184876
0.29260403 -0.49356514 -0.80678916
0.25514922 -0.57442176 -1.0191219
0.25522539 -0.62605804 -1.0186299
0.29550901 -0.64550453 -0.79009324
0.25461671 -0.73127139 -1.0219646
0.2544665 -0.78478134 -1.0227587
0.2543188 -0.83914471 -1.0235397
0.25533637 -0.92045462 -1.0176845
0.29300341 -0.90239853 -0.80397451
0.43253735 -0.6433624 -0.012435975
0.43265298 -0.66120827 -0.011708995
0.43226215 -0.68089908 -0.013855511
0.43186283 -0.70142162 -0.016050734
0.43238461 -0.73020184 -0.012987082
0.432219 -0.75202852 -0.013858266
0.43222541 -0.7742241 -0.013754156
0.43170595 -0.79968429 -0.016634513
0.43154001 -0.82508928 -0.017510295
0.4323512 -0.86074197 -0.012811287
0.43220475 -0.88976341 -0.013579396
0.43182763 -0.92212486 -0.015657796
0.4312782 -0.95804739 -0.018715968
0.25811303 -2.2637465 -1.0013285
0.25721335 -2.4043446 -1.0064406
0.25523773 -2.5678551 -1.0176702
0.25495347 -2.7343771 -1.0193124
0.26119658 -2.9545391 -0.98394084
0.25928584 -3.1884725 -0.99485511
0.26798943 -3.3307083 -0.94552374
0.90187567 -8.8792639 2.6457765
0.83663863 -4.9012923 2.2791989
0.98978049 -6.3927841 3.1464596
1.0064033 -6.0789852 3.2410235
0.98669612 -5.4222221 3.1298537
1.0377306 -5.3337517 3.4193976
1.0426453 -5.0183363 3.4475758
1.0248917 -4.5525699 3.3473363
1.019856 -4.2299099 3.3190994
0.98531556 -3.7344582 3.1236987
1.0133847 -3.6919317 3.2829554
1.0196527 -3.511817 3.3187017
1.0146152 -3.279 3.2903843
1.0089551 -3.060081 3.2585261
1.0159597 -2.8324676 3.2985184
1.0171677 -2.6739283 3.3055556
1.0169442 -2.5172608 3.3044744
1.0068582 -2.3312817 3.2474942
1.0155681 -2.2225018 3.2970293
1.0089791 -2.0659394 3.2598541
1.0051548 -1.9260159 3.2383418
1.0060718 -1.7449706 3.2437766
1.0047643 -1.6241745 3.2365186
1.0035878 -1.5075214 3.2300007
1.0017757 -1.3930635 3.2198765
0.99968892 -1.2814304 3.2081921
1.0017462 -1.1787801 3.2199969
0.99211496 -1.0627663 3.1655383
0.96082401 -0.93030226 2.988282
1.002442 -0.82055342 3.2244284
0.99783021 -0.71801168 3.1984174
0.9931047 -0.61789984 3.1717594
0.98967874 -0.52017236 3.1524673
0.56551367 -0.44332802 0.74776995
0.55277526 -0.43638694 0.67565268
0.55101079 -0.42479765 0.66575885
0.55001092 -0.41729844 0.66016334
0.54925221 -0.39197284 0.65608358
0.54974085 -0.3769621 0.65896612
0.55468106 -0.3545993 0.68705809
0.55268168 -0.34899509 0.67579389
0.55113161 -0.34263405 0.66707742
0.5508793 -0.33793133 0.66568387
0.5501498 -0.31760618 0.6616962
0.54974657 -0.30712268 0.65948427
0.54940444 -0.29600924 0.65761912
0.54938132 -0.28294334 0.65756339
0.54950988 -0.26836145 0.65836853
0.54963636 -0.25281855 0.65916228
0.54913932 -0.23148073 0.6564573
0.80069137 1.6802331 2.0839219
0.77816898 1.663988 1.9562726
0.73621637 1.4706317 1.7183661
0.74480045 1.7042851 1.767213
0.71886957 1.7121273 1.6202781
0.70194465 1.7129551 1.5243733
0.68541723 1.7115079 1.4307212
0.66941833 1.709814 1.3400655
0.64172077 1.5251549 1.1829927
0.62811089 1.5270571 1.1058849
0.6148451 1.5297807 1.0307279
0.60200775 1.5363986 0.95800149
0.58292341 1.5432287 0.84988374
0.57035202 1.5471046 0.77866381
0.55770439 1.5434482 0.70700788
0.54537612 1.5481303 0.63716602
0.53307551 1.5523177 0.56748033
0.52076328 1.5530299 0.49772727
0.50847238 1.556268 0.42809567
0.49618798 1.5520382 0.35849789
0.47727764 1.5794424 0.2513707
0.46527842 1.5520828 0.18338008
0.45256525 1.5589722 0.11135434
0.44011515 1.5514226 0.040814228
0.42792368 1.5354949 -0.028262753
0.41494215 1.5364566 -0.10181339
0.40190303 1.5336717 -0.17569223
0.38787973 1.5432053 -0.25514784
0.3665269 1.5495726 -0.37613714
0.37725547 1.2238482 -0.31535795
0.33764464 1.543417 -0.53979802
0.35195756 1.2218091 -0.45868963
0.30694151 1.5366431 -0.71378565
0.29120061 1.5288806 -0.8029893
0.27317584 1.5354407 -0.90513921
0.26078463 1.4195132 -0.97535557
0.31145307 0.9790554 -0.68815154
0.258178 1.1849321 -0.99009544
0.34316087 0.58432567 -0.50835389
0.25626722 0.97932792 -1.0008764
0.25346199 0.89643413 -1.0167494
0.25400549 0.44298434 -1.0134652
0.25447419 0.3718434 -1.0107652
0.25288117 0.31001377 -1.0197533
0.29231161 0.13459784 -0.79613942
0.25496337 0.17749408 -1.0078561
0.25423351 0.11909699 -1.0119472
0.25340962 0.06223578 -1.0165706
0.25329271 0.0051553613 -1.0171846
0.25181028 -0.076182261 -1.0255157
0.25294432 -0.13243221 -1.0190345
0.2532503 -0.18639933 -1.0172479
0.29043224 -0.27315578 -0.80635107
0.25263667 -0.29104877 -1.0206228
0.25255275 -0.34293035 -1.0210457
0.25278533 -0.39462116 -1.0196731
0.25246385 -0.44596994 -1.0214421
0.43120652 -0.51041567 -0.0076218667
0.43095821 -0.53406841 -0.0089323688
0.43068734 -0.55020797 -0.010403405
0.43034917 -0.56673479 -0.012255916
0.43028668 -0.58324534 -0.012545092
0.43016359 -0.60016656 -0.013177723
