# .PCD v0.7 - Point Cloud Data file format
VERSION 0.7
FIELDS x y z
SIZE 4 4 4
TYPE F F F
COUNT 1 1 1
WIDTH 1318
HEIGHT 1
VIEWPOINT 0 0 0 1 0 0 0
POINTS 1318
DATA ascii
-0.067765705 -0.61765754 0.032458536
-0.066717423 -0.61766684 0.03247413
-0.065630354 -0.61767417 0.032475609
-0.064245939 -0.61767334 0.032478824
-0.062078137 -0.61766344 0.03247799
-0.13669673 -0.61152011 0.032454077
-0.12791386 -0.61149901 0.032412022
-0.12567843 -0.61150819 0.03241789
-0.10326444 -0.61151433 0.032455742
-0.081756622 -0.61150372 0.032429904
-0.078530446 -0.61150002 0.032431312
-0.073599197 -0.61153895 0.032467052
-0.13296714 -0.60543263 0.032614134
-0.096326955 -0.60538989 0.032552682
-0.095962621 -0.6053983 0.032572523
-0.092769533 -0.60544819 0.03262043
-0.11894422 -0.59998518 0.0321832
-0.1092235 -0.59934497 0.03290005
-0.10846879 -0.59933716 0.032879498
-0.10777403 -0.59933573 0.032871246
-0.10633075 -0.59936732 0.032903358
-0.043858085 -0.59935468 0.032897774
-0.12583652 -0.59401059 0.032723065
-0.12240573 -0.59402907 0.032732323
-0.12166727 -0.59403914 0.032740101
-0.12058672 -0.59401143 0.03272184
-0.060324945 -0.59401643 0.032732647
-0.13010055 -0.59397507 0.032652412
-0.11950118 -0.59399372 0.032685015
-0.097942926 -0.57866806 0.032148264
-0.1764171 -0.71423334 0.033572853
-0.16592622 -0.68402153 0.033854701
-0.1642109 -0.68403125 0.033885766
-0.05550437 -0.68408388 0.033995185
-0.053061236 -0.67612147 0.033167969
-0.15477113 -0.67536414 0.033706486
-0.15275052 -0.66673487 0.033797599
-0.14818995 -0.66670191 0.033764716
-0.14557201 -0.65888023 0.03356282
-0.055228498 -0.65887058 0.033558603
-0.054158967 -0.65888864 0.033573166
-0.0093283653 -0.6588856 0.033543099
-0.15005909 -0.6510433 0.033526756
-0.14752366 -0.65104675 0.033536121
-0.14400879 -0.65108305 0.03357498
0.0013317527 -0.65107274 0.033537503
-0.13970275 -0.6440419 0.033198509
-0.008061111 -0.64405739 0.033184912
-0.0034951025 -0.64403892 0.033172406
-0.00036787332 -0.64403659 0.033175785
-0.14117905 -0.64332891 0.033837955
-0.063143715 -0.64328903 0.033778083
-0.061431773 -0.64328575 0.033781916
-0.025748989 -0.64335102 0.033823106
-0.01300398 -0.64336067 0.033845462
-0.0097088385 -0.6433599 0.033829294
-0.0070580295 -0.64336389 0.033826143
-0.006016532 -0.64334971 0.033816312
-0.0052787242 -0.6433506 0.033816945
-0.1364574 -0.63704187 0.033044465
-0.041175861 -0.63705528 0.03306612
-0.020428302 -0.63707089 0.033044279
-0.016891373 -0.63706601 0.033039205
-0.066941939 -0.63631272 0.033635866
-0.054614503 -0.63629878 0.033640653
-0.05016496 -0.6362372 0.033555254
-0.048782941 -0.63622296 0.033541843
-0.043713603 -0.63631469 0.033651065
-0.038383257 -0.63637257 0.033734865
-0.034835536 -0.63638598 0.033748567
-0.030220192 -0.63638347 0.033761173
-0.022493323 -0.6363551 0.033681478
-0.020794582 -0.63637733 0.033692941
-0.11536265 -0.63007611 0.033072397
-0.062755622 -0.63004351 0.033042312
-0.058855619 -0.63006902 0.033076327
-0.041949607 -0.63001895 0.033016384
-0.040167399 -0.6300531 0.033059739
-0.036226261 -0.63011301 0.033134103
-0.03445138 -0.63011938 0.033147924
-0.032677889 -0.63012987 0.033158783
-0.13510686 -0.62937903 0.033725496
-0.11610609 -0.62940198 0.033752225
-0.074054904 -0.62939173 0.033744708
-0.059547029 -0.62938553 0.033732582
-0.055034008 -0.62936425 0.033712197
-0.052553304 -0.62936389 0.033720944
-0.044359371 -0.62929535 0.03362919
-0.038827192 -0.62940598 0.033768103
-0.037762351 -0.62942141 0.0337824
-0.14182009 -0.62318027 0.033370767
-0.13450266 -0.62316042 0.033334494
-0.13376568 -0.62316722 0.033342015
-0.13129897 -0.62316686 0.033346187
-0.097516909 -0.62316513 0.033340465
-0.092625551 -0.6231851 0.033363406
-0.090817772 -0.62318629 0.033361405
-0.084741935 -0.62316054 0.03335119
-0.075596407 -0.62319231 0.03338258
-0.069177069 -0.62319136 0.033365861
-0.067034036 -0.62318873 0.033371627
-0.065996714 -0.62318426 0.033368416
-0.054337822 -0.62316471 0.033343952
-0.051098324 -0.62315094 0.033326309
-0.060006164 -0.62248933 0.033999696
-0.097557709 -0.61701721 0.033178922
-0.089467987 -0.61701113 0.033158481
-0.078124322 -0.61702293 0.033186689
-0.13031824 -0.61633837 0.033827446
-0.12966333 -0.616337 0.033840727
-0.098978318 -0.61637229 0.033879217
-0.090201303 -0.61635721 0.033876695
-0.083183505 -0.61633199 0.033831611
-0.070796758 -0.61635429 0.033855606
-0.068962865 -0.61635911 0.033859085
-0.1371114 -0.6102308 0.033863764
-0.13464974 -0.61022264 0.033856206
-0.12618233 -0.61085802 0.033127192
-0.11005512 -0.61023432 0.033869557
-0.10830979 -0.61021876 0.033827826
-0.10688023 -0.61086106 0.033129431
-0.090345308 -0.61020845 0.033826504
-0.087285429 -0.61055303 0.033516906
-0.085452013 -0.61022925 0.033847876
-0.08393833 -0.61087668 0.033142
-0.082523972 -0.61054873 0.033493109
-0.079664484 -0.61085528 0.033120014
-0.13190249 -0.60479343 0.033330053
-0.12382412 -0.60477716 0.033285234
-0.098211415 -0.60410082 0.033979006
-0.097113676 -0.60410142 0.033976607
-0.09669029 -0.60474372 0.033259172
-0.094304092 -0.60478824 0.033316799
-0.13070168 -0.59875768 0.033672825
-0.1282399 -0.59874952 0.033665791
-0.1265215 -0.59877378 0.033683896
-0.11771693 -0.59873712 0.033642013
-0.11519821 -0.59876943 0.033676822
-0.11453022 -0.59877062 0.033674687
-0.11246662 -0.59876144 0.033674784
-0.12669164 -0.59338975 0.033457436
-0.1242118 -0.59338444 0.033455696
-0.12350859 -0.5934093 0.033468187
-0.1814626 -0.72391725 0.034500126
-0.18045732 -0.72388816 0.034473717
-0.17940535 -0.7238667 0.034461409
-0.17810191 -0.71271473 0.034625124
-0.17456934 -0.71269995 0.034615919
-0.17303826 -0.70310318 0.034060892
-0.1694604 -0.70235568 0.034612745
-0.1681087 -0.70231479 0.034568518
-0.17077209 -0.69203079 0.034887545
-0.16879386 -0.69278383 0.034372617
-0.16345182 -0.69279015 0.034365982
-0.16235112 -0.69277245 0.03434122
-0.16171953 -0.6927588 0.034339555
-0.15884481 -0.68332648 0.034476385
-0.1574941 -0.6832853 0.034433044
-0.16282389 -0.67460966 0.034244806
-0.15866171 -0.67461902 0.034287278
-0.15260375 -0.67460734 0.03426028
-0.054462321 -0.67466503 0.034347005
-0.14919583 -0.66602021 0.034406342
-0.15737499 -0.6652568 0.034956675
-0.14766984 -0.65817076 0.034172818
-0.0083362106 -0.65816474 0.034149304
-0.15330009 -0.65742785 0.034742065
-0.15082744 -0.65741837 0.034738805
-0.14913569 -0.65743852 0.034784738
-0.14297384 -0.65038466 0.034204099
-0.055893965 -0.65025842 0.034060825
-0.14865765 -0.64964056 0.034788877
-0.058684442 -0.64957815 0.034719702
-0.14502037 -0.64262074 0.034435023
-0.062039599 -0.64259982 0.034422468
-0.061728481 -0.64259386 0.034417856
-0.059996795 -0.6425944 0.03442838
-0.0085197743 -0.64266151 0.034465916
-0.0078180078 -0.64266342 0.034463555
-0.14010306 -0.63563585 0.034313519
-0.06950669 -0.63563263 0.034322921
-0.047710944 -0.63554829 0.034209628
-0.039824743 -0.63568801 0.034380592
-0.02676099 -0.63570249 0.03444691
-0.025406556 -0.63569009 0.034415938
-0.024278756 -0.63567388 0.034383852
-0.022851808 -0.6356672 0.034344301
-0.14781262 -0.63496685 0.034995865
-0.064553902 -0.63493121 0.034940176
-0.060748361 -0.6349377 0.034958694
-0.057196669 -0.63492692 0.034948893
-0.053347919 -0.63492668 0.034956064
-0.14468144 -0.6287179 0.034429789
-0.14399192 -0.62871701 0.03443243
-0.13661218 -0.62870997 0.034406971
-0.11866958 -0.62871504 0.034398317
-0.079507887 -0.62873083 0.034441803
-0.076650925 -0.6287244 0.034413747
-0.065979965 -0.62870622 0.034415945
-0.064907365 -0.62871271 0.034411877
-0.063100748 -0.62869978 0.034380559
-0.050458029 -0.62868321 0.03438507
-0.043510802 -0.62862867 0.034309648
-0.04243613 -0.62864947 0.034333467
-0.040959962 -0.62866956 0.034351714
-0.039192989 -0.62870878 0.034401909
-0.10281389 -0.62253165 0.03406053
-0.09117417 -0.6225245 0.034040894
-0.086238675 -0.62249738 0.034018017
-0.069909297 -0.62250799 0.034034595
-0.067781523 -0.622531 0.034054484
-0.062842689 -0.62249941 0.034042414
-0.061062209 -0.62250471 0.03402552
-0.058275461 -0.62248445 0.034000307
-0.056514416 -0.62249064 0.034012433
-0.055414949 -0.62250054 0.034022853
-0.052597079 -0.62248236 0.034006882
-0.14047983 -0.62185001 0.034732975
-0.13949186 -0.62186861 0.034748826
-0.13846931 -0.62186879 0.034752775
-0.13631737 -0.62184846 0.03474376
-0.13563453 -0.62183148 0.034707837
-0.13245137 -0.62183237 0.034703985
-0.099309817 -0.62186545 0.034739476
-0.098232947 -0.62186605 0.034739345
-0.09786994 -0.62185514 0.034722086
-0.09584932 -0.62182558 0.034706563
-0.087736495 -0.62182921 0.03471056
-0.077826343 -0.62186027 0.034751896
-0.074329682 -0.62185204 0.034726854
-0.072505258 -0.62184972 0.034716822
-0.070672989 -0.62185311 0.034728516
-0.063573137 -0.62183809 0.034717645
-0.058972403 -0.62182194 0.034680206
-0.057218947 -0.62181556 0.034678582
-0.13250086 -0.61569512 0.034558732
-0.093054637 -0.61567491 0.034532357
-0.092042521 -0.61566758 0.03452744
-0.088207893 -0.61569744 0.034544274
-0.086388081 -0.61569566 0.034539796
-0.078557752 -0.61568809 0.034547985
-0.075789467 -0.61570859 0.034573648
-0.072260357 -0.61570024 0.034567419
-0.13296825 -0.60959393 0.034576789
-0.13161483 -0.60960066 0.034583341
-0.13052109 -0.60960472 0.034588903
-0.12946598 -0.60957873 0.034574248
-0.12806325 -0.60955387 0.034526873
-0.10901514 -0.6095823 0.034547985
-0.094854742 -0.60959923 0.034577604
-0.089304999 -0.60956037 0.034536306
-0.088239811 -0.60956573 0.034547374
-0.13095626 -0.60414547 0.034038298
-0.12602109 -0.60415417 0.034040846
-0.12288473 -0.60413867 0.034014363
-0.12042673 -0.60413945 0.034016799
-0.10322032 -0.60413885 0.03401212
-0.10244247 -0.60414952 0.034017913
-0.098941408 -0.60412234 0.034018148
-0.13490623 -0.60347921 0.034704935
-0.13313979 -0.60351259 0.034752566
-0.1299797 -0.60350835 0.034755766
-0.12753434 -0.60354173 0.034776472
-0.12643117 -0.60352224 0.034766715
-0.12499934 -0.6035015 0.034724295
-0.10640302 -0.60352194 0.034764014
-0.13332 -0.59808844 0.034339245
-0.12974665 -0.59813374 0.034403205
-0.12521634 -0.59815007 0.034416251
-0.12452848 -0.5981524 0.034419309
-0.12339574 -0.59814 0.034415372
-0.12238541 -0.59811103 0.03437306
-0.11673628 -0.59812111 0.034398858
-0.037675858 -0.59809095 0.03434753
-0.13069502 -0.59244895 0.034540214
-0.12859741 -0.59212345 0.034885556
-0.12683134 -0.59215671 0.034932677
-0.12463472 -0.59276783 0.034195017
-0.18522541 -0.73359263 0.035702486
-0.18459611 -0.73357761 0.03570123
-0.18321201 -0.72237515 0.035518225
-0.17762467 -0.72230601 0.035448536
-0.172721 -0.71115661 0.035645802
-0.1684344 -0.70158291 0.035147592
-0.16703515 -0.70154971 0.035116717
-0.17303446 -0.70082694 0.035682306
-0.17123234 -0.70084327 0.035689864
-0.15782999 -0.68256992 0.035040427
-0.16665629 -0.68180633 0.035569444
-0.1641909 -0.68180549 0.035568975
-0.16244206 -0.68182963 0.035604075
-0.16064017 -0.68184555 0.03561119
-0.056186765 -0.68186051 0.035663571
-0.052339412 -0.67320037 0.035515897
-0.052142642 -0.66532785 0.035054225
-0.051084884 -0.66532046 0.035049513
-0.15281719 -0.66455704 0.035590742
-0.15101548 -0.6645726 0.035597451
-0.15230732 -0.65671158 0.03536953
-0.14631407 -0.65674216 0.035400823
-0.0097204503 -0.65674549 0.035380334
-0.0047926116 -0.65673447 0.035377081
-0.0020372442 -0.65601033 0.03597058
-0.1495187 -0.65599436 0.035979934
-0.14762162 -0.64893597 0.035418492
-0.14411268 -0.64895838 0.035450712
-0.14158706 -0.6489625 0.035448551
-0.1493694 -0.64125758 0.03577254
-0.14827645 -0.64127308 0.035780881
-0.14754507 -0.64124811 0.035766602
-0.14685033 -0.64124292 0.035755146
-0.14404035 -0.64192271 0.035089042
-0.14300227 -0.64122397 0.035721544
-0.14158742 -0.64192086 0.035087928
-0.1394386 -0.64125252 0.035747297
-0.064293616 -0.64190274 0.03507052
-0.063158885 -0.64190072 0.035057593
-0.061824668 -0.6412034 0.03569923
-0.038781613 -0.64198619 0.035175078
-0.035674538 -0.64128399 0.035814326
-0.033907928 -0.64127642 0.035806865
-0.032187797 -0.64128345 0.035847962
-0.029961241 -0.64198655 0.035216063
-0.025766276 -0.64125061 0.035743959
-0.022676617 -0.6412828 0.03576212
-0.020171236 -0.64128679 0.035763383
-0.016659763 -0.64127141 0.035753101
-0.014536338 -0.64197481 0.035127144
-0.013445072 -0.64127189 0.035762131
-0.012794864 -0.6412679 0.03576234
-0.011361381 -0.64196491 0.035119422
-0.01060196 -0.64196903 0.035123739
-0.0099367741 -0.64197165 0.03511795
-0.037015755 -0.63500869 0.035048779
-0.033496398 -0.63501334 0.035058759
-0.03069362 -0.63500494 0.035055034
-0.028593119 -0.63501102 0.035090216
-0.027510518 -0.63501585 0.035101824
-0.025697522 -0.63501203 0.03508772
-0.14715278 -0.63498038 0.035009868
-0.14617856 -0.63430285 0.035668068
-0.14548656 -0.63429672 0.035669345
-0.14479339 -0.63430172 0.035673171
-0.14264981 -0.63426036 0.035623487
-0.070587181 -0.63426793 0.035633542
-0.052262709 -0.63424718 0.035615206
-0.051602241 -0.63423127 0.035601117
-0.046385076 -0.63418823 0.035533521
-0.043854333 -0.63422948 0.035579327
-0.03845299 -0.63431013 0.035682
-0.032455146 -0.63432652 0.03571628
-0.031438638 -0.63432169 0.035708945
-0.029700806 -0.63431627 0.035709195
-0.14263594 -0.62806469 0.035114512
-0.13348241 -0.62803578 0.035085112
-0.082028985 -0.62805665 0.035115436
-0.07743451 -0.62804919 0.035087381
-0.075598046 -0.62805563 0.03509121
-0.07275825 -0.62804657 0.035089582
-0.071670823 -0.62805414 0.035091594
-0.069581859 -0.62804919 0.035099264
-0.06849318 -0.62804699 0.035088427
-0.053663414 -0.62800723 0.035043169
-0.049139556 -0.62801111 0.0350614
-0.048389725 -0.62801361 0.035063297
-0.14129679 -0.62738788 0.035781682
-0.14055042 -0.62740147 0.035790481
-0.13947126 -0.62737381 0.035770975
-0.13838896 -0.62735474 0.035731494
-0.1377904 -0.62733388 0.035722617
-0.13527662 -0.62735224 0.03573253
-0.080618158 -0.62738407 0.035781279
-0.077849187 -0.62737292 0.035766605
-0.074917495 -0.62736994 0.035754807
-0.070311911 -0.62738127 0.035766911
-0.063587733 -0.6273436 0.035717163
-0.058928438 -0.62735152 0.035723966
-0.0579632 -0.62735343 0.035735026
-0.055106431 -0.62733322 0.035709132
-0.052728258 -0.62732631 0.035713315
-0.04742616 -0.627312 0.035702661
-0.046011623 -0.62728232 0.03565111
-0.045370769 -0.62726629 0.035628892
-0.1426914 -0.62118655 0.035417475
-0.13666332 -0.62120742 0.035439968
-0.13134995 -0.62116802 0.03537751
-0.090942539 -0.62118775 0.035401579
-0.084941886 -0.62115997 0.035385873
-0.083171912 -0.62115252 0.035388015
-0.13644616 -0.61502844 0.035249252
-0.1354008 -0.61505425 0.035264987
-0.13437296 -0.61505526 0.035266053
-0.13362944 -0.6150676 0.035274476
-0.13289715 -0.61504257 0.035260536
-0.13146639 -0.61502135 0.035216924
-0.13086636 -0.6150015 0.035208225
-0.12835597 -0.61501825 0.035217762
-0.097656794 -0.61505121 0.035263941
-0.094884783 -0.61505228 0.035253245
-0.084346615 -0.61502063 0.035219099
-0.081865706 -0.61501235 0.035217777
-0.077583835 -0.61504412 0.035254132
-0.076507553 -0.61505324 0.035266325
-0.11642371 -0.61433172 0.035868112
-0.10193948 -0.61499876 0.035193734
-0.099150918 -0.61439329 0.035951018
-0.089633293 -0.61437887 0.035943925
-0.088644117 -0.61438215 0.035938285
-0.08682467 -0.61438465 0.035925925
-0.085041046 -0.61437613 0.035922907
-0.083365388 -0.6143502 0.035908084
-0.079074673 -0.61435592 0.035916068
-0.078265883 -0.6143719 0.035926268
-0.13764542 -0.60891128 0.035245299
-0.13585219 -0.60893768 0.035273712
-0.13202029 -0.60895652 0.035285745
-0.12849051 -0.60891491 0.035243332
-0.12680165 -0.60825503 0.035924245
-0.12356064 -0.60826236 0.035934746
-0.11188077 -0.60891849 0.035229694
-0.10604734 -0.60826373 0.035937376
-0.10520885 -0.60893053 0.035256889
-0.10415588 -0.60892987 0.035248179
-0.10214619 -0.6082837 0.035982233
-0.10035614 -0.60823226 0.035909183
-0.098892972 -0.60888976 0.035213109
-0.096354045 -0.60894668 0.035271749
-0.095410779 -0.60830379 0.035984352
-0.093599647 -0.60830039 0.035980664
-0.092972644 -0.60829419 0.035978239
-0.091874376 -0.60830092 0.035978388
-0.13217665 -0.60287565 0.035473138
-0.11207757 -0.6028505 0.035451118
-0.10750834 -0.60286403 0.035448786
-0.1068527 -0.60286164 0.035460841
-0.10437381 -0.60286885 0.035438661
-0.10327758 -0.60286802 0.035439692
-0.13126336 -0.59748024 0.035102945
-0.12879959 -0.59750777 0.035133939
-0.12070909 -0.59747255 0.035078578
-0.11994146 -0.59748918 0.035088792
-0.18522307 -0.73203844 0.036705784
-0.18353865 -0.73278648 0.036170039
-0.18173563 -0.72082007 0.036533471
-0.17137924 -0.71037328 0.03615804
-0.17593178 -0.70965946 0.036736641
-0.1697768 -0.69931883 0.036764536
-0.16522099 -0.69055969 0.036046505
-0.12784469 -0.69054508 0.036027182
-0.16840483 -0.68977696 0.036566682
-0.16559482 -0.68106788 0.036142476
-0.15956256 -0.68109334 0.036172982
-0.16111876 -0.67241299 0.036015142
-0.053079657 -0.67246985 0.03610152
-0.15832005 -0.67167741 0.036596283
-0.15648921 -0.67170918 0.036617566
-0.1547761 -0.6717115 0.036631253
-0.15882333 -0.66308594 0.036759783
-0.15598215 -0.6638118 0.036157452
-0.15135567 -0.66312075 0.036794465
-0.14948353 -0.6634661 0.036487445
-0.053931814 -0.66313601 0.036827624
-0.052872229 -0.66314673 0.036839809
-0.15652972 -0.65604436 0.036035109
-0.15510401 -0.6560142 0.036008488
-0.15546112 -0.65530491 0.036633451
-0.15403399 -0.65528202 0.0365857
-0.1509175 -0.65528095 0.036587168
-0.14735387 -0.65530974 0.036613114
-0.14460476 -0.65529788 0.036619425
-0.05634407 -0.65523803 0.036534745
-0.054212078 -0.65528262 0.036589172
-0.1533135 -0.64826375 0.036095332
-0.1526183 -0.64826977 0.036099456
-0.15115495 -0.64824706 0.036086481
-0.0053827208 -0.64826524 0.036058903
-0.0047533414 -0.64826983 0.036065415
-0.0033009455 -0.64826053 0.036058489
-0.0026376238 -0.64825439 0.036054187
0.00053307734 -0.64825583 0.03605723
-0.15147504 -0.64756799 0.036730997
-0.15014315 -0.64752299 0.03667495
-0.14942624 -0.6475144 0.036662139
-0.14450623 -0.6475271 0.03669918
-0.0111086 -0.64757174 0.036691964
-0.0075839995 -0.64755869 0.036683373
-0.0036877273 -0.64755899 0.036690094
-0.14549318 -0.64051849 0.036355689
-0.048814863 -0.64047813 0.036302481
-0.045295458 -0.64054734 0.03639625
-0.041507374 -0.64058143 0.036434393
-0.039887231 -0.64059216 0.03645296
-0.03638522 -0.64058602 0.036453895
-0.028667584 -0.64058566 0.036477771
-0.01810009 -0.64057791 0.036394447
-0.015615199 -0.64057982 0.036397193
-0.06717284 -0.6398133 0.036982354
-0.066004574 -0.63983083 0.03699268
-0.14333868 -0.63360441 0.036322355
-0.14161377 -0.63356483 0.036263999
-0.13835016 -0.63357896 0.036267273
-0.13669102 -0.63357913 0.036301341
-0.071327269 -0.63358873 0.03629965
-0.069234759 -0.63357359 0.036290411
-0.066761613 -0.63356781 0.036256414
-0.0583211 -0.63355327 0.036251336
-0.050622407 -0.63352245 0.036224
-0.045351245 -0.63351583 0.036203861
-0.042837445 -0.63355488 0.036252908
-0.041779913 -0.63358712 0.036291644
-0.039973598 -0.63361496 0.036324166
-0.035671975 -0.63363916 0.036360878
-0.033943929 -0.63364035 0.036366999
-0.14061873 -0.63287294 0.036905598
-0.074246988 -0.63291121 0.036953904
-0.073175281 -0.63291198 0.036954157
-0.072142176 -0.63290107 0.036952429
-0.055587403 -0.6328665 0.036910377
-0.049558725 -0.63282579 0.036854953
-0.048539493 -0.63280302 0.036822833
-0.038879611 -0.63293713 0.036986247
-0.037118822 -0.63293719 0.03699683
-0.13422403 -0.62666851 0.036397874
-0.095859915 -0.62669688 0.036434036
-0.089556955 -0.62666404 0.03638678
-0.085985534 -0.62666851 0.036404744
-0.083117798 -0.62670922 0.036448099
-0.079580553 -0.62669867 0.036437441
-0.066083491 -0.62667835 0.036411539
-0.061516132 -0.62665975 0.036376726
-0.054129634 -0.62665141 0.036375824
-0.051636308 -0.62665516 0.036382567
-0.050622046 -0.62664729 0.036380637
-0.049508795 -0.62665009 0.036380507
-0.14171684 -0.62051892 0.036098812
-0.13430597 -0.62048757 0.036053304
-0.086456686 -0.62048465 0.03605298
-0.081047937 -0.62052035 0.036092784
-0.079299591 -0.62053186 0.036107387
-0.076427139 -0.62052608 0.036104459
-0.072904788 -0.62051749 0.036074527
-0.071131073 -0.62051523 0.036083095
-0.065150931 -0.62051219 0.03608755
-0.063322142 -0.62050587 0.036080558
-0.061242282 -0.62049508 0.036071554
-0.13332318 -0.61981559 0.03672123
-0.089615822 -0.61984777 0.036750767
-0.083611615 -0.61982691 0.036749747
-0.07724303 -0.61985701 0.036784772
-0.074415602 -0.61985457 0.036782864
-0.07017874 -0.61984438 0.036766507
-0.069026165 -0.619838 0.036751069
-0.067988388 -0.61985052 0.036761284
-0.066953309 -0.61985302 0.036767568
-0.13758339 -0.61371511 0.036632579
-0.12881254 -0.613702 0.036597915
-0.10765158 -0.61372054 0.036618911
-0.1030846 -0.61366832 0.036561627
-0.10063926 -0.61370069 0.036606692
-0.091505267 -0.61369669 0.036605339
-0.090347305 -0.61370349 0.03661336
-0.082349241 -0.61369288 0.036589291
-0.13631031 -0.60763621 0.036668744
-0.096956052 -0.60762459 0.036661394
-0.1336177 -0.6022352 0.036169697
-0.13114432 -0.60223633 0.036188971
-0.12310953 -0.60221732 0.036147561
-0.1223736 -0.60222304 0.036153868
-0.11816119 -0.6022464 0.03619023
-0.1089578 -0.60220766 0.036121443
-0.13438147 -0.60156232 0.036843494
-0.11534794 -0.60161394 0.036904037
-0.12995723 -0.59624648 0.036574569
-0.17450915 -0.70811242 0.037779853
-0.17115736 -0.69857055 0.037314765
-0.17263429 -0.69777656 0.037843332
-0.16977172 -0.68903387 0.037119277
-0.1658462 -0.68831533 0.037702288
-0.1634562 -0.68829691 0.037705172
-0.16243942 -0.6795851 0.037310559
-0.16060019 -0.67962039 0.037322726
-0.16372478 -0.67885554 0.037848577
-0.15791146 -0.6788516 0.037885815
-0.053669054 -0.6789096 0.037975229
-0.16187832 -0.6701929 0.037750371
-0.15970291 -0.67094857 0.037176482
-0.15374424 -0.67096186 0.037205674
-0.15269442 -0.67023367 0.037797265
-0.15449396 -0.66237164 0.037349284
-0.15284604 -0.6623652 0.037382629
-0.14714612 -0.66239965 0.037398998
-0.15310101 -0.65454459 0.037189312
-0.14811933 -0.65457278 0.037229657
-0.0080718705 -0.65460467 0.037222441
-0.056381419 -0.6538021 0.037753742
-0.054601338 -0.65382195 0.037778333
-0.14841942 -0.64680338 0.037276641
-0.14582866 -0.6468246 0.037291963
-0.061957549 -0.64678955 0.037274536
-0.05942395 -0.64680493 0.037293367
-0.05843275 -0.64608324 0.037905261
-0.025602197 -0.64687878 0.037337657
-0.012557347 -0.64687377 0.037330922
-0.0065606232 -0.64684248 0.037304837
-0.14382176 -0.6391257 0.037630677
-0.14161268 -0.63982469 0.037000176
-0.13988726 -0.63983959 0.037031528
-0.064715356 -0.63913572 0.037643984
-0.051393025 -0.63904023 0.037529737
-0.038872734 -0.63989764 0.037092224
-0.0339064 -0.63919777 0.037733842
-0.029737219 -0.63919955 0.037779439
-0.027645553 -0.63988107 0.03709805
-0.024485519 -0.63986564 0.037024088
-0.023424855 -0.63918179 0.037671834
-0.02132019 -0.63989615 0.037044886
-0.020627739 -0.63989663 0.037043795
-0.017066751 -0.63987488 0.037029419
-0.13952656 -0.63220584 0.037571285
-0.077154621 -0.63221508 0.037604697
-0.074962839 -0.63222224 0.037600182
-0.069991551 -0.63220972 0.037598126
-0.053838573 -0.63217217 0.037556726
-0.047167305 -0.63210523 0.037462018
-0.043948144 -0.63215494 0.037522666
-0.040387299 -0.63223481 0.037621807
-0.14447874 -0.62600905 0.037096459
-0.10327254 -0.62602663 0.03710556
-0.08471065 -0.62600851 0.037084021
-0.082129069 -0.62602991 0.037110932
-0.066829205 -0.62601125 0.037092615
-0.11148408 -0.62532651 0.037765171
-0.096930377 -0.62532049 0.037742905
-0.090671465 -0.62533098 0.037744302
-0.08996506 -0.62598497 0.037063174
-0.087436981 -0.62599277 0.037076592
-0.086029716 -0.62530965 0.037733521
-0.059469771 -0.62598109 0.037046675
-0.05561525 -0.62598163 0.037054144
-0.14032435 -0.619183 0.037456471
-0.13966188 -0.61917251 0.03744847
-0.093172297 -0.61916453 0.037442602
-0.087559961 -0.61917335 0.037433077
-0.081524625 -0.61916387 0.037428904
-0.075166471 -0.61918086 0.037453342
-0.073450498 -0.61918384 0.037452679
-0.071630657 -0.61917931 0.037432425
-0.097867727 -0.61307627 0.037328959
-0.096079275 -0.61307454 0.037333105
-0.094348349 -0.61307722 0.037330829
-0.093229763 -0.61306715 0.03731177
-0.088353768 -0.61306781 0.037326857
-0.1147991 -0.6123718 0.037947502
-0.10359775 -0.61236113 0.037976321
-0.10173308 -0.61236209 0.037956093
0.0082305148 -0.60702342 0.037395634
-0.10364282 -0.60698837 0.037365641
-0.1025241 -0.60699147 0.037370495
-0.1291306 -0.6009658 0.037619598
-0.12356447 -0.60094029 0.037582714
-0.12110125 -0.60094881 0.037590913
-0.084227577 -0.57462186 0.037594128
-0.1865911 -0.7297098 0.038214881
-0.17964526 -0.71771055 0.038583111
-0.10980209 -0.70657212 0.038821079
-0.16809456 -0.69702721 0.038390499
-0.1669516 -0.6962983 0.038941666
-0.16239369 -0.68755281 0.038268477
-0.16443504 -0.6868189 0.038827714
-0.15916677 -0.68677706 0.038799804
-0.15826559 -0.66947812 0.038344592
-0.15654725 -0.66948944 0.038375754
-0.052718613 -0.66953999 0.038441025
-0.16045254 -0.66874206 0.038920548
-0.15053083 -0.66877466 0.038972806
-0.053934962 -0.66169089 0.038017489
-0.15640101 -0.66090196 0.038531646
-0.054655854 -0.66096944 0.038615502
-0.052573815 -0.6609658 0.038628325
-0.05650866 -0.65235424 0.038963608
-0.03078266 -0.64616114 0.038007881
-0.14450853 -0.6454041 0.038540479
-0.13638133 -0.64540845 0.038554437
-0.037195846 -0.64546746 0.038642395
-0.03543691 -0.64546931 0.038660441
-0.032978881 -0.64547688 0.038692389
-0.026691167 -0.64545983 0.038584344
-0.019949345 -0.64545465 0.038581498
-0.014275989 -0.64545596 0.038588729
-0.14275876 -0.63843691 0.038279064
-0.070361413 -0.63844144 0.038283087
-0.047128398 -0.63839579 0.03822951
-0.043598481 -0.63847423 0.038331632
-0.02559736 -0.6384691 0.038327124
-0.13996793 -0.63774014 0.038921937
-0.13822058 -0.6377638 0.038954515
-0.13044712 -0.63771087 0.038886491
-0.06897831 -0.63773108 0.038896322
-0.070017852 -0.63152814 0.038259231
-0.0622955 -0.63150281 0.038216133
-0.058462683 -0.63149363 0.038214445
-0.062934414 -0.63081825 0.038863935
-0.059156798 -0.63082653 0.038886864
-0.095605686 -0.62466067 0.038432278
-0.091013499 -0.62465793 0.038411193
-0.087539993 -0.62463623 0.03839742
-0.14182615 -0.61850852 0.03812601
-0.096040472 -0.61850351 0.038105022
-0.082262948 -0.6184845 0.03810063
-0.10211723 -0.61784118 0.038801216
-0.075611435 -0.61785841 0.038825314
-0.1355412 -0.61240423 0.038014229
-0.10531737 -0.61240673 0.038018409
-0.099367328 -0.61240381 0.038006157
-0.095082909 -0.61241865 0.038025886
-0.13117906 -0.60636032 0.038098179
-0.12379296 -0.60632503 0.038054433
-0.10159227 -0.60634863 0.038096409
0.0028938132 -0.60637891 0.038089704
-0.1069662 -0.60568947 0.038771
-0.067985445 -0.5838235 0.038637675
-0.18473537 -0.72738165 0.03971494
-0.17268741 -0.70582706 0.039369084
-0.11298074 -0.70505917 0.039899476
-0.11187939 -0.70506352 0.039886706
-0.11080131 -0.70505792 0.039882272
-0.10836251 -0.70581138 0.039346457
-0.10167378 -0.70581931 0.039344084
-0.17214496 -0.69475657 0.039973296
-0.12528545 -0.69475114 0.039988656
-0.15886255 -0.6774025 0.039033476
-0.15566662 -0.67740285 0.039040904
-0.16200225 -0.67662507 0.039555989
-0.055463951 -0.659509 0.039802831
-0.053640667 -0.65952486 0.039820228
-0.00067067496 -0.65244442 0.03903826
-0.14782158 -0.65170622 0.0396518
-0.057943862 -0.65160817 0.039533649
-0.15267077 -0.64473855 0.039222829
-0.059826329 -0.64467937 0.039157405
-0.029482564 -0.64473891 0.03923339
-0.028494382 -0.64403093 0.039844319
-0.025626469 -0.64476377 0.039213344
-0.045409728 -0.63701636 0.039527118
-0.03720421 -0.63781005 0.03901514
-0.034381133 -0.63780308 0.039014418
-0.075777531 -0.63016015 0.039563037
-0.073670037 -0.63016331 0.039559081
-0.13939469 -0.62400448 0.039117161
-0.10132913 -0.62331742 0.039771531
-0.10027044 -0.62365896 0.039433941
-0.09430594 -0.62398535 0.039093085
-0.084362693 -0.62396622 0.039073266
-0.08217594 -0.62399441 0.039099511
-0.010801313 -0.59908998 0.039821714
-0.16841966 -0.70426261 0.040374678
-0.10930952 -0.70429182 0.040405706
-0.16864917 -0.694794 0.040023159
-0.12853527 -0.69399244 0.040533774
-0.05639106 -0.68535441 0.040044323
-0.15654759 -0.66728723 0.040101547
-0.053410687 -0.6673553 0.040197715
-0.052380376 -0.66735268 0.040195744
-0.05545349 -0.6587829 0.040395763
-0.058258269 -0.65089959 0.04015258
-0.061729304 -0.64327025 0.040414449
-0.067280486 -0.63633418 0.040178571
-0.0698184 -0.6356526 0.040857602
-0.065815136 -0.63564396 0.040820189
-0.078300938 -0.62947327 0.040204335
-0.083703831 -0.62879795 0.040892262
-0.082626574 -0.62879282 0.040889084
-0.080854557 -0.62878484 0.040878501
-0.079798609 -0.62879056 0.040887266
-0.087324984 -0.62260801 0.040393155
-0.085520171 -0.62260711 0.04040562
-0.0068190834 -0.60377353 0.040928297
-0.018247252 -0.59250867 0.040968087
-0.060148079 -0.58724844 0.040869925
-0.053775877 -0.6658929 0.041365121
-0.054056287 -0.65806717 0.041002437
-0.058954541 -0.64949512 0.041408207
-0.064580202 -0.64185977 0.041664906
-0.063481957 -0.64185947 0.0416613
-0.073366135 -0.6349709 0.041505191
-0.068390064 -0.63494796 0.041465297
-0.067279018 -0.63494962 0.041460991
-0.085122719 -0.62811017 0.04154139
-0.081186064 -0.62810779 0.041540768
-0.078479581 -0.62809741 0.041521091
-0.075574741 -0.62809211 0.041520651
-0.094031222 -0.62195545 0.041104589
-0.091212496 -0.62195033 0.041073054
0.0091159614 -0.60914564 0.04146605
-0.080273114 -0.57622743 0.041851785
-0.11066823 -0.56719285 0.041172683
-0.056905668 -0.65582299 0.042696446
-0.055889767 -0.65583748 0.042726714
-0.061458312 -0.64811325 0.042706456
-0.058958173 -0.64807719 0.042654872
-0.057215583 -0.64804953 0.042607766
-0.065260284 -0.64117497 0.042311314
-0.074077867 -0.63427931 0.042148724
-0.070871972 -0.63426387 0.042133637
-0.074803688 -0.63359386 0.042792685
-0.067393735 -0.63355643 0.042745311
-0.091922939 -0.62739408 0.042151544
-0.080546632 -0.62741601 0.042188868
-0.078816853 -0.6274156 0.042188104
-0.082349069 -0.62673563 0.042850249
-0.079548165 -0.62673038 0.042850945
-0.0031163141 -0.60249215 0.042310324
0.018043848 -0.60247248 0.042293299
-0.015279139 -0.59655476 0.042690802
-0.0079351338 -0.59655237 0.042725187
-0.11974861 -0.56605351 0.042741306
-0.13020065 -0.6902436 0.043261904
-0.052939035 -0.67150885 0.043656256
-0.053417843 -0.66369504 0.043120671
-0.057298277 -0.64733648 0.043224815
-0.059019811 -0.64666641 0.043910764
-0.065293834 -0.63977206 0.04357053
-0.064278111 -0.63975328 0.043554839
-0.07660941 -0.63287407 0.043411251
-0.093027495 -0.62603778 0.043470699
-0.091973692 -0.62602931 0.043470953
-0.084851794 -0.62604094 0.043488503
-0.083102964 -0.62605226 0.043503392
-0.00034953834 -0.60185921 0.043022413
-0.043728355 -0.58536988 0.043057859
-0.037750661 -0.58474052 0.043767422
-0.059313796 -0.57503659 0.043381978
-0.11884576 -0.69820231 0.044653919
-0.13225749 -0.68872929 0.044359066
-0.13023785 -0.6887241 0.044344466
-0.13084167 -0.68797958 0.044903982
-0.053605188 -0.67077166 0.044234436
-0.05433815 -0.66222239 0.044271205
-0.058430027 -0.65360951 0.0444519
-0.056604065 -0.65364349 0.044487193
-0.059331536 -0.64597714 0.044551425
-0.065966435 -0.63906097 0.044186678
-0.062824741 -0.63904077 0.044170439
-0.13243322 -0.63834161 0.044817168
-0.13102137 -0.63832933 0.044783741
-0.068168841 -0.6383388 0.044790134
-0.066755079 -0.63834268 0.044799265
-0.070610613 -0.63217926 0.044060584
-0.078660414 -0.63149637 0.044700027
-0.073488474 -0.63150322 0.044715405
-0.072447874 -0.63149303 0.044713702
-0.098366588 -0.62532204 0.044110198
-0.097268246 -0.62533367 0.044133242
-0.094530918 -0.62535089 0.04412847
-0.088121407 -0.62532622 0.044113752
-0.098717116 -0.62463999 0.044763677
-0.089624055 -0.62463105 0.044754725
-0.0010039767 -0.60586709 0.044934697
-0.00780277 -0.60056174 0.044519696
-0.095817447 -0.57383746 0.044879679
-0.12003377 -0.56937832 0.044553235
-0.10893936 -0.70768917 0.04519641
-0.10720914 -0.70767736 0.045184173
-0.10610407 -0.70767498 0.045183644
-0.10229766 -0.70768005 0.045207363
-0.1074632 -0.7069186 0.045700774
-0.10470463 -0.70691442 0.045713387
-0.10079528 -0.70690334 0.045706429
-0.09897615 -0.70691383 0.045705527
-0.096627042 -0.70688957 0.045702808
-0.13256575 -0.68720585 0.045415014
-0.13327929 -0.6864382 0.045943961
-0.053904071 -0.67861634 0.045041904
-0.051425003 -0.66929495 0.045370892
-0.058463529 -0.65215361 0.045633376
-0.056683995 -0.652183 0.045673124
-0.064240903 -0.64454859 0.045761123
-0.063618526 -0.64454204 0.045763522
-0.061874956 -0.64453381 0.045759507
-0.072049141 -0.63764763 0.045456894
-0.06820076 -0.63763094 0.045415193
-0.07892032 -0.63009679 0.045976963
-0.076023839 -0.63008916 0.045967009
-0.074592419 -0.63045049 0.045664802
-0.094556764 -0.62397593 0.04543205
-0.093485266 -0.62397903 0.045435902
-0.0916835 -0.62397361 0.045433681
0.0040304945 -0.5999012 0.045127589
-0.001161826 -0.59397519 0.045510698
-0.091640756 -0.57326257 0.045675591
-0.080694243 -0.57323086 0.045634605
-0.11530453 -0.56373137 0.045826629
-0.10608243 -0.70614052 0.046210889
-0.10322291 -0.70615804 0.046238542
-0.10216046 -0.70615798 0.046247095
-0.10743315 -0.70537657 0.046724211
-0.13398087 -0.68569559 0.046487968
-0.053775202 -0.67637819 0.046686769
-0.058447655 -0.65070206 0.046822757
-0.062189054 -0.6438303 0.046377197
-0.06081561 -0.64382374 0.046376515
-0.059409246 -0.64382809 0.046382606
-0.13108672 -0.63692474 0.046047416
-0.070313916 -0.63624257 0.046706017
-0.066758625 -0.6369257 0.046042189
-0.064315237 -0.63623822 0.046693124
-0.063247643 -0.63624096 0.046699479
-0.079325177 -0.62940484 0.046621207
-0.095969081 -0.62328339 0.046105076
-0.090350203 -0.6232813 0.046082214
-0.084230639 -0.6232813 0.046085604
-0.094595976 -0.62260491 0.046757251
-0.015642308 -0.59335548 0.046259824
-0.042723347 -0.58807683 0.046005171
-0.05374752 -0.58292633 0.046028275
-0.056222457 -0.57718992 0.046934858
-0.10990215 -0.70460969 0.047283877
-0.1088853 -0.70460695 0.047282439
-0.1112584 -0.70385629 0.047809586
-0.13007474 -0.69437534 0.047258951
-0.05452526 -0.67562473 0.047229867
-0.052545179 -0.66707367 0.047084339
-0.054277945 -0.6663394 0.04765344
-0.053274006 -0.66633433 0.047657505
-0.053459972 -0.65856087 0.047190528
-0.054194111 -0.65782297 0.047769599
-0.056369714 -0.64999878 0.04745305
-0.067845896 -0.63552266 0.047297437
-0.07135535 -0.63483208 0.047964945
-0.091746032 -0.62867904 0.047228318
-0.08288087 -0.62871552 0.047289476
-0.088208117 -0.6279794 0.047885869
-0.084807254 -0.57208323 0.047194738
-0.1140722 -0.70310533 0.04832989
-0.11689803 -0.70232105 0.048827272
-0.11478402 -0.70232701 0.048829004
-0.11265263 -0.70231837 0.048837055
-0.1286203 -0.69207436 0.048827779
-0.12685554 -0.6920718 0.048825543
-0.13217884 -0.68266493 0.048650589
-0.054289367 -0.66485441 0.048792873
-0.057794161 -0.65701628 0.048253328
-0.05604136 -0.65705848 0.048314147
-0.054257613 -0.65635169 0.048928674
-0.058858179 -0.64854509 0.048640128
-0.063669413 -0.641684 0.048208378
-0.061619636 -0.6409663 0.048825134
-0.073216192 -0.63413817 0.048596181
-0.070066653 -0.63411766 0.048584308
-0.068968922 -0.63412488 0.048575416
-0.092141822 -0.62729192 0.04852761
-0.084962822 -0.62732589 0.048556339
-0.083980396 -0.62732857 0.048566163
-0.11545682 -0.7015354 0.049324792
-0.11796252 -0.70078218 0.049842857
-0.13352245 -0.68119025 0.049784247
-0.055081762 -0.68197685 0.049342774
-0.055702507 -0.66409838 0.049344823
-0.055998717 -0.65557706 0.049455442
-0.059147485 -0.64784163 0.049264964
-0.06793724 -0.64026773 0.049445849
-0.07864406 -0.63272393 0.049853217
-0.073312499 -0.63272238 0.049854171
-0.072179012 -0.63272333 0.049854528
-0.087201066 -0.62659389 0.049165905
-0.084332325 -0.62663388 0.04920933
-0.082619868 -0.62662619 0.049208898
-0.088638216 -0.62589961 0.049811564
-0.08788617 -0.62589622 0.049806081
-0.081196137 -0.62593496 0.049848482
-0.066906571 -0.57476175 0.049912792
-0.074294828 -0.56530207 0.049967792
-0.11942926 -0.7000016 0.050365791
-0.12174074 -0.69925129 0.050898645
-0.12923473 -0.68980575 0.050426122
-0.1338322 -0.67967194 0.05086999
-0.052360322 -0.67188364 0.05000785
-0.054278594 -0.66262615 0.050495133
-0.053930409 -0.66262925 0.050498884
-0.059206039 -0.64640445 0.050484914
-0.064455941 -0.63954669 0.050059531
-0.063321613 -0.6395452 0.050046738
-0.081891783 -0.63202423 0.050487265
-0.07716243 -0.63201183 0.05046358
-0.074013248 -0.63202804 0.050482415
-0.098520808 -0.62521005 0.050452147
-0.093635373 -0.62522501 0.050456583
-0.089361183 -0.6252048 0.050434269
-0.082665302 -0.6252386 0.050487977
-0.060545418 -0.57921237 0.050456624
-0.093299642 -0.56967294 0.050209753
-0.10133283 -0.70868218 0.051593784
-0.12036631 -0.69847441 0.051414557
-0.1238554 -0.6977151 0.051930346
-0.12279687 -0.69770443 0.051929109
-0.13334818 -0.68826061 0.05147253
-0.13233206 -0.68827862 0.051501371
-0.13135326 -0.68827391 0.051498059
-0.13032399 -0.68827122 0.051486731
-0.13476756 -0.6781739 0.051956031
-0.052314371 -0.67039293 0.051128589
-0.053375188 -0.6696465 0.051686294
-0.057861887 -0.66112477 0.051602591
-0.053926095 -0.65340781 0.051254418
-0.061573226 -0.64499003 0.051717483
-0.063438125 -0.63811344 0.051279292
-0.067297354 -0.63740355 0.051890325
-0.066129401 -0.63742071 0.051900633
-0.064112514 -0.63741904 0.051911838
-0.082217611 -0.63132328 0.051123157
-0.075788878 -0.63132024 0.051101737
-0.074753582 -0.63132185 0.051108595
-0.08646401 -0.63062775 0.051753424
-0.079405606 -0.63061148 0.051719736
-0.095118657 -0.6245268 0.051098492
-0.092188567 -0.62452662 0.051093675
-0.093646869 -0.62383813 0.051736865
-0.084785476 -0.62382632 0.051741388
-0.007226239 -0.58890188 0.051286653
-0.036183208 -0.57857823 0.051165137
-0.10661302 -0.70790404 0.052095141
-0.10504383 -0.70715356 0.052606232
-0.10408477 -0.70715094 0.052619454
-0.10303728 -0.70714581 0.052619625
-0.10275865 -0.70790422 0.052105628
-0.10123051 -0.70713091 0.052588973
-0.098656893 -0.70751369 0.052347682
-0.095632657 -0.70712459 0.052597683
-0.094766065 -0.70752114 0.052362479
-0.12594409 -0.69613516 0.052909859
-0.12484965 -0.69616157 0.052936979
-0.12276611 -0.69617152 0.05295451
-0.054000307 -0.67818999 0.052047763
-0.054618828 -0.67743987 0.052566525
-0.056386147 -0.65188241 0.052333459
-0.062027007 -0.64425921 0.052309256
-0.059493605 -0.64427388 0.052327953
-0.069739521 -0.63669622 0.05249742
-0.090013407 -0.6298787 0.052334867
-0.079738997 -0.62990862 0.0523463
-0.072646491 -0.62990761 0.052360278
-0.09714473 -0.62311965 0.052371521
-0.10756709 -0.70635736 0.053087559
-0.10164882 -0.7063427 0.053093247
-0.095896296 -0.70635039 0.053096779
-0.11392549 -0.70560277 0.053639479
-0.10894144 -0.70558608 0.053593371
-0.10603694 -0.70558935 0.053585924
-0.12733653 -0.69536614 0.053423967
-0.12336789 -0.6954 0.05345621
-0.1259257 -0.6945771 0.053931199
-0.13340256 -0.68595397 0.053044394
-0.13156028 -0.68520761 0.053595673
-0.052633811 -0.66665113 0.053911231
-0.054965422 -0.65892255 0.053331953
-0.057865139 -0.65037709 0.053456247
-0.054263327 -0.65043551 0.053524926
-0.063733719 -0.64282161 0.053505637
-0.062001906 -0.64282119 0.053516038
-0.072936818 -0.63528281 0.053762875
-0.071903408 -0.63527507 0.053766523
-0.069776028 -0.63526934 0.053732377
-0.067214474 -0.63598365 0.053114239
-0.066257752 -0.63598031 0.053119749
-0.086890608 -0.62850255 0.053622555
-0.00047866153 -0.58698779 0.053457528
-0.11135791 -0.7048226 0.054121599
-0.11032923 -0.70481378 0.054124258
-0.10744174 -0.70481288 0.054085616
-0.088194259 -0.70395046 0.05449615
-0.12875606 -0.69303608 0.054943264
-0.12729901 -0.69382304 0.05444603
-0.12581018 -0.69304782 0.054957725
-0.13465726 -0.68446732 0.054120529
-0.13590932 -0.67512417 0.054100327
-0.053326424 -0.66590917 0.054465398
-0.05714443 -0.65739739 0.054413024
-0.057916705 -0.64890283 0.054611892
-0.063790895 -0.64137775 0.05470527
-0.070541568 -0.63456231 0.054377418
-0.074076116 -0.63386238 0.054997962
-0.071907431 -0.63385236 0.054986559
-0.06734129 -0.63383448 0.054951347
-0.081617005 -0.62779039 0.054246828
-0.096645661 -0.62032473 0.054920226
-0.1134848 -0.70327103 0.055142943
-0.11238346 -0.70327592 0.055130299
-0.11130589 -0.70327055 0.055125803
-0.10849342 -0.70326084 0.055117372
-0.11626505 -0.7024982 0.055627078
-0.11517505 -0.70250738 0.0556329
-0.11412426 -0.70251274 0.055644661
-0.13007633 -0.69229716 0.055483542
-0.12866938 -0.69150341 0.055985879
-0.13361259 -0.68292493 0.055161122
-0.055855278 -0.68297839 0.055299062
-0.053176824 -0.67289782 0.055798229
-0.054369517 -0.66516745 0.055024911
-0.057876989 -0.65588403 0.055512775
-0.052476157 -0.65596169 0.055616699
-0.058219027 -0.64817661 0.055202886
-0.056468338 -0.64819098 0.055223595
-0.060995415 -0.6475063 0.05588153
-0.066969849 -0.63995159 0.055928435
-0.061391242 -0.63992876 0.05591109
-0.075825587 -0.63316363 0.05561867
-0.091979384 -0.62634897 0.055463295
-0.082726292 -0.626387 0.055510249
-0.077070691 -0.62637848 0.055479284
-0.085253127 -0.56122088 0.055397373
-0.11982659 -0.70171946 0.056115985
-0.11804046 -0.70171577 0.056122661
-0.11693677 -0.70170832 0.056102216
-0.12121668 -0.700948 0.056637909
-0.12017399 -0.70094389 0.056617167
-0.11832168 -0.70096016 0.056623161
-0.13107024 -0.69076246 0.056506611
-0.13392341 -0.68142444 0.056249905
-0.13564663 -0.6806553 0.056778956
-0.13461711 -0.6806531 0.056785326
-0.054895993 -0.6721487 0.056342389
-0.052566789 -0.66292185 0.056695454
-0.058569994 -0.64672947 0.056391776
-0.063463867 -0.63920587 0.056504052
-0.097911939 -0.62567377 0.056126773
-0.085208595 -0.62568587 0.056135837
-0.096591465 -0.62496972 0.056747813
-0.093736939 -0.62496966 0.05673242
-0.10137033 -0.70957983 0.057993922
-0.12367013 -0.70017415 0.057146631
-0.11693975 -0.70016038 0.057120655
-0.12216915 -0.69939816 0.057632003
-0.12116469 -0.69939482 0.057635389
-0.11830364 -0.69939202 0.057605587
-0.12960266 -0.68999177 0.057025198
-0.12858979 -0.68998581 0.057018854
-0.13668831 -0.67912924 0.057831772
-0.054708678 -0.66140604 0.057789128
-0.056112938 -0.65367532 0.057246428
-0.056773134 -0.65292168 0.057787247
-0.054700494 -0.65296632 0.057857156
-0.061722197 -0.64605165 0.057060294
-0.059222378 -0.6460163 0.057008728
-0.066930495 -0.63850564 0.057122383
-0.065925814 -0.6385107 0.05713271
-0.095227085 -0.62426388 0.057363492
-0.088098876 -0.62424237 0.057354342
-0.086318746 -0.62424612 0.057354331
-0.07757099 -0.62355727 0.057995096
-0.11629655 -0.55520642 0.057647623
-0.10697745 -0.70801687 0.058967233
-0.10204563 -0.70800692 0.05896157
-0.10133245 -0.70801342 0.058960352
-0.099628761 -0.70800579 0.05896987
-0.098732769 -0.70839238 0.058724362
-0.092966601 -0.70794797 0.058887381
-0.11976024 -0.69860595 0.058125556
-0.12323862 -0.69783646 0.058639251
-0.12212588 -0.69784915 0.058637977
-0.131727 -0.68844879 0.058049422
-0.13065641 -0.68845004 0.058053922
-0.13236997 -0.68768638 0.058589101
-0.13520548 -0.67836988 0.058367219
-0.13422091 -0.67835712 0.058356628
-0.054329883 -0.67839527 0.058460783
-0.054097276 -0.66912788 0.058515869
-0.053074278 -0.66912556 0.058508642
-0.058297474 -0.65214902 0.058332544
-0.052537169 -0.65225422 0.058460813
-0.05679043 -0.65143174 0.058922544
-0.061651267 -0.64458781 0.058221288
-0.062055364 -0.64385396 0.058808286
-0.067015477 -0.6370483 0.058310237
-0.068108112 -0.63028133 0.058049817
-0.072756566 -0.62957966 0.058684073
-0.09659005 -0.6235615 0.058013804
-0.082078412 -0.62356883 0.058017883
-0.091689371 -0.6228447 0.058612064
-0.089976512 -0.62282121 0.058589645
-0.033352431 -0.57742858 0.05839121
-0.053342253 -0.56811136 0.058205027
-0.10546006 -0.70724922 0.059466098
-0.10445482 -0.70725358 0.05947946
-0.10344986 -0.70722997 0.059460852
-0.09989325 -0.70722371 0.059448961
-0.095272638 -0.7072323 0.05946533
-0.094616495 -0.70721459 0.059448097
-0.093589276 -0.70718402 0.05940371
-0.091794506 -0.70716351 0.059358422
-0.10797186 -0.70644367 0.059920214
-0.10686765 -0.7064411 0.059919689
-0.10011782 -0.7064504 0.059928913
-0.096279711 -0.70643991 0.059929971
-0.095654838 -0.70643783 0.05994023
-0.090741441 -0.70636988 0.059831541
-0.12623194 -0.69627333 0.059596322
-0.12524839 -0.69628721 0.059621595
-0.12417153 -0.6962955 0.059636515
-0.12315439 -0.69629192 0.059635282
-0.13376686 -0.68610805 0.059563175
-0.13029236 -0.68613023 0.059590001
-0.13625456 -0.67684138 0.059419475
-0.054449372 -0.66837364 0.059053484
-0.054440413 -0.66761887 0.059593592
-0.062077519 -0.64238667 0.059974413
-0.072300278 -0.6356107 0.059535895
-0.069419689 -0.63560635 0.059500299
-0.068451658 -0.63559502 0.059494387
-0.074507043 -0.62887132 0.059289392
-0.093824208 -0.62214971 0.059244044
-0.088188037 -0.62212288 0.059224389
-0.08782398 -0.62212372 0.059228364
-0.095241204 -0.62144393 0.059885591
-0.090338938 -0.62142503 0.05985209
0.019664966 -0.59782648 0.059160572
-0.1093122 -0.70567071 0.060414847
-0.10545597 -0.70566618 0.060419273
-0.10154705 -0.70565528 0.060412277
-0.11166994 -0.70489943 0.060933579
-0.11072415 -0.70488322 0.060925778
-0.10782552 -0.70488644 0.060889203
-0.10396457 -0.7048955 0.060914237
-0.087515175 -0.70483148 0.060846232
-0.12628499 -0.6946938 0.060579773
-0.13439554 -0.68534732 0.060082164
-0.13193451 -0.68536496 0.060117174
-0.13088562 -0.68537045 0.060119968
-0.13259929 -0.68458319 0.0606017
-0.054281104 -0.67610472 0.060023163
-0.0539799 -0.67609882 0.060031936
-0.13730255 -0.67527837 0.060434118
-0.058219858 -0.65761602 0.060488332
-0.055365961 -0.65766573 0.060557671
-0.058604881 -0.64916652 0.060579069
-0.063471012 -0.64166337 0.060563557
-0.062378634 -0.64166588 0.060564362
-0.068746969 -0.63487995 0.060096145
-0.082688466 -0.62744671 0.060533293
-0.097007312 -0.62072033 0.060489643
-0.10922948 -0.70410913 0.061400414
-0.0878506 -0.7040289 0.061310444
-0.085301526 -0.70407951 0.061356239
-0.11487152 -0.70334685 0.061917268
-0.11385873 -0.70332521 0.061912581
-0.11271068 -0.70333487 0.061913129
-0.11164588 -0.70333225 0.061896112
-0.10777356 -0.70331651 0.061852414
-0.12907603 -0.69314045 0.061560005
-0.1286957 -0.69392806 0.061071262
-0.12726226 -0.69314945 0.061584186
-0.12617452 -0.69314098 0.061572134
-0.13330214 -0.68380082 0.061101221
-0.053816639 -0.67381531 0.061589416
-0.13785796 -0.67297488 0.061978199
-0.13687484 -0.67297769 0.061984964
-0.055750623 -0.65616089 0.061661579
-0.054290604 -0.65692443 0.061122395
-0.059250679 -0.6484322 0.061153997
-0.061377592 -0.64773619 0.061801687
-0.066322617 -0.64020973 0.06174374
-0.065550886 -0.64093477 0.061147586
-0.063743785 -0.6409384 0.061146263
-0.062460557 -0.64019638 0.061730932
-0.081196301 -0.63346905 0.061342429
-0.073019169 -0.63345081 0.061337505
-0.069152497 -0.63343626 0.061301995
-0.091641791 -0.62670302 0.061100103
-0.086971417 -0.62672681 0.061134599
0.0065073795 -0.57995582 0.061247259
-0.077087119 -0.56503248 0.06189974
-0.11764727 -0.70253932 0.06236963
-0.11658829 -0.70256186 0.062389005
-0.11555667 -0.70255989 0.062399041
-0.081686653 -0.70257199 0.062419035
-0.11372883 -0.70176971 0.062879756
-0.074551433 -0.70181429 0.062946066
-0.13181742 -0.69161391 0.062588461
-0.12722118 -0.6915915 0.062568739
-0.055838209 -0.68233299 0.062277455
-0.13530508 -0.68152922 0.062681615
-0.13421965 -0.68153298 0.062682092
-0.054554883 -0.67304683 0.062103286
-0.054796912 -0.67229325 0.062634364
-0.06131456 -0.64628136 0.062971435
-0.059593927 -0.64623553 0.062904015
-0.058959518 -0.64621627 0.062878393
-0.06943015 -0.63874179 0.062895134
-0.067317069 -0.63875926 0.062919736
-0.099031322 -0.62527835 0.062351983
-0.096955352 -0.62529397 0.062344644
-0.095167212 -0.62529331 0.062339742
-0.085967332 -0.62530035 0.062365126
-0.093744054 -0.62457746 0.062959008
-0.090230621 -0.62455916 0.062935784
-0.086612068 -0.62457252 0.062957607
-0.082840279 -0.62458652 0.06298995
-0.081016697 -0.62458444 0.062979721
-0.011461029 -0.58436674 0.062072579
-0.051538244 -0.5743221 0.062080763
-0.10949528 -0.55174249 0.062300719
-0.10065074 -0.55179626 0.06238189
-0.12290929 -0.70020342 0.063846208
-0.12003619 -0.70020664 0.0638237
-0.11865073 -0.70098889 0.063350305
-0.1171965 -0.70020378 0.063834615
-0.11547039 -0.70099425 0.063354112
-0.12992476 -0.69005913 0.063579485
-0.12865731 -0.69079781 0.063061237
-0.12717201 -0.69003963 0.063562229
-0.054721583 -0.68079114 0.063295506
-0.13786906 -0.67143744 0.063021474
-0.05875076 -0.65308321 0.063772529
-0.057829272 -0.6530965 0.063783839
-0.061707452 -0.64553881 0.063540757
-0.065899417 -0.63802981 0.06351126
-0.064922154 -0.63801056 0.063494764
-0.075189047 -0.63130105 0.063149728
-0.073059812 -0.63128978 0.063137144
