# .PCD v0.7 - Point Cloud Data file format
VERSION 0.7
FIELDS x y z
SIZE 4 4 4
TYPE F F F
COUNT 1 1 1
WIDTH 1378
HEIGHT 1
VIEWPOINT 0 0 0 1 0 0 0
POINTS 1378
DATA ascii
-0.016013652 1.566029 0.84736365
-0.028936053 1.5611311 0.7741648
-0.041682929 1.5545288 0.70196104
-0.054001924 1.5602127 0.63218796
-0.066522889 1.5474505 0.56126398
-0.078650981 1.5641285 0.49257708
-0.097068138 1.5540662 0.38826001
-0.10940523 1.5636008 0.31838569
-0.12171332 1.560662 0.24867204
-0.13426237 1.5671579 0.17759447
-0.14670946 1.5631617 0.10709195
-0.15962473 1.570376 0.033937298
-0.17152141 1.5456165 -0.033450276
-0.19044159 1.5340041 -0.1406222
-0.1984091 1.4405421 -0.18574676
-0.20685528 1.3698947 -0.23357959
-0.12308363 -0.047776714 0.2412913
-0.12299887 -0.08501821 0.24185292
-0.12389125 -0.10666751 0.23687734
-0.12508287 -0.12299591 0.2302061
-0.12648582 -0.13596064 0.22233714
-0.12806515 -0.14657599 0.21346852
-0.1297635 -0.15580095 0.20392524
-0.1318229 -0.16216418 0.19233482
-0.13530979 -0.16953379 0.17269351
-0.13747439 -0.16583356 0.16046341
-0.16671038 -0.042015336 -0.0051364787
-0.16702838 -0.068809144 -0.0068576117
-0.16764835 -0.092628427 -0.010290709
-0.16697925 -0.12112816 -0.006413966
-0.16732574 -0.14359695 -0.0082956515
-0.16691825 -0.16801278 -0.0059017055
-0.16786811 -0.19685899 -0.011162996
-0.16761845 -0.21821432 -0.0096635288
-0.16766955 -0.23777144 -0.0098696351
-0.16750781 -0.27560088 -0.008784622
-0.16746894 -0.2935144 -0.0084802313
-0.16714284 -0.31150228 -0.0065468499
-0.16735716 -0.32797524 -0.0076784464
-0.16781607 -0.3519983 -0.010155668
-0.16776939 -0.3682366 -0.0098071722
-0.16761971 -0.38431564 -0.0088745551
-0.16754082 -0.40007466 -0.0083435886
-0.16770959 -0.41549206 -0.0092175575
-0.16761109 -0.43096611 -0.0085756918
-0.16776526 -0.44626826 -0.0093672024
-0.16765298 -0.46158925 -0.0086474875
-0.16774441 -0.48456475 -0.0090424856
-0.16774657 -0.4999378 -0.0089726532
-0.16765495 -0.51533377 -0.0083709639
-0.16781211 -0.53104621 -0.0091811037
-0.16787077 -0.54688096 -0.0094328066
-0.16799878 -0.56304222 -0.01007837
-0.16819052 -0.57961071 -0.011086079
-0.16786061 -0.60404629 -0.0090946313
-0.16810733 -0.62165481 -0.010415504
-0.16839285 -0.639902 -0.01195734
-0.16870719 -0.65885639 -0.013663397
-0.16806804 -0.6854068 -0.0099210432
-0.16834944 -0.70593345 -0.01144227
-0.1684729 -0.72683394 -0.012068025
-0.16872531 -0.74915862 -0.013426792
-0.16894029 -0.77246755 -0.014574354
-0.16439101 -0.77634102 0.011319857
-0.15867853 -0.77310866 0.043818239
-0.15362221 -0.77060181 0.072593868
-0.1495699 -0.7712276 0.095671505
-0.14534265 -0.76919425 0.11974367
-0.14192313 -0.77023607 0.13923116
-0.13818058 -0.77874941 0.1605899
-0.13411012 -0.77208561 0.18377662
-0.14047506 -0.84588885 0.14769621
-0.13648339 -0.84130734 0.17043376
-0.3436642 -3.0792263 -1.0066262
-0.34520543 -3.3269653 -1.0155196
-0.33736935 -3.6397178 -0.9712466
-0.33653176 -3.9523406 -0.96671438
-0.33810568 -4.3621564 -0.97595704
-0.34135023 -4.8896093 -0.994793
-0.28914124 -9.7616768 -0.70306301
-0.23899417 -10.216288 -0.41901758
-0.18279551 -10.574702 -0.10055461
-0.029490001 -10.573505 0.76914817
0.036000095 -10.902213 1.140337
0.12937841 -10.788212 1.6700358
0.19376922 -10.808821 2.035279
0.23445994 -4.8885293 2.2726166
0.38936752 -6.4018507 3.1497049
0.40213919 -6.0431809 3.2225845
0.40535957 -5.6265473 3.2413545
0.41894799 -5.3572078 3.3187773
0.43303299 -4.9437099 3.3992059
0.42233685 -4.5385633 3.33904
0.42486268 -4.2719603 3.3537221
0.38860881 -3.7612607 3.1487143
0.41211754 -3.6871688 3.2822061
0.41659415 -3.4960976 3.3078773
0.41851085 -3.2049203 3.3191772
0.4152486 -3.0028374 3.3009701
0.41355994 -2.8212419 3.2916677
0.41391754 -2.6591463 3.293952
0.41166285 -2.494673 3.2814236
0.40644789 -2.3278484 3.2521086
0.41205788 -2.2078969 3.284142
0.40467295 -2.04918 3.2425127
0.40525165 -1.8603173 3.2461305
0.40053597 -1.7264547 3.2196167
0.39820269 -1.6040845 3.2066045
0.3976106 -1.489679 3.2034612
0.39706475 -1.3784522 3.2005777
0.39711177 -1.2709032 3.2010543
0.40103418 -1.1185414 3.2236099
0.38967746 -1.0020832 3.159416
0.35952172 -0.87456024 2.9886024
0.39842394 -0.80935657 3.2094333
0.38566583 -0.70305979 3.1372817
0.39009589 -0.60771 3.1626153
0.38596359 -0.51005071 3.1393845
0.38436672 -0.41390431 3.1305354
-0.036315776 -0.41574332 0.74453616
-0.036816161 -0.40454 0.74179327
-0.049000561 -0.39359447 0.67289412
-0.050528929 -0.38193682 0.66436142
-0.052145865 -0.37099537 0.65532559
-0.052891448 -0.35835108 0.65123516
-0.05340207 -0.34987736 0.64843154
-0.053660125 -0.34053829 0.64706194
-0.053833228 -0.33066195 0.64617521
-0.054228786 -0.31569862 0.6440748
-0.054016434 -0.30335501 0.64537871
-0.053892933 -0.2843518 0.64622939
-0.04588354 -0.15772069 0.69226468
-0.048328009 -0.15218377 0.67848974
-0.049927358 -0.14094462 0.66951776
-0.051099114 -0.12592241 0.66297746
-0.052497804 -0.11180998 0.65514874
-0.052635934 -0.069938459 0.65455681
0.089567885 1.7061532 1.4642973
0.073548935 1.7061137 1.3735321
0.044865325 1.5178226 1.2106174
0.032821108 1.5454748 1.1424428
0.019276693 1.5469296 1.0657156
0.0059191925 1.5463808 0.99004525
-0.012885505 1.5640301 0.8835572
-0.02565784 1.5663629 0.81121165
-0.038707718 1.5532119 0.73726541
-0.051074628 1.5581656 0.66722441
-0.063552015 1.5526459 0.59653884
-0.075891428 1.5465903 0.52663499
-0.088053405 1.5620441 0.45777553
-0.10643171 1.5541328 0.35366455
-0.11880355 1.5624253 0.28360292
-0.13119766 1.5632203 0.21340196
-0.14353262 1.5575364 0.14352512
-0.15629941 1.5641357 0.071221158
-0.16862255 1.5523981 0.0014007029
-0.18130103 1.5478809 -0.070422016
-0.20017372 1.532303 -0.17734939
-0.21345159 1.5306216 -0.25256634
-0.12531564 -0.073730469 0.24462765
-0.12607767 -0.098099343 0.24034283
-0.12619923 -0.11198273 0.23966867
-0.12854379 -0.12990531 0.22646093
-0.13007104 -0.14125627 0.21785966
-0.13160321 -0.15198837 0.2092315
-0.13357343 -0.15894414 0.19812585
-0.13583349 -0.16397914 0.18537998
-0.1384225 -0.1672882 0.1707716
-0.1434706 -0.16669339 0.14226457
-0.17008673 -0.081095941 -0.0083218049
-0.17276135 -0.094715238 -0.023435131
-0.16980815 -0.13301963 -0.0066779284
-0.16997765 -0.17785396 -0.0075629968
-0.17002137 -0.19894166 -0.0077707008
-0.17063028 -0.22734472 -0.011158015
-0.1702943 -0.24768624 -0.0092115486
-0.17012471 -0.26678479 -0.0082065305
-0.17030159 -0.28442279 -0.0091639506
-0.17019516 -0.30223057 -0.008515263
-0.17029762 -0.31915525 -0.0090497015
-0.17012161 -0.33619735 -0.0080052791
-0.17017019 -0.35250571 -0.0082333647
-0.17011446 -0.36867616 -0.0078698872
-0.17035379 -0.39215595 -0.0091550564
-0.17022006 -0.40786871 -0.008348966
-0.17033534 -0.42326468 -0.0089546107
-0.17035678 -0.43863788 -0.0090283761
-0.17028482 -0.45396942 -0.0085725337
-0.17029358 -0.46925789 -0.0085746665
-0.17020968 -0.48453712 -0.008051387
-0.17042826 -0.50771117 -0.0092211217
-0.17028303 -0.52312887 -0.0083510792
-0.17055631 -0.53906149 -0.0098559521
-0.17055836 -0.55496693 -0.0098227728
-0.17062825 -0.57120538 -0.010175391
-0.17076015 -0.58785677 -0.010880823
-0.17066917 -0.61300433 -0.010301706
-0.17084742 -0.6307649 -0.011273148
-0.17074218 -0.64838493 -0.010636862
-0.1708298 -0.6670081 -0.011096795
-0.17124674 -0.68724889 -0.013428458
-0.17075518 -0.71561611 -0.010587126
-0.17094217 -0.73717415 -0.011618493
-0.17110234 -0.75966609 -0.012500223
-0.16925737 -0.77490681 -0.0019936059
-0.16458926 -0.7774539 0.024553061
-0.15865764 -0.77208889 0.058283608
-0.15429889 -0.77210116 0.083081394
-0.15027107 -0.77213889 0.10600211
-0.14619848 -0.77022535 0.12918131
-0.14303158 -0.77226472 0.14721467
-0.13917616 -0.77948487 0.16917935
-0.13693197 -0.77447349 0.18195739
-0.14099589 -0.84417564 0.15886067
-0.1375283 -0.84322846 0.17860565
-0.34550545 -3.1898484 -1.0063249
-0.34790164 -3.4653094 -1.0205169
-0.34920764 -3.7704008 -1.0286022
-0.33943111 -4.1547885 -0.97400647
-0.33901384 -4.5745502 -0.97260958
-0.26512149 -10.006998 -0.56674099
-0.15198849 -10.573463 0.073445775
-0.090626702 -10.676654 0.42117754
0.068019293 -10.897858 1.3203133
0.10079058 -10.942008 1.5059154
0.22523092 -10.778635 2.2126732
0.21679492 -4.8816695 2.1806948
0.39257801 -6.1934657 3.1749198
0.40189245 -5.8222342 3.2288163
0.41700697 -5.5506301 3.3153629
0.39436719 -4.9573584 3.1885107
0.42815465 -4.7525859 3.3808696
0.42128187 -4.3975401 3.3428607
0.4177984 -4.1004596 3.3239312
0.39139524 -3.6776683 3.1752756
0.42322415 -3.6564159 3.3559952
0.41415182 -3.3892806 3.3052702
0.41501477 -3.102916 3.3109953
0.41239461 -2.9108768 3.2966812
0.41261497 -2.7434967 3.2984178
0.41397578 -2.5896375 3.3065877
0.38643107 -2.3306658 3.1510255
0.41524744 -2.2969644 3.3146548
0.40597945 -2.1268494 3.2625566
0.40547577 -1.9300534 3.2602701
0.40188712 -1.7960519 3.2402954
0.39762065 -1.6660769 3.2164631
0.39613181 -1.5476971 3.2083571
0.39612013 -1.4359413 3.2086112
0.39386597 -1.3228744 3.1961446
0.39504591 -1.2183676 3.2031345
0.39947855 -1.0674869 3.2287028
0.35678801 -0.92094874 2.986938
0.40190426 -0.86432803 3.2430191
0.3932865 -0.75765091 3.1944237
0.38867399 -0.65680224 3.16853
0.38500524 -0.55846745 3.1479807
0.38282493 -0.46182916 3.1358659
-0.038215391 -0.42108759 0.74821693
-0.038856942 -0.40988985 0.74467981
-0.039431695 -0.39285037 0.74157178
-0.050387193 -0.39178368 0.67956161
-0.052348889 -0.38535491 0.6685282
-0.054245714 -0.38409987 0.65781325
-0.054105248 -0.37444785 0.65870702
-0.05454617 -0.3706373 0.65625316
-0.05578186 -0.35431689 0.64943296
-0.055809479 -0.34943882 0.64932424
-0.056301385 -0.3356109 0.64667642
-0.056789473 -0.32123235 0.64405006
-0.056355957 -0.31406385 0.64655912
-0.057024803 -0.29315221 0.64295506
-0.056602497 -0.27852815 0.64544952
-0.045859672 -0.15230076 0.70685035
-0.049486991 -0.15374045 0.68635297
-0.051505737 -0.14536266 0.67499018
-0.052942984 -0.13262255 0.66692996
-0.055142082 -0.11263452 0.65459424
-0.056402277 -0.11025589 0.64748752
-0.055338386 -0.055493005 0.65369272
0.079016782 1.7043724 1.417621
0.063470587 1.7070116 1.3294836
0.037120245 1.5408412 1.1799113
0.023427235 1.5418699 1.1022865
0.01059555 1.5532548 1.0295558
-0.0027645887 1.5503486 0.95381486
-0.015334539 1.5601474 0.88256621
-0.034792162 1.5502985 0.77225393
-0.047173992 1.5555164 0.70206749
-0.059525363 1.559213 0.63205212
-0.071945034 1.5534281 0.56164211
-0.084142059 1.5631186 0.4925057
-0.096424945 1.5573568 0.42287108
-0.11485507 1.5625848 0.31839514
-0.12716165 1.5606419 0.24862805
-0.13955176 1.560187 0.17838784
-0.15219127 1.565111 0.10673578
-0.16464317 1.5585673 0.036140874
-0.17692664 1.5455846 -0.03350199
-0.18981071 1.5446141 -0.10654532
-0.20426793 1.4490633 -0.18853796
-0.22190815 1.5230269 -0.28852418
-0.12706126 -0.065153725 0.24890485
-0.12778234 -0.091328986 0.24487981
-0.12788081 -0.10612047 0.24435359
-0.13039291 -0.12301524 0.23021252
-0.13179284 -0.13598022 0.22234389
-0.13240242 -0.14293565 0.21892232
-0.13506472 -0.15582114 0.20393246
-0.1371213 -0.16218479 0.19234213
-0.13948239 -0.166701 0.17902522
-0.14342608 -0.17201082 0.15676975
-0.17243741 -0.068169676 -0.0075883935
-0.17239405 -0.095229521 -0.0072711469
-0.17225514 -0.12115768 -0.0064105941
-0.17259973 -0.1436265 -0.0082912268
-0.17247856 -0.16692367 -0.0075289235
-0.17275921 -0.18764997 -0.0090448298
-0.17243201 -0.2096183 -0.0071117519
-0.17324655 -0.23689272 -0.011615221
-0.17300218 -0.25664821 -0.010149874
-0.17293335 -0.27523932 -0.0096795736
-0.17273393 -0.29354352 -0.0084675588
-0.17273556 -0.31088001 -0.0083953459
-0.17278704 -0.32771179 -0.0086053256
-0.1727283 -0.34437296 -0.0081892898
-0.17273058 -0.36061496 -0.0081187952
-0.17262954 -0.37670797 -0.0074614636
-0.17276989 -0.39231744 -0.0081729125
-0.17281403 -0.40787348 -0.0083378805
-0.17287475 -0.43099472 -0.0085530877
-0.17285588 -0.4463318 -0.0083590867
-0.17291774 -0.46161774 -0.0086222924
-0.17306057 -0.47693855 -0.0093441932
-0.1729371 -0.49224076 -0.0085548051
-0.17323907 -0.50781918 -0.010178184
-0.1729102 -0.53091806 -0.0081767812
-0.1731419 -0.54690915 -0.0093996637
-0.17327169 -0.56307042 -0.010043608
-0.17346546 -0.5796389 -0.011049624
-0.17321844 -0.59581602 -0.0095546274
-0.17322499 -0.62134081 -0.0094491569
-0.17367661 -0.63993001 -0.011914439
-0.17351831 -0.6576643 -0.01091935
-0.1737057 -0.67685741 -0.011883618
-0.17421208 -0.69776124 -0.01465585
-0.17362438 -0.72634673 -0.011171036
-0.17388491 -0.74864185 -0.012545368
-0.17396638 -0.7713483 -0.012902675
-0.17025757 -0.77877438 0.008232912
-0.16601451 -0.78257215 0.032397177
-0.15971953 -0.77456033 0.068193823
-0.15526208 -0.77329439 0.093570843
-0.15126757 -0.77274901 0.11632216
-0.14711577 -0.76952279 0.13996378
-0.14398339 -0.77105445 0.1578259
-0.14590999 -0.84671503 0.14718843
-0.14230144 -0.84546804 0.16775137
-0.3495529 -3.3074539 -1.0053207
-0.35042539 -3.5810905 -1.0098563
-0.35221308 -3.9116311 -1.0195147
-0.34159416 -4.3152609 -0.95861501
-0.29488343 -9.6327181 -0.68623209
-0.24663889 -10.145611 -0.41162404
-0.19136058 -10.536786 -0.097237043
-0.068866819 -10.684079 0.5985077
0.026273753 -10.86126 1.1389693
0.12292649 -10.921125 1.6875634
0.18476848 -10.818586 2.038265
0.22885574 -4.9068141 2.2809432
0.39149418 -6.0064631 3.2050385
0.40540662 -5.7024536 3.2836206
0.41375718 -5.375874 3.3306267
0.41161969 -4.9888778 3.3180659
0.41300777 -4.6713572 3.3255954
0.41984221 -4.2843766 3.3639653
0.39790666 -3.8698645 3.2390771
0.40678051 -3.6944149 3.289258
0.41330361 -3.5146148 3.3261008
0.40780076 -3.2778809 3.2946577
0.40239969 -3.0593002 3.2638168
0.40229917 -2.8818309 3.2630963
0.4090721 -2.6643806 3.3013537
0.4121719 -2.5208778 3.3188334
0.39452195 -2.3053384 3.2185235
0.40956408 -2.219564 3.3038201
0.40079468 -2.0553064 3.2539513
0.39763215 -1.9172306 3.2359214
0.39294702 -1.7811507 3.2092581
0.39429775 -1.6080334 3.2168307
0.39230725 -1.4901917 3.2054789
0.39230451 -1.379827 3.2054131
0.39290342 -1.2729388 3.208766
0.39398873 -1.1686344 3.2148826
0.39678925 -1.0678022 3.2307348
0.35264558 -0.91964066 2.9802353
0.39616433 -0.81138355 3.2271063
0.3888213 -0.70716971 3.1854191
0.38516194 -0.60765135 3.1646349
0.38176316 -0.50999427 3.1453328
0.38020438 -0.41363952 3.1364715
-0.041493293 -0.41571799 0.74455971
-0.042160109 -0.40468845 0.7408455
-0.042095795 -0.38696143 0.74131244
-0.053832661 -0.39305553 0.67481709
-0.055284195 -0.38591805 0.66665566
-0.057430249 -0.36649191 0.65466261
-0.057731122 -0.36239624 0.65299195
-0.05855152 -0.34985721 0.6484465
-0.058593161 -0.34496632 0.64824587
-0.059125315 -0.33114186 0.64533496
-0.059510082 -0.31622323 0.64325958
-0.059289414 -0.30390847 0.64458126
-0.058894534 -0.29012483 0.64689022
-0.049678385 -0.14952384 0.69950545
-0.051778022 -0.15221328 0.68763781
-0.05456626 -0.13777119 0.67193311
-0.055955693 -0.12428329 0.66412348
-0.057747424 -0.11344723 0.65403396
-0.057853885 -0.071631931 0.65352422
0.062966205 1.6257788 1.3380581
0.050271556 1.6578726 1.2661263
0.028520457 1.5473983 1.142913
0.014911776 1.5479209 1.0658165
0.0017404862 1.5512239 0.99119973
-0.011163528 1.5555897 0.91809893
-0.024142737 1.553332 0.84457588
-0.043013591 1.5571874 0.73767966
-0.05550871 1.5571945 0.66690218
-0.067844905 1.5606339 0.59702462
-0.080510445 1.5246359 0.52530062
-0.092473686 1.5590568 0.45752272
-0.10475625 1.5650589 0.38794932
-0.11705939 1.5635916 0.3182635
-0.13557181 1.561233 0.21340822
-0.14794506 1.5575352 0.14332671
-0.16070938 1.5641314 0.071022518
-0.17300108 1.5514129 0.0014085983
-0.18525626 1.5371975 -0.067997366
-0.19843309 1.5406997 -0.14263873
-0.20747072 1.4652345 -0.19376755
-0.12852927 -0.07885088 0.25491026
-0.12970507 -0.098513328 0.24833193
-0.13116865 -0.11286147 0.24011895
-0.13258341 -0.12647361 0.23218232
-0.1341491 -0.13767064 0.22338855
-0.13676867 -0.15116572 0.20865914
-0.13760921 -0.15581572 0.20393457
-0.14079468 -0.16475356 0.1859936
-0.14338028 -0.1680406 0.17141193
-0.14704132 -0.16542342 0.15072881
-0.17517018 -0.05309711 -0.0086795324
-0.17564993 -0.078475505 -0.011309267
-0.17524254 -0.10667735 -0.0089071402
-0.17514433 -0.13181946 -0.0082598329
-0.17512113 -0.15532428 -0.0080389455
-0.17534477 -0.17676778 -0.009218961
-0.17510529 -0.19894464 -0.0077726175
-0.17514764 -0.21920919 -0.0079254946
-0.17519331 -0.23870467 -0.0080978358
-0.17539294 -0.26638034 -0.0091009438
-0.17486179 -0.27679825 -0.006045423
-0.1753182 -0.30223253 -0.0085063539
-0.17526193 -0.31946608 -0.0081024831
-0.17542438 -0.33592322 -0.0089395046
-0.17531221 -0.35250708 -0.0082193026
-0.17509273 -0.36888528 -0.0068909158
-0.1756233 -0.38416666 -0.0098168217
-0.17537311 -0.40009928 -0.0083148545
-0.17536889 -0.41562125 -0.0082082674
-0.17553125 -0.43863824 -0.0090056891
-0.17546506 -0.45396957 -0.0085483408
-0.1756532 -0.46927527 -0.0095336754
-0.17540139 -0.48453686 -0.0080242157
-0.1757496 -0.50004929 -0.0099178664
-0.17565691 -0.51547986 -0.009311459
-0.17581294 -0.53122687 -0.010115713
-0.17577653 -0.55496591 -0.0097888578
-0.17585252 -0.57120413 -0.010139944
-0.17615759 -0.58813095 -0.011790484
-0.17618407 -0.60499728 -0.011861335
-0.17642479 -0.62270474 -0.013147409
-0.17583553 -0.64799219 -0.0096877301
-0.17624736 -0.66742837 -0.01194499
-0.17651452 -0.6872465 -0.013382259
-0.17663293 -0.70741165 -0.013976166
-0.17608136 -0.73664141 -0.010732585
-0.17625327 -0.75910383 -0.011631005
-0.17624369 -0.7819562 -0.011500604
-0.17030078 -0.77929628 0.02227902
-0.16502036 -0.77722526 0.052301534
-0.15998416 -0.77410197 0.080938965
-0.15494426 -0.76865852 0.10959745
-0.15185702 -0.77237523 0.12718159
-0.14832866 -0.77225602 0.14726743
-0.14497885 -0.77187049 0.16634068
-0.1422292 -0.77446359 0.18201002
-0.14661831 -0.84662348 0.15722488
-0.14332403 -0.84741145 0.17598224
-0.34985381 -3.1695604 -0.99541438
-0.35110813 -3.428479 -1.0025147
-0.35056525 -3.7046461 -0.99943155
-0.35476258 -4.095192 -1.0232563
-0.34180105 -4.5083818 -0.94976538
-0.3391076 -4.968627 -0.9345454
-0.27436838 -10.03286 -0.56855112
-0.21838777 -10.238724 -0.25116631
-0.1611935 -10.611431 0.073047727
-0.099629886 -10.795636 0.42208558
0.05879489 -10.88786 1.3203803
0.1547823 -10.887259 1.865025
0.21716033 -10.809111 2.2188764
0.39345026 -6.287776 3.2207043
0.40119505 -5.8901577 3.264838
0.4037123 -5.4864764 3.2793291
0.40962514 -5.1591377 3.3130527
0.41716802 -4.8780851 3.3560054
0.40775689 -4.4874673 3.3028495
0.40498036 -4.1851487 3.2872901
0.38464773 -3.6738358 3.1722844
0.41896319 -3.6680577 3.3669739
0.41251001 -3.4146793 3.3305497
0.40619019 -3.1816089 3.2948759
0.40215659 -2.9771287 3.2721577
0.40060595 -2.7978354 3.2635119
0.4030633 -2.6463876 3.2775857
0.38058218 -2.3300555 3.1503375
0.41132993 -2.3032718 3.3247998
0.40561211 -2.1443005 3.2925165
0.39738438 -1.9861721 3.2460001
0.39396697 -1.8505567 3.2267547
0.39111412 -1.7222731 3.2107084
0.38973778 -1.6024731 3.2030323
0.3911919 -1.4368733 3.2114663
0.39030424 -1.3260474 3.2065582
0.39153224 -1.2211722 3.2136452
0.39293778 -1.1179801 3.2217383
0.35482502 -0.97162682 3.0057514
0.36893907 -0.89010763 3.0859027
0.38812205 -0.80741817 3.1947982
0.37271872 -0.6524362 3.1076355
0.38172331 -0.5588156 3.1588159
0.37765574 -0.46179378 3.1358702
0.37578228 -0.36595929 3.125366
-0.04311873 -0.42082408 0.75018829
-0.044276219 -0.41002646 0.74372309
-0.044640809 -0.39868265 0.74175417
-0.055136509 -0.3909882 0.68243104
-0.05703555 -0.38915247 0.67171073
-0.058100894 -0.3862128 0.6657182
-0.060395725 -0.36239788 0.65299803
-0.060552627 -0.35792565 0.65215719
-0.061223 -0.34985852 0.64845341
-0.061328553 -0.34004989 0.64795285
-0.061769538 -0.32567266 0.64559901
-0.061906487 -0.31513467 0.64492053
-0.062053055 -0.29823804 0.64423674
-0.061715942 -0.28433186 0.64624715
-0.053714119 -0.14693075 0.69217795
-0.055353444 -0.14679973 0.68292981
-0.057990085 -0.13100782 0.66812521
-0.059240725 -0.11596022 0.6611321
-0.061203059 -0.061537668 0.65025479
0.081622392 1.6990082 1.4607148
0.065996684 1.7034158 1.3722026
0.038642239 1.53455 1.2171462
0.01920671 1.5560666 1.1070808
0.0056178835 1.5551817 1.030118
-0.007676763 1.554227 0.95482343
-0.020437593 1.5601624 0.88255727
-0.033287849 1.5595198 0.80978274
-0.045949351 1.5591644 0.73807859
-0.064653762 1.5602241 0.63215494
-0.076983623 1.5634208 0.56233209
-0.089361466 1.5551409 0.49223495
-0.10160905 1.5563749 0.4228783
-0.1139235 1.5661436 0.3531442
-0.12625909 1.5654346 0.28328824
-0.13858272 1.5612465 0.21349934
-0.15713298 1.554268 0.10844838
-0.16973153 1.5536815 0.037101392
-0.18203813 1.5417104 -0.032592293
-0.19477692 1.537877 -0.10473514
-0.20721066 1.5246603 -0.17514987
-0.13053781 -0.071318679 0.25961527
-0.1316545 -0.092744887 0.25337455
-0.13310008 -0.10788187 0.24527006
-0.13465217 -0.12050907 0.23656215
-0.13626896 -0.13160059 0.22748761
-0.13876066 -0.14657454 0.21349894
-0.13951898 -0.15196902 0.20924565
-0.14241372 -0.16295105 0.19297235
-0.14477411 -0.16744502 0.17968248
-0.14770979 -0.16880575 0.16313089
-0.15328094 -0.16603181 0.13168335
-0.17825189 -0.066136479 -0.0097547825
-0.17849003 -0.091989532 -0.011014023
-0.17837346 -0.11805315 -0.010261842
-0.17831801 -0.14242473 -0.0098559307
-0.17835073 -0.16521971 -0.0099496851
-0.17834967 -0.18709359 -0.0098516634
-0.17817859 -0.20859167 -0.0087894071
-0.17830212 -0.22826408 -0.0093974574
-0.1779694 -0.24854302 -0.0074182614
-0.17796178 -0.26717111 -0.0072824028
-0.17835279 -0.29315788 -0.0093601439
-0.1783586 -0.310527 -0.0093000289
-0.17858008 -0.32709938 -0.010462744
-0.17819104 -0.34434533 -0.0081635993
-0.17819513 -0.36058715 -0.0080935042
-0.17826626 -0.37648916 -0.0084033441
-0.1782378 -0.39228934 -0.0081484877
-0.17828345 -0.40784526 -0.0083139222
-0.17823355 -0.4233281 -0.0079373717
-0.17826244 -0.43866614 -0.0080075497
-0.17839174 -0.46158898 -0.0086001744
-0.17836212 -0.4768748 -0.0083384346
-0.17858636 -0.49228141 -0.0095162699
-0.17854333 -0.50768542 -0.009178509
-0.17857821 -0.52324188 -0.0092825163
-0.17885898 -0.53920865 -0.010780815
-0.17858146 -0.56281573 -0.0090662995
-0.17860928 -0.57909143 -0.0091302283
-0.17919609 -0.59666294 -0.012364016
-0.17933264 -0.61395288 -0.013044587
-0.17899475 -0.639525 -0.010987723
-0.17883836 -0.65722704 -0.010007111
-0.17933989 -0.67726499 -0.012757366
-0.17984271 -0.69819963 -0.015515184
-0.17973191 -0.71808583 -0.014793164
-0.18006167 -0.74032307 -0.0165696
-0.17915431 -0.77016973 -0.011283732
-0.17711549 -0.78476095 0.00037192536
-0.17148417 -0.78254181 0.03240075
-0.16597499 -0.778467 0.063737288
-0.16123845 -0.77599353 0.090692304
-0.15710367 -0.77484208 0.11423492
-0.1530569 -0.77242064 0.13727859
-0.14967805 -0.77253687 0.15653452
-0.14657953 -0.77323318 0.17420079
-0.14795306 -0.84709918 0.16664481
-0.14468566 -0.84745979 0.18526888
-0.35041493 -3.2592728 -0.98132777
-0.35306647 -3.5511141 -0.99629432
-0.35381505 -3.8655369 -1.0004717
-0.35395822 -4.2275734 -1.0012202
-0.3441484 -4.7365122 -0.945494
-0.33892995 -5.2005358 -0.91584754
-0.32402477 -9.5175219 -0.83132666
-0.25029042 -10.154525 -0.41311651
-0.18019351 -8.9389477 -0.015415989
-0.13401037 -10.675044 0.24641448
-0.07204859 -10.694068 0.59787333
-0.0086124428 -10.841409 0.9576813
0.054071862 -10.806165 1.313242
0.085431725 -10.788809 1.4908956
0.1503617 -10.845671 1.8591583
0.2447395 -10.765899 2.3944631
0.28871924 -8.8827171 2.6442213
0.21068376 -4.9354024 2.2024341
0.37364677 -6.0918503 3.1265733
0.40267101 -5.7174044 3.2913258
0.40217298 -4.9436674 3.2887557
0.41516703 -4.7255025 3.3625488
0.40660375 -4.3583546 3.3141146
0.40399072 -4.0693212 3.2994134
0.38132185 -3.6723342 3.1709945
0.41789818 -3.5700796 3.378545
0.41191757 -3.3272746 3.3447425
0.40546566 -3.1001871 3.3082657
0.40077576 -2.8979673 3.2817781
0.39975369 -2.7255878 3.2760859
0.40303582 -2.5807667 3.2947989
0.38186324 -2.3468311 3.1748459
0.41006801 -2.238682 3.3349264
0.40167394 -2.0742733 3.2874291
0.39503053 -1.9245503 3.2498574
0.39161453 -1.7913476 3.2305858
0.3892841 -1.6664128 3.2174692
0.38800049 -1.5483588 3.210288
0.38671741 -1.4339321 3.2031095
0.38767934 -1.2729851 3.2087092
0.38891074 -1.1689214 3.2157886
0.3922013 -1.0686779 3.2345445
0.34870067 -0.92106706 2.9879625
0.39195096 -0.86287838 3.2333171
0.38421971 -0.75707066 3.1895709
0.38015276 -0.65660512 3.1666038
0.37776417 -0.51016843 3.1532016
0.37392846 -0.41375899 3.1315453
-0.046903916 -0.42141193 0.74532169
-0.047369152 -0.4043245 0.74280804
-0.047595479 -0.39280936 0.74160773
-0.05850831 -0.39654747 0.67980391
-0.060512159 -0.38531458 0.6685642
-0.062673301 -0.36572325 0.65651512
-0.063137315 -0.36198589 0.653925
-0.064120427 -0.34983715 0.64847374
-0.064163059 -0.34494618 0.64827341
-0.064301342 -0.33508623 0.64757198
-0.064511433 -0.32513624 0.64646333
-0.065294057 -0.30560803 0.64219064
-0.065029457 -0.29251075 0.64377427
-0.06447313 -0.27722991 0.64701241
-0.056580096 -0.14690845 0.69219553
-0.058749408 -0.13910601 0.67997593
-0.061356187 -0.12264249 0.66531706
-0.063256882 -0.11259509 0.65462083
-0.065227479 -0.10289489 0.64352816
-0.062838219 -0.049391657 0.65716469
0.063624009 1.6110724 1.3747052
0.056169298 1.7144225 1.332521
0.029179478 1.539953 1.1795247
0.015935406 1.5485327 1.104499
-0.0039561568 1.5531704 0.99181479
-0.016788479 1.5594954 0.91912341
-0.029610563 1.5621604 0.84648949
-0.04268923 1.5513235 0.77239901
-0.055157952 1.5535755 0.70176864
-0.067651093 1.5493065 0.63099891
-0.079935342 1.5504731 0.56141412
-0.098279729 1.5540839 0.4575018
-0.11055005 1.5660853 0.38799646
-0.12280362 1.5586245 0.31858423
-0.13506506 1.554698 0.24912739
-0.1475976 1.5622045 0.17813398
-0.15998623 1.5572406 0.10795535
-0.1786038 1.5465469 0.0024903375
-0.19082665 1.5323706 -0.066749521
-0.20392524 1.5349561 -0.14095454
-0.21517323 1.4994965 -0.204668
-0.13277261 -0.059202775 0.26267132
-0.13372491 -0.084306106 0.25734943
-0.13509433 -0.10118365 0.24966273
-0.13662194 -0.11460132 0.24107914
-0.13819855 -0.12644759 0.23221773
-0.13976328 -0.13764471 0.22342384
-0.14142799 -0.14739351 0.21406293
-0.14322186 -0.15579 0.20396964
-0.14527966 -0.16215391 0.1923797
-0.14786516 -0.16513832 0.17779714
-0.15217951 -0.16832387 0.15345013
-0.17990901 -0.043407008 -0.0036825305
-0.17995961 -0.071488276 -0.0038912133
-0.18029658 -0.096488081 -0.005723679
-0.18131323 -0.12938954 -0.011371232
-0.18116018 -0.15358099 -0.010424512
-0.1812467 -0.17565614 -0.010836269
-0.181012 -0.19789225 -0.0094263814
-0.18105894 -0.21821743 -0.0096135391
-0.18110898 -0.23777464 -0.0098181264
-0.18054442 -0.25831276 -0.0065371972
-0.18062538 -0.27638566 -0.0069171139
-0.18074301 -0.29387611 -0.0075048651
-0.18074214 -0.31117991 -0.0074205999
-0.18095729 -0.32768622 -0.0085614072
-0.18108018 -0.3522439 -0.0091391923
-0.18056104 -0.36103961 -0.0061551952
-0.1810503 -0.38431937 -0.0088108107
-0.18097046 -0.40007839 -0.0082784286
-0.18096563 -0.41560048 -0.0081715407
-0.18103893 -0.43096998 -0.0085076867
-0.18119226 -0.44627228 -0.0092977537
-0.18107913 -0.46159327 -0.0085765831
-0.18116944 -0.48456889 -0.0089693526
-0.18117088 -0.49994203 -0.0088980058
-0.1812509 -0.51545984 -0.0092722289
-0.18140665 -0.53120703 -0.010076004
-0.18129326 -0.54688543 -0.0093534207
-0.18159001 -0.5632717 -0.010956864
-0.18124995 -0.58728468 -0.0089088697
-0.18161194 -0.60466897 -0.010882508
-0.18169139 -0.62200165 -0.011253711
-0.18181373 -0.639907 -0.011868127
-0.18168305 -0.66698688 -0.011007808
-0.18148883 -0.68541187 -0.0098268529
-0.18177059 -0.70593864 -0.011345807
-0.18204331 -0.72735429 -0.012813406
-0.18200193 -0.74861956 -0.012499549
-0.18250558 -0.77304679 -0.015277158
-0.17781191 -0.78789604 0.011464329
-0.17194739 -0.78363281 0.044807807
-0.16716838 -0.77125663 0.071954802
-0.16229251 -0.77836162 0.099730618
-0.15781967 -0.77451068 0.12518097
-0.15497598 -0.76803535 0.14135091
-0.15102854 -0.77491081 0.16386117
-0.14794055 -0.77522725 0.18145689
-0.15252218 -0.8490575 0.15558659
-0.14911965 -0.84906477 0.17496638
-0.35965165 -3.1029322 -1.0191565
-0.35351002 -3.3907518 -0.98422503
-0.35186332 -3.6489429 -0.97482568
-0.35361311 -3.9987895 -0.98469776
-0.35400981 -4.394197 -0.98689884
-0.3561663 -4.9049196 -0.99909019
-0.30678749 -9.902688 -0.71896183
-0.25288698 -10.162537 -0.41317913
-0.16708124 -10.611412 0.073596686
-0.10555478 -10.608602 0.42265636
-0.043251347 -10.739341 0.77611381
0.020307804 -10.830289 1.1366979
0.11482326 -10.797988 1.6725277
0.17840536 -10.787896 2.0333481
0.32747778 -7.7080665 2.8799932
0.21887244 -4.8671427 2.2643983
0.37743154 -6.4305501 3.1638515
0.38758242 -6.0393062 3.221585
0.40846992 -5.5928025 3.3402829
0.42100719 -5.3183713 3.4115372
0.41572288 -4.9160171 3.3816979
0.40706405 -4.5285239 3.33271
0.40978089 -4.2637453 3.3482444
0.3701016 -3.7295372 3.1232808
0.39911804 -3.6927829 3.2879925
0.41179681 -3.4441621 3.3600807
0.40312427 -3.1963975 3.3109915
0.40010527 -2.9959376 3.2939699
0.39880928 -2.8164966 3.2867203
0.39944199 -2.6557949 3.2904093
0.39577276 -2.4857268 3.2696919
0.39082485 -2.3204267 3.241719
0.39834517 -2.2075503 3.2844748
0.3934131 -1.9915761 3.2566333
0.3920646 -1.8612853 3.2490728
0.38722134 -1.7269222 3.2216854
0.3844313 -1.6033635 3.2059443
0.38418359 -1.4896731 3.2046237
0.38332966 -1.3777938 3.1998627
0.38576326 -1.2209302 3.2137907
0.38751283 -1.118185 3.2237952
0.38061085 -1.0066928 3.1847191
0.34570974 -0.87391406 2.9868059
0.38720536 -0.81058049 3.2222803
0.38035905 -0.70680159 3.1835155
0.37720144 -0.6075086 3.1656747
0.37135616 -0.50957125 3.132586
0.36955774 -0.3658101 3.1224866
-0.049646508 -0.40980858 0.74474549
-0.050332189 -0.40463167 0.74089682
-0.050440706 -0.38712898 0.74040365
-0.062008429 -0.39300206 0.67486823
-0.063461699 -0.38586473 0.66670656
-0.065451108 -0.36606389 0.65562594
-0.066069275 -0.35787055 0.65220076
-0.066580638 -0.34936514 0.64938122
-0.067372844 -0.33650699 0.6450088
-0.067573532 -0.32664764 0.64395076
-0.067555405 -0.31562406 0.64413345
-0.067482129 -0.30385351 0.64462847
-0.067621849 -0.2861231 0.64395434
-0.056723945 -0.14203063 0.70613176
-0.060043845 -0.14137669 0.68737978
-0.062132966 -0.13298295 0.67560637
-0.064502791 -0.11426304 0.66227627
-0.065886401 -0.069857776 0.65456837
0.061186552 1.7099468 1.3747994
0.032098353 1.517053 1.2099481
0.020076621 1.5446841 1.1417977
0.0065458319 1.5461178 1.0651002
-0.006654812 1.5484328 0.99027461
-0.025655134 1.5612224 0.88257211
-0.038666882 1.5556711 0.80882174
-0.051103234 1.5621974 0.73832792
-0.06370575 1.5582525 0.66689748
-0.076238245 1.5487384 0.5958674
-0.088704005 1.5256871 0.52522451
-0.10064648 1.5661021 0.45750865
-0.11908162 1.5631715 0.353017
-0.13141219 1.5644547 0.28312346
-0.14371933 1.5602614 0.21336627
-0.15634251 1.5674537 0.1418076
-0.16864705 1.5572464 0.07206846
-0.18063663 1.5377203 0.0041227494
-0.19992861 1.5388126 -0.10523719
-0.21271294 1.5322713 -0.17770226
-0.13460904 -0.048956025 0.26676863
-0.13430446 -0.074035607 0.26855612
-0.13573425 -0.091613017 0.26053816
-0.13837041 -0.10876123 0.2457159
-0.1388724 -0.11813337 0.24291557
-0.14152534 -0.13244866 0.22799632
-0.14313582 -0.14290668 0.21894835
-0.14486083 -0.15196267 0.20924944
-0.14683327 -0.15891999 0.19814506
-0.14898548 -0.16473393 0.18601985
-0.15179777 -0.16651332 0.17014585
-0.1567297 -0.1666774 0.14228424
-0.1829578 -0.055145938 -0.0065100915
-0.18316479 -0.081759028 -0.0075813527
-0.18314427 -0.10793933 -0.0073615867
-0.18317886 -0.13242473 -0.0074555781
-0.18301171 -0.15647498 -0.0064048548
-0.18323012 -0.17786095 -0.0075438218
-0.18298617 -0.19997862 -0.0060582682
-0.18375233 -0.22782168 -0.010257767
-0.18357934 -0.24769348 -0.0091760885
-0.183419 -0.26679185 -0.0081665125
-0.18360439 -0.28443003 -0.0091197193
-0.1835068 -0.30223769 -0.0084667169
-0.18345264 -0.31947139 -0.0080604153
-0.1834503 -0.33620438 -0.0079484126
-0.18333881 -0.35275465 -0.0072168442
-0.18373825 -0.37632829 -0.0093358448
-0.18348083 -0.38452008 -0.0078254733
-0.18358602 -0.40787578 -0.0082740802
-0.18353662 -0.42335895 -0.007894706
-0.18373927 -0.43864509 -0.0089455489
-0.18367577 -0.45397654 -0.0084856888
-0.18369301 -0.46926501 -0.008483788
-0.18379101 -0.48459658 -0.0089399368
-0.1838493 -0.50771838 -0.0091199698
-0.18388489 -0.5232752 -0.0092209456
-0.18399535 -0.53906882 -0.0097462824
-0.18417649 -0.55518228 -0.010671997
-0.18425456 -0.57145476 -0.011012388
-0.18384261 -0.59552848 -0.0085207717
-0.18415196 -0.61301178 -0.010171458
-0.18450291 -0.63113093 -0.012057242
-0.18440624 -0.64878321 -0.011403076
-0.18466012 -0.66786104 -0.012736181
-0.18508394 -0.68816495 -0.015031906
-0.18490249 -0.71762389 -0.013838711
-0.18509036 -0.7393018 -0.014792969
-0.18481942 -0.76023316 -0.013144052
-0.18537083 -0.78549427 -0.016156191
-0.18009529 -0.78607547 0.013868418
-0.17384605 -0.77979845 0.049410082
-0.1681527 -0.77343041 0.081797205
-0.16424552 -0.77420968 0.10405739
-0.16016291 -0.77236605 0.1273098
-0.15652227 -0.77150065 0.14805549
-0.15306917 -0.77032322 0.1677366
-0.14918315 -0.77546889 0.18992624
-0.15465251 -0.84415233 0.15906501
-0.15128295 -0.84404016 0.17827435
-0.36095425 -3.1953368 -1.0082333
-0.3633396 -3.4690981 -1.0212954
-0.35442159 -3.7948773 -0.9700799
-0.3557021 -4.1652441 -0.97672766
-0.35396215 -4.559608 -0.96619439
-0.35623071 -5.1170244 -0.97817546
-0.28747326 -10.164248 -0.58001626
-0.21655384 -9.2162695 -0.17873956
-0.17235744 -10.640414 0.074325383
-0.079710275 -10.703999 0.60047871
0.047451884 -10.887647 1.3227906
0.078808844 -10.859179 1.5007218
0.20579731 -10.808742 2.2212934
0.20137537 -4.8951588 2.187712
0.38390103 -6.2944107 3.2256124
0.38911659 -5.8675203 3.2546427
0.39100894 -5.4581966 3.2648454
0.37793979 -4.9567409 3.1900196
0.39926541 -4.8078651 3.3108809
0.40386811 -4.3865094 3.3364916
0.40215281 -4.1013675 3.326417
0.37603635 -3.67856 3.1776824
0.40906647 -3.6645374 3.3651662
0.39862618 -3.3879292 3.3056014
0.39247313 -3.1571567 3.270432
0.39981881 -2.9224439 3.3118987
0.39830354 -2.7459295 3.3031292
0.39837477 -2.5860519 3.3033879
0.37256107 -2.3334036 3.1566291
0.40155521 -2.3000231 3.3211977
0.39301515 -2.1317081 3.2725835
0.38736811 -1.9822987 3.2404144
0.38778064 -1.7962596 3.242626
0.38471308 -1.6689595 3.2251294
0.38201663 -1.5474234 3.209748
0.38239703 -1.4362851 3.2118435
0.38170439 -1.3257508 3.2078521
0.38111654 -1.2179937 3.2044609
0.38439161 -1.1176101 3.2230034
0.34106609 -0.965352 2.9770148
0.38729799 -0.86312926 3.2393918
0.38149574 -0.75827038 3.2064195
0.36413202 -0.65185696 3.107832
0.37297767 -0.55819005 3.1580081
0.36824128 -0.4612067 3.1310995
0.3667382 -0.36547723 3.1225443
-0.051300749 -0.420706 0.75027186
-0.05245195 -0.40990958 0.74380404
-0.053016044 -0.39292225 0.74070078
-0.063076824 -0.39549628 0.68368179
-0.065417804 -0.38464883 0.6705007
-0.066488869 -0.38181698 0.6644578
-0.066965722 -0.36836788 0.66185421
-0.068367004 -0.36190808 0.65397251
-0.069007695 -0.35377723 0.650406
-0.069542617 -0.34532362 0.64743966
-0.070069849 -0.33154541 0.64455098
-0.069880575 -0.32557514 0.64565855
-0.069866955 -0.31449249 0.64580351
-0.070151649 -0.29814076 0.64428991
-0.070083186 -0.28546569 0.64474523
-0.060524493 -0.13852033 0.69930267
-0.063397594 -0.13513702 0.68307346
-0.065206163 -0.1245155 0.67288017
-0.067087837 -0.11422068 0.66227245
-0.068799458 -0.057108376 0.65271372
0.066978425 1.7155267 1.422183
0.051365279 1.718318 1.3336682
0.024662945 1.5485383 1.1823435
0.0110363 1.5515372 1.105101
-0.0023606529 1.5534509 1.029163
-0.015678303 1.5514948 0.95367765
-0.028723797 1.5495939 0.8797369
-0.047454298 1.5602882 0.77357095
-0.060164038 1.5546527 0.70153815
-0.072474867 1.5603191 0.63176179
-0.084892206 1.5555197 0.56138778
-0.097169816 1.5542054 0.49180442
-0.10940062 1.5674233 0.4224776
-0.1216395 1.5551828 0.3531208
-0.14002447 1.5527014 0.24892434
-0.15268554 1.5671482 0.1771552
-0.16493595 1.5562201 0.1077317
-0.17737128 1.550697 0.037255343
-0.18972935 1.5406803 -0.032780197
-0.20272155 1.5426339 -0.10642141
-0.1360455 -0.065762818 0.27311769
-0.1374926 -0.084195301 0.26499447
-0.13896951 -0.099986926 0.25670025
-0.1406049 -0.11233074 0.24750461
-0.14332253 -0.12645608 0.23220722
-0.14389293 -0.13417055 0.22901332
-0.14558603 -0.14375396 0.21948822
-0.1483431 -0.15580441 0.20396507
-0.15039948 -0.16217075 0.19237632
-0.15276 -0.16669007 0.17906052
-0.15592715 -0.16659179 0.16116466
-0.18582322 -0.067531489 -0.0083095068
-0.18565314 -0.095260471 -0.0072537167
-0.1859263 -0.11934206 -0.0087154089
-0.18572162 -0.14424577 -0.007465275
-0.1857421 -0.16695532 -0.0074942261
-0.18558206 -0.18927149 -0.0064993328
-0.18675938 -0.21633774 -0.013054116
-0.1859657 -0.22879282 -0.0085062888
-0.18626766 -0.25668141 -0.010093871
-0.1856157 -0.26763731 -0.0063513494
-0.1861611 -0.29321855 -0.0093223564
-0.18616429 -0.31058806 -0.0092578614
-0.18605101 -0.3277455 -0.008532729
-0.18599144 -0.34440681 -0.0081128506
-0.18599269 -0.36064899 -0.0080386344
-0.18606082 -0.37655142 -0.0083444398
-0.18640636 -0.39985999 -0.010184883
-0.18607198 -0.4079082 -0.0082470197
-0.18613008 -0.43102983 -0.0084570637
-0.18628271 -0.44633237 -0.0092439158
-0.18634254 -0.46165347 -0.0095043695
-0.18613607 -0.47693941 -0.0082538202
-0.18618365 -0.49227673 -0.0084453337
-0.18613772 -0.50764626 -0.0081065297
-0.1863213 -0.53111112 -0.0090317074
-0.1867191 -0.54732805 -0.011211921
-0.1865049 -0.56310767 -0.0099190399
-0.18686271 -0.57993555 -0.011872835
-0.1866105 -0.59614617 -0.010364983
-0.18660825 -0.62172085 -0.010237848
-0.18689229 -0.63996863 -0.011773985
-0.18672961 -0.65770298 -0.010775277
-0.18722399 -0.67777359 -0.013505853
-0.18741299 -0.69780117 -0.014503744
-0.1868176 -0.72638619 -0.011013202
-0.1869265 -0.748137 -0.011557315
-0.18728924 -0.77196229 -0.013542609
-0.18717687 -0.79506302 -0.012831855
-0.18026941 -0.78763819 0.026444478
-0.17276573 -0.77392638 0.06910488
-0.16843826 -0.77331102 0.093738675
-0.16493313 -0.77558953 0.11370501
-0.16052653 -0.77099204 0.1387881
-0.15749691 -0.77332127 0.15605573
-0.15504728 -0.77869922 0.17003135
-0.15885437 -0.84510201 0.14852788
-0.15544799 -0.8454687 0.16793317
-0.15228121 -0.84663475 0.18597864
-0.36227894 -3.3104017 -1.0060208
-0.36415344 -3.5976813 -1.0166538
-0.36242417 -3.8833716 -1.0068389
-0.35271266 -4.2986102 -0.95172912
-0.35766691 -4.8481245 -0.97990859
-0.35101759 -5.2989135 -0.94222373
-0.30510148 -9.6170416 -0.68251663
-0.25726897 -10.162686 -0.41119063
-0.2021897 -10.603762 -0.098719604
-0.1409391 -10.694052 0.24886148
-0.079101853 -10.644988 0.59980881
0.016766254 -10.901934 1.1437997
0.10899778 -10.738145 1.6674738
0.1755365 -10.848763 2.045063
0.23896293 -10.805558 2.4050322
0.28466123 -8.9516058 2.6649458
0.20269473 -4.9283829 2.2011557
0.37818277 -5.98703 3.1968119
0.39019811 -5.6658554 3.2651505
0.41209441 -5.4728246 3.3895226
0.3965162 -4.9604526 3.3013437
0.40092579 -4.6706018 3.3265214
0.39640751 -4.3383598 3.3010528
0.39115998 -3.907424 3.2715154
0.38916522 -3.6602299 3.2603459
0.40375292 -3.5311167 3.3432391
0.39728123 -3.2882411 3.3066671
0.39239556 -3.0719345 3.2790887
0.39085549 -2.8868685 3.2704868
0.39030701 -2.7173877 3.2675083
0.39969778 -2.5212634 3.3209817
0.38301271 -2.3095007 3.2264519
0.3971577 -2.2203488 3.3068321
0.38713434 -2.0521355 3.250093
0.38360572 -1.9133096 3.2302008
0.38011941 -1.7808344 3.2105482
0.37676415 -1.6542939 3.1916382
0.3815138 -1.4942379 3.2187796
0.37952265 -1.3797045 3.2076099
0.37925664 -1.2713708 3.2062294
0.38064045 -1.1676487 3.2142115
0.38391563 -1.067469 3.2329271
0.33991626 -0.91947317 2.9833798
0.38183618 -0.80990398 3.2214589
0.37705243 -0.70721227 3.1944463
0.37250006 -0.60712427 3.1687474
0.36716372 -0.50914192 3.1385999
0.36505437 -0.41308597 3.1267664
-0.054730546 -0.41557825 0.74467117
-0.055229463 -0.40437561 0.74192476
-0.055285662 -0.39268705 0.74169141
-0.066625923 -0.38737264 0.6774922
-0.06827233 -0.38055849 0.66823113
-0.070061184 -0.36978072 0.6582036
-0.070816785 -0.36188731 0.65399915
-0.071800083 -0.34974015 0.64854485
-0.072056942 -0.34040132 0.64717239
-0.072639152 -0.32658559 0.64399636
-0.072913446 -0.31665182 0.64252585
-0.0728352 -0.30493924 0.64305776
-0.072714448 -0.29241535 0.64383179
-0.064147912 -0.1344136 0.69309878
-0.066707246 -0.128977 0.6786592
-0.068357073 -0.11687817 0.66938746
-0.071008794 -0.069796927 0.65458333
-0.071238928 -0.03908122 0.65338707
0.057759862 1.6394545 1.3872471
0.043489326 1.6530155 1.3063715
0.014868059 1.5514033 1.1439897
0.0016166011 1.5586101 1.0688909
-0.012184963 1.5504702 0.990655
-0.024953136 1.5577197 0.91829938
-0.037686203 1.5623063 0.84614056
-0.050517138 1.5593292 0.77341878
-0.069319472 1.5593051 0.66686106
-0.081811957 1.5527718 0.59605652
-0.0943406 1.5247251 0.52502358
-0.10631464 1.5571291 0.45720345
-0.11859077 1.5661131 0.38764414
-0.13090275 1.5656248 0.31787118
-0.14310849 1.5556866 0.24869087
-0.16187446 1.5624775 0.14234939
-0.17423935 1.5552411 0.072269201
-0.18643095 1.5415863 0.0031651119
-0.19933394 1.5439253 -0.069957562
-0.13774276 -0.057533465 0.27794713
-0.13914371 -0.077748843 0.27005398
-0.14068611 -0.093445994 0.26136306
-0.14230096 -0.10658307 0.25226396
-0.14387369 -0.11902493 0.24340443
-0.14559393 -0.1290569 0.23371066
-0.14723152 -0.13935438 0.22448544
-0.14897984 -0.14823854 0.21463336
-0.15179415 -0.15973391 0.19876887
-0.1539388 -0.16552809 0.18667142
-0.1566311 -0.16804196 0.17147034
-0.16029078 -0.16543019 0.15078638
-0.18856792 -0.052463934 -0.0093679652
-0.18878061 -0.079180814 -0.010528731
-0.18863015 -0.10609704 -0.0096295569
-0.18838844 -0.13186812 -0.0082115671
-0.18835728 -0.1553729 -0.0079857875
-0.18857349 -0.17681675 -0.0091613503
-0.18847549 -0.1984784 -0.0085545955
-0.18851389 -0.21877326 -0.0087203877
-0.18840094 -0.23875341 -0.008027235
-0.18814051 -0.25838304 -0.0064971736
-0.18877064 -0.28409967 -0.0099898297
-0.188667 -0.30193967 -0.0093478458
-0.18877189 -0.31889734 -0.0098881591
-0.18859823 -0.33597234 -0.0088483384
-0.18848035 -0.35255605 -0.0081245871
-0.18842509 -0.36872622 -0.007756006
-0.18860924 -0.38438952 -0.0087454319
-0.18835267 -0.4002873 -0.0072346851
-0.18851492 -0.41567031 -0.0081000039
-0.18866912 -0.43868753 -0.0088924663
-0.18877111 -0.45400155 -0.0094164778
-0.18860671 -0.46930709 -0.0084291101
-0.1886965 -0.48463851 -0.00888451
-0.18869288 -0.50001156 -0.0088102389
-0.1887677 -0.51552939 -0.0091815321
-0.18870008 -0.5389365 -0.0087186275
-0.18914011 -0.54733682 -0.011190249
-0.18894362 -0.57125396 -0.0099978214
-0.18907586 -0.58790541 -0.010698042
-0.18926316 -0.60504758 -0.011711811
-0.1891716 -0.62207103 -0.01114329
-0.18960921 -0.64072609 -0.013580542
-0.18899027 -0.66663325 -0.0099967383
-0.18941022 -0.68684316 -0.012337166
-0.18952441 -0.70697767 -0.012942746
-0.18926165 -0.73722172 -0.011389012
-0.189135 -0.75859499 -0.010631058
-0.18954167 -0.78318256 -0.012905181
-0.19001374 -0.80951339 -0.015553738
-0.18149616 -0.79397517 0.032878473
-0.17314084 -0.77479661 0.080396302
-0.16947179 -0.77701378 0.10128634
-0.16537055 -0.77526581 0.12463548
-0.1615943 -0.77374977 0.14614008
-0.15868218 -0.77646953 0.162734
-0.15494525 -0.77209675 0.18402041
-0.15942892 -0.84498924 0.15856162
-0.15624015 -0.84657186 0.17672646
-0.36149821 -3.1645842 -0.99194759
-0.36330488 -3.4306006 -1.0026273
-0.36181685 -3.6958332 -0.99461561
-0.36432168 -4.0630679 -1.0094519
-0.35113606 -4.468977 -0.93531483
-0.35221446 -4.9985805 -0.94237405
-0.28695312 -10.182247 -0.58174741
-0.22923268 -10.320644 -0.25451159
-0.17098606 -10.611458 0.075413108
-0.10939744 -10.795566 0.4245005
-0.047250301 -10.719234 0.77725846
0.016464576 -10.830087 1.1385471
0.11146417 -10.828428 1.6781265
0.20710629 -10.808536 2.2213652
0.38074487 -6.276124 3.2170715
0.39073601 -5.9051671 3.2746272
0.39138269 -5.4829912 3.2792268
0.40085405 -5.1896119 3.3336723
0.40595287 -4.8862906 3.3633089
0.39535314 -4.4865685 3.3040044
0.39633593 -4.2126164 3.3102093
0.36088946 -3.7120347 3.1100342
0.40331641 -3.6488552 3.3511536
0.40122846 -3.4222491 3.339823
0.39387462 -3.1834316 3.2986181
0.3915022 -2.9873791 3.2856081
0.38928816 -2.804486 3.273469
0.39007601 -2.6454833 3.2783227
0.36622682 -2.3950245 3.1434894
0.39734805 -2.2991714 3.3204465
0.39292416 -2.1448858 3.2956953
0.38405359 -1.9848011 3.2457111
0.38153467 -1.85185 3.2317283
0.37866145 -1.7234113 3.2157235
0.37678242 -1.6023282 3.2053452
0.37836197 -1.436951 3.2147062
0.37562573 -1.3228118 3.1994417
0.3774839 -1.219236 3.2102323
0.37953383 -1.1170743 3.2221048
0.34959477 -0.97993189 3.05248
0.35087103 -0.88502222 3.0599437
0.37757856 -0.8085838 3.2117016
0.35773063 -0.69867724 3.0992966
0.36837646 -0.55795527 3.1600194
0.36359841 -0.46090502 3.1331084
0.36222845 -0.36507156 3.1255326
-0.057513975 -0.40985954 0.74384695
-0.057880763 -0.39851618 0.74187481
-0.058146887 -0.38702446 0.74047345
-0.06993562 -0.38845539 0.67372012
-0.071248859 -0.38115647 0.66637212
-0.072432511 -0.37394515 0.6597591
-0.07300698 -0.36560357 0.65660363
-0.07396239 -0.3533136 0.65133774
-0.074506149 -0.34482884 0.64835566
-0.074800327 -0.33545408 0.64679009
-0.075160138 -0.32604983 0.64485168
-0.075608671 -0.31108224 0.64246118
-0.075579256 -0.29927614 0.64273185
-0.075510159 -0.28665668 0.64322758
-0.066724032 -0.13362351 0.69373083
-0.070001937 -0.12127616 0.67527199
-0.074924015 -0.11009854 0.64752668
-0.074294351 -0.059664465 0.65125287
-0.073757812 -0.019142469 0.65439939
0.052604012 1.7047018 1.3720857
0.024892405 1.5302364 1.2148314
0.011785799 1.5420516 1.1405032
-0.0078153713 1.5544891 1.0293418
-0.021041654 1.5544668 0.95433098
-0.033902332 1.557456 0.8813948
-0.046651233 1.5587316 0.8090924
-0.059533253 1.5494576 0.73603362
-0.071860574 1.5543672 0.66612309
-0.090374038 1.5535583 0.5611288
-0.10255951 1.5642264 0.4920215
-0.11484404 1.559443 0.42235237
-0.12713486 1.5651896 0.35264617
-0.13942251 1.5624641 0.28295836
-0.15196456 1.5721854 0.21182442
-0.1641465 1.5585167 0.14273752
-0.18230587 1.5369356 0.039752174
-0.19468927 1.5299362 -0.030479252
-0.20801298 1.540668 -0.10605226
-0.13968842 -0.047456086 0.28232482
-0.13981931 -0.067862161 0.28163323
-0.14250359 -0.087872364 0.26654023
-0.14410625 -0.10179547 0.25753969
-0.14581102 -0.11321866 0.24795924
-0.14749771 -0.12400153 0.23848166
-0.14918129 -0.13416931 0.22902185
-0.15097077 -0.1429151 0.21896067
-0.15269627 -0.15197305 0.20926322
-0.15466931 -0.15893263 0.1981599
-0.15794615 -0.16745938 0.17970361
-0.16087869 -0.16882586 0.16315164
-0.16644362 -0.16606282 0.13170163
-0.19163986 -0.06487795 -0.011240689
-0.19175401 -0.091426969 -0.011781777
-0.19164276 -0.11751771 -0.011042418
-0.19145212 -0.14250486 -0.0098520117
-0.19148625 -0.16530012 -0.0099380231
-0.19133964 -0.18770389 -0.008997214
-0.1914677 -0.2081724 -0.0096159177
-0.19128937 -0.22881429 -0.0084944302
-0.19126785 -0.24818544 -0.0082631484
-0.19110614 -0.26725188 -0.0072354982
-0.19129041 -0.28485802 -0.0081720604
-0.19135506 -0.3022911 -0.0084289806
-0.19113745 -0.3198334 -0.0070827287
-0.1913441 -0.34442756 -0.0080894325
-0.1913504 -0.36066961 -0.0080134971
-0.19142371 -0.37657198 -0.0083175953
-0.19139767 -0.39237234 -0.0080569796
-0.19144575 -0.40792853 -0.0082167229
-0.19139846 -0.42341152 -0.0078344541
-0.19160323 -0.43869779 -0.0088824518
-0.19173682 -0.46167353 -0.0094678942
-0.19171004 -0.47699443 -0.0091997553
-0.19159065 -0.49229649 -0.0084051704
-0.19189647 -0.5078755 -0.010023298
-0.19193389 -0.52346689 -0.010117163
-0.19187514 -0.53912109 -0.0096642934
-0.19205894 -0.55523461 -0.010586963
-0.19197343 -0.5794369 -0.0099191219
-0.19206429 -0.59616542 -0.010311479
-0.19220869 -0.61338949 -0.011006459
-0.19239852 -0.63118309 -0.011957735
-0.19262458 -0.64961714 -0.013113011
-0.19224857 -0.67647678 -0.010785962
-0.19260867 -0.69688082 -0.012697206
-0.19281299 -0.71767592 -0.013722559
-0.19329891 -0.74041432 -0.016342675
-0.19240132 -0.7702595 -0.011044292
-0.19244975 -0.79387736 -0.011177002
-0.193113 -0.82164788 -0.014792384
-0.17767029 -0.77065504 0.072900206
-0.17438592 -0.77536511 0.09165889
-0.17062981 -0.77630216 0.11308987
-0.16729085 -0.77831024 0.13215466
-0.16353957 -0.7763418 0.15355363
-0.16009516 -0.77481198 0.1732114
-0.15756543 -0.77867621 0.18768585
-0.16117452 -0.84629726 0.16747589
-0.15791795 -0.84663218 0.18607236
-0.36392513 -3.2570493 -0.97874331
-0.36572355 -3.5370674 -0.98827165
-0.36550131 -3.8356152 -0.9862805
-0.36744139 -4.2196298 -0.99638832
-0.36881298 -4.6714196 -1.0031203
-0.35451007 -5.2249985 -0.92054284
-0.34075418 -9.5565443 -0.83270884
