# .PCD v0.7 - Point Cloud Data file format
VERSION 0.7
FIELDS x y z
SIZE 4 4 4
TYPE F F F
COUNT 1 1 1
WIDTH 479
HEIGHT 1
VIEWPOINT 0 0 0 1 0 0 0
POINTS 479
DATA ascii
-0.23384786 -0.74887466 0.002785115
0.044285234 -0.59200841 0.0027107545
-0.053057458 -0.65083677 0.0033463282
-0.25755954 -0.77006257 0.0042177881
-0.2624079 -0.7688697 0.0058253687
0.049974281 -0.59943789 0.0050340551
-0.071102522 -0.65849167 0.0067961398
-0.065785445 -0.65841728 0.0067667416
-0.20583856 -0.73561651 0.007405926
-0.084107503 -0.66715235 0.0075063468
0.047921572 -0.59054571 0.0074055567
-0.21889551 -0.74520874 0.0088930177
-0.089683719 -0.66679227 0.0084939916
-0.057143506 -0.64801669 0.0097104236
0.053478513 -0.59788901 0.0096794153
-0.23758212 -0.75440383 0.010034492
-0.24290895 -0.75381219 0.01077212
0.06175622 -0.62216151 0.010834932
0.06437166 -0.62218386 0.010850644
-0.1969234 -0.73290831 0.011595324
-0.18310302 -0.72237831 0.011990527
-0.16413662 -0.71243614 0.01156937
-0.11849958 -0.6836974 0.01142804
0.056707811 -0.60552526 0.011170973
-0.02946113 -0.6298185 0.012727881
-0.021287087 -0.6298669 0.012751634
0.067655146 -0.62984389 0.012729947
-0.012965411 -0.62114477 0.01360633
0.059718363 -0.6128028 0.013714303
-0.24754116 -0.7623384 0.014372013
-0.11002249 -0.68230391 0.014073891
-0.074976623 -0.66367263 0.014704797
-0.20949867 -0.74073446 0.015467667
-0.13157521 -0.69098318 0.015320919
-0.042767767 -0.6457389 0.01513774
-0.25245893 -0.76122433 0.016087908
-0.2232153 -0.75071424 0.01612197
-0.15008961 -0.69957435 0.016720921
-0.12325753 -0.6898917 0.016947884
-0.10148449 -0.68077284 0.016551595
-0.080091707 -0.66278225 0.016405487
-0.092915051 -0.67095774 0.018220654
-0.061203655 -0.65285736 0.018334014
0.046993863 -0.59510624 0.018128788
-0.22830762 -0.74833721 0.01920387
-0.18714398 -0.72748518 0.019876864
-0.16864884 -0.71755737 0.019336032
-0.15490074 -0.70780581 0.019201497
-0.13604867 -0.69815862 0.019371554
-0.04712091 -0.64357781 0.019559065
0.073912181 -0.63552547 0.019310007
0.071496449 -0.63516468 0.020256432
-0.25704512 -0.76838231 0.021380687
-0.17349178 -0.71596289 0.02185522
0.058581375 -0.61787254 0.021883879
-0.033127002 -0.63390487 0.022966349
-0.21388094 -0.74560368 0.023541788
-0.2003752 -0.73510951 0.02364861
-0.11963265 -0.68652606 0.023022356
-0.26170614 -0.76599836 0.024548959
-0.16509385 -0.71437544 0.024318496
-0.11367191 -0.6856609 0.024854479
-0.08428441 -0.66771787 0.024347719
-0.21901579 -0.74383414 0.025883367
-0.15919901 -0.71332431 0.025987759
-0.14048211 -0.70372999 0.025993036
-0.10560096 -0.67611593 0.02529267
-0.016485985 -0.62461758 0.025505899
0.026628736 -0.56227833 0.0252224
-0.23762608 -0.75344479 0.026225151
-0.23202495 -0.75352347 0.026350681
-0.12642819 -0.69367647 0.026995245
-0.064865567 -0.65790004 0.026149714
-0.024471069 -0.63241386 0.026606537
0.043111231 -0.58470255 0.026244355
0.037511848 -0.57707822 0.026054446
0.031925544 -0.56956887 0.026054226
0.035146143 -0.56927526 0.026992256
-0.20224959 -0.78638983 0.027937489
0.051522333 -0.59965163 0.027919369
0.029475667 -0.56177783 0.027096681
-0.19394322 -0.78577387 0.028771963
-0.24795365 -0.76291525 0.028327104
-0.24227899 -0.762806 0.028148552
-0.19130492 -0.73177195 0.028572654
-0.17784429 -0.72197324 0.028059173
-0.13196436 -0.70218062 0.028556207
-0.096813835 -0.67423999 0.028752176
-0.0078851823 -0.62344986 0.028247191
-0.18298635 -0.72089666 0.029784245
-0.051220492 -0.64766866 0.029000446
0.06499438 -0.63119078 0.029294979
-0.22345586 -0.75078118 0.030670617
-0.15012765 -0.75079459 0.030675387
0.054426324 -0.60663331 0.030385347
0.05710515 -0.60663021 0.03034633
-0.22341274 -0.79519707 0.031122232
-0.21497406 -0.7953012 0.031297874
-0.26350617 -0.78307599 0.031489931
-0.20410083 -0.783279 0.031781632
-0.18519071 -0.78391093 0.031091211
-0.13679326 -0.70064306 0.031086724
-0.050772205 -0.69975799 0.031742904
-0.079920851 -0.66403872 0.031285118
-0.056137055 -0.65515006 0.031430289
-0.036983922 -0.63847363 0.031343568
-0.2309908 -0.79371679 0.032279134
-0.2039658 -0.73930669 0.032416515
-0.066575684 -0.69950336 0.032718964
-0.053149145 -0.69928384 0.032640249
-0.036805928 -0.69949007 0.032695573
-0.1229948 -0.69009417 0.032916699
0.0630752 -0.62158805 0.032856129
-0.23347595 -0.80443305 0.033523198
-0.20953548 -0.79334432 0.033641201
-0.2063401 -0.79337192 0.033608187
-0.23341042 -0.75861186 0.033726115
-0.20953546 -0.73870385 0.033260334
-0.17420246 -0.71814018 0.033772502
-0.15525392 -0.70856965 0.033500992
-0.23612522 -0.80312657 0.034944508
-0.085157484 -0.70804739 0.034387499
-0.076969676 -0.70798379 0.034327798
-0.071551159 -0.70799744 0.034401193
-0.0634652 -0.70792407 0.034331333
-0.093301564 -0.67145759 0.034000706
-0.087654583 -0.67151237 0.034076478
-0.22803248 -0.80260575 0.035931647
-0.2173156 -0.79138273 0.035775747
-0.24910198 -0.76867443 0.035172332
-0.24376693 -0.76800019 0.035825815
-0.18704742 -0.72676718 0.035967283
-0.16310684 -0.72666204 0.035697617
-0.058296092 -0.70730025 0.035118487
0.0096538141 -0.66190082 0.035818551
-0.21955423 -0.80212629 0.036953446
-0.24360561 -0.78986621 0.036783107
-0.23293172 -0.77849334 0.036518965
-0.25196263 -0.76808089 0.036031589
-0.2569536 -0.76744884 0.036821537
-0.19486669 -0.74678952 0.036474232
-0.13590103 -0.74674118 0.036358472
-0.16813697 -0.71651292 0.036178727
-0.15192661 -0.71650946 0.036168046
-0.13856776 -0.70648468 0.036895234
-0.11403568 -0.70645946 0.036869749
-0.022858348 -0.67934281 0.036018368
-0.033302214 -0.6787793 0.036832355
-0.24070853 -0.80114001 0.037165582
-0.22508077 -0.77809846 0.037584793
-0.24637042 -0.77795702 0.037394594
-0.18684989 -0.76769304 0.037284572
-0.15182239 -0.76760232 0.037010763
-0.2088092 -0.75655478 0.037518568
-0.20055988 -0.75654852 0.037463371
-0.22767033 -0.75574422 0.037831001
-0.22500397 -0.7558381 0.03795423
-0.18682051 -0.74619734 0.037352696
-0.17867236 -0.74614102 0.037281491
-0.19472224 -0.73588282 0.037278533
-0.18977353 -0.7358489 0.037309382
-0.18167523 -0.735816 0.037324596
-0.15163821 -0.73521447 0.037903331
-0.12764107 -0.73526323 0.037932273
-0.17861578 -0.72559184 0.037531823
-0.17077002 -0.72554135 0.037372489
-0.089624897 -0.71601421 0.037023127
-0.15952699 -0.71541649 0.037784491
-0.13560928 -0.71546698 0.037887171
-0.12763825 -0.71546918 0.037848312
-0.10069758 -0.71533865 0.037717111
-0.11705238 -0.69643271 0.037749052
-0.10352218 -0.68756926 0.037172034
-0.046961427 -0.64346445 0.037908673
-0.24041937 -0.77659172 0.038743529
-0.22994268 -0.76615024 0.03817806
-0.22208467 -0.76634318 0.03851942
-0.21365632 -0.76644564 0.038691033
-0.20542073 -0.76644504 0.038737427
-0.23797438 -0.7654385 0.038822461
-0.21686016 -0.75592065 0.038183559
-0.19224447 -0.75595909 0.038314626
-0.18379584 -0.73471814 0.03893993
-0.15937619 -0.7346372 0.038671933
-0.16519988 -0.72442794 0.038992751
-0.148665 -0.72442549 0.038940504
-0.11686717 -0.72439557 0.038948189
-0.097586595 -0.72435331 0.038887929
-0.095055372 -0.7243908 0.038915925
-0.09253291 -0.71486026 0.038620647
-0.14626126 -0.70533949 0.038510229
-0.1408866 -0.70538926 0.038552366
-0.12202384 -0.70535773 0.038501278
-0.10858128 -0.69603896 0.038708694
-0.089331478 -0.69601005 0.038646985
-0.076302193 -0.6870718 0.038037691
-0.11366326 -0.68663698 0.038925927
-0.084340632 -0.68663484 0.038948298
-0.046844199 -0.68631577 0.038778011
-0.097624727 -0.67775822 0.038469683
-0.030324783 -0.64331871 0.038950741
0.050557606 -0.63528782 0.038584806
-0.01168952 -0.6273489 0.038350113
0.069203302 -0.62730449 0.038377259
-0.0035303931 -0.61932313 0.038282569
0.058491584 -0.61932343 0.038307972
-0.0060341703 -0.60355854 0.038658064
-0.0034476523 -0.60355216 0.038649347
-0.25140896 -0.78801829 0.03925693
-0.25393635 -0.77675027 0.039058991
-0.22734322 -0.77611679 0.039755341
-0.19761467 -0.76579708 0.039531801
-0.17580587 -0.7547183 0.039833263
-0.19757049 -0.74438542 0.039665539
-0.14075436 -0.74435067 0.039502762
-0.20016178 -0.73410761 0.039661482
-0.19198017 -0.73412001 0.039722852
-0.17581552 -0.73408318 0.039670084
-0.16755708 -0.73407096 0.039526183
-0.10565886 -0.72447425 0.039028049
-0.15678217 -0.72387475 0.039778791
-0.14068122 -0.72388768 0.039816424
-0.12418555 -0.72393823 0.039815351
-0.10839619 -0.72395831 0.039885264
-0.081623383 -0.72386926 0.039808542
-0.11931854 -0.71426201 0.039398991
-0.13252296 -0.7048912 0.039437838
-0.1055797 -0.70488596 0.039415337
-0.094975419 -0.70480323 0.039306186
-0.11930949 -0.69537687 0.039391831
-0.081653617 -0.69543457 0.039477948
-0.07347393 -0.69541365 0.039465312
-0.067920774 -0.69539714 0.039466102
-0.060059324 -0.69531339 0.039439462
-0.10549773 -0.68615252 0.039817482
-0.05470293 -0.68589365 0.039712004
-0.065376677 -0.67729664 0.039423585
-0.041194119 -0.67716384 0.039344866
-0.024809981 -0.67736077 0.039414007
-0.011550617 -0.67741907 0.039422382
-0.084270149 -0.66867167 0.039274901
-0.076080702 -0.66860896 0.03921904
-0.035626743 -0.66858083 0.039230183
-0.01665521 -0.66870433 0.039270904
-0.0083653098 -0.64297318 0.039840344
0.0024410153 -0.64295465 0.039845735
0.034262683 -0.64294505 0.039830707
0.061717458 -0.64292723 0.039841864
-0.027666427 -0.63485056 0.039432514
-0.014040641 -0.63493317 0.039445516
0.034182422 -0.62692094 0.039270956
0.042448986 -0.62686437 0.039206397
0.010378302 -0.60328674 0.039654925
0.015593052 -0.56596738 0.039393011
-0.23763955 -0.80991948 0.040867969
-0.23770088 -0.78655291 0.040445887
-0.1942147 -0.77637339 0.040221769
-0.17817079 -0.77631265 0.040233593
-0.23516653 -0.77535295 0.040282626
-0.21886924 -0.77566236 0.040793687
-0.21083798 -0.77571148 0.040962171
-0.17310715 -0.76513642 0.040199772
-0.21892141 -0.75411355 0.040459152
-0.18349357 -0.75417763 0.040697426
-0.21334265 -0.74382979 0.040398624
-0.20510538 -0.74382925 0.040444002
-0.16498974 -0.74374425 0.040292405
-0.1540755 -0.73350292 0.040306561
-0.14596622 -0.73345184 0.040303826
-0.13231528 -0.72336054 0.040683109
-0.14342412 -0.71376646 0.040276039
-0.12410592 -0.70437926 0.040221229
-0.1271825 -0.69497979 0.040333349
-0.11094852 -0.6949898 0.040393241
-0.10024563 -0.69484949 0.040206958
-0.092221342 -0.69491595 0.040282052
-0.086504519 -0.68565857 0.040673357
-0.070428967 -0.68558526 0.040668186
-0.062343534 -0.68551272 0.040601511
-0.038332067 -0.68549174 0.040593717
-0.089032136 -0.6769231 0.040302273
-0.081492245 -0.67686248 0.040288046
-0.073317423 -0.67684197 0.040277861
-0.057372499 -0.67667484 0.040213585
-0.049273401 -0.67655545 0.040162519
-0.027582737 -0.6681478 0.040093012
-0.067638211 -0.66766798 0.040986203
-0.038248595 -0.66759014 0.04095684
-0.059758164 -0.65897149 0.040989354
-0.057226285 -0.65890539 0.040951725
-0.04913038 -0.6587863 0.040904026
-0.040896621 -0.65891033 0.040943928
-0.016449193 -0.65104359 0.040353853
0.0075785043 -0.65103722 0.040353246
-0.043482326 -0.65074396 0.040225185
-0.035417832 -0.65092063 0.040316615
-0.024551904 -0.64250165 0.040701654
-0.021993438 -0.64254421 0.040749386
-0.011290474 -0.64255941 0.040708173
0.023742493 -0.64250398 0.040696546
0.031803139 -0.64250213 0.040684897
0.053732488 -0.64249182 0.04072006
0.075094141 -0.64255947 0.040745795
-0.0031860583 -0.63447684 0.040338028
0.007597358 -0.63452417 0.04037521
0.02922494 -0.63450313 0.040376049
0.03743979 -0.63447011 0.040354282
0.048077658 -0.63446289 0.04034948
0.066937871 -0.63447702 0.040366478
-0.0082927868 -0.62655813 0.040187117
0.045520194 -0.62650335 0.040181503
0.053652082 -0.62649977 0.040175915
0.018495405 -0.61857504 0.040126279
0.039942157 -0.61854732 0.040116224
-0.0001440605 -0.60288233 0.040526897
0.015843228 -0.59514683 0.04097582
0.045524262 -0.59542304 0.040028471
-0.00011709803 -0.58770704 0.040588234
0.021128327 -0.58769423 0.040565845
0.04272199 -0.58766472 0.04053304
0.021088308 -0.57297277 0.040252451
0.023743741 -0.57298231 0.040258683
0.0076576993 -0.56570739 0.040330809
-0.24806622 -0.79801977 0.041123606
-0.18089479 -0.76393503 0.041902866
-0.16476332 -0.76389724 0.041685957
-0.21074122 -0.75356066 0.041408684
-0.15893477 -0.75349534 0.04120804
-0.17292386 -0.7431643 0.041154388
-0.15657063 -0.74316239 0.041057516
-0.14314836 -0.73232669 0.041913062
-0.13769557 -0.73238993 0.041975375
-0.11903679 -0.73285133 0.041054118
-0.12975091 -0.71328068 0.041193243
-0.11082019 -0.71330059 0.041213144
-0.10285676 -0.71319336 0.041087002
-0.097061262 -0.70317656 0.041784547
-0.086444214 -0.70383173 0.041088969
-0.094591916 -0.68507063 0.041417006
-0.059597716 -0.67577213 0.041976448
-0.051490862 -0.67562616 0.041935876
-0.070348978 -0.66768318 0.041028559
-0.062111262 -0.66714138 0.041834209
-0.019225774 -0.66778964 0.041084226
-0.0055328431 -0.66724908 0.041849051
-0.046309587 -0.66694617 0.041723814
-0.065079227 -0.65904212 0.041019019
-0.03255393 -0.65907085 0.041011851
-0.024513341 -0.65910667 0.041008126
-0.021954697 -0.65914923 0.041056786
-0.011253009 -0.65916461 0.041015517
-0.027372317 -0.6505186 0.041194212
-0.0056301053 -0.65055841 0.041210048
0.037578434 -0.65054512 0.041217517
0.04821429 -0.65053779 0.041211262
-0.032438554 -0.64204305 0.041599117
5.8675587e-06 -0.64208567 0.041609131
0.013226047 -0.64213771 0.041649926
0.042846132 -0.64204305 0.041548613
-0.019145351 -0.63414764 0.041345622
-0.016271867 -0.6341235 0.041274279
-0.0056082751 -0.63407671 0.041246749
0.0051475028 -0.63411617 0.041308545
0.018676955 -0.63407123 0.041255247
-7.1259237e-05 -0.62612557 0.041078459
0.0026713165 -0.62614924 0.041100174
0.013146152 -0.62617755 0.041117851
0.031879429 -0.62611949 0.041047484
0.02398386 -0.62573081 0.041965984
0.0077328626 -0.61824685 0.041058719
0.029360764 -0.61822546 0.041059226
0.048213482 -0.61818552 0.041034464
0.027030032 -0.61787605 0.041997794
0.037734739 -0.61781788 0.041950922
0.013176623 -0.61040241 0.041211948
0.034537107 -0.61036402 0.041178335
0.045712207 -0.61033738 0.041183099
0.053844299 -0.61033404 0.041178398
0.0078190602 -0.60257381 0.041462068
0.029447107 -0.602552 0.041462261
0.0028322665 -0.59480894 0.041903753
0.024000917 -0.59478176 0.041864857
0.027033363 -0.59482229 0.041916665
0.034680117 -0.59479851 0.041885372
-0.0029272917 -0.58738387 0.041498285
0.010730809 -0.5874601 0.041576549
0.031989593 -0.58739209 0.041495394
0.037684899 -0.58737659 0.041513458
0.040218949 -0.58735698 0.041505095
-0.0080586728 -0.58007908 0.04131693
-0.005547828 -0.58003074 0.04128696
0.0027405927 -0.58006221 0.041326571
0.005208726 -0.58007026 0.041343838
0.015919765 -0.58007407 0.041328672
0.026943378 -0.58007538 0.041338682
1.0546732e-05 -0.57271016 0.041221354
0.010690841 -0.57277197 0.041271396
0.031948745 -0.5727042 0.041192457
0.023969978 -0.55815202 0.041443288
-0.20225257 -0.7529726 0.042197742
-0.16996263 -0.75288081 0.042064287
-0.16188177 -0.75228167 0.042809542
-0.15364909 -0.75230449 0.042803813
-0.14554021 -0.75225341 0.042800579
-0.12948039 -0.73181188 0.04281437
-0.12130163 -0.73175013 0.042716581
-0.11301318 -0.7317909 0.042755
-0.077937566 -0.70267332 0.042629145
-0.077997908 -0.68456006 0.042253166
-0.043048631 -0.67516923 0.042746603
-0.054167129 -0.6665535 0.042670965
-0.029676702 -0.66675222 0.04275693
-0.013475893 -0.65824103 0.042759255
0.00019544562 -0.65820539 0.042778395
0.0029520793 -0.65822911 0.042800121
0.029627539 -0.6582182 0.042790215
-0.019012483 -0.65019095 0.042196877
0.027033933 -0.65016496 0.042150933
-0.051447574 -0.64983952 0.042045522
-0.037875608 -0.64955407 0.042960625
0.010855712 -0.64172572 0.04255949
0.021411968 -0.64165086 0.042478587
0.040334973 -0.64162272 0.042482551
0.059204496 -0.6416496 0.042499211
0.016022317 -0.63371426 0.042192299
0.027054273 -0.63371485 0.042201217
0.056476209 -0.63366663 0.042204063
0.064703003 -0.6336813 0.042190164
0.021496182 -0.62533182 0.04286867
0.051165983 -0.62571836 0.042004436
0.062272567 -0.62534046 0.042909242
0.0054469015 -0.61749613 0.042917293
0.016161343 -0.6175006 0.042901594
0.056618128 -0.6174534 0.042913873
0.0028596651 -0.61001581 0.042115044
0.02402059 -0.60998839 0.042075232
0.032233052 -0.6096279 0.042982444
0.042963225 -0.60994989 0.042035978
0.0053747394 -0.60223001 0.042418651
0.0189084 -0.60218531 0.042368449
0.037821595 -0.60217708 0.042366546
0.040353343 -0.60215747 0.042358164
0.048462927 -0.60217047 0.042364676
-0.0078044683 -0.5945006 0.042826265
0.013479228 -0.59451139 0.04284988
0.0080120396 -0.58712262 0.042470988
0.018940546 -0.58707595 0.042452291
0.029640172 -0.58710045 0.042470891
0.013392976 -0.57979774 0.042282023
0.034762535 -0.57975906 0.042248964
0.029603459 -0.57244557 0.042176906
0.02711721 -0.56519228 0.042257015
-0.24523424 -0.80735147 0.043982796
-0.25832787 -0.78416413 0.043802071
-0.131824 -0.74144399 0.043536551
-0.029610902 -0.6840933 0.043217055
-0.0026330093 -0.65773767 0.043628626
0.021600056 -0.65773946 0.0436326
0.032309007 -0.6577453 0.043623507
0.040522151 -0.65771139 0.043636978
0.0054373993 -0.64972109 0.043043606
0.016155632 -0.64972615 0.043027498
0.046150863 -0.64923793 0.043893836
0.056606472 -0.64967829 0.043038774
0.011097682 -0.62501574 0.043854009
0.021695115 -0.60926312 0.043909501
0.051359769 -0.60961723 0.043032583
0.019073026 -0.57214564 0.043105584
-0.11026615 -0.73068428 0.044448223
-0.0075622532 -0.66589022 0.044493679
0.019226933 -0.65728503 0.04452372
-0.18830758 -0.76088834 0.045766268
-0.1665093 -0.76083404 0.045554809
-0.10216126 -0.73000467 0.045125876
0.0058353129 -0.66541046 0.04539201
0.013864121 -0.66543007 0.045388091
-0.042166676 -0.69004679 0.047786694
-0.012408516 -0.67207026 0.048885781
-0.1225642 -0.73734802 0.049062699
