# .PCD v0.7 - Point Cloud Data file format
VERSION 0.7
FIELDS x y z
SIZE 4 4 4
TYPE F F F
COUNT 1 1 1
WIDTH 248
HEIGHT 1
VIEWPOINT 0 0 0 1 0 0 0
POINTS 248
DATA ascii
-0.27842191 -0.87420964 0.0020132656
-0.21967752 -0.87434781 0.0021644214
-0.19827457 -0.87426627 0.0020999466
-0.18209967 -0.87430674 0.0020819954
-0.33950537 -0.87352437 0.0025989651
-0.26187718 -0.87335932 0.0023774379
-0.25925329 -0.87336552 0.0023183783
-0.24074267 -0.87256241 0.0028128522
-0.1793735 -0.87288016 0.0034383419
-0.091562025 -0.87288117 0.0033955099
-0.088512592 -0.87284374 0.0033710105
-0.30702272 -0.87224239 0.0041418793
-0.21084206 -0.87158692 0.0049013412
-0.20836285 -0.88522619 0.0057799569
-0.43959269 -0.88297659 0.0076590083
-0.36249566 -0.88299882 0.0076492629
-0.44575647 -0.88235831 0.0084180161
-0.4298254 -0.8816694 0.0091428431
-0.4161534 -0.88158333 0.0090009747
-0.399555 -0.88170874 0.0091436272
-0.37799558 -0.88161641 0.009052854
-0.43784508 -0.88088691 0.0097851623
-0.27418491 -0.8809095 0.0097852834
-0.084732763 -0.88085079 0.0096532665
-0.35902515 -0.88016427 0.010422402
-0.31942108 -0.88017422 0.010418321
-0.29012942 -0.88015699 0.010436544
-0.22636582 -0.8802765 0.010521658
-0.19385716 -0.88025945 0.010692746
-0.17519835 -0.88023627 0.010484776
-0.10858843 -0.88018018 0.010404523
-0.22353086 -0.87957126 0.011217079
-0.35622823 -0.87874979 0.011878467
-0.33505133 -0.8788231 0.011960637
-0.31658041 -0.87878835 0.01184589
-0.30272031 -0.8788482 0.011893609
-0.25520122 -0.87861341 0.011519717
-0.10556909 -0.87872523 0.011693807
-0.4269405 -0.87805963 0.012411021
-0.42524156 -0.87800479 0.012387644
-0.10039148 -0.87802666 0.012431994
-0.44391 -0.87734145 0.013221314
-0.096473262 -0.87170786 0.018803876
-0.44538668 -0.88101345 0.023939854
-0.44430289 -0.88100404 0.023914589
-0.42162642 -0.88166064 0.023100477
-0.41989073 -0.88163733 0.02314828
-0.43953934 -0.88099307 0.023930466
-0.30585578 -0.8804028 0.024694141
-0.21280789 -0.8796525 0.025451964
-0.43018284 -0.87878382 0.025871823
-0.29270247 -0.87871474 0.025772298
-0.40183356 -0.87807548 0.026596176
-0.38046575 -0.87809289 0.026545126
-0.11109714 -0.87818313 0.02668583
-0.22597578 -0.87738585 0.027281912
-0.25741678 -0.87649244 0.027735736
-0.35778207 -0.88428724 0.034476057
-0.23513313 -0.88332844 0.034650307
-0.4252336 -0.88363719 0.035249684
-0.39495939 -0.88367784 0.035248447
-0.20548396 -0.88372451 0.035329189
-0.17378509 -0.88363183 0.035284992
-0.12527461 -0.88364124 0.035134424
-0.25340679 -0.88270265 0.035539404
-0.44484794 -0.88144177 0.037228391
-0.082569428 -0.88140452 0.037232973
-0.33047628 -0.88069344 0.037966497
-0.40644127 -0.87990868 0.03858206
-0.30885935 -0.87995559 0.0385314
-0.29575557 -0.87990707 0.038519628
-0.28250542 -0.87992322 0.038609769
-0.23189569 -0.87898207 0.0387391
-0.43933511 -0.8791678 0.039177354
-0.22129454 -0.87926906 0.039261092
-0.35130349 -0.87842888 0.03990126
-0.34855756 -0.87842578 0.039746288
-0.17002645 -0.87850142 0.039899129
-0.44342324 -0.87777001 0.040578581
-0.16723253 -0.87776351 0.040569693
-0.14339685 -0.87774265 0.040532123
-0.21558014 -0.87707484 0.041327488
-0.18340471 -0.87710178 0.04152998
-0.14067219 -0.87705874 0.041227106
-0.1344796 -0.8748762 0.04323953
-0.36628583 -0.88594669 0.04638201
-0.26212335 -0.88590634 0.046317443
-0.34485373 -0.88437641 0.047682829
-0.30481112 -0.88450229 0.04791658
-0.27827972 -0.88446003 0.047835618
-0.24072585 -0.88344413 0.047891457
-0.42777577 -0.88362986 0.048268203
-0.41545966 -0.8836503 0.048373584
-0.32079092 -0.88382781 0.048578266
-0.29130557 -0.88365924 0.048351318
-0.25941253 -0.88284433 0.048947979
-0.15777296 -0.88294822 0.048964728
-0.31768975 -0.88301754 0.049154364
-0.21138309 -0.88307148 0.049328856
-0.13114128 -0.88301927 0.049141243
-0.44530159 -0.8821342 0.04959188
-0.40202036 -0.88225055 0.049690515
-0.40020886 -0.88293868 0.049037818
-0.39777148 -0.88219857 0.04971876
-0.33911327 -0.88290858 0.049088113
-0.2750856 -0.8829512 0.049113102
-0.19518895 -0.88225055 0.049913965
-0.11206107 -0.88223785 0.049707379
-0.10703622 -0.88230395 0.04980908
-0.088277601 -0.88225955 0.049735144
-0.085901812 -0.88228905 0.049825367
-0.37893862 -0.88147962 0.050472442
-0.28840333 -0.88137901 0.05023681
-0.22485059 -0.88143283 0.050222546
-0.20838144 -0.88158756 0.050600946
-0.17881028 -0.88155431 0.050636467
-0.10437146 -0.88153112 0.050452821
-0.37617224 -0.88072997 0.050984554
-0.28545588 -0.880647 0.050964922
-0.33586806 -0.88074958 0.051058177
-0.31458625 -0.88088328 0.051184151
-0.30119812 -0.88087672 0.051187314
-0.27200776 -0.88072675 0.051032115
-0.20546615 -0.88008326 0.051914554
-0.17335014 -0.88006264 0.051883422
-0.14963175 -0.88000548 0.051709857
-0.12825358 -0.88079929 0.051108148
-0.12236524 -0.88004088 0.051671863
-0.083185032 -0.8807773 0.051119376
-0.22166777 -0.87999678 0.051693853
-0.44404632 -0.87921131 0.052279912
-0.19171745 -0.8771069 0.054576911
-0.25277853 -0.87685812 0.054102454
-0.17517008 -0.87634832 0.05522269
-0.25538683 -0.87542534 0.05546857
-0.43233952 -0.88949943 0.0564356
-0.44124103 -0.88805503 0.057706408
-0.43695307 -0.88728613 0.058358509
-0.43066859 -0.8872031 0.058293227
-0.40749469 -0.88722253 0.058245748
-0.37178695 -0.88734019 0.058325198
-0.35360047 -0.88722241 0.058286477
-0.29749453 -0.88735002 0.058419645
-0.21781436 -0.88656539 0.059014879
-0.32948402 -0.88574189 0.059578139
-0.23082693 -0.88549381 0.059078034
-0.2011828 -0.88587594 0.059759315
-0.22818738 -0.88477784 0.059781317
-0.39043167 -0.88432348 0.060970835
-0.38834995 -0.88423729 0.060995139
-0.35016137 -0.88419795 0.06085733
-0.26520315 -0.88423204 0.060918421
-0.14541368 -0.88422328 0.060864337
-0.14220622 -0.8842206 0.060853336
-0.078387767 -0.86959475 0.060981426
-0.30785099 -0.88347739 0.061535083
-0.2939834 -0.88353682 0.061583884
-0.18220834 -0.88282317 0.062473841
-0.3684293 -0.88121474 0.063464858
-0.44410533 -0.87963295 0.064682528
-0.34692955 -0.87966675 0.064800628
-0.28046468 -0.87890804 0.065393366
-0.24820082 -0.87880599 0.065114073
-0.16835609 -0.87823862 0.066177435
-0.36524025 -0.87746829 0.066756442
-0.29080161 -0.87741894 0.066699758
-0.26077068 -0.87593794 0.067937717
-0.25832656 -0.87590897 0.067883007
-0.098474927 -0.87591624 0.067949764
-0.43414372 -0.87514812 0.068622842
-0.40114459 -0.87515402 0.068700671
-0.38455853 -0.87586522 0.06802389
-0.32517058 -0.87596065 0.068108514
-0.32219541 -0.87525004 0.068754405
-0.27732038 -0.87592351 0.068081185
-0.26680827 -0.87591314 0.068106547
-0.24520673 -0.87501943 0.068316236
-0.19726807 -0.8752408 0.068841264
-0.16508147 -0.87596613 0.068027839
-0.16240549 -0.87595969 0.068027049
-0.13845584 -0.87518513 0.068635389
-0.11201236 -0.87516582 0.068606213
-0.093208723 -0.87511218 0.068522952
-0.24254519 -0.87498909 0.068273127
-0.23960836 -0.87419486 0.068874434
-0.44264755 -0.87429899 0.06912972
-0.21327534 -0.87449253 0.069349349
-0.21063173 -0.87448895 0.06940157
-0.07173872 -0.87439024 0.069213249
-0.1834017 -0.87371022 0.070172846
-0.34315482 -0.87287605 0.070459932
-0.30321819 -0.87293833 0.07058657
-0.090184711 -0.87286562 0.070469014
-0.31930956 -0.87222517 0.071332522
-0.13539301 -0.87221223 0.071242779
-0.13278948 -0.87146938 0.071940608
-0.12944086 -0.8714692 0.071886279
-0.19356316 -0.8699035 0.0733255
-0.36134744 -0.88293606 0.07448861
-0.10770982 -0.86840689 0.074438512
-0.44391263 -0.88141441 0.075827032
-0.43027425 -0.88064575 0.076498091
-0.41225752 -0.88059741 0.076354764
-0.41053355 -0.8805716 0.076402962
-0.39732197 -0.8806591 0.076401845
-0.37971386 -0.8806352 0.076481111
-0.37435591 -0.88062811 0.076524943
-0.3580704 -0.88064927 0.076441072
-0.33980972 -0.88055629 0.076371148
-0.33696952 -0.88058949 0.07635507
-0.29673451 -0.8807655 0.076580711
-0.27323627 -0.88063586 0.076523319
-0.22250424 -0.88056254 0.076091632
-0.42272869 -0.87978804 0.076929972
-0.23296772 -0.87956166 0.076407559
-0.37709293 -0.87981844 0.077270381
-0.28626388 -0.879816 0.077013992
-0.2701624 -0.87984836 0.077116422
-0.19026901 -0.87912071 0.077889957
-0.086239703 -0.87985003 0.077064365
-0.078501895 -0.87913799 0.077778555
-0.067889951 -0.87983924 0.077030644
-0.064759359 -0.87985307 0.077068947
-0.25437513 -0.87898004 0.077584349
-0.43946987 -0.87829471 0.078253485
-0.43579409 -0.87836432 0.078409187
-0.43129525 -0.8782922 0.078377008
-0.39505985 -0.87830675 0.078307047
-0.29943401 -0.87837589 0.078502566
-0.28348908 -0.87823558 0.078187786
-0.25140095 -0.87822688 0.078147113
-0.17688948 -0.87840861 0.078657985
-0.15802468 -0.87834805 0.078329422
-0.15262964 -0.87831742 0.078234442
-0.10460271 -0.87839168 0.078426257
-0.44287813 -0.87756932 0.078992821
-0.33385611 -0.87750864 0.07899034
-0.15545936 -0.87755597 0.078940772
-0.083133817 -0.87760228 0.078977689
-0.2061155 -0.87766266 0.079227969
-0.17379032 -0.87763208 0.079220459
-0.35486993 -0.87679231 0.07951811
-0.21969277 -0.87675452 0.079435222
-0.31519121 -0.87614775 0.080404155
-0.061866596 -0.87522286 0.080868684
-0.23489796 -0.87425017 0.080988079
-0.057052698 -0.87577379 0.092330135
-0.054582849 -0.87574488 0.092326298
