# .PCD v0.7 - Point Cloud Data file format
VERSION 0.7
FIELDS x y z
SIZE 4 4 4
TYPE F F F
COUNT 1 1 1
WIDTH 437
HEIGHT 1
VIEWPOINT 0 0 0 1 0 0 0
POINTS 437
DATA ascii
-0.25244623 -0.75966805 0.0029388615
-0.36114934 -0.65150583 0.0025440759
-0.1541688 -0.83157414 0.0034304233
-0.15174825 -0.83158106 0.0034588121
-0.22622968 -0.78243202 0.0035093699
-0.33726302 -0.66936123 0.0031514172
-0.18315206 -0.83103162 0.0044460078
-0.19627282 -0.81776804 0.0049914545
-0.21003823 -0.8059231 0.0042259074
-0.24165729 -0.76935339 0.0047834478
-0.27599135 -0.7371732 0.0047804513
-0.31045911 -0.69729716 0.0041402094
-0.33959952 -0.66887254 0.0040034289
-0.30215934 -0.70614052 0.0056645577
-0.31303692 -0.69676936 0.0050282096
-0.34221688 -0.6680398 0.005827209
-0.16438442 -0.84231073 0.0062090121
-0.16660464 -0.84166467 0.0069288178
-0.22839224 -0.7799834 0.0066264784
-0.29144099 -0.72548419 0.0067993538
-0.25389639 -0.7563014 0.0078155966
-0.26473179 -0.74554443 0.0077993604
-0.34444556 -0.66716629 0.0075566187
-0.16920108 -0.84033585 0.008454903
-0.18543066 -0.82773912 0.0081984429
-0.19855285 -0.81456393 0.0087467898
-0.36247993 -0.64865935 0.0088073611
-0.17150223 -0.83900511 0.0099525265
-0.32543069 -0.68462956 0.0097271539
-0.2115839 -0.80088246 0.010333835
-0.31468469 -0.69382596 0.010135801
-0.21385734 -0.79967773 0.011880993
-0.26626098 -0.7427898 0.01186534
-0.18717647 -0.82381237 0.012675142
-0.20013094 -0.81073183 0.013214895
-0.22974345 -0.78602535 0.013659232
-0.27990496 -0.73119485 0.013931241
-0.3277508 -0.68278021 0.013238914
-0.36453983 -0.6467213 0.013366529
-0.24210389 -0.77308643 0.014788796
-0.34566948 -0.66369653 0.014659553
-0.30325696 -0.70991951 0.01588132
-0.31660134 -0.69091064 0.015243089
-0.18899024 -0.82058054 0.016393298
-0.20250383 -0.80809534 0.016237812
-0.21578239 -0.79587424 0.016470356
-0.32980317 -0.68083757 0.016687164
-0.38005987 -0.62828207 0.016324015
-0.23207915 -0.78290647 0.017460246
-0.25548443 -0.76066387 0.017023522
-0.29244113 -0.71851176 0.017525408
-0.24455404 -0.77007967 0.018837797
-0.28175533 -0.72849369 0.018054264
-0.3476581 -0.66190636 0.0181947
-0.36641499 -0.6442014 0.018729083
-0.13823099 -0.81724322 0.019926915
-0.30531788 -0.70787048 0.019292705
-0.33173251 -0.67945564 0.019239681
-0.17267011 -0.84284711 0.0201176
-0.29457149 -0.71692675 0.020048033
-0.35005304 -0.66059983 0.020810053
-0.38172761 -0.62640995 0.020870389
-0.1057963 -0.85474807 0.021692904
-0.25724038 -0.75710452 0.02174966
-0.26782289 -0.74664444 0.021708632
-0.22029789 -0.79076195 0.022474004
-0.23361884 -0.778494 0.022703145
-0.36828908 -0.64257777 0.022269847
-0.38389453 -0.62567216 0.022692299
-0.10807194 -0.85342032 0.023198573
-0.17462896 -0.84012586 0.023019271
-0.24625261 -0.76653403 0.023613436
-0.35235569 -0.65928358 0.02354393
-0.19040802 -0.82635969 0.024100663
-0.23555717 -0.77662534 0.024953615
-0.28306705 -0.7241444 0.024672529
-0.31758153 -0.69507432 0.024317803
-0.20339659 -0.81195593 0.025964763
-0.21659464 -0.80045205 0.025246199
-0.26970452 -0.74378967 0.025777666
-0.29613814 -0.71320212 0.025899338
-0.30662006 -0.7037468 0.025999697
-0.33336335 -0.67612267 0.02532954
-0.35464016 -0.65836185 0.025235424
-0.17655639 -0.83677971 0.026700579
-0.25882149 -0.75362295 0.026552027
-0.24810822 -0.76352644 0.027600998
-0.28516006 -0.72250646 0.027120216
-0.17898159 -0.83540094 0.028200893
-0.19215049 -0.82231945 0.028464286
-0.20569186 -0.80939245 0.028947365
-0.22447397 -0.79715723 0.028883444
-0.23742402 -0.77350295 0.028812703
-0.26115334 -0.75243211 0.028171329
-0.31146079 -0.70212471 0.028497752
-0.31937215 -0.69265884 0.028689686
-0.33524209 -0.67419571 0.028774302
-0.36963698 -0.6397621 0.028626077
-0.27158761 -0.74091864 0.029834062
-0.22148386 -0.79591316 0.030420745
-0.23936944 -0.77226245 0.030296475
-0.24985318 -0.76119262 0.030783026
-0.27377948 -0.74036586 0.030603403
-0.30860552 -0.70112741 0.030247478
-0.35622153 -0.65576053 0.030571774
-0.10946607 -0.85906214 0.031392876
-0.1814089 -0.83266002 0.031118209
-0.19458137 -0.81965339 0.031374969
-0.13859181 -0.81964862 0.03118884
-0.14122489 -0.81894183 0.03189319
-0.2976352 -0.78322721 0.03163385
-0.37168163 -0.638542 0.031296972
-0.15427573 -0.83124924 0.032291576
-0.13044441 -0.83130729 0.032386273
-0.21293864 -0.80613273 0.032663774
-0.20765911 -0.80610651 0.032648604
-0.28421509 -0.79394543 0.032709856
-0.37972212 -0.69953209 0.032634377
-0.32149166 -0.69063073 0.032141451
-0.33756548 -0.67236066 0.032307722
-0.17532735 -0.91601604 0.033897314
-0.14885421 -0.88501555 0.033731457
-0.16731207 -0.84298414 0.033800915
-0.14091037 -0.84299338 0.033784911
-0.15127122 -0.82987022 0.033679541
-0.28680643 -0.793262 0.033436436
-0.28155869 -0.79330659 0.033499029
-0.27907509 -0.7932992 0.033485349
-0.22626947 -0.7932502 0.033355042
-0.297234 -0.71816629 0.033705872
-0.17799118 -0.88511825 0.034026593
-0.17518462 -0.88440287 0.034634244
-0.16459227 -0.86947542 0.034796659
-0.1379641 -0.86952949 0.034841727
-0.15109086 -0.85544991 0.034731012
-0.14871801 -0.82915896 0.034409143
-0.20993789 -0.80484724 0.034151744
-0.23868281 -0.80381811 0.034205347
-0.24692486 -0.78048265 0.034393735
-0.30272323 -0.75897765 0.034267753
-0.26227158 -0.74777281 0.03452814
-0.27625322 -0.73748821 0.03474069
-0.33979657 -0.67142695 0.034004815
-0.17008996 -0.9144364 0.035075847
-0.14622159 -0.88355869 0.035106223
-0.17238382 -0.88287681 0.035889912
-0.19385536 -0.86881405 0.035725676
-0.13551162 -0.86880517 0.035561521
-0.16450512 -0.84158784 0.035184108
-0.16164601 -0.84157985 0.035121173
-0.22890398 -0.84081507 0.03575521
-0.1221095 -0.84089744 0.035858929
-0.21247692 -0.82861614 0.035380561
-0.18317568 -0.82857692 0.035456873
-0.25487018 -0.81542116 0.035334524
-0.2314299 -0.81540054 0.035198048
-0.19908564 -0.81559998 0.035712603
-0.19617386 -0.81566435 0.035706326
-0.23364513 -0.81471115 0.03585073
-0.26803395 -0.8033976 0.035442762
-0.29981029 -0.7914201 0.035750259
-0.27625322 -0.79199052 0.035005182
-0.25725764 -0.79124618 0.035505719
-0.23630257 -0.79111475 0.035247315
-0.23374127 -0.79116005 0.035268437
-0.29688409 -0.72669917 0.035725296
-0.28635478 -0.72664183 0.03571678
-0.19085166 -0.89788193 0.036140416
-0.18833795 -0.89790529 0.036171246
-0.19078252 -0.86808294 0.036426175
-0.16135696 -0.86730975 0.036782663
-0.18048704 -0.85409594 0.036453456
-0.19611108 -0.84097785 0.036066875
-0.19363819 -0.84025621 0.036838017
-0.11908162 -0.84014577 0.03654458
-0.20947628 -0.82727933 0.036822014
-0.1459206 -0.82711935 0.036598366
-0.14291948 -0.82715583 0.036633521
-0.24140708 -0.82622415 0.036965828
-0.25203627 -0.81411517 0.036863875
-0.22881433 -0.81483281 0.036129363
-0.2256511 -0.8142035 0.036940511
-0.265331 -0.80272996 0.036151897
-0.2146413 -0.80285197 0.036330957
-0.25967389 -0.80197436 0.036798552
-0.24397606 -0.80191326 0.036614869
-0.25470319 -0.79055876 0.036236633
-0.22876236 -0.79063934 0.036293369
-0.23112513 -0.78989601 0.036855459
-0.24396445 -0.77859563 0.036634888
-0.25977451 -0.76807928 0.036080513
-0.25715414 -0.76809531 0.036054067
-0.29164186 -0.76749229 0.036899582
-0.28907251 -0.76748687 0.036876068
-0.27851093 -0.75711167 0.036586475
-0.31539291 -0.74606371 0.036984831
-0.29968515 -0.71656114 0.036224511
-0.18530573 -0.89645046 0.037473768
-0.16130045 -0.89634204 0.037118409
-0.15885675 -0.8955754 0.037792254
-0.20144144 -0.88141626 0.037345748
-0.15889867 -0.86656725 0.037480377
-0.20690829 -0.85341191 0.037072092
-0.17730571 -0.85269392 0.037808448
-0.14817734 -0.85259241 0.037526112
-0.12680934 -0.85269082 0.037635092
-0.11376926 -0.85262787 0.037623782
-0.22561331 -0.83946556 0.037251875
-0.15892461 -0.83947325 0.037259083
-0.13751368 -0.83955795 0.037354507
-0.20681334 -0.82654393 0.037524309
-0.22292328 -0.81358415 0.037727222
-0.22019519 -0.81362623 0.037755795
-0.26174858 -0.80136144 0.037516516
-0.25185257 -0.78930521 0.037806701
-0.2725417 -0.77815688 0.037690975
-0.27022913 -0.77813542 0.037734352
-0.26762328 -0.77813911 0.037709113
-0.30732411 -0.76700121 0.037866179
-0.30472699 -0.76766217 0.037058622
-0.25186446 -0.76685178 0.037641052
-0.3179245 -0.74614877 0.037100315
-0.30454502 -0.73527443 0.03794954
-0.28073519 -0.73522401 0.037971377
-0.29155377 -0.72544742 0.037235212
-0.30468923 -0.71602494 0.03703925
-0.30219591 -0.71602702 0.0370862
-0.30982995 -0.71540356 0.037830114
-0.33370361 -0.70581824 0.037659045
-0.32618681 -0.68759465 0.037261803
-0.35741165 -0.65225607 0.037617277
-0.18262108 -0.89491451 0.038788017
-0.15609097 -0.89485925 0.038445681
-0.15322734 -0.89486027 0.038483124
-0.19872414 -0.88069415 0.038024575
-0.16945603 -0.87994522 0.038555603
-0.18790628 -0.86594778 0.038507022
-0.15613247 -0.86587477 0.038159579
-0.20404343 -0.85200334 0.038480602
-0.14552478 -0.85118419 0.038948528
-0.11110792 -0.85197198 0.038378913
-0.22002678 -0.83816862 0.038752604
-0.19031379 -0.83816028 0.03897905
-0.13492455 -0.83816385 0.038806003
-0.20406531 -0.82586718 0.038259555
-0.13227846 -0.82586837 0.038156033
-0.24365811 -0.82492471 0.038461514
-0.2411982 -0.80053788 0.038046632
-0.31256199 -0.76634949 0.038506348
-0.28588387 -0.76633632 0.038570851
-0.25432044 -0.7662046 0.03836029
-0.27233285 -0.75529438 0.038847268
-0.32037517 -0.74494237 0.038732246
-0.30190808 -0.73470289 0.038804609
-0.33911535 -0.72495335 0.03813592
-0.33363661 -0.72490513 0.038123541
-0.29401207 -0.72487229 0.038056377
-0.28883868 -0.72488415 0.038033172
-0.36793223 -0.71486932 0.038624864
-0.3071287 -0.71489096 0.0387192
-0.36299604 -0.70533693 0.0385026
-0.35729933 -0.70532745 0.038468249
-0.34697706 -0.7053442 0.038481496
-0.3283478 -0.70538598 0.038523007
-0.36786628 -0.68661189 0.038890533
-0.36541504 -0.68658167 0.038827848
-0.33347303 -0.68652582 0.038880762
-0.34150082 -0.66911566 0.03837467
-0.37350893 -0.6353128 0.038586561
-0.17999092 -0.89416116 0.039427713
-0.19553131 -0.87929696 0.039357595
-0.14238429 -0.87847638 0.039847054
-0.18499936 -0.86525947 0.039177176
-0.15301947 -0.86443716 0.039562672
-0.20110174 -0.85123485 0.039164953
-0.12425857 -0.85125452 0.039003078
-0.17425509 -0.85058808 0.039836004
-0.16922866 -0.85051972 0.039732724
-0.18779886 -0.83818376 0.03900652
-0.15590808 -0.83741611 0.039380144
-0.23771164 -0.82349896 0.039718457
-0.26999658 -0.81221169 0.039207809
-0.24829234 -0.81144726 0.039686982
-0.24602044 -0.81137389 0.039652888
-0.21723004 -0.81158143 0.039984956
-0.24823987 -0.78738487 0.039969623
-0.26463887 -0.77623951 0.039970752
-0.24089862 -0.77601612 0.039641678
-0.30960155 -0.76573819 0.039349429
-0.32816559 -0.75470787 0.039664581
-0.27797249 -0.73406911 0.039573271
-0.32030776 -0.72445089 0.03902657
-0.32309371 -0.723921 0.039877161
-0.36535111 -0.70481485 0.039277069
-0.35472339 -0.70479643 0.039347015
-0.35221198 -0.70476687 0.039317302
-0.34960809 -0.70481068 0.039404742
-0.32582259 -0.70482719 0.039417271
-0.32315531 -0.70489222 0.039448295
-0.37022662 -0.68611199 0.039707564
-0.35463557 -0.68606329 0.039749898
-0.33626631 -0.68606848 0.039791055
-0.33082995 -0.68607461 0.039767452
-0.37854627 -0.66862178 0.039166696
-0.343961 -0.66860873 0.039238293
-0.35995403 -0.65147144 0.039449491
-0.16622423 -0.90840513 0.04023153
-0.16355459 -0.90764356 0.040842544
-0.17156805 -0.84981883 0.040449835
-0.14227469 -0.84980655 0.040378176
-0.22251132 -0.83673662 0.040140901
-0.23539571 -0.82282537 0.040517669
-0.26120132 -0.77555412 0.040620524
-0.28036562 -0.76514912 0.040184483
-0.26973003 -0.75406945 0.040460125
-0.31224665 -0.74373412 0.040219296
-0.29091069 -0.74305815 0.040962134
-0.28834066 -0.7430535 0.040941302
-0.28556556 -0.74372113 0.040281788
-0.28285161 -0.74376118 0.040310811
-0.29896522 -0.73354506 0.0403805
-0.31729254 -0.72336239 0.040620461
-0.3147563 -0.72327852 0.040508274
-0.3387394 -0.7042768 0.040177405
-0.33076885 -0.70427728 0.040199179
-0.32007656 -0.7043336 0.040249649
-0.31735319 -0.70436257 0.040210087
-0.31223214 -0.70430022 0.040146355
-0.31466576 -0.70374954 0.040936023
-0.35976878 -0.68565798 0.040629145
-0.35691753 -0.68556494 0.040562078
-0.35197106 -0.68553442 0.040574666
-0.34937003 -0.68557775 0.040658712
-0.34659499 -0.68558139 0.040574547
-0.34373185 -0.68557155 0.040616222
-0.32797039 -0.68562299 0.040616311
-0.3759234 -0.66814983 0.040054068
-0.3700037 -0.66771013 0.040922686
-0.36748937 -0.66770977 0.040955655
-0.38662621 -0.63441283 0.04036596
-0.37584773 -0.6344462 0.040293146
-0.20344827 -0.89121819 0.041998487
-0.14998314 -0.89187342 0.041058265
-0.16602917 -0.87702602 0.041228451
-0.13951081 -0.87630349 0.041883301
-0.21148585 -0.86309117 0.041147262
-0.1317839 -0.86307299 0.041034486
-0.18205822 -0.86233246 0.041909862
-0.12882487 -0.86233622 0.041712537
-0.19813424 -0.849123 0.041260738
-0.23268361 -0.84819937 0.041345574
-0.23034418 -0.84821862 0.041426234
-0.1846505 -0.83612978 0.041118607
-0.21696135 -0.83535177 0.04162002
-0.21370664 -0.83542675 0.041695394
-0.24562407 -0.83445072 0.041990157
-0.20073673 -0.82307792 0.041129377
-0.25621101 -0.82227486 0.041500688
-0.28261772 -0.76391405 0.041703522
-0.2959252 -0.75352341 0.041267093
-0.30913949 -0.74256289 0.041877713
-0.34353441 -0.73229897 0.041931923
-0.32775897 -0.73235196 0.04192863
-0.32539296 -0.73232168 0.041990802
-0.31203002 -0.72274035 0.041371133
-0.3408989 -0.71268868 0.041952085
-0.3757655 -0.69437903 0.04109323
-0.37311238 -0.69443387 0.04119724
-0.36245942 -0.68507475 0.041446239
-0.34096587 -0.68510967 0.041475181
-0.33849871 -0.68507397 0.041452546
-0.39119956 -0.67582548 0.041894555
-0.38055575 -0.67588329 0.04191342
-0.37311566 -0.66773444 0.041022498
-0.36488202 -0.66721022 0.041764174
-0.35425147 -0.66719168 0.041832581
-0.34929007 -0.66767579 0.04101729
-0.37818316 -0.65052283 0.041136991
-0.36247146 -0.65051413 0.041184012
-0.39640263 -0.64208937 0.041630276
-0.37816113 -0.63404113 0.041174281
-0.29332837 -0.77426511 0.04222098
-0.27491093 -0.76327175 0.042509399
-0.32539243 -0.75287157 0.042088754
-0.29853705 -0.75234634 0.042879447
-0.29321992 -0.75216973 0.04271673
-0.26685372 -0.75286967 0.042009603
-0.26412821 -0.75225598 0.042761337
-0.30644599 -0.74200666 0.04274068
-0.34625369 -0.73173642 0.042694435
-0.33034244 -0.73172826 0.042743847
-0.34337249 -0.71210521 0.042771813
-0.39857447 -0.67539865 0.042854693
-0.39337191 -0.67546439 0.042886823
-0.38861108 -0.67529762 0.042789001
-0.38622373 -0.67534995 0.042871471
-0.38375601 -0.67589527 0.042137377
-0.3622224 -0.66673458 0.042692561
-0.35938761 -0.66681641 0.042728383
-0.35653424 -0.66672438 0.042664163
-0.35158154 -0.66669399 0.042675585
-0.34621125 -0.66674054 0.042675909
-0.41382897 -0.65817493 0.042748548
-0.41191453 -0.65813547 0.042701282
-0.39857924 -0.65817559 0.042758476
-0.39337957 -0.6582405 0.042789698
-0.38622442 -0.65812719 0.042776607
-0.37290102 -0.65013576 0.042135935
-0.36979771 -0.65011179 0.042040374
-0.36482331 -0.6500811 0.042011078
-0.37539998 -0.64964414 0.042925447
-0.38367674 -0.63365883 0.042278439
-0.38049099 -0.63364691 0.042068873
-0.17105466 -0.90463191 0.043496396
-0.20836487 -0.86096102 0.04319961
-0.32244116 -0.75173467 0.043694589
-0.34062815 -0.7311914 0.043551743
-0.33565226 -0.73115033 0.043578718
-0.33562148 -0.71155834 0.043628726
-0.40978122 -0.65764767 0.043620698
-0.40759295 -0.65765792 0.043607023
-0.40279338 -0.65774101 0.043624531
-0.39605814 -0.65775484 0.043677401
-0.39089307 -0.65766352 0.043539632
-0.38845772 -0.65762091 0.043572869
-0.36696783 -0.64923441 0.043840922
-0.39326143 -0.64127463 0.043405134
-0.3591139 -0.71110356 0.044438284
-0.40527159 -0.65724891 0.04453624
-0.40060604 -0.65719908 0.04451666
-0.3832899 -0.65727901 0.044652767
-0.3800959 -0.65726763 0.04443511
-0.39076519 -0.64072949 0.044173349
-0.38817334 -0.64026511 0.04509934
-0.34832516 -0.72886407 0.046821453
-0.37967759 -0.69079012 0.046975702
-0.39560476 -0.67349231 0.046342421
