# .PCD v0.7 - Point Cloud Data file format
VERSION 0.7
FIELDS x y z
SIZE 4 4 4
TYPE F F F
COUNT 1 1 1
WIDTH 1419
HEIGHT 1
VIEWPOINT 0 0 0 1 0 0 0
POINTS 1419
DATA ascii
0.0011574135 -4.5916982 -0.97766548
0.056991886 -8.287755 -0.66029507
0.10514536 -8.2865591 -0.38705447
0.15325697 -8.2586174 -0.11405232
0.21695103 -10.665096 0.24753016
0.3435843 -10.985196 0.96607172
0.40648404 -10.90773 1.3229645
0.43717164 -10.839464 1.4971275
0.4996736 -10.785167 1.8517871
0.56638932 -10.870048 2.2303636
0.56045759 -4.9204383 2.1969697
0.59375781 -4.9388928 2.3859913
0.73616171 -6.2309484 3.1940522
0.73518682 -5.7433805 3.1886024
0.75767016 -5.5503497 3.3162537
0.74957168 -4.9140863 3.2704377
0.76885384 -4.7498417 3.3799322
0.76294887 -4.4012494 3.3465223
0.75731695 -4.0877428 3.3146632
0.73420125 -3.686456 3.1836069
0.76005191 -3.6276078 3.3303757
0.76211262 -3.3242629 3.3422167
0.75603271 -3.0992882 3.3078208
0.75399852 -2.9099526 3.2963803
0.75359416 -2.7395213 3.2941878
0.75358564 -2.5799508 3.2942419
0.73112351 -2.3410223 3.1668983
0.75485462 -2.2882023 3.3016477
0.74665171 -2.1220708 3.255209
0.74695009 -1.9279584 3.2570579
0.74512738 -1.7987326 3.2468202
0.74060279 -1.6677549 3.2212524
0.73997408 -1.5510056 3.2177896
0.74018228 -1.4392473 3.2190759
0.73698831 -1.3240621 3.2010581
0.74126077 -1.1711203 3.2254574
0.74354136 -1.0692879 3.2385025
0.70331419 -0.92486089 3.0103571
0.74312133 -0.86307442 3.2363298
0.73487556 -0.75685328 3.1896482
0.73115402 -0.65652937 3.168637
0.72855216 -0.55840558 3.1539788
0.72448754 -0.46155915 3.1310208
0.30437654 -0.43278196 0.74749446
0.28915125 -0.41891518 0.66134501
0.28799242 -0.40284538 0.65496278
0.28721088 -0.39087826 0.65067303
0.28698194 -0.38685003 0.64942229
0.28739727 -0.38154218 0.65182716
0.28787631 -0.36648145 0.65469027
0.28976181 -0.34667867 0.66553414
0.28933176 -0.3372373 0.66319036
0.28811833 -0.32463059 0.65644956
0.28753984 -0.32102519 0.65321517
0.28675711 -0.306734 0.64891821
0.28651753 -0.28951102 0.64770323
0.28691751 -0.27472168 0.65006918
0.28718486 -0.25956339 0.65168238
0.28701654 -0.23794927 0.65087146
0.28971925 -0.2055435 0.66630375
0.54057586 1.705456 2.090064
0.51572764 1.6717997 1.949157
0.49563804 1.6648993 1.8352523
0.47789967 1.6704075 1.7346884
0.45348158 1.688225 1.5962653
0.43779692 1.699989 1.5073534
0.42134479 1.6972289 1.4140859
0.40685827 1.7135535 1.3319712
0.3769024 1.4942453 1.1620808
0.36462185 1.5135802 1.092483
0.35241857 1.533241 1.0233229
0.33387908 1.5566005 0.9182505
0.3212617 1.5641265 0.84673923
0.30838883 1.5601902 0.77377772
0.2956554 1.5535727 0.70160711
0.28331396 1.5572536 0.63165975
0.27090329 1.5514555 0.56131911
0.25874129 1.5651332 0.49238771
0.24032073 1.5570568 0.38798329
0.22806492 1.5565914 0.31851849
0.2156865 1.5616295 0.24835636
0.2033518 1.5581867 0.17844231
0.19088589 1.557187 0.1077825
0.1778504 1.5693355 0.033887994
0.1769335 1.2707784 0.028801164
0.16211304 1.3494556 -0.055231303
0.14929575 1.2588025 -0.12783508
0.17306852 0.76373965 0.0071848575
0.16500627 0.69732523 -0.038431335
0.16042055 0.64921546 -0.064363107
0.14916646 0.68520236 -0.12815239
0.14682588 0.61553663 -0.14133959
0.13210644 0.67715985 -0.22480205
0.17027824 0.18665436 -0.0079061678
0.17005356 0.14187358 -0.0090845395
0.17027427 0.097834662 -0.0077347527
0.17015031 0.060023267 -0.0083419895
0.17003964 0.025106858 -0.0088739945
0.17049664 -0.010626827 -0.0061836089
0.17029122 -0.039995272 -0.0072538694
0.17021742 -0.068204112 -0.0075770668
0.17025705 -0.095263936 -0.007256527
0.17025566 -0.12057638 -0.0071689389
0.1693695 -0.1524954 -0.012056588
0.17016278 -0.16695817 -0.0075056162
0.16920196 -0.19589345 -0.012817378
0.16959566 -0.2177937 -0.010487239
0.16954039 -0.23738165 -0.010706003
0.16962762 -0.25668305 -0.010115845
0.16969413 -0.27527413 -0.0096433377
0.16972934 -0.29321989 -0.0093485778
0.16972363 -0.31058919 -0.0092860898
0.16983432 -0.32774654 -0.008562929
0.16989124 -0.34440771 -0.0081449598
0.16958481 -0.36830044 -0.009742395
0.16956209 -0.3842057 -0.0097766565
0.16946672 -0.39985994 -0.010223315
0.16946766 -0.4154512 -0.010123263
0.16956404 -0.43095988 -0.009481431
0.16958149 -0.4463318 -0.0092875743
0.16951862 -0.4616527 -0.0095497454
0.16937518 -0.47700849 -0.010269369
0.16942161 -0.50008833 -0.0098636271
0.16951209 -0.5155189 -0.0092552351
0.16935408 -0.53126597 -0.010057493
0.16912436 -0.54732597 -0.011266843
0.16916607 -0.56333053 -0.010935253
0.16880634 -0.58019191 -0.012882648
0.16913809 -0.60472751 -0.010856883
0.16889328 -0.62240219 -0.012151823
0.16860996 -0.64071476 -0.013665343
0.16845658 -0.65932685 -0.014441056
0.16828053 -0.67864656 -0.01534548
0.16866267 -0.70696634 -0.013033168
0.16854247 -0.72792739 -0.013620324
0.16829357 -0.75031149 -0.01493807
0.16822432 -0.77310479 -0.015235747
0.16764669 -0.79927123 -0.018419567
0.16840161 -0.83382672 -0.013990046
0.16823578 -0.8617928 -0.014835623
0.16794346 -0.89234102 -0.016399138
0.16768943 -0.92490774 -0.017745122
0.16856247 -0.97032684 -0.012643694
-0.0081736306 -2.3316681 -1.0158914
-0.0037092706 -2.5112357 -0.99039423
-0.0037315013 -2.6716144 -0.99041766
-0.0058521358 -2.8703587 -1.0023526
-0.0056827925 -3.0707097 -1.0012845
-0.0080220187 -3.3263061 -1.0144553
-0.00039137402 -3.6408558 -0.97096527
-0.00024695465 -3.9627643 -0.97002691
0.0019763289 -4.3125777 -0.95728129
-0.0041690725 -4.8841329 -0.99203509
0.078136869 -8.2948627 -0.52384776
0.12755451 -8.1971207 -0.24314305
0.36973795 -10.760421 1.1328181
0.46516719 -10.808826 1.6747872
0.53043896 -10.859889 2.045532
0.56817287 -4.8550706 2.2597919
0.72743559 -6.430388 3.1643763
0.73357552 -5.9937043 3.1992683
0.74144363 -5.6286974 3.2439797
0.75346953 -5.3438668 3.3123069
0.77602804 -5.0037346 3.4404671
0.75833315 -4.5380826 3.3400116
0.75588381 -4.2344441 3.3261397
0.72120875 -3.7363024 3.1292653
0.75129056 -3.7060249 3.3001373
0.75217694 -3.4920349 3.3052142
0.75601548 -3.2112758 3.3270788
0.75113261 -3.0004106 3.2993972
0.74960268 -2.8195281 3.2907569
0.75233817 -2.6677201 3.3063376
0.74306691 -2.4741509 3.2537405
0.7453351 -2.3366647 3.2666695
0.74774742 -2.2048779 3.2804167
0.74099308 -2.04826 3.2421143
0.74207371 -1.8607616 3.2483258
0.74135697 -1.7370093 3.244307
0.7362209 -1.6070337 3.2151961
0.73583674 -1.4926796 3.2130663
0.73467577 -1.3798898 3.206526
0.73525769 -1.2729697 3.2098818
0.73872501 -1.1194774 3.2296455
0.73115873 -1.0070224 3.1867387
0.70006013 -0.87762487 3.0102274
0.72140229 -0.79920596 3.1314504
0.73178625 -0.70737195 3.1904566
0.72742426 -0.60747367 3.1657438
0.72262681 -0.50964558 3.1385586
0.300634 -0.42742726 0.74305868
0.28860864 -0.41646242 0.67494678
0.28675526 -0.41390914 0.66446447
0.28541231 -0.40672377 0.65691918
0.28487328 -0.39871904 0.65393782
0.28433612 -0.39518365 0.65092778
0.28389537 -0.37815973 0.64858282
0.2839953 -0.36871034 0.64922851
0.28529644 -0.35586119 0.65669268
0.28642303 -0.33721936 0.66320479
0.28578186 -0.32829037 0.65964335
0.28463784 -0.32100797 0.65322757
0.28418437 -0.31129321 0.65073144
0.28437281 -0.29871798 0.65187889
0.28377458 -0.28245652 0.64859992
0.28424662 -0.26684946 0.65135682
0.28405181 -0.24610287 0.6503669
0.2844263 -0.22826923 0.65256941
0.55054098 1.7206414 2.1630456
0.52512056 1.6891369 2.0188239
0.50335586 1.6739373 1.8953521
0.48458517 1.6744988 1.7888743
0.46577278 1.6667484 1.6821623
0.44270343 1.6936736 1.5513182
0.42678124 1.699996 1.4610119
0.41109833 1.7034971 1.3720655
0.38181379 1.5068026 1.2059522
0.36819527 1.5079855 1.1287265
0.35623425 1.5327538 1.0609056
0.34355029 1.543579 0.98898464
0.32471713 1.5592288 0.88219893
0.31155634 1.5487568 0.80757743
0.2980783 1.5157356 0.73116052
0.28675699 1.5582142 0.66697156
0.27442569 1.5616533 0.59705824
0.26209593 1.561605 0.52715498
0.24983151 1.5680717 0.45762238
0.23143069 1.55715 0.35330504
0.21907841 1.5634352 0.28327575
0.20674366 1.5612378 0.21334842
0.19416426 1.5664494 0.14203204
0.1815673 1.5660995 0.070617825
0.16866218 1.569993 -0.0025453467
0.16939297 1.2528934 0.0017479191
0.15507329 1.3167155 -0.079454109
0.1243984 1.532481 -0.25346756
0.16766149 0.73930907 -0.0077279299
0.1600215 0.67152399 -0.050949782
0.14637755 0.73833483 -0.1283145
0.14718664 0.62719369 -0.12361623
0.13373996 0.6788888 -0.19985694
0.1681343 0.15766343 -0.0043015857
0.1673377 0.11979154 -0.008731124
0.16766882 0.076947421 -0.0067595234
0.16728343 0.042531569 -0.0088559249
0.16686425 0.01084046 -0.011144586
0.16734652 -0.023914609 -0.0083167367
0.16751815 -0.054460347 -0.0072526401
0.16717817 -0.080442734 -0.0090928338
0.16732772 -0.10730529 -0.0081547545
0.16756845 -0.13302134 -0.0066994918
0.16745675 -0.15589577 -0.0072447015
0.16752769 -0.17839937 -0.0067535029
0.16668893 -0.20711108 -0.011381334
0.1674397 -0.21969098 -0.0070763105
0.16672669 -0.24680853 -0.010990809
0.16688351 -0.26596972 -0.010012833
0.1668558 -0.28404617 -0.01008223
0.16695277 -0.30188596 -0.0094440877
0.16717155 -0.31946123 -0.0081148632
0.1671754 -0.33619371 -0.0080053741
0.16695164 -0.35225964 -0.0091874953
0.16699916 -0.36846355 -0.0088302586
0.16697851 -0.38433421 -0.008859925
0.16688496 -0.3999536 -0.0093032205
0.1667517 -0.42317107 -0.0099279825
0.16672307 -0.43857858 -0.010002836
0.16678798 -0.45394447 -0.0095469132
0.16659884 -0.46928474 -0.010532469
0.16667627 -0.48463318 -0.010005528
0.16650076 -0.50012785 -0.010913572
0.16642047 -0.51571465 -0.011281323
0.16648053 -0.53922486 -0.010808719
0.16630246 -0.55537194 -0.011731057
0.1660593 -0.57191974 -0.013022527
0.16609119 -0.58839619 -0.012753318
0.16589975 -0.60560453 -0.013751036
0.16615531 -0.63111019 -0.012168413
0.16609453 -0.64915276 -0.012424492
0.16568829 -0.6686843 -0.014640138
0.16511779 -0.68950415 -0.017787453
0.16516334 -0.70933825 -0.017439594
0.16558252 -0.73927784 -0.014926977
0.16542472 -0.76188636 -0.015732078
0.16516817 -0.78605682 -0.017096866
0.16483921 -0.81191033 -0.018871972
0.16600792 -0.84539318 -0.01210567
0.16569702 -0.87488925 -0.013777125
0.16516222 -0.90778214 -0.016717909
0.16458061 -0.94355935 -0.019923288
-0.010968923 -2.3990374 -1.0152072
-0.0058680288 -2.5822256 -0.98607856
-0.0066941767 -2.7580602 -0.99062347
-0.0078469748 -2.9582956 -0.99701411
-0.010120825 -3.1969147 -1.0097531
-0.012833321 -3.4751973 -1.0249685
-0.013094308 -3.7658339 -1.0262718
-0.0050448813 -4.1725225 -0.98034853
-0.0029676338 -4.5631995 -0.96835649
0.050948519 -8.2876415 -0.6608721
0.098879188 -8.2984009 -0.38887191
0.14685412 -8.2874737 -0.11663029
0.33490345 -10.711585 0.95116872
0.39997774 -10.887849 1.3204526
0.4302265 -10.798749 1.4921004
0.56051242 -10.881002 2.231431
0.55757958 -4.9632101 2.2135594
0.72894615 -5.7400551 3.1863132
0.75428236 -5.5756831 3.3301065
0.73281419 -4.9886756 3.2082272
0.76250279 -4.7459698 3.3767407
0.75544685 -4.3886924 3.3366985
0.75456297 -4.109724 3.3316972
0.72682261 -3.6760983 3.1742737
0.75699306 -3.6446521 3.3455389
0.75018436 -3.3906343 3.3069284
0.75299644 -3.1135628 3.3229446
0.74999577 -2.9185309 3.3059568
0.74801248 -2.7403584 3.2947462
0.75110793 -2.5936933 3.3123605
0.72370797 -2.334523 3.156913
0.75137752 -2.2963755 3.3139911
0.74338448 -2.1302919 3.2686832
0.74191236 -1.9299959 3.2604113
0.74011075 -1.800644 3.2502437
0.73784322 -1.6750084 3.2374332
0.7351591 -1.5530173 3.2222593
0.73440272 -1.4391418 3.2180257
0.73121685 -1.3239887 3.200006
0.73395222 -1.2216778 3.2155876
0.73795873 -1.0695115 3.2384121
0.6955229 -0.92280656 2.9976697
0.72157443 -0.85035044 3.1455588
0.73053026 -0.7578063 3.1964376
0.72786093 -0.65765649 3.18135
0.72041607 -0.55809993 3.1391647
0.71948355 -0.46177655 3.1339321
0.29904237 -0.43269795 0.74843323
0.28501955 -0.41752201 0.66906297
0.28352377 -0.41027385 0.66065466
0.28249976 -0.40284058 0.65492326
0.2819382 -0.39492306 0.65181553
0.28149584 -0.38684493 0.64938426
0.28174874 -0.38186288 0.6508584
0.28177622 -0.36316264 0.65117067
0.28397343 -0.34752056 0.66371447
0.28347141 -0.33299196 0.66098249
0.28322038 -0.32830438 0.6595971
0.28207621 -0.32102114 0.65318304
0.2812987 -0.3067297 0.6488874
0.28158668 -0.29351953 0.65059757
0.2813336 -0.27534702 0.64927578
0.28160882 -0.26021573 0.65091234
0.2821286 -0.24270444 0.65393573
0.28307945 -0.21273451 0.6594401
0.53670114 1.7155672 2.0980766
0.51148546 1.67977 1.9550735
0.49076742 1.6681063 1.8375822
0.47227737 1.6669155 1.7327285
0.45498037 1.6696091 1.6346425
0.43200439 1.6936728 1.5043538
0.41632885 1.6998774 1.415465
0.40094906 1.7042862 1.3282545
0.37252852 1.5072684 1.1671367
0.36011782 1.5258315 1.0967678
0.34738839 1.5370324 1.0245926
0.3348037 1.5484513 0.95323783
0.32174078 1.5455661 0.87917531
0.30293146 1.5523016 0.77252972
0.29046798 1.5545595 0.70186418
0.27810717 1.5572569 0.63178009
0.26571262 1.5524633 0.56150788
0.25353816 1.5641505 0.4924745
0.24125132 1.5683889 0.42280635
0.22901726 1.5551633 0.35344693
0.21053533 1.5596776 0.24864921
0.1981539 1.5592263 0.17844337
0.18544331 1.5671179 0.10636325
0.17271721 1.5684152 0.034197938
0.16049181 1.5524364 -0.035116024
0.15832134 1.3195815 -0.04722587
0.14949577 1.2655033 -0.097218797
0.1614978 0.73246276 -0.028621808
0.15897183 0.65222496 -0.042837411
0.14332813 0.69247031 -0.13155377
0.14094038 0.62267905 -0.14499146
0.12627657 0.6833092 -0.22819719
0.16467556 0.14274815 -0.0096539287
0.16456941 0.10105219 -0.010153946
0.16475967 0.060854778 -0.0089719323
0.16452751 0.026658725 -0.010191549
0.16437241 -0.0055259466 -0.010974757
0.1648849 -0.039235231 -0.0079669263
0.16454901 -0.066131219 -0.0097795026
0.16457653 -0.093270101 -0.00952869
0.16456372 -0.11866394 -0.0095079262
0.16490322 -0.14418343 -0.0074866391
0.16473736 -0.16633356 -0.0083364965
0.16474529 -0.18814908 -0.0081998287
0.16477254 -0.2090874 -0.0079538617
0.16480573 -0.22919896 -0.0076745925
0.16483229 -0.248539 -0.0074333074
0.16441539 -0.2752085 -0.0096660312
0.16445126 -0.2931543 -0.0093726385
0.16444626 -0.3105236 -0.0093114749
0.16439182 -0.32738858 -0.0095314169
0.16444783 -0.34408337 -0.009124171
0.16444321 -0.36035922 -0.009061357
0.16454215 -0.37648639 -0.0084106298
0.16440025 -0.39213026 -0.0091274884
0.16419552 -0.41538548 -0.010156657
0.16411968 -0.43082443 -0.010498472
0.16431098 -0.44626617 -0.0093233334
0.16424893 -0.46158704 -0.0095866825
0.16427962 -0.47690791 -0.0093232626
0.16405697 -0.49234957 -0.010498284
0.16392894 -0.50789303 -0.011135853
0.16389652 -0.52351892 -0.011230418
0.16402897 -0.54706931 -0.010343691
0.163901 -0.56326473 -0.010980085
0.16354182 -0.58012587 -0.012928813
0.16346078 -0.59695482 -0.013298133
0.16379291 -0.62199426 -0.011275885
0.16331038 -0.63181144 -0.013969263
0.16335218 -0.65885389 -0.013593793
0.1633296 -0.67770362 -0.013629118
0.16283029 -0.69866961 -0.016369974
0.16264357 -0.71958643 -0.017335633
0.16317585 -0.74970055 -0.01417185
0.16281846 -0.77361202 -0.016104136
0.16293648 -0.79679739 -0.015337153
0.1621642 -0.82533342 -0.019621717
0.16322695 -0.86038834 -0.013440712
0.16304964 -0.89019066 -0.014345184
0.16266029 -0.92340249 -0.01645096
0.16374506 -0.967242 -0.010136995
-0.012425268 -2.3228247 -1.0094202
-0.013272977 -2.4695234 -1.0140419
-0.014385444 -2.6336215 -1.0201524
-0.0094697671 -2.8521841 -0.99194509
-0.010278762 -3.060914 -0.99629408
-0.011764358 -3.3056369 -1.0044554
-0.014609892 -3.6037128 -1.0202959
-0.013654783 -3.8996294 -1.0145515
-0.0019924827 -4.2851558 -0.94788122
0.070601828 -8.3532991 -0.53164095
0.11934067 -8.3235445 -0.25474736
0.26951241 -10.814034 0.6006034
0.36447629 -10.881188 1.1402116
0.45756584 -10.768253 1.6689656
0.52338773 -10.849187 2.0429387
0.58676577 -10.806071 2.4029226
0.62963194 -8.882637 2.6448619
0.56293291 -4.8635354 2.2628813
0.72345161 -6.4569464 3.175952
0.72926396 -6.0135841 3.2086489
0.74191988 -5.6963253 3.2803204
0.75385535 -5.4050145 3.3479226
0.74658412 -4.9704223 3.3063226
0.76197368 -4.6136088 3.3935189
0.75650018 -4.2820096 3.3622174
0.72842228 -3.825428 3.2024353
0.74349999 -3.6929252 3.2880194
0.74842966 -3.5038214 3.3159225
0.74559492 -3.2827408 3.2997031
0.74008572 -3.0633125 3.2682972
0.73920125 -2.8818285 3.2631884
0.74775225 -2.6722031 3.3116755
0.74932456 -2.5220239 3.3205466
0.73764795 -2.3287578 3.2541394
0.74344689 -2.2092614 3.2870405
0.73734635 -2.0543361 3.2523336
0.73401982 -1.9158679 3.2333951
0.73593313 -1.7372638 3.2442157
0.73161942 -1.6091572 3.2196805
0.73289037 -1.4980594 3.2268758
0.73127949 -1.3838452 3.2177026
0.72989649 -1.2732153 3.2098272
0.73080999 -1.1686355 3.2149987
0.72834635 -1.0613571 3.2009897
0.69001406 -0.92016095 2.9832571
0.71662092 -0.79980373 3.1343644
0.72649688 -0.70760798 3.1904454
0.72232139 -0.6077584 3.1667233
0.71719044 -0.50985658 3.1375771
0.29550216 -0.42743966 0.74304742
0.2819455 -0.41803098 0.66620713
0.28045854 -0.40650335 0.6578691
0.27900255 -0.39115447 0.64974254
0.27910691 -0.38652501 0.65037012
0.27888012 -0.36871377 0.64922231
0.28018355 -0.36080799 0.65665662
0.28115752 -0.33767766 0.66232389
0.28092295 -0.33298182 0.66102666
0.27995607 -0.32511681 0.65560722
0.2793867 -0.31588891 0.65244406
0.27898476 -0.29986814 0.65026516
0.2790775 -0.28709042 0.65085948
0.27888182 -0.26813775 0.64985019
0.27935046 -0.25151002 0.65257651
0.27908722 -0.22968604 0.6511817
0.54577672 1.7220775 2.1644206
0.52024627 1.6898293 2.0195484
0.49858069 1.6754794 1.8966111
0.47971058 1.6752502 1.7895383
0.46116573 1.6700982 1.6843168
0.44449806 1.6758988 1.5897475
0.42842889 1.6820951 1.4985774
0.41283184 1.6881002 1.4100888
0.37666243 1.5039794 1.2049546
0.36389697 1.5182863 1.1325402
0.35150263 1.5365276 1.0622313
0.33865637 1.544515 0.98936361
0.32585102 1.5497891 0.91673076
0.31313992 1.5533543 0.84463459
0.29344708 1.5265934 0.73295707
0.28183317 1.5582123 0.66707408
0.26933831 1.5506982 0.59621501
0.2571983 1.5636098 0.52735823
0.24490727 1.5640846 0.45765254
0.23264423 1.55809 0.3881104
0.22031754 1.5656196 0.31819886
0.20188114 1.5592768 0.21364826
0.1892703 1.5664819 0.14212498
0.17703754 1.5543184 0.072761089
0.16384891 1.5680783 -0.0020456349
0.16422974 1.2587562 0.00039313987
0.15026695 1.3148385 -0.078835092
0.125696 1.5423121 -0.21839786
0.16223405 0.74686754 -0.010373356
0.15877618 0.67607868 -0.029880546
0.14172506 0.73475677 -0.12660298
0.14121003 0.63882381 -0.12938651
0.13417102 0.62296188 -0.16925916
0.16386847 0.17512362 -0.00017855488
0.1616084 0.12542082 -0.012859781
0.16356981 0.090030514 -0.001662817
0.16193849 0.044833887 -0.010777501
0.16197713 0.01014693 -0.010457555
0.16197132 -0.021755686 -0.01039178
0.16238226 -0.053741161 -0.0079600671
0.16177547 -0.078437373 -0.011310772
0.16218153 -0.10663921 -0.0089092646
0.16200188 -0.1305775 -0.0098356316
0.16215917 -0.15471232 -0.0088490648
0.16207707 -0.17672941 -0.0092229908
0.16216685 -0.19839112 -0.0086213611
0.16227241 -0.2191707 -0.0079306876
0.16155486 -0.2463349 -0.011869835
0.1623216 -0.25787339 -0.0074707535
0.16239595 -0.27636877 -0.0069588404
0.16177256 -0.30150953 -0.010364942
0.16198896 -0.31911811 -0.0090473443
0.16182409 -0.33560854 -0.0098950118
0.16193374 -0.35222605 -0.0091842012
0.16198109 -0.36843026 -0.0088273333
0.16196035 -0.38430116 -0.0088573489
0.16203855 -0.40006003 -0.0083257463
0.16169681 -0.41537273 -0.010178543
0.16170496 -0.43854639 -0.010001356
0.16159642 -0.453895 -0.010530372
0.16158088 -0.46925303 -0.010531536
0.16165833 -0.48460174 -0.010004841
0.161483 -0.50009662 -0.010913143
0.16157506 -0.51556182 -0.01030363
0.16163395 -0.53902072 -0.0098389648
0.16145495 -0.5551337 -0.010768083
0.16121069 -0.5716477 -0.012067553
0.16107437 -0.58836633 -0.012754133
0.1610482 -0.60526592 -0.012815441
0.16097116 -0.62266439 -0.013165375
0.16107832 -0.64912379 -0.012426009
0.16098697 -0.66781044 -0.012856764
0.16025691 -0.68902153 -0.016912021
0.16014798 -0.70930988 -0.017441882
0.16086164 -0.73819023 -0.013259093
0.16069745 -0.7607404 -0.0141019
0.16029376 -0.78544158 -0.016303163
0.16023493 -0.81003618 -0.016547069
0.1608621 -0.84602255 -0.012852595
0.16093628 -0.87349892 -0.0123404
0.159043 -0.91411936 -0.022990083
0.16003984 -0.94060796 -0.017241316
-0.014481457 -2.3878026 -1.006961
-0.016027862 -2.5470538 -1.0155867
-0.016693007 -2.7158387 -1.0192068
-0.011184103 -2.9417908 -0.98771781
-0.013073115 -3.1747909 -0.99825746
-0.01440219 -3.4347029 -1.0056077
-0.014703922 -3.7219353 -1.0071157
-0.019230407 -4.1183023 -1.0325563
-0.0032368631 -4.4837322 -0.94150305
0.04582344 -8.2876053 -0.66100514
0.093844302 -8.2924051 -0.38837922
0.14148389 -8.30441 -0.1179166
0.17475471 -10.640372 0.071970746
0.29969802 -10.910267 0.78134483
0.39356732 -10.816128 1.3141617
0.55386299 -10.839657 2.2241719
0.7219516 -5.722415 3.1770921
0.74777985 -5.5644436 3.3237367
0.74041486 -5.1082726 3.2818413
0.75068617 -4.8540602 3.3401392
0.74159682 -4.467257 3.2884824
0.75085562 -4.1213951 3.3410435
0.72093248 -3.6723351 3.1710951
0.75627011 -3.6731868 3.3717873
0.74718785 -3.4040785 3.3202162
0.74286973 -3.1822953 3.2957077
0.74109483 -2.9889405 3.2856472
0.73788631 -2.8009818 3.2674506
0.74509776 -2.5907559 3.3084421
0.71841818 -2.334523 3.1569772
0.75048804 -2.312274 3.3391135
0.73929167 -2.13429 3.275574
0.73501527 -1.9889774 3.2513301
0.73194689 -1.8540503 3.233948
0.72802454 -1.7226639 3.2117193
0.73052931 -1.5544423 3.2260058
0.73126018 -1.4433647 3.2301998
0.72876626 -1.3289485 3.2160854
0.72901773 -1.2221826 3.2175591
0.73060983 -1.1190778 3.2266448
0.69017917 -0.9698801 2.9971499
0.70564973 -0.88992018 3.085031
0.72768754 -0.75925136 3.2102175
0.72295225 -0.65777576 3.1833813
0.71742064 -0.55853283 3.152025
0.71371627 -0.46175355 3.1310422
0.29416567 -0.43260127 0.74944425
0.29290825 -0.4217723 0.74238372
0.28031829 -0.41716573 0.67103148
0.27880776 -0.41429853 0.66249603
0.27780566 -0.40673071 0.65688604
0.27745801 -0.40283158 0.65495187
0.27645457 -0.38683599 0.64941269
0.27657521 -0.36354432 0.6502924
0.27830219 -0.34920171 0.66017246
0.27842948 -0.33298281 0.66101062
0.2781786 -0.32829523 0.65962517
0.27659625 -0.31694934 0.65075946
0.27672747 -0.31075224 0.65154248
0.27654567 -0.29351047 0.65062499
0.27658388 -0.28061247 0.65091759
0.27643687 -0.26086268 0.6501959
0.27696055 -0.24337725 0.65324199
0.27781013 -0.22261471 0.65813649
0.53220707 1.7203329 2.1017194
0.50687063 1.6838503 1.9579704
0.48633054 1.6739429 1.8414376
0.46808854 1.6754279 1.7379454
0.4500522 1.6713717 1.635623
0.43422794 1.6830344 1.5458503
0.41784078 1.6828812 1.4528875
0.40332505 1.6998104 1.3705395
0.36789438 1.5138252 1.1695964
0.35533556 1.5305793 1.0983578
0.34303954 1.5504395 1.0286087
0.32979321 1.5494342 0.95347536
0.3170422 1.5543506 0.88115013
0.3043128 1.5556252 0.80894923
0.29185745 1.5611693 0.73830098
0.27292633 1.5493096 0.63093078
0.26068205 1.5524701 0.56148052
0.24852417 1.5661539 0.49251381
0.236228 1.5573918 0.422775
0.22399928 1.5551636 0.3534143
0.21160556 1.5664423 0.28310764
0.19304106 1.5641832 0.17780626
0.18057488 1.5621715 0.10709453
0.16768481 1.5693859 0.033969246
0.15506829 1.5631412 -0.037594978
0.15466894 1.2905895 -0.039613962
0.14430015 1.2693123 -0.098405063
0.1321732 1.2781556 -0.16719988
0.15562987 0.74551827 -0.033579152
0.15343162 0.65957367 -0.045929905
0.14133745 0.70844275 -0.11456399
0.1349708 0.63325423 -0.15055482
0.12059456 0.6902138 -0.23215526
0.16142085 0.15112175 0.00023786076
0.16097476 0.11101741 -0.0021904791
0.159421 0.063135751 -0.010864458
0.1594068 0.027384326 -0.010842639
0.15948777 -0.0062632062 -0.010281497
0.15938075 -0.036474738 -0.010790245
0.15941454 -0.065480657 -0.010499867
0.15943779 -0.092646204 -0.010270521
0.15955746 -0.1186832 -0.0094942441
0.15933567 -0.14185177 -0.010658946
0.15958682 -0.16579427 -0.0091372253
0.15944417 -0.18710944 -0.0098535586
0.15946491 -0.20810792 -0.0096420553
0.15979809 -0.22921984 -0.0076560047
0.15902619 -0.25579366 -0.011902391
0.1590881 -0.27444887 -0.011458392
0.15911919 -0.29245973 -0.011189842
0.15927374 -0.31022054 -0.01022012
0.15938301 -0.32741144 -0.0095079672
0.15943879 -0.34410653 -0.0090998281
0.15943396 -0.36038274 -0.0090361275
0.15919226 -0.37612861 -0.010318018
0.1593906 -0.39215446 -0.0091004809
0.15934497 -0.40774542 -0.0092687448
0.15928259 -0.43091932 -0.0094867414
0.15936655 -0.43863684 -0.0089644725
0.15906507 -0.46161282 -0.010540378
0.15909569 -0.47696894 -0.010275409
0.15904622 -0.49237609 -0.010465226
0.15891805 -0.50791991 -0.011101803
0.15888548 -0.52354616 -0.011195351
0.15877856 -0.53940886 -0.011710912
0.15872064 -0.56351781 -0.011901999
0.15869793 -0.57989562 -0.01193867
0.15844926 -0.59698373 -0.01325813
0.15847932 -0.61398184 -0.012994499
0.15813677 -0.63219947 -0.014846265
0.15897414 -0.65725708 -0.0099506639
0.15862949 -0.67685735 -0.011813052
0.15797162 -0.69823116 -0.015453215
0.15778197 -0.71911782 -0.016434046
0.1583093 -0.74918765 -0.013294941
0.15837494 -0.77134985 -0.01282452
0.15806305 -0.79622811 -0.01449619
0.15728731 -0.82473725 -0.018799832
0.15898861 -0.85640669 -0.0089902226
0.15828745 -0.88883495 -0.012866842
0.1578898 -0.9219979 -0.01501871
-0.015863936 -2.1844785 -1.0008452
-0.016098229 -2.3134708 -1.0019946
-0.017104421 -2.4607277 -1.0075136
-0.017396076 -2.6171453 -1.0089658
-0.019950299 -2.8115904 -1.0232393
-0.013207226 -3.0400286 -0.98463035
-0.015369789 -3.2905965 -0.99663138
-0.016542356 -3.5666628 -1.0029869
-0.016557112 -3.8721237 -1.00274
-0.017516814 -4.2463889 -1.0078036
-0.0025942402 -5.2247057 -0.92201865
0.067086853 -8.2888632 -0.52322727
0.11479986 -8.299695 -0.252069
0.26398629 -10.59706 0.59768641
0.32694381 -10.771442 0.95560437
0.39091012 -10.856869 1.3191824
0.4229055 -10.870234 1.500916
0.5165211 -10.777953 2.0326838
0.62435573 -8.8757086 2.6437595
0.54577488 -4.9129586 2.1943245
0.72534728 -6.0258522 3.2153597
0.73916286 -5.7197294 3.2936378
0.74390519 -4.9911776 3.3201001
0.74398535 -4.66295 3.3203516
0.7412675 -4.3444872 3.3047216
0.73066145 -3.9990935 3.2442703
0.73785698 -3.6890039 3.2849898
0.74865741 -3.5352647 3.3462765
0.74151868 -3.2880933 3.3056042
0.73951435 -3.08653 3.2941308
0.73517978 -2.8867705 3.2694261
0.73726076 -2.7290154 3.2811925
0.73988008 -2.5810888 3.2960258
0.72891402 -2.3149457 3.233649
0.74175996 -2.2209086 3.306607
0.73602748 -2.0662608 3.2740066
0.73214948 -1.9252084 3.2519507
0.7292338 -1.7932153 3.2353685
0.72613859 -1.6661711 3.2177718
0.72857469 -1.4995801 3.2315998
0.7268039 -1.3848935 3.2215371
0.72458982 -1.2727534 3.2089605
0.7266745 -1.169901 3.2208047
0.72913241 -1.0684493 3.234771
0.68417525 -0.91929799 2.9794319
0.70692945 -0.84484315 3.1086841
0.72068447 -0.75653982 3.1868198
0.71714759 -0.60758036 3.1667564
0.71201104 -0.50968128 3.1376038
0.2904835 -0.42731932 0.74404651
0.27677125 -0.41352215 0.66640544
0.27491704 -0.40694311 0.65596688
0.27400702 -0.39517781 0.65093488
0.27389428 -0.38651538 0.65038496
0.27378133 -0.37308976 0.6498788
0.27448246 -0.36197025 0.65394944
0.27614862 -0.34236977 0.66354346
0.27569121 -0.33297163 0.66103667
0.27472058 -0.32510698 0.65561646
0.27354646 -0.31237605 0.6490863
0.27379966 -0.30559236 0.65056872
0.2736896 -0.28768274 0.65007901
0.27336052 -0.26941395 0.64834583
0.2738328 -0.25283876 0.65111613
0.27415073 -0.23584361 0.65301019
0.54596651 1.684086 2.1958976
0.52433354 1.6833595 2.0731695
0.49498555 1.6903052 1.9066875
0.47507367 1.682034 1.7937386
0.45603487 1.672738 1.6857489
0.43976551 1.6829582 1.593478
0.42317405 1.6839341 1.4993831
0.40777937 1.6926836 1.4120818
0.38762853 1.6316177 1.297801
0.35823461 1.5145632 1.1311144
0.34639204 1.5422658 1.0639789
0.33321673 1.5445427 0.98928565
0.32053038 1.5527235 0.91736811
0.30765012 1.5523958 0.84435314
0.2951217 1.557246 0.77333575
0.2824074 1.5506152 0.701267
0.26399687 1.5596701 0.59691399
0.25163928 1.5556234 0.52687269
0.23939545 1.5580845 0.45747715
0.22714686 1.5570855 0.38805652
0.21489945 1.5556253 0.31864387
0.20248096 1.5636582 0.24825945
0.18996389 1.5681524 0.17731747
0.17123172 1.5631617 0.071155593
0.15837659 1.566098 -0.0017018734
0.15858147 1.2616435 -0.00037619102
0.14434876 1.3225013 -0.081062153
0.12141483 1.5194527 -0.21115562
0.15644556 0.75154245 -0.012093795
0.15283038 0.68254477 -0.032496624
0.14684886 0.65383977 -0.06633652
0.13875884 0.65200758 -0.11214726
0.12698017 0.64042431 -0.1788383
0.1168673 0.6518653 -0.23612988
0.15888424 0.17095673 0.0025569242
0.15793554 0.13302895 -0.0027206116
0.15777986 0.092373304 -0.003497452
0.15724052 0.057780173 -0.0064527942
0.15760581 0.019960184 -0.0042740055
0.15785079 -0.014168083 -0.0027788854
0.15791446 -0.044802111 -0.002313447
0.15643075 -0.079114124 -0.010579225
0.15643518 -0.10540093 -0.010451118
0.15610792 -0.12879226 -0.012205849
0.15625311 -0.15301155 -0.01127953
0.15645023 -0.17620456 -0.010058936
0.15653518 -0.19789563 -0.0094752656
0.15633251 -0.21773559 -0.010524184
0.15673961 -0.23868528 -0.0081128739
0.15667614 -0.25746968 -0.0083724111
0.15674622 -0.27599677 -0.0078742793
0.1564606 -0.2931608 -0.0093949186
0.15616381 -0.3185184 -0.010929282
0.15616016 -0.33535105 -0.010850298
0.15626635 -0.35200208 -0.010148362
0.15631039 -0.36824009 -0.009799188
0.15628651 -0.38414505 -0.0098358002
0.15636183 -0.3999382 -0.009309561
0.15636241 -0.41549453 -0.0092077535
0.15628517 -0.43089846 -0.0095477439
0.15612817 -0.44623521 -0.010340538
0.1562406 -0.4692522 -0.0095557366
0.15614268 -0.4846181 -0.010013805
0.15613833 -0.50002569 -0.0099411439
0.15588346 -0.51569968 -0.011290323
0.15606907 -0.53120273 -0.010140246
0.15593122 -0.55514926 -0.010777654
0.15602204 -0.57117933 -0.010166101
0.15554729 -0.58838153 -0.012764017
0.15544111 -0.62267923 -0.013175641
0.15515925 -0.64102393 -0.014679985
0.15500769 -0.65966779 -0.015445441
0.1550317 -0.68812793 -0.015167989
0.15510221 -0.72837579 -0.014581196
0.15503681 -0.78427947 -0.014721837
0.15484411 -0.83504432 -0.015633794
0.15404154 -0.86640829 -0.020098472
0.15301539 -0.9169603 -0.02578914
0.1546222 -0.93988901 -0.016583543
0.15447648 -0.97554058 -0.017324463
-0.017417487 -2.3686767 -0.99272734
-0.019163048 -2.5282543 -1.0025855
-0.019545656 -2.6932352 -1.0047157
-0.022508586 -2.9018862 -1.0215005
-0.014508093 -3.1324487 -0.97605675
-0.01575866 -3.3880043 -0.98315072
-0.01708388 -3.6845181 -0.99068624
-0.019382728 -4.046021 -1.0037724
-0.018585298 -4.4279704 -0.99930704
-0.0054944875 -4.9370365 -0.9251219
0.06559746 -8.2768583 -0.52287519
0.1373221 -8.2754917 -0.11596344
0.23232591 -10.637603 0.42195997
0.29500955 -10.799323 0.77745736
0.35845864 -10.850278 1.137338
0.45290601 -10.808974 1.6731079
0.5165568 -10.798849 2.0342946
0.72875023 -6.3300061 3.240906
0.73176247 -5.8777819 3.258285
0.73454386 -5.4778018 3.2743287
0.74914211 -5.2312107 3.3573332
0.75021327 -4.889679 3.3636444
0.73943841 -4.4874539 3.3027828
0.7402941 -4.2119293 3.3078387
0.71803367 -3.6851432 3.1819146
0.74707884 -3.6461034 3.3467677
0.74565232 -3.4231527 3.3388486
0.73951012 -3.1904628 3.304183
0.73631591 -2.9895821 3.2862244
0.73470455 -2.8091514 3.2772346
0.73667407 -2.6548014 3.2885447
0.71392936 -2.4079244 3.1597044
0.74358881 -2.3053801 3.3280914
0.73833728 -2.1477892 3.2984383
0.73197353 -1.9950815 3.2624729
0.72829896 -1.8579985 3.2417543
0.7256512 -1.7295839 3.2268553
0.7228713 -1.6058336 3.2112036
0.7239387 -1.4946867 3.2173686
0.72299224 -1.327791 3.2121634
0.72339469 -1.2214203 3.2145514
0.72548175 -1.1190945 3.2264915
0.6821028 -0.96665269 2.980571
0.69893456 -0.8885318 3.0761309
0.7206946 -0.80801773 3.199641
0.71864271 -0.65815115 3.1881475
0.7146613 -0.55905044 3.1656604
0.70921093 -0.46178386 3.13484
0.28761044 -0.42734376 0.74392456
0.27522957 -0.41664991 0.6738677
0.27321735 -0.40985417 0.66253644
0.27237013 -0.40651092 0.657772
0.27185273 -0.40283677 0.65487802
0.27084735 -0.38684157 0.64933819
0.27084514 -0.3778289 0.64940667
0.27122644 -0.37239042 0.65160984
0.27240115 -0.35505965 0.65839356
0.2734327 -0.34194988 0.66432476
0.27256936 -0.32830241 0.65954876
0.27185118 -0.32512486 0.65551567
0.27050158 -0.30728737 0.64802164
0.27093294 -0.29351833 0.65054798
0.27069679 -0.2818518 0.64928836
0.27056009 -0.26218316 0.64863217
0.27121833 -0.24406801 0.65244454
0.27158052 -0.2261592 0.65457743
0.53568321 1.7072878 2.1525607
0.51021904 1.6746329 2.0082068
0.48321939 1.6946195 1.8551738
0.4632692 1.682166 1.7420921
0.44595683 1.6860496 1.6439697
0.42945659 1.6918217 1.5504533
0.4123913 1.6846391 1.4537336
0.39785022 1.7016001 1.3713274
0.36835891 1.502111 1.2041576
0.35582867 1.5201519 1.1331573
0.33702064 1.5437182 1.0265851
0.32416233 1.5503753 0.95372576
0.31151018 1.5582259 0.8820352
0.29834658 1.5477524 0.80744725
0.28489268 1.5157189 0.73121661
0.2737132 1.5651501 0.66787189
0.26108932 1.5526813 0.59634584
0.24275461 1.5641478 0.49246091
0.23045848 1.5563872 0.42279351
0.21820512 1.5571615 0.35336721
0.20579752 1.5674419 0.28306431
0.19346777 1.5632479 0.2132061
0.18084522 1.5694461 0.14168535
0.16210546 1.561547 0.035508968
0.14913249 1.5651082 -0.037998036
0.15089275 1.2461745 -0.027867829
0.13819477 1.2741157 -0.099819049
0.11066166 1.5400963 -0.25596762
0.14969885 0.74740446 -0.034293957
0.14830539 0.65038812 -0.042096313
0.13441579 0.72206169 -0.12081416
0.13382547 0.62812501 -0.12406085
0.11775901 0.70692211 -0.21512672
0.15495798 0.15687503 -0.0037651267
0.1543745 0.11742616 -0.0069836271
0.15450136 0.076200247 -0.0061724819
0.15423405 0.041051902 -0.0075983242
0.15477048 0.0035559649 -0.0044646161
0.15468267 -0.02742148 -0.0048728818
0.15462135 -0.056478079 -0.0051312
0.15416217 -0.081726812 -0.0076467455
0.15325336 -0.11619867 -0.012668602
0.1532983 -0.1406541 -0.012324671
0.15339962 -0.16409434 -0.011661075
0.15339468 -0.18602704 -0.011600368
0.15356007 -0.20758517 -0.010573454
0.15358469 -0.22778845 -0.010345196
0.15360317 -0.24722189 -0.010151779
0.15360382 -0.26594511 -0.01005943
0.15373687 -0.28439665 -0.0092161624
0.1536727 -0.30186224 -0.0094914688
0.15405649 -0.31974706 -0.0072259749
0.15389496 -0.33617088 -0.008053367
0.15351231 -0.36013293 -0.01009021
0.15360993 -0.37629434 -0.0094475485
0.15363809 -0.39212915 -0.0091986209
0.15238589 -0.40686628 -0.016210902
0.15346937 -0.42315048 -0.0099766897
0.15326692 -0.43850598 -0.011035034
0.15348884 -0.469248 -0.0095965527
0.15329231 -0.49234903 -0.010575387
0.1531308 -0.52351856 -0.011309375
0.15319444 -0.53920734 -0.010857052
0.15310951 -0.57960826 -0.011108538
0.15319058 -0.59607792 -0.010556029
0.15255769 -0.6142782 -0.014051124
0.1527027 -0.63145328 -0.013135114
0.14432923 -0.68000108 -0.060464252
0.15223813 -0.66909242 -0.015579442
0.1525178 -0.69726175 -0.01385018
0.15186998 -0.71958685 -0.017425627
0.15184344 -0.74085438 -0.017478218
0.15154991 -0.76411027 -0.019043284
0.15257697 -0.79499298 -0.013071794
0.15233187 -0.82092935 -0.014359511
0.15231019 -0.84735024 -0.014379467
0.15162778 -0.87897032 -0.018142281
0.15043145 -0.93203515 -0.024760969
-0.020561948 -2.3015201 -0.99315155
-0.020829452 -2.4419885 -0.99446684
-0.022018572 -2.6045766 -1.0009896
-0.023737486 -2.7902536 -1.0104966
-0.024190033 -2.9859774 -1.0128119
-0.018625844 -3.2583852 -0.98089367
-0.019416329 -3.5266485 -0.98506111
-0.020091735 -3.8370066 -0.9885385
-0.021526877 -4.2145081 -0.99626565
-0.021328172 -4.640707 -0.99468267
0.037292659 -8.2707939 -0.6585499
0.08503969 -8.286459 -0.38764063
0.15652734 -8.2958403 0.017956471
0.19649021 -10.665055 0.2467867
0.25832415 -10.665082 0.59757888
0.32281765 -10.954265 0.96370906
0.38463974 -10.816138 1.31431
0.4172906 -10.870369 1.4995543
0.47927505 -10.785276 1.8510157
0.54229188 -10.748075 2.2083747
0.54105437 -4.920588 2.1965525
0.57345551 -4.927186 2.3803599
0.74000823 -5.7804141 3.3257227
0.75505793 -5.5122895 3.4108975
0.73378211 -4.9453835 3.2898293
0.7458303 -4.7189903 3.3580234
0.73864824 -4.3623905 3.3170607
0.73927522 -4.0957904 3.3204587
0.7145558 -3.6829457 3.1800046
0.74159485 -3.6315453 3.3333609
0.74411929 -3.3301053 3.3475301
0.73720723 -3.1002405 3.3082144
0.73481214 -2.9089506 3.2945461
0.73593616 -2.745348 3.3008578
0.73613107 -2.5861166 3.3019054
0.71071249 -2.3351452 3.1576333
0.7361995 -2.2890239 3.3021984
0.73283368 -2.0719147 3.2830479
0.72836679 -1.9287038 3.2576773
0.72484004 -1.7947977 3.2376463
0.72334969 -1.6715633 3.2291722
0.72162944 -1.5520149 3.2193983
0.72022235 -1.4369363 3.2114048
0.72068679 -1.3284506 3.2140296
0.72266775 -1.17142 3.2252557
0.72361118 -1.0679269 3.2306023
0.68235224 -0.92270678 2.9966013
0.71203756 -0.85321492 3.1649616
0.71687859 -0.75746977 3.1924181
0.71473521 -0.65766948 3.1802659
0.70868391 -0.55842769 3.1459541
0.7061252 -0.41384909 3.1314535
0.28550306 -0.43288594 0.74641657
0.27181929 -0.41753367 0.66900903
0.27047905 -0.4145098 0.66144663
0.26947784 -0.40697595 0.65584368
0.26894078 -0.39900458 0.6528722
0.26805717 -0.3828508 0.6480099
0.26845878 -0.37750152 0.65032345
0.26903889 -0.36686331 0.65368551
0.27057624 -0.34284097 0.66254628
0.27012429 -0.33347356 0.66005689
0.26960993 -0.324139 0.65721381
0.26888254 -0.32103321 0.65312684
0.26810554 -0.30674171 0.64883101
0.26839459 -0.29353172 0.65054107
0.26827753 -0.27473006 0.64998466
0.26868111 -0.25891617 0.65234244
0.26851368 -0.23726362 0.65149873
0.52196854 1.7020991 2.0877435
0.49732473 1.6699945 1.9481041
0.47732979 1.6638976 1.8348092
0.45272997 1.6888914 1.6954231
0.4349966 1.6854597 1.594951
0.41963634 1.7007498 1.5079232
0.40375677 1.7052673 1.417958
0.38778648 1.7024013 1.3274833
0.35897231 1.499763 1.1643082
0.34744629 1.5324156 1.0990113
0.33446139 1.53987 1.0254583
0.31547314 1.5546097 0.91790015
0.30264333 1.5562609 0.84523046
0.29005173 1.5601599 0.77390999
0.27726075 1.5515721 0.7014671
0.2647959 1.548293 0.63087004
0.2525776 1.5544485 0.561665
0.24031059 1.5551493 0.49218726
0.22194424 1.5550824 0.38816485
0.20970994 1.5526329 0.31887448
0.19739263 1.5547025 0.24911033
0.1847122 1.5691615 0.17727925
0.17246854 1.5572546 0.10794156
0.15942483 1.5694144 0.034051728
0.14686783 1.5612277 -0.037065379
0.13935964 1.3167745 -0.079363242
0.12952867 1.281733 -0.13500603
0.14634606 0.6992709 -0.0391142
0.14188235 0.64931101 -0.064313576
0.13199241 0.66912901 -0.12032628
0.12526242 0.64831561 -0.1583951
0.11441824 0.66862059 -0.21981935
0.15160854 0.18757138 -0.0084705288
0.15188557 0.13872561 -0.0067891949
0.1518025 0.097134881 -0.0071544028
0.15190405 0.057813525 -0.0064742328
0.1516891 0.023709364 -0.007592163
0.15179189 -0.0098186275 -0.0069087446
0.15183055 -0.040600836 -0.0065907459
0.15175986 -0.068783872 -0.0068945866
0.15180269 -0.095817201 -0.0065554176
0.15180454 -0.12110236 -0.0064498689
0.1517372 -0.14474662 -0.0067376965
0.15068452 -0.17453705 -0.012569588
0.15173209 -0.18918389 -0.0065806252
0.15100649 -0.21770233 -0.010558768
0.1509513 -0.23729002 -0.010780575
0.15072411 -0.25574586 -0.011978433
0.15094583 -0.27479139 -0.010630389
0.15114124 -0.2931278 -0.0094320653
0.15113597 -0.3104969 -0.0093724011
0.15124723 -0.32765412 -0.0086520771
0.15147248 -0.34457406 -0.0072856257
0.15082911 -0.36799926 -0.010801542
0.15114787 -0.38428605 -0.0089053959
0.151226 -0.4000448 -0.0083741611
0.15071103 -0.41525263 -0.011206632
0.15098093 -0.43086585 -0.009588128
0.15117273 -0.44627261 -0.0084127644
0.15076336 -0.46155807 -0.010646654
0.15079421 -0.47691366 -0.010384221
0.15084191 -0.49999323 -0.0099826651
0.15041615 -0.51578891 -0.012309542
0.15060437 -0.53132671 -0.011154935
0.1507172 -0.54703921 -0.010427787
0.15025079 -0.56368405 -0.01298508
0.15022986 -0.58009511 -0.013016363
0.15048198 -0.62196302 -0.011368104
0.15035786 -0.63986802 -0.011984197
0.14387377 -0.68469286 -0.048614867
0.14955102 -0.67898637 -0.016382944
0.14997078 -0.72782868 -0.013782154
0.15015902 -0.74857867 -0.012626207
0.14922598 -0.77472574 -0.017826553
0.1496913 -0.80878603 -0.015054241
0.14983095 -0.83372688 -0.014172359
0.14863189 -0.86704493 -0.020878725
0.14949685 -0.89154571 -0.015884215
0.14863424 -0.92768347 -0.020681633
0.1493068 -0.97475398 -0.016729617
-0.021801146 -2.3597844 -0.98632014
-0.022822201 -2.5125833 -0.99197179
-0.023887752 -2.682225 -0.99786961
-0.024885312 -2.8709211 -1.0033749
-0.026916882 -3.0940273 -1.0147309
-0.028029688 -3.3375895 -1.0208695
-0.01981139 -3.6460452 -0.97403187
-0.020179681 -3.9754517 -0.97591704
-0.024343466 -4.9028544 -0.99902147
0.057877701 -8.3413038 -0.53106916
0.10715424 -8.2766628 -0.25159273
0.22565939 -10.646605 0.42146832
0.28832731 -10.799351 0.77696145
0.35190794 -10.861306 1.1375966
0.44602165 -10.798146 1.6713055
0.51445222 -10.963914 2.0595169
0.55366749 -4.9069715 2.2803142
0.71617693 -6.5170197 3.2025638
0.71712571 -6.0138392 3.2078452
0.72413945 -5.6379828 3.2475665
0.73732615 -5.363276 3.3223305
0.75040168 -4.9396353 3.3964512
0.73977828 -4.5345874 3.3361406
0.74202472 -4.2657251 3.3488641
0.70317686 -3.7368083 3.1284475
0.73387647 -3.7102773 3.3026164
0.73660922 -3.5069587 3.3181205
0.73039937 -3.2670195 3.2828984
0.73475683 -3.0088139 3.3076363
0.73341841 -2.8282363 3.3000612
0.73399687 -2.6664407 3.3033631
0.72869807 -2.4890075 3.2733293
0.72713095 -2.3360903 3.2644665
0.72954726 -2.2043631 3.2782018
0.72354776 -2.0502212 3.2442024
0.72543299 -1.8647742 3.2549458
0.72236371 -1.7346632 3.2375724
0.71882236 -1.6086526 3.2175231
0.71845031 -1.4941984 3.215451
0.71763021 -1.3819247 3.2108388
0.71739256 -1.2734575 3.2095313
0.71846765 -1.1691197 3.2156694
0.70921165 -1.0029187 3.1632369
0.68011856 -0.87619179 2.9982827
0.71561009 -0.80821121 3.1996098
0.71359885 -0.70767105 3.1882463
0.71097016 -0.60836083 3.1733816
0.7066946 -0.5102998 3.1491783
0.28217244 -0.42757708 0.74196321
0.26845315 -0.41394112 0.66435498
0.2672787 -0.40652961 0.65777135
0.2665706 -0.3987492 0.65383238
0.26603323 -0.39521331 0.65082335
0.26608837 -0.38624194 0.65121222
0.26624638 -0.37682137 0.65218437
0.26668048 -0.35670495 0.65479749
0.26781747 -0.33815864 0.66135764
0.26733401 -0.32880601 0.65869194
0.26649031 -0.32052293 0.65398371
0.2657426 -0.31186721 0.64981961
0.2659356 -0.29932112 0.6509887
0.26602393 -0.2865153 0.65156436
0.26595405 -0.26687896 0.65127969
0.26654336 -0.24952981 0.65469456
0.26613671 -0.2282989 0.65249938
0.53196377 1.7157174 2.1594923
0.50664937 1.6849056 2.0160251
0.48518574 1.6720806 1.8943881
0.46669051 1.6751361 1.7895792
0.44776458 1.666564 1.6823319
0.42500073 1.6970413 1.553344
0.40873715 1.6998464 1.4611907
0.39296883 1.7024475 1.3718461
0.36358613 1.5048375 1.2053723
0.35121536 1.5257397 1.1352881
0.33822221 1.534567 1.0616789
0.32532394 1.5415785 0.98860872
0.3122682 1.5410089 0.91464818
0.2936635 1.5565581 0.80925262
0.28012407 1.5235962 0.73256189
0.26868376 1.5631453 0.66774678
0.25609893 1.5526663 0.59646082
0.24384998 1.5566 0.52707386
0.23161551 1.56607 0.4577668
0.21321733 1.5551629 0.35355267
0.20093985 1.5554761 0.28400528
0.18849912 1.5612684 0.21352999
0.1760789 1.5595571 0.14317386
0.16330379 1.5661488 0.070801899
0.15038922 1.5700517 -0.002359841
0.15080956 1.2597435 0.00022645449
0.13792318 1.2937121 -0.072787389
0.11653478 1.3576419 -0.19398916
0.14483704 0.74462861 -0.033161607
0.14210096 0.66606307 -0.048567466
0.13544877 0.646864 -0.086205557
0.12711638 0.64686763 -0.13337974
0.11287293 0.70520896 -0.21409929
0.14949037 0.16017444 -0.0059832917
0.14899048 0.11984491 -0.0087225884
0.14877421 0.08088617 -0.0098540438
0.14893353 0.042583987 -0.0088557266
0.14910497 0.0072354651 -0.0077898568
0.14899465 -0.023863228 -0.0083234552
0.14891168 -0.053045411 -0.008702768
0.14895578 -0.081048392 -0.0083619813
0.14924361 -0.10851423 -0.0066391272
0.14907551 -0.13237019 -0.0075033158
0.14924419 -0.15642062 -0.0064575295
0.14902703 -0.17780632 -0.0076008718
0.14820147 -0.22682725 -0.01206415
0.14888617 -0.23865429 -0.0081365099
0.14852728 -0.26592326 -0.010041467
0.14849949 -0.28400019 -0.010112245
0.14881533 -0.31941643 -0.0081475275
0.1486523 -0.33587366 -0.0089858109
0.14864299 -0.36842015 -0.0088662254
0.14839208 -0.39195129 -0.010160157
0.14839578 -0.42312923 -0.0099672908
0.14836727 -0.43853724 -0.010043032
0.14841691 -0.46922702 -0.0095897177
0.14814746 -0.48464552 -0.011031733
0.14823322 -0.52335864 -0.010330386
0.14812565 -0.5391866 -0.010854185
0.14804158 -0.57139868 -0.011158379
0.14773661 -0.58835924 -0.012801123
0.14780115 -0.63107449 -0.012218194
0.14774045 -0.64911753 -0.012475098
0.14749154 -0.66822684 -0.013799052
0.14676337 -0.68946934 -0.017839929
0.14711259 -0.71856666 -0.015727682
0.14767049 -0.73765516 -0.012476053
0.14635055 -0.76464891 -0.019870404
0.14681393 -0.78602433 -0.017153796
0.14714545 -0.82153863 -0.015139121
0.14765398 -0.84536237 -0.012165328
0.1470886 -0.87622261 -0.01527883
0.14435013 -0.92189223 -0.030709598
0.14622504 -0.94352931 -0.0199879
-0.029969528 -2.4029176 -1.0183331
-0.024638971 -2.5846043 -0.98790455
-0.026007291 -2.7655847 -0.99550611
-0.026336871 -2.9581892 -0.99721175
-0.027802108 -3.1879792 -1.0053415
-0.030577643 -3.4661038 -1.0208811
-0.022312943 -3.8010333 -0.97374541
-0.023942245 -4.1780243 -0.98274118
-0.021672113 -4.5659389 -0.9696179
0.033864386 -8.2241974 -0.65262491
0.080478251 -8.2864189 -0.38816413
0.12732354 -8.3632612 -0.12238443
0.16107213 -10.679354 0.070102103
0.22301288 -10.74563 0.42148596
0.31753564 -10.851442 0.95770448
0.38339454 -11.02241 1.3313547
0.41256595 -10.849552 1.4966964
0.47369128 -10.734856 1.843352
0.53979129 -10.809237 2.218307
0.53768897 -4.9410758 2.2044268
0.71069556 -6.2169461 3.1863163
0.71097964 -5.7437582 3.1878381
0.71353078 -4.9795146 3.2022102
0.74354893 -4.7404099 3.3725252
0.7392832 -4.4048362 3.3483098
0.73773515 -4.1199951 3.3395295
0.70959854 -3.6830485 3.1798904
0.74017316 -3.6535928 3.3534019
0.73219055 -3.3922079 3.3081403
0.72792143 -3.1715314 3.283957
0.73069584 -2.9135416 3.2997694
0.73032308 -2.7429724 3.2977078
0.7313273 -2.5873764 3.3034632
0.70345032 -2.326833 3.145365
0.73284549 -2.2954609 3.3122041
0.72544408 -2.131433 3.2702816
0.72114182 -1.986302 3.2459457
0.72249293 -1.8024697 3.2537243
0.71991259 -1.675922 3.2391639
0.71706724 -1.5535051 3.2231026
0.71548891 -1.4379659 3.214231
0.71328723 -1.3246976 3.2018256
0.71484911 -1.2205056 3.2107725
0.71710229 -1.1185378 3.2236431
0.67560953 -0.96828669 2.9883387
0.70036906 -0.84809518 3.1289399
0.71466118 -0.7593832 3.2101133
0.70852989 -0.6573469 3.1754239
0.70437229 -0.55866069 3.1519325
0.70083129 -0.46187994 3.1319399
0.28064668 -0.43271652 0.74842691
0.27973059 -0.42167819 0.74332577
0.26692089 -0.42175347 0.67075068
0.26544306 -0.4143225 0.66246277
0.26425645 -0.40261304 0.65587503
0.26369023 -0.39466146 0.65275884
0.26330677 -0.39088702 0.65063149
0.26332933 -0.38187644 0.65085578
0.26335061 -0.36317569 0.65116894
0.26487216 -0.34415665 0.65994579
0.26527488 -0.33770072 0.66227865
0.26451686 -0.32363921 0.65812302
0.26363769 -0.32103324 0.65318334
0.26285511 -0.3067413 0.64888835
0.26313961 -0.29353094 0.65059906
0.26288122 -0.27535802 0.64927804
0.26315275 -0.26022652 0.65091515
0.26379564 -0.24203308 0.65465939
0.26388994 -0.21706051 0.65533954
0.51781553 1.7131708 2.0963092
0.49281064 1.6789317 1.9545451
0.47228315 1.668909 1.838183
0.45433107 1.672828 1.7364318
0.43603399 1.6661237 1.6327221
0.41323316 1.6918728 1.503509
0.39777964 1.7007672 1.4159306
0.38306394 1.7143968 1.3325372
0.35390291 1.5072562 1.1671811
0.3422744 1.5390573 1.1013018
0.32894823 1.5408479 1.025789
0.31624183 1.5503742 0.95379192
0.30319884 1.5484813 0.87988389
0.28420025 1.5503255 0.7722308
0.27152359 1.5436609 0.70039874
0.25958431 1.5662025 0.63274956
0.24715275 1.5634317 0.56230605
0.23478805 1.556151 0.49224082
0.22254188 1.5573851 0.42284709
0.21023543 1.5661529 0.35311005
0.19177847 1.561666 0.24851765
0.17942007 1.5592223 0.17848289
0.16699995 1.5562491 0.10809656
0.15393484 1.5693923 0.034048818
0.14165905 1.5543805 -0.035521057
0.14021488 1.3060533 -0.04362445
0.12898472 1.2989688 -0.10726267
0.096243896 1.5352669 -0.29292923
0.14393346 0.71565223 -0.022246674
0.14036065 0.65129834 -0.042430971
0.12395172 0.70055234 -0.13541685
0.12265969 0.61825663 -0.14265908
0.10818276 0.67723823 -0.22472899
0.14568129 0.19251595 -0.011733597
0.14593209 0.14354983 -0.010219045
0.14603667 0.10025652 -0.0095344391
0.14612199 0.060846888 -0.0089592077
0.14600711 0.025907407 -0.0095202774
0.14658067 -0.010569918 -0.0061740782
0.14625083 -0.03924381 -0.0079552745
0.14591545 -0.066140056 -0.0097680856
0.14501321 -0.088779479 -0.01479832
0.14606801 -0.11928894 -0.0087208757
0.14585032 -0.1424295 -0.0098659545
0.14624958 -0.16690251 -0.007509301
