# .PCD v0.7 - Point Cloud Data file format
VERSION 0.7
FIELDS x y z
SIZE 4 4 4
TYPE F F F
COUNT 1 1 1
WIDTH 1407
HEIGHT 1
VIEWPOINT 0 0 0 1 0 0 0
POINTS 1407
DATA ascii
-0.0033013627 -0.59464908 -0.0042639636
0.0027306881 -0.58387887 -0.0045900671
0.0084209666 -0.57376981 -0.0051856339
0.01726749 -0.55741936 -0.0025307862
0.02243273 -0.54817557 -0.0026921476
0.027488217 -0.53904951 -0.0024061508
0.034301549 -0.52732849 -0.0052886605
0.039018787 -0.51879537 -0.0049232189
0.041435868 -0.51423228 -0.0036589897
0.050039027 -0.49940181 -0.0071283705
0.052316632 -0.49500638 -0.0053973435
0.054501683 -0.49093071 -0.0045339456
0.062849171 -0.47639522 -0.0070783552
0.064933263 -0.47242886 -0.0058080745
0.069027066 -0.464935 -0.0049980539
0.071070276 -0.46134993 -0.0054695159
0.077187262 -0.45054105 -0.0064524673
0.081248485 -0.44330138 -0.0067473096
0.083346903 -0.43971714 -0.007782693
0.089408524 -0.42877734 -0.0074653784
0.095654935 -0.41774154 -0.0084781079
0.10191839 -0.40655538 -0.0088146124
0.1083545 -0.39511022 -0.0094378283
0.1126616 -0.38737988 -0.009453183
0.11718062 -0.37938127 -0.010100755
0.12389994 -0.36728939 -0.0099418908
0.12871899 -0.35876071 -0.010636476
0.1335804 -0.35008642 -0.010937988
0.13874924 -0.34094915 -0.011740295
0.14615838 -0.32747966 -0.010792033
0.15111455 -0.31837636 -0.0096312417
0.1605182 -0.30193219 -0.012095151
0.16588078 -0.29203051 -0.010544418
0.17265579 -0.28007111 -0.011685427
0.18167786 -0.26348114 -0.0094600664
0.18794884 -0.25319773 -0.014945767
0.19830528 -0.23422569 -0.01279019
0.20778283 -0.21757929 -0.014849239
0.22076668 -0.19406615 -0.013673899
0.23260079 -0.17329046 -0.016294314
0.2466692 -0.14734079 -0.012350378
0.26139781 -0.12138752 -0.01506359
0.27762672 -0.092704602 -0.017565321
0.3015148 -0.049698662 -0.016809126
0.3231205 -0.011355328 -0.019242875
0.35288101 0.040844347 -0.026064001
0.38276291 0.096045405 -0.017179834
1.2315546 1.5319008 -0.50989652
1.2155056 1.5194269 -0.41774336
1.2120823 1.5279748 -0.33481804
1.0783774 1.3123146 -0.19782798
1.0935711 1.3511744 -0.13237973
1.1075333 1.3882425 -0.064572208
1.1580968 1.4899645 -0.0025513661
1.1568184 1.5080736 0.11261628
1.1552637 1.5189762 0.18990435
1.1504114 1.5240325 0.26759219
1.1447079 1.5275868 0.34542513
1.140061 1.5331255 0.42375678
1.1311946 1.5310209 0.50168276
1.1299254 1.5430369 0.58236408
1.1083564 1.5247688 0.69771773
1.1007639 1.5253764 0.77805007
1.0908159 1.5217212 0.85817963
1.084271 1.5247897 0.94179249
1.0765456 1.5259279 1.0264664
1.0650582 1.520103 1.1099416
1.1403358 1.6947824 1.3334805
1.1226358 1.6791563 1.4245594
1.1122072 1.6785049 1.526518
1.1026292 1.6802902 1.6336138
1.0980195 1.6931468 1.7528819
1.0883914 1.6967968 1.8710127
1.0732617 1.7030567 2.0596051
1.0278163 1.6332018 2.1256077
0.97119033 1.5386469 2.165427
0.98299605 1.5938766 2.35762
1.0097718 1.6862866 2.6080625
0.99044234 1.6790609 2.7630756
0.95265424 1.6523736 2.9952025
0.87527043 1.5127124 2.9906554
0.79519051 1.3636823 2.9605269
0.72391683 1.2332783 2.9463413
0.66452754 1.1308383 2.9696333
0.60560536 1.028218 2.9871747
0.54883415 0.93001419 3.0078585
0.46311805 0.77820224 3.0191085
0.41001293 0.6873585 3.0442033
0.35709009 0.59615153 3.0654004
0.29004529 0.44854555 2.9112492
0.2518169 0.41202709 3.092335
0.19896793 0.31529975 3.081615
0.14726302 0.21972097 3.0657887
0.072071888 0.076302804 3.0177944
0.022908619 -0.0040413421 3.0622282
-0.025989341 -0.0915052 3.0637779
-0.076873682 -0.1745196 3.1105707
-0.12511459 -0.26361951 3.0962262
-0.17533831 -0.35090071 3.112236
-0.24992745 -0.4835946 3.1186831
-0.299842 -0.5727731 3.1208477
-0.35109463 -0.66324276 3.1292779
-0.40585163 -0.75701177 3.1545813
-0.46279642 -0.85404587 3.1836143
-0.52241796 -0.9551065 3.2170305
-0.54755753 -1.0244657 3.0801005
-0.65991706 -1.2026109 3.2125721
-0.71765125 -1.3061014 3.2131476
-0.78187138 -1.4181546 3.2310858
-0.84258503 -1.5274357 3.2291527
-0.90963316 -1.6456814 3.240777
-0.97443366 -1.7624786 3.2378094
-1.057856 -1.9049201 3.2787104
-0.9529627 -1.8106455 2.7482872
-1.1627361 -2.1269572 3.0875688
-1.1543438 -2.1447721 2.9019427
-1.1503729 -2.1666393 2.7382276
-1.2745715 -2.3725705 2.8337657
-1.2735907 -2.3980045 2.6802046
-1.0815579 -2.1374791 2.2056367
-1.1811695 -2.3192875 2.1882682
-1.0887858 -2.1987493 1.9328698
-1.1558444 -2.3213902 1.919781
-1.2438346 -2.478195 1.925858
-0.86374521 -2.0153525 0.68814731
-0.66996711 -1.6936954 0.54105312
-0.53390092 -1.5081954 0.20975471
-0.47684935 -1.5006427 -0.32587117
-0.10570854 -0.77710378 -0.00081398129
-0.09182886 -0.75224757 -0.0011118406
-0.080442913 -0.73217475 -0.0031526096
-0.068275683 -0.71014959 -0.0020859612
-0.05778823 -0.6913256 -0.0020749681
-0.047583438 -0.67279577 -0.000861565
-0.037992336 -0.65527934 0.00084734446
-0.030747551 -0.64265215 -0.0012778023
-0.023635389 -0.63013446 -0.0026779072
-0.01588162 -0.61594033 -0.0011125868
-0.0096196895 -0.6049614 -0.0025864935
-0.0032411653 -0.59352779 -0.0026747403
0.0027603791 -0.58280545 -0.0029596989
0.0080145504 -0.57376814 -0.0051864819
0.02137587 -0.54996473 -0.0062098717
0.027081812 -0.53904867 -0.0024062628
0.034016542 -0.52694762 -0.0043716873
0.038612258 -0.51879507 -0.0049228664
0.043139476 -0.51070136 -0.0051125446
0.049694736 -0.49912041 -0.0061700512
0.051909905 -0.49500665 -0.0053964355
0.058258925 -0.48379329 -0.0064397301
0.062442258 -0.47639596 -0.0070769959
0.064526804 -0.47242975 -0.0058066109
0.072706826 -0.45775634 -0.0058674789
0.07673391 -0.45045424 -0.0054557836
0.080844969 -0.44330275 -0.0067454306
0.082943745 -0.43971857 -0.0077807647
0.089106485 -0.42877561 -0.0084582809
0.093246467 -0.4214175 -0.0088745747
0.099382177 -0.4103272 -0.0084471246
0.10365975 -0.40276393 -0.0090991119
0.10812971 -0.39497212 -0.010410002
0.11226317 -0.38738194 -0.0094505902
0.11481597 -0.38312039 -0.011261442
0.12373224 -0.36704737 -0.010881321
0.12832278 -0.35876301 -0.01063355
0.1312523 -0.35386756 -0.012682037
0.14025836 -0.33717844 -0.00973392
0.14605886 -0.32710955 -0.011668788
0.15979786 -0.30237496 -0.011255668
0.1661697 -0.29110071 -0.012173826
0.17261711 -0.27958202 -0.012477774
0.17985435 -0.2668089 -0.013700827
0.18973216 -0.24876536 -0.011929421
0.19869994 -0.23307608 -0.014220281
0.22204475 -0.19154365 -0.016285907
0.23474993 -0.16801165 -0.012172239
0.2484719 -0.14393538 -0.015276156
0.2623485 -0.11928952 -0.016731305
0.27362227 -0.098454081 -0.013331107
0.30297914 -0.046728566 -0.018737519
0.32507604 -0.0075638583 -0.021501003
0.35724515 0.050559111 -0.019280821
0.38669622 0.10318727 -0.020537032
1.2282809 1.5269835 -0.50802004
1.2146578 1.5185877 -0.41744334
1.2053454 1.5170794 -0.3316513
1.0794871 1.314842 -0.19842997
1.1178259 1.3938073 -0.14104326
1.1056883 1.3856562 -0.064132378
1.1546881 1.4913725 0.036260881
1.160859 1.5158957 0.11216291
1.154892 1.5189679 0.18992643
1.1500382 1.5240245 0.26761398
1.1452978 1.5293283 0.34554955
1.1387279 1.5313705 0.42360577
1.1112655 1.5020652 0.53632361
1.1183143 1.5294355 0.61940747
1.1130427 1.5342582 0.70000875
1.1021986 1.5288018 0.77903122
1.0917743 1.5242699 0.85902083
1.0913649 1.53913 0.94703394
1.0671886 1.51671 1.0653368
1.0570811 1.5136843 1.1506208
1.1399456 1.6947775 1.3335001
1.1222444 1.6791517 1.4245785
1.121554 1.6981139 1.5385965
1.104508 1.6849093 1.6367075
1.1001973 1.6984321 1.7566943
1.0781115 1.6884464 1.9240221
1.0796163 1.7173414 2.0718794
1.0228682 1.6234478 2.1166663
1.0297242 1.6666952 2.2913413
0.98199862 1.5925562 2.3562527
0.99091923 1.662542 2.6609542
0.97187293 1.6567792 2.8213494
0.95100784 1.6494538 2.9913487
0.86903346 1.4987166 2.9707882
0.792826 1.3588537 2.9531984
0.72250366 1.2307146 2.9421771
0.66282111 1.127427 2.9636683
0.57830328 0.98334473 3.0064445
0.52032846 0.88117844 3.0169692
0.46402201 0.78213346 3.0282152
0.40950772 0.68698198 3.043287
0.35708523 0.59749532 3.0691504
0.29291379 0.46125647 2.9500947
0.25043276 0.40750962 3.0770197
0.17268848 0.26802263 3.0771296
0.12183711 0.17603876 3.0729825
0.071683146 0.07539472 3.0128779
0.022593673 -0.004652305 3.0582757
-0.026232719 -0.091996603 3.0598104
-0.077340186 -0.17436275 3.1125624
-0.12567826 -0.26346704 3.099216
-0.20054117 -0.39502046 3.1149392
-0.25017551 -0.48360029 3.1176896
-0.30082062 -0.57304448 3.125802
-0.35186875 -0.66350913 3.1322377
-0.4068287 -0.75748104 3.1585059
-0.46470514 -0.85533881 3.1923854
-0.52484608 -0.95701247 3.2276647
-0.56781906 -1.0653913 3.0511475
-0.6648227 -1.2075361 3.2314155
-0.72065532 -1.3091515 3.2233796
-0.78270143 -1.4188045 3.2329185
-0.84125072 -1.5254997 3.2237306
-0.91079557 -1.6468089 3.2434385
-0.99340421 -1.803569 3.1953554
-1.0857371 -1.9582891 3.2573171
-0.92551762 -1.7730764 2.6796958
-1.1550368 -2.1160018 3.0690176
-1.1470836 -2.134244 2.8854437
-1.162485 -2.1836295 2.7626624
-1.2725397 -2.3693225 2.8293178
-1.2930126 -2.4393432 2.6414189
-1.0937726 -2.1659508 2.166286
-1.1968307 -2.3427145 2.2124703
-1.0864934 -2.1948967 1.9291025
-1.1573973 -2.3234706 1.9215797
-1.259091 -2.5017645 1.9453056
-0.85958678 -2.0078681 0.68597186
-0.66778243 -1.6895072 0.54001385
-0.53641993 -1.5046549 0.25263208
-0.53223866 -1.5047318 0.2098217
-0.47671151 -1.4998645 -0.32544973
-0.10223876 -0.76940376 0.0043105884
-0.091045596 -0.74998552 0.00051352539
-0.080763355 -0.73217899 -0.0031533814
-0.068253361 -0.7094298 -0.0014877549
-0.058441922 -0.69203371 -0.0027023158
-0.047269881 -0.67142338 0.00044367652
-0.039231621 -0.65728384 -0.0011905538
-0.031072062 -0.64265269 -0.0012788919
-0.023128264 -0.62825418 -0.00049456791
-0.016207216 -0.61593974 -0.0011137957
-0.0096973749 -0.60437751 -0.0018139438
-0.0035675953 -0.59352612 -0.0026760644
0.0024335538 -0.58280325 -0.0029610819
0.0072824406 -0.57478815 -0.006858286
0.013445619 -0.56329131 -0.0044152425
0.018873008 -0.55346996 -0.0039766026
0.024162849 -0.54380894 -0.0030499401
0.031171694 -0.53162837 -0.0053251302
0.040507454 -0.51490372 -0.0055323364
0.042897996 -0.51037097 -0.0041726218
0.049364977 -0.49911389 -0.0061720246
0.053674266 -0.49142912 -0.0064680614
0.057928611 -0.4837859 -0.0064418395
0.060033496 -0.47998312 -0.0063093626
0.066257954 -0.46882924 -0.0064286147
0.072374396 -0.45774767 -0.0058697904
0.074373007 -0.45404097 -0.0052036112
0.078482419 -0.44691604 -0.0066365418
0.08463601 -0.43606406 -0.007749924
0.086748339 -0.43242893 -0.0086398488
0.095167331 -0.41763479 -0.010460328
0.096914843 -0.41406226 -0.0080070663
0.10530075 -0.3990626 -0.0083316034
0.10976866 -0.39124507 -0.0094861304
0.11211352 -0.38720047 -0.01042025
0.11664817 -0.37917182 -0.011058812
0.12339047 -0.36703539 -0.010884218
0.13015454 -0.3547188 -0.0099129183
0.13501926 -0.34600511 -0.010027846
0.13801026 -0.34093881 -0.011740209
0.14571369 -0.3270964 -0.011671901
0.15945078 -0.30236113 -0.011258903
0.16582176 -0.29108658 -0.012177116
0.17262094 -0.2790758 -0.013277226
0.18204787 -0.26188219 -0.011750549
0.19191393 -0.24378166 -0.0095527237
0.20089597 -0.22800016 -0.011480819
0.21365948 -0.20634219 -0.01854636
0.22169015 -0.19152692 -0.016289644
0.23525319 -0.16666999 -0.013403954
0.24855223 -0.14323577 -0.015866263
0.26466173 -0.1150683 -0.020081641
0.27114972 -0.10028698 -0.0023933845
0.30400223 -0.044477951 -0.020192765
0.32805049 -0.00032583109 -0.014605859
0.36020291 0.056047034 -0.022126682
1.228312 1.5278728 -0.50834
1.1761006 1.4540751 -0.39598086
1.1906748 1.4928652 -0.32465237
1.0829862 1.3216661 -0.20010251
1.1235485 1.4110819 -0.10626937
1.1028979 1.3880229 -0.027229242
1.1621168 1.5052949 0.034850437
1.1589556 1.5133429 0.11231183
1.1559252 1.5216416 0.18986271
1.1500952 1.524953 0.26762143
1.1458362 1.5311301 0.34564334
1.1349938 1.5324159 0.46275023
1.1122621 1.5047258 0.53672904
1.1169645 1.5277473 0.61905456
1.107561 1.5248078 0.69772965
1.1017869 1.5288453 0.77902329
1.0820709 1.5143085 0.8967033
1.0809118 1.5278435 0.98485947
1.0676416 1.5184093 1.0660423
1.0571002 1.514541 1.1510025
1.1420009 1.6996726 1.3360153
1.1302418 1.6959358 1.4340568
1.1223257 1.7005016 1.540037
1.0914952 1.6701589 1.6810933
1.0867954 1.6832376 1.8025484
1.0798242 1.6928639 1.9275264
1.0836208 1.7266554 2.0798402
1.011766 1.6004895 2.0955453
1.033088 1.6748478 2.2993295
0.97648829 1.5969737 2.4331191
0.99692893 1.6769753 2.6776977
0.9770292 1.669502 2.8371255
0.94642252 1.639562 2.9781895
0.86587411 1.4920129 2.9612415
0.79029018 1.3535048 2.9450376
0.7193169 1.223563 2.9304814
0.63744855 1.0879952 2.9945462
0.57812172 0.98379481 3.0073214
0.51867032 0.87739003 3.0089107
0.46277431 0.77937484 3.0218441
0.4090575 0.6866138 3.0423617
0.35655743 0.59681535 3.067277
0.27130932 0.43317139 3.0070519
0.22509976 0.36628708 3.0976045
0.17232157 0.26777899 3.0761578
0.12146874 0.17561574 3.0710256
0.071430922 0.081101872 3.0443625
0.02229536 -0.004956584 3.0562973
-0.026624123 -0.091767311 3.0617943
-0.10138633 -0.21971251 3.0968728
-0.1499854 -0.30765805 3.0927134
-0.20123462 -0.39498079 3.1189213
-0.25071967 -0.48364538 3.1196768
-0.3015238 -0.57319957 3.1287742
-0.35403931 -0.66455066 3.1450641
-0.40684155 -0.75726837 3.1565425
-0.48938802 -0.9010644 3.1809843
-0.55085593 -1.0044587 3.21998
-0.56516039 -1.0623885 3.0378051
-0.66286635 -1.2050974 3.2219923
-0.72099215 -1.3091545 3.2233789
-0.78200448 -1.4175975 3.2292478
-0.82983458 -1.5112803 3.1848896
-0.93938255 -1.6998124 3.2303119
-0.98389369 -1.7907659 3.1677322
-1.0912299 -1.9651142 3.2708399
-0.9272083 -1.7748836 2.6829996
-1.1484641 -2.106411 3.0528867
-1.1456528 -2.1317122 2.8815138
-1.1886089 -2.2339327 2.7395389
-1.2859987 -2.4020221 2.7771997
-1.2818741 -2.4222839 2.620971
-1.0937408 -2.1653247 2.1656029
-1.2101202 -2.3622684 2.2327461
-1.0932541 -2.2046595 1.9385122
-1.1590841 -2.3254652 1.9233764
-1.2800449 -2.5441661 1.9140722
-0.672243 -1.6919061 0.56754798
-0.66879886 -1.695094 0.51462382
-0.55510581 -1.5065413 0.42728019
-0.53632712 -1.5037601 0.25260901
-0.53312057 -1.5055832 0.20979996
-0.51302367 -1.5036424 0.01701412
-0.48353973 -1.5029535 -0.27800238
-0.47835103 -1.5022657 -0.3267169
-0.11576885 -0.79430211 -0.0030142732
-0.10016595 -0.76616198 -0.0022344904
-0.087161563 -0.74293333 -0.0028585831
-0.080780335 -0.73143262 -0.0025863058
-0.064873792 -0.70320201 -0.0043819076
-0.054155082 -0.68375885 -0.0032211833
-0.045004211 -0.66738063 -0.0034809657
-0.038686365 -0.65527624 0.00084267411
-0.0305673 -0.64070594 0.00082946138
-0.023219872 -0.62762409 0.00023002506
-0.016049698 -0.6147266 0.00038558547
-0.0075872671 -0.60036284 -0.0042830892
-0.003701967 -0.59296441 -0.0018843005
0.0022843149 -0.58226579 -0.0021488101
0.015452098 -0.55930793 -0.0059860842
0.018677585 -0.55300874 -0.0031089403
0.023797138 -0.54380876 -0.0030532831
0.030806491 -0.53162873 -0.0053284355
0.035572264 -0.52304351 -0.0051596574
0.040143013 -0.5149048 -0.0055355872
0.044642203 -0.50683093 -0.0055526448
0.049063701 -0.49883413 -0.0052177245
0.053310968 -0.49143133 -0.0064712288
0.057565708 -0.48378846 -0.0064449781
0.06176015 -0.4761976 -0.0061012381
0.063831337 -0.47260338 -0.0067958529
0.069971763 -0.46134609 -0.0054732142
0.074012607 -0.45404485 -0.005206605
0.080151632 -0.44329777 -0.0067507755
0.084277496 -0.43606865 -0.007752812
0.090428554 -0.42510781 -0.0082118381
0.094560355 -0.41773826 -0.0084812641
0.10082478 -0.40655226 -0.0088176401
0.10494592 -0.39906853 -0.0083342921
0.10743612 -0.39496714 -0.010415403
0.11175983 -0.38720685 -0.010422879
0.11825414 -0.37544194 -0.0098198671
0.12497685 -0.36330032 -0.0094038099
0.12787339 -0.35848475 -0.011569363
0.1346693 -0.34601286 -0.010030285
0.14202121 -0.33271122 -0.009439081
0.14784965 -0.32255057 -0.011139019
0.1609434 -0.29857826 -0.0084905112
0.16581677 -0.29062986 -0.012995885
0.17445415 -0.27474245 -0.010828806
0.18207483 -0.26136369 -0.012516326
0.1923454 -0.24266326 -0.011013067
0.20095232 -0.22742398 -0.012187843
0.21332026 -0.20635438 -0.018548302
0.22218482 -0.19027676 -0.017599883
0.23706481 -0.1633724 -0.016475501
0.24865502 -0.1425681 -0.016454222
0.26729235 -0.10889961 -0.015205524
0.26990589 -0.10175592 -0.001367559
0.30889887 -0.034379199 -0.016028499
0.33101663 0.0050212061 -0.017668985
0.35988015 0.056026977 -0.022127947
1.2256449 1.5237155 -0.50679481
1.1338408 1.3828055 -0.3723028
1.1906044 1.5000989 -0.28516138
1.1111585 1.3769666 -0.175502
1.1198535 1.4050275 -0.1051717
1.1016643 1.3862396 -0.02698346
1.1633478 1.5078315 0.034589544
1.1596918 1.5150206 0.11220781
1.1547048 1.5198346 0.18990049
1.1469227 1.5265297 0.3065252
1.1410297 1.5297663 0.3844901
1.1352239 1.5332301 0.46285495
1.1219199 1.5229571 0.53962725
1.1185822 1.5311604 0.61974484
1.113301 1.5359734 0.70041442
1.1029001 1.5313631 0.77974522
1.0831506 1.5167975 0.89757603
1.0819684 1.5303093 0.9858312
1.067389 1.5183568 1.0660429
1.0555898 1.5120275 1.149837
1.1433942 1.7028555 1.3376976
1.1125091 1.6709609 1.4705061
1.1084064 1.6833721 1.5821385
1.0927391 1.6731604 1.6832031
1.0905263 1.6914133 1.8086705
1.0851741 1.7045193 1.9368871
1.087424 1.7351788 2.0871942
0.99883777 1.5732836 2.0705903
0.99737334 1.6124545 2.3065848
1.0007135 1.6513326 2.492254
0.99917179 1.6825713 2.6842506
0.99413538 1.7093942 2.8867211
0.94268906 1.6313627 2.9673555
0.86234403 1.4841411 2.9501071
0.76047206 1.303629 2.9629877
0.69419187 1.1847469 2.9632533
0.63502252 1.0822859 2.9841955
0.57718587 0.98197997 3.0038028
0.52072138 0.88410467 3.023232
0.46131244 0.77580869 3.0136538
0.40830764 0.68513006 3.0386662
0.33057168 0.55366778 3.0839622
0.27575442 0.45298904 3.0708721
0.22452123 0.3649416 3.092792
0.17193542 0.26729521 3.0742149
0.12113336 0.1754012 3.0700464
0.071145572 0.08359725 3.058136
-0.0026710141 -0.047475722 3.0659196
-0.051854502 -0.13382646 3.0766528
-0.10177206 -0.21963826 3.097867
-0.15083876 -0.30735809 3.0996864
-0.20156755 -0.39497638 3.1189198
-0.25083801 -0.48360229 3.1176877
-0.30173618 -0.57314306 3.1277821
-0.37968493 -0.71006727 3.1443961
-0.43637618 -0.80611032 3.1764727
-0.49192059 -0.90291393 3.1926343
-0.5529865 -1.0061107 3.2286422
-0.56850171 -1.0653818 3.051146
-0.66550887 -1.2075237 3.2314143
-0.72256637 -1.3105041 3.2280302
-0.80906337 -1.467728 3.2166338
-0.83661056 -1.5366259 3.1066926
-0.94092053 -1.7012808 3.2338326
-1.0005844 -1.8119428 3.2134814
-1.0941646 -1.9685049 3.2776031
-0.97735804 -1.8423996 2.8061297
-1.1464037 -2.1030324 3.0472426
-1.1427655 -2.1409569 2.7962074
-1.1897267 -2.2349901 2.7410452
-1.2844338 -2.3991725 2.773556
-1.275095 -2.4116809 2.608283
-1.1063138 -2.1835997 2.1860044
-1.2121515 -2.3647709 2.2353652
-1.0999968 -2.2144208 1.9479272
-1.1821327 -2.3704293 1.8992087
-1.3000071 -2.5749621 1.9386144
-1.303481 -2.7212605 1.1475866
-0.67848372 -1.7019961 0.57024729
-0.6607784 -1.6806471 0.5113818
-0.53158456 -1.5059983 0.18840298
-0.51242912 -1.5019037 0.017360335
-0.48429397 -1.5037726 -0.27838919
-0.47430533 -1.4984725 -0.34969804
-0.1145619 -0.7911911 -0.0010244056
-0.099375837 -0.76387203 -0.00065275026
-0.086767279 -0.74143744 -0.0017458921
-0.073764712 -0.7178241 -0.00017493218
-0.064527228 -0.70177305 -0.00315676
-0.054158583 -0.68306243 -0.0025818606
-0.046267867 -0.66941321 -0.005479936
-0.036420424 -0.6512531 -0.0027325402
-0.028622394 -0.63733041 -0.0031472975
-0.02102009 -0.62361443 -0.0027458591
-0.016376924 -0.61472666 0.00038487118
-0.0079141567 -0.6003629 -0.0042838375
-0.0015830422 -0.58896691 -0.0041025765
0.0043733385 -0.57828104 -0.0041339342
0.015483554 -0.55836093 -0.0042620222
0.020681292 -0.54906529 -0.0044569871
0.02576967 -0.53988636 -0.0042024897
0.028477417 -0.53473437 -0.0025561242
0.035246953 -0.52304333 -0.0051606158
0.039817866 -0.51490456 -0.0055365693
0.046431739 -0.5032658 -0.0068585919
0.050837893 -0.49526861 -0.0063648308
0.053031601 -0.49117845 -0.0055057518
0.05724116 -0.48378801 -0.0064460575
0.067617804 -0.4650791 -0.0059917462
0.073727295 -0.45414743 -0.0062017068
0.075714581 -0.45044854 -0.0054624127
0.077796489 -0.44691944 -0.006640818
0.083950557 -0.43606776 -0.0077542267
0.092108339 -0.42144531 -0.0078889038
0.094232328 -0.41773719 -0.0084828222
0.1004961 -0.40655106 -0.0088192811
0.104783 -0.39894226 -0.0093141133
0.10710677 -0.39496583 -0.010417126
0.1135942 -0.38329908 -0.010306123
0.11617097 -0.37897703 -0.012021121
0.12464572 -0.36329868 -0.0094057359
0.12947224 -0.35472456 -0.0099173719
0.13460352 -0.34569454 -0.010942759
0.14007397 -0.33613741 -0.012428798
0.14751646 -0.32254851 -0.011141165
0.1590981 -0.30192789 -0.012099345
0.16801007 -0.28584257 -0.011605013
0.17483594 -0.27373129 -0.01240221
0.18210909 -0.26083204 -0.013282417
0.19060896 -0.24599351 -0.015641786
0.20140922 -0.22624575 -0.013600323
0.21257544 -0.2069611 -0.017870892
0.22440308 -0.18502384 -0.013876203
0.23715515 -0.16270667 -0.017092125
0.25215283 -0.13512754 -0.013360373
0.26829845 -0.1067672 -0.01683799
0.26910892 -0.10247871 -0.00085658237
0.31041586 -0.031369347 -0.017904835
0.33443558 0.011158004 -0.021171071
0.36333662 0.062278029 -0.025378047
1.1875209 1.4458765 -0.56382418
1.221588 1.5248511 -0.46310255
1.0700921 1.2817144 -0.30098999
1.1887647 1.4975908 -0.28449151
1.1304801 1.4109558 -0.18313833
1.1165334 1.3999068 -0.1042365
1.117546 1.4146943 -0.03101746
1.1575748 1.498316 0.035548698
1.1518615 1.5085902 0.15141971
1.1511043 1.5209286 0.22874211
1.1460719 1.5256708 0.30648792
1.1416237 1.5315303 0.38462466
1.1358095 1.5349914 0.46305898
1.1281567 1.5351642 0.541556
1.1233462 1.540718 0.62163782
1.1008141 1.5206536 0.7366159
1.0947835 1.5242903 0.81823438
1.0872207 1.5252882 0.90048027
1.0811646 1.5294826 0.98550588
1.0678767 1.5200307 1.0667541
1.0707238 1.5424032 1.1642153
1.1298842 1.6865377 1.3786144
1.1184562 1.6836317 1.4779792
1.1091893 1.6857167 1.5836308
1.0938623 1.6762244 1.6853123
1.0944985 1.7003984 1.815349
1.0697544 1.6855991 1.9824746
1.0636269 1.6990169 2.1203082
0.97019356 1.5258243 2.0890484
0.9857142 1.5877542 2.2814641
1.0160817 1.6863123 2.5302706
1.0060143 1.6988726 2.7031844
0.99902582 1.7215005 2.9017518
0.90870196 1.5736609 2.9821382
0.83190036 1.4338787 2.9710152
0.75631982 1.2942046 2.9481289
0.6951893 1.1882385 2.9691663
0.63483709 1.0827579 2.9850588
0.57617211 0.9801873 3.0002863
0.51757944 0.8761012 3.0062249
0.43540248 0.73356026 3.0339825
0.38213804 0.64175755 3.0552924
0.32687259 0.54132974 3.0481744
0.27794933 0.46363553 3.1051643
0.22416371 0.3649326 3.0927918
0.17165224 0.26776102 3.0761557
0.12064037 0.17393222 3.0632005
0.046052925 0.041384976 3.0704892
-0.0028378691 -0.048556648 3.0579922
-0.052612945 -0.13280779 3.0865891
-0.10304657 -0.21848698 3.1137955
-0.15245974 -0.30665264 3.116621
-0.20164324 -0.39502898 3.1159298
-0.2516216 -0.48369446 3.1216602
-0.32674024 -0.61789018 3.1250255
-0.38078204 -0.71056134 3.1493127
-0.43389723 -0.80400652 3.1598396
-0.49390644 -0.90433282 3.2013676
-0.55372703 -1.0065048 3.2305617
-0.57483101 -1.0714198 3.0778234
-0.68879312 -1.2528135 3.2082753
-0.74684125 -1.3571076 3.2075264
-0.81020141 -1.4687065 3.2193568
-0.86023402 -1.5652713 3.1810338
-0.94361299 -1.7042931 3.2408631
-1.018481 -1.8347754 3.2626722
-1.096747 -1.9715276 3.283509
-1.0979832 -2.0209112 3.017144
-1.1615398 -2.1385593 2.9968066
-1.1245133 -2.1146362 2.7566838
-1.2159858 -2.2723556 2.7929463
-1.278964 -2.3907375 2.7626045
-1.2750282 -2.4111278 2.607563
-1.1356307 -2.237788 2.1738293
-1.1943691 -2.348093 2.1461351
-1.1193222 -2.2532673 1.9211243
-1.1920972 -2.3854563 1.9120889
-1.3052369 -2.5826979 1.9447318
-0.67883414 -1.7020081 0.57023364
-0.66408235 -1.6857544 0.51251292
-0.54079914 -1.5067171 0.2741724
-0.53048921 -1.5033817 0.18849196
-0.49272627 -1.5102824 -0.23333354
-0.47547546 -1.5000808 -0.35058492
-0.11416663 -0.78963363 -3.7799953e-05
-0.099376626 -0.76310635 -0.00013369387
-0.0856947 -0.73844326 0.00047214219
-0.073790327 -0.71708959 0.00040210393
-0.06422811 -0.70034111 -0.0019389649
-0.05388556 -0.68166631 -0.0013098534
-0.036500193 -0.65059161 -0.0020484757
-0.028716605 -0.63668931 -0.0024385599
-0.02139936 -0.62361044 -0.0027532238
-0.014265797 -0.61072844 -0.0023182267
-0.0078127664 -0.59921616 -0.0027217143
-0.0017382124 -0.58841473 -0.0033040959
0.0020126831 -0.58118975 -0.00052526809
0.015279797 -0.55788261 -0.0034064914
0.020298276 -0.54906034 -0.0044638729
0.02538614 -0.53988129 -0.0042093149
0.030226775 -0.53122932 -0.0044262214
0.037103813 -0.51913756 -0.0058654915
0.039529178 -0.51456052 -0.0046072407
0.044011112 -0.50651485 -0.0046129287
0.050451644 -0.49526289 -0.006371357
0.054734185 -0.48759779 -0.0065056323
0.058959085 -0.47997946 -0.006319996
0.061048262 -0.4761911 -0.0061087324
0.063119419 -0.47259679 -0.0068033366
0.069306053 -0.46160626 -0.007462211
0.075327612 -0.45044219 -0.0054685608
0.0814621 -0.43966383 -0.0067972546
0.087698869 -0.428763 -0.0084710484
0.095843628 -0.41405973 -0.0080172094
0.10010947 -0.40654415 -0.0088250013
0.10240877 -0.40264082 -0.010093152
0.10672021 -0.39495873 -0.010422739
0.11516656 -0.37956968 -0.0091528948
0.11970101 -0.37148342 -0.0094602108
0.1225504 -0.36678916 -0.011836262
0.12933749 -0.35442907 -0.010846678
0.13448338 -0.34537029 -0.011858419
0.14187726 -0.33198386 -0.011222336
0.14930789 -0.31836405 -0.0096404823
0.16122514 -0.29720783 -0.010976656
0.16797023 -0.285355 -0.012416144
0.17480806 -0.27321827 -0.013192359
0.18283297 -0.25923631 -0.015577905
0.19278204 -0.24095733 -0.013207288
0.20181657 -0.22506116 -0.015014553
0.21434368 -0.20237224 -0.013865816
0.22485782 -0.18373038 -0.015162024
0.23762697 -0.16137218 -0.01832377
0.25309002 -0.13304363 -0.015080032
0.27015519 -0.1032091 -0.019557418
0.26872101 -0.1024681 -0.00085992779
0.31188628 -0.028352352 -0.019781062
0.3363972 0.015002733 -0.023360472
0.36814478 0.072848342 -0.018456515
1.2204 1.5089103 -0.54552585
1.2153171 1.515011 -0.45958966
1.1367463 1.3958323 -0.33640301
1.158384 1.4462881 -0.2707696
1.1517154 1.4483579 -0.19152525
1.1136531 1.3956556 -0.1034459
1.1405208 1.4623404 0.00082246261
1.1606557 1.5113332 0.073423125
1.1573128 1.5190761 0.15100224
1.1472783 1.5148414 0.22875519
1.1485577 1.5309439 0.30670041
1.1416866 1.5324301 0.38470143
1.1353925 1.5350162 0.46306691
1.1219981 1.5317565 0.5803656
1.11233 1.5282953 0.65877408
1.1054325 1.5301423 0.73908108
1.0943695 1.5243111 0.81824172
1.0894696 1.5303944 0.90223116
1.0816238 1.531181 0.98616046
1.0598496 1.5135067 1.1069784
1.1148225 1.6386853 1.2567683
1.1310906 1.6897691 1.3803667
1.068696 1.5847508 1.4195975
1.1114678 1.6911746 1.5871212
1.1024109 1.6945552 1.6979766
1.0808825 1.684954 1.8618981
1.0751923 1.6979022 1.9926654
1.0575875 1.6870313 2.1096656
0.96310401 1.5114027 2.0753396
0.98836297 1.5944372 2.2882602
1.0185935 1.6927925 2.5373175
0.9894563 1.6808825 2.7653151
0.97852957 1.6956595 2.9594824
0.9102338 1.578228 2.9884219
0.82721961 1.4234674 2.9557137
0.75298697 1.2868685 2.9365754
0.69383061 1.1857371 2.9649475
0.60724795 1.0373882 3.0046058
0.54922915 0.93605173 3.0202911
0.49030021 0.83033234 3.0204487
0.43502995 0.73354727 3.0339839
0.38187298 0.64209586 3.0562232
0.31850731 0.51178563 2.9624712
0.27730128 0.46243477 3.1013541
0.19785978 0.31877875 3.0951471
0.14577755 0.22167191 3.0745575
0.095348582 0.13010325 3.06849
0.045743495 0.040218376 3.0635819
-0.0031414209 -0.048846159 3.0560083
-0.053365815 -0.13179922 3.0965247
-0.10316087 -0.21880373 3.1098099
-0.1774665 -0.35083446 3.1172099
-0.22641848 -0.43928879 3.113764
-0.27711987 -0.52834105 3.1246712
-0.32667297 -0.6177274 3.1220546
-0.38021269 -0.71002448 3.1434033
-0.43837914 -0.80716527 3.1842883
-0.49404818 -0.90421242 3.2003918
-0.57024485 -1.0449494 3.1777928
-0.62078142 -1.1389829 3.1589007
-0.6919468 -1.2559594 3.219507
-0.75142902 -1.3620423 3.2232289
-0.8155669 -1.4747627 3.2366495
-0.87793106 -1.5866914 3.2365661
-0.95098078 -1.7132819 3.2619767
-1.0446904 -1.885597 3.238534
-1.1239994 -2.024298 3.2589886
-1.1411659 -2.0797088 3.1200197
-1.1547776 -2.1287713 2.9808772
-1.1222554 -2.1110644 2.7512536
-1.2399452 -2.3064899 2.8403394
-1.274223 -2.3834455 2.753118
-1.2846226 -2.437609 2.5526042
-1.1585706 -2.2719698 2.2105167
-1.1209998 -2.235806 2.0339608
-1.1247734 -2.2612517 1.9284842
-1.2028953 -2.4018576 1.9261495
-0.83694649 -1.9384537 0.8342281
-0.86621994 -2.010978 0.72129333
-0.68603247 -1.7138059 0.57337391
-0.66981894 -1.6951122 0.51460469
-0.53178763 -1.5051395 0.188417
-0.52248126 -1.503541 0.10308546
-0.48230579 -1.5032314 -0.3025274
-0.11336211 -0.78729725 0.0014481175
-0.098605543 -0.76081294 0.0014417213
-0.087491207 -0.74143082 -0.0017607573
-0.075539626 -0.72001171 -0.0019447946
-0.062551975 -0.69604981 0.001731289
-0.053910658 -0.68096507 -0.00067673117
-0.036552306 -0.64992845 -0.0013636628
-0.028498283 -0.63540918 -0.0010129764
-0.021209573 -0.62237269 -0.0012801529
-0.014360922 -0.61012858 -0.0015622483
-0.0079228505 -0.59863889 -0.0019438964
0.00013514941 -0.58493376 -0.0062421546
0.0040614121 -0.57722276 -0.0024967059
0.017105483 -0.55437875 -0.0057367375
0.022273351 -0.54509974 -0.0057301433
0.025181107 -0.53945321 -0.0033210954
0.027742289 -0.53472209 -0.0025698512
0.032504693 -0.52616978 -0.0025577096
0.04129624 -0.51100796 -0.0060740723
0.045765471 -0.50295657 -0.0059196302
0.050154075 -0.49498808 -0.0054162391
0.0565309 -0.48355106 -0.0054852008
0.064838119 -0.46898124 -0.0074328156
0.066878639 -0.46506476 -0.0060051447
0.070916668 -0.45761794 -0.0048948675
0.07699921 -0.44683203 -0.0056582708
0.081109151 -0.43965572 -0.0068042404
0.083210647 -0.43605313 -0.0077672009
0.089360818 -0.42509207 -0.0082261553
0.093492046 -0.4177224 -0.0084955329
0.10173869 -0.40285274 -0.0081373863
0.10601761 -0.39523113 -0.0084801642
0.11049905 -0.38736066 -0.0094700577
0.1148122 -0.37956199 -0.0091595966
0.12150856 -0.3675144 -0.0090161636
0.12437806 -0.36276591 -0.011290605
0.12898277 -0.35442165 -0.010853266
0.13631384 -0.34126052 -0.010853073
0.14370213 -0.327833 -0.0099278521
0.14926101 -0.31795707 -0.0105101
0.16120426 -0.29674786 -0.011809391
0.16978937 -0.28103542 -0.010108234
0.17699073 -0.26833701 -0.0113954
0.18643621 -0.2509551 -0.0089845452
0.19496888 -0.23593521 -0.010652938
0.20441599 -0.21935655 -0.012785447
0.21440075 -0.20174605 -0.014539084
0.22788848 -0.17718393 -0.012542319
0.24068272 -0.15468247 -0.015146312
0.25538567 -0.1288919 -0.018518187
0.27094254 -0.099868111 -0.012291708
0.27071995 -0.097224936 0.0048760711
0.31675178 -0.018167151 -0.015177084
0.34126565 0.025389504 -0.017639963
0.37161189 0.079150304 -0.021581743
1.2268417 1.5202757 -0.55008358
1.2130272 1.5117141 -0.45842889
1.2049478 1.5124112 -0.3726058
1.1099147 1.3638072 -0.24874513
1.1047008 1.3742265 -0.13705888
1.1107881 1.3977151 -0.066093765
1.1618398 1.5003562 -0.0037964487
1.1613123 1.5130563 0.073277056
1.1555226 1.5164466 0.15110315
1.1513389 1.5226864 0.2287436
1.1425599 1.5275949 0.34543893
1.1369588 1.5313832 0.42359844
1.1309489 1.5345124 0.50217962
1.1212176 1.5308658 0.58020598
1.1124842 1.5291386 0.65895915
1.1055828 1.5309798 0.73930037
1.0949657 1.5259962 0.81875217
1.0803846 1.5214025 0.94057769
1.0731261 1.5234073 1.0254602
1.0599734 1.5143052 1.1073476
1.1315181 1.6720797 1.2733535
1.1307994 1.6897376 1.3803637
1.0660346 1.579973 1.4167918
1.0974941 1.6740924 1.6295305
1.0900366 1.6810193 1.7442266
1.0841587 1.6923176 1.8676045
1.0807568 1.7101597 2.002847
1.0516738 1.6750013 2.099014
0.96823221 1.523049 2.0864403
0.97792995 1.5872452 2.3507204
1.0034289 1.6766671 2.5973377
0.99296558 1.6894686 2.7756722
0.98746353 1.7170039 2.9869404
0.90248936 1.5604846 2.9640956
0.82400292 1.4163135 2.9452391
0.75291061 1.2873613 2.9373994
0.66712844 1.1429272 2.990984
0.60643983 1.0359809 3.0019908
0.54769319 0.93255371 3.0131898
0.48889115 0.82705075 3.0132253
0.43423533 0.73200738 3.0303144
0.3810364 0.64031661 3.0515714
0.3123869 0.49035633 2.9003105
0.25049567 0.41534153 3.1038246
0.19730438 0.31750926 3.0903122
0.14524643 0.2201058 3.0677345
0.094965726 0.12932776 3.064563
0.045455258 0.038747288 3.0547004
-0.0035138831 -0.048708797 3.0569959
-0.079049535 -0.17440079 3.1125524
-0.12759101 -0.26332942 3.1021931
-0.17783481 -0.35081974 3.1172063
-0.2269928 -0.43927756 3.1157503
-0.27738339 -0.5282858 3.1236749
-0.32799369 -0.61815298 3.128973
-0.38135558 -0.71046954 3.1483197
-0.46436346 -0.8536737 3.1806731
-0.52108526 -0.95209098 3.1996086
-0.55830467 -1.0329077 3.1203134
-0.6349386 -1.1531694 3.2176561
-0.69403923 -1.2577192 3.2260563
-0.75715739 -1.3680304 3.2426271
-0.81708544 -1.4759663 3.2402847
-0.9071421 -1.6399758 3.2265422
-0.97775275 -1.7640558 3.2412686
-1.0514745 -1.8937851 3.2556133
-1.1277783 -2.0286107 3.2673397
-1.1413314 -2.0791519 3.1191947
-1.1510564 -2.1227772 2.9713151
-1.1506596 -2.1640067 2.7343764
-1.283577 -2.3825328 2.8470666
-1.2886713 -2.417026 2.703836
-1.1882544 -2.2931798 2.3856788
-1.1636263 -2.2787004 2.2178471
-1.087424 -2.1837215 1.9820352
-1.1356112 -2.2770479 1.9432101
-1.2323099 -2.4567549 1.9080881
-0.83696491 -1.9375646 0.83389622
-0.67410457 -1.6970495 0.5418548
-0.66479135 -1.6900392 0.4870429
-0.53630918 -1.5047945 0.23118158
-0.48318908 -1.503998 -0.30293551
-0.11012512 -0.78170902 -0.0039097755
-0.097882129 -0.75851387 0.0030232477
-0.07179106 -0.71302569 -0.0045020054
-0.06058969 -0.69272077 -0.0033476041
-0.053974513 -0.68026417 -3.6848451e-05
-0.033757839 -0.6445806 -0.0034090977
-0.026325343 -0.63137388 -0.0041534165
-0.021322271 -0.62175608 -0.0005397331
-0.014486916 -0.60953486 -0.00079889171
-0.0080625126 -0.59806871 -0.0011584962
0.00041034658 -0.5833286 -0.0037941621
0.0036830371 -0.57722533 -0.0024957992
0.016729563 -0.5543831 -0.0057355808
0.022052947 -0.54467046 -0.0048414706
0.024806758 -0.53945863 -0.0033197894
0.031767249 -0.52731729 -0.0053067366
0.034251686 -0.52267098 -0.0042493111
0.040925097 -0.51101571 -0.0060724262
0.04539524 -0.50296503 -0.0059178877
0.051879451 -0.49142674 -0.0064839576
0.054014299 -0.48759964 -0.0065107709
0.056162927 -0.48356113 -0.0054832185
0.064465947 -0.46882898 -0.0064441254
0.068542331 -0.4613429 -0.0054855547
0.07258378 -0.45404199 -0.0052188593
0.078723699 -0.44329539 -0.0067629004
0.082850173 -0.4360666 -0.0077648489
0.08900214 -0.42510623 -0.0082237395
0.097263485 -0.41032133 -0.0084642256
0.10583797 -0.39510703 -0.0094522554
0.10817333 -0.39109612 -0.0104712
0.11250133 -0.38330084 -0.0103157
0.11921775 -0.37126368 -0.010411921
0.12596418 -0.35903302 -0.0097196624
0.12888667 -0.35415223 -0.011774458
0.135968 -0.34127972 -0.010850183
0.14146544 -0.33163771 -0.012113892
0.14703472 -0.32178104 -0.012893072
0.1564631 -0.30535126 -0.015659196
0.16338038 -0.29203317 -0.01055648
0.16980439 -0.28056616 -0.010901134
0.17701919 -0.26784354 -0.012166812
0.186865 -0.2498734 -0.010462882
0.19542089 -0.23480771 -0.012083816
0.2265662 -0.18440807 -0.043037035
0.21448484 -0.20115229 -0.015202583
0.22883984 -0.17525586 -0.014421131
0.241662 -0.15269588 -0.016942823
0.25802854 -0.12280028 -0.013956501
0.26972145 -0.10133696 -0.011230365
0.29978192 -0.050203733 -0.027040225
0.31831577 -0.015168111 -0.016984137
0.34474626 0.031539597 -0.02100854
0.37791139 0.092051908 -0.015314109
1.2242854 1.5160795 -0.54844373
1.2127036 1.5185024 -0.41744047
1.1999593 1.5111322 -0.32995632
1.0745685 1.3096902 -0.19718173
1.0848391 1.3399975 -0.13009824
1.1052078 1.3881494 -0.064548083
1.1567655 1.4915937 -0.0027348367
1.1601753 1.5112007 0.073430568
1.1553651 1.5163296 0.15111612
1.1495564 1.5265511 0.26766869
1.1423968 1.5274824 0.3454515
1.1363147 1.5303985 0.42352474
1.1303067 1.5335312 0.50207114
1.1229237 1.5342362 0.58083874
1.1127743 1.5298991 0.65916044
1.0984536 1.5252683 0.77807564
1.0889529 1.5224638 0.8584789
1.081521 1.5238364 0.94151056
1.0738039 1.524982 1.0261514
1.0606307 1.5158633 1.1081035
1.149989 1.7086647 1.2915715
1.1195416 1.6774391 1.4236838
1.0627629 1.5834572 1.4681745
1.101472 1.6824776 1.6351789
1.094624 1.6907538 1.7512834
1.0857437 1.6959296 1.8704691
1.0860623 1.7216439 2.0124412
1.0281193 1.6386467 2.1307528
0.96264708 1.5249759 2.1521282
0.98069596 1.5937506 2.357645
1.0049201 1.680418 2.6016436
0.9884212 1.6795425 2.7638421
0.97982395 1.6997113 2.9648285
0.89984483 1.5547121 2.9562564
0.79527038 1.3694562 2.9695196
0.72381395 1.2387904 2.9555454
0.6662963 1.1414282 2.9884284
0.60376847 1.029498 2.9898007
0.54524028 0.92644274 3.0007703
0.48624521 0.82009637 2.9978836
0.4077473 0.68764091 3.0451329
0.35518527 0.59776497 3.0700843
0.2870895 0.44630334 2.9046192
0.24985155 0.41392761 3.0990384
0.19664802 0.31573951 3.0835466
0.14509797 0.22166888 3.0745552
0.094085366 0.12004672 3.0174727
0.045053553 0.039900783 3.0616052
-0.028338162 -0.091904312 3.060792
-0.079276055 -0.17464785 3.1095657
-0.12724254 -0.26394337 3.0912335
-0.17788745 -0.35090476 3.113219
-0.22768387 -0.43926072 3.1187322
-0.27742934 -0.52815419 3.1206934
-0.35301903 -0.66294032 3.1253121
-0.40755987 -0.7564736 3.1496542
-0.46478006 -0.85363233 3.1806676
-0.52417147 -0.95442814 3.2131388
-0.55028379 -1.0246631 3.0810335
-0.6382519 -1.1561025 3.2299702
-0.69400525 -1.2571473 3.2241759
-0.7818327 -1.4151121 3.2218802
-0.84459817 -1.5267487 3.2273126
-0.90961403 -1.6424217 3.2327492
-0.98304003 -1.7701687 3.2552063
-1.056983 -1.9003288 3.2692726
-1.1180934 -2.0148909 3.2414141
-1.1407871 -2.077678 3.1167338
-1.1537241 -2.1401753 2.8948295
-1.1540929 -2.1681659 2.7404747
-1.2813917 -2.3785834 2.8418684
-1.2801377 -2.4036949 2.6873291
-1.0954237 -2.1541824 2.2249866
-1.1723267 -2.2910469 2.23118
-1.0786148 -2.1695397 1.9679246
-1.1545584 -2.3152673 1.9143341
-1.2438148 -2.4739659 1.9223777
-0.84105939 -1.9494474 0.8038919
-0.67400271 -1.696175 0.54164195
-0.6661641 -1.6917168 0.48738542
-0.53868109 -1.5045717 0.25260046
-0.53207231 -1.5002781 0.20987351
-0.52591246 -1.5043617 0.12436868
-0.48478568 -1.5064306 -0.30415213
-0.10932039 -0.77939594 -0.0023718672
-0.094669193 -0.75298488 -0.0016738218
-0.082557432 -0.73141748 -0.0026013269
-0.071775772 -0.71230239 -0.0039023501
-0.060254533 -0.69130993 -0.0020939966
-0.050366275 -0.67346799 -0.001533416
-0.04472737 -0.66461354 -0.0086767301
-0.035771668 -0.64663798 0.002095443
-0.028353805 -0.63349688 0.0011370108
-0.018865673 -0.61713815 -0.0026334831
-0.014298761 -0.60834831 0.00072774646
-0.0059296857 -0.59407598 -0.0034876436
8.8469751e-05 -0.58333033 -0.0037929306
0.0057645133 -0.57324636 -0.0043686354
0.016580084 -0.55392456 -0.0048632049
0.021887753 -0.54423821 -0.0039526736
0.024633627 -0.53903973 -0.0024231679
0.031570017 -0.52693915 -0.0043884334
0.034046341 -0.52230668 -0.0033243021
0.038584504 -0.51422423 -0.0036751183
0.047189627 -0.49939466 -0.0071439543
0.04946778 -0.49499956 -0.0054127737
0.0537345 -0.4873642 -0.0055384981
0.060002748 -0.47638962 -0.007093105
0.062087178 -0.47242364 -0.0058226679
0.066182189 -0.46493036 -0.0050124153
0.070268109 -0.45775107 -0.0058832951
0.074295662 -0.45044935 -0.0054714801
0.078407183 -0.44329828 -0.0067610103
0.080506198 -0.43971431 -0.0077962857
0.086669683 -0.428772 -0.0084736235
0.090810187 -0.42141432 -0.008889799
0.096946709 -0.41032472 -0.0084621692
0.10122485 -0.40276191 -0.0091140363
0.10803878 -0.39094469 -0.011439983
0.11434977 -0.37938285 -0.010112622
0.12084188 -0.3675361 -0.0090111922
0.1256472 -0.35903722 -0.0097174011
0.13075422 -0.35009012 -0.010949071
0.13810949 -0.33683592 -0.010643604
0.14333573 -0.32748502 -0.010802531
0.14860149 -0.31798241 -0.010504695
0.15802731 -0.30149925 -0.01294098
0.16121614 -0.29586828 -0.013456515
0.16984034 -0.28007987 -0.011694741
0.17743154 -0.26681581 -0.013713736
0.18731117 -0.24877353 -0.011942079
0.19549653 -0.23423773 -0.012798401
0.22584388 -0.1850249 -0.042354345
0.2175471 -0.19471237 -0.013027014
0.2298006 -0.17330676 -0.016301095
0.24431045 -0.14667727 -0.012942742
0.25905019 -0.12070707 -0.015626902
0.26804942 -0.1034999 -0.0096419761
0.29919335 -0.048980184 -0.017296767
0.32034194 -0.011382863 -0.019245991
0.34774473 0.036944948 -0.023957489
0.38383397 0.10236193 -0.020171538
1.2275102 1.5293193 -0.50893813
1.2124292 1.5184702 -0.41743588
1.1918353 1.4977047 -0.32608464
1.0762553 1.3130438 -0.19800918
1.11017 1.3843137 -0.13912661
1.1039433 1.3864021 -0.064265847
1.1609172 1.4993408 -0.0036749165
1.1576591 1.5140319 0.11227588
1.1541386 1.5214607 0.18987951
1.1478223 1.5238984 0.26762134
1.1426014 1.5283265 0.34550551
1.1360368 1.5303683 0.42352703
1.1153277 1.5064665 0.49833077
1.1221758 1.5333372 0.58068538
1.1103742 1.533264 0.69980949
1.0990826 1.5269548 0.77855766
1.0873303 1.5198816 0.85765815
1.086521 1.5339338 0.94519794
1.0739553 1.52579 1.0264922
1.0658551 1.5265708 1.1129475
1.1373553 1.6938223 1.3330883
1.1200632 1.6790066 1.4245869
1.1166484 1.6924757 1.5352284
1.1019509 1.6839926 1.6362033
1.0950801 1.6922398 1.7523665
1.0922287 1.7099612 1.8813148
1.0717038 1.7050471 2.0614696
1.0226364 1.6274828 2.120513
0.97047079 1.5425702 2.1694458
0.97891909 1.5904422 2.3541849
1.0097581 1.6918695 2.6145322
0.98408169 1.6702852 2.7527399
0.94709361 1.6452315 2.9859388
0.8705734 1.5075361 2.9835174
0.79541218 1.3705169 2.9711478
0.72209781 1.2352028 2.9496963
0.66375387 1.1355871 2.9781818
0.6022687 1.0262696 2.9837008
0.54369652 0.92296559 2.9936686
0.4622525 0.78363031 3.0318522
0.40754533 0.68800986 3.0460541
0.35467443 0.59709221 3.0682104
0.28637046 0.44475773 2.8998809
0.24946496 0.41365439 3.0980787
0.1958221 0.31297243 3.0729134
0.11965856 0.17809169 3.0827527
0.06928701 0.074836709 3.0099165
0.020133361 -0.0040731803 3.0622203
-0.028678983 -0.091885895 3.0607915
-0.079570986 -0.17471521 3.1085703
-0.12805288 -0.26351714 3.0982063
-0.1782378 -0.35088012 3.1132193
-0.25265092 -0.4835729 3.1176741
-0.30306002 -0.57291073 3.1238041
-0.35394788 -0.66322654 3.1292603
-0.40808359 -0.75654918 3.1506374
-0.4653239 -0.85373557 3.1816449
-0.52663815 -0.95625973 3.2237773
-0.54612678 -1.0202243 3.0599625
-0.66581392 -1.2057303 3.2247972
-0.72180253 -1.3074054 3.2177737
-0.78351974 -1.4165725 3.2264719
-0.84690917 -1.5290098 3.2336409
-0.914042 -1.647387 3.2451875
-0.97771984 -1.7627686 3.2386503
-1.0842853 -1.9525696 3.2462986
-0.9255355 -1.769303 2.6730578
-1.1581373 -2.1162956 3.0697927
-1.1559381 -2.1426313 2.8987668
-1.1645105 -2.1823819 2.7611036
-1.2696193 -2.3608201 2.8181717
-1.276257 -2.3972869 2.6794517
-1.0825707 -2.1343627 2.2021413
-1.1912962 -2.329885 2.1993549
-1.0905387 -2.1966667 1.9309548
-1.1584548 -2.3205831 1.9191474
-1.2508738 -2.4842689 1.9309716
-0.67541879 -1.6887327 0.59385383
-0.6684978 -1.6859989 0.539159
-0.53858256 -1.5036774 0.25259286
-0.53683227 -1.5081232 0.20973392
-0.48018512 -1.5013846 -0.3263101
-0.10854319 -0.77708453 -0.00082824175
-0.094292343 -0.7514745 -0.00058388064
-0.083627358 -0.73289853 -0.0037374161
-0.070413031 -0.70868903 -0.00090164499
-0.059947934 -0.68990153 -0.00083569007
-0.050084867 -0.67209703 -0.00022191784
-0.042335838 -0.65860748 -0.0025608432
-0.033563077 -0.64264262 -0.0012910817
-0.025894025 -0.62887245 -0.0012347678
-0.018956257 -0.61653781 -0.001877121
-0.01218109 -0.60437202 -0.0018256977
-0.0060492256 -0.59352189 -0.0026876891
-4.6009864e-05 -0.58280039 -0.0029725798
0.0058173793 -0.57222986 -0.0026937469
0.016399149 -0.55347067 -0.0039877472
0.019388122 -0.54772455 -0.0018257899
0.026421877 -0.53555256 -0.0043681166
0.033356063 -0.52341402 -0.006090662
0.037944876 -0.51524806 -0.0064789751
0.042462226 -0.50714654 -0.0065073129
0.046901964 -0.4991217 -0.0061824908
0.051212821 -0.49143797 -0.0064784302
0.055468734 -0.48379576 -0.0064521125
0.057574403 -0.47999349 -0.0063195881
0.063800797 -0.46884102 -0.0064387247
0.067877315 -0.46135509 -0.0054802126
0.071918875 -0.45405436 -0.0052135745
0.076029748 -0.44693023 -0.0066464315
0.08015804 -0.43972415 -0.0077930219
0.086321734 -0.4287819 -0.0084705045
0.088446066 -0.42510074 -0.0092126178
0.092595242 -0.41770118 -0.0094789965
0.10087723 -0.40277192 -0.0091112545
0.10517356 -0.39512068 -0.009447447
0.10967224 -0.38722083 -0.010429563
0.11595374 -0.37567139 -0.0088735027
0.1207236 -0.36730191 -0.0099510914
0.12554401 -0.35877386 -0.010645552
0.13066582 -0.34979796 -0.011864308
0.13804264 -0.33650115 -0.011537423
0.14328282 -0.32712236 -0.011680688
0.14856209 -0.31759232 -0.011366104
0.15547734 -0.30579311 -0.014809837
0.16305631 -0.29158196 -0.011369082
0.17019796 -0.27910605 -0.013285623
0.17708367 -0.26682544 -0.013712533
0.18734442 -0.2482301 -0.012681946
0.19593233 -0.23309468 -0.014231881
0.22508891 -0.18564458 -0.041673977
0.21928108 -0.19156478 -0.016297381
0.23030274 -0.17201164 -0.017555922
0.24483705 -0.1453227 -0.01411512
0.26003727 -0.11861463 -0.01730028
0.26769975 -0.10350826 -0.009642384
0.29976755 -0.047501747 -0.018264923
0.32279837 -0.0068371482 -0.021964882
0.35260466 0.04740084 -0.017668072
0.38492101 0.10473626 -0.021295397
1.2266771 1.5284876 -0.50864428
1.2101249 1.5151467 -0.4163492
1.1895208 1.4943465 -0.32513207
1.0783595 1.3172643 -0.19906092
1.1172005 1.3971004 -0.14174527
1.103091 1.3855398 -0.064139567
1.1614412 1.507713 0.034590818
1.1582733 1.5157739 0.11215618
1.1547463 1.5232098 0.18982929
1.1484224 1.5256526 0.26764074
1.143675 1.5309581 0.34564584
1.1375751 1.5338736 0.42385766
1.1115031 1.5071751 0.53714484
1.1213217 1.5397303 0.62146884
1.1109115 1.5350066 0.7002089
1.1000594 1.5295461 0.77926522
1.0878365 1.5216037 0.85819274
1.0830495 1.5280485 0.94303411
1.0650177 1.5174317 1.0656871
1.055319 1.5152175 1.1513919
1.1381823 1.69628 1.3343353
1.1212586 1.6822271 1.4263796
1.1181899 1.6964307 1.5376265
1.1026785 1.6863379 1.6377271
1.0820624 1.6778626 1.7986535
1.0762216 1.6898 1.925187
1.0729753 1.7086586 2.0645201
1.0222193 1.6275221 2.1205001
1.0087274 1.6266185 2.2520342
0.98237824 1.5990345 2.3631632
0.98970723 1.6655746 2.6645901
0.9734813 1.6663611 2.8333676
0.94517583 1.6417819 2.9812839
0.86734825 1.5008657 2.9739637
0.78932023 1.3566294 2.9499295
0.72046465 1.2321744 2.9446762
0.66389877 1.1370834 2.9807343
0.57595575 0.98417968 3.0081959
0.5204252 0.8891238 3.0339701
0.46210733 0.78444874 3.0336668
0.40669125 0.68657172 3.0423555
0.35437271 0.59745657 3.0691423
0.29074398 0.46339604 2.9567173
0.22291072 0.36733395 3.1014454
0.17031059 0.27037948 3.0868263
0.11914136 0.17664696 3.0759068
0.068930887 0.076275505 3.0177877
0.019747596 -0.0039171237 3.0632095
-0.02926898 -0.091052674 3.0677395
-0.079981357 -0.17462596 3.1095669
-0.12821044 -0.26369238 3.0952201
-0.20316717 -0.39503247 3.112936
-0.25277606 -0.48354694 3.11569
-0.30277014 -0.57268035 3.1188536
-0.35470274 -0.66348433 3.1322253
-0.41030359 -0.75789124 3.1624181
-0.46685925 -0.85474432 3.1884737
-0.55279434 -1.0038567 3.2170792
-0.56961983 -1.0642744 3.0463686
-0.6654135 -1.2050433 3.2219787
-0.72110409 -1.3063626 3.214061
-0.78586066 -1.419047 3.2338202
-0.84005809 -1.5204751 3.2101662
-0.91917926 -1.6535549 3.2602949
-0.98524386 -1.7890934 3.164264
-1.0902889 -1.9603399 3.2615259
-0.92677546 -1.7707386 2.6755474
-1.1462094 -2.0996244 3.0415802
-1.1518351 -2.1366773 2.8893533
-1.1661874 -2.184598 2.7641714
-1.2705597 -2.3620367 2.8196671
-1.2840816 -2.4216154 2.6202495
-1.0942892 -2.1622074 2.1621878
-1.1985539 -2.3407285 2.2104886
-1.090304 -2.1961174 1.9303391
-1.1590656 -2.3213656 1.9197601
-1.2660496 -2.507889 1.950434
-0.67712343 -1.6913192 0.59458596
-0.66541302 -1.6848744 0.51232249
-0.55860192 -1.5082307 0.42758211
-0.53883219 -1.503741 0.25259814
-0.53562427 -1.5055648 0.20978914
-0.48001865 -1.5006372 -0.32588607
-0.10736078 -0.77401727 0.0012230274
-0.093893342 -0.7499764 0.0005011984
-0.07975895 -0.72587001 -0.0066183163
-0.06768465 -0.70391476 -0.00500307
-0.057602767 -0.68584651 -0.0051490529
-0.050431609 -0.67210436 -0.00022132123
-0.042074192 -0.65727824 -0.0012023951
-0.03133589 -0.63860375 -0.0045871665
-0.023435025 -0.62422925 -0.0034931935
-0.016797949 -0.61251336 -0.0046065263
-0.010299995 -0.60093296 -0.0050757774
-0.0039539132 -0.58951354 -0.0049153813
0.0020176815 -0.57880348 -0.0049666446
0.0060638022 -0.57069504 -0.00018818077
0.016205737 -0.55300754 -0.003116816
0.021325223 -0.54380745 -0.0030611304
0.026192909 -0.53514069 -0.0034657037
0.030850662 -0.52694172 -0.00438452
0.035551086 -0.51843631 -0.0040058466
0.04209033 -0.50713944 -0.0065077054
0.046528663 -0.49911383 -0.0061829318
0.050838146 -0.4914293 -0.0064789183
0.055092674 -0.48378631 -0.0064526461
0.059275888 -0.47638875 -0.0070899324
0.06342265 -0.46883011 -0.0064393105
