# .PCD v0.7 - Point Cloud Data file format
VERSION 0.7
FIELDS x y z
SIZE 4 4 4
TYPE F F F
COUNT 1 1 1
WIDTH 1340
HEIGHT 1
VIEWPOINT 0 0 0 1 0 0 0
POINTS 1340
DATA ascii
-0.11551975 -0.040241636 0.0077153742
-0.10216165 -0.14439464 0.0082464013
-0.10206915 -0.12108888 0.0086879497
0.098959915 -0.096206293 0.0087443013
0.096388981 -0.082869582 0.0085004168
-0.0029355006 -0.14508733 0.0090472912
-0.096579872 -0.10938385 0.0093246466
-0.035047021 -0.10932022 0.0093263285
0.0025922062 -0.10941765 0.0093154432
0.096520409 -0.10934979 0.0093139391
0.080272377 -0.096871845 0.0094927466
0.080255359 -0.070173264 0.0093165003
-0.053666275 -0.14594573 0.010752729
-0.10699867 -0.11056965 0.010827609
-0.0053754668 -0.11002295 0.010075777
0.093966313 -0.11064494 0.010846585
-0.1203258 -0.10996414 0.010081204
-0.11757546 -0.098168746 0.010986632
-0.093692251 -0.070876174 0.010042627
-0.01578404 -0.11200942 0.012315361
0.089006588 -0.099454425 0.012468075
-0.10900782 -0.10010973 0.013223501
-0.12234048 -0.10136493 0.014691919
-0.11418375 -0.1021561 0.015455054
0.086711109 -0.089579701 0.015819421
-0.052694231 -0.075970441 0.015976334
0.08674214 -0.11515415 0.016105566
0.092210859 -0.10276357 0.016205901
-0.10823926 -0.15166476 0.017696662
-0.009134125 -0.15167303 0.01766414
-0.036181174 -0.10403023 0.017696859
-0.081815563 -0.077587478 0.017244633
0.028032215 -0.077660643 0.017222932
0.04680999 -0.077634469 0.017235717
0.014877044 -0.11710214 0.01838062
-0.10315844 -0.11698797 0.018371973
-0.052251529 -0.10440467 0.018574907
-0.041314624 -0.092166901 0.018800473
0.073802195 -0.06568817 0.018905751
-0.097472973 -0.064926259 0.018228568
-0.057422038 -0.15262949 0.019385915
-0.044158511 -0.10520788 0.019224433
-0.038285457 -0.10598478 0.019934099
-0.0062670009 -0.10535116 0.01912294
-0.04927193 -0.092629299 0.019627104
0.079537682 -0.052234486 0.019529061
0.068656906 -0.022838393 0.019737013
-0.027378816 -0.15410227 0.020822858
-0.019624341 -0.10676536 0.020627061
0.0070911939 -0.10675984 0.020631632
0.017963197 -0.10669127 0.02062902
-0.032984264 -0.094216108 0.020954387
-0.00080951414 -0.081086539 0.020851457
0.05028069 -0.080391981 0.02012408
-0.088932507 -0.067081474 0.020359116
-0.060001858 -0.066831343 0.020490546
-0.05465078 -0.066760689 0.02054159
-0.086246453 -0.053603552 0.02093308
0.068723008 -0.052942477 0.020221259
0.082242317 -0.023558721 0.020424347
-0.00072870584 -0.1073698 0.021395618
0.034252629 -0.094928466 0.021648051
0.058304403 -0.081764974 0.021574359
0.026088811 -0.068492055 0.02179458
0.031670459 -0.068457805 0.021740314
0.044751644 -0.067729309 0.021063607
-0.06248042 -0.054152165 0.021735115
0.090689123 -0.024982303 0.021776142
-0.026985733 -0.10867061 0.022860473
-0.01656371 -0.10805859 0.02209596
0.010231344 -0.10874292 0.022862706
-0.0083127003 -0.10799155 0.02210379
-0.059658054 -0.095383868 0.02253329
-0.054299366 -0.095313378 0.022581337
-0.0031871775 -0.095613316 0.022411607
-0.019191874 -0.083183751 0.02298533
-0.0081385877 -0.083098024 0.022977095
0.018396659 -0.08311037 0.022989757
-0.02707223 -0.082439549 0.022270612
0.063916951 -0.06913019 0.022512192
-0.09961652 -0.054966632 0.022336377
0.087989137 -0.010526534 0.02273933
-0.021804307 -0.097017534 0.023877155
0.015732758 -0.096290693 0.023149215
0.02373285 -0.096330807 0.023162315
-0.043339353 -0.083622552 0.023797158
-0.035101075 -0.083755739 0.02375219
0.0025771838 -0.083818518 0.023717806
-0.056719273 -0.082852647 0.02315593
-0.077785067 -0.070477039 0.023925103
-0.040512647 -0.069740504 0.023242675
0.023752434 -0.069889009 0.023210371
0.037088253 -0.06980145 0.023163019
-0.091262311 -0.056488838 0.023724707
0.047846694 -0.055720951 0.023020949
0.053478386 -0.042241253 0.023914585
0.055945221 -0.042242009 0.02391207
0.074612908 -0.011297734 0.023367791
0.007748303 -0.12229551 0.024401018
-0.04583117 -0.097365193 0.024709439
-0.013607394 -0.097677909 0.024582844
-0.010824381 -0.097643204 0.024594951
0.042883039 -0.097611107 0.024596242
-0.06706892 -0.084388942 0.024500964
-0.061998587 -0.084301665 0.024537701
-0.016142087 -0.084529445 0.02440941
0.010527655 -0.084557131 0.024430312
-0.0027841125 -0.07122989 0.024608418
0.064227313 -0.012009406 0.024093539
-0.029416762 -0.098243505 0.02532848
0.026705613 -0.098331019 0.025359683
-0.024058988 -0.085207209 0.025162302
-0.0050630178 -0.085810743 0.025851337
-0.045693684 -0.071669571 0.025430432
0.016131341 -0.07193239 0.025322441
0.059071552 -0.058587313 0.025821531
-0.066935189 -0.057776004 0.025175337
0.04014536 -0.057848215 0.025089364
0.066909745 -0.013492162 0.02538668
-0.029150976 -0.073267736 0.026725063
0.0056903264 -0.073350392 0.026726218
0.0081866859 -0.07337378 0.026722347
0.053961162 -0.073302411 0.026745467
-0.082907379 -0.072559282 0.026025288
-0.037184376 -0.072560936 0.026065122
-0.021411052 -0.072685018 0.026025686
0.05142409 -0.05928535 0.026508469
0.077939384 -0.045146499 0.026597921
0.021957485 -0.087229952 0.027321173
0.056552954 -0.073997833 0.027450761
0.0033301588 -0.11327796 0.028070755
0.014142747 -0.088611327 0.028764194
-0.071919523 -0.087823153 0.02808875
-0.069245145 -0.074620597 0.028202673
-0.010179308 -0.074725337 0.028138235
-0.074383929 -0.046515632 0.02804845
0.045988314 -0.04654181 0.028005943
0.062616438 -0.062132269 0.029325442
0.073206864 -0.0020539961 0.029248094
0.014497626 -0.063563108 0.030682523
-0.071067959 -0.065578863 0.032819599
-0.072504938 -0.085070796 0.038816012
-0.021230543 -0.074175075 0.041128222
-0.0023591914 -0.074098513 0.041098151
-0.040252097 -0.073960297 0.041206043
0.013731294 -0.075619482 0.042508781
-0.041580051 -0.067903958 0.048644032
0.0099065546 -0.070342422 0.050575364
-0.0031326965 -0.071006171 0.051243003
0.0022873767 -0.07318414 0.053319905
-0.016103284 -0.076125287 0.056056362
-0.033865809 -0.067333356 0.060773816
-0.049674992 -0.069372304 0.06289719
0.041689962 -0.056598213 0.063568987
0.0098364418 -0.071833022 0.064750187
-0.041121606 -0.072263502 0.065575056
-0.0063764742 -0.072601952 0.065399915
0.017784415 -0.072616674 0.065412626
0.055415861 -0.029554656 0.065711647
-0.035710409 -0.073844574 0.066844843
-0.024872428 -0.073955476 0.066777214
0.0020559723 -0.073245913 0.066066824
-0.016580462 -0.0747822 0.067440264
-0.027127516 -0.076163225 0.068814449
-0.0082948161 -0.076249987 0.068750337
0.034303125 -0.061853349 0.068232045
0.061437659 -0.017867217 0.068865865
0.047972187 -0.048782479 0.069302157
0.026875023 -0.0647818 0.070837781
-0.042462569 -0.067461923 0.073662736
0.059702154 -0.023319442 0.073195659
0.016688369 -0.069304504 0.074791037
0.024764214 -0.068511166 0.074149109
0.054445863 -0.041811615 0.075839318
0.0012618984 -0.070714101 0.076096587
0.0089714285 -0.070746198 0.076132298
0.033171494 -0.05714976 0.076449476
-0.017313629 -0.072224312 0.077428751
0.041574571 -0.058620457 0.077687807
-0.035877824 -0.075704247 0.080841452
-0.027508816 -0.075883225 0.08077199
-0.0086230021 -0.078224964 0.082693577
-0.019135715 -0.078867152 0.083360463
-0.00041214316 -0.07892964 0.083357297
0.031909477 -0.065424427 0.083536565
0.047971118 -0.052523632 0.084674656
0.024296517 -0.068457529 0.086123258
0.04043616 -0.055625591 0.087217443
0.054025467 -0.041185744 0.087438904
0.064700611 -0.0095903669 0.087296493
0.016530896 -0.070721999 0.088053539
0.022017639 -0.072263688 0.089340605
0.051511269 -0.043505222 0.08928439
0.059586026 -0.028199578 0.089266956
-0.0099847661 -0.073768079 0.090645455
0.014413443 -0.073723063 0.090642162
-0.028684648 -0.072861545 0.090047717
0.0087697413 -0.072951958 0.090000406
0.038228467 -0.059490353 0.090418451
0.062828541 -0.014394152 0.090843864
-0.0016882929 -0.075269103 0.09191221
-0.020307221 -0.075918674 0.092591867
0.0067379759 -0.075939953 0.092553653
0.030785235 -0.062512659 0.092920601
0.046790339 -0.047393586 0.092373334
0.057466917 -0.0329271 0.092904694
-0.011908811 -0.077519871 0.093876243
0.04494394 -0.052856877 0.096707299
0.021014085 -0.070234753 0.099250548
-0.0024526464 -0.073287949 0.10176066
0.037531212 -0.058334205 0.10109995
0.051033482 -0.044734418 0.101972
0.01362336 -0.074021339 0.1024392
0.0060231574 -0.074756578 0.10303625
-0.012560891 -0.07631249 0.10431667
0.030078931 -0.062181149 0.10418524
0.035671912 -0.062970981 0.10479831
-0.0045720027 -0.077897474 0.10557528
0.057249252 -0.034352735 0.10564993
0.028039671 -0.066092767 0.10727998
0.062775664 -0.020692661 0.10726088
0.044126164 -0.052652534 0.10804503
0.020367909 -0.069201879 0.1097509
-0.019498738 -0.085462466 0.11195229
0.012592003 -0.071499959 0.1116192
0.0048122313 -0.073075719 0.11284468
0.050395098 -0.043926213 0.11273787
0.0024509311 -0.076214537 0.11531088
0.034752455 -0.062101085 0.11532703
0.056334212 -0.033641301 0.11650141
0.027156699 -0.066108733 0.11835708
0.04323763 -0.051961608 0.11871398
0.061958645 -0.020083597 0.11827681
-0.0047441549 -0.082439251 0.12029503
0.019748028 -0.069213577 0.12079249
0.041172571 -0.055965185 0.12167798
0.012053102 -0.071533278 0.12258483
0.054627299 -0.041713148 0.12228341
0.06048299 -0.028292377 0.12391787
-0.060005773 -0.13685833 0.12454543
0.017517315 -0.073938042 0.12444519
0.049781919 -0.044183344 0.12401137
0.033904504 -0.06151741 0.12581308
0.039389677 -0.061530445 0.12580639
-0.15354677 -0.16110675 0.12680632
-0.065047622 -0.13978325 0.12720847
0.010337851 -0.077848464 0.12744059
0.047574569 -0.049032379 0.12750246
-0.088630438 -0.15229173 0.12858027
-0.069839716 -0.14131242 0.12856227
-0.054109283 -0.13012674 0.12887803
0.031841874 -0.065535687 0.12877275
0.026132623 -0.064759821 0.12816675
-0.075147904 -0.14349756 0.13057563
0.024149699 -0.068730935 0.13113517
-0.1149863 -0.15593489 0.13202269
0.053870041 -0.04056859 0.13236623
0.064395584 -0.007047893 0.13202918
-0.12774427 -0.15874925 0.13472404
-0.10928338 -0.15881479 0.13469994
-0.010092351 -0.10021825 0.13453858
0.059559252 -0.028025649 0.1347017
-0.14111355 -0.15946884 0.13540263
-0.082364812 -0.14925785 0.13593696
0.038345844 -0.060350776 0.1356131
-0.1864976 -0.16026005 0.13611239
-0.095149405 -0.1515334 0.13797073
0.0039061464 -0.091306299 0.13773853
0.017088955 -0.076684676 0.13707155
-0.13499166 -0.1630841 0.13880938
-0.17799006 -0.16241263 0.13819049
-0.1219737 -0.16240501 0.13814011
0.030724173 -0.064460211 0.13850591
0.046762656 -0.049626764 0.1386288
-0.022906318 -0.1182937 0.13920335
0.057702173 -0.0354684 0.13965133
0.063249104 -0.018806618 0.13953027
-0.16419999 -0.16599351 0.14161673
-0.15879928 -0.1659842 0.14160167
-0.19923688 -0.15594412 0.14197361
-0.043838851 -0.13246514 0.14109524
0.04467256 -0.053733386 0.1414541
-0.1691913 -0.16743082 0.14296651
-0.15334809 -0.16668703 0.14228959
-0.089024998 -0.15595564 0.14201134
-0.075280339 -0.14724091 0.14398178
-0.059527297 -0.14647605 0.14332893
-0.0489485 -0.13477287 0.1430198
0.053233158 -0.04131433 0.14349705
-0.10208747 -0.15880944 0.14465986
0.023905758 -0.072505072 0.14430508
-0.20381914 -0.16028829 0.14592391
-0.069678172 -0.14953794 0.14597751
-0.064316928 -0.14874746 0.14530912
-0.010926087 -0.11419588 0.1457087
-0.016139455 -0.11342056 0.14511843
-0.0028736603 -0.10075564 0.14505059
0.037369542 -0.059429795 0.1453944
-0.19042371 -0.16033804 0.14604926
-0.11510381 -0.16034648 0.14605881
-0.096183054 -0.16099796 0.1466926
-0.053529888 -0.13856825 0.146244
0.010766528 -0.089484125 0.14654024
0.050901014 -0.045455068 0.1462684
-0.12812552 -0.16319917 0.14870575
0.035382371 -0.064369008 0.14878024
-0.18153915 -0.16396919 0.14940129
-0.14677842 -0.16397794 0.14938784
-0.10938138 -0.16399156 0.1493803
-0.082418442 -0.15389562 0.14991345
0.02987757 -0.065210745 0.1493316
0.056939986 -0.034729544 0.14969608
-0.14107685 -0.1654011 0.15071425
0.062418137 -0.019780152 0.15082358
-0.17312929 -0.16617624 0.15143742
-0.076728031 -0.15613811 0.15189454
-0.017750714 -0.12193225 0.15194353
0.0036152594 -0.096705616 0.15186946
0.043991711 -0.053760294 0.15179214
-0.1864683 -0.16765402 0.15276626
-0.13516441 -0.16760555 0.1527234
-0.12207061 -0.16688207 0.15205804
0.017418465 -0.084598623 0.15296099
-0.20798488 -0.1575512 0.15303443
-0.039133228 -0.13591471 0.15377858
-0.022954727 -0.12414552 0.15384404
0.041601788 -0.057053436 0.15398514
-0.1592862 -0.16983345 0.15480064
-0.089616455 -0.15920691 0.15456001
-0.16420026 -0.17057888 0.15546742
-0.15351865 -0.1705419 0.1554559
-0.19396511 -0.15994421 0.15518822
-0.059976295 -0.14988685 0.15589179
-0.043980323 -0.13751717 0.15501477
-0.14252783 -0.17199869 0.15675257
-0.21236816 -0.16189457 0.1569152
-0.064891495 -0.15070435 0.15654984
0.028664183 -0.07583788 0.15668048
-0.19929664 -0.16215937 0.15712044
-0.10243725 -0.16214585 0.15713926
-0.070439756 -0.15145187 0.15719368
-0.049040519 -0.14059986 0.15753873
-0.011502814 -0.11644549 0.15719992
-0.0031161176 -0.10464386 0.15780349
0.0017793096 -0.10389484 0.1572227
0.0099271145 -0.091146521 0.15759702
0.015562154 -0.090271801 0.15701832
0.023424568 -0.077456281 0.15782893
0.05015495 -0.047355745 0.15779036
-0.096922845 -0.1635619 0.15847822
-0.19051057 -0.16513816 0.15980488
-0.17696762 -0.16511717 0.15985218
-0.11006775 -0.16513869 0.15984051
-0.11559093 -0.1644161 0.1591624
0.047944475 -0.050721619 0.15993711
-0.12866956 -0.16583054 0.16045262
-0.05371936 -0.14367437 0.1600471
-0.16869563 -0.16734004 0.16183206
-0.14746913 -0.16660014 0.16115171
-0.10461106 -0.1666276 0.16109899
-0.082880609 -0.15595296 0.16107771
-0.0052449624 -0.11019386 0.16195081
0.02135423 -0.082359388 0.16120914
0.034729514 -0.067891933 0.16114351
0.056378033 -0.036764592 0.16124447
-0.18183577 -0.16811609 0.16246238
-0.12284358 -0.16805229 0.16244021
-0.077690028 -0.1574032 0.16234908
-0.018851308 -0.12264334 0.16208269
0.0083392253 -0.098421961 0.16279742
-0.17345838 -0.16959691 0.16380602
-0.13058384 -0.16955586 0.16373962
-0.13621385 -0.16879593 0.16309337
-0.20324048 -0.15890497 0.16351356
0.061930388 -0.023582302 0.16352455
-0.20854162 -0.16028951 0.164711
-0.084963836 -0.16053109 0.16496572
-0.090492487 -0.15974399 0.16430843
-0.039721098 -0.13745277 0.16435018
0.054206401 -0.04269705 0.16491522
-0.15463959 -0.17105906 0.16511483
-0.044952128 -0.1390499 0.16557641
0.040983807 -0.059909906 0.16582333
-0.19481702 -0.16278319 0.16686389
-0.012313337 -0.11657371 0.16673595
0.00098730985 -0.10407801 0.16688627
0.027762577 -0.075310081 0.1661101
-0.098040931 -0.16348159 0.16751033
-0.07109914 -0.15287822 0.16761552
-0.065953501 -0.15217637 0.16700181
0.014461793 -0.091391191 0.16740793
0.060017668 -0.029600687 0.16707033
-0.1863832 -0.16505137 0.16884933
-0.11106844 -0.16506283 0.16885923
-0.11665946 -0.16429532 0.1681678
-0.049670227 -0.14217862 0.16804984
-0.10582588 -0.16580606 0.16946852
-0.054821473 -0.1444975 0.16986828
-0.17775466 -0.16729 0.17078239
-0.14298987 -0.16730285 0.17076781
-0.16437741 -0.16654214 0.17014398
-0.15914932 -0.16654289 0.17016277
-0.14841415 -0.16652514 0.1701505
-0.12433465 -0.16650259 0.1701114
-0.078724764 -0.15667574 0.17078143
-0.07337863 -0.15668754 0.17078592
-0.036151852 -0.13367581 0.17058903
0.03364671 -0.067503758 0.17063402
0.047242355 -0.051191501 0.17015104
-0.16958682 -0.16805699 0.17144966
-0.13741678 -0.16801935 0.17139734
-0.11864638 -0.16803682 0.17139801
-0.21784142 -0.15805744 0.17183766
-0.21235579 -0.15726523 0.17115028
-0.059638031 -0.14686866 0.17173089
-0.0063551525 -0.11046907 0.17151845
0.0071674366 -0.097976871 0.1719216
-0.13174443 -0.16878428 0.1720378
-0.19907764 -0.15901777 0.17259195
-0.091575623 -0.1589998 0.17269166
-0.040793844 -0.13689618 0.17298378
-0.025017207 -0.12355565 0.17218055
-0.019712916 -0.12361176 0.17211853
0.020813029 -0.084389687 0.17214067
-0.20440994 -0.1596797 0.17313811
-0.086290725 -0.15984413 0.17334844
-0.008551945 -0.11371826 0.17385522
-0.14519352 -0.171066 0.17401519
-0.1905224 -0.16136877 0.17458199
-0.061652925 -0.15078585 0.17483594
-0.045982145 -0.13927794 0.17479478
-0.029914906 -0.12679538 0.17453675
0.039999068 -0.058833472 0.17485136
-0.099238932 -0.16210996 0.17519042
-0.093953907 -0.16204216 0.1752115
-0.067205459 -0.15155712 0.17545336
-0.013550114 -0.11609815 0.17560737
8.4747648e-05 -0.10366493 0.17588332
0.053244323 -0.043360177 0.17523415
-0.18224971 -0.16366339 0.17651726
-0.11251717 -0.16368209 0.17650296
-0.050785821 -0.14165206 0.17659028
0.013185651 -0.090266317 0.17600049
0.026741225 -0.076688416 0.17655835
-0.17378521 -0.16517022 0.17779949
-0.12560847 -0.16514458 0.17774136
-0.10700022 -0.16442767 0.1771547
-0.25930417 -0.13176417 0.17795189
-0.032211561 -0.13081902 0.17747411
-0.27508226 -0.11941583 0.1778785
-0.28927231 -0.1185599 0.17725495
0.024259625 -0.078354254 0.17762227
0.037619691 -0.063100122 0.17744625
-0.1601343 -0.16595715 0.17843172
-0.15509951 -0.16594428 0.1784368
-0.14944971 -0.16592602 0.17842099
-0.12001736 -0.16590324 0.17838499
-0.22170907 -0.15527125 0.17839389
-0.20845912 -0.15597318 0.17891365
-0.079785191 -0.15541615 0.17855972
-0.074819505 -0.15535893 0.1785392
-0.05598858 -0.14401585 0.17838606
-0.037190489 -0.1324873 0.17860958
-0.0023739762 -0.10690215 0.17814143
0.011165247 -0.094406478 0.17874435
0.059430569 -0.032088354 0.17846826
0.064625286 -0.014664816 0.17873718
-0.13847114 -0.16745506 0.17964086
-0.16564208 -0.16669466 0.17906846
-0.13339056 -0.16666992 0.17901239
-0.21373275 -0.15674846 0.17953455
-0.2820847 -0.12101997 0.17901511
0.046173152 -0.051041421 0.17977048
-0.20015039 -0.15845808 0.18088832
-0.19505467 -0.15855792 0.18097462
-0.087637976 -0.15776412 0.18041945
-0.082222261 -0.15779522 0.18043062
-0.042219777 -0.1357245 0.18096656
-0.25076437 -0.13496704 0.18034434
-0.026336834 -0.12241834 0.1803444
-0.020797282 -0.12242319 0.18031326
-0.2928158 -0.1110403 0.18096997
0.0058921399 -0.096905246 0.18043253
0.019684607 -0.082532085 0.18027616
0.03280535 -0.067315117 0.1800617
0.057050966 -0.036415067 0.18094787
-0.26665208 -0.12506871 0.18188067
0.030512219 -0.069842905 0.18163198
-0.19196968 -0.16089161 0.18286799
-0.18652131 -0.16011648 0.18226328
-0.10085707 -0.16012278 0.1822409
-0.095426679 -0.16006042 0.18225008
-0.06328474 -0.14881776 0.18203834
-0.047064617 -0.13813937 0.18273893
-0.0095833289 -0.11262716 0.18213919
0.003679842 -0.099373423 0.18208554
0.017128525 -0.085923158 0.18243444
0.043995284 -0.056192704 0.18283007
0.062677763 -0.02080475 0.1820742
-0.17809595 -0.16167575 0.18352444
-0.23144925 -0.15021816 0.18315603
-0.068330571 -0.1503319 0.18323192
-0.26359236 -0.1274173 0.18362512
-0.014985152 -0.11499283 0.1838596
-0.29442999 -0.10183924 0.18377478
-0.16973728 -0.16322447 0.18479018
-0.12686235 -0.16318907 0.18472567
-0.11383297 -0.16244994 0.18412073
-0.1083551 -0.16246216 0.184166
-0.21801718 -0.15256609 0.18488787
-0.22619753 -0.1518237 0.18436264
-0.22349119 -0.15180312 0.18432547
-0.052228652 -0.14052355 0.18447646
-0.25554377 -0.12911917 0.18484031
0.052282613 -0.042512733 0.18443254
-0.14028734 -0.16477026 0.18599544
-0.11606044 -0.16475004 0.18597974
-0.17516272 -0.16397747 0.18538962
-0.16167228 -0.16398266 0.18539764
-0.12162808 -0.16394892 0.18536574
-0.07619413 -0.15266378 0.18505204
-0.0037986073 -0.10509755 0.18594238
0.036344327 -0.0613808 0.18585645
-0.13472331 -0.16551022 0.18659905
-0.16700207 -0.16476625 0.18603085
-0.15633838 -0.16476022 0.18603648
-0.15092896 -0.16475524 0.18602103
-0.14560091 -0.16474697 0.18602422
-0.08388707 -0.15512854 0.18690525
-0.20961101 -0.15485577 0.18660648
-0.20464219 -0.1548906 0.18664786
-0.057062659 -0.14295793 0.18625753
-0.2855356 -0.11920193 0.18659003
-0.27611873 -0.11935078 0.18662232
-0.28330284 -0.11838349 0.18602851
-0.017222596 -0.1182159 0.18614285
0.0096986927 -0.091825441 0.18618314
0.023416238 -0.078285061 0.18682396
-0.088951252 -0.1558409 0.18748799
-0.23618896 -0.14528759 0.18799204
-0.038169574 -0.13309786 0.18776761
-0.27838266 -0.12013896 0.1871732
-0.022224091 -0.12061922 0.18789849
0.050378215 -0.048552629 0.18785892
-0.20167184 -0.15733193 0.18851292
-0.19623005 -0.15743278 0.18859911
-0.096847929 -0.15746124 0.18866731
-0.064867094 -0.14617796 0.18863207
-0.043578129 -0.13392389 0.18833858
-0.27057987 -0.12164911 0.18829523
-0.18779926 -0.15905982 0.18990277
-0.18263738 -0.15905285 0.18993935
-0.10230611 -0.15826778 0.18930733
-0.22771543 -0.14762075 0.18972944
-0.069998182 -0.14771208 0.18980956
-0.027344758 -0.12230058 0.18901461
-0.011022989 -0.11086752 0.18983389
0.0025782618 -0.097651735 0.18994617
0.015660577 -0.083444804 0.18995941
0.029114923 -0.068198107 0.1899389
-0.10462311 -0.15984437 0.19055089
-0.048396129 -0.13636088 0.19005196
-0.26769218 -0.12494373 0.19053745
-0.17130315 -0.16139539 0.19177498
-0.12825331 -0.16138136 0.19171888
-0.12313079 -0.16137296 0.191718
-0.11764957 -0.16136587 0.19172853
-0.179649 -0.1606324 0.19115214
-0.10992027 -0.16065273 0.191139
-0.21939266 -0.1500027 0.19143814
-0.21426722 -0.15074989 0.19196706
-0.077472791 -0.15014474 0.19160342
-0.053615145 -0.13878775 0.19176538
-0.25941312 -0.12654959 0.19168979
-0.03485512 -0.12649421 0.19176246
-0.28867748 -0.11423095 0.191947
-0.28676665 -0.11338791 0.19139689
-8.6653345e-05 -0.099290535 0.1910179
0.042914279 -0.054623444 0.19130932
-0.1632795 -0.16217484 0.19238387
-0.15766342 -0.16220173 0.19238044
-0.15262705 -0.16218972 0.19238558
-0.14697683 -0.16217418 0.19237041
-0.14183086 -0.16297406 0.19297014
-0.13622046 -0.16217279 0.1923247
-0.13091926 -0.16294272 0.19293568
-0.085442916 -0.15175794 0.19278885
-0.058541264 -0.13965496 0.19235498
-0.040100891 -0.12817466 0.19287848
-0.032289654 -0.12728032 0.19235066
0.056240406 -0.03921539 0.19214857
-0.2058301 -0.1531247 0.19370796
-0.090621583 -0.15329513 0.19395268
-0.061243612 -0.14128706 0.19351578
-0.25646657 -0.12984405 0.19395597
-0.27949545 -0.11673695 0.19362299
-0.018504648 -0.1156992 0.19321525
-0.005120581 -0.10264615 0.19319995
0.022112429 -0.075029068 0.19395974
0.064680763 -0.0045267418 0.19334745
-0.093245268 -0.15411936 0.19453856
-0.023752186 -0.11818118 0.19489728
-0.0074287774 -0.10431363 0.19428
0.0059144073 -0.091065265 0.19468342
0.0083264187 -0.090235688 0.19416055
0.04059777 -0.059844859 0.19424897
0.062238716 -0.025461081 0.19430493
-0.19763592 -0.15487021 0.19500704
-0.19254251 -0.15496768 0.19509323
-0.098568529 -0.15497898 0.19512123
-0.23208539 -0.14436553 0.19575278
-0.066198789 -0.14365409 0.19523399
-0.25097007 -0.13152452 0.19512197
-0.044863611 -0.13146943 0.19513178
-0.27189821 -0.12006588 0.19584687
-0.028923245 -0.11989721 0.19595642
0.019448986 -0.077636316 0.19549415
0.035494026 -0.061553117 0.19523992
-0.17571273 -0.15737128 0.19694231
-0.11156203 -0.15737127 0.1969201
-0.18957523 -0.15656741 0.19631289
-0.18402207 -0.15656798 0.19632803
-0.10618871 -0.15658431 0.19637272
-0.074077837 -0.14604951 0.19697225
-0.22407655 -0.14518921 0.19631061
-0.071648858 -0.14523248 0.19639401
-0.050041486 -0.13391589 0.19678654
-0.012653213 -0.10841756 0.19698814
-0.29008353 -0.1077177 0.19638459
-0.30118501 -0.079303607 0.19651325
0.049209066 -0.047929958 0.19689474
-0.18128699 -0.15816629 0.19754584
-0.16747144 -0.15816438 0.1975614
-0.21569595 -0.14757171 0.19796579
-0.26379457 -0.12337233 0.19799988
0.033272557 -0.065001026 0.19721448
-0.15930441 -0.15974186 0.19873454
-0.15408355 -0.15974227 0.19875355
-0.14867006 -0.15973853 0.19873832
-0.14334403 -0.15973262 0.19874227
-0.13802776 -0.15975612 0.19871363
-0.13257696 -0.15971978 0.19869809
-0.17289883 -0.15893944 0.19813377
-0.12712122 -0.15893121 0.19809984
-0.12449159 -0.15893114 0.19809093
-0.11936368 -0.15891445 0.19811147
-0.21036369 -0.14830871 0.19846572
-0.07907325 -0.1477596 0.19816065
-0.054892406 -0.13641068 0.19848347
-0.036233924 -0.12414195 0.19865009
-0.0015995245 -0.096924104 0.19833969
0.01189254 -0.082810193 0.19853087
0.01458283 -0.081944466 0.19800729
0.027907073 -0.066719018 0.19820523
-0.20730099 -0.14992641 0.19960254
-0.20233081 -0.14996013 0.19964299
-0.086853385 -0.1493099 0.19929783
-0.23671106 -0.13720579 0.19901632
-0.041551147 -0.12581678 0.19974302
-0.020112876 -0.11250557 0.19975677
-0.28332973 -0.1118825 0.19903892
-0.19403228 -0.15175124 0.20093086
-0.094760917 -0.15097094 0.20042203
-0.23393324 -0.13962209 0.20069976
-0.24210465 -0.13887481 0.20016472
-0.04648155 -0.12748463 0.20082165
0.025865903 -0.071026243 0.20063491
-0.30230168 -0.070131071 0.20016655
0.047080036 -0.054059792 0.20025304
-0.10012182 -0.15260728 0.20161276
-0.070676655 -0.14127079 0.20186605
-0.2282384 -0.14037848 0.20122315
-0.067954086 -0.14046985 0.20130441
-0.27343813 -0.11622029 0.20175226
-0.27589634 -0.11535352 0.20120166
-0.025152909 -0.11506355 0.20135164
-0.29318959 -0.10206829 0.20150864
-0.0089460863 -0.10197973 0.2015074
0.055350427 -0.039619207 0.20175804
-0.11568787 -0.15417282 0.20276752
-0.11307802 -0.15419447 0.20276311
-0.18561386 -0.15341863 0.20217931
-0.10795292 -0.15343693 0.20220478
-0.2201927 -0.14284514 0.20287433
-0.032878298 -0.11767442 0.20288301
-0.030412495 -0.11764231 0.20290759
0.0047340575 -0.088767305 0.20209076
0.017817657 -0.073694102 0.20211552
-0.16923715 -0.15500848 0.20339109
-0.16392055 -0.15501496 0.20339121
-0.16122121 -0.15580802 0.20397218
-0.1556084 -0.15583366 0.20396861
-0.15057045 -0.1558224 0.20397395
-0.14491963 -0.15580913 0.2039599
-0.13416249 -0.15580916 0.2039149
-0.12896644 -0.15579183 0.20392011
-0.12106854 -0.15498869 0.20333581
-0.21726477 -0.14364302 0.20341502
-0.080924608 -0.14383265 0.20359203
-0.075448386 -0.1429632 0.20301475
-0.051619571 -0.13080065 0.20300114
-0.2653293 -0.11943907 0.20385942
-0.26791298 -0.11858093 0.20333986
-0.016643718 -0.10523301 0.2036757
-0.01411315 -0.10526794 0.20363979
0.039398249 -0.059351709 0.20310082
-0.13977861 -0.15663134 0.20453271
-0.21204448 -0.14523144 0.20448127
-0.083426647 -0.14461702 0.20414403
-0.24645287 -0.13331069 0.20467083
-0.056453072 -0.13251546 0.20411234
-0.25980967 -0.12104436 0.20492922
-0.25705889 -0.12108377 0.20495471
-0.038037136 -0.1202324 0.20447791
-0.28653526 -0.10626541 0.20402606
-0.2845276 -0.10625206 0.20402715
0.053409539 -0.045778442 0.20497392
0.061157834 -0.025932424 0.20408937
-0.20371938 -0.14684877 0.20557418
-0.088610545 -0.14619666 0.20525284
-0.24382418 -0.13413768 0.20520392
-0.23831858 -0.13497816 0.20575164
-0.064328767 -0.13495842 0.20575009
-0.061921638 -0.13416995 0.20521232
-0.021814613 -0.10861943 0.20579258
-0.0054934938 -0.093863733 0.20517777
-0.0029964871 -0.093873359 0.20517029
0.0078511694 -0.07974463 0.20558929
-0.1043017 -0.14874671 0.20699599
-0.10170168 -0.14873585 0.20698865
-0.19851486 -0.1477723 0.20620568
-0.19562973 -0.14781207 0.20624979
-0.096568607 -0.14791945 0.2063646
-0.23011999 -0.13651977 0.20679183
-0.042917028 -0.12276561 0.20608036
-0.27973577 -0.10966885 0.20613076
-0.27727494 -0.10967704 0.20613752
-0.29604426 -0.095585629 0.20619366
0.010442017 -0.080628663 0.20608057
0.032127943 -0.0663094 0.20694534
-0.19033957 -0.14954579 0.20746523
-0.1820302 -0.14954792 0.2075143
-0.10967931 -0.14955473 0.20751549
-0.22459 -0.13733578 0.20732924
-0.072223812 -0.13741428 0.20740455
-0.048109628 -0.12527132 0.2076505
-0.026808951 -0.11206912 0.20783645
-0.29387021 -0.098191909 0.2077163
-0.013378013 -0.098011002 0.20776886
-0.010741114 -0.098062038 0.20774153
-0.17652918 -0.15119129 0.20867671
-0.17362797 -0.15119044 0.20866585
-0.16549492 -0.15118495 0.20869246
-0.13080995 -0.15114631 0.20864621
-0.12524895 -0.15115644 0.20864047
-0.12261829 -0.15115604 0.20863119
-0.11758747 -0.15032068 0.20808738
-0.22192644 -0.13902222 0.20842296
-0.077228643 -0.13916194 0.20853513
-0.053071536 -0.12698498 0.20872468
-0.26969621 -0.11308111 0.20824589
-0.29001042 -0.099916726 0.2087326
0.024746768 -0.069782324 0.20881802
0.059075341 -0.033972599 0.20814909
0.064770348 -0.015835553 0.20857166
-0.13615762 -0.15200114 0.20922592
-0.15743366 -0.15198395 0.20924437
-0.15221752 -0.15198418 0.20926371
-0.14679958 -0.15198144 0.20924895
-0.14147604 -0.15197748 0.20925422
-0.21365796 -0.14063628 0.20944366
-0.085018322 -0.14075419 0.20961675
-0.061105184 -0.12868784 0.20980117
-0.26170662 -0.11561573 0.20976251
-0.039752085 -0.11557443 0.20985381
-0.018311825 -0.10138743 0.20985962
-0.28781083 -0.10076864 0.20919289
0.00030038843 -0.085730709 0.20904106
0.0031141159 -0.085742943 0.20902513
0.046070892 -0.053732567 0.20913886
-0.20822722 -0.14222425 0.21046615
-0.092937388 -0.14245403 0.21068436
-0.090374239 -0.14241576 0.21069992
-0.24020475 -0.13034622 0.2108569
-0.24826527 -0.12952881 0.21036084
-0.058250733 -0.12954389 0.21034183
-0.044693369 -0.11728024 0.21087509
-0.28126514 -0.10331275 0.21068834
0.016753705 -0.072463453 0.21023978
-0.098307483 -0.14413024 0.21181786
-0.20020552 -0.14391474 0.21158622
-0.23451732 -0.13115439 0.21137431
-0.2319435 -0.1319527 0.21190029
-0.066156231 -0.13114265 0.21140394
-0.023281926 -0.10485705 0.21187335
-0.0071586128 -0.090028733 0.21153955
0.014229149 -0.075095147 0.21168821
-0.18661794 -0.14578174 0.212896
-0.18370226 -0.14578916 0.21290544
-0.1112728 -0.1457583 0.21291265
-0.19201098 -0.14491221 0.21226449
-0.10614222 -0.14497967 0.21238221
-0.22615714 -0.13356824 0.21293171
-0.22359441 -0.13357086 0.21293426
-0.27393997 -0.10599952 0.2122255
-0.29661596 -0.092646219 0.21297473
-0.29492223 -0.091803618 0.21251732
0.038607143 -0.060797952 0.21282876
-0.17844914 -0.14661102 0.21349379
-0.11926971 -0.14657277 0.21345773
-0.21821949 -0.13525479 0.21396121
-0.081751511 -0.13454764 0.21356373
-0.073670559 -0.13369383 0.21302862
-0.054695714 -0.12242386 0.21399154
-0.049760755 -0.12152039 0.21346101
-0.028557226 -0.10749002 0.21334073
-0.014878705 -0.093357444 0.21359397
0.0066954503 -0.077677317 0.21313068
0.052229863 -0.045525525 0.21393338
-0.14302906 -0.14824069 0.21460323
-0.17006791 -0.14741443 0.21403979
-0.16733788 -0.14741924 0.21406169
-0.16202548 -0.14742494 0.21406181
-0.15381718 -0.14743355 0.21405941
-0.14877765 -0.14742295 0.21406505
-0.13808781 -0.14742605 0.21404731
-0.13236821 -0.14741294 0.21400845
-0.21018399 -0.13686281 0.21494813
-0.079056092 -0.13542013 0.21411243
-0.25282067 -0.12322938 0.21449946
-0.25037184 -0.12240511 0.21400225
-0.033356149 -0.1101239 0.21482813
-0.26597542 -0.10930138 0.2142483
-0.2909753 -0.094445534 0.2140014
0.036365263 -0.064313725 0.21468316
-0.20438935 -0.13851734 0.21596578
-0.20186646 -0.13851951 0.21598405
-0.094910435 -0.1379275 0.21566969
-0.086846299 -0.13700621 0.21515284
-0.24451867 -0.12493473 0.21556553
-0.062585942 -0.12492546 0.21554388
-0.28451955 -0.097000763 0.21538672
-0.28251246 -0.096988045 0.2153884
-0.020070834 -0.096814953 0.21559286
-0.003648696 -0.082004726 0.21556264
-0.0012365886 -0.081139334 0.21507783
0.030906139 -0.065183051 0.21515165
-0.19377641 -0.13949871 0.2166272
-0.10255759 -0.13961303 0.21680942
-0.23639123 -0.12664017 0.21658853
-0.046479523 -0.11356955 0.21680576
-0.275365 -0.099618703 0.21688797
-0.29756752 -0.084639654 0.21695092
0.049980897 -0.050878342 0.21663204
-0.18019113 -0.14127097 0.2178335
-0.1209823 -0.14124309 0.21782327
-0.1130067 -0.14122894 0.21784237
-0.19656593 -0.14029883 0.21712069
-0.18859494 -0.14043112 0.21724878
-0.18583404 -0.140434 0.21728344
-0.10793933 -0.14044109 0.21730034
-0.099861354 -0.14044079 0.21733786
-0.2282002 -0.12822182 0.21757209
-0.067966402 -0.12743145 0.21711385
-0.2777386 -0.10047653 0.21737421
-0.025082745 -0.10033579 0.2175179
-0.0089202374 -0.086292058 0.21797919
0.028921816 -0.070459001 0.21789321
0.023345664 -0.069618061 0.21744727
0.058172919 -0.034740131 0.21769345
-0.17469995 -0.1429536 0.21893924
-0.17189492 -0.14211361 0.21839152
-0.1636716 -0.14294662 0.21895508
-0.15049471 -0.1429262 0.21896091
-0.14507212 -0.1429244 0.21894673
-0.13975126 -0.14292221 0.21895361
-0.13452564 -0.14210729 0.21838941
-0.12629941 -0.1429074 0.21891063
-0.22011949 -0.12993352 0.21859573
-0.07551197 -0.1292221 0.21818382
-0.059497025 -0.11705928 0.21883845
-0.25468835 -0.11614683 0.21831192
-0.051362976 -0.11617655 0.21832751
-0.26780576 -0.10309392 0.21887822
-0.27048796 -0.10234746 0.21838525
-0.030023161 -0.10299762 0.21893962
-0.29197031 -0.087293558 0.21842821
-0.30057973 -0.072159864 0.2188351
0.020776832 -0.072292581 0.21882099
0.044879824 -0.054487702 0.21840245
0.063766032 -0.017544486 0.2187811
-0.15846139 -0.14375688 0.21949457
-0.20367271 -0.13236471 0.21998374
-0.21439147 -0.13158807 0.21957774
-0.21186122 -0.13158613 0.21955945
-0.083311372 -0.13085413 0.21920869
-0.2465729 -0.11877504 0.21987607
-0.25725809 -0.11782276 0.21930113
-0.056645181 -0.11793314 0.21934941
-0.28803709 -0.089927852 0.21986251
-0.016676163 -0.087939784 0.21902658
0.04234634 -0.057158686 0.2197448
-0.11248221 -0.13340685 0.22077124
-0.09671358 -0.13345692 0.22077119
-0.20652612 -0.13236538 0.22000338
-0.088679165 -0.13255326 0.22023444
-0.23842818 -0.12046894 0.22085051
-0.064561076 -0.11957033 0.22035493
-0.035201631 -0.1056373 0.22040202
-0.021671671 -0.091478102 0.22092055
-0.28583941 -0.090796791 0.22029257
0.0051061963 -0.074868008 0.22022454
0.012951161 -0.074947685 0.22023332
-0.1903234 -0.135106 0.22170997
-0.10968815 -0.13512374 0.22180928
-0.19851629 -0.1340932 0.22106454
-0.1045524 -0.1343251 0.22130728
-0.23017691 -0.12211318 0.2218364
-0.080269165 -0.12219118 0.22188957
-0.24095222 -0.12131263 0.22136563
-0.0721853 -0.12131909 0.22138481
-0.040108334 -0.10825138 0.22187158
-0.048357088 -0.10738403 0.22133851
-0.18202198 -0.13600059 0.22232133
-0.13651629 -0.13682944 0.22288652
-0.12272323 -0.13681403 0.22284918
-0.11769153 -0.1359574 0.22232611
-0.23256691 -0.12301001 0.22235298
-0.077490233 -0.12393849 0.22291559
-0.069561295 -0.12298952 0.22238034
-0.053122889 -0.11003655 0.22282267
-0.034781564 -0.095108449 0.22273225
-0.026878519 -0.095036991 0.22277421
-0.2792289 -0.094269 0.22217758
-0.0052732644 -0.078355931 0.22212666
0.0026144362 -0.078387626 0.2220899
-0.16830783 -0.1385117 0.22392039
-0.16557787 -0.13851684 0.22394265
-0.15206307 -0.13852923 0.22393948
-0.14702195 -0.1385193 0.22394542
-0.17668478 -0.13768938 0.2234033
-0.14146148 -0.13766198 0.22341247
-0.1281932 -0.13765194 0.22337684
-0.1148647 -0.13764586 0.22338273
-0.21646996 -0.12549008 0.22378126
-0.085285261 -0.12556353 0.22389971
-0.2243091 -0.12462378 0.22331691
-0.2617985 -0.11174447 0.22376543
-0.2593118 -0.11087887 0.22326151
-0.061201293 -0.11086138 0.2233033
-0.27200192 -0.09613236 0.22314611
-0.2946707 -0.081905901 0.22393274
-0.01056972 -0.080906302 0.22356535
-0.013179429 -0.079989761 0.22314095
0.035113208 -0.065139249 0.22379388
-0.15463431 -0.14020914 0.22497088
-0.16017763 -0.13936977 0.22446477
-0.20844804 -0.12713701 0.22471176
-0.093356133 -0.12650163 0.22438551
-0.25107905 -0.11259224 0.22428602
-0.039696697 -0.097748116 0.22415607
-0.03169233 -0.097721949 0.22417045
-0.28912455 -0.082855463 0.22443691
-0.018475041 -0.082630962 0.22455747
0.048807673 -0.049107015 0.22458425
-0.12773618 -0.12902561 0.22593276
-0.10640289 -0.12907121 0.22592905
-0.098324105 -0.12907039 0.22596601
-0.11449453 -0.12816238 0.2254315
-0.090322353 -0.12819548 0.22539747
-0.20022808 -0.12797356 0.22518258
-0.066425994 -0.11515401 0.22577102
-0.24279058 -0.11433388 0.2252939
-0.044921778 -0.10036276 0.22555183
-0.037036546 -0.099487089 0.22511536
-0.28268263 -0.085461639 0.22573197
0.02778809 -0.06956961 0.22599207
-0.19484186 -0.13064492 0.22676483
-0.18687542 -0.13077456 0.22689067
-0.13299832 -0.13077436 0.22696048
-0.11936114 -0.13074924 0.22693074
-0.19204767 -0.12982535 0.22629885
-0.23467009 -0.11607523 0.2262578
-0.081963681 -0.1169157 0.2267618
-0.074067704 -0.1161123 0.22628686
-0.049821056 -0.10302126 0.2269828
-0.041910402 -0.10212054 0.22652557
-0.023504488 -0.086218767 0.22636101
-0.12988731 -0.13246678 0.22795376
-0.13823056 -0.13160768 0.22749498
-0.12477746 -0.13159393 0.22745357
-0.21850933 -0.11857653 0.22765717
-0.089908071 -0.11868747 0.22771202
-0.22648627 -0.1176946 0.22718373
-0.26363552 -0.1038777 0.22743829
-0.25306347 -0.10386666 0.22744513
-0.028464397 -0.088929787 0.22769
0.011787394 -0.073181994 0.22780669
0.019780045 -0.072298773 0.22732261
0.057408452 -0.036588386 0.22753912
-0.17000836 -0.13420703 0.22898892
-0.17829794 -0.13334626 0.22846007
-0.14336985 -0.13332246 0.22850081
-0.22080205 -0.12028147 0.22864902
-0.10322554 -0.12045738 0.22874124
-0.087170541 -0.12038252 0.22871368
-0.25564072 -0.10557809 0.22837558
-0.063123152 -0.10561097 0.22841509
-0.055028193 -0.10568676 0.22842193
-0.041542038 -0.090751491 0.22857386
-0.27583942 -0.089888476 0.22806224
-0.29204208 -0.074900717 0.22873545
0.017162975 -0.074087925 0.22823276
-0.15667716 -0.13503009 0.22952649
-0.17290621 -0.13420901 0.22900043
-0.1618838 -0.13420139 0.22901636
-0.21270223 -0.12113362 0.2290726
-0.20483749 -0.12193037 0.2294701
-0.09520866 -0.12130347 0.2292189
-0.24755391 -0.10827771 0.22986172
-0.23682979 -0.10827553 0.22983457
-0.24487971 -0.1074206 0.22939675
-0.07076291 -0.10739402 0.22938515
-0.046826188 -0.093400121 0.22993761
0.0013417864 -0.076685295 0.22962213
0.0096097356 -0.076720908 0.22958468
-0.28426567 -0.075829268 0.22913654
0.041527692 -0.058995735 0.22932427
-0.30550745 -0.040144738 0.22921295
-0.19675274 -0.12455965 0.23096304
-0.10819265 -0.1230069 0.2301991
-0.1000815 -0.12391228 0.23073597
-0.11628927 -0.12299266 0.23019478
-0.23927456 -0.11001126 0.23079684
-0.22867292 -0.10908064 0.23028475
-0.068062045 -0.10997498 0.23079927
-0.051688433 -0.095219344 0.23086743
-0.26575848 -0.094321787 0.23039988
-0.28614622 -0.07850834 0.23052582
-0.019943716 -0.078313299 0.23063451
-0.0066861599 -0.078374587 0.23055421
-0.13503456 -0.12474845 0.23121768
-0.12124073 -0.12473332 0.23118097
-0.0838819 -0.11172646 0.23175138
-0.23098412 -0.11086905 0.23124771
-0.075997844 -0.11093939 0.2313018
-0.2681126 -0.097087272 0.23178618
-0.25780419 -0.096961409 0.23173998
-0.059771258 -0.096062481 0.23131962
-0.038399022 -0.080239676 0.23141779
-0.014448853 -0.080057986 0.23154239
-0.00083902723 -0.080240592 0.23141758
-0.025408769 -0.079263106 0.2310248
0.033798866 -0.063460663 0.23149443
-0.18847464 -0.12645257 0.2320675
-0.13989674 -0.12646402 0.23220532
-0.11319245 -0.11350265 0.23271634
-0.22273391 -0.11251906 0.23215368
-0.091959797 -0.11268052 0.2322052
-0.26029614 -0.09784545 0.23221372
-0.24712352 -0.097849742 0.23226508
-0.057109315 -0.097866826 0.232255
-0.27952531 -0.082016721 0.23222922
-0.04364213 -0.082903899 0.23272416
-0.03023769 -0.081996031 0.23232765
0.060794633 -0.027732445 0.23249157
-0.18000673 -0.12909557 0.23363376
-0.17207269 -0.12909247 0.23367186
-0.14528978 -0.12906936 0.23369209
-0.1830066 -0.12822397 0.23313376
-0.096944891 -0.11530163 0.23369609
-0.21481496 -0.1142775 0.23306572
-0.10510855 -0.11442831 0.23318225
-0.072752334 -0.10053039 0.23365888
-0.24949722 -0.099591903 0.2331654
-0.065106809 -0.099557206 0.23317666
-0.035513483 -0.084684759 0.23365788
0.026216801 -0.067974657 0.23363653
0.044833124 -0.050210953 0.23377101
-0.15836379 -0.13080424 0.23467514
-0.15290815 -0.13079521 0.23465806
-0.14770411 -0.13079503 0.23467831
-0.17477001 -0.1299544 0.23416482
-0.16648456 -0.12992866 0.23415992
-0.16375461 -0.12993412 0.23418251
-0.13162985 -0.11704092 0.23463251
-0.11001638 -0.11700297 0.23462273
-0.20921509 -0.11688117 0.23445787
-0.20672271 -0.11683597 0.23441596
-0.11807654 -0.11614148 0.23412535
-0.24114139 -0.10225061 0.23457634
-0.088774346 -0.10139088 0.23407036
-0.080652796 -0.10135207 0.23410536
-0.048477579 -0.086501911 0.23450917
-0.2943781 -0.070625558 0.23493461
-0.20085908 -0.11943835 0.23579307
-0.19833647 -0.11943991 0.23581104
-0.12341434 -0.11787881 0.23509702
-0.22493261 -0.10479763 0.23588508
-0.085883766 -0.10488617 0.23593751
-0.077848218 -0.10403606 0.23549893
-0.23310964 -0.10314281 0.23501767
-0.262142 -0.089156367 0.23582813
-0.25156975 -0.089146234 0.23583588
-0.077776819 -0.089189246 0.23586132
-0.053700093 -0.089216076 0.23585637
-0.06187414 -0.088250443 0.23540509
-0.2942102 -0.054668669 0.23585668
-0.30312616 -0.014213592 0.23573296
-0.13661596 -0.1205155 0.23656887
-0.12844595 -0.1196432 0.23604383
-0.11509769 -0.10666426 0.23686558
-0.09392488 -0.10582349 0.23641005
-0.2541545 -0.090890966 0.23670655
-0.069450833 -0.090956725 0.23676103
-0.040171929 -0.07331115 0.23625875
0.015786842 -0.073398404 0.23623861
0.053571943 -0.037746973 0.23688325
-0.085693032 -0.016992554 0.23687731
-0.19295985 -0.12216108 0.23730139
-0.14176282 -0.12226351 0.23751317
-0.21672283 -0.10834602 0.2377158
-0.12006196 -0.1084388 0.23779202
-0.098816045 -0.10848293 0.23783773
-0.21926996 -0.10743599 0.23726143
-0.10691837 -0.10756139 0.23733139
-0.24348749 -0.091873549 0.23721834
-0.09891744 -0.091894269 0.23722963
-0.26440981 -0.076943807 0.23795986
-0.050420541 -0.076958537 0.23796527
0.0081723873 -0.076017961 0.23752508
-0.05873571 -0.075122215 0.23709388
-0.045548622 -0.075108513 0.23709901
-0.032211948 -0.075094886 0.23714794
-0.026778001 -0.0750539 0.23716359
-0.098773099 -0.059261229 0.23798144
-0.29054505 -0.057384841 0.23715019
-0.29228818 -0.038602293 0.23728031
-0.10167106 -0.038699452 0.23728867
-0.096263103 -0.038679246 0.23730184
-0.09095227 -0.018890547 0.237616
-0.18482873 -0.12403703 0.23838016
-0.17643677 -0.12491102 0.2389047
-0.23781809 -0.095404975 0.23897426
-0.1040717 -0.095448881 0.2389719
-0.11214797 -0.094507262 0.23853879
-0.082667723 -0.094480731 0.23852877
-0.074705407 -0.094566733 0.23855348
-0.23536307 -0.093636602 0.23807323
-0.090910681 -0.09366785 0.23805521
-0.06676241 -0.093587667 0.23808517
-0.015910918 -0.078535505 0.23899312
-0.021341339 -0.077690825 0.23851722
-0.0079195648 -0.077677965 0.23849328
-0.002378114 -0.077772416 0.2384409
0.030053718 -0.061024826 0.23875375
-0.28474832 -0.060146764 0.23840009
-0.29849902 -0.020647515 0.23840669
-0.16815385 -0.12578888 0.23940374
-0.16003355 -0.12578316 0.23943159
-0.15491474 -0.12575467 0.23943409
-0.14931387 -0.12577659 0.23942947
-0.21084775 -0.11183742 0.23950334
-0.12538025 -0.11107755 0.23918493
-0.22945431 -0.097170271 0.23984231
-0.27377939 -0.080521092 0.23966186
-0.071669936 -0.080566876 0.23970953
-0.055782929 -0.080552988 0.23969361
-0.26678601 -0.079754785 0.23925284
-0.256475 -0.079630807 0.23921008
-0.087852955 -0.079645999 0.2392285
-0.27614316 -0.062834725 0.2395795
-0.087768406 -0.044143073 0.23965278
-0.20282024 -0.11441902 0.24079564
-0.13344876 -0.11286856 0.24013939
-0.22681661 -0.098914035 0.24072915
-0.11697075 -0.098085999 0.24030258
-0.10891603 -0.098964229 0.2407703
-0.095755152 -0.098120145 0.24034892
-0.25874349 -0.083228678 0.24094796
-0.24810399 -0.083208039 0.24097367
-0.10110874 -0.082379855 0.24056557
-0.079498529 -0.08230444 0.24055909
-0.063868567 -0.081377283 0.24012557
-0.068714537 -0.065559067 0.24087629
0.024678729 -0.065614678 0.24083415
-0.077026129 -0.063761108 0.24003558
-0.13823865 -0.11549985 0.24152802
-0.12224169 -0.10074762 0.24166211
-0.11420431 -0.085014969 0.24184054
-0.092950143 -0.085056663 0.24184464
-0.2778534 -0.067342095 0.24164551
-0.12491964 -0.067363985 0.24169242
-0.26878521 -0.066572621 0.24125166
-0.06082236 -0.066432819 0.24127795
-0.11428493 -0.047773495 0.24127772
-0.19475287 -0.11709816 0.24219733
-0.22089666 -0.10241878 0.24247704
-0.13021503 -0.10256559 0.24256763
-0.10084206 -0.10170423 0.24212244
-0.10595315 -0.086826652 0.24270637
-0.23976894 -0.085914545 0.24229389
-0.084754713 -0.085901469 0.24226944
-0.27073914 -0.070093244 0.24291471
-0.26095134 -0.069165714 0.24249984
-0.090110935 -0.069222063 0.24249031
-0.081944078 -0.0691448 0.24252082
-0.052506655 -0.069225341 0.24252734
-0.047121353 -0.068278402 0.24210624
-0.29639187 -0.050446913 0.24247763
-0.27971008 -0.05050154 0.24243699
-0.092819974 -0.050555978 0.24247916
-0.079210892 -0.049586788 0.24209249
-0.28587031 -0.0091736708 0.24274932
-0.18648216 -0.11902054 0.2432386
-0.17819569 -0.11994708 0.24378927
-0.18903144 -0.11896686 0.24320127
-0.12704784 -0.10521738 0.24388805
-0.1191066 -0.087720007 0.2431379
-0.11634444 -0.071904488 0.24375279
-0.10328382 -0.071034111 0.24334556
-0.073768236 -0.071948759 0.2437894
0.019842843 -0.071055934 0.24333681
0.022688545 -0.07195574 0.24373733
-0.041751072 -0.070964463 0.2433593
-0.081696339 -0.033541579 0.2438093
-0.29463536 -0.032624722 0.24342133
-0.29627848 -0.010003903 0.24307075
-0.17288579 -0.12170565 0.24475324
-0.16459991 -0.12167982 0.24474832
-0.15657014 -0.12168907 0.24477132
-0.18102531 -0.12082521 0.24424502
-0.15119155 -0.12079666 0.24429046
-0.14599264 -0.12079632 0.24431115
-0.21275046 -0.10688338 0.24466914
-0.13514474 -0.10699664 0.24482894
-0.12694421 -0.090418078 0.24442942
-0.033559412 -0.073681951 0.24464649
0.0066060056 -0.073689125 0.24461304
-0.25282457 -0.072744898 0.24415103
-0.065670863 -0.072768353 0.24418956
-0.11878657 -0.05600436 0.24488549
-0.070738047 -0.056040991 0.24490698
-0.27284914 -0.055995684 0.24486111
-0.057485983 -0.054163381 0.24408281
-0.27526131 -0.035416707 0.24454854
-0.2072501 -0.10864613 0.24552433
-0.2312813 -0.092215337 0.24529433
-0.12428896 -0.092203937 0.24530236
-0.094762996 -0.076469772 0.24587776
-0.022761291 -0.076328285 0.24594432
0.012489829 -0.07645525 0.24584527
0.014981142 -0.076479189 0.24585593
-0.10807588 -0.075517379 0.24543904
-0.0091961315 -0.075347289 0.24557194
-0.027973058 -0.074573182 0.24507374
0.038998283 -0.057849549 0.24570432
-0.28343982 -0.038208824 0.24576968
-0.20459799 -0.11038439 0.24637638
-0.14014171 -0.11055784 0.24660464
-0.24455805 -0.078255787 0.24669659
-0.12141472 -0.077331416 0.24627022
0.0042966651 -0.077327013 0.24629846
0.028569771 -0.06059967 0.24688135
-0.08400026 -0.059637547 0.24648266
-0.26557252 -0.05886646 0.24608177
-0.10533884 -0.058750503 0.24608491
-0.062803157 -0.058694862 0.24609825
-0.19882725 -0.1121454 0.2472159
-0.22280779 -0.097499326 0.24782805
-0.13206443 -0.097621776 0.24792111
-0.0035907845 -0.080862857 0.24799991
-0.016922504 -0.079897419 0.24766411
-0.054357085 -0.062422715 0.24769606
-0.1264248 -0.061487265 0.24728365
-0.11057597 -0.061470021 0.24730074
-0.27679044 -0.042756613 0.24761069
-0.2787458 -0.022111628 0.24782144
-0.19101658 -0.1140231 0.24818383
-0.14267507 -0.11412682 0.24840534
-0.24150515 -0.081897892 0.24837534
-0.25476307 -0.065139249 0.24884656
-0.25747821 -0.063316174 0.24805669
-0.048618637 -0.06333632 0.24809432
-0.26968744 -0.045550324 0.24878426
-0.072934128 -0.044672132 0.2484404
-0.28073293 -0.024930492 0.2489659
-0.17451495 -0.11681825 0.24969356
-0.16631746 -0.11682125 0.24971496
-0.18290064 -0.11592881 0.24919999
-0.15828049 -0.11592449 0.24929596
-0.15315987 -0.11589589 0.2492982
-0.14756261 -0.11591679 0.24929321
-0.21454801 -0.10201046 0.24996822
-0.21716557 -0.10018605 0.24911322
-0.26737753 -0.046574943 0.24916857
-0.16913319 -0.11771524 0.25017434
-0.16090503 -0.11769114 0.25019312
-0.13671625 -0.1020972 0.25007969
-0.23309849 -0.087317698 0.25083351
-0.23585774 -0.085491285 0.25000754
0.018314777 -0.068851747 0.25049794
-0.14206734 -0.10569603 0.25181204
-0.20876928 -0.10466688 0.25120202
-0.034792759 -0.071508162 0.25173604
-0.24882403 -0.070590951 0.25128359
-0.26193145 -0.052922878 0.25188231
-0.064365149 -0.051951014 0.25150827
-0.28240249 -0.0088544972 0.25160721
-0.20075312 -0.10729785 0.25240308
-0.14703724 -0.10660268 0.25223681
-0.22721151 -0.090912692 0.25247881
-0.24605776 -0.073343404 0.25248691
-0.042889755 -0.072421171 0.25209764
0.010757287 -0.072431587 0.25209212
-0.19270341 -0.11002348 0.25371185
-0.14427619 -0.11018303 0.25397232
-0.19523147 -0.10909652 0.25326434
-0.029266398 -0.076062694 0.25374815
-0.018692862 -0.075051539 0.25342271
-0.0052025151 -0.075953275 0.25379854
0.0030470542 -0.07516402 0.25333813
-0.2590144 -0.056574874 0.25340381
-0.2712684 -0.036959909 0.25374615
-0.18706451 -0.11102179 0.25422046
-0.18451662 -0.11107438 0.25425723
-0.16280746 -0.11198208 0.25481129
-0.15485853 -0.11109225 0.25440273
-0.14939398 -0.11108219 0.25438318
-0.21868435 -0.09625496 0.25492895
-0.13095801 -0.07703115 0.2541306
-0.023763902 -0.076935813 0.2541641
-0.010410376 -0.076817714 0.25426385
-0.050363254 -0.059395708 0.2545853
-0.17907128 -0.11291016 0.25520271
-0.17101809 -0.11290675 0.25524813
-0.13863771 -0.096370943 0.25502911
-0.23745906 -0.07974878 0.25531644
-0.12794396 -0.079779439 0.25531435
-0.044703908 -0.062117584 0.25573528
