# .PCD v0.7 - Point Cloud Data file format
VERSION 0.7
FIELDS x y z
SIZE 4 4 4
TYPE F F F
COUNT 1 1 1
WIDTH 1424
HEIGHT 1
VIEWPOINT 0 0 0 1 0 0 0
POINTS 1424
DATA ascii
0.21279295 -0.90925384 -0.018100191
0.21381281 -0.95213056 -0.012219039
0.036596864 -2.2677662 -1.0176075
0.04171693 -2.4340611 -0.988536
0.041003574 -2.592304 -0.99257863
0.040082019 -2.7700639 -0.99781197
0.038512513 -2.9757488 -1.0067338
0.037032899 -3.2076437 -1.0151597
0.035112113 -3.4780295 -1.0261072
0.043345135 -3.815995 -0.97947752
0.041689809 -4.1959968 -0.98897767
0.044085212 -4.5850811 -0.97551596
0.099771537 -8.2936954 -0.6612792
0.14776917 -8.3044605 -0.38907477
0.19573553 -8.2995157 -0.11704166
0.29113773 -10.775645 0.42270368
0.44955832 -10.887802 1.3210008
0.48093891 -10.859351 1.4989291
0.57267487 -10.698018 2.0193405
0.63618612 -10.684274 2.3795795
0.6767602 -8.7540789 2.6108854
0.61493778 -4.8634667 2.2627685
0.77337188 -6.4232893 3.1604254
0.77722055 -5.9617796 3.1825836
0.7843622 -5.5921159 3.2233644
0.80215108 -5.365449 3.3244441
0.80295968 -4.5244784 3.3296874
0.80114102 -4.2267113 3.3196158
0.76810902 -3.7410355 3.1326439
0.79674041 -3.7009652 3.295104
0.79757333 -3.4871399 3.3000207
0.80146784 -3.2073221 3.3223727
0.79967844 -3.0123546 3.3124075
0.79563105 -2.819032 3.2896366
0.79876524 -2.6690552 3.3075662
0.79231441 -2.486897 3.2711589
0.79143894 -2.336791 3.26635
0.79503053 -2.2091229 3.2868595
0.78812271 -2.0517752 3.2478454
0.78952497 -1.864826 3.2560067
0.7854839 -1.7322458 3.2332344
0.78335875 -1.6097702 3.2213206
0.78395581 -1.4972383 3.2248371
0.78148484 -1.3815452 3.2109573
0.78373402 -1.2772126 3.2238369
0.78329897 -1.1701912 3.2214954
0.77828968 -1.0084614 3.1932781
0.7423439 -0.8744368 2.9895871
0.76040989 -0.79443002 3.0921385
0.77786487 -0.70755696 3.1912274
0.77314067 -0.60751677 3.1645565
0.77093184 -0.50998265 3.1521468
0.34617478 -0.4273577 0.74393523
0.33204174 -0.42284867 0.66391391
0.33076298 -0.40675667 0.65682328
0.33022332 -0.39875183 0.6538431
0.32968557 -0.39521635 0.65083373
0.32949817 -0.38220647 0.64989102
0.32978886 -0.37241155 0.65161949
0.33128104 -0.3542667 0.66020173
0.33230752 -0.34109312 0.66610318
0.33128387 -0.32783794 0.6604178
0.32998684 -0.32104021 0.65314186
0.32984203 -0.31591785 0.65236056
0.32972127 -0.2987501 0.65179545
0.3296662 -0.28651774 0.65156287
0.32932848 -0.26816702 0.64976722
0.32966602 -0.25220826 0.65176147
0.33060646 -0.23171423 0.65717512
0.33151808 -0.20055294 0.66246545
0.57070106 1.6898971 2.0193288
0.54920995 1.6771771 1.8975267
0.53049588 1.6786567 1.791474
0.51146179 1.6692855 1.6836044
0.49494705 1.6768112 1.590023
0.47132796 1.6900772 1.456189
0.45668024 1.7062061 1.3731949
0.42736322 1.5095532 1.2069889
0.4128257 1.4966786 1.1246165
0.40081531 1.5194087 1.0565785
0.38805839 1.5272075 0.98430485
0.37471414 1.5177591 0.9086985
0.36297801 1.5425792 0.84221441
0.34431699 1.5502744 0.73649144
0.33205664 1.5591761 0.667032
0.31971058 1.562619 0.59708565
0.3073664 1.5625721 0.5271492
0.29504225 1.5540421 0.45732561
0.28279841 1.5580405 0.38795787
0.27054095 1.5565772 0.3185122
0.25198814 1.5602086 0.21339844
0.23960049 1.5575012 0.14321366
0.22683902 1.5640931 0.070908733
0.21404667 1.5650644 -0.0015718339
0.21423455 1.2615879 -0.00044580994
0.1980803 1.3608936 -0.091989882
0.19051306 1.2806764 -0.13483857
0.21552007 0.69792318 0.0070460932
0.20793937 0.69083148 -0.035874762
0.20233373 0.65652114 -0.06759458
0.11911244 1.4557815 -0.53946698
0.1929543 0.45636681 -0.12053514
0.214105 0.2261091 -0.00054194755
0.21472739 0.17006877 0.0030628021
0.21409506 0.1297334 -0.00044839134
0.21396443 0.089161463 -0.0011138131
0.2140072 0.050825614 -0.00079559948
0.21239293 0.0093334876 -0.0098373871
0.21251863 -0.023252148 -0.0090482356
0.21268874 -0.053823389 -0.0080070309
0.21234691 -0.079832114 -0.00986927
0.21236013 -0.10609251 -0.0097175566
0.21231852 -0.13066033 -0.0098766796
0.21247922 -0.1547952 -0.0088882418
0.2124 -0.17681247 -0.0092603676
0.21234393 -0.19795923 -0.0095011536
0.21244934 -0.21876916 -0.008825887
0.21255733 -0.2387495 -0.0081358124
0.2126555 -0.25795689 -0.0075012939
0.2125725 -0.27606165 -0.0078942515
0.21211159 -0.30159363 -0.010391418
0.21216527 -0.31889325 -0.010008875
0.21216743 -0.33569288 -0.0099183079
0.21227922 -0.35231051 -0.009205929
0.21232855 -0.36851484 -0.0088474965
0.21213867 -0.38421223 -0.0098458221
0.21221782 -0.4000057 -0.0093180006
0.21222214 -0.41556239 -0.0092145875
0.21188678 -0.43857938 -0.010997889
0.21199507 -0.44630378 -0.010344077
0.21193926 -0.46933869 -0.010541401
0.21184494 -0.48473984 -0.010996594
0.21184441 -0.50018257 -0.010919745
0.21193805 -0.51564789 -0.010308602
0.21178314 -0.53142965 -0.011106892
0.21155663 -0.54752398 -0.012311061
0.21174689 -0.57149255 -0.011110893
0.2117772 -0.58790195 -0.010857916
0.21141852 -0.605353 -0.012810711
0.21117958 -0.62309372 -0.014084199
0.21145195 -0.64921123 -0.012416545
0.21136181 -0.66789806 -0.012845279
0.21109672 -0.68774766 -0.014265834
0.21082857 -0.70842856 -0.01570325
0.21071918 -0.72948033 -0.016239934
0.21122168 -0.76026958 -0.013263987
0.21137749 -0.78259134 -0.012295548
0.21034364 -0.81135648 -0.018072519
0.21023375 -0.83769155 -0.018609386
0.21035101 -0.86447746 -0.017857444
0.20942907 -0.91420931 -0.0229527
0.21066456 -0.93923491 -0.015858004
0.21040013 -0.97561824 -0.017266612
0.036981858 -2.379194 -1.00026
0.035683993 -2.5357633 -1.007483
0.033817295 -2.7143395 -1.017923
0.032661594 -2.9071686 -1.0243232
0.040279072 -3.1422989 -0.98089963
0.039059628 -3.39803 -0.98763311
0.037831474 -3.693794 -0.99439818
0.035610642 -4.0545077 -1.006766
0.038493074 -4.4036808 -0.99018788
0.048805293 -4.9591708 -0.93133301
0.12061049 -8.2769747 -0.52214497
0.19167306 -8.3284531 -0.11886196
0.34990838 -10.849324 0.78017646
0.41426897 -10.953033 1.1454309
0.47426262 -10.729094 1.4857098
0.59963703 -10.678038 2.1970117
0.59998602 -4.9204674 2.1969373
0.78106546 -6.0455689 3.2247851
0.79490954 -5.7382102 3.3032653
0.81718171 -5.5429158 3.4296014
0.79575998 -4.9728379 3.3079324
0.80038333 -4.683538 3.334121
0.79556847 -4.3477888 3.3067544
0.79447639 -3.9440663 3.3005214
0.79459018 -3.7076843 3.301156
0.80285001 -3.537524 3.3480258
0.79607153 -3.2923598 3.3095636
0.79368722 -3.0886338 3.2960443
0.78907824 -2.8875072 3.2699077
0.79101628 -2.7291079 3.280926
0.79334623 -2.580004 3.2941716
0.78248197 -2.3144879 3.2325752
0.79548079 -2.2209952 3.306361
0.79048866 -2.068769 3.2780745
0.78475344 -1.9221125 3.2455759
0.78306407 -1.7937176 3.2360342
0.78155589 -1.6705468 3.2275226
0.77917033 -1.5496294 3.2140357
0.78027743 -1.3846576 3.2203894
0.77888495 -1.2739269 3.2125404
0.7801283 -1.1697286 3.2196455
0.78275007 -1.068517 3.2345703
0.73961079 -0.9212712 2.9899132
0.78027642 -0.86090994 3.2206464
0.77513325 -0.75712425 3.1915274
0.77141231 -0.60784864 3.1705055
0.765917 -0.50977308 3.1393919
0.34365067 -0.43305215 0.74449563
0.32964745 -0.41374567 0.66535151
0.3282986 -0.41090816 0.65774816
0.32758811 -0.39874506 0.65385944
0.32693577 -0.38654643 0.65030038
0.32682183 -0.37312013 0.64979517
0.32800269 -0.36082795 0.65658581
0.32965848 -0.34108388 0.66611618
0.32903853 -0.33206147 0.66269368
0.32775974 -0.32513529 0.65553504
0.32733274 -0.31537724 0.65320683
0.32755682 -0.30282378 0.6545707
0.32672614 -0.28770947 0.6499995
0.32698077 -0.27346686 0.65153623
0.32648122 -0.25487176 0.64884216
0.32718629 -0.23586874 0.65293211
0.32891378 -0.209144 0.66281855
0.57920891 1.6951643 2.0821354
0.5552268 1.6677109 1.9462172
0.53515208 1.6607139 1.8324547
0.51094061 1.68901 1.6952665
0.4930405 1.6838192 1.5938382
0.47650748 1.6857024 1.5001619
0.46094134 1.69267 1.4119682
0.44274136 1.6582987 1.3088492
0.41845065 1.5184996 1.1712188
0.40443173 1.5116724 1.0918057
0.38554758 1.5291481 0.9848392
0.37248221 1.526511 0.91083348
0.36014894 1.5367303 0.84097612
0.34689066 1.5148839 0.76588285
0.33551389 1.5525798 0.70144212
0.32324338 1.5602375 0.63194203
0.31087899 1.5604366 0.561912
0.29242292 1.5580666 0.45738146
0.28017497 1.5540671 0.38801336
0.26784724 1.5625962 0.31818905
0.25546899 1.5646341 0.24808037
0.24314915 1.559198 0.17830527
0.23053224 1.563135 0.10684258
0.21761698 1.5703422 0.033686679
0.21663976 1.2727529 0.028335469
0.1944447 1.3801515 -0.097434945
0.18739551 1.2883182 -0.13728908
0.2022815 0.73258829 -0.052490763
0.20022972 0.64833361 -0.064003848
0.18509386 0.73017657 -0.14977744
0.19256075 0.47022003 -0.10715121
0.21058089 0.18171126 -0.0046617975
0.21007687 0.13947804 -0.0074097444
0.21009572 0.097078465 -0.0071922629
0.21019694 0.057757337 -0.0065084761
0.21032979 0.02142375 -0.0056463736
0.21044511 -0.012032574 -0.0048844703
0.21024595 -0.041351255 -0.0059076413
0.21004926 -0.068839513 -0.0069173477
0.21009086 -0.095872656 -0.0065757409
0.20995453 -0.12054197 -0.0072439997
0.20906498 -0.15246019 -0.012133489
0.21000178 -0.16748217 -0.006767015
0.20904253 -0.19637251 -0.012052842
0.20928599 -0.21775745 -0.01056827
0.20938368 -0.237799 -0.0099108806
0.209472 -0.25706866 -0.0093069272
0.2093796 -0.27523679 -0.0097283041
0.20941326 -0.29318219 -0.0094348341
0.20957015 -0.3108767 -0.0084424717
0.20951524 -0.32770813 -0.0086517511
0.20940301 -0.34411013 -0.0091862911
0.20956528 -0.36061054 -0.0081639607
0.20923762 -0.38416591 -0.0098698502
0.20931266 -0.39995894 -0.0093425149
0.20914023 -0.41541067 -0.010218984
0.20906205 -0.43084925 -0.010560882
0.20907781 -0.44625568 -0.010370087
0.20918702 -0.46161106 -0.0096493447
0.20909128 -0.4846383 -0.010040398
0.20908645 -0.50004578 -0.0099665131
0.20900328 -0.51559782 -0.010336948
0.20884459 -0.5313791 -0.011135775
0.20878477 -0.54728222 -0.011373792
0.20865594 -0.56351143 -0.012003213
0.20846367 -0.58014733 -0.012992408
0.20879368 -0.60468245 -0.010968878
0.20854723 -0.62235665 -0.012265309
0.20826221 -0.64066881 -0.013780356
0.20731406 -0.66131419 -0.019055977
0.20808569 -0.67816138 -0.014578557
0.20831002 -0.70691913 -0.013153933
0.20818824 -0.72787976 -0.013742846
0.20822886 -0.74917412 -0.013410582
0.20758224 -0.77420348 -0.01697542
0.20784171 -0.79681492 -0.015401815
0.20804042 -0.83377737 -0.014121359
0.20684031 -0.86709613 -0.020823942
0.20770341 -0.89159614 -0.015826637
0.20732243 -0.92485702 -0.017883504
0.031864695 -2.3268273 -1.0124393
0.036382269 -2.5053892 -0.98663819
0.036224134 -2.6664693 -0.98740786
0.034331501 -2.8625298 -0.99800843
0.033773061 -3.06972 -1.0010405
0.031969298 -3.3190613 -1.0111279
0.030040206 -3.6073973 -1.0219195
0.039361916 -3.9589398 -0.96884334
0.04048498 -4.3256178 -0.96231163
0.035147823 -4.8840146 -0.99238479
0.11784089 -8.276906 -0.52227658
0.16633293 -8.2368956 -0.24717273
0.3155292 -10.754023 0.59969103
0.40899944 -10.730512 1.1299282
0.50552464 -10.838656 1.6775495
0.60106462 -10.808962 2.2195566
0.59987634 -4.9593639 2.2122984
0.63095152 -4.9452777 2.3886223
0.77081704 -6.2066922 3.1821873
0.77297235 -5.7548733 3.1944072
0.81091285 -5.5094647 3.409658
0.78879374 -4.9359155 3.2841797
0.80214828 -4.7212014 3.3599553
0.7980696 -4.3885036 3.3368361
0.79652512 -4.1048751 3.3280981
0.77078706 -3.6849804 3.1821218
0.79830265 -3.6364257 3.3382378
0.79143959 -3.3826792 3.2993395
0.79431063 -3.1066978 3.3156784
0.7910012 -2.9106472 3.2969437
0.78938055 -2.7346506 3.2877903
0.79202282 -2.5864744 3.3028181
0.76802015 -2.3410785 3.1667163
0.79279989 -2.2919762 3.3073089
0.78537893 -2.1281366 3.2652614
0.78044671 -1.9813179 3.2373309
0.78207666 -1.7988058 3.2466431
0.77963895 -1.67291 3.2328625
0.77710491 -1.5514423 3.2185364
0.7766692 -1.4383519 3.2161117
0.77646798 -1.3285315 3.2150164
0.77654922 -1.2215443 3.2155235
0.78022033 -1.0689651 3.2364125
0.73878479 -0.92338282 3.0014727
0.78016174 -0.86317366 3.2361715
0.77434057 -0.75841695 3.2032051
0.77046221 -0.65753841 3.1812568
0.76561785 -0.55850977 3.1538305
0.76190931 -0.46166518 3.1328456
0.34121528 -0.43276063 0.74739242
0.32718575 -0.41767511 0.66803271
0.32584569 -0.41466907 0.66047323
0.3246668 -0.40306336 0.65390581
0.32410634 -0.39518014 0.65080619
0.3238306 -0.38682696 0.64932072
0.32399207 -0.37747252 0.65031415
0.32443073 -0.36236441 0.65291792
0.3269392 -0.34581354 0.66721761
0.32635215 -0.33676383 0.66396636
0.32498804 -0.32461154 0.65634817
0.32411885 -0.31641388 0.6514973
0.32406458 -0.30503809 0.6512664
0.32353678 -0.28889164 0.64838898
0.32366705 -0.27533412 0.64920348
0.32381111 -0.26085931 0.65009594
0.32446215 -0.2426924 0.6538617
0.32517186 -0.21416169 0.65799654
0.57855642 1.7108706 2.0943043
0.55365813 1.6773705 1.9532074
0.53342557 1.669789 1.8385581
0.51546383 1.6737216 1.7367815
0.49837252 1.6791543 1.6399403
0.48207346 1.6865542 1.5475911
0.45851314 1.6971725 1.4141053
0.44402018 1.713503 1.331995
0.41639599 1.5296837 1.1755059
0.40185586 1.5154394 1.0931417
0.38892403 1.5217388 1.0198891
0.37601566 1.5243094 0.94677168
0.3637141 1.5368018 0.87709117
0.35160619 1.5536522 0.8085075
0.3327634 1.5545622 0.70178169
0.32046318 1.561237 0.63211262
0.30810523 1.5624404 0.56211889
0.29574683 1.5561565 0.49212611
0.28349558 1.5623897 0.42273623
0.27123129 1.5581621 0.35327724
0.25887358 1.563452 0.28328499
0.24037264 1.5582342 0.17850502
0.22797839 1.5542786 0.10831068
0.21524897 1.5576178 0.036213297
0.20241188 1.5582843 -0.036492895
0.19361262 1.4673719 -0.086265765
0.18708007 1.3515743 -0.12317548
0.17985921 1.2687221 -0.16400118
0.16842309 1.2618166 -0.22875857
0.20046636 0.66143221 -0.046740256
0.18479481 0.70056254 -0.1354896
0.18897037 0.47805822 -0.111555
0.18515521 0.44159344 -0.13308801
0.20841961 0.20096347 -0.0010389271
0.20831579 0.15359694 -0.0015246252
0.20675643 0.10105411 -0.010219143
0.20683548 0.061622873 -0.0096711256
0.20659842 0.027403949 -0.010917489
0.20667979 -0.0062432215 -0.010358568
0.20669763 -0.037149008 -0.010160971
0.20660672 -0.06545987 -0.010581035
0.20663007 -0.092625037 -0.010353704
0.20661311 -0.11804594 -0.010355487
0.20694914 -0.14359331 -0.0083558932
0.20677921 -0.16577198 -0.009226298
0.20678344 -0.18761668 -0.0091093369
0.20665681 -0.20808482 -0.0097348234
0.20699039 -0.22919649 -0.0077508171
0.20686047 -0.24809805 -0.0083955964
0.20702434 -0.26716471 -0.0073745018
0.20700298 -0.28514504 -0.0074040052
0.20710583 -0.30288738 -0.0067293043
0.20673923 -0.32767823 -0.0086710956
0.2066287 -0.34408054 -0.0092066238
0.20645428 -0.36013129 -0.010104402
0.20655154 -0.37629259 -0.0094618546
0.2064078 -0.39197075 -0.010185697
0.20636086 -0.40759587 -0.010360696
0.20647018 -0.4308911 -0.0096042808
0.20631428 -0.44622806 -0.010396923
0.20642515 -0.46158382 -0.0096772239
0.20628169 -0.47693947 -0.010399173
0.2062317 -0.4923462 -0.010591155
0.20593008 -0.50799406 -0.012209351
0.20606978 -0.5235154 -0.011325742
0.20596223 -0.53937769 -0.011843614
0.20607279 -0.56326115 -0.011078707
0.20588028 -0.57986337 -0.012077476
0.20596302 -0.59636641 -0.011515886
0.20549604 -0.61427426 -0.014069679
0.20599847 -0.63952106 -0.011082063
0.19710629 -0.68040258 -0.06138372
0.20549674 -0.67769951 -0.013737455
0.20545641 -0.69725716 -0.013871267
0.20510954 -0.71858221 -0.015741646
0.20448743 -0.74190909 -0.019171089
0.20555194 -0.77131361 -0.012993807
0.205239 -0.79619122 -0.014669377
0.20513672 -0.82155323 -0.015150383
0.20485696 -0.8493126 -0.016635807
0.20583737 -0.88671315 -0.010929957
0.20494258 -0.92267841 -0.015896512
0.032128252 -2.3030634 -0.99442494
0.030749483 -2.4524717 -1.0020591
0.029628655 -2.615319 -1.0082222
0.027427075 -2.8063304 -1.0204934
0.035400271 -3.021493 -0.97502655
0.033199549 -3.2708228 -0.98725468
0.031316306 -3.5537994 -0.99766099
0.031087955 -3.8609009 -0.9986701
0.030371131 -4.23034 -1.0024076
0.029206218 -4.6813231 -1.0086318
0.091697507 -8.2182798 -0.65160894
0.13944295 -8.2178154 -0.38086891
0.20981629 -8.2838488 0.018224917
0.31166184 -10.675095 0.59727603
0.37561411 -10.892377 0.96002054
0.439401 -10.907832 1.3216935
0.50028515 -10.758448 1.6667298
0.56312281 -10.727849 2.0229404
0.77478909 -6.2879319 3.2204165
0.77943194 -5.8558784 3.2465348
0.79075134 -5.5420632 3.3105745
0.78823 -5.1321564 3.2961023
0.79721642 -4.8649793 3.346951
0.78870875 -4.4819598 3.2985661
0.79725534 -4.1293106 3.3469117
0.76724446 -3.6792662 3.1766009
0.80196387 -3.675529 3.3734832
0.7947368 -3.4169548 3.3324399
0.78821409 -3.1824422 3.2954051
0.78487402 -2.9812145 3.276432
0.78378254 -2.8036475 3.2702205
0.79342532 -2.6032534 3.3248847
0.76333803 -2.3329914 3.1542561
0.79441428 -2.3071299 3.3304818
0.78769094 -2.1444461 3.2923579
0.78255415 -1.9957056 3.2632363
0.77796531 -1.8559588 3.2372267
0.77421236 -1.7248528 3.2159612
0.77674562 -1.5563918 3.2303512
0.7768358 -1.4438491 3.2308834
0.77434504 -1.3294002 3.2167842
0.77460295 -1.2226019 3.2182715
0.77654135 -1.1199152 3.2292876
0.73316461 -0.96735889 2.9833968
0.76271361 -0.90072227 3.1509516
0.76318014 -0.80242616 3.1536279
0.76872861 -0.65808088 3.1851315
0.76545006 -0.55922282 3.166579
0.76191878 -0.4619202 3.146595
0.33926204 -0.43836185 0.75077534
0.33791688 -0.42168629 0.74326205
0.32510051 -0.42176068 0.67068827
0.32329848 -0.41029593 0.66058761
0.3224526 -0.40698642 0.65583098
0.32191503 -0.39901483 0.65285999
0.32126999 -0.3868663 0.64931786
0.32143202 -0.37751141 0.65031236
0.32185081 -0.36724758 0.6527617
0.32406661 -0.34669736 0.6654337
0.32379478 -0.33680183 0.66396856
0.32284665 -0.32881066 0.65867037
0.32141453 -0.31697944 0.65066677
0.32093182 -0.30730972 0.6480062
0.32122391 -0.29412818 0.64973646
0.32126614 -0.28125802 0.65005034
0.32146606 -0.26688215 0.65125757
0.32152668 -0.24477112 0.65171194
0.32263193 -0.22264498 0.65804797
0.58363849 1.6877862 2.1370807
0.5607878 1.6737657 2.0076311
0.53183591 1.6771488 1.8436278
0.51363826 1.6795642 1.7405479
0.49650502 1.68513 1.6435007
0.48016357 1.6926552 1.5509409
0.46323457 1.6872896 1.4550555
0.44838598 1.7006441 1.3709555
0.41998073 1.516909 1.2100878
0.40538964 1.5041442 1.1274581
0.38661608 1.5255198 1.0211436
0.37363583 1.5271674 0.94763845
0.36115673 1.5357921 0.87697136
0.3488524 1.5467499 0.80729359
0.33662194 1.5591582 0.73803359
0.32428104 1.5671194 0.66814911
0.31175902 1.5626302 0.59724289
0.29327431 1.5661371 0.49256966
0.28095907 1.5613801 0.42283466
0.26865667 1.5641525 0.35316905
0.25629658 1.5664419 0.28317606
0.24396604 1.5622535 0.21335301
0.23155993 1.5595454 0.14310037
0.21911165 1.5553019 0.072608918
0.19986297 1.5582954 -0.036400229
0.19851063 1.3070371 -0.043879993
0.18594764 1.3248113 -0.11503287
0.17775784 1.2611735 -0.16135798
0.20086865 0.73620945 -0.030029876
0.19709799 0.67248988 -0.051301416
0.1827058 0.74835676 -0.13285092
0.1673273 0.71568245 -0.21986866
0.18518263 0.45303205 -0.11844774
0.20520371 0.20684397 -0.0047545065
0.20536382 0.15688325 -0.0037469268
0.20477925 0.11743459 -0.0069660125
0.20501453 0.075431563 -0.0055358456
0.20475116 0.040305819 -0.0069358386
0.20469968 0.006490326 -0.007135049
0.20496231 -0.026705464 -0.0055537215
0.20476952 -0.055104967 -0.0065564984
0.20469511 -0.08237379 -0.0068887467
0.20472129 -0.10852715 -0.0066510923
0.20384055 -0.1412324 -0.011513779
0.20394552 -0.16464396 -0.01083071
0.20394412 -0.18654725 -0.010751495
0.20381223 -0.20707527 -0.01141273
0.20398758 -0.22777848 -0.010331833
0.20416258 -0.24765025 -0.0092534721
0.20416631 -0.26634178 -0.0091467211
0.20414129 -0.28438637 -0.0092032431
0.20391454 -0.30150971 -0.010404026
0.20429707 -0.31942749 -0.0081499116
0.20430139 -0.33616027 -0.0080407858
0.20374098 -0.35174242 -0.011134241
0.20412609 -0.36843067 -0.0088662161
0.20387588 -0.3919616 -0.010158974
0.20388061 -0.42313918 -0.009964549
0.20385264 -0.43854699 -0.010039512
0.20372976 -0.46925375 -0.010569275
0.20363453 -0.48465475 -0.011025866
0.20372185 -0.5233674 -0.010322537
0.20361494 -0.53919518 -0.010845524
0.20370077 -0.57116508 -0.010192505
0.20306103 -0.5886429 -0.013736618
0.20282125 -0.61459094 -0.014971289
0.2032945 -0.63108218 -0.012204831
0.20339455 -0.64873433 -0.011554277
0.20267177 -0.6690793 -0.015568955
0.20326136 -0.69630975 -0.012100866
0.2027605 -0.71807367 -0.014857006
0.20228513 -0.74084091 -0.017468534
0.20156218 -0.76577401 -0.021483378
0.20245527 -0.78544313 -0.016335933
0.20224307 -0.82343251 -0.01741243
0.20289569 -0.84668022 -0.013627966
0.20246695 -0.87691033 -0.015973711
0.19887476 -0.92755491 -0.036253348
0.20185226 -0.94280368 -0.019287581
0.026006781 -2.3997753 -1.0158728
0.03092923 -2.5846548 -0.98780757
0.029293785 -2.7681799 -0.99696726
0.028555188 -2.9651682 -1.0010389
0.026736021 -3.1995087 -1.0112305
0.024120659 -3.4769409 -1.0259284
0.023382125 -3.7740026 -1.0299801
0.031084301 -4.1874099 -0.98610717
0.034280065 -4.5612607 -0.96783412
0.088729337 -8.2648315 -0.65791357
0.1352704 -8.3451166 -0.39390489
0.18447533 -8.2585249 -0.11482234
0.27901119 -10.805609 0.42192364
0.3727366 -10.761518 0.95352083
0.43645054 -10.826092 1.3149173
0.46802562 -10.818646 1.4939476
0.56466967 -10.849259 2.0421498
0.62677532 -10.765911 2.3944223
0.67053396 -8.8759708 2.6423898
0.60347968 -4.8617744 2.2616878
0.75880653 -6.3863678 3.1429389
0.7634427 -5.9361801 3.1692295
0.79012537 -5.5592742 3.3206053
0.80524349 -5.3109951 3.4063795
0.81216961 -5.0132751 3.4456863
0.79217756 -4.5287786 3.3322999
0.78871506 -4.2182961 3.3126884
0.75525612 -3.7297788 3.1229265
0.78637666 -3.7064185 3.2994971
0.79710853 -3.4451368 3.3604362
0.78997713 -3.2055297 3.3200305
0.7840094 -2.9896433 3.2862289
0.78363001 -2.8148768 3.2841277
0.78550977 -2.6596773 3.2948427
0.77604032 -2.4659209 3.2411857
0.78117472 -2.3397627 3.2703645
0.7827149 -2.2047372 3.2791574
0.78083289 -1.9984282 3.2685704
0.7771889 -1.861127 3.2479622
0.77504534 -1.733711 3.2358649
0.77358669 -1.6126366 3.2276533
0.77192825 -1.4950874 3.2183092
0.77127421 -1.3830241 3.2146626
0.77020437 -1.2730449 3.2086577
0.77194691 -1.1697087 3.2186048
0.76098549 -1.0014482 3.156532
0.73239595 -0.87543988 2.9944487
0.74805856 -0.79356307 3.0833464
0.7663787 -0.70744848 3.1873159
0.76287806 -0.60791177 3.1675274
0.76050681 -0.5102542 3.1541443
0.33532152 -0.42746097 0.74297643
0.32320154 -0.42572957 0.67431647
0.32123336 -0.41857073 0.66323149
0.32023734 -0.41526848 0.6576215
0.31954783 -0.39874205 0.65386587
0.31896231 -0.39088103 0.65062261
0.3189002 -0.3865439 0.65030891
0.31883195 -0.36835828 0.65007657
0.32060844 -0.35425785 0.66022861
0.32125705 -0.33678952 0.66402268
0.32101882 -0.33206272 0.66271019
0.31959274 -0.32563636 0.65469998
0.31886312 -0.31131589 0.65067774
0.31905228 -0.2987408 0.65182739
0.31859118 -0.28186339 0.6493277
0.31879434 -0.26751497 0.65055639
0.31912878 -0.25153011 0.6525296
0.31923142 -0.22758509 0.65322602
0.32132834 -0.19761992 0.66519314
0.55960864 1.6857787 2.0165746
0.53774428 1.6696918 1.8926506
0.51954973 1.6751992 1.7895364
0.50098401 1.6700501 1.6843185
0.48412842 1.6741043 1.588798
0.46160135 1.699893 1.4611471
0.44597596 1.7043171 1.3726035
0.41633469 1.5030171 1.2045984
0.40207407 1.4938216 1.1237971
0.39018968 1.5184263 1.0564673
0.37763065 1.5300666 0.98531318
0.364815 1.5332663 0.91270459
0.35273272 1.5513717 0.844253
0.33325705 1.5324957 0.73391289
0.32146552 1.5581899 0.66710854
0.3090041 1.553666 0.59650934
0.29672322 1.5546029 0.52693319
0.28450826 1.5660666 0.45772898
0.27221256 1.5630729 0.38806888
0.25996062 1.5576159 0.31865719
0.24125363 1.5692093 0.21266949
0.22905262 1.5565675 0.1435473
0.21656814 1.5543083 0.072815374
0.20354654 1.5631785 -0.00096504646
0.20398164 1.2538954 0.0016303979
0.18840519 1.3427082 -0.086654112
0.18051463 1.2702974 -0.13131921
0.20276451 0.73182237 -0.004955478
0.1979697 0.6816327 -0.032065347
0.18385589 0.70302689 -0.1120048
0.16709049 0.69205254 -0.20694034
0.182411 0.45559072 -0.11992738
0.2036441 0.22448234 0.00058217393
0.20378835 0.17262493 0.0014865971
0.20155272 0.12301325 -0.011069235
0.2015381 0.082414083 -0.011067808
0.20180419 0.043312356 -0.0094744042
0.20185481 0.0086718677 -0.0091039827
0.20161495 -0.021768177 -0.01038182
0.20190199 -0.053071868 -0.0086708283
0.2018168 -0.080418713 -0.0090718856
0.20183258 -0.10665243 -0.0089003704
0.20179348 -0.13119283 -0.0090404302
0.20181434 -0.15472603 -0.0088405302
0.20173407 -0.17674334 -0.0092145475
0.20167698 -0.19789016 -0.0094571495
0.20178141 -0.21870026 -0.0087836711
0.2018885 -0.23868077 -0.0080953138
0.20198582 -0.25788829 -0.007462447
0.20190205 -0.27599311 -0.0078569632
0.20144013 -0.301525 -0.010356334
0.20149311 -0.31882474 -0.0099752862
0.20132776 -0.33534876 -0.01083282
0.20165458 -0.36844668 -0.0088182054
0.20146419 -0.3841441 -0.0098179001
0.20154671 -0.41549447 -0.0091894018
0.20138416 -0.43856385 -0.0099912658
0.20126252 -0.46927097 -0.010520953
0.2011679 -0.48467219 -0.010977513
0.20126045 -0.51558048 -0.010292274
0.20132126 -0.53903973 -0.0098272087
0.20106865 -0.57142538 -0.011099598
0.20093195 -0.58811045 -0.011794797
0.20050117 -0.62302649 -0.014077627
0.20093334 -0.64875364 -0.01150582
0.20052607 -0.66825372 -0.013735391
0.20057316 -0.68722683 -0.013387738
0.19989242 -0.72992843 -0.017087493
0.20041919 -0.78370047 -0.013897415
0.19969036 -0.83698207 -0.017868536
0.20064631 -0.8735218 -0.012324212
0.19764909 -0.92050582 -0.029241513
0.19999018 -0.93916875 -0.015881384
0.19961271 -0.97630674 -0.017939687
0.026035577 -2.3814306 -1.0022054
0.024856657 -2.5372415 -1.0087954
0.024045855 -2.7066312 -1.0132955
0.022313215 -2.9044361 -1.023021
0.029262377 -3.1465564 -0.98345482
0.02899201 -3.3915815 -0.98487926
0.028159201 -3.6817605 -0.98948812
0.024576636 -4.0608387 -1.0096831
0.025490807 -4.4420495 -1.0043701
0.10957426 -8.3056459 -0.5263871
0.18231638 -8.2415915 -0.11364335
0.33863789 -10.689431 0.77366966
0.40373039 -10.933128 1.1430271
0.46468693 -10.768952 1.4888172
0.53021705 -10.856601 1.8606522
0.59239662 -10.778631 2.2134652
0.60438317 -4.9087396 2.28139
0.64313638 -4.9888039 2.5013535
0.7702958 -6.0431151 3.222975
0.77947921 -5.6877046 3.2751424
0.79937673 -5.4737153 3.3881114
0.7838487 -4.9613166 3.30007
0.78709209 -4.6616402 3.3185487
0.79428595 -4.2789717 3.359488
0.7720111 -3.8630736 3.23318
0.7798723 -3.6818838 3.277873
0.78953224 -3.5219102 3.3327749
0.78464514 -3.288399 3.3051362
0.7784847 -3.0654166 3.2702744
0.77771461 -2.8844936 3.266
0.77893943 -2.7231498 3.2730467
0.78895861 -2.5289948 3.3300452
0.77247739 -2.3174021 3.2366273
0.78339869 -2.2165532 3.2986977
0.77806741 -2.0636253 3.2685487
0.77244776 -1.9177575 3.2367642
0.77119553 -1.7909416 3.2297618
0.76838398 -1.664865 3.213912
0.77111 -1.4991485 3.2295372
0.76816142 -1.3823597 3.2129118
0.76758128 -1.273272 3.2097259
0.76948535 -1.1701413 3.2206366
0.77057195 -1.067023 3.2269092
0.72708809 -0.91968608 2.9802697
0.7696135 -0.86121398 3.2216856
0.76406699 -0.7076484 3.1903744
0.75969505 -0.60774344 3.1656737
0.75749022 -0.51017106 3.1532712
0.33296722 -0.43305948 0.74456644
0.31880021 -0.4139393 0.66445839
0.31779218 -0.41070276 0.65878564
0.31711596 -0.40720263 0.65499586
0.31582621 -0.39176303 0.64786685
0.31683904 -0.38089892 0.65370965
0.31700686 -0.35670108 0.6548999
0.31898138 -0.34108722 0.66620064
0.31836173 -0.33206469 0.66277945
0.31665576 -0.32103258 0.65324074
0.31650975 -0.31591001 0.6524598
0.31638521 -0.29874161 0.65189588
0.31605041 -0.2877124 0.65009111
0.31643954 -0.27284062 0.65239477
0.31669551 -0.25760216 0.65394288
0.31663415 -0.2351774 0.65373766
0.31816554 -0.20054261 0.66257203
0.56614298 1.6793443 2.0702295
0.53751546 1.6918769 1.9079094
0.51749182 1.6828115 1.794367
0.49844161 1.673539 1.6863476
0.48232937 1.6855305 1.5950018
0.46548051 1.6838866 1.4994739
0.44986123 1.689921 1.4109238
0.42999628 1.6324987 1.298274
0.40526429 1.4830027 1.157997
0.38750875 1.521311 1.0573667
0.37479398 1.5300947 0.98529625
0.36202604 1.5342611 0.91292292
0.34958187 1.5425893 0.84238631
0.33605784 1.5129067 0.76571906
0.32498959 1.5624765 0.70299053
0.31245044 1.5582443 0.63191164
0.29400626 1.5635937 0.5273605
0.28170639 1.563066 0.45763704
0.26944464 1.5570683 0.38812882
0.25718147 1.5576061 0.31861144
0.24476847 1.5646381 0.24824271
0.23243865 1.5601956 0.17834489
0.21977264 1.5661043 0.10653756
0.20076407 1.5641253 -0.0012298188
0.20141305 1.249983 0.0025419788
0.1852929 1.3503604 -0.088876218
0.17747045 1.2759626 -0.13319327
0.20093361 0.71769482 8.6814231e-05
0.19408281 0.69828784 -0.038713995
0.18892844 0.6574741 -0.067885153
0.17876762 0.67984945 -0.12547761
0.17483182 0.62793821 -0.14773235
0.15701249 0.67327052 -0.24875978
0.19981313 0.18337046 -0.0056473217
0.19991504 0.13624263 -0.0049790749
0.19985001 0.094714381 -0.0052585416
0.19985719 0.056224689 -0.0051280581
0.19988626 0.020679425 -0.0048733233
0.19988856 -0.012034402 -0.0047705411
0.1998173 -0.042048357 -0.0050853314
0.19949886 -0.068842515 -0.0068035363
0.19560869 -0.090323545 -0.028755428
0.19865793 -0.12942086 -0.011353706
0.19872096 -0.17568767 -0.010816609
0.19821028 -0.19534869 -0.013626517
0.19875342 -0.21776432 -0.010453195
0.19885348 -0.23780647 -0.0097954124
0.19815814 -0.2549637 -0.013653897
0.19917357 -0.2760269 -0.0077988529
0.19889025 -0.29319146 -0.0093180174
0.19921336 -0.31121209 -0.0073939413
0.19899684 -0.32771859 -0.0085338643
0.19788183 -0.34256834 -0.014775615
0.19874945 -0.36827299 -0.009715016
0.19872756 -0.38417846 -0.0097499117
0.19880734 -0.41552892 -0.009118299
0.19873208 -0.43093333 -0.0094564632
0.19909705 -0.44637528 -0.0072946902
0.19869225 -0.46928832 -0.0094596855
0.19842304 -0.48470709 -0.010899302
0.19866978 -0.49231988 -0.0094537027
0.19851296 -0.51561546 -0.010210691
0.19852808 -0.53124088 -0.010035959
0.19881009 -0.54672855 -0.0083455741
0.19817308 -0.56353086 -0.01187436
0.19834615 -0.58787024 -0.010758416
0.19807293 -0.62237823 -0.012133055
0.19779077 -0.64069098 -0.013647115
0.19700488 -0.66093028 -0.018022159
0.19796996 -0.68680876 -0.012408898
0.19693749 -0.7098524 -0.018184919
0.1977285 -0.72790468 -0.013604473
0.19748095 -0.7502889 -0.01492283
0.19727099 -0.77365607 -0.016027862
0.19772629 -0.80763245 -0.013310959
0.19759373 -0.83380497 -0.013976947
0.19717176 -0.86310959 -0.016287001
0.19676469 -0.8944037 -0.018512864
0.197938 -0.93481749 -0.01171917
0.1975344 -0.97181559 -0.013926188
0.020587103 -2.3355589 -1.0189687
0.025393056 -2.5128264 -0.99157399
0.024065826 -2.6849868 -0.99905413
0.02364313 -2.868598 -1.0013987
0.02364224 -3.0706639 -1.0013503
0.021156657 -3.3280427 -1.0154226
0.029378902 -3.6353312 -0.96864259
0.028658835 -3.9692118 -0.97269857
0.10838655 -8.2600956 -0.51984411
0.15637141 -8.2419281 -0.24719054
0.3364062 -10.699355 0.77541894
0.40085784 -10.891107 1.1415992
0.52865934 -10.896983 1.8677188
0.59068602 -10.808896 2.2202032
0.58599895 -4.9147954 2.1950133
0.62254274 -4.9762645 2.4026754
0.75493306 -6.14816 3.1546381
0.78314602 -5.7590575 3.3150656
0.78086412 -4.9634748 3.3023515
0.788284 -4.6981454 3.3446023
0.78259379 -4.3548431 3.3123918
0.78170806 -4.0783343 3.307462
0.76219755 -3.701472 3.1967518
0.79524344 -3.575521 3.3845682
0.78668523 -3.3179383 3.336051
0.78070426 -3.0938666 3.3021679
0.77678257 -2.8957462 3.2799776
0.77793741 -2.7333024 3.2866166
0.78000021 -2.5828302 3.2984099
0.75916147 -2.3499138 3.1801364
0.77954507 -2.2844396 3.2959754
0.77793306 -2.0735128 3.2869291
0.7720713 -1.9260975 3.2537096
0.77008784 -1.7965777 3.2425146
0.76699746 -1.6692791 3.2250321
0.76589864 -1.5513283 3.2188587
0.76562309 -1.4385635 3.2173595
0.76492226 -1.3278331 3.2134442
0.76721364 -1.1713372 3.226552
0.76831335 -1.0680187 3.2328591
0.72931528 -0.92501515 3.0114551
0.76875472 -0.86291957 3.2354863
0.76207483 -0.75767648 3.1976118
0.75975251 -0.65763515 3.1844819
0.7562992 -0.55878222 3.1649289
0.75068629 -0.46155497 3.1331117
0.33038166 -0.43284926 0.74657518
0.31517524 -0.41906935 0.66043204
0.31622455 -0.41352928 0.66643137
0.31420276 -0.40717548 0.65503329
0.3134639 -0.39518547 0.65096104
0.31318769 -0.38683227 0.64947462
0.31307998 -0.37345624 0.6489858
0.31408638 -0.3664647 0.65474063
0.31628898 -0.3458176 0.66736835
0.31570184 -0.33676791 0.66411597
0.31433833 -0.32461581 0.65649605
0.31361657 -0.31588829 0.65247929
0.31355819 -0.30448315 0.65222853
0.31341001 -0.29292226 0.65146768
0.31314996 -0.27470887 0.65011162
0.31341994 -0.25955108 0.6517241
0.31325591 -0.23793764 0.65091211
0.315117 -0.21056823 0.66155559
0.56699002 1.7069938 2.0913868
0.54194486 1.6717641 1.9492643
0.5218702 1.6648661 1.8353579
0.50442165 1.6729205 1.7363589
0.47949475 1.6855731 1.5949367
0.46431115 1.7026354 1.5087981
0.44822109 1.7044555 1.4175183
0.43227729 1.7015654 1.3270714
0.40426743 1.5101005 1.1681741
0.39093888 1.5135664 1.0925769
0.37808493 1.5207974 1.0196741
0.36537772 1.5272187 0.94760573
0.34742868 1.5592301 0.84581035
0.33438161 1.5483696 0.77182013
0.32225904 1.5634755 0.70307201
0.30957344 1.5512897 0.63113654
0.29742378 1.5634328 0.56223768
0.2850554 1.5541492 0.49210459
0.27283037 1.5663786 0.4227801
0.25445932 1.5566095 0.31861365
0.24208595 1.5616513 0.2484521
0.22973445 1.5592049 0.17841826
0.21713121 1.5631429 0.1069545
0.20452708 1.5615164 0.035488784
0.20348851 1.2669157 0.029770616
0.18497656 1.4258038 -0.075279981
0.179261 1.2998989 -0.10759864
0.19217956 0.74643785 -0.033914998
0.19038427 0.65495771 -0.043989077
0.17356935 0.70861721 -0.13932286
0.17141117 0.63500869 -0.15146081
0.15770651 0.68500727 -0.22917974
0.17507571 0.43731889 -0.13041726
0.19823833 0.19758055 0.0011818107
0.19630495 0.14272168 -0.0096416762
0.1964124 0.099449851 -0.0089288261
0.19638915 0.060828712 -0.0089592412
0.19685295 0.02217387 -0.0062250313
0.19648299 -0.0084291138 -0.0082256924
0.19651327 -0.039260697 -0.0079544494
0.19643438 -0.067494854 -0.008303537
0.19487454 -0.086867139 -0.017060949
0.19618967 -0.11868887 -0.009496415
0.19624776 -0.14303252 -0.0090690181
0.19621769 -0.16579887 -0.0091423551
0.19622125 -0.18764342 -0.0090250177
0.19639453 -0.20911153 -0.0079444293
0.19642657 -0.22922289 -0.0076657939
0.19571348 -0.27445045 -0.011472031
0.19606748 -0.2931776 -0.0093663204
0.19573301 -0.30989552 -0.011168272
0.19600527 -0.3274115 -0.0095266951
0.19589227 -0.34384722 -0.010071564
0.19605383 -0.36038172 -0.0090583516
0.19598101 -0.37631786 -0.0093752388
0.19600788 -0.39215237 -0.0091262963
0.19562815 -0.41530278 -0.0111363
0.19600961 -0.42326033 -0.0089233601
0.19591315 -0.44628766 -0.0093255453
0.19567591 -0.46160829 -0.010574718
0.19570515 -0.47696385 -0.010311761
0.19548103 -0.49244016 -0.011486036
0.19535181 -0.5080182 -0.01212172
0.19568087 -0.53122067 -0.010107943
0.19544999 -0.54728031 -0.011319679
0.19549067 -0.56328475 -0.010990522
0.19512956 -0.58014572 -0.012940411
0.1953788 -0.59638977 -0.01142734
0.19507524 -0.61397207 -0.013049772
0.19541138 -0.63954407 -0.010992959
0.19334592 -0.66293979 -0.022608021
0.19475168 -0.67816067 -0.014532958
0.1944063 -0.69868815 -0.016390011
0.19436808 -0.71910483 -0.016504206
0.19474776 -0.74971867 -0.014195587
0.19481511 -0.7719093 -0.013709168
0.19436598 -0.79741687 -0.016150555
0.19413495 -0.82346302 -0.017354
0.19504918 -0.85906732 -0.012008
0.19473676 -0.88951302 -0.013669609
0.19458242 -0.92126137 -0.014433195
0.19402479 -0.95802355 -0.017480962
0.02004258 -2.3149459 -1.0033897
0.019244378 -2.4606245 -1.0077114
0.018072855 -2.6245012 -1.0141369
0.016845502 -2.8072419 -1.0208642
0.022538817 -3.0460427 -0.98823494
0.022141835 -3.2771211 -0.99021292
0.019851407 -3.5656428 -1.0028886
0.020572376 -3.8609626 -0.99847335
0.017417673 -4.2668099 -1.0159606
0.031362228 -5.2716928 -0.93582666
0.10195602 -8.3582602 -0.53250206
0.15131332 -8.2936649 -0.25244856
0.23933622 -10.549081 0.24884678
0.30121699 -10.814066 0.60018933
0.36336735 -10.741561 0.95279264
0.42722809 -10.826106 1.3152148
0.49057454 -10.818942 1.6746095
0.55596983 -10.870009 2.045692
0.58713329 -4.9752846 2.2184138
0.75998354 -6.2446589 3.2001255
0.75981194 -5.7639165 3.1988666
0.78071558 -5.5531855 3.3173754
0.76650971 -5.0344901 3.2364728
0.79156137 -4.7484436 3.3785005
0.78726369 -4.411869 3.3539479
0.78141338 -4.0957484 3.3206024
0.75532991 -3.6738465 3.1723917
0.78608584 -3.6461256 3.3469381
0.7810244 -3.401958 3.3181233
0.77340722 -3.1625168 3.2748132
0.77997869 -2.9236791 3.3120408
0.77845174 -2.7471356 3.3033292
0.78047824 -2.5954597 3.3147957
0.75310761 -2.3362026 3.1594043
0.7822665 -2.3032653 3.3248894
0.77342629 -2.133791 3.2746925
0.76838803 -1.9861617 3.2460816
0.76913017 -1.8006396 3.2502773
0.76767242 -1.6769564 3.2419972
0.76436228 -1.5533687 3.223208
0.76279789 -1.4378308 3.2143283
0.76077634 -1.3248563 3.2028563
0.76285595 -1.2214078 3.2146592
0.76512831 -1.1193047 3.2275558
0.72263932 -0.96778405 2.9864688
0.76391256 -0.86105537 3.2206664
0.7627508 -0.75967169 3.2140794
0.75698304 -0.65763831 3.1813598
0.75301564 -0.55877984 3.1588562
0.74862224 -0.46175626 3.1339366
0.32829159 -0.4326202 0.74942964
0.31422925 -0.42190465 0.66979831
0.31275645 -0.41450861 0.66151565
0.31157783 -0.40285084 0.65493786
0.31057587 -0.38685513 0.64939821
0.31047121 -0.37347838 0.64891171
0.31085929 -0.36317256 0.65118366
0.31337333 -0.34668499 0.66551191
0.3127116 -0.33253205 0.6618638
0.3121559 -0.32879868 0.65874726
0.31072602 -0.31696793 0.65074271
0.31024459 -0.30729836 0.64808142
0.31053755 -0.29411671 0.64981073
0.31071776 -0.28063086 0.65089971
0.3104417 -0.26153699 0.64943427
0.31109855 -0.24339545 0.65322304
0.312442 -0.21980445 0.66090244
0.5672847 1.7250515 2.105274
0.54118657 1.6830312 1.9573115
0.52073592 1.6739323 1.8413599
0.50275981 1.6779609 1.7394351
0.4855665 1.682618 1.6419502
0.46893045 1.686554 1.5476272
0.45205483 1.6810709 1.4519532
0.43131208 1.719026 1.3343294
0.4022823 1.5147445 1.1698867
0.38880518 1.516382 1.0934868
0.37597916 1.5246042 1.0207738
0.36306289 1.5272027 0.94755352
0.35138142 1.5553092 0.88131332
0.33853927 1.5536457 0.80851638
0.32603469 1.5572019 0.73762882
0.30758628 1.5701776 0.63303846
0.29498759 1.5554457 0.56163383
0.2827622 1.562139 0.49232462
0.27048472 1.563374 0.42272452
0.25821277 1.5611422 0.3531588
0.24587217 1.5644289 0.2831969
0.23349458 1.5642186 0.21302791
0.21507002 1.5522755 0.10859025
0.20229897 1.5575868 0.036180519
0.18935765 1.561173 -0.03719442
0.19020328 1.2615921 -0.032004438
0.17646293 1.3075449 -0.10995968
0.16736622 1.2611164 -0.16146365
0.15555263 1.2608379 -0.22843646
0.18785027 0.65587246 -0.044417467
0.1721168 0.75011373 -0.13373706
0.1733118 0.6334269 -0.12675603
0.15403473 0.6971224 -0.2361192
0.17506808 0.44954804 -0.11644223
0.1949719 0.20428246 -0.003139521
0.19484448 0.1568376 -0.0037359449
0.19498712 0.11179785 -0.0028021152
0.19514289 0.070722349 -0.0017977165
0.19467726 0.037240162 -0.0043283119
0.19381355 0.0086373603 -0.0091234911
0.19491792 -0.029581076 -0.0027379117
0.19313395 -0.06349089 -0.012712033
0.19340946 -0.092020974 -0.011041086
0.19325078 -0.11685366 -0.011838334
0.19343758 -0.14186913 -0.01067451
0.19340014 -0.1646931 -0.010785528
0.1935439 -0.18712659 -0.0098686423
0.19296297 -0.20612501 -0.013068525
0.19343668 -0.22782838 -0.010279395
0.19377023 -0.26679882 -0.0081900144
0.19374599 -0.28481159 -0.0082309414
0.19390258 -0.31978756 -0.0071497736
0.1937404 -0.33621159 -0.0079752486
0.19301899 -0.3597241 -0.01192849
0.19345385 -0.37633553 -0.009364632
0.19348137 -0.39217049 -0.0091137523
0.19309071 -0.40751764 -0.011236882
0.19331168 -0.42319217 -0.0098879626
0.19328217 -0.43860024 -0.0099608954
0.19280584 -0.46162844 -0.012522803
0.19318287 -0.47698444 -0.010288047
0.19330585 -0.49232173 -0.0094953012
0.19300388 -0.50793523 -0.011114207
0.19314247 -0.52342218 -0.010232412
0.19303387 -0.53925031 -0.010753209
0.19285487 -0.55539799 -0.011673256
0.19261076 -0.57194644 -0.012962366
0.19286291 -0.59641373 -0.011386246
0.19288848 -0.61334538 -0.01114374
0.19254074 -0.63149726 -0.013018863
0.19232117 -0.6499635 -0.014165859
0.19207583 -0.66913694 -0.015458154
0.19220144 -0.6977759 -0.014594542
0.19200766 -0.71863198 -0.015591821
0.19153279 -0.74142963 -0.01818235
0.19273236 -0.77021658 -0.011221307
0.19255045 -0.7944364 -0.012146626
0.19216625 -0.82097489 -0.014217399
0.19201288 -0.84805197 -0.014976988
0.19171527 -0.87765253 -0.016552065
0.19143961 -0.90923238 -0.017999921
0.19233012 -0.95285273 -0.012773252
0.013623338 -2.2778516 -1.0255207
0.01980461 -2.4364722 -0.99011517
0.018283272 -2.6014092 -0.99846709
0.017182149 -2.7810755 -1.0044138
0.016924845 -2.9740045 -1.0055523
0.014714362 -3.2129309 -1.0177197
0.021040281 -3.5195487 -0.98129642
0.020918157 -3.8215098 -0.98152375
0.019869473 -4.1913218 -0.9869228
0.020471433 -4.6077681 -0.98288858
0.075425804 -8.3293419 -0.66558605
0.12423067 -8.3044519 -0.38842922
0.1727719 -8.2476292 -0.11280799
0.2047125 -10.689401 0.071834534
0.42385796 -10.825994 1.316643
0.48463145 -10.698692 1.661514
0.55390131 -10.921175 2.0551493
0.61464894 -10.785315 2.3999243
0.65901577 -8.8969631 2.6494534
0.59161252 -4.8597226 2.261739
0.72749889 -6.148603 3.0349503
0.76900971 -5.8987045 3.2703786
0.7683987 -5.4619455 3.2663977
0.78406674 -5.2258463 3.355098
0.78869247 -4.9142733 3.3810112
0.77585047 -4.492847 3.3076155
0.77490079 -4.202992 3.3019061
0.74325371 -3.7271719 3.1216855
0.78384608 -3.6509509 3.3521204
0.78018814 -3.414397 3.3311074
0.77786916 -3.202472 3.3177283
0.77297741 -2.9919419 3.289746
0.7718389 -2.8132935 3.2831128
0.77221656 -2.6515288 3.2851086
0.75138706 -2.4122627 3.1666155
0.77933007 -2.3029945 3.3251944
0.77546579 -2.1500268 3.3031225
0.76839906 -1.994823 3.2628684
0.76632398 -1.8621259 3.2509806
0.76215559 -1.7293298 3.2272103
0.75973356 -1.6063308 3.213366
0.76099789 -1.4954605 3.2204642
0.75872105 -1.3802425 3.2074556
0.76070935 -1.2222049 3.2186356
0.76232082 -1.1190685 3.227715
0.73331994 -0.9826417 3.0629811
0.73208833 -0.88501143 3.0559306
0.74350327 -0.79790163 3.1206815
0.75424552 -0.70662326 3.1816082
0.75093812 -0.60735065 3.1627731
0.74640894 -0.46154466 3.1369772
0.32464015 -0.4274331 0.74304628
0.31210354 -0.41698852 0.67202514
0.31042266 -0.41429579 0.66251898
0.30942214 -0.4067286 0.65690714
0.30905274 -0.39846495 0.65487695
0.30851564 -0.39491269 0.65186226
0.30857041 -0.38590786 0.65223891
0.30833644 -0.36796561 0.65104222
0.30977297 -0.34962335 0.65928882
0.31060439 -0.33676979 0.66406912
0.30996245 -0.3278099 0.66049135
0.30866826 -0.32101223 0.65321416
0.30774966 -0.30728063 0.64809901
0.30855045 -0.29814854 0.65267175
0.30795041 -0.28184488 0.64936179
0.30828896 -0.26685345 0.65134221
0.3080985 -0.24610677 0.65035176
0.30884516 -0.2261517 0.65464282
0.54870033 1.6827461 2.0140002
0.52696824 1.6673828 1.8907514
0.5075717 1.6619179 1.7807471
0.4833453 1.6852776 1.6433364
0.46735042 1.6963223 1.5526217
0.45011389 1.6874127 1.4548846
0.43577912 1.7071513 1.3735836
0.40623894 1.5077294 1.2062439
0.39249334 1.5070453 1.1283122
0.37967891 1.5165851 1.0556542
0.36675662 1.5205078 0.9823916
0.34903571 1.5582533 0.88189721
0.33624294 1.5585716 0.80937594
0.32316214 1.542401 0.73523962
0.31108606 1.5572189 0.66677058
0.29868242 1.5556731 0.59646213
0.28645149 1.5625997 0.52712476
0.2741572 1.5620681 0.45743731
0.25577047 1.5571444 0.35322282
0.24352409 1.5544508 0.28381172
0.23107944 1.5612304 0.21326546
0.21876213 1.555548 0.14345683
0.20571949 1.571999 0.06950777
0.19309996 1.5670481 -0.0020150563
0.19417468 1.2412392 0.0045356764
0.17413065 1.3046637 -0.10915295
0.16538602 1.2525935 -0.15863244
0.1919201 0.73835778 -0.0074426713
0.18727405 0.68529648 -0.033664864
0.16969562 0.74919623 -0.13336124
0.16546917 0.69400442 -0.15719914
0.15498608 0.70948416 -0.21661863
0.1723901 0.45125294 -0.11749015
0.19153048 0.21266213 -0.008532933
0.19224614 0.15765004 -0.004329511
0.19144405 0.11977782 -0.0087574171
0.19220549 0.073824927 -0.0043047378
0.19183385 0.039498556 -0.0062943138
0.19142833 0.0079005985 -0.0084793642
0.19143301 -0.023929298 -0.0083366726
0.19125721 -0.080457933 -0.0091101546
0.19153808 -0.10795005 -0.0074053733
0.19122528 -0.13123155 -0.0090739513
0.19166833 -0.15648521 -0.0064516771
0.19130354 -0.17732622 -0.0084180431
0.19150159 -0.21970759 -0.0070868172
0.1906295 -0.24638723 -0.01188503
0.1909401 -0.26598701 -0.010020899
0.1909104 -0.28406373 -0.010089322
0.19067937 -0.3012197 -0.011301113
0.1912224 -0.31947923 -0.0081200171
0.19089091 -0.33566067 -0.0099029308
0.19083072 -0.35203624 -0.010146379
0.19104502 -0.36848229 -0.0088326111
0.1910228 -0.38435319 -0.0088613462
0.19091631 -0.40776023 -0.0093200663
0.19092883 -0.4155294 -0.0092006158
0.19085209 -0.43093348 -0.0095393145
0.19082573 -0.45396459 -0.0095440987
0.19080876 -0.46928769 -0.0095440382
0.19071126 -0.4846538 -0.010000773
0.19053438 -0.50014871 -0.010907819
0.19061983 -0.52341861 -0.010278432
0.19046722 -0.53139544 -0.011095803
0.19050114 -0.55518579 -0.010758367
0.19025518 -0.57169992 -0.012056491
0.19011723 -0.58841848 -0.01274172
0.19008946 -0.60531813 -0.012801674
0.18968439 -0.62340063 -0.015001033
0.18995564 -0.64956665 -0.013315247
0.19017977 -0.66743994 -0.01194541
0.18959942 -0.68816602 -0.015136513
0.19023386 -0.71612459 -0.011388986
0.18944854 -0.7398321 -0.01574007
0.18972412 -0.76079261 -0.014075576
0.1894585 -0.78490621 -0.015478084
0.18925686 -0.81008857 -0.016516676
0.18886954 -0.83765483 -0.018606199
0.18969871 -0.87491494 -0.013745415
0.18952949 -0.90568691 -0.014594822
0.18893145 -0.94139177 -0.01787184
0.01451198 -2.3863294 -1.0055907
0.012442761 -2.5496356 -1.0170825
0.010736317 -2.7277045 -1.0265023
0.017555276 -2.9419131 -0.98748577
0.014992317 -3.1819775 -1.001704
0.013073813 -3.4492066 -1.0122403
0.013685076 -3.725713 -1.0084186
0.0082324976 -4.1351171 -1.0388626
0.024188606 -4.5037065 -0.94787276
0.073427573 -8.3174114 -0.66443372
0.12305073 -8.2467356 -0.38296765
0.17015928 -8.2815256 -0.11566486
0.32697201 -10.739367 0.77634031
0.39235893 -10.98394 1.1475008
0.45437521 -10.859365 1.4991293
0.51726061 -10.814895 1.8558443
0.65133518 -8.767642 2.6146564
0.59336376 -4.9104376 2.2825336
0.63315004 -5.0031457 2.5083933
0.75697541 -6.0197372 3.2118275
0.76741308 -5.6787438 3.2708111
0.78193355 -5.4134908 3.3530269
0.77272093 -4.9611006 3.3004436
0.78039718 -4.5439301 3.3437474
0.78207797 -4.2700844 3.3531268
0.74854517 -3.7770669 3.1625478
0.77216655 -3.7024791 3.2965765
0.77582991 -3.5051494 3.3172762
0.77124983 -3.2742922 3.291182
0.76735669 -3.0638678 3.2690043
0.77130121 -2.8203087 3.2913098
0.77392095 -2.6678677 3.3061342
0.77290714 -2.5075591 3.3003385
0.76272953 -2.321008 3.2425323
0.77235115 -2.2153127 3.2971232
0.76627588 -2.0600235 3.2626188
0.76173836 -1.9175522 3.2368503
0.76382005 -1.7391615 3.2486537
0.75838262 -1.6082709 3.2177904
0.7594822 -1.496893 3.2240319
0.75670332 -1.3806129 3.2082651
0.75629699 -1.2719684 3.205966
0.75854683 -1.169456 3.2187428
0.75981563 -1.0666136 3.2259536
0.71737128 -0.9203704 2.9851141
0.73986292 -0.79697186 3.1127689
0.75335932 -0.70736355 3.1893682
0.74917436 -0.60754788 3.1656399
0.74368626 -0.50964546 3.1345196
0.32214716 -0.42744076 0.7430073
0.30826101 -0.41392049 0.66441816
0.30656984 -0.40283573 0.65494001
0.30587566 -0.39950621 0.65104067
0.30573115 -0.38653147 0.65033668
0.30605391 -0.37680143 0.65224463
0.30664581 -0.35627729 0.65575558
0.30830985 -0.341508 0.66527027
0.30729166 -0.32829902 0.65960884
0.30614737 -0.32101631 0.65319431
0.3061502 -0.31536391 0.65324819
0.30588347 -0.29872575 0.6518479
0.30514905 -0.28307959 0.64779454
0.30549315 -0.26814216 0.64981949
0.30570287 -0.25285232 0.65108174
0.30569589 -0.22968984 0.65115029
0.30828041 -0.19687022 0.6658746
0.54857332 1.7019324 2.0282061
0.52681822 1.6878803 1.904855
0.50691259 1.6795481 1.7919929
0.48814979 1.6727656 1.6856133
0.47120178 1.6759866 1.5895231
0.45520037 1.6830661 1.4988004
0.43958735 1.6890788 1.4102812
0.41198343 1.6273503 1.2538106
0.38923922 1.4976596 1.1249276
0.37712455 1.5184976 1.0562454
0.36414093 1.5214781 0.98264503
0.35210031 1.5410827 0.9143818
0.33968878 1.5514176 0.84402013
0.32577488 1.5109564 0.76517206
0.30845967 1.5592061 0.66698909
0.29610536 1.5616504 0.59695452
0.28379223 1.5635967 0.52715307
0.27149278 1.5630642 0.4574303
0.25920472 1.5660604 0.38776791
0.24689661 1.5655836 0.31799358
0.23458664 1.5626298 0.24820954
0.21612711 1.5545424 0.143565
0.20330232 1.5641021 0.070845805
0.19041027 1.5680048 -0.0022518365
0.19133185 1.2460688 0.0033207862
0.17677462 1.3157165 -0.079283834
0.16797535 1.2626059 -0.12910722
0.1892007 0.74021363 -0.0081254132
0.18513225 0.67878133 -0.031089306
0.17501861 0.70402557 -0.088438131
0.16891016 0.67441493 -0.12300865
