# .PCD v0.7 - Point Cloud Data file format
VERSION 0.7
FIELDS x y z
SIZE 4 4 4
TYPE F F F
COUNT 1 1 1
WIDTH 495
HEIGHT 1
VIEWPOINT 0 0 0 1 0 0 0
POINTS 495
DATA ascii
0.22739282 -0.73887259 0.0024288583
0.20369041 -0.66019362 0.0032332321
0.20090665 -0.65110314 0.0034645027
0.16899358 -0.55208772 0.0037499331
0.21422128 -0.69678503 0.0049840608
0.20656544 -0.66845751 0.004835865
0.19864351 -0.65029836 0.0052641942
0.23065291 -0.74681908 0.0063244258
0.16680236 -0.54383206 0.0060973172
0.23327932 -0.75703311 0.0072998605
0.2119014 -0.68602312 0.00704432
0.17534375 -0.57423902 0.0089414706
0.15403536 -0.49836591 0.0086734369
0.22585374 -0.73392391 0.0097764153
0.18866491 -0.61416924 0.0099424943
0.18040626 -0.58209062 0.0090048239
0.14131348 -0.46160156 0.011067919
0.23170997 -0.7643401 0.012395481
0.15223818 -0.49803993 0.012655303
0.21051878 -0.68272084 0.013146272
0.19756457 -0.63777155 0.013812583
0.18705879 -0.60426909 0.014895445
0.16576205 -0.53468072 0.014402695
0.14988662 -0.49044481 0.015977943
0.16354604 -0.53435296 0.016333673
0.13933463 -0.45441183 0.016072668
0.22447792 -0.72902828 0.017172899
0.22201413 -0.71865577 0.017670974
0.21932411 -0.70888025 0.01750119
0.20874462 -0.67129135 0.017229659
0.1367863 -0.44724616 0.017235652
0.23523808 -0.77097416 0.018492816
0.17460302 -0.5637216 0.019449441
0.20677976 -0.66949224 0.020845644
0.19601125 -0.63506895 0.020174753
0.1613311 -0.52620828 0.020961452
0.21716192 -0.7062946 0.021762334
0.18548389 -0.60196894 0.021359852
0.1826515 -0.59389621 0.021826349
0.14818768 -0.48293704 0.021469725
0.13493986 -0.44739932 0.021214506
0.20426811 -0.65970916 0.022625361
0.21479429 -0.69561553 0.023538619
0.17242894 -0.56276906 0.023360139
0.15932778 -0.51839077 0.024805903
0.14615668 -0.48278359 0.024399031
0.19404839 -0.63274193 0.025631027
0.17020275 -0.55472326 0.025490364
0.20231342 -0.65796429 0.026166972
0.13345137 -0.44055769 0.026399918
0.21309081 -0.69310027 0.027818551
0.18097444 -0.58444691 0.027159529
0.15737237 -0.51795232 0.02771372
0.23195171 -0.75260413 0.028450593
0.2290955 -0.74208295 0.028260708
0.19187543 -0.62345845 0.02821964
0.22683918 -0.74036902 0.030644033
0.17904559 -0.5835709 0.030015763
0.1686101 -0.54619604 0.03064953
0.14463747 -0.47552827 0.030018298
0.18989839 -0.61433423 0.031078795
0.13183665 -0.43390611 0.031780116
0.21148053 -0.69004923 0.032856543
0.20080373 -0.6548751 0.032304417
0.20098352 -0.78124726 0.033842567
0.22475308 -0.72838008 0.033282734
0.21653414 -0.70855772 0.03349423
0.15593317 -0.5101133 0.033707425
0.14244245 -0.46851322 0.033796847
0.19042252 -0.78073692 0.034728937
0.17439947 -0.57465684 0.034654148
0.11847646 -0.55985427 0.034733191
0.1531979 -0.50295979 0.034846134
0.20928214 -0.67973018 0.035127778
0.16690281 -0.54517597 0.03545741
0.14002612 -0.46162525 0.03569958
0.21199366 -0.77935493 0.036106713
0.22259912 -0.71655345 0.036155351
0.20414455 -0.67002016 0.036635961
0.18814546 -0.61216331 0.036539886
0.086976685 -0.46160555 0.036670886
0.21998066 -0.71545249 0.037849139
0.19897892 -0.64415711 0.037092507
0.17775401 -0.57381582 0.037402827
0.19358888 -0.77754867 0.038473085
0.15913473 -0.67781132 0.038511895
0.16447441 -0.53735352 0.038893189
0.13800426 -0.46163794 0.038697775
0.1857651 -0.60323304 0.039572138
0.18306068 -0.5957849 0.039070204
0.1619219 -0.53019959 0.03960805
0.10359813 -0.50938725 0.039558057
0.20466666 -0.77623558 0.040033065
0.14890653 -0.49557939 0.040085174
0.15145841 -0.49557593 0.04010709
0.17049696 -0.55810356 0.041440487
0.15977666 -0.52291036 0.0413871
0.087903813 -0.44809943 0.041826885
0.13360389 -0.44816262 0.041891914
0.093216501 -0.44128019 0.041119743
0.17568234 -0.71218038 0.042872652
0.21569924 -0.70271409 0.04269699
0.20781122 -0.67536801 0.042859167
0.1623954 -0.6253252 0.042866092
0.13603567 -0.61001396 0.042102393
0.13353994 -0.60224038 0.042449918
0.18129073 -0.59448314 0.042826373
0.17313957 -0.56512123 0.042250682
0.11992037 -0.5366227 0.042771272
0.11724553 -0.52968186 0.042516548
0.10924226 -0.51592624 0.042415459
0.11723248 -0.51588935 0.042359293
0.11483113 -0.50902379 0.042466
0.10931565 -0.50220549 0.042739559
0.10155598 -0.48860529 0.042533029
0.14682581 -0.48860037 0.042524621
0.095983408 -0.47507405 0.042803776
0.10420851 -0.47508621 0.042822096
0.12297101 -0.47514072 0.042842168
0.098730512 -0.46837142 0.042695198
0.11998241 -0.46837339 0.042616077
0.093451157 -0.46158662 0.042564452
0.095958099 -0.46160313 0.042573772
0.10934242 -0.4616476 0.042613309
0.13372189 -0.46166879 0.042645905
0.098747157 -0.45489797 0.04269477
0.10161535 -0.45487288 0.042649224
0.11491419 -0.45487979 0.042623956
0.12000045 -0.45490053 0.042616811
0.12797168 -0.45491809 0.042643413
0.09100721 -0.44811493 0.042771745
0.096014403 -0.44813225 0.042806897
0.1016538 -0.4481383 0.042823281
0.10939953 -0.44817612 0.042844038
0.11231343 -0.44814184 0.042782966
0.11738218 -0.44814089 0.042793527
0.1255288 -0.44815394 0.042779513
0.12288622 -0.44141451 0.042144153
0.12789305 -0.44140077 0.042122681
0.1200074 -0.43464199 0.042503551
0.12549073 -0.43462959 0.042492326
0.18138573 -0.7211166 0.043914102
0.21075019 -0.7115562 0.043625385
0.18133926 -0.70223451 0.043577932
0.1920301 -0.7022534 0.043585066
0.21077925 -0.69281882 0.043706242
0.1944617 -0.68412906 0.043149553
0.16824698 -0.67491323 0.043704964
0.20010832 -0.67490333 0.043681473
0.19454528 -0.66631848 0.04355989
0.15759061 -0.64923429 0.043904666
0.16520512 -0.64922571 0.043830015
0.16246846 -0.6412217 0.043369208
0.19447261 -0.6332714 0.043018207
0.14943948 -0.63282448 0.043927409
0.17337814 -0.632828 0.043988112
0.18650301 -0.6328727 0.0439354
0.18940286 -0.62497419 0.043760788
0.14129308 -0.61708742 0.043787152
0.1683009 -0.61705828 0.043759074
0.15468156 -0.60921186 0.043887727
0.16259442 -0.60925645 0.043906298
0.15191799 -0.60181558 0.043296874
0.13875139 -0.59414488 0.04380415
0.13628902 -0.58680141 0.043406814
0.14401115 -0.58677179 0.043410558
0.16006137 -0.5867393 0.043347564
0.17879046 -0.58678353 0.0433654
0.13062346 -0.57948852 0.043202352
0.1651676 -0.57942849 0.043139402
0.17329435 -0.57941908 0.043214649
0.1279428 -0.57218498 0.043114852
0.15191233 -0.57211733 0.043108609
0.16002508 -0.57211816 0.043065097
0.13371633 -0.56493849 0.043243088
0.14123611 -0.56489438 0.043175761
0.14937 -0.56485736 0.043143615
0.15754607 -0.56487906 0.043192137
0.16518401 -0.56487149 0.043127228
0.1546343 -0.5576086 0.043331143
0.16254932 -0.5576517 0.043342277
0.12558785 -0.55047923 0.043648142
0.13382244 -0.55052525 0.043761767
0.14134233 -0.55048126 0.043696534
0.14695844 -0.55046099 0.043685075
0.15765227 -0.55046576 0.043711837
0.13066593 -0.54358011 0.043204159
0.12561412 -0.53642088 0.043726258
0.1338505 -0.53646654 0.043837488
0.14137045 -0.53642267 0.043774288
0.11499102 -0.52951318 0.04349041
0.13074026 -0.52955943 0.043529872
0.13878269 -0.5295347 0.043568414
0.14695077 -0.52950156 0.04350514
0.15469012 -0.52946281 0.043480251
0.12803504 -0.52266395 0.0433768
0.13635473 -0.52265877 0.043386936
0.14945184 -0.52259821 0.043350022
0.15762539 -0.52261907 0.043393601
0.10676008 -0.51578128 0.043387361
0.1230213 -0.51580906 0.04338938
0.13073044 -0.51580143 0.043378178
0.13877171 -0.51577652 0.043415166
0.14694005 -0.51574332 0.043353628
0.15467851 -0.51570505 0.043329954
0.11235026 -0.5088982 0.043425985
0.120073 -0.50892091 0.043434359
0.12806386 -0.50893986 0.043465536
0.13382569 -0.50895447 0.043529272
0.13638577 -0.50893456 0.043476127
0.11747708 -0.50206447 0.043664016
0.12309443 -0.50212282 0.043716934
0.1256316 -0.5020768 0.043647625
0.1388455 -0.50209057 0.043743309
0.10672662 -0.49537238 0.043078966
0.11229462 -0.4953422 0.043013833
0.11494447 -0.49534586 0.043030702
0.1200182 -0.49536526 0.043022122
0.10947326 -0.48857412 0.043541063
0.12561309 -0.48855051 0.043471463
0.13079129 -0.48858929 0.043531191
0.13385588 -0.48859498 0.043574654
0.13883007 -0.48856398 0.043565199
0.14137556 -0.48855147 0.043518309
0.10675032 -0.48184493 0.043134376
0.11232161 -0.48181465 0.043070197
0.11496811 -0.48181823 0.043086465
0.120046 -0.48183805 0.043078393
0.12301448 -0.48187137 0.043132383
0.12802707 -0.48185632 0.043107208
0.13635333 -0.48185083 0.043118656
0.1440704 -0.48182115 0.043122005
0.10179594 -0.47504592 0.043805998
0.10954054 -0.47508416 0.043829966
0.11752632 -0.47504836 0.043777261
0.12567692 -0.47506106 0.043762092
0.13085939 -0.47509968 0.04382135
0.13889684 -0.4750742 0.043853927
0.14144099 -0.47506177 0.043808628
0.10685617 -0.46836254 0.043655891
0.1150739 -0.46833569 0.043608345
0.12813215 -0.46837384 0.043628436
0.1364606 -0.46836829 0.043640278
0.10435536 -0.4616152 0.043575797
0.11242916 -0.46161306 0.043535344
0.11750027 -0.46161208 0.043546528
0.12311875 -0.46166906 0.043593835
0.10687006 -0.45492432 0.043655809
0.1308544 -0.45494434 0.043648656
0.13647591 -0.45492989 0.043640304
0.10441012 -0.44817907 0.04380722
0.10679195 -0.44144195 0.043134123
0.2319299 -0.75107676 0.044432309
0.17336772 -0.73059696 0.044396736
0.18651846 -0.71108109 0.044420592
0.19728231 -0.71104717 0.04440853
0.16834371 -0.70165068 0.044360101
0.17088343 -0.70163035 0.044366419
0.18655127 -0.69237351 0.044518985
0.19731475 -0.69233954 0.04450788
0.20809059 -0.69230413 0.044527888
0.17334791 -0.68359065 0.044071421
0.18158881 -0.68315113 0.044920869
0.20543456 -0.68357533 0.044034593
0.1789179 -0.67446244 0.044559777
0.18394671 -0.66587138 0.044459429
0.17892191 -0.65730101 0.044496421
0.18949935 -0.65731806 0.044496126
0.20026544 -0.65725678 0.044479027
0.18401264 -0.6488356 0.044751853
0.19739206 -0.64878684 0.04473199
0.17091569 -0.6407671 0.044264
0.15777795 -0.63244063 0.044883754
0.16539696 -0.63243228 0.044811003
0.17597492 -0.63288188 0.044031385
0.18404359 -0.63248044 0.044846136
0.18159853 -0.62458611 0.044719748
0.14958501 -0.61667562 0.04466594
0.17612372 -0.61673272 0.044766735
0.13893041 -0.60892791 0.044912893
0.1470972 -0.60889524 0.044839323
0.1710442 -0.60886621 0.044830691
0.18163721 -0.60894042 0.044865664
0.16019416 -0.60147357 0.044177122
0.16839147 -0.60148263 0.044200256
0.17605926 -0.60153174 0.044292103
0.1789217 -0.6015178 0.044195037
0.14708252 -0.59378648 0.044663738
0.15482731 -0.59374541 0.044632971
0.16274099 -0.59378952 0.044649307
0.17102766 -0.59375763 0.044655602
0.1735412 -0.59377354 0.044701312
0.14141859 -0.58646852 0.044334508
0.15211354 -0.58642995 0.044328526
0.15772855 -0.58645344 0.044352558
0.16842318 -0.58643913 0.044306986
0.17609663 -0.58648819 0.044396207
0.13883543 -0.57917196 0.044188451
0.14700265 -0.57913905 0.044118792
0.15474601 -0.57909846 0.044089396
0.1626603 -0.57914221 0.044103608
0.13642141 -0.57190442 0.04406986
0.14414231 -0.5718748 0.04407353
0.16838807 -0.57185107 0.044034246
0.12310272 -0.56468207 0.044159688
0.12816919 -0.55745548 0.044324547
0.1364833 -0.55745047 0.044333454
0.14420322 -0.55742085 0.044337045
0.15213935 -0.55738765 0.044319186
0.16025221 -0.5573889 0.044276435
0.16844766 -0.55739707 0.044298653
0.13895984 -0.55026907 0.044710629
0.14964625 -0.55021948 0.044624627
0.16546364 -0.55023354 0.044608172
0.12313019 -0.54338074 0.044183008
0.15478745 -0.5432753 0.044116408
0.16270289 -0.54331797 0.044125546
0.14967646 -0.53619516 0.044710081
0.15785074 -0.5362162 0.044755273
0.12320385 -0.52939385 0.044513091
0.15219495 -0.52930886 0.044479609
0.12021074 -0.52248824 0.044317048
0.12572877 -0.52247703 0.044305332
0.13396688 -0.52252227 0.044414215
0.14424443 -0.52247262 0.044363029
0.14424951 -0.5156188 0.044349968
0.14151785 -0.508789 0.044447549
0.14965516 -0.50875235 0.044417828
0.15220846 -0.50874913 0.0444405
0.13097817 -0.50201118 0.04468723
0.14718677 -0.50195295 0.0446629
0.10440166 -0.4952569 0.044036388
0.12817712 -0.49529669 0.044033151
0.13650124 -0.49529132 0.044044174
0.14421852 -0.49526164 0.044047549
0.11763372 -0.48846826 0.044469643
0.098968685 -0.48178431 0.044142224
0.13396512 -0.48181823 0.044152394
0.093801767 -0.46828848 0.044591289
0.12582259 -0.46162498 0.044516753
0.11518304 -0.44146708 0.044070799
0.13095285 -0.44151425 0.044110872
0.22937241 -0.74022144 0.045055602
0.17904289 -0.71997786 0.045484487
0.20038211 -0.719935 0.045468733
0.20306437 -0.71990126 0.045445979
0.21366876 -0.71989727 0.045415793
0.19481097 -0.71052933 0.045225576
0.20820379 -0.7104671 0.04525318
0.20302635 -0.70107776 0.045150597
0.21363018 -0.70107394 0.045121063
0.16542281 -0.69182503 0.045333412
0.17113799 -0.68257701 0.045729436
0.1924303 -0.68266964 0.045780163
0.18672782 -0.6739831 0.045432154
0.19749092 -0.67394906 0.045422003
0.17359135 -0.66534173 0.045368478
0.20307595 -0.6653052 0.045271803
0.16855471 -0.65681285 0.045380116
0.17366077 -0.6483376 0.045677632
0.1949176 -0.6483748 0.045607705
0.15221398 -0.64035559 0.045172788
0.17905116 -0.64039886 0.045143396
0.18962996 -0.64041591 0.04514204
0.19747211 -0.64036989 0.045142826
0.16041748 -0.62413138 0.045558143
0.17116354 -0.62412119 0.045589358
0.15792489 -0.61632353 0.045633815
0.16554831 -0.61631548 0.045562897
0.18680972 -0.6163491 0.045585424
0.14440781 -0.60855085 0.045783956
0.14968032 -0.60113281 0.045119803
0.15785837 -0.60115504 0.045172699
0.16548601 -0.60114712 0.04510355
0.1340642 -0.58620363 0.04534163
0.14971642 -0.58612251 0.045238096
0.17111197 -0.57881802 0.04505299
0.12581894 -0.56437457 0.045029491
0.13097344 -0.56441396 0.045091923
0.13901839 -0.56438959 0.045134548
0.14718592 -0.56435674 0.045066796
0.12832174 -0.54315579 0.045115173
0.13663819 -0.54315078 0.045124575
0.14435716 -0.5431211 0.045128122
0.15229249 -0.54308772 0.04511065
0.16040547 -0.54308945 0.045068633
0.11266045 -0.5223096 0.045281261
0.14165825 -0.52232218 0.045325708
0.1843058 -0.72893822 0.046781786
0.19506858 -0.72891605 0.046749145
0.18975969 -0.71943539 0.046304647
0.1841971 -0.71000689 0.046083376
0.1791532 -0.70062453 0.046023402
0.18987474 -0.70011133 0.046861023
0.20064108 -0.70005143 0.04684237
0.17630783 -0.69135314 0.046309296
0.1842353 -0.69135839 0.046218205
0.17634244 -0.67350781 0.046393692
0.16294236 -0.66489023 0.046190489
0.17123361 -0.66485828 0.046190642
0.18183289 -0.66493225 0.046232685
0.19252436 -0.66495055 0.046238516
0.16050966 -0.65634882 0.046233173
0.17635594 -0.65640777 0.046359248
0.1551047 -0.64787126 0.046489786
0.19259444 -0.64797688 0.046560925
0.1604851 -0.63993198 0.046017833
0.16868398 -0.63994175 0.046041906
0.14739189 -0.63162231 0.046649955
0.15514095 -0.63157988 0.046615589
0.15246366 -0.62374127 0.04651127
0.17930248 -0.6237849 0.046482712
0.17384478 -0.61593026 0.046552435
0.18435124 -0.61598879 0.046509605
0.14171149 -0.60082793 0.046078935
0.23524322 -0.75962991 0.047229204
0.21646644 -0.71882963 0.047133025
0.17397724 -0.70885628 0.047771826
0.20606583 -0.7088418 0.047734912
0.18999071 -0.68164784 0.047423102
0.16575813 -0.67298013 0.047126856
0.18704426 -0.65594447 0.047138214
0.18205875 -0.64752042 0.047440827
0.14468494 -0.62338269 0.047437482
0.19795136 -0.78042543 0.048495997
0.17661591 -0.73790544 0.048342191
0.19286589 -0.72780955 0.04843979
0.20358482 -0.68105471 0.048238058
0.19294639 -0.63087124 0.048482399
0.20886019 -0.77974713 0.049264066
0.19839236 -0.72602147 0.05079158
0.22211176 -0.72664237 0.050034419
0.20659453 -0.72599465 0.050813805
0.20931032 -0.72541273 0.051615879
0.21970251 -0.72546029 0.051594965
0.18035287 -0.73436344 0.052998718
0.15610592 -0.66155845 0.052250672
0.18811734 -0.77595931 0.053792298
0.21249503 -0.77589136 0.053820945
0.185517 -0.76498419 0.053814244
0.18801087 -0.73436862 0.05301559
0.22597039 -0.7326318 0.055398703
0.1914871 -0.73202848 0.056190088
0.19158861 -0.78442782 0.05700738
0.234248 -0.7617892 0.057672393
0.20274816 -0.78240281 0.059215691
0.17613031 -0.73902655 0.060164601
0.20295605 -0.72903168 0.060154382
0.23251441 -0.75739229 0.062993675
0.22990264 -0.74731219 0.062644064
0.1846471 -0.73728156 0.062526457
0.21407333 -0.72724748 0.062607199
0.19565903 -0.77789021 0.06451311
0.20635568 -0.77777594 0.064391345
0.21709429 -0.777116 0.0651021
0.2199918 -0.77519774 0.067425549
0.19616883 -0.73368949 0.067253858
0.22512674 -0.73366952 0.067235
0.20961244 -0.77451742 0.068176098
0.22832155 -0.74240476 0.068815142
0.18008618 -0.73306423 0.068091854
0.21765055 -0.72311717 0.068067864
0.22283678 -0.77324265 0.06963852
0.186149 -0.77196574 0.071192123
0.2076062 -0.72076988 0.071285635
0.19963028 -0.78147435 0.072846487
0.21296923 -0.77057296 0.072628483
0.18378502 -0.75988561 0.072632514
0.1915949 -0.78081119 0.073602438
0.19976631 -0.7288354 0.073467441
0.1892451 -0.7794888 0.07507693
0.2026161 -0.77944058 0.075050898
0.18698998 -0.73685032 0.075855345
0.1920291 -0.72703642 0.0758489
0.2238225 -0.72761732 0.075045899
0.21099435 -0.72697806 0.07585872
0.17651621 -0.73616427 0.07658039
0.19515187 -0.77747637 0.077247247
0.23498648 -0.76667953 0.077094465
0.18167658 -0.75604218 0.077289701
0.23258977 -0.75539929 0.077962652
0.21687455 -0.77606159 0.078755297
0.18504152 -0.73375505 0.079669826
0.20656292 -0.77407587 0.080886342
0.22763364 -0.77346301 0.081692711
0.17999113 -0.74163783 0.082166374
0.22774048 -0.74169588 0.082159042
0.21481328 -0.72155416 0.082932644
0.23097761 -0.75027514 0.083959945
0.22286099 -0.73064631 0.083567992
0.21779144 -0.72095251 0.083746105
0.20720103 -0.73002005 0.084311865
0.22559127 -0.73914522 0.085164949
0.1965728 -0.72945982 0.085106164
0.20441724 -0.72941643 0.085106857
