# .PCD v0.7 - Point Cloud Data file format
VERSION 0.7
FIELDS x y z
SIZE 4 4 4
TYPE F F F
COUNT 1 1 1
WIDTH 1195
HEIGHT 1
VIEWPOINT 0 0 0 1 0 0 0
POINTS 1195
DATA ascii
0.013776719 -0.8329348 0.0020091417
0.018768236 -0.83208257 0.0025585627
0.15394014 -0.73881465 0.002322373
0.20395502 -0.69814754 0.0023653216
0.20954934 -0.69820029 0.002412674
0.23608933 -0.67909831 0.0024504976
0.09024512 -0.78242213 0.0035987538
0.12217178 -0.75991619 0.0032167137
0.12834054 -0.75990689 0.0032462983
0.17556393 -0.72758234 0.0034294955
0.055258125 -0.80520809 0.0048682177
0.057046831 -0.80522305 0.0048630079
0.086316697 -0.78174955 0.0042493553
0.10125422 -0.78172117 0.0042578671
0.098482981 -0.77019614 0.0044696457
0.21271609 -0.69722813 0.0040671891
0.31042796 -0.62468678 0.0043771709
0.018398708 -0.83034861 0.0050188079
0.044442024 -0.81700385 0.0054810718
0.065524593 -0.79221392 0.0059010359
0.15076481 -0.74736232 0.0054799593
0.15831465 -0.73666662 0.0056264354
0.23948157 -0.6777373 0.0050416146
0.25023404 -0.67769653 0.0050030467
0.29970399 -0.60744488 0.0055462443
0.035876062 -0.81641918 0.0062527494
0.10657826 -0.76847392 0.0068760626
0.10812962 -0.76848608 0.0069257114
0.16177663 -0.73615682 0.0064561083
0.21116434 -0.70556444 0.0064337677
0.32166323 -0.64095187 0.0066583138
0.053728215 -0.80334347 0.0071533471
0.069504932 -0.79102886 0.0074844076
0.076686919 -0.79086775 0.0073989416
0.16760857 -0.72492152 0.0075444994
0.31707969 -0.64059442 0.00752198
0.30930382 -0.63203818 0.0072383569
0.037862051 -0.81452554 0.0085867271
0.13753946 -0.74513221 0.0087949289
0.17091484 -0.72445488 0.0084362132
0.18106684 -0.71450615 0.0082086595
0.21833974 -0.69484025 0.008385295
0.22236483 -0.69478613 0.0083372248
0.25294247 -0.66678417 0.0084635308
0.26138404 -0.6666674 0.0083240457
0.32572892 -0.64867795 0.0087611936
0.29342338 -0.60642898 0.0082516335
0.29593083 -0.60641629 0.0083180433
0.023254337 -0.82642323 0.0095167551
0.061923172 -0.80143696 0.0094240541
0.066759795 -0.80138856 0.009331706
0.073775135 -0.78920317 0.0099064112
0.095162608 -0.77756095 0.0098157786
0.11280392 -0.76598561 0.0098418603
0.12442921 -0.75533003 0.0096761379
0.14213435 -0.74452984 0.0095903883
0.16308014 -0.73391366 0.0097359223
0.19802128 -0.70356065 0.0099276481
0.20016709 -0.70356607 0.0098932581
0.24540369 -0.67545497 0.0094271833
0.34002903 -0.66626376 0.0092089791
0.31487304 -0.63978273 0.0093283718
0.30427796 -0.62286931 0.0090815546
0.04607873 -0.81320107 0.01000537
0.11524337 -0.76613688 0.010064335
0.21651921 -0.69385964 0.010093098
0.32052585 -0.64792168 0.010647787
0.29690555 -0.61373389 0.010905946
0.022491505 -0.82447076 0.011754734
0.031328958 -0.82430482 0.011569125
0.045084815 -0.81191641 0.011550752
0.098890997 -0.7763297 0.011357597
0.12739342 -0.76481527 0.011497679
0.22471362 -0.68365473 0.011418359
0.23281872 -0.68369633 0.011419573
0.24780719 -0.67400444 0.011856507
0.33093485 -0.66547841 0.011152332
0.078346983 -0.78731644 0.012213326
0.08858902 -0.78660166 0.012921712
0.094498962 -0.77516097 0.01295454
0.11671449 -0.76434815 0.012356583
0.12651289 -0.75304526 0.012963385
0.1796352 -0.72182274 0.012685791
0.33714083 -0.66502041 0.012059934
0.2543436 -0.66499072 0.012007557
0.33323625 -0.65605289 0.01218592
0.30784473 -0.62977248 0.012717746
0.31033859 -0.62980247 0.012725027
0.29160798 -0.60483503 0.012992499
0.28905043 -0.59697139 0.012506785
0.030353915 -0.82314968 0.013229736
0.086506553 -0.78606486 0.013753855
0.13463897 -0.7524209 0.013734027
0.13813412 -0.75233901 0.013635678
0.1466483 -0.74175483 0.013712515
0.15053152 -0.74174553 0.013651667
0.23287441 -0.68276346 0.013210069
0.23388007 -0.68273026 0.01317835
0.24392869 -0.67318875 0.013800023
0.33704832 -0.67317086 0.013844993
0.3262054 -0.65565372 0.013076273
0.30502728 -0.61278331 0.013709932
0.061220132 -0.7976715 0.014041997
0.08251635 -0.78542089 0.014458667
0.17703119 -0.72077233 0.014299815
0.19080797 -0.71038979 0.014969571
0.19545694 -0.71034086 0.014964536
0.21429865 -0.70060658 0.014970271
0.33206245 -0.67272085 0.014683282
0.33450049 -0.67271 0.014665802
0.34455702 -0.6726858 0.014647631
0.32395026 -0.65478402 0.01486873
0.32663825 -0.65483528 0.014963229
0.32124725 -0.64629036 0.014246172
0.30001134 -0.61236411 0.014589425
0.015193176 -0.83364046 0.015785925
0.032475878 -0.82116103 0.015419837
0.041498575 -0.80873561 0.015345663
0.053363141 -0.80867922 0.01531804
0.11881902 -0.76199007 0.015554766
0.13360707 -0.75130904 0.015416117
0.174143 -0.730084 0.015547733
0.18825603 -0.71963841 0.015933784
0.20974614 -0.70006448 0.015848979
0.23610073 -0.68133545 0.015730331
0.34028667 -0.68131858 0.015714191
0.33471796 -0.67223555 0.015550307
0.33726937 -0.67224097 0.01552418
0.32909012 -0.66329879 0.015564969
0.32402885 -0.65438002 0.015757989
0.053352635 -0.80808067 0.016101575
0.10425065 -0.77277416 0.016140984
0.12415752 -0.76128531 0.016259776
0.14940034 -0.75009143 0.016892044
0.16012123 -0.73953646 0.016903274
0.19081691 -0.70933515 0.016598174
0.1987855 -0.70930016 0.016676715
0.019153096 -0.83163202 0.017921273
0.027227264 -0.81917715 0.017610801
0.065937921 -0.79451782 0.017821589
0.10316396 -0.77220809 0.01701073
0.20923366 -0.69907135 0.017576167
0.22064023 -0.6991365 0.01758443
0.3402037 -0.68035299 0.017437018
0.32991353 -0.66241294 0.017263699
0.3137309 -0.63625795 0.017484585
0.30301055 -0.61959404 0.017253984
0.043482143 -0.81840831 0.018360756
0.050210722 -0.80614924 0.018365812
0.075345829 -0.79376638 0.018436542
0.091473609 -0.78236872 0.01834782
0.15540558 -0.7383787 0.018489372
0.16335024 -0.72847688 0.018003477
0.034414016 -0.8178634 0.019149791
0.058450349 -0.80488199 0.019934809
0.064617924 -0.80483067 0.01981861
0.070283689 -0.79330409 0.01936985
0.074170485 -0.79328591 0.019363625
0.11050236 -0.7696566 0.019949378
0.20218761 -0.70774686 0.019194914
0.21010579 -0.70772171 0.019099539
0.22838229 -0.68852222 0.019675305
0.24738149 -0.67048645 0.019123187
0.25958234 -0.66994482 0.019971145
0.31641719 -0.63551593 0.019316882
0.30967847 -0.62678814 0.01992785
0.014699229 -0.82897347 0.020959215
0.029676935 -0.82885444 0.020761447
0.10633796 -0.76975203 0.020020576
0.1118617 -0.76974905 0.020018175
0.11319577 -0.76914269 0.020784011
0.13861313 -0.74724072 0.020946013
0.15974393 -0.73725307 0.020166008
0.18372147 -0.71649468 0.020929433
0.24561059 -0.67846078 0.020958072
0.24986611 -0.67005545 0.020033341
0.041053664 -0.81588483 0.021375297
0.086437963 -0.79130131 0.021586046
0.096971102 -0.77985901 0.02147356
0.12101211 -0.75786388 0.021129198
0.22921662 -0.68755531 0.0214356
0.24199738 -0.6780327 0.02183805
0.29551136 -0.60999113 0.021020042
0.29054493 -0.60192996 0.021418557
0.040388521 -0.81513911 0.022001971
0.036343046 -0.81455672 0.022806846
0.078945316 -0.79074383 0.022400942
0.082713895 -0.79073572 0.022435
0.090969704 -0.77928787 0.022274412
0.12924075 -0.75670433 0.022790007
0.1363195 -0.75660425 0.022718707
0.1425719 -0.74608731 0.022584084
0.16820459 -0.72575492 0.02218551
0.19472131 -0.70574027 0.02260934
0.23158891 -0.68700927 0.022196323
0.34237361 -0.66856527 0.022441344
0.10808522 -0.77795655 0.02368206
0.12311658 -0.7561112 0.023528611
0.14718877 -0.74545407 0.02332175
0.18571714 -0.72456944 0.023653705
0.18621042 -0.71495229 0.023492234
0.2238932 -0.68658257 0.023053037
0.25698736 -0.67707622 0.023607869
0.31992438 -0.65054959 0.023743697
0.019159907 -0.82562548 0.024590665
0.046086829 -0.81325758 0.024335258
0.049695373 -0.81326264 0.024339885
0.077547483 -0.78887457 0.024720235
0.11530285 -0.76612812 0.024713721
0.14723976 -0.74493331 0.024175987
0.15493993 -0.73446375 0.02424797
0.17637165 -0.72414714 0.024640413
0.21370664 -0.69509643 0.024389792
0.25869972 -0.66768646 0.024304206
0.31403768 -0.63316119 0.024741337
0.29963943 -0.60093504 0.024153324
0.027383829 -0.82496452 0.025284069
0.053836416 -0.81260854 0.025093833
0.058068555 -0.80039352 0.025223169
0.13128562 -0.75436532 0.025991151
0.13787815 -0.75493562 0.025186718
0.15764776 -0.74384886 0.02585482
0.17186399 -0.73397237 0.025198685
0.17361985 -0.72360814 0.025471909
0.20546401 -0.70412022 0.025061911
0.2000307 -0.70362598 0.025954615
0.20604622 -0.70361888 0.025974244
0.22873811 -0.69459403 0.025278568
0.24047562 -0.68510687 0.025615282
0.25917542 -0.66725683 0.025258129
0.33224559 -0.65844208 0.025287762
0.31258869 -0.64096367 0.025944345
0.29894209 -0.6163556 0.025500525
0.023914063 -0.82366014 0.026799683
0.051507685 -0.81123745 0.02648331
0.082066238 -0.7876249 0.026308948
0.099343613 -0.77620804 0.026192885
0.10081772 -0.77622986 0.026229061
0.17136499 -0.77620339 0.026147656
0.10863497 -0.77559328 0.026941499
0.12274662 -0.76484621 0.026249334
0.1873505 -0.71283627 0.026852492
0.19732006 -0.71275699 0.026803266
0.22244786 -0.69363171 0.026954856
0.30974334 -0.63234454 0.026564294
0.30718336 -0.62416333 0.026439421
0.30208585 -0.6159938 0.026456192
0.073551796 -0.79833996 0.02730374
0.084158979 -0.78621751 0.027646616
0.087413758 -0.78698736 0.027069926
0.1396596 -0.78695834 0.027001927
0.14345229 -0.78632361 0.027795078
0.15967533 -0.73226094 0.027567739
0.20825206 -0.70259744 0.027662188
0.22504631 -0.69313133 0.027831711
0.3022573 -0.69303727 0.027835272
0.32129475 -0.64021963 0.027852703
0.30472291 -0.62375367 0.027260413
0.037557054 -0.82216358 0.028102085
0.04508099 -0.80931783 0.0287502
0.062862486 -0.80927527 0.028737625
0.062636375 -0.7971471 0.028885828
0.066266276 -0.79778528 0.028118053
0.070751652 -0.7971946 0.028950378
0.14797769 -0.78568763 0.028538745
0.11708117 -0.76314032 0.028683236
0.12510867 -0.76315463 0.028632788
0.15161552 -0.74207801 0.028221963
0.18330766 -0.72134912 0.02870363
0.24877274 -0.63159299 0.028377939
0.031928528 -0.82096672 0.029683471
0.077251308 -0.79656273 0.029714499
0.15178201 -0.78506958 0.029313868
0.15828197 -0.78512019 0.029376812
0.16244215 -0.78509545 0.02933613
0.17151831 -0.78439319 0.029991852
0.10401204 -0.77374995 0.029254572
0.19550057 -0.75197828 0.029151764
0.16388409 -0.73110986 0.029121777
0.16846816 -0.73053902 0.029909944
0.18234503 -0.72084445 0.029493019
0.20869398 -0.70157099 0.029323846
0.21912989 -0.70160949 0.02926738
0.21942902 -0.69214702 0.029544365
0.030910028 -0.82030493 0.030453913
0.039162118 -0.82023305 0.030344717
0.080736324 -0.79574221 0.030288994
0.13877934 -0.79588038 0.030462259
0.16661364 -0.78443593 0.030079041
0.17676996 -0.7844165 0.030112822
0.17976466 -0.78448451 0.03007663
0.15605953 -0.78378975 0.030813362
0.17481621 -0.78382725 0.030820614
0.13318188 -0.75083709 0.030744091
0.19802959 -0.75076652 0.030682037
0.21939842 -0.74036026 0.030579533
0.1693795 -0.73060721 0.030005373
0.27833596 -0.70051634 0.030967647
0.2337016 -0.68220919 0.030814489
0.32580546 -0.64755678 0.030034358
0.30405438 -0.61461461 0.030120475
0.053436339 -0.80736631 0.031054279
0.064332873 -0.80670214 0.031787399
0.068376191 -0.80669451 0.031738773
0.072456576 -0.80673891 0.031757545
0.073661461 -0.79525787 0.031127591
0.074748665 -0.7952686 0.031171506
0.13069642 -0.79524261 0.031211277
0.13216974 -0.79525483 0.031227214
0.14302769 -0.79521412 0.031234024
0.14705099 -0.79516828 0.031111859
0.081814721 -0.7945953 0.031955533
0.089695245 -0.79457557 0.031944353
0.13795888 -0.79450125 0.031892598
0.15371306 -0.79455489 0.031904869
0.15546179 -0.79457933 0.031902757
0.16282246 -0.79458004 0.031895738
0.096355423 -0.78320152 0.031626493
0.097777642 -0.78319895 0.031633627
0.11662985 -0.77181017 0.031421054
0.13435641 -0.76062191 0.031726535
0.19484368 -0.76064521 0.031680547
0.19837648 -0.76068109 0.031792302
0.20436601 -0.76066244 0.031798113
0.20537363 -0.76064616 0.031743687
0.14513393 -0.75016439 0.031454407
0.18040718 -0.71981049 0.031272773
0.24073379 -0.68171358 0.031686507
0.24418567 -0.68169892 0.03167
0.3366397 -0.66412872 0.031402573
0.27847725 -0.60621476 0.031209039
0.03677832 -0.85760391 0.032770142
0.1058813 -0.80610228 0.03264885
0.10711782 -0.80606699 0.032561544
0.11772925 -0.80606174 0.032519311
0.077809416 -0.80591875 0.032330729
0.1238597 -0.80596268 0.032442905
0.085707389 -0.79390496 0.032625392
0.09207847 -0.79385483 0.032643467
0.1512959 -0.79386169 0.032562569
0.16644755 -0.79398012 0.03270388
0.11269115 -0.78248245 0.032316051
0.12040646 -0.77122474 0.032270048
0.12845978 -0.76015919 0.032604516
0.20196131 -0.76006335 0.032607086
0.14167337 -0.74963665 0.032336008
0.15124539 -0.73915231 0.03215592
0.1725091 -0.72889519 0.032445703
0.17727067 -0.7192471 0.032063808
0.19615749 -0.70908433 0.032712162
0.20981942 -0.69952387 0.032728698
0.27593866 -0.6995241 0.032684341
0.30559433 -0.69949651 0.032623198
0.32433745 -0.65495759 0.032348279
0.031490892 -0.84301811 0.033810716
0.067220226 -0.84297556 0.033751123
0.045814458 -0.83056819 0.033016033
0.015706023 -0.8299095 0.033791866
0.028521881 -0.82974696 0.033656616
0.087418817 -0.82987559 0.033708435
0.063404299 -0.81758988 0.03333747
0.060283225 -0.80537266 0.033285033
0.076605737 -0.80540895 0.033237536
0.080840379 -0.80538416 0.033212245
0.087336294 -0.80537152 0.033182506
0.11416059 -0.80539525 0.033248194
0.12588274 -0.80542028 0.033208132
0.13357559 -0.80542153 0.033274237
0.091519982 -0.80470604 0.033950292
0.11548915 -0.80473477 0.03396799
0.12492216 -0.80474943 0.033971041
0.13475497 -0.8046391 0.033897091
0.096669182 -0.79329729 0.033440631
0.15936844 -0.79327327 0.033447336
0.087464854 -0.78129148 0.033852492
0.091389716 -0.78191131 0.033111189
0.095513061 -0.78193176 0.033184972
0.10287886 -0.78127742 0.033907168
0.10618639 -0.7819382 0.033205427
0.11677256 -0.78193361 0.033125147
0.11799171 -0.78132564 0.03392921
0.12756075 -0.78135008 0.033910636
0.11133637 -0.77009541 0.033972457
0.11944113 -0.77010924 0.033974476
0.12049365 -0.77008557 0.03387481
0.12712476 -0.77057976 0.03301743
0.14180589 -0.770684 0.033159781
0.14354189 -0.74844611 0.03396754
0.15520264 -0.73807722 0.033898897
0.16214763 -0.7380352 0.033839438
0.18754166 -0.72768623 0.033950053
0.18334031 -0.71815699 0.03373909
0.18554547 -0.71814734 0.033670858
0.26205212 -0.71808851 0.033716161
0.19080749 -0.70862311 0.033604618
0.20216675 -0.70850557 0.03352946
0.20563696 -0.70848703 0.033454672
0.29507497 -0.67191529 0.033102248
0.33531216 -0.67193884 0.033156004
0.26284716 -0.66316235 0.033110872
0.26322564 -0.66267389 0.033923093
0.32719117 -0.65452939 0.033297945
0.30863398 -0.6292277 0.033914864
0.29789653 -0.61314434 0.033708137
0.040821575 -0.84227425 0.034474485
0.053032979 -0.84228808 0.034517739
0.02358173 -0.8292399 0.034510653
0.024382249 -0.82901573 0.034280844
0.034094155 -0.82925743 0.034546811
0.035361603 -0.82910496 0.034372728
0.037106205 -0.82922083 0.034521703
0.052919343 -0.82915592 0.034420699
0.078171782 -0.82908511 0.034319047
0.049620636 -0.8161847 0.034785762
0.053102732 -0.8162545 0.034844656
0.056686729 -0.81688398 0.034083646
0.059759822 -0.8162834 0.034913991
0.074292153 -0.81629056 0.034780208
0.082310818 -0.81627059 0.034855843
0.086073212 -0.81622273 0.034767952
0.10070698 -0.81691366 0.034134038
0.11005071 -0.81614709 0.034676909
0.058581486 -0.80408525 0.034758922
0.062302034 -0.80407751 0.034765545
0.095863536 -0.80402458 0.034706417
0.099528871 -0.80407095 0.034754913
0.13560417 -0.80475509 0.034032147
0.099221654 -0.79259765 0.03416758
0.11291619 -0.7926966 0.034302801
0.15811187 -0.79261529 0.034100387
0.11005992 -0.79190105 0.034798793
0.1208729 -0.79194039 0.034852356
0.14925633 -0.79192704 0.034875821
0.14185826 -0.78060341 0.034607548
0.11302411 -0.76949137 0.034799196
0.12217183 -0.769463 0.034662064
0.13280967 -0.76947856 0.03474256
0.12761645 -0.75895202 0.034171566
0.13836943 -0.758313 0.034989648
0.14175597 -0.75883448 0.034104131
0.1491037 -0.75883102 0.034109537
0.15259299 -0.75827873 0.034920637
0.18860239 -0.75895035 0.034190003
0.20438859 -0.75886703 0.034143064
0.20702541 -0.75883478 0.034111626
0.16092093 -0.74786288 0.034720745
0.17235048 -0.74780458 0.034611303
0.16627261 -0.73749495 0.034683164
0.18112502 -0.72718227 0.034871973
0.18861066 -0.72782981 0.034094267
0.2023923 -0.72718 0.034904473
0.20589533 -0.72716141 0.034828886
0.22612166 -0.72780782 0.034082845
0.1952856 -0.71752441 0.034392323
0.20194404 -0.71754849 0.034524284
0.24462546 -0.71761751 0.034533691
0.25486836 -0.70807672 0.034425355
0.28038195 -0.70803553 0.034342229
0.19938883 -0.70799583 0.034344669
0.26596317 -0.70796597 0.034352668
0.26959267 -0.70798546 0.034301329
0.2737571 -0.70798677 0.034353644
0.27961782 -0.70799994 0.034396466
0.28206855 -0.70799518 0.034317132
0.29528576 -0.70799965 0.034349751
0.30039585 -0.70795441 0.034316029
0.22851434 -0.68912691 0.034647007
0.23941623 -0.68912369 0.034616459
0.29528651 -0.68023604 0.034240212
0.25528288 -0.67149222 0.034082361
0.25758618 -0.67101192 0.034896929
0.33495507 -0.67148983 0.034061454
0.26964921 -0.66223574 0.034812905
0.32988599 -0.66278887 0.034033109
0.31928986 -0.64544803 0.034446869
0.31663921 -0.6373257 0.034036729
0.035995368 -0.85479212 0.035540357
0.043514702 -0.85476452 0.035550505
0.075433545 -0.84163964 0.035206307
0.042657599 -0.84091759 0.035965722
0.049818408 -0.84082931 0.035875514
0.061245866 -0.84091681 0.035998777
0.054162052 -0.82853836 0.035253368
0.048118662 -0.82784355 0.035943676
0.062499423 -0.82784778 0.035968084
0.06909886 -0.82784039 0.035912935
0.081302375 -0.82784218 0.035900168
0.041023273 -0.81557167 0.035533998
0.075255781 -0.8155607 0.035509147
0.09259697 -0.81550378 0.035521027
0.099477291 -0.81553209 0.035536516
0.066499792 -0.8034116 0.035478096
0.14587033 -0.8033694 0.035415173
0.10100797 -0.79135531 0.035738509
0.10907979 -0.79137313 0.035698112
0.10765002 -0.78007185 0.035501819
0.12628768 -0.78008175 0.035407636
0.12436879 -0.77996826 0.035384864
0.13146812 -0.76885086 0.035503689
0.13857329 -0.76875263 0.035432208
0.13968277 -0.76884586 0.035510018
0.14380009 -0.76882213 0.035527039
0.15835351 -0.76879513 0.035379801
0.13719139 -0.75774509 0.035845332
0.14120573 -0.75769305 0.03572591
0.14487383 -0.75768751 0.035751961
0.15185024 -0.75763446 0.035639063
0.15980199 -0.75768769 0.035761967
0.16697255 -0.75775135 0.035768699
0.15690126 -0.74724185 0.035461742
0.17565416 -0.74727905 0.035467301
0.21532722 -0.7472778 0.035538159
0.15977287 -0.73691124 0.035501707
0.16691487 -0.73697466 0.035505954
0.17054121 -0.73692197 0.0355427
0.20212495 -0.73688477 0.035491467
0.1966766 -0.72666973 0.035740502
0.19960858 -0.72664106 0.035701305
0.20468467 -0.72662771 0.035685223
0.19184236 -0.71710557 0.035367291
0.19438371 -0.71706218 0.035330411
0.25563428 -0.71703672 0.035319801
0.25841314 -0.71702284 0.03534662
0.22633091 -0.70751429 0.035193495
0.23050183 -0.70747685 0.035200208
0.26339957 -0.70743895 0.035118543
0.27682415 -0.70743251 0.035156496
0.28407431 -0.70756626 0.035248663
0.29469427 -0.70753878 0.035200283
0.23390655 -0.69797546 0.035253521
0.27133262 -0.69743907 0.035980377
0.23679921 -0.68864143 0.035557818
0.23783958 -0.68861121 0.035526622
0.24818608 -0.6885649 0.035480622
0.29811314 -0.68855548 0.035397865
0.25205141 -0.6792205 0.035771355
0.26242286 -0.67924345 0.035991669
0.26329654 -0.67973781 0.035073459
0.33823881 -0.67928463 0.035951313
0.27328053 -0.66178381 0.035652049
0.31959298 -0.66184306 0.035807077
0.33030736 -0.66190666 0.035892215
0.31440249 -0.63650203 0.03584912
0.31934327 -0.63653749 0.035861712
0.30123633 -0.62037039 0.035562918
0.30368957 -0.62036896 0.035544336
0.29316303 -0.60458654 0.035917222
0.046646923 -0.85395736 0.036206003
0.021267269 -0.84020734 0.036635544
0.049479645 -0.8401866 0.036616944
0.056931853 -0.84020811 0.036640193
0.07208246 -0.84024799 0.036669947
0.019867951 -0.82715803 0.036635805
0.028034309 -0.82720476 0.036710914
0.046714623 -0.82706434 0.036637057
0.071593121 -0.82710832 0.036564626
0.089092702 -0.82709181 0.036572699
0.095911339 -0.82788736 0.036039341
0.10699745 -0.82710826 0.036627933
0.049430452 -0.81489885 0.036283255
0.050818834 -0.81423032 0.036977857
0.061330043 -0.81493419 0.036370121
0.067668006 -0.81456208 0.036618777
0.072038017 -0.81496012 0.036332913
0.085679218 -0.81479073 0.036138624
0.094732903 -0.81424183 0.036973741
0.1210665 -0.81456017 0.036589656
0.070840783 -0.8027553 0.036145505
0.071501583 -0.80270803 0.036128748
0.095976964 -0.80280465 0.036321171
0.10704146 -0.80205196 0.036934532
0.12363652 -0.80277032 0.036191698
0.12768154 -0.80266881 0.036098339
0.14246137 -0.80211687 0.0369872
0.14690332 -0.80207402 0.036964986
0.09464398 -0.7907173 0.036407255
0.1026146 -0.79073435 0.036530226
0.12092681 -0.79074663 0.03641377
0.13063972 -0.79077393 0.036516733
0.15561445 -0.7907213 0.036477037
0.099801861 -0.77941513 0.03623322
0.10406492 -0.77941531 0.036253534
0.15295881 -0.77876192 0.036935642
0.15059629 -0.76819897 0.036284197
0.16356531 -0.76821554 0.036209174
0.20227228 -0.76816738 0.036243308
0.16966747 -0.76755244 0.03692288
0.18479623 -0.76754087 0.036977865
0.18609932 -0.76760584 0.036992051
0.19201505 -0.7675553 0.036967013
0.19436583 -0.76758629 0.036932606
0.16373156 -0.75711602 0.036548175
0.17554794 -0.75712776 0.036572553
0.18131836 -0.7571426 0.036592249
0.18355308 -0.75708741 0.036459435
0.19129546 -0.757173 0.036625806
0.19202764 -0.7571615 0.036557239
0.15061958 -0.74667537 0.036339261
0.16512573 -0.74665511 0.036233272
0.16955972 -0.74664426 0.03620467
0.18138604 -0.74664164 0.03626886
0.18128915 -0.73639446 0.036351204
0.1945383 -0.73636961 0.036277767
0.23180659 -0.736377 0.036407467
0.19575849 -0.73571372 0.03697006
0.17268591 -0.72605211 0.036443196
0.18849249 -0.72614866 0.036522664
0.19904217 -0.72607464 0.036494289
0.2164879 -0.72606522 0.036456991
0.22063397 -0.72614515 0.036540318
0.2262385 -0.72612911 0.03653397
0.19917716 -0.71647 0.036151405
0.25777042 -0.71651971 0.036173251
0.22743887 -0.71594042 0.036927462
0.21246506 -0.70692503 0.036006726
0.21588488 -0.70641983 0.036833104
0.22055924 -0.70699954 0.036036137
0.22405326 -0.70645911 0.036852196
0.22888981 -0.70644963 0.036855191
0.23727754 -0.70645958 0.036863144
0.23979004 -0.70644665 0.036825053
0.24460909 -0.70642877 0.036847565
0.2484398 -0.7063874 0.036837269
0.26580492 -0.70693624 0.036051746
0.23127271 -0.69751865 0.036161058
0.24506962 -0.69700938 0.036944918
0.24782766 -0.69751579 0.036082525
0.29312766 -0.69751072 0.036122851
0.2274131 -0.69696665 0.036863212
0.25022563 -0.6969955 0.03694167
0.26260811 -0.69693625 0.036955178
0.27352586 -0.69694638 0.036837429
0.27442032 -0.69696021 0.036950115
0.28761095 -0.69698077 0.036944002
0.29843661 -0.69698304 0.036860831
0.3089737 -0.69695675 0.036945388
0.30924201 -0.69698381 0.03697234
0.26924601 -0.68806303 0.036358256
0.27683353 -0.68811429 0.036362082
0.28500134 -0.68812585 0.036444683
0.29562488 -0.68809253 0.03630247
0.31438243 -0.68809271 0.0363454
0.32256186 -0.68809271 0.036264822
0.32756799 -0.67934406 0.036017124
0.24507016 -0.67883164 0.03684115
0.25022161 -0.67881811 0.036838572
0.25586161 -0.67879498 0.036803216
0.277136 -0.67874521 0.036799736
0.29018602 -0.67882371 0.036849145
0.31710076 -0.67879522 0.036818698
0.33037341 -0.67886585 0.036876541
0.28775212 -0.67007613 0.036642067
0.3019183 -0.67003709 0.036616996
0.33066607 -0.67002648 0.036531359
0.3415038 -0.67006087 0.036692295
0.2663787 -0.66996008 0.036493734
0.32266194 -0.65272295 0.036695745
0.30906713 -0.62006938 0.036504202
0.28786662 -0.60425371 0.036819067
0.29832685 -0.60423464 0.036739767
0.040399533 -0.86656713 0.03746061
0.050112728 -0.86653459 0.037516408
0.028190032 -0.85268384 0.037673011
0.034624025 -0.8526904 0.037669998
0.045379847 -0.85266107 0.037635904
0.052006941 -0.85264534 0.037628021
0.056008279 -0.85264748 0.037639238
0.064431436 -0.85259408 0.037567828
0.079721175 -0.83952224 0.037320063
0.085876383 -0.83938408 0.03717884
0.032709055 -0.83870429 0.037881188
0.040493157 -0.83877867 0.037948463
0.050983861 -0.83879793 0.037995316
0.045356575 -0.82650006 0.037395626
0.042866442 -0.81426591 0.037069481
0.057025176 -0.81425136 0.037038453
0.079686567 -0.81425995 0.037008632
0.083939962 -0.81426913 0.037069611
0.10269497 -0.81425905 0.037100308
0.10929657 -0.81425476 0.037020229
0.1103761 -0.81423724 0.037031759
0.11995504 -0.81429487 0.037087705
0.098839544 -0.81357932 0.037764505
0.12822244 -0.81361777 0.037746318
0.085391372 -0.80144048 0.037707184
0.089275494 -0.80137908 0.037623744
0.10431396 -0.80144662 0.037748683
0.15083426 -0.80143815 0.037751738
0.12000489 -0.79012728 0.037270758
0.13195035 -0.78998619 0.037104622
0.11496983 -0.77816844 0.037742246
0.11616644 -0.77816439 0.03772049
0.13425472 -0.77882403 0.037002534
0.13541061 -0.77806914 0.037650798
0.13870856 -0.7787959 0.037004504
0.13074702 -0.76765025 0.037080329
0.17810923 -0.76761621 0.037037242
0.18388757 -0.76761633 0.037063863
0.13203338 -0.76688987 0.037693385
0.15475793 -0.76695913 0.03777346
0.1564867 -0.76698333 0.037768368
0.15968831 -0.75653839 0.037370969
0.16790539 -0.75648421 0.037313405
0.17802471 -0.75646484 0.037345335
0.15865718 -0.74606848 0.037011221
0.1810213 -0.7461307 0.037079889
0.18653806 -0.74609154 0.037024859
0.20995906 -0.74604839 0.037107822
0.21054722 -0.74606496 0.037106045
0.21343924 -0.74605429 0.037047382
0.21659997 -0.74605531 0.037018955
0.22121491 -0.74612486 0.037053596
0.23426963 -0.74606073 0.037100721
0.14710619 -0.74548 0.037892278
0.1638374 -0.7455166 0.037856519
0.17345124 -0.74550152 0.03788618
0.19215344 -0.74547148 0.037840273
0.22426458 -0.74553704 0.037882261
0.16384907 -0.73579425 0.037115004
0.17580397 -0.73523247 0.037945196
0.19213952 -0.73583955 0.037122924
0.19946714 -0.73517519 0.03788599
0.22933616 -0.73519057 0.037902582
0.23142087 -0.7358008 0.037174512
0.17599282 -0.72555459 0.03731643
0.18108036 -0.72558135 0.037334245
0.1865948 -0.72554284 0.037281059
0.19730011 -0.7255519 0.037373789
0.2134998 -0.72550547 0.037303895
0.22420354 -0.72557306 0.03733132
0.20797947 -0.7158981 0.037012249
0.21863183 -0.71541262 0.03779164
0.22349498 -0.71544892 0.037802253
0.23175478 -0.71570659 0.037503518
0.25591201 -0.71544099 0.037883911
0.26866493 -0.71537906 0.03783948
0.27194569 -0.71535051 0.037757065
0.27711916 -0.71541655 0.037829783
0.21357711 -0.70585942 0.03765592
0.21668057 -0.70585954 0.037623543
0.24182212 -0.70590276 0.037721172
0.25321445 -0.70592773 0.037689097
0.25951007 -0.70588177 0.037712336
0.23195013 -0.69700605 0.03704356
0.21863876 -0.69646835 0.037744738
0.22137807 -0.6964941 0.037740827
0.22350238 -0.69650441 0.037755668
0.23980249 -0.69652009 0.037914023
0.24527898 -0.69645274 0.037785064
0.25604594 -0.69645816 0.037750304
0.28795886 -0.69651449 0.037823055
0.29107699 -0.69650495 0.037842501
0.30400601 -0.69639325 0.037761234
0.25582802 -0.6876387 0.037268482
0.28272665 -0.68708479 0.03799111
0.28514993 -0.68760103 0.037215937
0.30537066 -0.68759185 0.037205812
0.31211063 -0.6875748 0.037197251
0.24812554 -0.67833841 0.037685327
0.25885221 -0.67829746 0.037695307
0.2716299 -0.67826194 0.037587203
0.28449595 -0.67839289 0.037745539
0.29342312 -0.67833298 0.037725795
0.30654991 -0.67826366 0.037685063
0.31983671 -0.67831856 0.03768513
0.3272076 -0.67831343 0.037736923
0.27192214 -0.66952538 0.037444245
0.27701744 -0.66958988 0.037507348
0.28521925 -0.66957694 0.037509639
0.30153579 -0.66951334 0.037509471
0.31217492 -0.6695509 0.037491929
0.31459802 -0.66956884 0.037492435
0.3227762 -0.66956884 0.037412003
0.33294764 -0.66962367 0.037525695
0.33346021 -0.6696161 0.037453122
0.28265277 -0.6608867 0.037428722
0.29587311 -0.66088867 0.037491698
0.30539963 -0.66089368 0.037493244
0.30653167 -0.66085601 0.037493367
0.31632295 -0.66093314 0.037496086
0.32785377 -0.66096658 0.037545923
0.271965 -0.65224129 0.037614863
0.30651274 -0.65224171 0.037590776
0.28779075 -0.63569224 0.03766216
0.31222603 -0.6356588 0.037640803
0.26135471 -0.61968291 0.037424915
0.26950598 -0.61171848 0.037483696
0.29591036 -0.61174244 0.037473407
0.29042366 -0.6039089 0.037755303
0.29114041 -0.60392725 0.037795614
0.039140981 -0.86514759 0.038886432
0.043378111 -0.86507589 0.038826361
0.046820395 -0.86515737 0.038881175
0.048624735 -0.86516029 0.038930479
0.019101506 -0.83880365 0.038029663
0.022795795 -0.83810967 0.038676355
0.029615309 -0.83882654 0.038012609
0.043340787 -0.83803093 0.038651291
0.067966804 -0.83808804 0.038715292
0.084228382 -0.83814245 0.038800031
0.036462013 -0.82582748 0.038108248
0.044114016 -0.8251183 0.038838625
0.056113902 -0.82580459 0.038119495
0.064639367 -0.82506955 0.03876761
0.066950917 -0.82579207 0.038097553
0.07129129 -0.8251096 0.038740333
0.077577218 -0.82513916 0.038807746
0.085442826 -0.82578909 0.03809756
0.08933042 -0.82581627 0.038142875
0.093723357 -0.82579315 0.038098186
0.097600117 -0.82512438 0.038823269
0.10566196 -0.82511467 0.038813286
0.09083388 -0.81290531 0.038503416
0.11769387 -0.81290263 0.038457155
0.13219599 -0.81281549 0.038380243
0.089410141 -0.80081141 0.038494304
0.10561163 -0.80079228 0.038447298
0.11786697 -0.80070043 0.038282812
0.13755903 -0.78947383 0.038059466
0.125733 -0.77754962 0.038487665
0.13641791 -0.77755493 0.038547553
0.14719133 -0.77749842 0.038509317
0.14836858 -0.7663148 0.038512904
0.15348168 -0.75528532 0.038887579
0.17885806 -0.75531644 0.038925052
0.15663299 -0.74492759 0.0386604
0.18885553 -0.74496257 0.038677536
0.20011295 -0.74489647 0.038672108
0.17884195 -0.73465323 0.038745675
0.18394814 -0.73461884 0.038641199
0.19169697 -0.73470348 0.038802661
0.20559731 -0.73458344 0.03870026
0.2078376 -0.73456144 0.038655605
0.21618658 -0.73461956 0.038685292
0.2374928 -0.72501683 0.038164604
0.19218586 -0.72495061 0.038115058
0.20215456 -0.72493881 0.038157038
0.21058634 -0.72438931 0.038994785
0.2183463 -0.72498757 0.038094323
0.23510312 -0.72444159 0.038991261
0.24482101 -0.72498572 0.038149275
0.24831448 -0.72444868 0.038972959
0.25056535 -0.72444314 0.03898862
0.25263053 -0.7243619 0.038771592
0.20560086 -0.71481806 0.038638189
0.20783824 -0.71479636 0.038594857
0.2135516 -0.71479297 0.038541999
0.21590982 -0.71487129 0.038688313
0.22079168 -0.71485931 0.038581986
0.23841915 -0.71486902 0.038671408
0.23994087 -0.71491992 0.0387895
0.24274294 -0.71486604 0.038632534
0.26134247 -0.71484512 0.03865508
0.26678056 -0.71477145 0.038499739
0.20519811 -0.70533329 0.038505897
0.21842781 -0.70537084 0.038464777
0.24242085 -0.7053991 0.038586259
0.2507734 -0.70541251 0.038588539
0.2525326 -0.70530409 0.038328145
0.25310439 -0.70543522 0.038620148
0.26135087 -0.69593024 0.038627006
0.2985231 -0.69589931 0.038555194
0.30171058 -0.69587988 0.038624991
0.31484333 -0.69594806 0.038617618
0.31988287 -0.69598305 0.038633496
0.24483865 -0.68710619 0.038049515
0.25329223 -0.68713504 0.038056489
0.25553551 -0.68716389 0.038131487
0.2595571 -0.6870892 0.038079876
0.26640719 -0.68706882 0.038075976
0.28275234 -0.68708175 0.038062621
0.29134181 -0.68717158 0.038065139
0.29340881 -0.68711078 0.038104177
0.32531095 -0.68713582 0.038050983
0.33453891 -0.68711418 0.038073052
0.23765427 -0.68663687 0.038918257
0.25085664 -0.6866495 0.038971163
0.27038488 -0.68657321 0.038862929
0.32012776 -0.68663359 0.038983475
0.32256103 -0.68663883 0.038918905
0.26119253 -0.67780066 0.038520489
0.27379414 -0.67779934 0.038459964
0.27471906 -0.6778127 0.038571134
0.28791201 -0.67783368 0.038564455
0.30415985 -0.67776114 0.03853878
0.30927315 -0.67780966 0.038566612
0.3379249 -0.67787433 0.038600251
0.29137936 -0.66917801 0.038374551
0.31297374 -0.6690942 0.03826211
0.32538185 -0.66914225 0.038360808
0.27742374 -0.66039872 0.038347144
0.28460306 -0.66053039 0.038426749
0.30115154 -0.6603902 0.038342062
0.31738645 -0.66044867 0.038364936
0.32547879 -0.66047895 0.038363047
0.2771849 -0.65186679 0.038559522
0.28793553 -0.65186191 0.03856872
0.28809321 -0.65193677 0.038635481
0.31741986 -0.65186876 0.038541719
0.33098707 -0.65183443 0.038455885
0.26682901 -0.64328009 0.038917229
0.28095478 -0.64377141 0.038008224
0.29343644 -0.64375907 0.038062856
0.30547762 -0.6437403 0.038018521
0.30935857 -0.64375275 0.038128834
0.31190485 -0.64332181 0.038921412
0.31733763 -0.64374959 0.038013794
0.26154682 -0.63527584 0.038594753
0.29866654 -0.6352883 0.0384796
0.28285781 -0.62725282 0.038346425
0.30416715 -0.62720853 0.038351767
0.3067123 -0.62722504 0.038342416
0.28455374 -0.6193909 0.03833887
0.27453405 -0.61137289 0.038404722
0.28097868 -0.61142075 0.038383942
0.2854377 -0.61139894 0.038406651
0.27752841 -0.60349023 0.038638853
0.28460407 -0.60361946 0.03870308
0.28799886 -0.60354769 0.03867228
0.031057712 -0.83743542 0.039426979
0.0392504 -0.83740824 0.039420247
0.061395928 -0.83740777 0.039498705
0.065667778 -0.83742559 0.039482944
0.078970656 -0.82449347 0.039593566
0.082359605 -0.8243174 0.039409313
0.10462209 -0.8244307 0.039578874
0.11227764 -0.82447231 0.039603665
0.10382289 -0.81220776 0.039208803
0.1139041 -0.81215459 0.039147351
0.094061241 -0.7994768 0.039938744
0.11082768 -0.78814203 0.039481968
0.12965205 -0.78819525 0.039470423
0.12418595 -0.77690929 0.039243922
0.14652517 -0.77685237 0.039211266
0.16309354 -0.76570827 0.039308015
0.16706958 -0.76574194 0.039345853
0.14995389 -0.75467193 0.039663121
0.18854865 -0.7545948 0.039545812
0.15506716 -0.74431568 0.039464574
0.17440943 -0.74436969 0.039583601
0.20236854 -0.74428368 0.039474919
0.21044721 -0.74428904 0.039466191
0.16831031 -0.73404384 0.039514814
0.17839237 -0.7340247 0.039545238
0.21305351 -0.73402107 0.03949932
0.22933774 -0.73407573 0.039513491
0.21371956 -0.73398453 0.039410401
0.2343059 -0.72444886 0.039038036
0.24227458 -0.72444385 0.039019786
0.25083682 -0.72447044 0.039038345
0.25316873 -0.72449303 0.039069433
0.19487643 -0.72386438 0.03971773
0.21051683 -0.72382587 0.039781827
0.22170867 -0.72389835 0.039758295
0.23473167 -0.72383434 0.039804582
0.24565734 -0.72385675 0.039804008
0.22962607 -0.71430749 0.039472751
0.24797681 -0.71433741 0.039452318
0.22462061 -0.7048645 0.039345007
0.2343936 -0.70486116 0.039425053
0.23518805 -0.70485401 0.039379518
0.26391518 -0.70482403 0.039364401
0.30576542 -0.70482492 0.039361775
0.30682123 -0.70478624 0.039356802
0.22963774 -0.69542253 0.039463941
0.24290027 -0.69543636 0.03944768
0.25836733 -0.69545561 0.039466739
0.25915197 -0.69541478 0.039467469
0.26897258 -0.69540447 0.039480783
0.27224818 -0.69537652 0.039401505
0.24265409 -0.68613595 0.039822482
0.2531867 -0.68667227 0.039003279
0.27472237 -0.68607479 0.039768964
0.28058735 -0.68608749 0.039809871
0.28131559 -0.68612289 0.039755248
0.30947223 -0.68660492 0.039024629
0.31201172 -0.68609619 0.039772749
0.32330373 -0.68666214 0.039022777
0.33084124 -0.68669701 0.039070945
0.26166412 -0.67734033 0.039459985
0.29876858 -0.6773243 0.039346598
0.30965906 -0.67735159 0.039453287
0.31499681 -0.67734599 0.039411463
0.32000849 -0.67738104 0.039426282
0.34145778 -0.67732996 0.039377563
0.26640326 -0.66862077 0.039270192
0.26976845 -0.66860002 0.039244313
0.28297642 -0.6686191 0.039243422
0.2855275 -0.66866279 0.039328411
0.30428591 -0.66857547 0.039250478
0.32334784 -0.66869891 0.039346673
0.32012403 -0.66000271 0.039246529
0.27191982 -0.65994626 0.039152011
0.27982336 -0.65993404 0.039200548
0.30941039 -0.65997857 0.039267417
0.26901385 -0.65139139 0.039457265
0.2771593 -0.65139097 0.039418016
0.28558004 -0.6514405 0.039526086
0.28826842 -0.65144569 0.039450433
0.29619893 -0.65140712 0.039389685
0.30189213 -0.65135229 0.039448898
0.30239582 -0.65140653 0.03942392
0.31252924 -0.65139008 0.03943149
0.31314296 -0.65140277 0.039333466
0.3149533 -0.6514079 0.039431438
0.32025304 -0.65144765 0.039505109
0.2640416 -0.64289415 0.039809838
0.27050808 -0.64287543 0.039756358
0.27203232 -0.64285582 0.039710842
0.29074585 -0.64293206 0.039828032
0.29543507 -0.64295965 0.039813995
0.29629382 -0.64288998 0.039801877
0.30142286 -0.64284569 0.039777189
0.31671259 -0.64293426 0.039805435
0.26903316 -0.63484633 0.039464593
0.27229172 -0.63482022 0.039395344
0.2739082 -0.63484442 0.039361864
0.28559792 -0.63488328 0.03949409
0.28826249 -0.63492721 0.039491974
0.30435985 -0.63480604 0.039438665
0.30961367 -0.63488078 0.039487038
0.25096861 -0.62692833 0.039296947
0.25342169 -0.6269331 0.03928699
0.2629548 -0.62684375 0.03927315
0.28054869 -0.6268664 0.039289001
0.2811498 -0.62690222 0.039234139
0.28299612 -0.62686461 0.039184228
0.29366651 -0.62688982 0.039288774
0.29531533 -0.62693578 0.039254267
0.29883903 -0.62683487 0.039152525
0.27488098 -0.61892134 0.039227024
0.27986082 -0.61887562 0.039157961
0.28808025 -0.61894399 0.039218754
0.29138696 -0.61898172 0.039268471
0.29873019 -0.61891907 0.039142679
0.28304586 -0.61102259 0.039323654
0.29148605 -0.61111122 0.039318278
0.29369274 -0.61104995 0.039357927
0.039714668 -0.84970582 0.040265594
0.05781094 -0.84977794 0.040396187
0.060717452 -0.84984589 0.040495958
0.064619854 -0.84981483 0.040377337
0.027490359 -0.83678514 0.040227905
0.059645783 -0.83604312 0.040897261
0.092581585 -0.83670324 0.040121749
0.096834928 -0.83667785 0.040138576
0.052488092 -0.82375658 0.040269423
0.11395635 -0.82380217 0.04037825
0.11236849 -0.79951942 0.040000137
0.1232039 -0.79884678 0.04065356
0.15627785 -0.76513499 0.04014552
0.17146905 -0.76451087 0.040951893
0.17124528 -0.75411713 0.04047554
0.21390051 -0.75401777 0.040353276
0.17869934 -0.74376947 0.040300045
0.18447843 -0.74376917 0.040325191
0.18668763 -0.7437591 0.040254902
0.1950915 -0.74315202 0.040995046
0.19780101 -0.74374998 0.04030646
0.22392073 -0.73352247 0.040305525
0.22804059 -0.73346913 0.04025615
0.23762359 -0.71380883 0.040354613
0.22689785 -0.70433384 0.040206093
0.29075432 -0.70433223 0.040219851
0.24814044 -0.69493705 0.040285718
0.26705554 -0.6948272 0.040163327
0.30259335 -0.69490391 0.040293157
0.31769404 -0.69492823 0.040292881
0.29563144 -0.68565619 0.04063027
0.31690064 -0.68563187 0.040621705
0.26913363 -0.67683256 0.040291127
0.29153022 -0.67690283 0.040340371
0.30694655 -0.67680585 0.040190417
0.31770205 -0.67687136 0.040259711
0.32579926 -0.67688638 0.040263809
0.32840857 -0.6769008 0.040329311
0.34909075 -0.67683715 0.040240448
0.26701352 -0.6681217 0.040112317
0.27726376 -0.66814417 0.040087193
0.28066304 -0.6681549 0.040152844
0.29378381 -0.66817826 0.040152848
0.29894483 -0.66812348 0.040008675
0.3097004 -0.66817218 0.040219761
0.31208971 -0.66816366 0.040116955
0.32278749 -0.66820627 0.04011438
0.33488005 -0.66818148 0.040121447
0.27501029 -0.65952724 0.040149268
0.29078525 -0.65956879 0.040149674
0.29386586 -0.65956271 0.040164392
0.29881948 -0.65949678 0.040068205
0.29912454 -0.65909725 0.040936749
0.30445486 -0.6594761 0.040117595
0.30976471 -0.65955102 0.040168714
0.3201203 -0.65958065 0.040141821
0.32761505 -0.65954375 0.040174924
0.29170686 -0.65104789 0.040327694
0.32352531 -0.65103811 0.040428326
0.27484402 -0.65095133 0.040329505
0.28573471 -0.65097761 0.040333368
0.29900131 -0.65093225 0.040226199
0.26322633 -0.64244503 0.040724184
0.26442513 -0.6424377 0.040638924
0.28323516 -0.64246601 0.040633649
0.29397938 -0.64250326 0.040734712
0.29893515 -0.64243758 0.040640384
0.30711213 -0.64243543 0.040698376
0.26699749 -0.63437909 0.040215798
0.27506891 -0.63445002 0.040369086
0.27740782 -0.63445783 0.040338658
0.29169357 -0.63453472 0.040349163
0.29637384 -0.63445532 0.040298119
0.3023023 -0.63442785 0.040343717
0.30700225 -0.63441396 0.040271152
0.31328374 -0.63445139 0.040243197
0.25595236 -0.62655175 0.04021883
0.2598637 -0.62647837 0.040173642
0.27055535 -0.62646037 0.040104635
0.27210826 -0.62644136 0.040061895
0.27483159 -0.62646365 0.040160056
0.2963686 -0.6264751 0.040149413
0.26151481 -0.61853623 0.040092137
0.26916918 -0.61853653 0.040134601
0.27242321 -0.61851096 0.04006803
0.27400878 -0.61853498 0.040034026
0.27736509 -0.61855459 0.040109277
0.28838295 -0.61861765 0.040161125
0.29634818 -0.61855221 0.040069815
0.30247945 -0.61855215 0.040100008
0.280738 -0.61066812 0.040277652
0.055155713 -0.86301506 0.041013706
0.054198887 -0.86223185 0.04158368
0.026428763 -0.84915417 0.041125178
0.033912122 -0.84913826 0.041081153
0.075998962 -0.84901428 0.041004572
0.074172392 -0.83537775 0.041578732
0.17480323 -0.76393479 0.041777134
0.19546747 -0.76391637 0.041654389
0.18550226 -0.74310678 0.041038841
0.21920028 -0.73291236 0.041102003
0.23789851 -0.73236883 0.04199386
0.23901603 -0.73234051 0.04196243
0.24935727 -0.73229259 0.041917782
0.25385949 -0.72277784 0.041420743
0.27021152 -0.71264231 0.041953392
0.31354055 -0.68508786 0.041360907
0.28013739 -0.67631072 0.041083224
0.28857237 -0.67645395 0.04121941
0.27510089 -0.66720355 0.041852739
0.28166169 -0.66725141 0.041837141
0.29582724 -0.66728473 0.04185871
0.29167214 -0.65913308 0.041071702
0.31529137 -0.65909153 0.041005488
0.26676592 -0.65052187 0.041240335
0.28087205 -0.65052533 0.041252416
0.30464914 -0.65047675 0.041220564
0.26175469 -0.64203399 0.041563857
0.27800643 -0.64200944 0.041567381
0.28515697 -0.64214003 0.041642148
0.29178822 -0.6421051 0.041656431
0.3098368 -0.64204293 0.041608877
0.2802543 -0.64199871 0.04154269
0.25951165 -0.63404441 0.041256055
0.27014965 -0.6340192 0.041251604
0.26450419 -0.62605488 0.041003291
0.26676267 -0.62608171 0.041091383
0.26722509 -0.62605232 0.04106522
0.27792844 -0.62604952 0.041038591
0.29098436 -0.62612653 0.041082751
0.29405615 -0.62612027 0.041096356
0.30166265 -0.6260404 0.041033644
0.30599904 -0.62608975 0.041057888
0.26443639 -0.62569809 0.041971698
0.28589496 -0.61821139 0.041113965
0.28334987 -0.61030835 0.041094482
0.16224332 -0.77438354 0.042353388
0.16617222 -0.77435184 0.042268962
0.17158648 -0.77440703 0.042343222
0.18247257 -0.77433866 0.042305816
0.21347907 -0.75285059 0.042016294
0.23185523 -0.73174906 0.042759124
0.26032987 -0.72217286 0.042260449
0.27448994 -0.72215837 0.0421459
0.33951542 -0.6753847 0.042848583
0.27028543 -0.65006274 0.042099647
0.28349578 -0.65008217 0.042099282
0.25674647 -0.6336869 0.042202644
0.25889763 -0.63367665 0.042150706
0.29579297 -0.61002082 0.04208098
0.030323949 -0.8461355 0.043765135
0.21926546 -0.74139363 0.043395616
0.24359393 -0.73118949 0.043537341
0.30197087 -0.68404299 0.043144174
0.03711642 -0.85930437 0.044272304
0.2093824 -0.74016219 0.045070525
0.2412314 -0.73005831 0.045131039
