# .PCD v0.7 - Point Cloud Data file format
VERSION 0.7
FIELDS x y z
SIZE 4 4 4
TYPE F F F
COUNT 1 1 1
WIDTH 1378
HEIGHT 1
VIEWPOINT 0 0 0 1 0 0 0
POINTS 1378
DATA ascii
0.20907944 -0.60002929 0.032218449
0.14706042 -0.59942394 0.032967731
0.16168106 -0.59942323 0.032961521
0.19441135 -0.59942079 0.032970876
0.19849718 -0.59940052 0.032945126
0.20274396 -0.59941375 0.032940574
0.20320846 -0.59940356 0.032912232
0.14698091 -0.59467483 0.032012526
0.17108366 -0.59405357 0.032743525
0.17545243 -0.59467095 0.032005548
0.18462716 -0.59405482 0.032755326
0.19046719 -0.594042 0.032747187
0.15912983 -0.58870971 0.032663152
0.16340835 -0.58870083 0.032650962
0.16729067 -0.58871704 0.032677088
0.17475575 -0.58870369 0.032635193
0.17506918 -0.58870572 0.032641139
0.13462229 -0.58342355 0.032755364
0.13780789 -0.58337933 0.032693576
0.15211184 -0.58341438 0.032755513
0.15636936 -0.58342129 0.032751188
0.15926124 -0.58341897 0.032761719
0.13473439 -0.57871109 0.032136898
0.13641044 -0.5781396 0.032933041
0.14010721 -0.5787158 0.032158408
0.14322333 -0.57812518 0.032943182
0.14430502 -0.57814103 0.032962073
0.14509986 -0.57845169 0.032607798
0.14662936 -0.57816362 0.032977849
0.14927351 -0.5781433 0.032957271
0.15188317 -0.57874525 0.03220525
0.15406395 -0.57874352 0.032204617
0.12518558 -0.57348037 0.032509819
0.12939768 -0.57346886 0.03250356
0.13302235 -0.57350123 0.032534782
0.13652323 -0.57348686 0.032519776
0.11248014 -0.56890416 0.032274786
0.11425449 -0.56889611 0.032263108
0.11817676 -0.56887186 0.032254547
0.11992305 -0.56887549 0.03224517
0.12426377 -0.5689038 0.032271534
0.12712425 -0.56887758 0.032241099
0.10192265 -0.56432223 0.032114986
0.11185872 -0.56430787 0.032097515
0.11254674 -0.56431007 0.032096505
0.11397617 -0.56431311 0.032108199
0.11582945 -0.56431919 0.032114923
0.096273929 -0.56374437 0.032883964
0.10272264 -0.56377125 0.032926753
0.10558841 -0.56376082 0.032905467
0.10806572 -0.56372273 0.032859888
0.11062308 -0.5637328 0.032876294
0.094025463 -0.55977869 0.03208394
0.096372224 -0.55921388 0.032869175
0.09931545 -0.55973506 0.032035634
0.10066768 -0.55946779 0.032448798
0.10215735 -0.55972886 0.032014873
0.10571632 -0.55976665 0.032087021
0.20009397 -0.63640237 0.03375357
0.11605391 -0.63012183 0.033142373
0.19972873 -0.63013101 0.033129402
0.20290305 -0.63013661 0.033156976
0.20322368 -0.63014305 0.033156462
0.20074075 -0.6294449 0.033792268
0.20431221 -0.62945658 0.03383242
0.1875385 -0.61704004 0.033186883
0.1261372 -0.61640173 0.033896822
0.18627609 -0.61640894 0.033922758
0.21854195 -0.61639112 0.033888482
0.13140064 -0.61090136 0.033158157
0.18574147 -0.61027008 0.033886101
0.18933243 -0.61028814 0.033910036
0.21036243 -0.61029017 0.033910215
0.2131886 -0.61028516 0.03391036
0.21660757 -0.61091632 0.03317162
0.22177736 -0.61049414 0.033666793
0.15321209 -0.59879524 0.033686221
0.17004047 -0.59877884 0.033668127
0.19073139 -0.59879512 0.033695519
0.19574466 -0.59881651 0.033718742
0.19610101 -0.59881473 0.033726834
0.19927315 -0.59878689 0.033687159
0.15820102 -0.59342206 0.033490811
0.16210511 -0.59342605 0.033463046
0.16669224 -0.59341186 0.033448305
0.17072368 -0.59344274 0.033502862
0.17104091 -0.59344196 0.033495679
0.17522734 -0.59342712 0.033467457
0.17635134 -0.59344584 0.033493489
0.18270303 -0.59343773 0.033484451
0.18437397 -0.59343499 0.033492155
0.14408456 -0.58808982 0.033395585
0.15513484 -0.58810061 0.03341784
0.15865591 -0.58810258 0.033404291
0.1632461 -0.58809865 0.0334065
0.16724959 -0.5881201 0.033451449
0.17077689 -0.58808196 0.033382129
0.17448553 -0.58811057 0.03341727
0.1330744 -0.58278769 0.033441368
0.13629429 -0.58282369 0.033500999
0.13770586 -0.58279449 0.03346663
0.14800054 -0.58279586 0.033463098
0.15055093 -0.58282709 0.033509627
0.1562566 -0.58281904 0.03350994
0.158582 -0.58282059 0.033512063
0.15944529 -0.58282375 0.033526242
0.12317047 -0.57752395 0.033683993
0.12736417 -0.57752353 0.033675179
0.13268003 -0.57752091 0.033669844
0.13492467 -0.57754117 0.033700664
0.13989058 -0.57755798 0.033721078
0.14134772 -0.5775398 0.033691868
0.14281864 -0.57752895 0.033692513
0.14316805 -0.57753134 0.033703033
0.14489762 -0.57757097 0.033747729
0.11835463 -0.57290506 0.033297468
0.12403042 -0.57292831 0.033320628
0.12823689 -0.57290554 0.033293009
0.12932913 -0.57289225 0.033287361
0.13076794 -0.57289982 0.033294968
0.13172692 -0.57291853 0.033316918
0.13434108 -0.57290423 0.033302076
0.10378717 -0.56833088 0.033054151
0.10620473 -0.56828833 0.033007856
0.10881123 -0.56832612 0.03304892
0.11094784 -0.56833518 0.033055712
0.11523313 -0.56832826 0.033056471
0.11663952 -0.56832427 0.03305275
0.11772552 -0.56832254 0.033052746
0.11981542 -0.56831998 0.033053078
0.12130398 -0.56830436 0.033023436
0.12300963 -0.5683412 0.033074033
0.10257771 -0.56777918 0.033858273
0.10611895 -0.56773037 0.033809748
0.11078486 -0.56778115 0.033858694
0.11405168 -0.56778705 0.033867922
0.094730705 -0.563214 0.033704501
0.096132867 -0.56320083 0.033693843
0.097554639 -0.5631907 0.033684954
0.10404918 -0.56322378 0.033741813
0.1069087 -0.5632025 0.033696901
0.093546554 -0.55871034 0.033712842
0.094090037 -0.55871499 0.033716261
0.095847838 -0.55869192 0.03369217
0.19456124 -0.62257379 0.034107909
0.12756346 -0.61572236 0.034576058
0.19538498 -0.61572307 0.034561053
0.21109457 -0.61575735 0.034613475
0.21866113 -0.61574852 0.034605742
0.18635845 -0.60961944 0.03457547
0.19315442 -0.60961223 0.034582686
0.20632324 -0.60963792 0.034579672
0.20988865 -0.60963154 0.034602866
0.22212297 -0.6096465 0.034642085
0.14534205 -0.6041922 0.034066249
0.14963028 -0.60419095 0.034049511
0.17951636 -0.60418141 0.034050431
0.19164513 -0.60419118 0.034068458
0.19513971 -0.60417682 0.03404646
0.1987526 -0.60422093 0.03409693
0.20408946 -0.60420877 0.034084629
0.21050638 -0.60420775 0.034088992
0.21154079 -0.60421509 0.034100883
0.21443973 -0.60419428 0.034066815
0.14708294 -0.60356081 0.034784455
0.15492989 -0.60354644 0.03476366
0.19472888 -0.603544 0.034763157
0.20111765 -0.60352945 0.034726731
0.21079396 -0.60356486 0.034810755
0.15610543 -0.59816164 0.034417115
0.16063654 -0.59818995 0.034458235
0.16522083 -0.59814966 0.034386061
0.16931249 -0.59816229 0.034390781
0.17398851 -0.59818381 0.034443334
0.19259177 -0.59816897 0.034415558
0.19546865 -0.59818047 0.034452267
0.15339048 -0.59220564 0.034964319
0.15407361 -0.59220564 0.034977514
0.16197361 -0.59280294 0.034185253
0.16583209 -0.59219897 0.034952
0.16618104 -0.5924989 0.034564525
0.17026004 -0.5928278 0.034240257
0.17433427 -0.59217292 0.0349208
0.17514378 -0.59280288 0.034187425
0.17848325 -0.59242111 0.034740526
0.17928863 -0.59281337 0.034219764
0.18227154 -0.59281647 0.034212068
0.1439511 -0.58748698 0.034153245
0.14649938 -0.58748811 0.034156732
0.1586003 -0.58749849 0.034156822
0.16285081 -0.58748877 0.034170039
0.16552353 -0.58750069 0.034164824
0.16640711 -0.58752024 0.034205936
0.167144 -0.58752537 0.034207121
0.13958901 -0.58689189 0.0349214
0.14176728 -0.58690405 0.034924813
0.14388856 -0.58688521 0.034911685
0.14637782 -0.58687305 0.034884654
0.14848293 -0.58689898 0.034914721
0.15033673 -0.58690631 0.0349405
0.15174685 -0.58689594 0.034921858
0.15280437 -0.58687073 0.034887057
0.16078079 -0.58689839 0.034929167
0.16233869 -0.58688861 0.03491614
0.12406845 -0.5821687 0.034207821
0.12515406 -0.5821715 0.034208324
0.12767144 -0.58222628 0.034258105
0.12908199 -0.58218145 0.034223158
0.14339219 -0.58221817 0.034284372
0.15156868 -0.58222497 0.034263596
0.15351456 -0.58223504 0.034287512
0.15474401 -0.58220434 0.034248933
0.12653767 -0.58159578 0.034988999
0.13790451 -0.58160257 0.034987576
0.13964349 -0.58158743 0.034968421
0.14819194 -0.58160645 0.03499062
0.12875628 -0.57694685 0.034470081
0.13260901 -0.57693601 0.034450501
0.13483413 -0.57695198 0.034476358
0.13980472 -0.57698166 0.034504142
0.14120996 -0.57695878 0.034469791
0.11071888 -0.57238048 0.034139272
0.11713278 -0.57234734 0.034108285
0.12145725 -0.57237017 0.034142632
0.12285783 -0.57235545 0.03410909
0.12643 -0.57233018 0.034075983
0.12742099 -0.57233077 0.034072462
0.10918973 -0.5717932 0.034901679
0.11237973 -0.57179564 0.034901258
0.11484224 -0.57178432 0.034895603
0.1197748 -0.57177836 0.034872297
0.12132148 -0.57180828 0.034929056
0.12271475 -0.57179475 0.034900729
0.12382769 -0.57179004 0.034896035
0.097409993 -0.5671913 0.034601659
0.099263906 -0.56721091 0.034631398
0.10094491 -0.56722897 0.03467318
0.10237437 -0.56722957 0.034665857
0.10385576 -0.5672099 0.034644879
0.1074081 -0.56717861 0.034599103
0.1124423 -0.5672192 0.034652788
0.115357 -0.56721497 0.034643613
0.18084711 -0.56720954 0.034636214
0.09285631 -0.5626893 0.034532428
0.09465044 -0.56266075 0.034512762
0.099247217 -0.56263536 0.034490187
0.14282022 -0.68186706 0.035615023
0.18881321 -0.6212489 0.035480857
0.1930701 -0.62121147 0.035447687
0.19557092 -0.62123561 0.035460249
0.19619858 -0.62122071 0.035433769
0.21473031 -0.61506659 0.035265584
0.21703058 -0.61512959 0.035337653
0.12758845 -0.61442506 0.035968609
0.18820484 -0.61441338 0.03595439
0.20855662 -0.61441952 0.03596843
0.21137069 -0.61443496 0.035997193
0.21943358 -0.61441833 0.035963293
0.22085637 -0.60904002 0.035368845
0.22103645 -0.60903895 0.035366319
0.18346833 -0.60897791 0.035278458
0.18600599 -0.60896552 0.035288773
0.18953191 -0.60899055 0.035332367
0.19341007 -0.60830218 0.035975996
0.19694231 -0.60832959 0.035998162
0.19703865 -0.60896492 0.035271555
0.1995353 -0.60896248 0.035291005
0.20620704 -0.6086598 0.035640307
0.20983009 -0.60897785 0.035294335
0.21303445 -0.60899043 0.035308339
0.218408 -0.60897881 0.035305418
0.2225045 -0.60898298 0.03530645
0.14628866 -0.60290647 0.035496056
0.14987998 -0.60291719 0.035482902
0.15271579 -0.60290778 0.035506822
0.15558399 -0.60289878 0.035468932
0.16046791 -0.60290551 0.035470128
0.1633472 -0.60290366 0.035471313
0.16450684 -0.60293061 0.03551643
0.16974288 -0.60291326 0.035483718
0.17281707 -0.60293865 0.035526965
0.1733675 -0.60292661 0.035508279
0.19124165 -0.60291779 0.035481431
0.19465823 -0.60291439 0.035485309
0.19790505 -0.60293794 0.035524979
0.20676099 -0.60291284 0.035497546
0.18917729 -0.59755141 0.03514326
0.19163722 -0.5975346 0.035147615
0.19207175 -0.59752715 0.035140082
0.156333 -0.59691113 0.035885517
0.16047846 -0.59692591 0.035897452
0.16487092 -0.59689933 0.035858136
0.1738158 -0.59692234 0.035884514
0.18801494 -0.59691352 0.035874937
0.18908586 -0.59691542 0.035890944
0.14656317 -0.59158838 0.035704043
0.15774806 -0.59158981 0.035706475
0.16187768 -0.59156382 0.035672575
0.16577819 -0.59158456 0.035694916
0.16945656 -0.59156871 0.035673156
0.17006378 -0.59158075 0.035696916
0.17367965 -0.59157032 0.035668351
0.12698464 -0.58623892 0.03560432
0.13777451 -0.58624572 0.035617471
0.13950768 -0.58627439 0.035660937
0.14163283 -0.586294 0.035676911
0.14627612 -0.58626294 0.035626061
0.1576868 -0.58629495 0.035678525
0.15803164 -0.58628947 0.03567696
0.12917578 -0.58100951 0.035758745
0.13634874 -0.58104861 0.035806328
0.14552265 -0.58134019 0.035419509
0.14681041 -0.58162028 0.035024192
0.14753233 -0.58161473 0.035011135
0.12427 -0.58098203 0.035743721
0.13096595 -0.58097839 0.035719384
0.13956618 -0.58099282 0.035726149
0.12225533 -0.57638413 0.035259001
0.12547228 -0.57637322 0.035245888
0.13430308 -0.57637095 0.035245266
0.21411113 -0.57643718 0.035328139
0.10727217 -0.57121789 0.035681147
0.11226237 -0.5712359 0.035694748
0.11728021 -0.5712015 0.035677321
0.10513334 -0.56663942 0.035420414
0.1073036 -0.56661612 0.035395667
0.11057029 -0.56665111 0.035438288
0.090643004 -0.56212831 0.035334475
0.094100341 -0.56212336 0.035319939
0.09735845 -0.56209666 0.035299879
0.10085633 -0.56209522 0.035275824
0.10841303 -0.54478252 0.035173796
0.14389527 -0.68038601 0.036762141
0.20206262 -0.6336391 0.036356814
0.19300129 -0.6205436 0.036114477
0.19477138 -0.62057006 0.036138136
0.12319917 -0.61989397 0.03679822
0.19249521 -0.61986858 0.03677338
0.21895139 -0.6144498 0.036011811
0.18812072 -0.61375898 0.036658689
0.20849395 -0.61377138 0.036661085
0.21131445 -0.61378175 0.036684744
0.1966074 -0.60834092 0.036019225
0.20270099 -0.60833865 0.036019597
0.20977135 -0.60833639 0.036011059
0.21529016 -0.60834801 0.036031436
0.21895455 -0.60833418 0.036007278
0.21925126 -0.60833627 0.036009818
0.22150686 -0.60839009 0.036065482
0.19335957 -0.60765791 0.036681421
0.194364 -0.6076836 0.036708873
0.19966486 -0.60766792 0.036680605
0.20241433 -0.60769331 0.036728747
0.20558971 -0.60767484 0.036697313
0.20613909 -0.6076895 0.03670425
0.20966512 -0.60769141 0.036718667
0.21327604 -0.60769743 0.036710277
0.2163184 -0.60768861 0.036736146
0.1561874 -0.60226357 0.03618174
0.15870811 -0.60230637 0.036249615
0.15907666 -0.60229635 0.036245205
0.16326185 -0.6022653 0.036183719
0.16894069 -0.60225511 0.036174729
0.17969796 -0.60228795 0.036227513
0.19456026 -0.60228056 0.036214299
0.19762817 -0.60229117 0.036229976
0.1985596 -0.60230911 0.036258686
0.2039016 -0.60227609 0.036233805
0.20423144 -0.60228723 0.036231674
0.15184623 -0.6016494 0.036933273
0.16467507 -0.60164994 0.036937952
0.16777213 -0.6016326 0.036892086
0.16870852 -0.60161591 0.036888987
0.17216472 -0.60165489 0.036948729
0.19098209 -0.60164773 0.036932249
0.19450271 -0.60165751 0.036945771
0.18157196 -0.59628952 0.036611084
0.14465213 -0.5909735 0.036444664
0.14825718 -0.59097922 0.036459725
0.14965953 -0.59094858 0.036417156
0.15710463 -0.59096748 0.036427144
0.13079198 -0.58565587 0.036357086
0.14156514 -0.58568537 0.036432754
0.14375998 -0.58568871 0.036426019
0.14411978 -0.58567166 0.03641839
0.15196426 -0.58569324 0.036440887
0.15295734 -0.58565855 0.036395133
0.122339 -0.58040369 0.036501359
0.12341984 -0.58040434 0.036506232
0.12806693 -0.58044618 0.036556959
0.13627234 -0.58045912 0.036584951
0.11171839 -0.57521623 0.036818292
0.11394741 -0.57579255 0.036042236
0.11780057 -0.57521254 0.036800109
0.11967093 -0.57582396 0.036068004
0.12107858 -0.57581222 0.036048599
0.12347471 -0.57520968 0.03679746
0.12464491 -0.57578075 0.036010645
0.12714668 -0.57577229 0.036016751
0.12879024 -0.5751912 0.036780834
0.13130738 -0.57524562 0.036829963
0.13277633 -0.57577562 0.036000907
0.11712283 -0.57063013 0.036458828
0.098932974 -0.56608647 0.036208626
0.10075825 -0.5661031 0.036250632
0.089705944 -0.56128478 0.036517948
0.13900436 -0.67962211 0.03731915
0.13968149 -0.67888629 0.03789318
0.1401678 -0.67890561 0.037908755
0.12575941 -0.66243058 0.0374224
0.2029846 -0.63225478 0.037639432
0.12310684 -0.61922115 0.037477832
0.21637432 -0.61924785 0.037527915
0.19776136 -0.61309755 0.037369918
0.20053414 -0.61310059 0.037343878
0.2046468 -0.61311942 0.03736075
0.21467836 -0.61310923 0.037341129
0.18400046 -0.60704011 0.037398092
0.19959977 -0.60701287 0.03738299
0.20931903 -0.60704505 0.037440427
0.21286851 -0.60703212 0.037406616
0.21323897 -0.60704076 0.03740808
0.15281892 -0.60100752 0.037651401
0.16462284 -0.60100353 0.037641849
0.16772749 -0.6010018 0.03761876
0.1876754 -0.60101163 0.037629589
0.15623666 -0.59565705 0.037343647
0.16473864 -0.59564292 0.037303973
0.16875467 -0.59567899 0.037357386
0.17291349 -0.59563869 0.037299331
0.1818262 -0.59566838 0.037334278
0.14675374 -0.59035289 0.037171938
0.15096986 -0.59033936 0.037151489
0.15312473 -0.59034073 0.037179802
0.15640844 -0.59034079 0.037175428
0.16059035 -0.59034789 0.037174363
0.16129561 -0.59035027 0.037183601
0.16876696 -0.59032559 0.037140928
0.16945428 -0.59033668 0.037143305
0.14025472 -0.58974028 0.037922043
0.15301858 -0.58973664 0.037922408
0.16446364 -0.58974916 0.037949618
0.16518754 -0.5897575 0.037954614
0.12928674 -0.585042 0.037125774
0.13293256 -0.58508348 0.03717966
0.14858121 -0.58508945 0.03718847
0.15038045 -0.5850817 0.037170921
0.1542466 -0.58507603 0.037158486
0.12918292 -0.58442938 0.037868019
0.13461392 -0.58448553 0.037928063
0.13953878 -0.58445126 0.037903242
0.14352241 -0.58448607 0.037934471
0.1459993 -0.58445156 0.037888814
0.12934935 -0.57982475 0.037286386
0.13469565 -0.57982063 0.037259217
0.11161073 -0.57464093 0.037595335
0.11409849 -0.57462984 0.037581101
0.12232867 -0.57464445 0.037594449
0.093728557 -0.57005745 0.037227955
0.10706471 -0.57005489 0.037234668
0.090623513 -0.56556588 0.037058387
0.1007991 -0.56554919 0.037046142
0.088219494 -0.56497872 0.037831198
0.094261579 -0.56496221 0.037808653
0.19351147 -0.56049424 0.037766181
0.13040699 -0.61242223 0.038000826
0.18518491 -0.61244053 0.038025357
0.20051715 -0.61245608 0.038059872
0.198002 -0.61177552 0.038740948
0.20861098 -0.61180168 0.038741626
0.22062808 -0.61178124 0.038723987
0.15792572 -0.60637546 0.038084649
0.16790655 -0.60638893 0.038116444
0.17755415 -0.60638672 0.038113654
0.18966128 -0.6063751 0.038093157
0.19316852 -0.60637599 0.038102269
0.19681749 -0.60640889 0.038152289
0.19954117 -0.60636145 0.038070258
0.20562264 -0.60635757 0.038083341
0.14615047 -0.60574037 0.038831189
0.16299781 -0.60575217 0.038835604
0.18425123 -0.60574359 0.038806152
0.20560221 -0.60570979 0.038791582
0.16306992 -0.60034281 0.038322076
0.16732328 -0.6003741 0.038354635
0.15610425 -0.59503627 0.038070146
0.16004162 -0.59501761 0.038032927
0.16824463 -0.59504122 0.038072988
0.17279577 -0.59500968 0.038025957
0.15142557 -0.59440684 0.038794175
0.17238773 -0.59438092 0.038751673
0.15294702 -0.58912319 0.038661443
0.12320067 -0.57920992 0.038022585
0.124619 -0.57919836 0.038017794
0.22251576 -0.57926422 0.038077787
0.1160395 -0.57864225 0.038824253
0.10103462 -0.57404256 0.038337339
0.089024574 -0.56952631 0.03804262
0.095421366 -0.56948423 0.038005304
0.097266823 -0.56950355 0.038015801
0.08680103 -0.56895673 0.03883845
0.10066861 -0.56894708 0.038844742
0.17703454 -0.56441021 0.038612861
0.15829077 -0.68536353 0.039984971
0.19427237 -0.62335557 0.039805945
0.21282373 -0.6172111 0.039503064
0.19701003 -0.60512006 0.039565206
0.17180111 -0.59910136 0.039800201
0.1761636 -0.59971118 0.039034106
0.14916793 -0.59377819 0.039502539
0.10383107 -0.57344073 0.039093643
0.10890728 -0.57349151 0.039153539
0.1353505 -0.67519438 0.040753633
0.18890229 -0.62265897 0.040430255
0.18604794 -0.60981667 0.04080984
0.1456949 -0.60443735 0.040223934
0.16807535 -0.60442585 0.040189084
0.17238931 -0.60442662 0.040209282
0.15060709 -0.6037975 0.040934358
0.16802952 -0.60376823 0.040889457
0.22469413 -0.58267432 0.040190812
0.11478104 -0.57743704 0.040324215
0.23453471 -0.57747501 0.040363528
0.18431439 -0.56781542 0.040434793
0.14692852 -0.68310094 0.041637231
0.17300177 -0.56219023 0.041820403
0.11387844 -0.53699946 0.041582562
0.14797834 -0.68160808 0.042766143
0.20139043 -0.62745953 0.042209715
0.15773764 -0.60781908 0.042849217
0.15193605 -0.60249144 0.042341914
0.14049855 -0.68085086 0.043297485
0.1444194 -0.68085504 0.04329906
0.13223249 -0.67225975 0.043071985
0.16842525 -0.60719317 0.043592766
0.14158842 -0.67935491 0.044419177
0.14231849 -0.67860544 0.044979449
0.16024302 -0.60055268 0.044437688
0.16599248 -0.6005637 0.044461291
0.23780845 -0.57905918 0.044733677
0.13375565 -0.67786193 0.045519575
0.12896535 -0.66853845 0.045873657
0.18579738 -0.61120498 0.045603056
0.18692943 -0.61120915 0.045643128
0.18726906 -0.61122251 0.045661043
0.19151975 -0.61121154 0.04562993
0.16095833 -0.68651354 0.046016946
0.13465515 -0.67711973 0.046088003
0.13559006 -0.67637467 0.046638988
0.12980056 -0.66779721 0.046445079
0.13032645 -0.66778594 0.046448886
0.1913209 -0.61657304 0.046447802
0.18690349 -0.61053598 0.046306226
0.17254631 -0.59862542 0.046578322
0.16237022 -0.68500292 0.047089241
0.1497691 -0.68497956 0.047079597
0.15352629 -0.68498749 0.047071412
0.1571171 -0.68423402 0.04765689
0.13630249 -0.67563128 0.047196466
0.13740386 -0.67563152 0.047209058
0.13861537 -0.67560601 0.047170546
0.13913149 -0.67559409 0.04715161
0.13071957 -0.67489016 0.047775581
0.24189295 -0.57212877 0.047235206
0.15100187 -0.68348706 0.048185494
0.15456617 -0.68347198 0.048146933
0.16756713 -0.68349361 0.048189484
0.14327921 -0.68271381 0.048707671
0.14729708 -0.68273658 0.048749469
0.15178525 -0.68273938 0.048747629
0.15818138 -0.68273199 0.048739012
0.16853002 -0.68274599 0.048743702
0.13175416 -0.67340124 0.048893668
0.13207339 -0.67340404 0.048897773
0.12665655 -0.66482842 0.048721872
0.14396222 -0.68196458 0.049256735
0.14481032 -0.68121505 0.049796388
0.14855167 -0.68160129 0.04955595
0.15250677 -0.68198967 0.049291473
0.1327721 -0.67265433 0.049455684
0.13348097 -0.67262959 0.049417
0.12789601 -0.66409451 0.04930532
0.1885855 -0.61316544 0.049760796
0.17216326 -0.60128266 0.04982657
0.14146365 -0.68046075 0.050342679
0.18680988 -0.61252081 0.050476287
0.13479821 -0.67819268 0.051978797
0.13617837 -0.67819482 0.051971748
0.12883134 -0.6703577 0.051052146
0.12970778 -0.66961193 0.051610403
0.13027641 -0.66961616 0.051612005
0.13792412 -0.6774081 0.052460521
0.13852578 -0.67741096 0.052478872
0.13938546 -0.67743033 0.052502427
0.14011525 -0.67743754 0.052503452
0.13097526 -0.66887766 0.052172754
0.13169396 -0.66813999 0.052750271
0.12457771 -0.66043162 0.052221976
0.12279119 -0.65198445 0.052454259
0.18689811 -0.61643618 0.052636303
0.20000979 -0.61646706 0.052652594
0.23308782 -0.56360197 0.052332718
0.15872861 -0.68601865 0.053108174
0.15912741 -0.68600607 0.053087849
0.16300741 -0.68527055 0.053654287
0.12529489 -0.66738361 0.05328897
0.12371714 -0.65124387 0.053039864
0.12405178 -0.65123594 0.053041223
0.16964267 -0.60320359 0.053790234
0.15371612 -0.68447393 0.054107055
0.15703678 -0.6845119 0.054186709
0.16020972 -0.68447387 0.0541398
0.16378212 -0.68450201 0.054191567
0.16736095 -0.68450922 0.05416701
0.15135869 -0.68376267 0.05473619
0.15447417 -0.68370229 0.054635301
0.15773895 -0.68374813 0.054710392
0.16089265 -0.68370926 0.054662868
0.16470675 -0.68374264 0.054721162
0.16518188 -0.68375003 0.054725293
0.16809689 -0.68373823 0.054693148
0.17054704 -0.68375224 0.054717503
0.13302092 -0.67439306 0.054637264
0.12681228 -0.66590255 0.054428387
0.12735182 -0.66591471 0.054446213
0.18313554 -0.61439347 0.054596324
0.15207253 -0.68300313 0.05526429
0.14064753 -0.68221015 0.055727754
0.14101094 -0.68220878 0.0557331
0.14386232 -0.6829707 0.055218447
0.14456759 -0.68220145 0.055728689
0.1477271 -0.68296629 0.055217609
0.14866306 -0.68219811 0.055730108
0.15245883 -0.68299657 0.055258732
0.15534849 -0.68294525 0.055185035
0.15625912 -0.68219197 0.055723004
0.15846191 -0.68298525 0.055243745
0.16160947 -0.68295294 0.055200893
0.16625963 -0.6822167 0.055760499
0.16880986 -0.68297577 0.05521835
0.17127679 -0.68298692 0.055248763
0.13297848 -0.67364341 0.055193484
0.13376127 -0.67362761 0.055177003
0.13476351 -0.67288202 0.05573744
0.13515656 -0.67289048 0.05575031
0.14527193 -0.6814425 0.056260709
0.14955863 -0.68143725 0.056263503
0.15351984 -0.68146896 0.056303758
0.16992117 -0.68145567 0.056274682
0.17024796 -0.68146288 0.0562809
0.17255479 -0.68146545 0.056306019
0.14215653 -0.68068635 0.056794811
0.14598882 -0.68067843 0.056778673
0.14642493 -0.68067348 0.056782361
0.1239766 -0.66291541 0.056654215
0.1229191 -0.65447986 0.056746248
0.12329687 -0.65447617 0.056751821
0.19294487 -0.61900133 0.056274645
0.19332708 -0.6190111 0.05627986
0.19967766 -0.61901128 0.056275692
0.20007403 -0.61900294 0.056285664
0.19261447 -0.61899048 0.056276642
0.19576015 -0.61898965 0.056256365
0.13894629 -0.67915487 0.05784649
0.13943498 -0.67914921 0.057849865
0.14286824 -0.67992282 0.057333224
0.14358 -0.67915392 0.057853926
0.13060349 -0.67064238 0.057399467
0.12379742 -0.66217637 0.057236068
0.12465671 -0.66216308 0.057206452
0.12549712 -0.66140234 0.057745121
0.12270811 -0.65373814 0.057322375
0.18902551 -0.61094326 0.057864022
0.18026368 -0.60572904 0.057105478
0.14038919 -0.67838049 0.058375243
0.14112823 -0.67761689 0.058911171
0.1901058 -0.6102494 0.058512963
0.18495961 -0.58760494 0.05854072
0.13225529 -0.67607337 0.059920795
0.14221366 -0.67686033 0.059444372
0.12646207 -0.66838193 0.059039392
0.12648204 -0.66763115 0.059580177
0.12729862 -0.6676206 0.059567824
0.1944167 -0.62145853 0.059887514
0.19540867 -0.6214602 0.059890945
0.19871916 -0.62148684 0.059936535
0.19920459 -0.62149376 0.059942447
0.18218969 -0.60890329 0.059848215
0.1836292 -0.60889047 0.059835803
0.18534181 -0.60889721 0.059830591
0.18630117 -0.60889322 0.05983486
0.18928389 -0.60888642 0.05982402
0.19106922 -0.60888952 0.05983375
0.15735693 -0.68464977 0.060681004
0.16072838 -0.68464494 0.060658757
0.16123325 -0.68464518 0.060649503
0.12832177 -0.66685319 0.060080811
0.12919062 -0.66609406 0.060615994
0.12164366 -0.65767086 0.060549311
0.12223848 -0.65766847 0.060537148
0.12010387 -0.64931548 0.060754027
0.12124154 -0.64930344 0.060743675
0.19259197 -0.62078643 0.060560044
0.1828454 -0.60821003 0.060494792
0.16084209 -0.60232615 0.060407568
0.14848667 -0.68346339 0.061403442
0.1523996 -0.68348891 0.061432704
0.1556354 -0.68308043 0.061675612
0.15847823 -0.68349075 0.061443038
0.16195506 -0.68387133 0.061158709
0.16270714 -0.68310398 0.061668538
0.16556421 -0.68348372 0.061428983
0.17129117 -0.68387783 0.061207399
0.13442375 -0.67457074 0.061015885
0.1357246 -0.67381448 0.061542153
0.13646428 -0.67381489 0.061554581
0.12297265 -0.65691328 0.061083332
0.12328903 -0.65691417 0.061079886
0.12047428 -0.64857459 0.06132903
0.12153904 -0.6485697 0.061312638
0.19257492 -0.62008131 0.061180729
0.19541648 -0.62004209 0.061137766
0.19682665 -0.62007779 0.061162356
0.18105377 -0.60753232 0.061139297
0.16279183 -0.60681957 0.061773226
0.16645879 -0.60095835 0.061728455
0.18786073 -0.57997936 0.061277773
0.24083586 -0.57007188 0.061655726
0.14533757 -0.68231881 0.06219501
0.1535261 -0.68231833 0.062169269
0.15639311 -0.6823132 0.062201004
0.16700131 -0.68233722 0.062202208
0.1723803 -0.68232763 0.062218048
0.14212339 -0.68154621 0.062699609
0.1460418 -0.68155068 0.062723376
0.14998585 -0.68153358 0.062682778
0.1504772 -0.68155217 0.06270463
0.15106012 -0.681566 0.062731847
0.17322081 -0.6815455 0.062700465
0.17551708 -0.68155807 0.062712952
0.12992048 -0.67230088 0.062619478
0.12445757 -0.66380996 0.062235914
0.12553665 -0.66305512 0.06277898
0.18096521 -0.61271387 0.062003352
0.18585323 -0.61273944 0.062030852
0.18619741 -0.61272627 0.062015679
0.18727829 -0.61272115 0.062006515
0.18034153 -0.58373159 0.062775597
0.18597829 -0.5837214 0.062748685
0.24191137 -0.56941229 0.062337395
0.14362763 -0.68000627 0.063724093
0.1467585 -0.68079096 0.063252687
0.14714296 -0.68079418 0.063239671
0.17100726 -0.68079597 0.063241512
0.17410126 -0.68077332 0.063202851
0.17651024 -0.68040514 0.063483372
0.1771016 -0.68002164 0.06375137
0.1788349 -0.68007553 0.063807435
0.13969254 -0.67999876 0.063735455
0.14331213 -0.67999995 0.063717097
0.13065803 -0.67153513 0.063146241
0.13122953 -0.67153692 0.063149713
0.13242991 -0.67077488 0.063677691
0.19836996 -0.62391019 0.063623339
0.1939743 -0.61130899 0.063240781
0.18150741 -0.61063111 0.063930355
0.18431062 -0.61063784 0.06391415
0.18560988 -0.6106478 0.063963003
0.1863414 -0.61065602 0.063961722
0.19003212 -0.61064404 0.063941136
0.19151077 -0.61067027 0.063981019
0.16882932 -0.60479605 0.063788883
0.17306112 -0.60477644 0.06376338
0.18161416 -0.60476625 0.06376797
0.15859564 -0.59963214 0.063096024
0.17128244 -0.59964323 0.063124239
0.17633021 -0.59963566 0.063105077
0.18383583 -0.58810425 0.063638195
0.24391341 -0.56395322 0.063534431
0.14078414 -0.67924559 0.064232729
0.14149708 -0.67847687 0.064744905
0.17977202 -0.67852896 0.064828366
0.12011889 -0.65169436 0.064992435
0.1951198 -0.62319815 0.064219408
0.15563856 -0.59825945 0.064402446
0.16308366 -0.59826249 0.064408578
0.17271821 -0.59829408 0.064464472
0.18610774 -0.58177775 0.064866103
0.14222114 -0.67770278 0.065250188
0.18033807 -0.67775697 0.065339535
0.18164895 -0.67691797 0.065767854
0.1277494 -0.66845632 0.06519895
0.12868296 -0.66767871 0.065728039
0.12922175 -0.66767353 0.065722577
0.12185349 -0.65928859 0.065486863
0.12082316 -0.65094745 0.065550946
0.12155915 -0.65094841 0.065565675
0.17583157 -0.60271877 0.065733224
0.17654772 -0.60272115 0.065733351
0.18606293 -0.58112687 0.065570086
0.16449408 -0.68543917 0.06662301
0.16734992 -0.68544608 0.066625528
0.13557205 -0.67616338 0.066297546
0.13660946 -0.6761353 0.066256657
0.13765746 -0.67536139 0.066751011
0.13825873 -0.67536408 0.066769347
0.13944739 -0.67539126 0.06679409
0.13033898 -0.66691601 0.066252187
0.12280159 -0.65854573 0.066059053
0.12351915 -0.65856051 0.06609641
0.12424847 -0.65856636 0.066099599
0.12260684 -0.65019852 0.06612622
0.18131121 -0.61371964 0.066800892
0.18625605 -0.61371005 0.066790231
0.13880602 -0.6020385 0.066390455
0.16465893 -0.60201687 0.06633544
0.18628111 -0.57983017 0.066966072
0.15496613 -0.68464851 0.067128941
0.15773933 -0.68465018 0.067103595
0.16165817 -0.68466097 0.067111038
0.16564356 -0.68467122 0.067131519
0.15243322 -0.68386525 0.067574434
0.15568012 -0.68388021 0.067624643
0.15869728 -0.68386281 0.067595795
0.16240269 -0.68388379 0.06762477
0.16845296 -0.68388778 0.067622639
0.12473209 -0.66463143 0.067833513
0.12521204 -0.66463733 0.067837775
0.1992013 -0.62626815 0.067366011
0.19326614 -0.61891496 0.067927636
0.18090864 -0.61301285 0.067424335
0.18123618 -0.61301029 0.067410395
0.18029892 -0.60715568 0.067144245
0.18170305 -0.60715848 0.067122899
0.14681214 -0.60646093 0.067779273
0.14655823 -0.60134023 0.067028672
0.15080434 -0.60064203 0.067688257
0.16657476 -0.60062701 0.06763956
0.16731167 -0.60063553 0.067643709
0.17717464 -0.60065544 0.067687102
0.14572659 -0.68310708 0.068133198
0.15002197 -0.68311572 0.068132691
0.15331617 -0.68306953 0.068048269
0.15660736 -0.68311059 0.068125471
0.1596165 -0.68307334 0.06808044
0.16318803 -0.68310076 0.068132102
0.16676728 -0.68310803 0.068107583
0.16957936 -0.68311393 0.068130702
0.14217964 -0.68232179 0.068599783
0.15077537 -0.68234694 0.068646945
0.17031974 -0.68233424 0.068632118
0.13137937 -0.6730653 0.068327583
0.13222845 -0.67229259 0.068828598
0.12634878 -0.66388273 0.068384536
0.12726977 -0.66313374 0.06893494
0.12805764 -0.6631453 0.068948157
0.1231465 -0.61817729 0.068502828
0.1368622 -0.60577476 0.068432294
0.15571317 -0.59928656 0.068991251
0.1583702 -0.59996259 0.068314441
0.15919735 -0.59926671 0.068957999
0.16234669 -0.59996825 0.068334281
0.16428386 -0.59928882 0.068999492
0.14289069 -0.68153995 0.069083869
0.1468062 -0.68154711 0.069113508
0.14715585 -0.68153661 0.069098525
0.15150054 -0.68157291 0.069145173
0.15460269 -0.68151397 0.069058001
0.16823818 -0.68154591 0.069099315
0.17355591 -0.68153769 0.069086559
0.17598757 -0.68156344 0.069146313
0.14792334 -0.68075627 0.069583826
0.17444307 -0.68075407 0.069583952
0.13336459 -0.67151082 0.069321014
0.13425213 -0.67073697 0.069837227
0.1198433 -0.65325767 0.069861725
0.12118053 -0.63745123 0.069847353
0.18429077 -0.6174559 0.06910865
0.12454544 -0.61674386 0.069714747
0.13825844 -0.6050685 0.069051832
0.13931717 -0.60504526 0.069017842
0.17661662 -0.60504228 0.069004647
0.13891713 -0.60435331 0.069669448
0.14394169 -0.60437757 0.0697079
0.14539492 -0.60436153 0.069687925
0.16668856 -0.60438448 0.069706134
0.17015661 -0.60435838 0.069663487
0.17590684 -0.60436034 0.069678649
0.17872885 -0.60437471 0.069685265
0.17913051 -0.60437274 0.069684535
0.15608433 -0.5992918 0.06901411
0.16396682 -0.59928989 0.069006778
0.15526894 -0.5985806 0.069603011
0.16043273 -0.59857434 0.069610819
0.1936007 -0.58217698 0.069861934
0.24582641 -0.55911189 0.06954512
0.17702578 -0.68001932 0.070156507
0.14422551 -0.67998284 0.070085958
0.14510697 -0.67920649 0.070579588
0.14900941 -0.67997879 0.07008484
0.17551067 -0.67919677 0.070581235
0.17761503 -0.67925209 0.070661612
0.17988786 -0.67921102 0.070597805
0.12858562 -0.66920006 0.070866719
0.12948388 -0.66922152 0.070899844
0.12164323 -0.6524837 0.070408635
0.12167718 -0.65173614 0.070949443
0.12265065 -0.65173018 0.070934832
0.12342888 -0.65172917 0.070940852
0.11907627 -0.64495736 0.070016749
0.12448791 -0.61603123 0.070334285
0.1857274 -0.6160205 0.070330337
0.18857333 -0.61606848 0.070384316
0.18925977 -0.61604643 0.070351668
0.18925945 -0.61534244 0.070985459
0.12949687 -0.6094625 0.070510373
0.18047056 -0.60948998 0.070552982
0.14028123 -0.60366333 0.070304208
0.14154282 -0.6036787 0.070335492
0.14243384 -0.60366261 0.070331953
0.14529869 -0.60367078 0.070332393
0.16588882 -0.60366994 0.070320159
0.14238079 -0.60297686 0.07097441
0.15022416 -0.60297263 0.070966728
0.18698312 -0.57657856 0.070467211
0.14160398 -0.67843199 0.071076982
0.14200242 -0.67843586 0.071083993
0.1462712 -0.67842317 0.071071602
0.17820409 -0.67848355 0.07116051
0.17950307 -0.67848253 0.071158506
0.13722026 -0.67764366 0.071573496
0.13811472 -0.67765492 0.07157518
0.14272486 -0.67765766 0.07159245
0.1787954 -0.67771465 0.071670108
0.18045788 -0.67766595 0.071604364
0.13045587 -0.66845894 0.071421392
0.13192983 -0.66769516 0.071948431
0.1234452 -0.66008872 0.071068138
0.12414155 -0.6600765 0.071031667
0.12412827 -0.65931809 0.071572855
0.12513466 -0.65929961 0.071537741
0.12018136 -0.64345306 0.071127452
0.12127334 -0.64347023 0.071133226
0.1942582 -0.61462879 0.071601771
0.13381825 -0.60807729 0.071812987
0.18180753 -0.60807174 0.071810365
0.15014869 -0.60227382 0.071606316
0.16149531 -0.60229659 0.071633071
0.17367673 -0.60228282 0.07161624
0.18492457 -0.58086854 0.071223497
0.13881403 -0.67687565 0.072076
0.13930288 -0.67686987 0.072079301
0.14063342 -0.67608619 0.072583422
0.14380559 -0.6768685 0.072078764
0.1807133 -0.67690128 0.072136469
0.19677462 -0.62638503 0.072936952
0.12763612 -0.61316007 0.072755694
0.15374351 -0.60158068 0.072235607
0.16299018 -0.60159123 0.072255246
0.17256437 -0.60155869 0.072211765
0.15832226 -0.60087037 0.072860271
0.16042419 -0.60087472 0.072863244
0.16363178 -0.6008938 0.072884947
0.17358464 -0.6008817 0.072874717
0.15819351 -0.68530929 0.073012032
0.15892702 -0.68453163 0.073505238
0.16223079 -0.68455505 0.073549956
0.16578645 -0.68455297 0.07352455
0.15322998 -0.68374109 0.07397972
0.14065248 -0.67530906 0.073072471
0.12597416 -0.66538501 0.073484607
0.12670736 -0.66538459 0.073488094
0.12702097 -0.66538155 0.073480561
0.12771115 -0.66460603 0.073980935
0.12802462 -0.66460186 0.073969945
0.11984084 -0.63971668 0.073883012
0.12230492 -0.6323033 0.073894322
0.19123822 -0.61904001 0.073374547
0.12360118 -0.61829138 0.073914774
0.19544582 -0.61828697 0.073928051
0.19620153 -0.61832207 0.073961705
0.12867804 -0.61173695 0.073991977
0.13482185 -0.60666454 0.073057391
0.13868892 -0.606659 0.073045172
0.14265256 -0.60666645 0.073067605
0.16622657 -0.60666949 0.073083125
0.17850479 -0.6066649 0.073059537
0.18282399 -0.60665393 0.073058918
0.18675637 -0.60666424 0.073082879
0.14121771 -0.60595018 0.073687464
0.16505329 -0.60596275 0.073694304
0.17979527 -0.60594851 0.073695593
0.16024058 -0.60017526 0.073495254
0.16786553 -0.60019886 0.073538378
0.17392974 -0.60018933 0.073518701
0.19826542 -0.5788883 0.073307507
0.20064139 -0.57399899 0.073310412
0.15016374 -0.68378967 0.074045017
0.15616763 -0.68377852 0.074030176
0.15972579 -0.68377358 0.074010678
0.16006979 -0.68377501 0.074005768
0.16294874 -0.68377388 0.074037433
0.16342579 -0.68377614 0.074029133
0.16688034 -0.6837756 0.07400649
0.16720706 -0.68378252 0.074012697
0.16951352 -0.6837846 0.074037731
0.1469554 -0.68218422 0.074951626
0.1516086 -0.68220943 0.074988469
0.15398288 -0.68296444 0.074464701
0.15482642 -0.68218195 0.074964941
0.15691583 -0.68299437 0.074512817
0.15801391 -0.6822055 0.074986733
0.16079247 -0.68299019 0.074481413
0.16152528 -0.6822024 0.074960493
0.16476652 -0.68220109 0.074979864
0.16832773 -0.68221164 0.074983403
0.13247931 -0.6737448 0.074044727
0.13361748 -0.6729787 0.07456293
0.12285611 -0.65471506 0.074700028
0.12317258 -0.65471601 0.074696571
0.19141743 -0.61757982 0.074568614
0.19688787 -0.61759931 0.074555658
0.13008103 -0.61176217 0.07403966
0.1841618 -0.61177075 0.074066482
0.18807931 -0.61174768 0.074021831
0.16824275 -0.60525799 0.07432659
0.1870887 -0.60524821 0.074319899
0.16144501 -0.59948325 0.07414721
0.16465737 -0.59949076 0.074140012
0.19496453 -0.57757986 0.074690178
0.15125795 -0.68221945 0.075000167
0.14374545 -0.68140864 0.075430334
0.14844121 -0.68139428 0.075430758
0.15234102 -0.68141609 0.075450107
0.1715571 -0.68141317 0.075472176
0.17407981 -0.68141222 0.075460389
0.14492851 -0.68062186 0.075936623
0.14952172 -0.68061984 0.075926453
0.17472874 -0.68063134 0.07594192
0.13470723 -0.67220855 0.075070433
0.13547488 -0.67221135 0.075068705
0.13619411 -0.67221427 0.075080045
0.12278411 -0.66228694 0.075506635
0.1242254 -0.66149437 0.075994879
0.12065271 -0.65395594 0.075259477
0.12176017 -0.65319407 0.075776167
0.1226356 -0.65319788 0.075777233
0.1189142 -0.64568877 0.075275891
0.11924746 -0.64569271 0.075279236
0.1204437 -0.6457026 0.075290233
0.12090677 -0.63822991 0.075007685
0.19121075 -0.61685365 0.075149626
0.17699815 -0.60960847 0.075862981
0.18842421 -0.60959327 0.075846836
0.14791206 -0.60383379 0.075576127
0.14856045 -0.60383338 0.075573772
0.19288184 -0.58182055 0.075502574
0.14136782 -0.67984128 0.076415554
0.14254604 -0.67904598 0.076885909
0.14564313 -0.67983955 0.076434836
0.14656301 -0.67906725 0.076927356
0.17541443 -0.67984903 0.076427616
0.17619827 -0.6790663 0.076913431
0.17760384 -0.67951304 0.076741189
0.17889686 -0.67908686 0.076948941
0.17932911 -0.67906141 0.076913901
0.12931702 -0.67066801 0.076079428
0.13066667 -0.6698873 0.076580942
0.12382001 -0.66150016 0.076000527
0.12493861 -0.6607241 0.07650815
0.12548298 -0.66072482 0.076508716
0.1260542 -0.66072619 0.07650236
0.20358376 -0.62934315 0.076175191
0.18974787 -0.61468863 0.076927237
0.19039448 -0.6146782 0.076903827
0.16984831 -0.60890198 0.076483928
0.17945303 -0.60890329 0.07646478
0.15813531 -0.60240382 0.07678204
0.15749247 -0.59743083 0.076128125
0.13931559 -0.67825997 0.077386595
0.14325118 -0.6782676 0.077375278
0.1784576 -0.67833471 0.077458292
0.17966117 -0.67828298 0.077406026
0.14395826 -0.67749113 0.077861883
0.18011138 -0.67749661 0.077878587
0.13152164 -0.66911757 0.077085465
0.19493595 -0.62126559 0.077015318
0.19419794 -0.62050563 0.077588588
0.13500683 -0.60819441 0.077105016
0.18658951 -0.6081996 0.077124409
0.15138571 -0.60748982 0.077740513
0.18421349 -0.60746717 0.077693231
0.19574426 -0.57495672 0.07745824
0.14062387 -0.67670381 0.07834474
0.14114243 -0.67671031 0.078335762
0.14187741 -0.67592233 0.078811005
0.12705617 -0.66675901 0.078522667
0.12136323 -0.63374603 0.078362249
0.20068905 -0.61981028 0.078213111
0.17908511 -0.61323589 0.07813666
0.12699549 -0.6125055 0.078700155
0.1928235 -0.61251575 0.078725688
0.13499467 -0.60676605 0.078337006
0.17126134 -0.60675752 0.078316621
0.17514627 -0.60672808 0.078278199
0.17729019 -0.60604233 0.078923211
0.18046084 -0.60605019 0.078923404
0.18365845 -0.60604179 0.078931198
0.15421979 -0.60102999 0.078103811
0.16951214 -0.60103744 0.078103386
0.17521958 -0.60101658 0.078083165
0.17660432 -0.60102183 0.07807751
0.14242214 -0.60031915 0.078705192
0.15241064 -0.60030341 0.078683726
0.16693816 -0.60030735 0.078688174
0.17053793 -0.6003145 0.078709632
0.15602864 -0.68434048 0.079912677
0.16362323 -0.68433416 0.079897486
0.13485834 -0.67514145 0.079321146
0.13492218 -0.67435408 0.079798594
0.13575031 -0.67434657 0.079782709
0.13630535 -0.67432296 0.079753309
0.13777059 -0.67432922 0.079767324
0.1254645 -0.66522449 0.079563774
0.12744921 -0.66597772 0.079013169
0.12833187 -0.66596091 0.079012662
0.12925497 -0.66517818 0.079504818
0.12013263 -0.65610981 0.079615101
0.12154134 -0.65649951 0.079333842
0.1226254 -0.65651095 0.079355627
0.12370393 -0.65652883 0.079395413
0.12054225 -0.64747655 0.079728343
0.12117175 -0.64786285 0.079461634
0.12136496 -0.63226002 0.079489514
0.20519421 -0.63225031 0.079478994
0.19692662 -0.62564903 0.079027966
0.12290918 -0.62489772 0.079580337
0.12736067 -0.6183328 0.079362668
0.12552841 -0.6176008 0.079948612
0.13352595 -0.61108887 0.079959758
0.18643005 -0.6110732 0.079936773
0.18820938 -0.6110853 0.079952046
0.18934616 -0.61110628 0.079990573
0.19245896 -0.61178201 0.079306394
0.14060597 -0.60531384 0.079543501
0.15200453 -0.60534489 0.079579741
0.16555463 -0.6053403 0.079564579
0.17007993 -0.60531187 0.079517469
0.16241872 -0.59962332 0.079348572
0.16583663 -0.59957951 0.07928773
0.16657874 -0.59958422 0.079290673
0.16912296 -0.59961683 0.079346702
0.15376179 -0.598885 0.079922549
0.15408143 -0.59888989 0.079919115
0.15664685 -0.59891474 0.079985239
0.15781876 -0.59889746 0.079936579
0.15392645 -0.68352681 0.080367446
0.15705507 -0.68353534 0.080353677
0.16453487 -0.68355042 0.08036866
0.1673837 -0.68355006 0.080375098
0.17652926 -0.68353283 0.080355383
0.13533439 -0.68273962 0.080819555
0.14247245 -0.68274361 0.080804691
0.1516073 -0.68273932 0.080798373
0.15519497 -0.68275571 0.080846757
0.16137041 -0.68275523 0.080829091
0.16553089 -0.68276078 0.080839023
0.1664113 -0.68275052 0.080826305
0.16817649 -0.68275869 0.080849849
0.16919997 -0.6827659 0.080856442
0.17062664 -0.68274367 0.080833144
0.17657903 -0.68277133 0.080878571
0.13205689 -0.67275387 0.080714889
0.12182911 -0.6636439 0.080513872
0.12218472 -0.66363692 0.080512062
0.12583107 -0.6636622 0.080548003
0.1247251 -0.662862 0.080999389
0.11978786 -0.64709914 0.080005199
0.12015732 -0.64709568 0.080001101
0.11690632 -0.63890767 0.080174714
0.11937547 -0.63887495 0.080120705
0.12041987 -0.63889933 0.080157511
0.20265348 -0.63151461 0.080067083
0.20462027 -0.63155419 0.080101453
0.12173917 -0.63076442 0.080609508
0.20261237 -0.63076192 0.080598839
0.12079944 -0.6241315 0.080111653
0.19948417 -0.62416553 0.080161884
0.12509826 -0.62341982 0.080739312
0.19386621 -0.61687493 0.080548629
0.13021842 -0.6103633 0.080554485
0.17967442 -0.61035603 0.080544397
0.18643188 -0.61034566 0.08052697
0.16084212 -0.60461617 0.08014974
0.17009978 -0.60458511 0.080116682
0.1840156 -0.60460413 0.080152072
0.1377558 -0.60389829 0.080768786
0.14874677 -0.60389125 0.080764152
0.15692829 -0.60387272 0.080730781
0.16086294 -0.60390294 0.080772877
0.16186883 -0.6038931 0.08074341
0.16973868 -0.60387778 0.080726728
0.17010854 -0.60386598 0.080724441
0.15377407 -0.59817737 0.080552474
0.162295 -0.59820199 0.080589116
0.17051721 -0.59821206 0.080605596
0.16435212 -0.69277585 0.081286386
0.12834932 -0.68115491 0.081749246
0.14545698 -0.68117362 0.081789322
0.14647654 -0.68142098 0.081596978
0.14859 -0.68196017 0.08130011
0.14900368 -0.68196756 0.081319802
0.1501215 -0.68119115 0.081805602
0.15246195 -0.68193245 0.081237063
0.15507047 -0.68195105 0.081313089
0.15821899 -0.68194932 0.081292421
0.16252384 -0.68195844 0.081321172
0.16891488 -0.68197137 0.081319772
0.16927062 -0.68196946 0.081323616
0.17166531 -0.68194556 0.081278287
0.17236525 -0.68116254 0.081749007
0.17494951 -0.68118489 0.081807546
0.1754241 -0.68120641 0.081830405
0.17724365 -0.68119276 0.081810459
0.13057294 -0.67122519 0.081741579
0.12191191 -0.66287565 0.081028253
0.12572955 -0.66234928 0.081349127
0.12053673 -0.6530298 0.081670359
0.1134372 -0.64558262 0.081075214
0.11622368 -0.64556944 0.081039093
0.11521842 -0.64479226 0.0815593
0.11726578 -0.63738918 0.081249759
0.11874299 -0.63739407 0.081255354
0.12011017 -0.63660669 0.081751518
0.12069012 -0.62925911 0.081695497
0.12108903 -0.62265497 0.081254348
0.19982792 -0.62267786 0.081302032
0.20262143 -0.62269664 0.081332155
0.12544441 -0.62193954 0.081866741
0.12687463 -0.62194693 0.081883907
0.19591032 -0.62194228 0.081902057
0.12377246 -0.61612052 0.081090458
0.13090464 -0.61613429 0.08111304
0.1910312 -0.61612165 0.081112005
0.19390386 -0.61614501 0.081136383
0.12984408 -0.61541289 0.081717998
0.13231371 -0.61538023 0.081664436
0.13237001 -0.60963702 0.081137583
0.13380007 -0.60964453 0.081154726
0.17753802 -0.60963261 0.081153385
0.18642002 -0.60962898 0.081131421
0.18931288 -0.60964662 0.08117038
0.1355558 -0.60888743 0.081711315
0.18002461 -0.60891575 0.081748925
0.14411731 -0.60318279 0.081386343
0.14868408 -0.60317445 0.081376657
0.15689559 -0.60316682 0.081360914
0.16088721 -0.60319251 0.081397757
0.16584046 -0.60318941 0.081388161
0.16966793 -0.60317022 0.081353463
0.17474283 -0.60318953 0.081397131
0.17541738 -0.60317224 0.081368573
0.15671152 -0.60244924 0.081963807
0.145895 -0.59749478 0.08121071
0.14281435 -0.6803695 0.082219139
0.14331175 -0.68037081 0.08221525
0.14616333 -0.6803779 0.082241684
0.15050262 -0.68039739 0.082264736
0.17306547 -0.6803661 0.082213521
0.17561364 -0.68040478 0.082289793
0.17746843 -0.68041539 0.082283266
0.17810793 -0.68036884 0.082224466
0.14021759 -0.67958671 0.082689345
0.14264369 -0.67958027 0.082679443
0.17755757 -0.67963529 0.082766056
0.17850061 -0.67957401 0.082687445
0.12829264 -0.67043346 0.082208626
0.13164392 -0.67041582 0.082186662
0.13212152 -0.67041397 0.082173511
0.12826645 -0.6696462 0.082691431
0.11847658 -0.66053563 0.082512386
0.12236048 -0.66055191 0.082539149
0.11656155 -0.65150553 0.082701087
0.12063017 -0.65149289 0.082698785
0.11662771 -0.64403409 0.082082212
0.11915047 -0.64326757 0.082636729
0.11618944 -0.63512164 0.082876816
0.12049071 -0.63510156 0.082842514
0.20052969 -0.62850922 0.082275532
0.12284754 -0.62777328 0.082835019
0.12624185 -0.61465162 0.082248077
0.18851052 -0.61468393 0.082305491
0.19092096 -0.6146518 0.082261875
0.13016728 -0.61394209 0.082879119
0.18532482 -0.61391926 0.082849458
0.13271646 -0.60819232 0.082344025
0.13554518 -0.60817051 0.082317233
0.17607674 -0.60819018 0.082335144
0.18245493 -0.60818678 0.082326785
0.17675017 -0.60746455 0.08293926
0.14378913 -0.60247469 0.082010671
0.148691 -0.60246205 0.082001068
0.17475244 -0.60247076 0.082004547
0.14404568 -0.60175884 0.082625508
0.1478036 -0.60175669 0.082615666
0.1487188 -0.60174233 0.0826184
0.16397826 -0.60172647 0.082568146
0.16466551 -0.60172892 0.082570605
0.16539656 -0.60174149 0.082576089
0.1463497 -0.68959707 0.083084181
0.1602627 -0.6879862 0.083971694
0.14060931 -0.67800069 0.083616532
0.17888029 -0.6787926 0.083167687
0.13705002 -0.67799956 0.083620414
0.12419742 -0.66808796 0.083672307
0.12799813 -0.66804785 0.083612069
0.12831846 -0.66845417 0.083385736
0.1213845 -0.65900195 0.083555199
0.12225007 -0.65978539 0.083061919
0.11881851 -0.65898103 0.083512045
0.11669355 -0.65073413 0.08322043
0.12028803 -0.65073436 0.083212033
0.11641868 -0.64996129 0.083720431
0.11960803 -0.64995903 0.083706945
0.12031363 -0.64996254 0.083720431
0.11914255 -0.64251292 0.083166517
0.11637496 -0.64175642 0.083690844
0.11837021 -0.63436574 0.083403639
0.20284015 -0.63441074 0.083474971
0.11659154 -0.63360775 0.083955936
0.11925793 -0.62699616 0.083336562
0.20077737 -0.62628436 0.083966322
0.12401278 -0.6204589 0.083019018
0.19586901 -0.62047148 0.083017893
0.12186992 -0.61969721 0.083545081
0.19587018 -0.61973214 0.083574772
0.12657511 -0.61318272 0.083407559
0.18280849 -0.61322403 0.08347892
0.18525586 -0.61319131 0.083437413
0.18744737 -0.61322492 0.083483972
0.18835032 -0.61323434 0.08349935
0.19454791 -0.61322027 0.083481207
0.13727182 -0.60673064 0.083510399
0.17110233 -0.60674751 0.083537623
0.15681443 -0.60102707 0.083194822
0.15616655 -0.60032636 0.083829075
0.16045058 -0.6003232 0.083831072
0.16425048 -0.60030842 0.083807155
0.16032948 -0.68719488 0.084442534
0.15678824 -0.68636608 0.084843412
0.15719667 -0.68639213 0.084866285
0.16041848 -0.68639201 0.084892988
0.16435111 -0.68639421 0.084862158
0.16719255 -0.68640238 0.084896117
0.13656256 -0.67720914 0.084088221
0.13712986 -0.67721021 0.084084272
0.13035947 -0.67640489 0.084545881
0.13647035 -0.67640007 0.084540397
0.13556728 -0.67559803 0.084978573
0.13611817 -0.67560035 0.084984295
0.12423963 -0.66730839 0.084153518
0.12799577 -0.66726023 0.084093459
0.1188649 -0.65820551 0.08402475
0.11854225 -0.65742266 0.084513694
0.11679851 -0.648413 0.084742501
0.11937606 -0.6409924 0.084222607
0.11876351 -0.63285571 0.084495828
0.12439415 -0.61822838 0.084713005
0.12617682 -0.61897832 0.084147342
0.18952045 -0.61896509 0.084164977
0.1958465 -0.61898565 0.084148347
0.18152574 -0.6124714 0.084022045
0.13016066 -0.61174518 0.084616981
0.14263381 -0.60601461 0.084137514
0.16391903 -0.60530096 0.08474315
0.17394719 -0.60599029 0.084103413
0.15181071 -0.59960437 0.084434405
0.15110081 -0.68556219 0.08528702
