# .PCD v0.7 - Point Cloud Data file format
VERSION 0.7
FIELDS x y z
SIZE 4 4 4
TYPE F F F
COUNT 1 1 1
WIDTH 479
HEIGHT 1
VIEWPOINT 0 0 0 1 0 0 0
POINTS 479
DATA ascii
0.20266309 -0.65152603 0.002531549
0.23317753 -0.75990212 0.0032565158
0.21663095 -0.70712638 0.0039007235
0.17042932 -0.55207968 0.0037109763
0.16513352 -0.53642112 0.0047268397
0.21169065 -0.68698597 0.0053606052
0.18177862 -0.59057117 0.0073878467
0.22301336 -0.72449803 0.0085258102
0.21028164 -0.68223268 0.013993122
0.13916984 -0.45434749 0.013139539
0.15299036 -0.49780464 0.014515977
0.22714101 -0.74067742 0.015369806
0.20493488 -0.6632328 0.015510663
0.16124779 -0.52714241 0.015147116
0.14766167 -0.48323855 0.015549568
0.19990899 -0.64542431 0.016070822
0.19147106 -0.62002188 0.016316511
0.16980544 -0.54935461 0.016251352
0.2220756 -0.71867472 0.017733512
0.21638116 -0.69916403 0.017648131
0.17790405 -0.57959843 0.0175259
0.16432106 -0.53419441 0.01733584
0.1561598 -0.51199794 0.017977223
0.23335287 -0.75963414 0.018801931
0.14269124 -0.46870708 0.018959563
0.13456185 -0.44010326 0.018544227
0.18681848 -0.60262746 0.01952498
0.1813831 -0.58648056 0.020554893
0.15111975 -0.49729475 0.020422909
0.19518042 -0.63472092 0.021120613
0.17353389 -0.56324536 0.021408139
0.15950041 -0.51879185 0.02187651
0.21991587 -0.71545762 0.022613987
0.16833174 -0.54786205 0.022966629
0.13798155 -0.45453915 0.022981506
0.21488823 -0.69563878 0.023594787
0.20933235 -0.67703259 0.023493357
0.20376012 -0.65928823 0.02351686
0.19005761 -0.61718291 0.02367451
0.14638156 -0.48275611 0.024394553
0.22592811 -0.73398441 0.025160277
0.15500487 -0.50388366 0.025973741
0.23169792 -0.75375015 0.026749907
0.18521522 -0.60000104 0.026970897
0.20710357 -0.67472416 0.027905447
0.17696668 -0.57685566 0.02705227
0.19910254 -0.64840096 0.028224112
0.16367266 -0.53209811 0.028943524
0.21314859 -0.69158149 0.03035382
0.21873124 -0.71019566 0.031070517
0.19405766 -0.63041902 0.031073021
0.18042484 -0.58295989 0.031857971
0.17255008 -0.5605619 0.031937625
0.14245112 -0.46853748 0.031848855
0.2246698 -0.728957 0.032529779
0.15058929 -0.49626103 0.032238614
0.18948588 -0.6128872 0.034729484
0.12058528 -0.56725997 0.034642298
0.16733201 -0.54539824 0.034527294
0.13438018 -0.44095752 0.034255218
0.2306854 -0.74730366 0.03556677
0.20335664 -0.66179025 0.035755243
0.15924059 -0.52380615 0.035519093
0.21148729 -0.77935231 0.036098544
0.20859702 -0.77876443 0.036932275
0.21157108 -0.68804634 0.036257967
0.11838384 -0.43420061 0.036601163
0.23349158 -0.76760495 0.037031218
0.21736264 -0.70593083 0.037727039
0.12964655 -0.59643734 0.037243478
0.093713321 -0.48211867 0.037194859
0.19814442 -0.64377642 0.03802466
0.13228598 -0.58835047 0.038771823
0.12680461 -0.58093661 0.038467482
0.1765139 -0.57354695 0.038398117
0.11319978 -0.53739101 0.038949698
0.22844605 -0.74438167 0.03954304
0.13810804 -0.60320884 0.039625615
0.18471633 -0.60323453 0.039570175
0.11625613 -0.55135667 0.03980305
0.16260754 -0.53018367 0.039603893
0.2065891 -0.77624387 0.040035997
0.22306563 -0.72332853 0.040561125
0.1462592 -0.63441825 0.040283814
0.12455502 -0.55839396 0.040469978
0.10795134 -0.51619679 0.040430583
0.15463954 -0.50921404 0.040466413
0.12180474 -0.43452322 0.040582731
0.20428957 -0.77498227 0.041575864
0.20695792 -0.70322728 0.041876454
0.2151556 -0.7032249 0.041837677
0.2094734 -0.68508619 0.041440528
0.18511467 -0.62574536 0.041953731
0.18782671 -0.62574089 0.041973487
0.19326811 -0.62575805 0.041954309
0.13542914 -0.60254431 0.041452438
0.17950964 -0.5874089 0.041556764
0.17417325 -0.57269764 0.041257091
0.16582617 -0.54393035 0.041238591
0.14657561 -0.48186174 0.041085493
0.091787338 -0.46837828 0.041676644
0.091803178 -0.45486984 0.041676
0.086235657 -0.44810995 0.04181549
0.088889651 -0.44811085 0.041805856
0.094573773 -0.44809797 0.041825
0.12745824 -0.42774546 0.041080005
0.198909 -0.71216267 0.042780586
0.19338825 -0.67545265 0.042845417
0.1960891 -0.67542404 0.042841032
0.15233932 -0.62529093 0.042859614
0.15789309 -0.6095593 0.04290786
0.15495571 -0.5943954 0.042734321
0.15787144 -0.59438497 0.042710517
0.13562638 -0.5870927 0.042460989
0.13862678 -0.58707345 0.042485125
0.13291091 -0.5724594 0.042222809
0.14123911 -0.56515276 0.04224696
0.14418532 -0.56513977 0.042260692
0.12752476 -0.55793381 0.042401429
0.13297047 -0.55793798 0.042466927
0.16870505 -0.55789512 0.042421527
0.11934521 -0.55069178 0.042691473
0.14428963 -0.55069238 0.042772133
0.1467718 -0.55063623 0.042667497
0.12195358 -0.54378599 0.042252086
0.12487245 -0.54375052 0.042193867
0.12750936 -0.54377407 0.042213716
0.13295358 -0.54377812 0.042277612
0.11679138 -0.53658926 0.042752493
0.14431612 -0.53659928 0.042841662
0.12758321 -0.529719 0.042532496
0.13063207 -0.52972215 0.042562421
0.13302594 -0.52972293 0.042594813
0.14132267 -0.52279109 0.042430542
0.11121117 -0.51590329 0.042383336
0.14135475 -0.50903243 0.042515628
0.14677933 -0.50896281 0.042428166
0.15237802 -0.50898123 0.042465154
0.10560115 -0.50218171 0.042714082
0.11128451 -0.50218302 0.042708423
0.11391217 -0.50219613 0.042720072
0.11938742 -0.50216979 0.042671341
0.12209319 -0.50221699 0.042734146
0.12499892 -0.50218296 0.042681515
0.12764792 -0.50220603 0.042700067
0.14947413 -0.49537787 0.042043012
0.10309179 -0.48861706 0.04256757
0.10835259 -0.48863634 0.04252629
0.11389932 -0.48863462 0.04253896
0.12207939 -0.48865539 0.042552795
0.10315771 -0.4750925 0.042855088
0.10565233 -0.47509623 0.042822614
0.11133553 -0.47509757 0.042816479
0.11396893 -0.47510979 0.042825829
0.11686244 -0.47507226 0.042769995
0.11943319 -0.47508484 0.042781133
0.12214804 -0.4751305 0.042839434
0.12770201 -0.47512019 0.042808089
0.13072509 -0.47512344 0.042838488
0.13584235 -0.47510174 0.042817507
0.09767282 -0.46838051 0.042689912
0.10029327 -0.46836302 0.042671207
0.13311644 -0.468389 0.042689826
0.14143403 -0.46836194 0.042674471
0.094688512 -0.46160379 0.042576466
0.10313208 -0.46162125 0.042623077
0.11131069 -0.46162653 0.042584933
0.11394697 -0.46163833 0.042593185
0.1194058 -0.46161407 0.042550433
0.12212512 -0.46165901 0.042606555
0.12767865 -0.461649 0.042576555
0.13069555 -0.46165228 0.042607021
0.13311428 -0.46165234 0.042631194
0.13584021 -0.45489365 0.042643495
0.097723231 -0.44817248 0.042863112
0.10318808 -0.44815001 0.04285422
0.10568425 -0.44815415 0.042823173
0.10845126 -0.4481689 0.042814605
0.11136751 -0.44815549 0.042816509
0.11400662 -0.44816688 0.042823713
0.1168926 -0.44812974 0.042771373
0.11946008 -0.4481433 0.042782854
0.12218379 -0.4481875 0.042836849
0.12507235 -0.4481554 0.042791158
0.13305692 -0.4413982 0.04216649
0.12503518 -0.43463102 0.042503569
0.17440899 -0.73119527 0.043612491
0.18536949 -0.72110415 0.04386124
0.17443718 -0.71160382 0.043662861
0.18532528 -0.70222193 0.043526329
0.19908787 -0.69288069 0.04368718
0.18232337 -0.68412501 0.043165788
0.17981043 -0.66632915 0.043643512
0.20728709 -0.66627401 0.043597661
0.16315827 -0.65771693 0.043622214
0.19101714 -0.65777946 0.043649968
0.17987253 -0.64926225 0.043919697
0.15793328 -0.64116645 0.043284751
0.160514 -0.64115596 0.043302316
0.163131 -0.64120573 0.043360744
0.16611394 -0.64120907 0.043364111
0.16878036 -0.64122456 0.043403387
0.17728089 -0.63328087 0.043081522
0.17989989 -0.63287538 0.043998826
0.15801805 -0.62487924 0.043690909
0.16059761 -0.62486917 0.043708034
0.163221 -0.62491858 0.043764759
0.1910698 -0.62498122 0.043790132
0.14145467 -0.61708683 0.043809179
0.17457007 -0.61707705 0.043826055
0.1525365 -0.60922223 0.043901119
0.155139 -0.60921133 0.043851595
0.16063376 -0.60919154 0.043843985
0.17450315 -0.60184377 0.043340392
0.17735231 -0.60186636 0.043320298
0.15251717 -0.59408081 0.043714155
0.16061324 -0.59405053 0.043657973
0.16324887 -0.59409916 0.04371151
0.14142023 -0.58677703 0.043420199
0.14684588 -0.58670759 0.043323964
0.16884308 -0.58676267 0.043406192
0.17188938 -0.58673006 0.04340408
0.1773836 -0.58679003 0.043415036
0.13070776 -0.57947773 0.043205611
0.14956607 -0.57938665 0.043151546
0.15795116 -0.57937884 0.043087862
0.16052787 -0.57937038 0.043103747
0.13576074 -0.57216221 0.043113627
0.13875656 -0.5721432 0.04313783
0.17185327 -0.57210898 0.043120895
0.14958119 -0.56482977 0.043139398
0.1524443 -0.56484318 0.043146674
0.16318558 -0.56486166 0.043142874
0.13075565 -0.55769497 0.04338653
0.13582481 -0.55767447 0.043367926
0.1388161 -0.55765569 0.043392181
0.14969033 -0.55041683 0.043660767
0.15254965 -0.55043 0.043667872
0.15515366 -0.55041927 0.043621711
0.14697163 -0.53635293 0.043706555
0.14972137 -0.53635836 0.043739114
0.15257689 -0.53637141 0.04374605
0.15518159 -0.53636068 0.043700691
0.15809493 -0.53634977 0.043678693
0.16066942 -0.5363428 0.043693367
0.11950225 -0.52950829 0.043471713
0.12511322 -0.52952206 0.043482926
0.13887101 -0.52950931 0.043537132
0.11400118 -0.52264893 0.043387618
0.14443108 -0.52262038 0.043413464
0.15512641 -0.52257293 0.04330796
0.15803891 -0.52256185 0.043286379
0.11691247 -0.51573962 0.043310154
0.11948871 -0.51575065 0.043320585
0.12509999 -0.51576412 0.043331265
0.12774499 -0.5157873 0.043350231
0.13078721 -0.5157904 0.043380305
0.13318622 -0.51579106 0.043410987
0.1358809 -0.51576936 0.04336042
0.10849371 -0.50892615 0.043461036
0.13888457 -0.50889832 0.043489501
0.14446098 -0.50889587 0.043502189
0.11698575 -0.5020538 0.043640096
0.13085632 -0.50210464 0.043709703
0.1056695 -0.49535406 0.043056112
0.11135279 -0.49535534 0.043050338
0.13315606 -0.49538183 0.043100409
0.13585509 -0.49536005 0.043051768
0.13882637 -0.49534237 0.043076273
0.14147142 -0.49535456 0.043080743
0.14440243 -0.49533939 0.043088738
0.14706872 -0.49519801 0.043975852
0.10042272 -0.48855242 0.043538712
0.11696973 -0.48852718 0.043463755
0.1195422 -0.48853919 0.043474685
0.12515399 -0.48855212 0.043484356
0.12780695 -0.48857498 0.043502502
0.13083628 -0.48857817 0.043532811
0.13324529 -0.4885785 0.043560185
0.13594581 -0.48855668 0.043512173
0.097741164 -0.48184565 0.043153338
0.10846237 -0.48184219 0.043103702
0.13885072 -0.48181486 0.043131597
0.1414984 -0.48182699 0.043136895
0.14442642 -0.4818114 0.043143861
0.10048946 -0.47506273 0.043828923
0.12521867 -0.47506261 0.04377456
0.13895719 -0.46833244 0.043653049
0.10580115 -0.46162522 0.043576136
0.10856811 -0.46164027 0.043567725
0.11701033 -0.46160105 0.043523934
0.12519155 -0.46162644 0.043543998
0.10052092 -0.44819006 0.043829735
0.12779662 -0.44144735 0.043097582
0.18821275 -0.72053921 0.044701826
0.22112685 -0.72056931 0.044751588
0.17745793 -0.71108252 0.044464685
0.20188276 -0.71104962 0.044451088
0.18817416 -0.7016865 0.044384759
0.19111243 -0.70170891 0.044389546
0.19363764 -0.70170528 0.044363592
0.21297264 -0.70160043 0.044275884
0.16892979 -0.69234973 0.04455559
0.17200303 -0.69231385 0.044549778
0.17461917 -0.69235176 0.044586912
0.17749029 -0.69237494 0.044563472
0.20487502 -0.69231796 0.044541363
0.18542686 -0.68363851 0.044017605
0.16629934 -0.67442739 0.044565775
0.16895683 -0.67444384 0.044607643
0.17202568 -0.67440844 0.044602461
0.19926476 -0.67445993 0.044583648
0.15810375 -0.66577423 0.044362679
0.18256362 -0.66584527 0.044445612
0.16630132 -0.65726608 0.044502344
0.16896328 -0.65728199 0.044542886
0.19369277 -0.65732121 0.044503286
0.19639552 -0.65729296 0.044499461
0.17199796 -0.64076757 0.044291954
0.19366157 -0.64084125 0.044256344
0.14978893 -0.61664784 0.044661865
0.17758411 -0.61672521 0.044718482
0.18264772 -0.61671257 0.044671517
0.16342546 -0.60888225 0.04481848
0.16639768 -0.60888594 0.044823315
0.14154941 -0.60151142 0.044250228
0.14450324 -0.60149944 0.04426723
0.17202188 -0.60146421 0.044234399
0.18257932 -0.60151184 0.044199053
0.16638015 -0.59377754 0.044648193
0.14453597 -0.58645564 0.044372492
0.17470331 -0.5864585 0.044371203
0.15259889 -0.57910794 0.04410081
0.15520191 -0.57909715 0.044053003
0.16333546 -0.57912636 0.044097558
0.14714688 -0.57153535 0.044936135
0.1689776 -0.57186544 0.04406916
0.1552154 -0.56457365 0.044050969
0.15813018 -0.56456298 0.044028096
0.16070604 -0.56455499 0.044043567
0.16631047 -0.5646072 0.044100884
0.14161785 -0.55742627 0.044348225
0.158237 -0.55018365 0.044558909
0.16081211 -0.55017608 0.044573978
0.13090454 -0.54336125 0.044170074
0.1359821 -0.54334062 0.044151008
0.13896881 -0.54332209 0.044175334
0.14160471 -0.54333454 0.044176724
0.12240542 -0.53626686 0.04476469
0.13605972 -0.52935392 0.044482619
0.12235495 -0.52251327 0.044374723
0.14709054 -0.5224089 0.044286989
0.14984067 -0.52241445 0.044318449
0.15269239 -0.52242726 0.044325221
0.14987464 -0.50872499 0.044413563
0.13097778 -0.44150293 0.044111598
0.17757274 -0.7300716 0.045201182
0.19129825 -0.72000253 0.045523301
0.19382533 -0.71999913 0.045496602
0.2101489 -0.71993446 0.045472868
0.21315952 -0.71989405 0.045406286
0.21872304 -0.71998471 0.045542002
0.20498763 -0.71048099 0.045267884
0.20206971 -0.69182682 0.045393836
0.20758185 -0.69180644 0.045379527
0.18843153 -0.68263316 0.045745734
0.20505162 -0.67392755 0.045455586
0.19942673 -0.65684438 0.045396578
0.18278608 -0.64837134 0.045623813
0.18573979 -0.64838451 0.045622416
0.18844804 -0.64837956 0.04564327
0.1912996 -0.64042306 0.045172356
0.18282014 -0.63204801 0.045733277
0.14995855 -0.63198334 0.045722812
0.16651808 -0.62414074 0.045582
0.16918868 -0.6241557 0.045620024
0.1722448 -0.62412184 0.045616608
0.14473328 -0.61632615 0.04565385
0.14720236 -0.61626863 0.045535788
0.18020397 -0.6163516 0.045648314
0.16923457 -0.60854208 0.04577959
0.14713839 -0.60110027 0.04507776
0.14988625 -0.60110509 0.045115694
0.18013605 -0.60118324 0.045186963
0.16646355 -0.57883811 0.045045532
0.17224857 -0.55713785 0.045287155
0.16363415 -0.54999876 0.04558266
0.18018411 -0.72950011 0.046031058
0.18292244 -0.7289114 0.046765402
0.19666547 -0.71941072 0.04630734
0.21592291 -0.71936953 0.046291675
0.18036208 -0.70945048 0.046964578
0.21040481 -0.70939815 0.046872582
0.19677722 -0.70008653 0.046863955
0.1636503 -0.6820932 0.046573624
0.19151688 -0.68215543 0.046603121
0.17495084 -0.67347664 0.046361197
0.17781806 -0.67349976 0.046338368
0.16099289 -0.66482413 0.046120062
0.18582393 -0.66491967 0.046183433
0.17233688 -0.65633917 0.046293318
0.17782716 -0.65639991 0.046306033
0.15556401 -0.64787185 0.046454113
0.17494452 -0.63996005 0.046111006
0.1968383 -0.63954538 0.046930648
0.15559952 -0.63158 0.046579737
0.18592365 -0.61597621 0.046495978
0.19972135 -0.78109479 0.04776717
0.20239726 -0.78107107 0.047787022
0.18310492 -0.70889103 0.047719605
0.18055116 -0.6903165 0.047961112
0.1886832 -0.66444504 0.047074571
0.17511857 -0.65592295 0.047205728
0.1450624 -0.63122326 0.04760294
0.19432065 -0.78047526 0.048507709
0.19701222 -0.78044522 0.048500121
0.20255816 -0.67249691 0.048047055
0.1503897 -0.64699179 0.048268013
0.15342918 -0.64656788 0.049161483
0.19205311 -0.77919227 0.050045598
0.23326287 -0.7571575 0.050277941
0.20030808 -0.72604793 0.050815791
0.20851484 -0.72600347 0.050817642
0.20595191 -0.72600001 0.050824884
0.18938401 -0.73554051 0.051440727
0.20313038 -0.72545052 0.05164149
0.15687245 -0.66062087 0.053954497
0.18426928 -0.7643277 0.054561589
0.23114036 -0.7534799 0.054926313
0.22552048 -0.73318297 0.054567289
0.1930311 -0.73262405 0.055429604
0.19825357 -0.73259169 0.055396233
0.19569987 -0.73203319 0.056199014
0.19045936 -0.78375703 0.05778379
0.1849847 -0.74026507 0.058539823
0.22146223 -0.76953161 0.061380144
0.22968808 -0.74855894 0.061157279
0.2239842 -0.72851682 0.061052639
0.18074986 -0.73666739 0.063308641
0.18894996 -0.77785963 0.064445466
0.1833581 -0.73606712 0.064119183
0.2167197 -0.77645689 0.065837309
0.21931933 -0.77648979 0.0659113
0.18383153 -0.75427347 0.066882484
0.17855784 -0.73363477 0.067266963
0.21700157 -0.7237013 0.067261696
0.18691573 -0.77325261 0.069648474
0.22814845 -0.74175209 0.069555543
0.21193008 -0.77255797 0.070408717
0.21447727 -0.77256382 0.070366696
0.182035 -0.75112534 0.070684053
0.23399441 -0.76119477 0.071215853
0.21478195 -0.73000091 0.071888484
0.20965901 -0.72999191 0.071936846
0.21222346 -0.72999579 0.071929514
0.23171754 -0.75991333 0.07274799
0.20439339 -0.78013694 0.074344181
0.20706527 -0.78011286 0.074364521
0.21014611 -0.76861817 0.074877277
0.19898918 -0.77948916 0.075062163
0.1965849 -0.77882218 0.075823329
0.20180687 -0.77879035 0.075786561
0.18302551 -0.76736146 0.076388448
0.19380458 -0.73621672 0.076601505
0.20482942 -0.73621565 0.076594159
0.18575965 -0.76605064 0.077901132
0.22163478 -0.73432058 0.078885242
0.18076372 -0.74354988 0.079894878
0.20265543 -0.73312932 0.080453694
0.20835687 -0.72279423 0.081385151
0.19472069 -0.7842164 0.082041465
0.19216254 -0.78354275 0.082733721
0.22773851 -0.75155878 0.082532965
0.23040101 -0.75152326 0.082414493
0.22526458 -0.73129559 0.082834013
0.20078485 -0.72946417 0.085115917
0.19275647 -0.72883642 0.085888274
0.19839393 -0.72885102 0.085919365
0.17942089 -0.74761665 0.087015085
