# .PCD v0.7 - Point Cloud Data file format
VERSION 0.7
FIELDS x y z
SIZE 4 4 4
TYPE F F F
COUNT 1 1 1
WIDTH 1386
HEIGHT 1
VIEWPOINT 0 0 0 1 0 0 0
POINTS 1386
DATA ascii
-0.16396408 -4.9688497 -0.93370616
-0.091641553 -8.2651434 -0.5198456
-0.020229986 -8.2756243 -0.11434999
0.012800496 -10.602505 0.075304367
0.13729402 -10.880264 0.7824111
0.19971581 -10.810307 1.1367757
0.26410875 -10.880152 1.5025469
0.32707399 -10.835552 1.859966
0.3928524 -10.880733 2.2334325
0.40307325 -4.9185543 2.2865548
0.55547881 -6.4049544 3.1529984
0.55837846 -5.9330587 3.1691132
0.58669585 -5.5726571 3.3296354
0.59604591 -4.9157929 3.3822818
0.58745152 -4.5283084 3.3332405
0.59180945 -4.275352 3.3578341
0.55196577 -3.7385404 3.1313009
0.58253837 -3.7111607 3.3048844
0.5839619 -3.4998808 3.3128631
0.58891684 -3.2241652 3.3408732
0.58282351 -3.0062475 3.3061848
0.58094275 -2.8232367 3.2954376
0.58122391 -2.6604311 3.296979
0.57789302 -2.4912896 3.2780151
0.57634968 -2.3382311 3.2692118
0.57967663 -2.2094445 3.2880723
0.57265872 -2.0515859 3.2481942
0.5736295 -1.8633235 3.2536778
0.57072002 -1.733688 3.237144
0.56702185 -1.6073408 3.2161379
0.56615978 -1.4919281 3.2112384
0.5651682 -1.379513 3.2056069
0.56608993 -1.2731769 3.2108412
0.56767285 -1.1695313 3.2198308
0.56286359 -1.0080985 3.1925395
0.52440345 -0.87177712 2.9742317
0.56707835 -0.80973494 3.2164841
0.56300688 -0.70756364 3.1933858
0.55865097 -0.60756147 3.1686759
0.55420542 -0.50966412 3.1434593
0.13071404 -0.42775869 0.74011421
0.13114685 -0.41597712 0.74265647
0.1192183 -0.41182986 0.675093
0.11752509 -0.40923801 0.66552842
0.11629643 -0.39744529 0.65868866
0.11513763 -0.38592389 0.65224564
0.11480173 -0.37749633 0.65042812
0.11459791 -0.36395073 0.64940405
0.11472425 -0.34897223 0.65025306
0.11553425 -0.33628452 0.65493649
0.11533562 -0.32613361 0.65389723
0.11489886 -0.3107689 0.65155059
0.11451352 -0.30045921 0.64945179
0.11406548 -0.2837083 0.64704055
0.11613971 -0.26044133 0.65889263
0.11694431 -0.24148972 0.66354203
0.11535398 -0.22616786 0.65464944
0.1155449 -0.20785472 0.65581667
0.11613139 -0.18541065 0.65922642
0.33566532 1.6870732 1.9042771
0.3159546 1.6803948 1.7925175
0.29817092 1.6830564 1.691689
0.28056991 1.6803607 1.5919011
0.2640675 1.682173 1.4983457
0.24219683 1.7089875 1.3743608
0.21643703 1.5633646 1.2283562
0.20115934 1.5446339 1.1417648
0.1877348 1.5479679 1.0656778
0.17447323 1.5493408 0.99051714
0.16175459 1.5575628 0.91843432
0.14869682 1.5533572 0.84443438
0.13005179 1.5651042 0.7387687
0.11725916 1.5532327 0.6662786
0.10466323 1.5377232 0.59490716
0.09245427 1.5356162 0.52572465
0.080341838 1.5420485 0.45708558
0.068167396 1.5480446 0.38809529
0.055801462 1.5655653 0.31801248
0.04347147 1.5636082 0.24814458
0.024922913 1.5584868 0.14304049
0.01227825 1.5611321 0.071385287
-0.00063829281 1.5660341 -0.0018135934
-0.0075291176 1.425558 -0.040741727
-0.01983623 1.4262482 -0.11047984
0.042230565 -0.051472519 0.24288647
0.038679495 -0.063375071 0.22288622
0.035598505 -0.063703477 0.20549946
0.032568652 -0.065644607 0.18840371
0.029988639 -0.072513133 0.17386316
0.026844811 -0.075016923 0.15612105
0.02102137 -0.07238023 0.12321913
0.017116891 -0.072507471 0.10115965
0.012803236 -0.071507618 0.076777816
0.0039495328 -0.073345691 0.026731564
0.0028476622 -0.10673154 0.020639939
4.8792492e-05 -0.11805074 0.004859746
-0.000481561 -0.13968842 0.0019570149
-0.0026889448 -0.15364897 -0.010465687
-0.0027800442 -0.17572373 -0.010875912
-0.0026988329 -0.19744436 -0.010308675
-0.0026014722 -0.21828414 -0.0096503487
-0.0025012398 -0.23829491 -0.0089762462
-0.0020959999 -0.25837848 -0.0065715038
-0.0023408609 -0.27606031 -0.0078569306
-0.0029713877 -0.30124977 -0.011279598
-0.0029241887 -0.31858203 -0.010908212
-0.0027613847 -0.33569029 -0.0098810634
-0.0028223926 -0.35206562 -0.010124356
-0.0027787043 -0.36830357 -0.0097737443
-0.002632048 -0.38438216 -0.0088390438
-0.0030717116 -0.39972332 -0.011231784
-0.0027277921 -0.41555792 -0.009178089
-0.0028054158 -0.43096182 -0.0095166937
-0.0026159124 -0.44636837 -0.0083396463
-0.0030245127 -0.46933299 -0.010505884
-0.0029493368 -0.48468143 -0.0099779153
-0.0029541366 -0.50008899 -0.0099038659
-0.0032095022 -0.51576298 -0.011251641
-0.0031958171 -0.53142244 -0.011072872
-0.0030851786 -0.54713482 -0.010344078
-0.0034096451 -0.57172638 -0.012033596
-0.0032145095 -0.58789349 -0.010825532
-0.0034926871 -0.62240046 -0.012202065
-0.0036165665 -0.640338 -0.01280403
-0.010252785 -0.68563825 -0.050302345
-0.0037588968 -0.68728316 -0.013359277
-0.0039998116 -0.72843903 -0.014524027
-0.0032279242 -0.74703979 -0.010043957
-0.002750108 -0.76736486 -0.0072321673
-0.0022210539 -0.80026191 -0.0040790178
-0.0022693933 -0.82546556 -0.0042518065
0.0028011217 -0.82565445 0.024613101
0.020425389 -0.7975477 0.12488935
0.01990811 -0.82551712 0.12205566
0.024051445 -0.82176667 0.14565808
0.027368121 -0.82246709 0.16457106
0.030826658 -0.82061863 0.18428825
0.03383784 -0.82121754 0.20146765
0.036804114 -0.82104552 0.21839198
-0.17442963 -3.65905 -0.97921914
-0.17561553 -4.0016279 -0.9857893
-0.17458981 -4.3745193 -0.97980744
-0.17801827 -4.904974 -0.99906856
-0.094049752 -8.2709904 -0.5215975
-0.045775756 -8.2419195 -0.24764453
0.011168545 -10.544495 0.075933412
0.072268113 -10.745646 0.42268085
0.13473654 -10.769366 0.77716213
0.19871277 -10.881209 1.1402102
0.26245973 -10.890215 1.5021071
0.38700452 -10.747984 2.2088864
0.4015379 -4.9307184 2.2909124
0.56111658 -6.5022192 3.1966934
0.56202877 -6.0001745 3.2018721
0.57331198 -5.6700387 3.265924
0.58139777 -5.3441033 3.3118351
0.58248758 -4.9888215 3.3180468
0.59749711 -4.6273074 3.4032815
0.58917224 -4.2740741 3.3560758
0.55694741 -3.790139 3.1732392
0.57784671 -3.6973298 3.2918942
0.58386582 -3.514555 3.3261042
0.57844102 -3.2785161 3.2953725
0.57235634 -3.0565646 3.2608986
0.57419771 -2.8888416 3.2714064
0.5805704 -2.6691332 3.3076608
0.58210486 -2.5190942 3.3164306
0.56746376 -2.3150814 3.2334094
0.57688868 -2.209199 3.2869577
0.57030576 -2.0528195 3.2496672
0.56880367 -1.9198914 3.2412095
0.56552494 -1.7874271 3.2226713
0.56673515 -1.6132139 3.229641
0.56328541 -1.4918375 3.2101338
0.56426203 -1.3831613 3.215745
0.56335872 -1.2734244 3.2106888
0.56409085 -1.1685679 3.2149129
0.56772101 -1.0687742 3.2355824
0.52237231 -0.91923231 2.9783251
0.56637418 -0.81143647 3.2281158
0.56039894 -0.70788592 3.1942809
0.55586088 -0.60779244 3.168601
0.55001813 -0.50975126 3.1355186
0.54844397 -0.41374528 3.126657
0.12895218 -0.43288603 0.74649888
0.12824786 -0.41599858 0.74262267
0.11666052 -0.41146395 0.67699438
0.11462398 -0.40473399 0.66551912
0.1134008 -0.39745939 0.65865904
0.11200181 -0.38188219 0.65088183
0.11136189 -0.3694931 0.64737147
0.11154897 -0.36435428 0.64847308
0.11168154 -0.34942329 0.64934558
0.11210433 -0.33268693 0.65186471
0.11187962 -0.32258597 0.65066969
0.11187215 -0.31132585 0.65070724
0.11226705 -0.30395383 0.65298772
0.11158965 -0.28832343 0.64926386
0.11286476 -0.26238203 0.6566177
0.11406951 -0.24150224 0.66353226
0.11307076 -0.23101957 0.65794474
0.11255539 -0.2085977 0.65513891
0.1128058 -0.1884412 0.65663803
0.33320788 1.6910766 1.9072368
0.31366229 1.6861813 1.7964064
0.29477057 1.6786937 1.6892864
0.2777864 1.6820406 1.5929886
0.26143238 1.6856742 1.5002661
0.24602319 1.6944551 1.4129039
0.22049773 1.5606992 1.2681615
0.19846061 1.5483536 1.1432313
0.1848544 1.5488851 1.0661006
0.17149378 1.5483505 0.99036342
0.15882529 1.5575382 0.91855162
0.14605953 1.5611625 0.84618849
0.13329652 1.5601639 0.77384156
0.12046774 1.5495884 0.70112282
0.10176402 1.5387137 0.59510446
0.089607283 1.5426046 0.5261957
0.077428147 1.5400507 0.4571608
0.065263249 1.5480499 0.38820416
0.052981716 1.5565865 0.31858513
0.040559292 1.5646167 0.24816623
0.028165245 1.5631514 0.17790996
0.009421872 1.560168 0.071660608
-0.0034484689 1.5641019 -0.0013007798
-0.011239642 1.4449894 -0.045412455
-0.021269355 1.3974388 -0.10224301
0.037262794 -0.061679862 0.23063883
0.034358084 -0.063433789 0.21423519
0.029966109 -0.067346089 0.1894317
0.027399775 -0.074177191 0.17494926
0.024468305 -0.078279793 0.15839392
0.019759189 -0.069512792 0.13174714
0.015872624 -0.069184057 0.10977021
0.010852997 -0.076693639 0.081404544
0.0055308808 -0.07104107 0.05127896
0.0010690439 -0.072633795 0.026037129
0.00067510153 -0.096966334 0.0238868
-0.0012393956 -0.11260884 0.013104891
-0.0051011485 -0.11933467 -0.0087304246
-0.0059958561 -0.15133762 -0.01368114
-0.0053692102 -0.17625166 -0.010039119
-0.0055785435 -0.19691296 -0.011142539
-0.0054805931 -0.21778332 -0.010501922
-0.0055342116 -0.2373713 -0.01072179
-0.0053770742 -0.27526391 -0.009661301
-0.0051781675 -0.2935681 -0.0084481845
-0.0050160168 -0.31123021 -0.0074438001
-0.005231685 -0.3277365 -0.0085839853
-0.005173001 -0.34439775 -0.00816702
-0.0056465659 -0.36808255 -0.010729201
-0.0054978142 -0.38419574 -0.0098011382
-0.0054196045 -0.39998919 -0.0092735011
-0.0055887252 -0.4154413 -0.010149688
-0.0054905619 -0.43095008 -0.009508837
-0.0054713241 -0.44632205 -0.0093159582
-0.0057059466 -0.46164298 -0.010563916
-0.0056233727 -0.48467082 -0.0099696852
-0.00562505 -0.50007874 -0.0098954719
-0.0058772471 -0.51575303 -0.011243073
-0.0056890929 -0.53125644 -0.010091378
-0.0059171338 -0.54731637 -0.011301775
-0.006380911 -0.5639959 -0.013850026
-0.0062317997 -0.58018231 -0.012919743
-0.0054022889 -0.60379106 -0.0080857612
-0.0058144736 -0.62170869 -0.010340879
-0.0062614596 -0.64033061 -0.012793367
-0.014500444 -0.67965412 -0.059467755
-0.0064366981 -0.6777603 -0.013618842
-0.006060407 -0.70598745 -0.0113561
-0.0064826426 -0.72791809 -0.013667336
-0.0064390507 -0.74921286 -0.013334695
-0.0052342429 -0.76678616 -0.0064118421
-0.005434053 -0.79083627 -0.0074600778
-0.0046229288 -0.82417578 -0.0027278878
-0.0026546649 -0.84037149 0.0085281953
0.0039128582 -0.83120185 0.045884199
0.018156631 -0.79531568 0.12688604
0.01673598 -0.82934499 0.11891088
0.02122437 -0.82334065 0.14446692
0.024551963 -0.82408333 0.16343582
0.028118636 -0.821446 0.18376109
0.030952234 -0.82376027 0.19992656
0.034108929 -0.82191032 0.21792512
-0.18555965 -3.6210334 -1.0281116
-0.17527348 -3.9608364 -0.96952844
-0.17301211 -4.3096857 -0.9565326
-0.17935652 -4.884058 -0.99233299
-0.10808505 -8.8079653 -0.58641881
-0.049435336 -8.3116589 -0.25353608
0.038666554 -10.675088 0.24728471
0.13220175 -10.799341 0.77838582
0.19645599 -10.922099 1.1432358
0.25749421 -10.768866 1.4897771
0.38265717 -10.697731 2.2003961
0.38169479 -4.9130507 2.19402
0.56887788 -6.1097312 3.2570181
0.57501787 -5.7172308 3.2918522
0.57805449 -4.9745283 3.3090611
0.5809868 -4.6712646 3.3257079
0.58859724 -4.2905874 3.3689282
0.56362683 -3.8552203 3.2271571
0.57341933 -3.6868927 3.2827768
0.58347481 -3.5289094 3.3398917
0.57876647 -3.2958512 3.3131835
0.57485455 -3.0839682 3.2910013
0.57221133 -2.8926687 3.2760258
0.57903689 -2.6745207 3.3148286
0.58032256 -2.5230813 3.3221641
0.56411481 -2.3128757 3.2301872
0.57828516 -2.2235935 3.3106749
0.57012451 -2.0610356 3.2643874
0.56712943 -1.9230446 3.247427
0.56261635 -1.7869804 3.2218509
0.56479311 -1.615064 3.2342758
0.56298929 -1.4969457 3.2240822
0.56102878 -1.3822128 3.2130001
0.56062436 -1.2734036 3.210752
0.56203312 -1.1695156 3.2187972
0.56448299 -1.0681311 3.2327526
0.52085882 -0.92043066 2.9851701
0.56304002 -0.86149788 3.2246594
0.55768478 -0.70786911 3.1943355
0.55263186 -0.60761946 3.1657035
0.55078375 -0.51008534 3.1552634
0.54539698 -0.41376582 3.1247375
0.12673497 -0.43270817 0.74848652
0.12585865 -0.41585597 0.74362278
0.11444522 -0.4110792 0.6789515
0.11241176 -0.40883395 0.66744691
0.11121081 -0.40140495 0.66070473
0.11097418 -0.39273417 0.65943593
0.10961536 -0.38155374 0.65183491
0.10909267 -0.37348497 0.64894253
0.10900062 -0.36435145 0.64849424
0.10931771 -0.35387588 0.65036803
0.10979661 -0.3372336 0.65319687
0.10975682 -0.32664359 0.65304488
0.10963733 -0.31591579 0.65244043
0.11001193 -0.30283284 0.6546399
0.10929306 -0.29353702 0.65063363
0.11019199 -0.2630223 0.65588146
0.11165949 -0.24083064 0.66428208
0.11053304 -0.23101716 0.65796232
0.11006264 -0.21706818 0.65536529
0.10981542 -0.19145769 0.65407044
0.33814719 1.6725308 1.9498262
0.31129211 1.6878576 1.7975047
0.29355803 1.6915501 1.6969199
0.27574301 1.6872873 1.5958778
0.26030758 1.7017112 1.508338
0.2433378 1.6926419 1.4120951
0.22074573 1.5984392 1.2839611
0.20175797 1.5315447 1.1762788
0.18840824 1.5371776 1.1005803
0.16887848 1.546428 0.98984158
0.15622525 1.5555979 0.91809601
0.14365529 1.5640975 0.84682339
0.13054582 1.5522866 0.77249372
0.11767124 1.5377067 0.69949806
0.10492167 1.5134767 0.62721449
0.093157187 1.5384732 0.56051034
0.07490439 1.531055 0.45702541
0.062766895 1.5490531 0.38820618
0.050427765 1.563581 0.3182435
0.038086269 1.5636251 0.24827111
0.02570067 1.5621638 0.17804891
0.013322439 1.5571982 0.10786955
0.00029056449 1.5693511 0.033976156
-0.01371903 1.4449968 -0.045394525
-0.020593662 1.3340032 -0.08430972
0.034920786 -0.063472115 0.23150893
0.032027818 -0.065194085 0.21516626
0.02894178 -0.065863609 0.19772752
0.026555382 -0.074078977 0.18426171
0.023735195 -0.078621253 0.16833292
0.018314105 -0.077492341 0.13767907
0.013712071 -0.071508266 0.11163443
0.0084822271 -0.077429019 0.082067974
0.0034065305 -0.073190831 0.053335495
-0.0014159643 -0.072625086 0.026041098
-0.005052445 -0.10617171 0.0055638128
-0.0099085774 -0.10885864 -0.021920547
-0.0075202128 -0.14364097 -0.0082791001
-0.0074003213 -0.16693804 -0.007515742
-0.0075346138 -0.18819427 -0.0081955632
-0.0082660234 -0.21680352 -0.012224053
-0.0080158198 -0.23736098 -0.010721744
-0.0078579839 -0.27525336 -0.0096622519
-0.0078206984 -0.29319906 -0.009369038
-0.0077115051 -0.32772556 -0.0085864421
-0.0076524494 -0.34438667 -0.0081699835
-0.0079923868 -0.36017865 -0.010018281
-0.0077230167 -0.37653068 -0.0084082196
-0.0076922667 -0.39233091 -0.008152619
-0.0080664679 -0.41542962 -0.010154977
-0.0079679228 -0.43093827 -0.0095146596
-0.0079483027 -0.44631013 -0.009322321
-0.0087031042 -0.46163082 -0.013525309
-0.0079769492 -0.47695169 -0.0093229609
-0.0081983153 -0.49239329 -0.010498339
-0.0085247513 -0.51586235 -0.012229459
-0.0081639783 -0.53124374 -0.01010086
-0.0082213134 -0.54711276 -0.01034514
-0.0085169123 -0.56353301 -0.01194157
-0.008537964 -0.5799104 -0.011979788
-0.0086191213 -0.59670568 -0.012359033
-0.0082873134 -0.62169528 -0.01035383
-0.0085730664 -0.63994247 -0.011893898
-0.018241592 -0.6828931 -0.066680029
-0.0090644918 -0.67818475 -0.014519068
-0.0092528109 -0.69824296 -0.015505668
-0.0088048456 -0.72738886 -0.012840155
-0.0094918991 -0.75137699 -0.016656332
-0.0074200742 -0.7656247 -0.0048169224
-0.0080425367 -0.79142362 -0.008266055
-0.0079017747 -0.81530696 -0.007383978
-0.0069292006 -0.84972465 -0.0017397329
0.0013205028 -0.83188289 0.04515392
0.014933277 -0.78854686 0.1225175
0.015722021 -0.8193745 0.12711728
0.018547345 -0.82490504 0.14323068
0.021987643 -0.82488114 0.16283289
0.025560349 -0.82226431 0.18318588
0.028583994 -0.82290179 0.20042346
0.031562962 -0.8227663 0.21740727
0.034410138 -0.82275963 0.2336431
-0.18474188 -3.8867991 -1.0091662
-0.1742208 -4.28897 -0.94923556
-0.17876498 -4.8288527 -0.97481066
-0.1240865 -9.4381952 -0.66289264
-0.05169009 -8.2937021 -0.25222951
0.097934231 -10.65509 0.59776884
0.16226298 -10.933284 0.96300232
0.31797621 -10.754527 1.8471589
0.38166031 -10.748009 2.2087817
0.37990746 -4.9232993 2.1979265
0.57115269 -6.1641645 3.2841082
0.57274526 -5.7199368 3.2931149
0.5944407 -5.5207281 3.4163017
0.57279593 -4.9502878 3.29336
0.5819509 -4.700017 3.3453405
0.57629341 -4.3566685 3.3132095
0.57347333 -4.0661259 3.2971981
0.56545794 -3.6520422 3.2516966
0.58819854 -3.5721502 3.3808343
0.57788664 -3.30496 3.3222959
0.57403159 -3.0927441 3.3004239
0.5718419 -2.9030294 3.2880101
0.57250476 -2.7378228 3.2917936
0.57320219 -2.5812759 3.2957745
0.55106407 -2.3434026 3.17011
0.57862997 -2.233454 3.3266447
0.56946886 -2.0669262 3.2746584
0.56589353 -1.9267482 3.2543845
0.5612486 -1.7900091 3.2280395
0.55988336 -1.6675159 3.2203128
0.55829579 -1.5486493 3.2113242
0.55801231 -1.4361447 3.2097378
0.55834341 -1.2737468 3.2116499
0.56060076 -1.1710345 3.2244833
0.56340396 -1.0698617 3.2404137
0.52013248 -0.9222275 2.9948268
0.56250507 -0.86309487 3.2353451
0.55496758 -0.75732481 3.1925795
0.55005336 -0.65640777 3.1647027
0.54694724 -0.55831867 3.1470871
0.54334688 -0.41379187 3.1266706
0.12495247 -0.43236104 0.75238711
0.12321256 -0.41599619 0.74262393
0.11010353 -0.40862513 0.66838712
0.10873231 -0.40140375 0.66068172
0.10786621 -0.39823148 0.65580499
0.10737916 -0.38562375 0.65315378
0.10645115 -0.37384155 0.6480003
0.10636136 -0.36474028 0.64756489
0.10668118 -0.35429657 0.64945269
0.10723109 -0.34269613 0.65264493
0.10712816 -0.32714149 0.65216917
0.10701214 -0.31644356 0.65158242
0.1073908 -0.30338982 0.65380055
0.10615563 -0.29012382 0.64690012
0.10845403 -0.26655209 0.66000223
0.10918716 -0.24082834 0.66425896
0.10806108 -0.23101462 0.65793908
0.10710903 -0.21994279 0.65260547
0.10700495 -0.19371895 0.65210855
0.33669108 1.6781704 1.9538398
0.31647149 1.6706085 1.8391579
0.29833794 1.6728641 1.7363043
0.27365807 1.6881464 1.5963149
0.25829875 1.7034798 1.509191
0.24168448 1.6989747 1.4149668
0.21842672 1.5965898 1.2831502
0.20018803 1.540874 1.1797668
0.18700954 1.5504099 1.1050272
0.17321661 1.5446762 1.0268182
0.16036263 1.5513405 0.9539234
0.14161466 1.5680106 0.84759808
0.1289352 1.5709996 0.77569795
0.11550677 1.5387003 0.69958979
0.10265602 1.5095035 0.62675709
0.090883784 1.5314962 0.5599829
0.078825578 1.5411445 0.49160066
0.066679895 1.5503674 0.4227224
0.048239056 1.5645901 0.31814262
0.036071233 1.5526786 0.24916536
0.023543257 1.5611842 0.17811824
0.011117168 1.5581999 0.10766418
-0.0018847168 1.5693662 0.033924025
-0.010004747 1.4500949 -0.011939025
-0.023249203 1.4702349 -0.08706665
0.038572252 -0.047117412 0.26603246
0.03252117 -0.06435895 0.23191307
0.029713737 -0.06694781 0.21606332
0.026723919 -0.068449266 0.19917707
0.024350721 -0.076610483 0.18579972
0.021640906 -0.081924595 0.17050813
0.016769506 -0.084666908 0.14298552
0.011556645 -0.073826067 0.11346574
0.007405851 -0.072945714 0.08998771
0.002943584 -0.07180877 0.064741693
-0.0045589129 -0.095604405 0.022398816
-0.010304993 -0.14245026 -0.0098994002
-0.010197846 -0.16580458 -0.0091749756
-0.010050138 -0.18817924 -0.0082213944
-0.010789155 -0.21678849 -0.012249208
-0.0099973148 -0.229229 -0.0076953326
-0.010396866 -0.27523842 -0.0096859289
-0.010688442 -0.29246739 -0.011231071
-0.010431247 -0.32741836 -0.0095504457
-0.010378789 -0.34411308 -0.0091429409
-0.010386969 -0.36038888 -0.0090798791
-0.010291573 -0.37651595 -0.0084289173
-0.010437082 -0.39215979 -0.0091455393
-0.010658332 -0.40762848 -0.010291926
-0.01055369 -0.43092364 -0.0095334938
-0.010644694 -0.43858862 -0.0099950694
-0.011125457 -0.46161625 -0.012558189
-0.010751294 -0.47697204 -0.010324284
-0.01080443 -0.49237877 -0.010514836
-0.010936396 -0.50792217 -0.011152148
-0.010611926 -0.53107291 -0.0091430787
-0.010846224 -0.54709834 -0.010359354
-0.010978402 -0.5632937 -0.010995448
-0.011006678 -0.57963723 -0.011041271
-0.011427552 -0.59698373 -0.013312803
-0.010938628 -0.62168103 -0.01036465
-0.01123092 -0.63992822 -0.011903843
-0.011235096 -0.65806919 -0.011807806
-0.011579994 -0.67773223 -0.013642011
-0.011931685 -0.69822884 -0.015512724
-0.011976488 -0.71861506 -0.015641641
-0.011607165 -0.74918443 -0.013356939
-0.010123828 -0.76561069 -0.0048204656
-0.010200411 -0.78900254 -0.0051222588
-0.010353459 -0.81403446 -0.0058542113
-0.009405476 -0.84837258 -0.00027503158
-0.0026381176 -0.82580334 0.038127448
0.012689373 -0.78560835 0.12520221
0.012039832 -0.81331319 0.12165948
0.01462108 -0.82066035 0.13640995
0.019048128 -0.82648623 0.16167577
0.022532791 -0.82473856 0.18153444
0.025569962 -0.82543314 0.19885869
0.02882429 -0.82275361 0.2174082
0.031506367 -0.8245129 0.23271954
-0.18706496 -3.8674517 -1.0009176
-0.18865022 -4.2491193 -1.0089723
-0.17669106 -4.7204165 -0.939897
-0.1609257 -9.5799761 -0.83898807
-0.05809503 -8.364418 -0.25788426
0.029991915 -10.675064 0.24755393
0.092148922 -10.794056 0.60074955
0.15450606 -10.761507 0.95473742
0.22010635 -10.959553 1.3276571
0.28124654 -10.808955 1.6743691
0.34684777 -10.869931 2.0466466
0.37871498 -4.9631543 2.2140098
0.40925446 -4.9417081 2.3872576
0.54657775 -6.1789331 3.1690936
0.5782913 -5.8205042 3.3482633
0.58811694 -5.498426 3.4033349
0.56943959 -4.9544663 3.296231
0.58198744 -4.7311301 3.3669789
0.57756585 -4.3941908 3.3412185
0.57190561 -4.0801001 3.3084888
0.55003303 -3.6865788 3.1836221
0.57863051 -3.6445611 3.3458357
0.57946527 -3.3320384 3.3500135
0.57261616 -3.1020982 3.3107471
0.56987458 -2.9088006 3.2948658
0.57048422 -2.7427342 3.2980585
0.57181716 -2.5883157 3.3053837
0.54647273 -2.3372376 3.1611662
0.57270348 -2.2936399 3.3099804
0.56911653 -2.075155 3.2893233
0.56346053 -1.9280969 3.2570324
0.56042683 -1.7954903 3.2396522
0.55736554 -1.6682843 3.2221298
0.55645609 -1.5507866 3.2168396
0.55407661 -1.4338526 3.2032135
0.55636412 -1.328881 3.2160933
0.55496377 -1.2195284 3.208045
0.56000745 -1.0690172 3.2365401
0.51760173 -0.92238873 2.9957733
0.5603354 -0.8635 3.2382438
0.55195081 -0.75710338 3.1905906
0.54791343 -0.65660483 3.1676176
0.54481936 -0.55841124 3.1500051
0.54060817 -0.46170408 3.12606
0.12063462 -0.42165998 0.74333435
0.10755268 -0.40840539 0.66932487
0.10636245 -0.40539283 0.66261488
0.10531031 -0.39796087 0.65673053
0.1046529 -0.38561201 0.65312779
0.10424472 -0.38186589 0.65085483
0.10363016 -0.3647286 0.6475386
0.10379068 -0.35470748 0.6485337
0.10418654 -0.34359241 0.65086341
0.1047987 -0.33121622 0.65441936
0.10427126 -0.31643197 0.65155572
0.10435952 -0.30449662 0.65214086
0.10392947 -0.29411089 0.64978731
0.10502915 -0.26968709 0.65614873
0.10710315 -0.24513064 0.66799074
0.10530324 -0.23100321 0.65791255
0.10422692 -0.2206507 0.65189499
0.10481901 -0.19929948 0.65533453
0.33460528 1.683844 1.9578716
0.31413877 1.6747642 1.8418938
0.29596198 1.6771148 1.7388989
0.27884904 1.6826195 1.6419381
0.26228267 1.6874379 1.5480797
0.23907901 1.7026105 1.4166265
0.22162972 1.6794448 1.3177792
0.19713959 1.5390174 1.179059
0.18406862 1.5504206 1.1050279
0.17015801 1.5427742 1.0262454
0.1572987 1.5494194 0.95341921
0.14429317 1.5484895 0.87976837
0.12567629 1.5631322 0.774342
0.11259806 1.5436627 0.70028919
0.09944918 1.5005637 0.62584627
0.087907314 1.5384902 0.56048262
0.075709246 1.5351592 0.4914158
0.0635833 1.5603786 0.42274672
0.051291861 1.5621473 0.35314927
0.032781195 1.5626518 0.24833773
0.020427788 1.5592103 0.17839155
0.0077534001 1.565125 0.10662167
-0.0050117569 1.5674143 0.034338515
-0.014128247 1.4734914 -0.017218234
-0.026367417 1.4683145 -0.086516596
0.029591255 -0.0643479 0.23190002
0.027023729 -0.069585636 0.21743755
0.024045013 -0.071036331 0.20064186
0.02168435 -0.079143599 0.18735294
0.019083096 -0.085229725 0.17269874
0.0156892 -0.08541923 0.15354747
0.008813425 -0.075369261 0.1146947
0.0045522531 -0.073689267 0.090623811
0.00032530745 -0.073991738 0.066747174
-0.0077968696 -0.094254881 0.020925645
-0.011424436 -0.12668696 0.00054739299
-0.013285398 -0.14243904 -0.0099102724
-0.013319006 -0.16523413 -0.010003358
-0.013171448 -0.18763807 -0.0090695946
-0.013148237 -0.20860629 -0.0088418797
-0.013118864 -0.22874834 -0.0085799014
-0.013407988 -0.24724264 -0.010125156
-0.013678109 -0.27444577 -0.011516453
-0.013275988 -0.28441709 -0.0091889156
-0.013384068 -0.32740724 -0.0095710019
-0.013328517 -0.34410197 -0.0091645494
-0.013841095 -0.35970283 -0.011981284
-0.013405335 -0.37631407 -0.0094193621
-0.01337723 -0.39214873 -0.009170359
-0.013422891 -0.40773931 -0.0093403962
-0.013658317 -0.43084282 -0.010543553
-0.013640239 -0.4462496 -0.010353598
-0.01352863 -0.46160534 -0.0096337087
-0.013497552 -0.47692618 -0.0093712956
-0.013546733 -0.49229807 -0.0095648766
-0.013847408 -0.50791121 -0.011185929
-0.013707162 -0.52339792 -0.010306358
-0.013984969 -0.53939933 -0.0117993
-0.013702679 -0.56305784 -0.010074574
-0.013894427 -0.57962632 -0.011081472
-0.013811207 -0.59609574 -0.010529226
-0.014112949 -0.61364502 -0.012162279
-0.014293522 -0.63147098 -0.01310896
-0.01450968 -0.64993685 -0.014258801
-0.014273653 -0.67728305 -0.012806631
-0.014619354 -0.69774854 -0.01469506
-0.014658041 -0.71810424 -0.014842729
-0.014689127 -0.73928189 -0.014948916
-0.012648952 -0.76445282 -0.0032662873
-0.012721328 -0.78778815 -0.0036109893
0.035436407 -0.58289862 0.26980773
-0.012869454 -0.81276512 -0.0043880311
-0.013196325 -0.84015024 -0.0061825239
0.010134441 -0.78413534 0.12648016
0.0097177709 -0.81028408 0.12417556
0.015085018 -0.82259238 0.15478075
0.018480526 -0.82203656 0.17412871
0.022805205 -0.82542306 0.19878578
0.025799561 -0.82534158 0.21585743
0.028825065 -0.82361996 0.2331077
-0.1858381 -3.8361416 -0.9882139
-0.18755847 -4.2201653 -0.99845564
-0.1879378 -4.6596727 -1.0011821
-0.15637639 -9.5017319 -0.82921517
-0.07886418 -8.2864885 -0.38785189
-0.0075387806 -8.318821 0.01655096
0.033758525 -10.626063 0.24716218
0.2208875 -10.746361 1.3079869
0.28591198 -10.838728 1.6766465
0.35088685 -10.869929 2.0453269
0.3758983 -4.9232807 2.1975815
0.55238181 -6.2382507 3.1968811
0.55564934 -5.7973537 3.2162251
0.57361835 -5.555665 3.3186507
0.56757522 -4.9385252 3.2854958
0.58207184 -4.7335811 3.3681571
0.5743019 -4.3726196 3.3247428
0.57476455 -4.1049614 3.3278825
0.54833585 -3.6812868 3.1787095
0.5795995 -3.6562531 3.3561976
0.57105726 -3.3919487 3.3082397
0.57353652 -3.1134622 3.3228693
0.56874323 -2.9100742 3.2960787
0.56911993 -2.7433369 3.2985582
0.57064235 -2.5900655 3.3075149
0.54457664 -2.3366644 3.1601191
0.57284379 -2.300514 3.3206117
0.56211513 -2.1251919 3.2600975
0.5577361 -1.9804311 3.2355559
0.55772823 -1.7937825 3.2359109
0.55666322 -1.6717831 3.2301304
0.55457354 -1.5514848 3.2185326
0.55262637 -1.4354614 3.2077353
0.55154556 -1.324475 3.2018433
0.55375296 -1.2213197 3.2145908
0.55598778 -1.1192174 3.2274904
0.51275462 -0.96694165 2.9825428
0.55863225 -0.8641727 3.2430394
0.53500116 -0.74840218 3.1092284
0.54680729 -0.6572088 3.1763968
0.54280245 -0.5585264 3.1538877
0.53837347 -0.46167913 3.1289682
0.11790952 -0.4215363 0.74429309
0.1048208 -0.40819684 0.67027223
0.10344373 -0.40090773 0.66255218
0.10150319 -0.38154045 0.65177345
0.10072236 -0.36472905 0.64752787
0.10072424 -0.3551307 0.64763135
0.10112116 -0.3440471 0.64997709
0.10173427 -0.33170184 0.65355021
0.10106271 -0.31749287 0.6498788
0.10129985 -0.30505705 0.65131879
0.10101262 -0.29411235 0.64978254
0.10062542 -0.27661112 0.64772636
0.1041776 -0.24513221 0.66798872
0.10237718 -0.23100516 0.65791166
0.1013004 -0.22065292 0.65189475
0.10177301 -0.20004494 0.65467632
0.31081516 1.6756127 1.8424999
0.29282531 1.6796765 1.7405183
0.27570459 1.6852334 1.643468
0.25904921 1.689218 1.5490557
0.24230877 1.6855776 1.4541538
0.2209008 1.7153543 1.3328346
0.19393902 1.5408918 1.1798072
0.18086383 1.5523171 1.1057101
0.16695365 1.5446907 1.0268605
0.1542258 1.554251 0.95473158
0.14139611 1.5582336 0.88202012
0.12843554 1.5536456 0.80855912
0.11525197 1.5325084 0.73382026
0.096877277 1.5373552 0.62968576
0.084695555 1.5404775 0.56064844
0.072467431 1.5321516 0.49133921
0.060365628 1.5583673 0.42277181
0.048047841 1.5681303 0.35296658
0.035746735 1.5644202 0.28324604
0.023366317 1.564209 0.21307792
0.0048863408 1.5542399 0.10833303
-0.0078350827 1.557575 0.03623252
-0.018587841 1.5065956 -0.024736673
-0.02979845 1.4750494 -0.088289522
0.028330419 -0.065578088 0.24084653
0.025542598 -0.067809902 0.22510955
0.021384157 -0.072789706 0.20163526
0.019038871 -0.08086174 0.18840539
0.016549619 -0.087739624 0.17435963
0.013480951 -0.090297028 0.15702942
0.0063254223 -0.077726103 0.1165628
0.0021960319 -0.07673458 0.093216971
-0.0026010906 -0.073287912 0.06608437
-0.0097167967 -0.085856251 0.02586958
-0.010915037 -0.10539762 0.019141672
-0.014210195 -0.12671828 0.00055743899
-0.016347274 -0.14129549 -0.011493256
-0.016238771 -0.16470735 -0.010808693
-0.016089674 -0.18714093 -0.0098929303
-0.016365813 -0.20713943 -0.011387993
-0.01603434 -0.22831237 -0.0094362162
-0.01601007 -0.24771492 -0.0092260214
-0.015845316 -0.26681352 -0.0082183536
-0.01586571 -0.28482637 -0.00826021
-0.015924992 -0.30225962 -0.0085220924
-0.015866872 -0.31949347 -0.0081175268
-0.016235819 -0.34387913 -0.010097103
-0.016239593 -0.36018917 -0.010042478
-0.016139582 -0.37635079 -0.0093987165
-0.016109055 -0.39218584 -0.0091486936
-0.016152458 -0.4077768 -0.0093176812
-0.016273119 -0.42320767 -0.0099245775
-0.016299861 -0.43861586 -0.0099983523
-0.01623309 -0.45398238 -0.0095413169
-0.01639249 -0.47700024 -0.010327614
-0.01644001 -0.49240738 -0.010518172
-0.016393691 -0.50784665 -0.010176067
-0.016425088 -0.52343827 -0.010274565
-0.016702076 -0.53944016 -0.011766099
-0.016707584 -0.5554142 -0.011717171
-0.016610317 -0.57966799 -0.011044552
-0.016692946 -0.59643018 -0.011432472
-0.016664675 -0.6133619 -0.011190923
-0.016847651 -0.63115549 -0.012147611
-0.017066671 -0.64958948 -0.013308512
-0.016679671 -0.67645013 -0.010989768
-0.016725654 -0.69591492 -0.011168212
-0.017378947 -0.71814895 -0.014791936
-0.017264707 -0.73879701 -0.014060725
-0.015985193 -0.75578493 -0.0067179552
-0.016137905 -0.77905387 -0.0075006201
-0.015196062 -0.81092304 -0.0020307223
-0.015014438 -0.83560413 -0.00091556902
0.0077615152 -0.78198248 0.12855841
0.0072133224 -0.80881631 0.12553401
0.0075854892 -0.83157164 0.12773159
0.012350283 -0.82263327 0.15485005
0.015745582 -0.82207686 0.17419901
0.018886058 -0.82227826 0.19210234
0.021974444 -0.82166016 0.20971021
0.024752235 -0.82286781 0.22555608
-0.18929759 -4.1941266 -0.98819286
-0.18826172 -4.6049352 -0.98215961
-0.1672104 -9.7404852 -0.86129785
-0.083603173 -8.2865629 -0.38701671
-0.035861444 -8.287549 -0.11599912
-0.0026053959 -10.631456 0.073250778
0.08990901 -10.665092 0.59840512
0.15347351 -10.851379 0.95925552
0.21726209 -10.887804 1.3213501
0.34338525 -10.808635 2.036968
0.45192862 -8.9105482 2.652513
0.37193704 -4.923213 2.1981187
0.55070406 -6.2695827 3.2126708
0.55397236 -5.8245978 3.2311885
0.56116337 -5.4723949 3.2719796
0.54733789 -4.9638605 3.1935153
0.58756047 -4.8104434 3.4217691
0.57336336 -4.3940473 3.3412178
0.57447416 -4.1289167 3.3475382
0.54535568 -3.6849334 3.1823361
0.57582396 -3.6546528 3.355247
0.5699299 -3.4052479 3.321835
0.56408548 -3.1752338 3.2887092
0.56029665 -2.9722998 3.2672505
0.56735957 -2.7499728 3.3073874
0.56826526 -2.5934551 3.312571
0.5399915 -2.3309436 3.1522024
0.57103348 -2.3051443 3.3283727
0.56323951 -2.1390555 3.2842038
0.55637854 -1.9854604 3.2453306
0.55328357 -1.8507533 3.2278261
0.55546367 -1.6759454 3.2402787
0.55213547 -1.5524248 3.2214541
0.55383688 -1.4434649 3.2311656
0.55067438 -1.3278482 3.213284
0.55058122 -1.2206662 3.2128167
0.55267012 -1.1184055 3.2247293
0.50964624 -0.96643698 2.98071
0.55519807 -0.86347705 3.2392294
0.53487486 -0.74983799 3.1239984
0.54393858 -0.6570031 3.1754839
0.53891599 -0.55814737 3.1470573
0.53589785 -0.46154517 3.1300027
0.11549516 -0.42142206 0.74530613
0.11503182 -0.41017205 0.7427541
0.10241048 -0.40800065 0.6712687
0.10105045 -0.40517944 0.66359168
0.099998154 -0.39771408 0.65769899
0.10016563 -0.38376999 0.65876442
0.098767556 -0.38187838 0.65087181
0.098289169 -0.36911482 0.64827359
0.098250456 -0.34496698 0.64824706
0.099416807 -0.33629334 0.65490234
0.098945282 -0.32155192 0.65234351
0.098603822 -0.3056275 0.65052277
0.098463014 -0.2941235 0.64980161
0.098641068 -0.28063774 0.65088946
0.10176813 -0.24448577 0.66874605
0.10053919 -0.23521814 0.66185236
0.099496104 -0.22476105 0.65601313
0.099125192 -0.20079802 0.65402657
0.31037462 1.6914294 1.8528105
0.29099834 1.6839757 1.7429755
0.27376273 1.6887504 1.6452851
0.25692073 1.691031 1.5498277
0.24107902 1.6982027 1.4600452
0.22454856 1.690709 1.3663551
0.19786862 1.5299791 1.2150785
0.17854193 1.5523374 1.1055701
0.16472913 1.5466187 1.027297
0.15194252 1.5552282 0.95484668
0.13926014 1.5631124 0.88298774
0.12619977 1.5565928 0.8089835
0.11312822 1.5404074 0.73491514
0.10067484 1.5373473 0.66435486
0.082334504 1.5394672 0.56044275
0.07019233 1.5451264 0.4916493
0.058010761 1.5613457 0.42263383
0.045677885 1.5701032 0.35275948
0.03345748 1.5584047 0.28352094
0.021000149 1.5641744 0.21294072
0.0086610187 1.5584759 0.14302979
-0.0040463326 1.5630894 0.0710316
-0.022536689 1.5455202 -0.033731408
-0.033854216 1.5107346 -0.097850733
0.026335293 -0.071953766 0.2437512
0.02326992 -0.070515439 0.2264419
0.020233748 -0.070713535 0.20929807
0.016712604 -0.082592525 0.18944076
0.014427245 -0.091091193 0.17655452
0.011480219 -0.094378479 0.15991588
0.0063826451 -0.08264105 0.13108104
0.0010899197 -0.072525769 0.10113909
-0.0035709105 -0.069297798 0.07478039
-0.012610351 -0.083855048 0.023699621
-0.01277315 -0.10872268 0.022850305
-0.015961714 -0.11807492 0.0048405463
-0.018012026 -0.13309385 -0.0067137708
-0.017978653 -0.15654239 -0.0064504175
-0.019047491 -0.18559787 -0.012401214
-0.018731797 -0.20768589 -0.010536527
-0.018704221 -0.22788927 -0.010305893
-0.018682806 -0.24732284 -0.010110185
-0.018361973 -0.26685956 -0.0082162227
-0.018382264 -0.28487232 -0.0082570454
-0.018441357 -0.30230549 -0.0085179461
-0.01838295 -0.31953925 -0.008112425
-0.018543325 -0.33599672 -0.0089478586
-0.01842914 -0.35258076 -0.0082260286
-0.018654052 -0.37639633 -0.0093905861
-0.018794365 -0.39207488 -0.010112429
-0.018665573 -0.40782216 -0.0093079535
-0.018785458 -0.42325297 -0.0099140825
-0.018811338 -0.43866107 -0.0099871038
-0.018917214 -0.4540101 -0.010513975
-0.018756421 -0.4693509 -0.0095283473
-0.018774709 -0.4923825 -0.0095219426
-0.018900383 -0.50789148 -0.010161559
-0.018930508 -0.52348298 -0.010259347
-0.019035205 -0.53931117 -0.010780303
-0.019040434 -0.55525088 -0.01073721
-0.019113421 -0.57152343 -0.011078677
-0.019415222 -0.58848441 -0.012718352
-0.019161634 -0.61340624 -0.011171719
-0.019342784 -0.63119978 -0.012127623
-0.019400081 -0.64924294 -0.012381218
-0.019645378 -0.66835266 -0.013701664
-0.019366752 -0.6964283 -0.012014946
-0.019413447 -0.71669281 -0.012209632
-0.019600477 -0.73831093 -0.01320093
-0.017602151 -0.75247264 -0.0017941773
-0.016368732 -0.76969147 0.0052727284
-0.014078711 -0.8185876 0.018436259
-0.010742756 -0.82655925 0.037431773
0.0043409122 -0.77675396 0.1231207
0.0048664683 -0.80809486 0.12620477
0.0048006452 -0.83393627 0.12589806
0.0096862186 -0.82426167 0.15368931
0.01309372 -0.82374483 0.17309333
0.016341163 -0.82314515 0.19158947
0.019347696 -0.82340139 0.20871878
0.022222551 -0.82376808 0.2251011
0.025055019 -0.82342285 0.24124324
-0.18971936 -4.1680975 -0.97810018
-0.18856724 -4.574789 -0.9716683
-0.085528128 -8.304534 -0.38845742
-0.037430204 -8.2875986 -0.11559314
0.15224931 -10.841364 0.95925671
0.21555252 -10.846905 1.3183404
0.2794337 -10.859454 1.6808581
0.34397316 -10.869767 2.0470066
0.41033375 -10.908932 2.4234684
0.44928664 -8.8823986 2.6454775
0.55201465 -6.3044772 3.2297082
0.55364293 -5.8394523 3.2392237
0.56522584 -5.530262 3.3051293
0.56614077 -5.153667 3.3105578
0.57121235 -4.8520002 3.3395281
0.56459546 -4.4854732 3.3022325
0.57408243 -4.1396532 3.3562992
0.54246205 -3.6787655 3.1772335
0.57550377 -3.6647553 3.3647106
0.57099134 -3.4227939 3.3392944
0.56357223 -3.1832917 3.2973914
0.56203651 -2.9912028 3.288836
0.55935216 -2.8056612 3.2737627
0.5611608 -2.6508474 3.2841578
0.53857207 -2.3336353 3.1562891
0.5683105 -2.3029168 3.3250315
0.56183791 -2.1414523 3.2884619
0.55528027 -1.9886484 3.251406
0.55140918 -1.8515362 3.2295802
0.54856265 -1.7231619 3.2135603
0.54687005 -1.6025195 3.2040818
0.54881853 -1.4378495 3.2153056
0.54727322 -1.3257242 3.2066579
0.54883605 -1.221368 3.2156339
0.55092084 -1.1190087 3.2275684
0.51111192 -0.97057205 3.0019381
0.5276224 -0.89137173 3.0956728
0.53061002 -0.79687542 3.1127234
0.5427137 -0.70657092 3.1814697
0.53816998 -0.55840987 3.155865
0.53392869 -0.46149769 3.1319206
0.11331602 -0.42704412 0.74690133
0.11254057 -0.41599485 0.7425881
0.10043471 -0.41203761 0.67405975
0.098552801 -0.4006846 0.66351283
0.097474895 -0.39329144 0.65748346
0.09669023 -0.3856318 0.65311712
0.096083455 -0.37313366 0.64980161
0.095836297 -0.35956007 0.64852571
0.096114822 -0.34898975 0.6501894
0.096532248 -0.3322072 0.65268314
0.096452326 -0.32156128 0.65231419
0.096437462 -0.31024224 0.65231431
0.095966846 -0.29413357 0.64977187
0.096143663 -0.28064811 0.65085959
0.099269241 -0.24449661 0.66871607
0.098165788 -0.23454723 0.66254264
0.096994281 -0.22477245 0.65598327
0.097294688 -0.20567961 0.65777344
0.096897699 -0.1797495 0.65565139
0.31506461 1.6714648 1.8935443
0.28895006 1.6881876 1.7455809
0.27133584 1.6895878 1.6457767
0.25472772 1.6945342 1.5516794
0.23748982 1.6855909 1.454007
0.22307843 1.7043848 1.3723714
0.19494615 1.52439 1.2128727
0.18215567 1.5408442 1.140429
0.16880018 1.5450853 1.0647782
0.14930497 1.5532733 0.95435441
0.13674708 1.5640647 0.88322961
0.1237098 1.5585357 0.80938214
0.11054114 1.5394009 0.73478609
0.09804748 1.5343524 0.66402233
0.085848399 1.5377029 0.59493196
0.073633559 1.5355973 0.52575105
0.055431526 1.5613356 0.42267129
0.043106329 1.5680966 0.35286874
0.030796617 1.5643848 0.28315139
0.018480506 1.5601938 0.21339816
0.0060883756 1.5574861 0.14321494
-0.0066480553 1.5630929 0.071082607
-0.019403355 1.5630926 -0.0011577971
-0.037006244 1.5223373 -0.10085405
0.023778886 -0.07195536 0.24372916
0.0208693 -0.072297968 0.22731441
0.017841838 -0.072462194 0.21023156
0.015580747 -0.081085697 0.19749148
0.012057166 -0.092746302 0.1776339
0.0093223453 -0.097610384 0.16220936
0.0052037388 -0.092879035 0.13894218
-0.0012596218 -0.074049696 0.10238542
-0.0057979929 -0.07151714 0.076738171
-0.011616459 -0.077001899 0.043872792
-0.015446443 -0.08247678 0.022240054
-0.01509354 -0.11001994 0.024316121
-0.018411651 -0.11868776 0.0055848695
-0.020737497 -0.13247435 -0.0075220452
-0.020708416 -0.15595064 -0.0072804699
-0.020781029 -0.17790963 -0.0076149558
-0.02177307 -0.20616616 -0.013122019
-0.020871492 -0.21926118 -0.0079726093
-0.021430673 -0.24686371 -0.011025285
-0.021113206 -0.26643169 -0.0091474103
-0.021136887 -0.28447607 -0.0092031462
-0.021035979 -0.30228332 -0.0085524358
-0.020978618 -0.3195166 -0.0081484122
-0.021140192 -0.3359735 -0.0089852987
-0.021027086 -0.35255706 -0.0082649915
-0.021146571 -0.3685191 -0.0088630524
-0.021567095 -0.39189333 -0.011127803
-0.021440323 -0.4076747 -0.010329641
-0.021389144 -0.42322683 -0.0099599054
-0.021416361 -0.4386344 -0.01003452
-0.021349963 -0.45400035 -0.0095783751
-0.021537846 -0.46934071 -0.010563668
-0.021285467 -0.48463684 -0.0090530915
-0.021633165 -0.50018388 -0.010944296
-0.021371469 -0.5233143 -0.009340859
-0.021478739 -0.53910744 -0.0098690242
-0.021656651 -0.55522031 -0.010797652
-0.021562776 -0.57125038 -0.010185513
-0.021868031 -0.58817697 -0.011836076
-0.022225063 -0.60566103 -0.013780193
-0.021642631 -0.63045007 -0.010358464
-0.021866299 -0.64881861 -0.011546611
-0.021958737 -0.6674732 -0.011990857
-0.022381106 -0.68774503 -0.014305623
-0.022046668 -0.7166574 -0.012290155
-0.022236036 -0.73827493 -0.013284217
-0.020526458 -0.75355572 -0.0035126882
-0.016195681 -0.75790119 0.021119263
-0.014724075 -0.7965495 0.029620834
-0.014343978 -0.81897265 0.031854775
-0.0093027661 -0.82935297 0.060554031
0.0018298795 -0.77601081 0.12371019
0.0014288498 -0.80127621 0.12151555
0.0028188038 -0.82924908 0.12951411
0.0068416782 -0.82583743 0.15240102
0.010359488 -0.82454455 0.1724245
0.013612738 -0.82396638 0.19094807
0.016624998 -0.82424295 0.20810536
0.019589832 -0.82375425 0.22499382
0.022422843 -0.82341087 0.24113493
-0.19059308 -4.1361856 -0.96658123
-0.1876868 -4.509378 -0.95007735
-0.088460878 -8.2865305 -0.38764939
-0.041089199 -8.3224487 -0.11905675
0.054421458 -10.64667 0.42213008
0.21302007 -10.897852 1.3212526
0.24463585 -10.880336 1.5004888
0.34075847 -10.87001 2.0455527
0.39922363 -10.674614 2.3771229
0.44919115 -8.9455013 2.6608782
0.37601566 -4.8267832 2.2471328
0.55165184 -6.333611 3.2427287
0.54581505 -5.7850766 3.2098324
0.5638687 -5.5444908 3.3123217
0.57731926 -5.282094 3.3887196
0.57287943 -4.8896751 3.3637154
0.56190872 -4.4858308 3.3016889
0.56319219 -4.2134976 3.3091102
0.53088588 -3.7335448 3.1261401
0.5745225 -3.6753428 3.3736804
0.56897575 -3.4266698 3.3423746
0.56285727 -3.1938531 3.3078241
0.56086606 -2.9987452 3.2966654
0.55755675 -2.8097563 3.2780323
0.55939472 -2.6547737 3.2885737
0.54247802 -2.431416 3.1928029
0.55920208 -2.3511081 3.2877223
0.56136554 -2.148752 3.3001616
0.55393207 -1.9926952 3.2581396
0.55055505 -1.8566426 3.2391098
0.54789877 -1.728321 3.2241642
0.54559374 -1.6057888 3.2112079
0.54355979 -1.4881401 3.1997874
0.5441789 -1.379207 3.2034049
0.54645139 -1.2218841 3.2164469
0.54887998 -1.1199373 3.230319
0.52935922 -0.99408287 3.1197629
0.50722861 -0.87533355 2.9944103
0.54444474 -0.80868518 3.2054844
0.54069418 -0.70706385 3.1843233
0.53527558 -0.60705453 3.1537049
0.53313196 -0.46171403 3.1416996
0.11010951 -0.42738333 0.74392539
0.1098665 -0.41020113 0.74269158
0.097741157 -0.40740159 0.67409837
0.094771095 -0.3933076 0.65745276
0.093739219 -0.38157535 0.65174627
0.093374513 -0.3731479 0.64977396
0.093276501 -0.36398166 0.64931339
0.092890814 -0.34544224 0.64731652
0.093664892 -0.33270416 0.6517989
0.094011724 -0.32616338 0.65381205
0.093573265 -0.31079787 0.65146768
0.093386494 -0.29355583 0.65054947
0.093284667 -0.28127328 0.65006554
0.097074538 -0.24954192 0.67164022
0.096132696 -0.23884098 0.666394
0.094269089 -0.2247802 0.65596884
0.094450496 -0.2064182 0.65708834
0.093835793 -0.18205395 0.65374023
0.31446227 1.6869797 1.9042895
0.29454482 1.6786321 1.7914578
0.26908898 1.692151 1.6472625
0.25237909 1.6962703 1.5526105
0.23619139 1.6999466 1.4609183
0.22062969 1.7052771 1.3727741
0.1916195 1.5132487 1.2084453
0.17984667 1.5445908 1.1417733
0.16625053 1.5450763 1.0647733
0.15294839 1.5454614 0.98943979
0.13423148 1.5650364 0.88344073
0.12108546 1.5565718 0.80899376
0.10795133 1.5384148 0.73461723
0.095588312 1.5393184 0.66460526
0.083281539 1.5377073 0.59491253
0.071229465 1.5535781 0.52665651
0.059006367 1.5620346 0.45743299
0.040543906 1.5671048 0.35287476
0.028142357 1.571376 0.28263941
0.015909217 1.5602021 0.21336478
0.0035401997 1.5565042 0.14331608
-0.0091298074 1.5601467 0.071557038
-0.021723328 1.5562533 0.00023431126
-0.034764234 1.559459 -0.073628858
0.025118666 -0.070388056 0.26701006
0.02211176 -0.067921951 0.25005224
0.018234069 -0.074072771 0.22820735
0.015131547 -0.073329933 0.21070784
0.01296231 -0.082793482 0.19850527
0.010672947 -0.090969443 0.18562092
0.008036294 -0.096320488 0.17076585
0.003361553 -0.099966258 0.14439951
-0.0037271453 -0.07634414 0.10428396
-0.0084847622 -0.072257571 0.077396467
-0.014667154 -0.075586483 0.042479672
-0.018126419 -0.083158523 0.022960287
-0.018298957 -0.10805199 0.022087956
-0.02176586 -0.11617175 0.0025256104
-0.019257171 -0.15113176 0.016863577
-0.023815323 -0.154806 -0.0088891955
-0.023899373 -0.17682341 -0.0092604728
-0.023662591 -0.19900036 -0.0078120423
-0.023707695 -0.21926512 -0.0079629468
-0.024273122 -0.24686849 -0.01101323
-0.023662623 -0.25796831 -0.0074979528
-0.02414909 -0.28410715 -0.010100693
-0.024217779 -0.30160546 -0.010385957
-0.023838304 -0.31952316 -0.008129281
-0.024003915 -0.33598056 -0.0089643896
-0.024231922 -0.35208082 -0.010153369
-0.024018466 -0.36852711 -0.0088384338
-0.024041707 -0.38439831 -0.0088659544
-0.024137886 -0.40001827 -0.0093070669
-0.024137903 -0.41557509 -0.0092026899
-0.02447976 -0.43859234 -0.010984508
-0.024244027 -0.45401099 -0.0095428005
-0.024088643 -0.4693169 -0.0085566323
-0.024534538 -0.48475322 -0.010980083
-0.024366388 -0.5001089 -0.0099210972
-0.024450058 -0.51566154 -0.010289872
-0.024224386 -0.53894705 -0.0088511184
-0.024577526 -0.55523413 -0.010747097
-0.02465648 -0.57150662 -0.011087929
-0.024630552 -0.5879162 -0.010833656
-0.02499372 -0.60536748 -0.012785062
-0.025073953 -0.62276626 -0.0131317
-0.024651699 -0.64844435 -0.010574297
-0.024751326 -0.66706759 -0.011029446
-0.025335943 -0.68776274 -0.014233348
-0.025456887 -0.707959 -0.014807727
-0.025574053 -0.72898072 -0.015359786
-0.024075279 -0.75581115 -0.0066940915
-0.018048855 -0.75321513 0.027579049
-0.013524698 -0.82358956 0.053682007
-0.0012913777 -0.77673882 0.12312303
-0.0014613584 -0.80054218 0.12227587
-0.0016281982 -0.82630545 0.12144844
0.0038226531 -0.82584399 0.15250972
0.0070372326 -0.82700676 0.17084043
0.010490783 -0.82480794 0.1905238
0.013593552 -0.82424408 0.20821919
0.016470017 -0.82462829 0.22463199
0.019304316 -0.82429957 0.24080515
-0.20180184 -4.0638647 -1.0101393
-0.18780026 -4.4527845 -0.93020296
-0.18803105 -4.9592528 -0.93093544
-0.095505737 -8.4397678 -0.40218508
-0.045508578 -8.334466 -0.11855386
-0.010307433 -10.366636 0.08319924
0.175972 -10.871164 1.1407747
0.23756242 -10.758832 1.4897444
0.30178168 -10.794969 1.8541095
0.39532697 -10.704758 2.3847318
0.43755144 -8.7945004 2.6225827
0.37535167 -4.8707094 2.2664006
0.53282827 -6.42311 3.1611524
0.52954853 -5.8796306 3.1421173
0.55948985 -5.5415125 3.3117456
0.57856995 -5.3308921 3.4198499
0.57595056 -4.949811 3.4047141
0.56123936 -4.5113487 3.3209398
0.56112397 -4.2265263 3.3200979
0.52654439 -3.729373 3.1235752
0.55824369 -3.7096996 3.303436
0.55821675 -3.4898355 3.3031576
0.56080687 -3.2023666 3.3176999
0.56139261 -3.0193899 3.3209317
0.55635613 -2.8207412 3.2922595
0.55690306 -2.6592481 3.2952914
0.55058157 -2.4781182 3.2593477
0.55274659 -2.3398833 3.2715797
0.55415481 -2.2043128 3.2795219
0.55214077 -1.9975371 3.2680271
0.54757249 -1.8576412 3.2420669
0.54478991 -1.7288226 3.2262456
0.54251301 -1.6062309 3.2132986
0.54360461 -1.4950186 3.2194686
0.54164332 -1.3804519 3.2083194
0.54073906 -1.2709836 3.2031708
0.54522455 -1.1191931 3.2285953
0.53425384 -1.0029577 3.1663432
0.5012325 -0.87256646 2.9790058
0.54342437 -0.809986 3.2183452
0.53797203 -0.70704782 3.1874065
0.5337882 -0.60730594 3.1636665
0.5286485 -0.5095126 3.1345062
0.10767581 -0.42702594 0.74692619
0.10690276 -0.41597658 0.74261278
0.09531153 -0.41144758 0.67698449
0.093444206 -0.40449369 0.66646802
0.092011705 -0.3929984 0.65845466
0.091061816 -0.38561445 0.65314162
0.090457693 -0.37311623 0.64982599
0.090054639 -0.35994935 0.6476503
0.089985013 -0.34541219 0.64736468
0.090610698 -0.33315912 0.65098423
0.090538949 -0.32257357 0.65064937
0.090532728 -0.31131363 0.65068567
0.091007188 -0.29759112 0.65344626
0.090668894 -0.28650609 0.65159917
0.093660608 -0.25208458 0.66866046
0.093255118 -0.23881318 0.66643035
0.092115559 -0.22892371 0.66003966
0.091464415 -0.20712368 0.65644968
0.091480032 -0.18843004 0.65660357
0.31097946 1.6813474 1.9002367
0.29214767 1.6820801 1.793505
0.27407825 1.6822065 1.6910977
0.25655991 1.6803677 1.5918183
0.23275951 1.6919254 1.456937
0.21810387 1.7080797 1.3738794
0.19493897 1.5995303 1.2426645
0.1770542 1.5436981 1.141353
0.16368519 1.5479711 1.0656034
0.1503717 1.5483822 0.99017221
0.13757141 1.5546536 0.91764677
0.12445495 1.5484676 0.84333879
0.10530421 1.5404115 0.73484778
0.092849225 1.5373507 0.66428906
0.080620475 1.5397136 0.59500909
0.068396255 1.5376105 0.52575856
0.056329198 1.5630414 0.45737624
0.044030644 1.5670367 0.38769907
0.031717639 1.5655591 0.31794462
0.013226584 1.5611926 0.2131926
0.00087964337 1.5564973 0.14324847
-0.01178584 1.5601372 0.071490586
-0.024591263 1.5621099 -0.0010595754
-0.037495732 1.561385 -0.074169211
0.022333011 -0.026584383 0.26675621
0.022100206 -0.066681862 0.26555109
0.019426517 -0.068838522 0.25046962
0.016821455 -0.072486132 0.23577866
0.012634684 -0.075958014 0.21215706
0.010304667 -0.083655268 0.19902949
0.0082115419 -0.093490355 0.18724735
0.0055923932 -0.098783217 0.17247784
0.0022564991 -0.09908811 0.15363885
-0.0063490546 -0.077116974 0.10493311
-0.010518393 -0.076723494 0.081366353
-0.015843315 -0.071072631 0.051240847
-0.01980895 -0.07544525 0.028833428
-0.021414559 -0.10609175 0.019874461
-0.024621107 -0.11555042 0.001776688
-0.022947811 -0.14692686 0.011375057
-0.026817353 -0.15366668 -0.010485464
-0.027052673 -0.17519709 -0.011720803
-0.026526963 -0.1984926 -0.0086382385
-0.026573876 -0.2187874 -0.0088060433
-0.026623948 -0.23831369 -0.0089924345
