# .PCD v0.7 - Point Cloud Data file format
VERSION 0.7
FIELDS x y z
SIZE 4 4 4
TYPE F F F
COUNT 1 1 1
WIDTH 1075
HEIGHT 1
VIEWPOINT 0 0 0 1 0 0 0
POINTS 1075
DATA ascii
-0.012928844 -0.70935673 0.0051029404
-0.02611017 -0.68765783 0.0051577431
-0.035498757 -0.67326063 0.0059063933
-0.18926862 -0.66755021 0.0052889436
-0.17191243 -0.6555357 0.0052449037
-0.056089304 -0.64932829 0.0058859922
-0.061610304 -0.64425844 0.0050589419
-0.12606183 -0.62276584 0.005728473
-0.080858774 -0.6178993 0.0056199818
-0.11318956 -0.61298543 0.0055762241
-0.10733884 -0.60815662 0.0057250485
-0.01648752 -0.70070678 0.0061818571
-0.21450797 -0.68629825 0.0064158891
-0.21144193 -0.68624598 0.0064014918
-0.041236456 -0.66620725 0.0066582677
-0.065669164 -0.63810444 0.0060002939
-0.13174172 -0.62708527 0.0067279474
-0.022504287 -0.69942272 0.0076098018
-0.20292781 -0.67851418 0.0075476528
-0.19500837 -0.67209125 0.0074108723
-0.051310841 -0.66003972 0.0070760595
-0.17769936 -0.65996051 0.0070110606
-0.14685081 -0.63693798 0.0075575993
-0.071853086 -0.63208282 0.0071255867
-0.070667394 -0.63150901 0.007919482
-0.079475485 -0.6168679 0.0072949594
-0.10022387 -0.60245675 0.0077107856
-0.087422319 -0.60248357 0.0077543384
-0.032213166 -0.68440026 0.0086410902
-0.048749682 -0.65882373 0.0085731
-0.047712151 -0.65882677 0.0085775098
-0.057199143 -0.6531834 0.0083176512
-0.066741496 -0.6413967 0.0089947814
-0.059471954 -0.64197415 0.0082099782
-0.13719091 -0.63095737 0.0086968932
-0.076169975 -0.62601918 0.0083667962
-0.11859509 -0.61636376 0.0081232842
-0.086009674 -0.61093432 0.0089204293
-0.084804572 -0.61094904 0.0089389598
-0.10560913 -0.60668486 0.008247016
-0.094602026 -0.60197121 0.0085890358
-0.027027555 -0.69023812 0.0097944634
-0.026002837 -0.69022977 0.0097630853
-0.20919524 -0.68366128 0.0091921333
-0.18367989 -0.66454834 0.0090868706
-0.04945318 -0.65821743 0.0093200998
-0.16940995 -0.65257525 0.0090636229
-0.16613314 -0.65200394 0.0098330872
-0.055577587 -0.65199763 0.0098431567
-0.06096191 -0.64639467 0.0097309304
-0.10695028 -0.64144546 0.0090134172
-0.15242791 -0.6408391 0.0097765345
-0.10795427 -0.64083517 0.0097600343
-0.14329749 -0.63586169 0.0091542099
-0.12408543 -0.6206851 0.0090494156
-0.016693318 -0.70391208 0.010399321
-0.030172357 -0.68245876 0.010762699
-0.036202978 -0.67590088 0.010343237
-0.1928799 -0.6695689 0.010315653
-0.042234063 -0.66943389 0.010192611
-0.040981911 -0.66879857 0.010913405
-0.17565057 -0.65755278 0.010031213
-0.054312721 -0.65138954 0.010590593
-0.15849638 -0.64584297 0.01052849
-0.06891536 -0.62987167 0.010337423
-0.07431595 -0.62444997 0.01084092
-0.11101165 -0.60998225 0.010642986
-0.093171313 -0.60101956 0.0103002
-0.085306786 -0.59639567 0.010783571
-0.012941894 -0.71052176 0.011469093
-0.015097633 -0.70256138 0.011746214
-0.19914037 -0.67469567 0.011821914
-0.18921159 -0.66836166 0.011811562
-0.059541248 -0.64523447 0.011293611
-0.078996785 -0.61909109 0.011507696
-0.01163773 -0.7098406 0.012132937
-0.016783003 -0.7018941 0.012416953
-0.20677094 -0.6804201 0.012730062
-0.18140106 -0.6620903 0.012016452
-0.047329176 -0.66139323 0.012683196
-0.16395634 -0.64956963 0.012838336
-0.11550763 -0.64464223 0.012049943
-0.11426158 -0.64406198 0.012843354
-0.10812987 -0.64466113 0.01206537
-0.057959687 -0.64407903 0.012844446
-0.064702272 -0.63912058 0.012137545
-0.063286737 -0.63853997 0.012902816
-0.14119928 -0.63364756 0.012368411
-0.07005062 -0.63364059 0.012345895
-0.13511176 -0.62818825 0.012715753
-0.085644081 -0.61372006 0.012242825
-0.021738868 -0.6934303 0.013739218
-0.21453422 -0.68688923 0.013110504
-0.030485602 -0.68630052 0.013974212
-0.20314208 -0.67979974 0.013427152
-0.055763014 -0.655186 0.013082875
-0.17003311 -0.654603 0.013839583
-0.13159837 -0.62765914 0.013538465
-0.10024306 -0.60382432 0.013421278
-0.092933267 -0.6038301 0.013446705
-0.022213634 -0.69990093 0.014469124
-0.020448079 -0.69275516 0.014408313
-0.0312928 -0.68563706 0.014651644
-0.03705395 -0.67845678 0.014820618
-0.035883684 -0.6784721 0.014830678
-0.18724172 -0.66647923 0.014027773
-0.17948145 -0.66014773 0.014159322
-0.058414217 -0.64845234 0.014437483
-0.1562348 -0.64291918 0.014387506
-0.14669114 -0.63736373 0.014436316
-0.075192057 -0.62715036 0.014396043
-0.082030617 -0.62231749 0.01411882
-0.079952709 -0.62228811 0.014094222
-0.078693748 -0.62174416 0.01490354
-0.082912743 -0.61223775 0.014766594
-0.10570901 -0.60750765 0.014870806
-0.020460533 -0.69853848 0.015788816
-0.026054256 -0.69138938 0.015798228
-0.02507419 -0.69138831 0.01578588
-0.028899714 -0.68500042 0.015384387
-0.21247374 -0.68488789 0.015158381
-0.034608942 -0.67784369 0.015563586
-0.041466881 -0.67069429 0.015945259
-0.17583875 -0.65897697 0.015688917
-0.1525328 -0.6417045 0.015914822
-0.12992264 -0.62601852 0.015975958
-0.072703972 -0.62606162 0.015996546
-0.11839602 -0.61647809 0.015610491
-0.090292022 -0.60287893 0.01518418
-0.011736376 -0.7129612 0.016543996
-0.015683036 -0.70501143 0.01668738
-0.014638171 -0.7050091 0.016684685
-0.019140214 -0.69785321 0.016448274
-0.15815473 -0.67655766 0.016955223
-0.19288023 -0.67018205 0.016777996
-0.040177651 -0.67005342 0.016661528
-0.050679639 -0.66456461 0.016150001
-0.1851296 -0.66398805 0.016944775
-0.07365188 -0.62607545 0.0160033
-0.12377512 -0.62074345 0.016586613
-0.086161278 -0.61592138 0.01642048
-0.093750112 -0.60654092 0.016621912
-0.08756844 -0.59776938 0.016407555
-0.086336911 -0.59317243 0.016884791
-0.062436521 -0.71206045 0.0170408
-0.012450267 -0.7122665 0.017192768
-0.010145799 -0.71225566 0.017168241
-0.13728221 -0.71156979 0.017858842
-0.060954522 -0.70344442 0.017828958
-0.055644736 -0.70348728 0.017892804
-0.062130988 -0.69636369 0.017688785
-0.21846196 -0.68931955 0.017764168
-0.20719936 -0.68227822 0.017964276
-0.047884881 -0.66328251 0.017581964
-0.070433855 -0.63511622 0.017605428
-0.069304183 -0.63512468 0.017608562
-0.13876064 -0.630283 0.017131498
-0.111054 -0.61064565 0.017236998
-0.062941112 -0.71064925 0.018286806
-0.05320869 -0.70283318 0.018574866
-0.06080088 -0.69566631 0.018323168
-0.058761004 -0.69562399 0.018278064
-0.054749861 -0.65652871 0.018663393
-0.1674943 -0.65098798 0.018373929
-0.15048482 -0.63935006 0.018980378
-0.068082057 -0.63453406 0.018376313
-0.1221861 -0.61910421 0.018998956
-0.11624923 -0.61439139 0.01891241
-0.083281495 -0.61441392 0.0189484
-0.053842817 -0.70213264 0.019204296
-0.15759166 -0.68100905 0.019376652
-0.19868736 -0.67463964 0.019059783
-0.17349029 -0.65587866 0.019380113
-0.055718523 -0.65589011 0.01937644
-0.16398478 -0.65032381 0.019072397
-0.066136464 -0.64424193 0.019721558
-0.13496152 -0.6285888 0.019494381
-0.082129866 -0.61390185 0.019788081
-0.10356466 -0.60451752 0.019934338
-0.066773057 -0.70792615 0.020881839
-0.055112824 -0.70797449 0.020973826
-0.21610634 -0.68668568 0.02048688
-0.035212431 -0.68030739 0.020072568
-0.034218393 -0.68032062 0.020095417
-0.032788161 -0.67968023 0.020809693
-0.041088779 -0.67316169 0.020328563
-0.040083714 -0.67317271 0.020342359
-0.053131945 -0.65529418 0.020133307
-0.060378116 -0.64916742 0.020637533
-0.15606216 -0.64370406 0.020540996
-0.10434884 -0.63821608 0.02054216
-0.078598201 -0.62269288 0.020757241
-0.093109511 -0.60867029 0.020654418
-0.092128299 -0.60866636 0.020639991
-0.12187921 -0.71531057 0.021692581
-0.067563698 -0.7072441 0.021553367
-0.049445566 -0.70737392 0.0217389
-0.025525104 -0.69311458 0.021156339
-0.024255009 -0.69245094 0.021822413
-0.028884903 -0.68609524 0.021354064
-0.027939735 -0.68609095 0.02134956
-0.21273236 -0.68596542 0.021151572
-0.19638221 -0.67201322 0.021848395
-0.037564877 -0.67255938 0.021072736
-0.15822877 -0.67199153 0.021847602
-0.15188619 -0.6664322 0.021156373
-0.048705485 -0.66571563 0.021793874
-0.047639344 -0.66569895 0.021776697
-0.045448218 -0.66569072 0.02177815
-0.1791883 -0.66013092 0.021209279
-0.058164507 -0.64857477 0.021396575
-0.14649728 -0.63760251 0.021263577
-0.11779961 -0.63769287 0.021371799
-0.061531518 -0.63763171 0.021305885
-0.12731372 -0.62220824 0.021632554
-0.09091001 -0.60815787 0.021454275
-0.076092459 -0.72241241 0.022399351
-0.069507159 -0.72162157 0.022947259
-0.0090040704 -0.714598 0.022286436
-0.068116099 -0.71368629 0.022736926
-0.015119868 -0.7066744 0.022282351
-0.014146428 -0.70667475 0.022280276
-0.059703492 -0.69864404 0.022407405
-0.019326521 -0.69884855 0.022579031
-0.018313743 -0.6988408 0.022567829
-0.022688244 -0.69179612 0.022495087
-0.20424637 -0.67831624 0.022116506
-0.15748249 -0.67835277 0.022138653
-0.16457628 -0.67767465 0.022758281
-0.19307339 -0.67134422 0.022548124
-0.1853599 -0.66517794 0.022629324
-0.15234672 -0.6651355 0.022570958
-0.044151079 -0.66503137 0.02246364
-0.16165045 -0.64730364 0.022835966
-0.056657176 -0.64735436 0.022894388
-0.068607397 -0.63646215 0.022855705
-0.067393892 -0.63644826 0.02284212
-0.13893951 -0.63169873 0.022304228
-0.13288793 -0.62633348 0.022672761
-0.1086487 -0.60759437 0.022269815
-0.1022367 -0.60764104 0.022299863
-0.010341974 -0.71317124 0.023515491
-0.0093215955 -0.71316946 0.023514763
-0.062568478 -0.7129941 0.023403378
-0.054168466 -0.69797063 0.023098165
-0.21043064 -0.68330115 0.023842493
-0.16585284 -0.68330359 0.023825912
-0.033160128 -0.68338913 0.023994897
-0.15849403 -0.67006528 0.023961764
-0.15228951 -0.67078608 0.023334473
-0.045957286 -0.66443157 0.023232957
-0.12437522 -0.64126831 0.023510981
-0.072908208 -0.63115585 0.023129024
-0.072262034 -0.62585258 0.023523556
-0.076977707 -0.62103862 0.023173928
-0.091610156 -0.6112715 0.023891592
-0.077879332 -0.7289294 0.024034576
-0.069834083 -0.72019976 0.024171431
-0.068607517 -0.71229219 0.024003407
-0.056878723 -0.68955511 0.024288837
-0.16658986 -0.68262678 0.024496892
-0.033839859 -0.68270934 0.024654359
-0.20227544 -0.67635143 0.024165921
-0.16509214 -0.67635071 0.02416455
-0.040766258 -0.67556143 0.024752589
-0.15308085 -0.67011452 0.024034798
-0.14907734 -0.65706241 0.024902165
-0.053664975 -0.65708363 0.024924111
-0.052895505 -0.65770632 0.024189621
-0.16735084 -0.65159792 0.024571242
-0.11225593 -0.64071792 0.0243541
-0.062504023 -0.64068174 0.024292951
-0.14447932 -0.63529778 0.024397887
-0.082362331 -0.61539793 0.024752401
-0.08943487 -0.6106931 0.024681075
-0.078109212 -0.72751641 0.025248002
-0.066634014 -0.70308536 0.025425456
-0.15712005 -0.67505318 0.025575113
-0.038349833 -0.67493713 0.025474207
-0.19079174 -0.66880548 0.025400262
-0.044124454 -0.66799653 0.025957111
-0.042967301 -0.6679793 0.025941903
-0.15029415 -0.64004111 0.025047524
-0.1310744 -0.62468344 0.025071688
-0.12205058 -0.61948085 0.025658004
-0.069557525 -0.71734405 0.026625454
-0.019442048 -0.70249969 0.02612048
-0.059718095 -0.70160377 0.026604911
-0.023747444 -0.69477725 0.026560571
-0.022762127 -0.69476956 0.026550803
-0.036870625 -0.67430663 0.026197253
-0.15854517 -0.67371714 0.026919112
-0.044762827 -0.66737199 0.026674669
-0.17291421 -0.65581566 0.026376193
-0.057365473 -0.65035743 0.026061319
-0.056256533 -0.65035975 0.026061269
-0.11850971 -0.61887228 0.026403839
-0.092617452 -0.61429161 0.026353678
-0.10351157 -0.60506189 0.026442708
-0.014877471 -0.70894897 0.027287604
-0.013287902 -0.70824248 0.02791643
-0.021445028 -0.69407296 0.027194269
-0.027948435 -0.68704933 0.027264861
-0.026962474 -0.68703848 0.027238419
-0.2159584 -0.68698174 0.02709692
-0.19650401 -0.67303133 0.027588256
-0.1790767 -0.66062242 0.027526166
-0.15575081 -0.64370328 0.027373493
-0.14232145 -0.63299036 0.027526161
-0.13654397 -0.62824106 0.027003156
-0.069427498 -0.62770903 0.027826358
-0.12721185 -0.62304294 0.027513621
-0.11447165 -0.61315197 0.027924599
-0.10857916 -0.60855383 0.027925642
-0.08653108 -0.60852486 0.027923709
-0.017490042 -0.70041066 0.028043238
-0.21417069 -0.68559903 0.028402651
-0.18848974 -0.66621172 0.028247736
-0.052047435 -0.65940624 0.028998915
-0.063222371 -0.64309114 0.028115826
-0.15743282 -0.64251494 0.028895648
-0.061785165 -0.64248586 0.028879438
-0.060672332 -0.64249492 0.028882213
-0.1097687 -0.63713807 0.028916193
-0.10249733 -0.63704312 0.028817708
-0.067624032 -0.63771111 0.028132241
-0.066574082 -0.63771975 0.028139031
-0.073170215 -0.63241017 0.028299026
-0.082807206 -0.617293 0.028882271
-0.099778347 -0.60410708 0.028191591
-0.06224158 -0.67176265 0.029016232
-0.18472287 -0.66494966 0.029655667
-0.15720211 -0.66487664 0.029586781
-0.051080216 -0.65940726 0.029003473
-0.17710742 -0.65877914 0.029734043
-0.052830756 -0.65877545 0.029725449
-0.049758784 -0.65877247 0.029723838
-0.17083773 -0.65332389 0.029284867
-0.16146813 -0.64791733 0.029036414
-0.064986162 -0.63654023 0.029668417
-0.074742869 -0.63126159 0.029853908
-0.1289092 -0.62188804 0.029068632
-0.10141292 -0.60303646 0.029800262
-0.10465188 -0.72113901 0.030792639
-0.0099427039 -0.70542914 0.030434126
-0.20207226 -0.6766457 0.03064549
-0.062580988 -0.67045629 0.030404305
-0.043685734 -0.67025924 0.030224957
-0.16707045 -0.65201986 0.030706992
-0.15370266 -0.64125562 0.030377921
-0.12816532 -0.64122617 0.030338906
-0.14028865 -0.63065273 0.030612884
-0.081375949 -0.61618835 0.030497983
-0.07923691 -0.61617362 0.030494325
-0.089388698 -0.61153722 0.030355578
-0.091173492 -0.60704601 0.030461099
-0.095749296 -0.59806442 0.030965652
-0.027628981 -0.68925571 0.031834949
-0.20993686 -0.68287581 0.03109123
-0.061088301 -0.68286747 0.031045789
-0.030028934 -0.68230397 0.031931624
-0.20064752 -0.67600119 0.031322196
-0.037264924 -0.67593247 0.031307455
-0.063360035 -0.66979957 0.031106317
-0.18274243 -0.66291374 0.031690765
-0.048198957 -0.65747112 0.031131409
-0.056385383 -0.65143049 0.031475257
-0.074741058 -0.64601213 0.031201024
-0.15084222 -0.64539653 0.031935062
-0.15014358 -0.64063168 0.031082084
-0.0800808 -0.63480699 0.031979192
-0.12497056 -0.62026328 0.031490408
-0.11025412 -0.61099464 0.031156501
-0.08678516 -0.61044341 0.031988885
-0.094400316 -0.59751934 0.03177784
-0.1027014 -0.71896803 0.032605082
-0.018487724 -0.70328176 0.032266758
-0.017182419 -0.70257944 0.032907669
-0.015924977 -0.70258445 0.032921415
-0.021579808 -0.69557375 0.032575916
-0.20821455 -0.68155497 0.032439161
-0.1931596 -0.68149871 0.032372646
-0.031847455 -0.68161178 0.032567278
-0.030820824 -0.68162102 0.032583587
-0.19363175 -0.67465514 0.032715872
-0.063167118 -0.67465621 0.032682531
-0.061963707 -0.67465079 0.032679707
-0.18587479 -0.66840929 0.032423444
-0.045854364 -0.66833574 0.032336019
-0.040716313 -0.66827619 0.032294404
-0.16524042 -0.65014637 0.032898314
-0.14206754 -0.65085053 0.032245282
-0.15789083 -0.64483708 0.032739505
-0.13985507 -0.6448279 0.032744702
-0.13584189 -0.64480942 0.032702748
-0.082573719 -0.644822 0.032716289
-0.11044727 -0.63946438 0.032637294
-0.069031782 -0.63944566 0.032630146
-0.12761873 -0.63413072 0.032667927
-0.069271557 -0.63414818 0.032680992
-0.12177857 -0.62944102 0.032127772
-0.12902117 -0.62892306 0.032945033
-0.12272038 -0.62884319 0.032880899
-0.080168486 -0.62887704 0.032916114
-0.075972401 -0.62894326 0.032963421
-0.074910305 -0.62894917 0.032964818
-0.077546678 -0.62423837 0.032507837
-0.074299268 -0.62431896 0.032560956
-0.12380187 -0.61967212 0.032251272
-0.11770428 -0.61454344 0.032885671
-0.11136467 -0.61450148 0.032852646
-0.10479283 -0.61051553 0.032041479
-0.091796041 -0.61002189 0.032882243
-0.085768603 -0.61046028 0.032007225
-0.10557432 -0.60997611 0.032840025
-0.098263055 -0.609981 0.032866277
-0.091770016 -0.60599571 0.032133006
-0.013661542 -0.7096976 0.033550564
-0.063490197 -0.6940459 0.033768516
-0.20708553 -0.687154 0.033673409
-0.062709786 -0.68708259 0.033621568
-0.029804878 -0.68722296 0.033885974
-0.19363588 -0.68023896 0.033783842
-0.061404228 -0.68084711 0.033054926
-0.18856655 -0.66716897 0.033888862
-0.187582 -0.66717958 0.033914976
-0.18668093 -0.66784501 0.03319256
-0.053835396 -0.66711998 0.033821926
-0.046670776 -0.66769332 0.033057272
-0.18117067 -0.66159886 0.033075247
-0.17557989 -0.66103691 0.033844646
-0.067340501 -0.66105282 0.033885185
-0.060287762 -0.66167063 0.033136789
-0.053712767 -0.66166872 0.033129979
-0.047524851 -0.66160637 0.033087499
-0.17035306 -0.66099662 0.033824433
-0.16928585 -0.65554804 0.03327303
-0.14391173 -0.6555956 0.033321265
-0.05988469 -0.65559924 0.03332857
-0.054599758 -0.65560555 0.033319876
-0.16394523 -0.64952439 0.033632938
-0.15757406 -0.64950281 0.033628885
-0.15214498 -0.64955103 0.033662185
-0.065073401 -0.64955574 0.033666708
-0.15232587 -0.64414406 0.033397309
-0.083461799 -0.6442253 0.033472441
-0.06961295 -0.64418459 0.033453461
-0.06114113 -0.64419603 0.033467155
-0.060055494 -0.64420605 0.033470254
-0.14616531 -0.63886064 0.033387158
-0.12928915 -0.63881356 0.033338472
-0.12298717 -0.63883024 0.033340938
-0.07501632 -0.63885427 0.03336494
-0.075286686 -0.63360184 0.033488404
-0.12930156 -0.62371504 0.033335514
-0.12285261 -0.62371802 0.033309869
-0.11651211 -0.62367707 0.033275731
-0.085847393 -0.62371939 0.033338841
-0.078349508 -0.6236493 0.033265285
-0.12156679 -0.6191085 0.033037279
-0.085273355 -0.61915624 0.033089388
-0.082106374 -0.61911178 0.033060506
-0.080028288 -0.61908346 0.033036038
-0.1180215 -0.61849463 0.033793535
-0.11172023 -0.61851257 0.033797085
-0.11043317 -0.61853266 0.033814155
-0.10487999 -0.61398321 0.033706173
-0.086760476 -0.6139558 0.033676315
-0.085731976 -0.61397076 0.033675741
-0.10861576 -0.60942268 0.033639893
-0.10664368 -0.60942101 0.033639126
-0.099074237 -0.60942322 0.033654433
-0.093285665 -0.60496742 0.033812497
-0.09432175 -0.6009739 0.033139296
-0.13226113 -0.70895261 0.034175556
-0.011248925 -0.70898491 0.034155715
-0.2138689 -0.69341528 0.034482572
-0.026077863 -0.69348711 0.034521595
-0.21427567 -0.68641406 0.034341287
-0.21319464 -0.68642151 0.034316696
-0.20756999 -0.68575627 0.034982249
-0.041899737 -0.68572658 0.034975566
-0.062808417 -0.67951828 0.034408644
-0.047063608 -0.67933404 0.034243576
-0.17721646 -0.67328554 0.034019154
-0.19597477 -0.67258751 0.034661829
-0.19496578 -0.67260593 0.034685668
-0.19384968 -0.67265677 0.034721639
-0.18213686 -0.67265904 0.034717269
-0.18187644 -0.66649675 0.034548875
-0.1766275 -0.66650844 0.034553129
-0.17625505 -0.66037434 0.034552816
-0.15942508 -0.66035271 0.034522731
-0.068000451 -0.66039783 0.034583706
-0.048882525 -0.66033673 0.034511212
-0.047895964 -0.66032183 0.034497488
-0.17056045 -0.6546526 0.034399658
-0.16458803 -0.65433592 0.034766145
-0.15808927 -0.65426856 0.034695752
-0.15303043 -0.65495175 0.034000367
-0.072122671 -0.65429348 0.034718126
-0.060425285 -0.65432143 0.034761108
-0.055391431 -0.65497035 0.03404602
-0.14658909 -0.64888418 0.03435526
-0.060654934 -0.64895409 0.034421228
-0.13100521 -0.6435017 0.034125119
-0.080922842 -0.64359999 0.034200009
-0.075632386 -0.64357167 0.034171406
-0.14755479 -0.64294958 0.034919214
-0.14120655 -0.64294618 0.034927428
-0.14062431 -0.63821524 0.034103747
-0.12143756 -0.63824683 0.034110356
-0.098073088 -0.63829237 0.034166299
-0.085486554 -0.63822097 0.034111336
-0.075920708 -0.63826483 0.034138795
-0.14782837 -0.63760388 0.034818914
-0.14680308 -0.63762838 0.034857526
-0.1244293 -0.63762695 0.03484552
-0.13632679 -0.63237464 0.034981616
-0.13558535 -0.63296968 0.034239318
-0.12275007 -0.63292098 0.034159195
-0.071826003 -0.63297313 0.034217935
-0.12945735 -0.62779045 0.034526855
-0.12320988 -0.62769985 0.034442637
-0.080716021 -0.62769389 0.034436438
-0.12391371 -0.62313843 0.034095839
-0.080119506 -0.62308246 0.034050494
-0.12468436 -0.62258309 0.034902625
-0.11818454 -0.62250721 0.034847789
-0.11177281 -0.62255555 0.034879424
-0.11073103 -0.62260008 0.034924831
-0.086345524 -0.62258685 0.034903839
-0.086833358 -0.61801928 0.034662988
-0.11248416 -0.61795712 0.034588952
-0.10561351 -0.61347175 0.034542669
-0.10742252 -0.60888863 0.034451425
-0.10098549 -0.60887063 0.034470852
-0.099912755 -0.60886669 0.034457162
-0.10165284 -0.60442275 0.03459961
-0.12471156 -0.71609819 0.035014313
-0.015910171 -0.70753747 0.03535869
-0.20786528 -0.69200057 0.035698257
-0.065012425 -0.69266725 0.035041809
-0.026389064 -0.69208091 0.035801299
-0.20085868 -0.68508691 0.035637464
-0.036274672 -0.6851216 0.035755642
-0.03100366 -0.6851632 0.03584237
-0.030114448 -0.68585306 0.03519664
-0.19455287 -0.67853028 0.035467483
-0.1888072 -0.67885065 0.035089023
-0.063464716 -0.6788398 0.035069913
-0.042047154 -0.6780467 0.035648074
-0.041401502 -0.67874056 0.035005722
-0.03774517 -0.6781289 0.03574251
-0.036760461 -0.67814714 0.035771348
-0.035879482 -0.67884707 0.035137065
-0.047445208 -0.67798388 0.035575442
-0.18279795 -0.67197651 0.035400238
-0.055425685 -0.67193848 0.035358593
-0.054438699 -0.67192405 0.035344742
-0.047169499 -0.67182845 0.035252508
-0.043661103 -0.67112893 0.035903886
-0.041798983 -0.67181295 0.035257414
-0.18239649 -0.66511315 0.035872836
-0.17713335 -0.66519898 0.03594996
-0.17141223 -0.66553164 0.035610847
-0.054230049 -0.66583186 0.035230316
-0.048681956 -0.66509247 0.035853703
-0.047867581 -0.66575599 0.03518549
-0.17689258 -0.65906996 0.035956379
-0.1707862 -0.65969735 0.035225976
-0.16515811 -0.65908355 0.035963442
-0.061084747 -0.65908092 0.035962872
-0.055111583 -0.65973681 0.035255
-0.15886533 -0.65361041 0.035424337
-0.066621639 -0.65368211 0.035483096
-0.06142297 -0.65369582 0.035493255
-0.056061033 -0.65367407 0.035451803
-0.14745152 -0.64827436 0.035085853
-0.066803806 -0.64829367 0.035108265
-0.061330557 -0.64831895 0.035144832
-0.15879332 -0.64767367 0.035845488
-0.15350279 -0.64762408 0.035774499
-0.14821206 -0.64764005 0.035806779
-0.070614874 -0.6476599 0.035832841
-0.15375607 -0.64229149 0.035634972
-0.13577485 -0.6423614 0.03568536
-0.076220833 -0.64233065 0.035648536
-0.06554845 -0.64232129 0.035638925
-0.14227448 -0.63701516 0.03560229
-0.13582334 -0.63707 0.035677452
-0.081109062 -0.63238722 0.03500282
-0.075884603 -0.63240463 0.035009477
-0.13832539 -0.63176894 0.03573392
-0.13718538 -0.63175166 0.035731185
-0.12991074 -0.63181412 0.035781167
-0.1302847 -0.62718892 0.035299733
-0.12396986 -0.62712771 0.035218168
-0.086814441 -0.62717408 0.035279404
-0.077265359 -0.62718898 0.03529514
-0.081286505 -0.62652129 0.035984352
-0.11913351 -0.621921 0.035611775
-0.10581493 -0.61737859 0.035404276
-0.092724964 -0.61290526 0.035325486
-0.13032764 -0.71456242 0.036118343
-0.12891388 -0.71384966 0.036716443
-0.011038809 -0.71391845 0.036756337
-0.016208556 -0.70610827 0.036586393
-0.020777559 -0.69907677 0.036067147
-0.021421677 -0.69837958 0.036705296
-0.21405202 -0.69134253 0.036400359
-0.2085585 -0.69131988 0.036347147
-0.028084457 -0.69138581 0.036468972
-0.027103741 -0.69138485 0.036456577
-0.2076202 -0.68369704 0.036939263
-0.20133875 -0.68366218 0.036907416
-0.2008471 -0.67746824 0.036385283
-0.047890749 -0.67663461 0.03691306
-0.042582557 -0.67667508 0.036974445
-0.17731565 -0.67127901 0.036049593
-0.054670051 -0.66451412 0.036609497
-0.15957737 -0.65838599 0.036595032
-0.06830249 -0.65845197 0.03669136
-0.055576488 -0.6584456 0.036669362
-0.16504134 -0.65307045 0.036208745
-0.15328903 -0.65303153 0.03617093
-0.14149748 -0.65242064 0.036915366
-0.070253007 -0.65238184 0.03686535
-0.061837476 -0.65243167 0.03693065
-0.056541752 -0.65239018 0.036882814
-0.1361659 -0.64706039 0.036567017
-0.1351669 -0.647008 0.036528703
-0.076820865 -0.64702523 0.036541298
-0.086446583 -0.6417253 0.036408
-0.067358792 -0.64171231 0.036393903
-0.066357553 -0.64170253 0.036382891
-0.14295976 -0.63644254 0.036363482
-0.13024481 -0.63645631 0.036384288
-0.082541101 -0.63646483 0.03642416
-0.073007315 -0.63643181 0.036373474
-0.071878821 -0.63644052 0.036376391
-0.11902925 -0.63116837 0.036483079
-0.08710482 -0.63118017 0.036518294
-0.11187602 -0.626001 0.036816977
-0.077979125 -0.6265831 0.036038514
-0.092726178 -0.62599015 0.036787063
-0.11610045 -0.61623627 0.03696122
-0.11491069 -0.61625123 0.036981974
-0.1026618 -0.60788113 0.036165267
-0.096173614 -0.6073072 0.036964968
-0.097005561 -0.60333443 0.036219425
-0.12717415 -0.71242255 0.03794599
-0.011370783 -0.71247399 0.037955098
-0.13695812 -0.70537144 0.037198
-0.13575909 -0.70541298 0.037254892
-0.016865868 -0.70538944 0.037207413
-0.022098154 -0.69768149 0.03733848
-0.21482591 -0.69061226 0.037024532
-0.201966 -0.69066352 0.037056599
-0.20837559 -0.68300104 0.03761819
-0.064029522 -0.68301475 0.037590735
-0.036641557 -0.68373561 0.037041601
-0.20203115 -0.68295598 0.037536118
-0.042792533 -0.68293864 0.037548982
-0.18967722 -0.67605942 0.037678335
-0.1889905 -0.67674917 0.037027385
-0.048557207 -0.67596596 0.037586235
-0.18310194 -0.66996396 0.037432689
-0.17770131 -0.66993797 0.03740086
-0.16589767 -0.66380948 0.037281118
-0.068260752 -0.66388917 0.037351392
-0.067275263 -0.66387856 0.037346248
-0.064881019 -0.66387254 0.037329644
-0.062665939 -0.66319019 0.03799345
-0.056109216 -0.6632033 0.03799836
-0.16557637 -0.65781975 0.037404876
-0.16024911 -0.65173674 0.03760935
-0.072064787 -0.65174121 0.037587199
-0.068976857 -0.65175837 0.037602171
-0.067803912 -0.65175748 0.03761436
-0.1486029 -0.64642066 0.037273087
-0.14233759 -0.64643061 0.03732029
-0.074340463 -0.64638096 0.037262782
-0.066962212 -0.64639997 0.037272707
-0.13622463 -0.64111817 0.037152003
-0.071368381 -0.64107102 0.037107538
-0.1433772 -0.64046884 0.037855618
-0.13688436 -0.64053643 0.037925884
-0.13643093 -0.63584822 0.037161112
-0.13128342 -0.63584185 0.037138063
-0.087942913 -0.63060457 0.037307024
-0.082945384 -0.62539089 0.037569471
-0.12064681 -0.62081039 0.037196405
-0.096220247 -0.61124218 0.037744749
-0.10256589 -0.71958292 0.038977895
-0.011968342 -0.71175885 0.038556945
-0.027112113 -0.69700795 0.03801056
-0.20231655 -0.68925583 0.038331583
-0.20270421 -0.68229204 0.038208742
-0.037136078 -0.68234408 0.038325001
-0.042714555 -0.67462373 0.038952984
-0.049007777 -0.66921753 0.038043022
-0.065694012 -0.66321015 0.038021579
-0.16635898 -0.6625163 0.038695298
-0.076084241 -0.65110415 0.03832344
-0.15445146 -0.64510059 0.038720749
-0.081300683 -0.64516574 0.038759593
-0.072034568 -0.64577901 0.038033076
-0.078342609 -0.63987762 0.038627513
-0.13291375 -0.71099991 0.03919078
-0.079941571 -0.64454746 0.039488468
-0.08982376 -0.62429804 0.039174967
-0.11885045 -0.71808898 0.040105972
-0.1114232 -0.71809816 0.040131241
-0.12491532 -0.71741015 0.040745966
-0.11736526 -0.71737212 0.040692355
-0.13112031 -0.70954406 0.040360808
-0.044362042 -0.68710905 0.040201001
-0.065769248 -0.66663659 0.040834814
-0.069676608 -0.65454304 0.040895168
-0.078498416 -0.64390522 0.040194228
-0.12342007 -0.716654 0.041311655
-0.12195826 -0.71593553 0.041897111
-0.11468524 -0.71588552 0.041850772
-0.13677238 -0.70815641 0.041618027
-0.13989908 -0.70033079 0.04144657
-0.073896132 -0.64856374 0.041195199
-0.13498326 -0.70672601 0.042817056
-0.13861416 -0.69956613 0.04203812
-0.12759809 -0.71444511 0.043049902
-0.070713393 -0.65794319 0.043544624
-0.079381518 -0.64665544 0.043323059
-0.07796824 -0.64602768 0.044041947
-0.11184237 -0.72003388 0.045283873
-0.1179764 -0.71928346 0.045832809
-0.1316409 -0.71149462 0.045371357
-0.13044161 -0.71147257 0.045330912
-0.11012986 -0.71854293 0.046413396
-0.10475928 -0.71857053 0.04644613
-0.12880097 -0.7099936 0.046500687
-0.13931988 -0.70225161 0.046295621
-0.13794957 -0.70154899 0.046916552
-0.071926013 -0.66130191 0.046288125
-0.12222488 -0.71707994 0.047584392
-0.13550852 -0.70862013 0.047748819
-0.07879959 -0.64870095 0.047195744
-0.082943991 -0.64285916 0.047648039
-0.12076439 -0.71635836 0.048155412
-0.12783903 -0.71562469 0.048760463
-0.13383101 -0.70714074 0.048922841
-0.12638701 -0.71491098 0.049331963
-0.13234392 -0.70639884 0.049503367
-0.12473048 -0.71341187 0.050470576
-0.11694995 -0.72036266 0.051570024
-0.12329305 -0.71268463 0.05104341
-0.12925521 -0.71185553 0.05151784
-0.13835146 -0.70345664 0.05180335
-0.13732819 -0.70346457 0.051802225
-0.14302662 -0.69654655 0.051143035
-0.14178902 -0.69658333 0.051185414
-0.14469048 -0.69582629 0.051771641
-0.14370061 -0.69582635 0.05175833
-0.083319567 -0.644862 0.051465936
-0.1102147 -0.71963847 0.052138548
-0.11525346 -0.71887726 0.052721206
-0.10464669 -0.71890891 0.052747477
-0.08069656 -0.64354867 0.052862279
-0.1211241 -0.71815377 0.053261384
-0.11384221 -0.7181372 0.053284891
-0.097794838 -0.71816558 0.053304616
-0.093724385 -0.71815032 0.053271912
-0.13320605 -0.70893675 0.053878985
-0.072769634 -0.65393311 0.053706948
-0.11908582 -0.71590108 0.05493442
-0.09139248 -0.71593386 0.054971922
-0.13174495 -0.70818806 0.05442204
-0.084108092 -0.64741516 0.054606009
-0.1175902 -0.71516782 0.055492163
-0.14234245 -0.69836032 0.055946495
-0.14128089 -0.69833368 0.055907059
-0.14018305 -0.69830436 0.055855997
-0.12363043 -0.71443272 0.056083009
-0.12215896 -0.71369785 0.056639839
-0.11031644 -0.72062033 0.057862855
-0.10502164 -0.72065419 0.05791973
-0.12931761 -0.71289074 0.057149697
-0.12777637 -0.71217567 0.057736028
-0.13724506 -0.70454121 0.057320349
-0.13630447 -0.70454603 0.057335444
-0.14696933 -0.68180281 0.057439659
-0.14592439 -0.68184668 0.057486136
-0.080667533 -0.64477819 0.057350732
-0.11421039 -0.71987724 0.058444835
-0.10894468 -0.71987939 0.058429617
-0.14587738 -0.68709755 0.058900516
-0.10311402 -0.71914768 0.059011213
-0.097770266 -0.71914637 0.059000496
-0.10179979 -0.71839309 0.059563257
-0.13213098 -0.70990819 0.059386481
-0.13057166 -0.70913911 0.059903044
-0.14661027 -0.68637365 0.05951336
-0.11193874 -0.71760476 0.060049936
-0.10667557 -0.71760863 0.060068693
-0.091762826 -0.71763778 0.060071759
-0.11806119 -0.71683902 0.060570255
-0.14066195 -0.69997406 0.060626302
-0.13946721 -0.69998962 0.060646601
-0.14706416 -0.68497539 0.060744099
-0.078217223 -0.64148611 0.060811486
-0.11549234 -0.71606582 0.061105743
-0.090097882 -0.71611243 0.061149664
-0.12264136 -0.71534282 0.061693043
-0.12153637 -0.71536106 0.061693005
-0.11631591 -0.71532649 0.061661635
-0.1369846 -0.70699322 0.06168035
-0.1452141 -0.69103467 0.061796352
-0.14300634 -0.69103563 0.061789878
-0.078993775 -0.64658713 0.061173189
-0.12823211 -0.71385545 0.06281133
-0.08794158 -0.71384132 0.06276907
-0.13522987 -0.70547187 0.062763229
-0.13425098 -0.70545554 0.062767029
-0.14586449 -0.69030613 0.062363103
-0.143609 -0.69031996 0.062390465
-0.14654638 -0.68955165 0.062917091
-0.12676857 -0.71312565 0.063354
-0.12545484 -0.71235061 0.063892968
-0.098191164 -0.72075707 0.064144507
-0.10734448 -0.71999705 0.064677365
-0.13102685 -0.71075428 0.064883403
-0.11233985 -0.71920705 0.065171875
-0.10183979 -0.71925074 0.065243624
-0.096542247 -0.7192136 0.065185323
-0.10046999 -0.7184763 0.065765403
-0.1292232 -0.70925367 0.06596709
-0.13982347 -0.70164591 0.065483041
-0.14409512 -0.69415224 0.06528461
-0.14148185 -0.69344562 0.065881625
-0.081014201 -0.64768004 0.06571655
-0.11591065 -0.7176733 0.066248327
-0.11050998 -0.71768743 0.066222288
-0.10530395 -0.71770459 0.066274516
-0.10912845 -0.71692187 0.066747978
-0.10383329 -0.71695495 0.066804536
-0.098438129 -0.71694595 0.066802584
-0.094368547 -0.71693128 0.066770047
-0.12139659 -0.71617174 0.067286804
-0.092376024 -0.71543133 0.067854859
-0.13448331 -0.7070365 0.067671105
-0.13349444 -0.70702523 0.067670107
-0.076987199 -0.65140802 0.067650937
-0.085368194 -0.64567393 0.067744121
-0.087746069 -0.7146461 0.068353824
-0.12573411 -0.71392292 0.068926737
-0.14261955 -0.65072924 0.068294868
-0.083315507 -0.63994551 0.068005167
-0.1242165 -0.71313632 0.06943506
-0.085925221 -0.7131207 0.069398716
-0.14041843 -0.7039997 0.069799073
-0.1447715 -0.69646949 0.069412492
-0.14261746 -0.69647974 0.069448568
-0.14618802 -0.67410308 0.069678061
-0.074989073 -0.65511376 0.069629379
-0.083786801 -0.64429253 0.069064207
-0.081228852 -0.64360958 0.06970869
-0.11496501 -0.63359958 0.069131941
-0.11396275 -0.63360119 0.069151133
-0.12950891 -0.71080172 0.070971049
-0.083834805 -0.7108317 0.070986569
-0.13902679 -0.70325202 0.070340529
-0.13652322 -0.70253897 0.070953608
-0.079710409 -0.64795494 0.070884049
-0.11582702 -0.71842104 0.071893401
-0.10946181 -0.71843964 0.071883105
-0.12833139 -0.71083373 0.071000747
-0.12699212 -0.71008813 0.071563937
-0.12177563 -0.71765858 0.072385818
-0.11434875 -0.71766663 0.072410613
-0.10362146 -0.7176922 0.072435059
-0.098275952 -0.71769124 0.07242427
-0.11280226 -0.71689093 0.072902158
-0.079808131 -0.70926839 0.072008647
-0.13371286 -0.70852441 0.072571337
-0.14656168 -0.67749751 0.072578579
-0.11988554 -0.71613216 0.073411889
-0.092247672 -0.71615303 0.073436588
-0.1185348 -0.7153402 0.073905729
-0.13227585 -0.70775717 0.073090702
-0.14322113 -0.69870776 0.073601611
-0.1421258 -0.69867986 0.073550664
-0.1411768 -0.69863033 0.073529758
-0.13998356 -0.69864547 0.073550001
-0.12441991 -0.71461564 0.074471742
-0.11714441 -0.7145682 0.074425302
-0.090559989 -0.71459788 0.074455455
-0.077327155 -0.70620346 0.074104466
-0.13950115 -0.70552212 0.074724838
-0.14692119 -0.68231022 0.074418984
-0.13278401 -0.64380515 0.074749492
-0.11741614 -0.63320428 0.07474561
-0.13708566 -0.70477915 0.075267635
-0.13568181 -0.70399094 0.075765103
-0.14501049 -0.68824351 0.075570159
-0.14716199 -0.68087614 0.075595938
-0.14742316 -0.67345691 0.075762913
-0.14505963 -0.6676088 0.075072445
-0.11081628 -0.63258219 0.075467557
-0.12718521 -0.71155077 0.076541744
-0.083715513 -0.71150702 0.076494768
-0.083424069 -0.64815754 0.076040186
-0.07451044 -0.64745939 0.076685004
-0.10920342 -0.71907437 0.077522457
-0.10395993 -0.71910167 0.077559315
-0.098571345 -0.71908337 0.077518672
-0.11308193 -0.71828258 0.077988885
-0.13235253 -0.70915264 0.077983484
-0.13140982 -0.70913678 0.077982858
-0.081960268 -0.70993704 0.077493899
-0.14058986 -0.70085275 0.077811837
-0.14703088 -0.68595099 0.077173784
-0.14595819 -0.68598098 0.077190787
-0.067680925 -0.67130303 0.077576257
-0.14223593 -0.65817636 0.077628933
-0.073278114 -0.65247881 0.077405237
-0.088216402 -0.63545352 0.077698246
-0.10965492 -0.72748476 0.078338042
-0.10771468 -0.71830875 0.078021854
-0.10258123 -0.71832454 0.078060612
-0.10119812 -0.71753585 0.078552499
-0.096900016 -0.71751136 0.078499936
-0.11760465 -0.71671104 0.078968346
-0.14738341 -0.68445408 0.078300476
-0.066044584 -0.66983014 0.078741334
-0.063791767 -0.66982102 0.078731984
-0.070698127 -0.657534 0.078312702
-0.14275281 -0.65673327 0.078835726
-0.12363452 -0.639732 0.07875292
-0.12386018 -0.63480157 0.078363284
-0.095461093 -0.71674079 0.079000197
-0.094215527 -0.71676677 0.079030059
-0.12114004 -0.71518004 0.079987831
-0.14336053 -0.69784224 0.079951257
-0.1437829 -0.69116902 0.079041019
-0.14536038 -0.69042784 0.07961186
-0.14943612 -0.68226171 0.079992302
-0.14928795 -0.66828853 0.079847418
-0.14363723 -0.66251647 0.079229727
-0.14670025 -0.65608954 0.079508446
-0.08350841 -0.64966154 0.079904184
-0.083919756 -0.64469409 0.07925909
-0.077492528 -0.64465034 0.079219162
-0.07837037 -0.64396673 0.079871476
-0.11674259 -0.63905984 0.079432465
-0.083940327 -0.6390624 0.079410687
-0.099241048 -0.6341722 0.079098925
-0.12640658 -0.71520597 0.080023505
-0.12435109 -0.71518707 0.080008499
-0.1232449 -0.71520561 0.080008231
-0.09038616 -0.71519697 0.080000259
-0.12171105 -0.7144118 0.080482192
-0.0867621 -0.714414 0.080490015
-0.08842241 -0.71363461 0.080991827
-0.13632497 -0.70612353 0.080114692
-0.13519016 -0.70611322 0.080110304
-0.071111239 -0.70522791 0.080462024
-0.14687984 -0.68890327 0.080668986
-0.15007949 -0.68150771 0.080526315
-0.063337132 -0.67417562 0.080685809
-0.063942082 -0.66763192 0.080490306
-0.068728 -0.65539628 0.080156632
-0.074712008 -0.64893514 0.080522381
-0.084354497 -0.64329225 0.080538675
-0.10487252 -0.63833898 0.080031402
-0.094308168 -0.63833481 0.080037899
-0.12786466 -0.71366137 0.081035703
-0.12678128 -0.71367377 0.081037447
-0.13128254 -0.71205169 0.081967309
-0.13962056 -0.70460355 0.081150636
-0.14367574 -0.69634062 0.081045486
-0.063724831 -0.68805772 0.081126787
-0.15046687 -0.68738514 0.081750885
-0.063815214 -0.68071538 0.081053339
-0.062859036 -0.68070322 0.08105085
-0.1498818 -0.6733911 0.081183456
-0.14957471 -0.6668492 0.081031613
-0.067243248 -0.66040713 0.081123993
-0.069286563 -0.6596871 0.081739359
-0.14439325 -0.65395778 0.081342146
-0.14339583 -0.65390861 0.0813042
-0.081867933 -0.64823222 0.081140488
-0.078686252 -0.64822793 0.081168905
-0.13788235 -0.64747834 0.081738308
-0.084987342 -0.64262205 0.081190653
-0.090034202 -0.64192098 0.081850156
-0.111578 -0.63701904 0.081382819
-0.12121271 -0.63693875 0.081333548
-0.11907669 -0.63696182 0.08133515
-0.11249869 -0.63629889 0.081999071
-0.10755178 -0.63689697 0.08128006
-0.10603838 -0.63622338 0.08195217
-0.1348062 -0.72040433 0.082649089
-0.11687464 -0.72039855 0.082654975
-0.10080095 -0.72042358 0.08266899
-0.13156915 -0.71047938 0.082931511
-0.079617582 -0.71046382 0.082928516
-0.14535977 -0.70298803 0.082077108
-0.13967614 -0.70225525 0.082632594
-0.074980862 -0.70219779 0.082593001
-0.071729273 -0.70217264 0.082575642
-0.14470883 -0.69404203 0.082591981
-0.14384779 -0.6948393 0.082106344
-0.064641491 -0.69316405 0.082989365
-0.15105169 -0.68667573 0.082328402
-0.14858988 -0.68582726 0.082802735
-0.063701056 -0.68580103 0.082776479
-0.15027343 -0.67924166 0.082176708
-0.064078055 -0.67923248 0.08218012
-0.15034424 -0.67190349 0.082364082
-0.14988083 -0.66539603 0.082205422
-0.069936045 -0.65897417 0.08234366
-0.1257758 -0.64124191 0.082494803
-0.094924048 -0.6411593 0.082404047
-0.095499687 -0.6362949 0.082030311
-0.11222636 -0.7196033 0.083098061
-0.10802834 -0.71962112 0.083151929
-0.10692982 -0.71963489 0.083154574
-0.10153241 -0.71962589 0.083153129
-0.095142499 -0.71964186 0.083138421
-0.11719599 -0.7188133 0.083615318
-0.11284413 -0.71882117 0.083582118
-0.080188356 -0.70969981 0.083428897
-0.080791689 -0.70893401 0.083940379
-0.14032215 -0.70147657 0.083145425
-0.072052769 -0.70064032 0.083624758
-0.14597897 -0.69251633 0.083675109
-0.15115432 -0.67701268 0.083848894
-0.1505542 -0.67775488 0.083286472
-0.064601257 -0.67774749 0.083303817
-0.15017742 -0.66398227 0.083414115
-0.13802551 -0.65175235 0.083107397
-0.1264917 -0.64050537 0.083090715
-0.11173561 -0.64048976 0.083079576
-0.10106777 -0.6405322 0.083114341
-0.090352044 -0.64050883 0.083099186
-0.119853 -0.63980824 0.083740503
-0.11884911 -0.63980895 0.083759435
-0.096530408 -0.63979316 0.083728112
-0.12200122 -0.71805209 0.084078394
-0.11785578 -0.71802127 0.084090672
-0.13617469 -0.70895964 0.084003069
-0.072783031 -0.69986969 0.084113456
-0.064629704 -0.69088638 0.084602252
-0.070217863 -0.66324323 0.084022105
-0.086430222 -0.65036625 0.084392913
-0.13224407 -0.64470279 0.084256813
-0.10254936 -0.64473563 0.08432658
-0.13288011 -0.64399981 0.084888406
-0.11213437 -0.63912803 0.084394842
-0.10681637 -0.63905674 0.084334739
-0.081297919 -0.71483171 0.085944429
-0.073034301 -0.70575833 0.085864693
-0.065187648 -0.67478198 0.08555188
-0.076292358 -0.65459383 0.085871816
-0.10112496 -0.63846821 0.085061945
-0.088551797 -0.71491075 0.08600641
-0.06543386 -0.67328608 0.086660184
-0.076989226 -0.65957195 0.086934544
-0.076962009 -0.65387058 0.086472012
-0.13968766 -0.64818406 0.086204372
-0.11280124 -0.72163755 0.087785251
-0.13702032 -0.71175539 0.087944277
-0.13910383 -0.7043407 0.087019987
-0.080610141 -0.65242565 0.087701105
-0.12299728 -0.72082949 0.088224374
-0.065229349 -0.68556935 0.088326186
