# .PCD v0.7 - Point Cloud Data file format
VERSION 0.7
FIELDS x y z
SIZE 4 4 4
TYPE F F F
COUNT 1 1 1
WIDTH 240
HEIGHT 1
VIEWPOINT 0 0 0 1 0 0 0
POINTS 240
DATA ascii
-0.13270675 -0.12191762 0.0024675012
-0.030302931 -0.12184662 0.0024618066
-0.0087007899 -0.12193678 0.0024296092
0.042357907 -0.12189134 0.0024025198
0.061169937 -0.12186194 0.0024485404
0.10418025 -0.12187154 0.0024428468
0.10977422 -0.12187598 0.002447051
-0.13007557 -0.10932345 0.002502942
0.028953495 -0.10926148 0.0025017946
0.037060183 -0.10926196 0.0024748289
-0.092201814 -0.09648715 0.0028188904
0.039627988 -0.096522093 0.0028088721
0.047886871 -0.096478045 0.0028043538
0.055977345 -0.096495986 0.0028458231
-0.087038159 -0.095875852 0.0020625275
0.042316109 -0.095871821 0.0020511716
0.11479134 -0.095865481 0.0020813462
0.10695923 -0.083000503 0.0027671203
0.071982473 -0.082988173 0.0027836005
0.080004126 -0.068743743 0.00230391
0.10418154 -0.068712413 0.0023115084
0.10977828 -0.068717286 0.0023132816
0.1098248 -0.039736196 0.0024987645
0.082941353 -0.1350309 0.003453094
0.088139459 -0.13503587 0.0034482952
-0.10537588 -0.12309019 0.0039796517
-0.097263783 -0.12308721 0.003997623
0.0075755776 -0.12313856 0.0039604395
-0.092153661 -0.12248009 0.0031894383
-0.038558383 -0.1223468 0.0032924411
-0.014141446 -0.12254323 0.003186377
-0.0033212667 -0.12249997 0.0031779611
0.020957807 -0.12254781 0.0032108973
0.034406096 -0.12251823 0.003207634
0.074840091 -0.1224637 0.0032197637
0.08012449 -0.122532 0.0032058482
0.091002136 -0.12252013 0.0031851793
-0.027183156 -0.11049986 0.003998166
-0.022024626 -0.11051405 0.0039979354
-0.016514927 -0.11057986 0.003989432
-0.00022905142 -0.11050843 0.0039606532
0.050488155 -0.10984012 0.0032019394
0.077375427 -0.10986695 0.0032451977
0.10703108 -0.10987592 0.0032417532
-0.097311296 -0.097121179 0.003604322
-0.067967221 -0.097063303 0.0036140392
0.10439325 -0.097163931 0.0035809439
0.10998841 -0.097168535 0.0035840534
-0.089279041 -0.083675064 0.0034575125
0.058625158 -0.083642229 0.0034952636
-0.11082034 -0.070096783 0.0037126122
0.074837707 -0.069357321 0.0030445121
-0.11611558 -0.055684015 0.0036372815
0.10447198 -0.041145381 0.0038910063
-0.11912584 -0.040443603 0.0032274341
-0.10023524 -0.14733228 0.0040806774
-0.11345497 -0.13564168 0.0042288485
-0.12407871 -0.12379958 0.00475454
-0.11889312 -0.1237646 0.0047729043
-0.078310274 -0.1237537 0.0047802003
0.048213188 -0.12373 0.0047046375
0.08565072 -0.12377773 0.0047081532
-0.03256518 -0.11112006 0.004784917
0.10204384 -0.1111647 0.0047335341
-0.10289977 -0.11046208 0.0040260269
0.023721056 -0.11056656 0.004018608
0.077564918 -0.084330268 0.0042334176
0.10196681 -0.08434201 0.0042125438
-0.10526154 -0.070718281 0.0044792537
-0.13230123 -0.041899651 0.0046075857
0.010640993 -0.13626501 0.0050083157
-0.12147941 -0.11183073 0.0055412874
-0.11581709 -0.11182322 0.0055082776
-0.10503875 -0.099092066 0.0058171749
-0.078108177 -0.099126115 0.0058511575
-0.073048472 -0.099064298 0.005839285
0.099298649 -0.099127635 0.0057986211
-0.054104179 -0.098192014 0.0051728776
0.075182013 -0.098439015 0.0050794831
-0.12143361 -0.085703306 0.0057294462
-0.075874344 -0.084973559 0.0050024376
-0.11865915 -0.072127782 0.0059457505
0.085750811 -0.071458876 0.0051592248
0.091389127 -0.071459189 0.0051634172
0.088603988 -0.057786644 0.0057260459
0.1153857 -0.042573202 0.0052679437
0.094199039 -0.11308855 0.0069712773
0.010874833 -0.11248226 0.0062356465
0.083443739 -0.11247943 0.0062343315
-0.080521882 -0.086379893 0.006445575
0.05106277 -0.086310744 0.0063865688
-0.096751951 -0.072762281 0.0066553438
0.067264877 -0.072788984 0.0066449051
0.094206966 -0.14979276 0.0071488861
-0.059289001 -0.10030498 0.0073713274
0.027039852 -0.10046335 0.0073172222
0.080863439 -0.10047536 0.0072924895
-0.093929321 -0.087671079 0.0078949882
0.064831689 -0.087016724 0.0071742241
-0.11276647 -0.059860565 0.0078560244
-0.10736974 -0.059144784 0.0071603796
0.013710351 -0.1011493 0.0080322055
0.096981056 -0.074174024 0.0080561535
0.094509415 -0.060526703 0.0085538905
-0.12344169 -0.045427967 0.0080772405
0.091915093 -0.045406509 0.0080370773
0.094529353 -0.030809347 0.0085789682
0.099838249 -0.030813808 0.0086065764
-0.080009468 -0.15163393 0.0095736291
0.097263895 -0.016145645 0.0095293876
-0.10973737 -0.12818497 0.010060914
-0.12282542 -0.10442047 0.011770078
-0.07959526 -0.048949108 0.011568685
0.089713894 -0.11762668 0.012263195
-0.11750974 -0.10504201 0.012533009
0.020045107 -0.10508747 0.012482725
0.097750671 -0.10504218 0.012483428
0.084517553 -0.091731668 0.012255046
-0.10635901 -0.11823926 0.013030447
-0.10903424 -0.10636896 0.013949234
0.087161593 -0.10571095 0.013210956
0.093050733 -0.10702372 0.014703972
0.041687466 -0.093729161 0.014446279
-0.11136373 -0.095072307 0.015910769
-0.0091123609 -0.095091239 0.015909065
0.020530397 -0.094434604 0.015189217
0.090247907 -0.094413064 0.015174348
0.095660418 -0.094375074 0.015165047
-0.055005111 -0.09484119 0.01601745
-0.060149126 -0.082254417 0.016797915
0.04488067 -0.053893313 0.016376691
-0.035983674 -0.10947923 0.017787775
-0.022150854 -0.109605 0.017702607
-0.062858865 -0.096296571 0.017462946
-0.1030182 -0.054541066 0.017128631
0.055753186 -0.04015629 0.017498074
-0.092147067 -0.14668329 0.01823087
-0.0058668461 -0.11034942 0.018430552
-0.075791508 -0.084392801 0.018916305
-0.065253906 -0.084300332 0.01890994
0.023622742 -0.083762832 0.018154206
0.08558403 -0.040913414 0.018172184
-0.016463194 -0.11162511 0.019928817
-0.00035602364 -0.11159695 0.019900907
-0.03829908 -0.098168314 0.019705862
-0.013750643 -0.098450854 0.01959029
0.0076499027 -0.098409183 0.019590857
-0.0056539988 -0.085144848 0.019579448
0.029225336 -0.085099429 0.019615121
0.045419563 -0.08510007 0.019551998
0.067097411 -0.071643867 0.019946026
0.0053158244 -0.085762143 0.020295938
-0.067453474 -0.072260812 0.020661499
0.048513889 -0.072363019 0.020611383
0.056283966 -0.072331563 0.020623218
0.077947915 -0.058080517 0.020615945
0.072482325 -0.028556447 0.020974262
-0.048638653 -0.10010165 0.021944668
-0.024030352 -0.10038012 0.021795815
-0.018872501 -0.10039479 0.0217958
0.026872341 -0.10044458 0.021815311
-0.021419749 -0.087102726 0.021757316
-0.016122703 -0.087154627 0.021752125
-1.8943669e-05 -0.087126173 0.021726156
-0.070343375 -0.086378731 0.021065751
-0.056723651 -0.086990051 0.021832965
-0.051267553 -0.086167611 0.021145914
-0.040599216 -0.086153932 0.021183014
0.051107351 -0.086415723 0.021003703
-0.086117551 -0.07303793 0.021305477
0.037765045 -0.059547599 0.021989731
0.078144521 -0.029268989 0.021651033
0.083446048 -0.029335629 0.021625912
0.0082076471 -0.12660734 0.022849185
-0.1102938 -0.12597303 0.022075234
-0.048454195 -0.074124835 0.022925271
0.032553229 -0.074448794 0.022775508
0.059449878 -0.030024329 0.022316439
0.064862438 -0.030758541 0.022981951
0.086391866 -0.014763937 0.022688784
0.014014376 -0.10244037 0.023965102
0.019251956 -0.10248126 0.023986559
-0.045838583 -0.088165142 0.023383904
-0.029227335 -0.075076669 0.023506498
0.062161021 -0.07509058 0.023469159
-0.042969167 -0.074801512 0.023651816
-0.088543609 -0.060925502 0.023368711
0.059626378 -0.060933311 0.023395969
-0.072547607 -0.046602882 0.023712169
0.049063224 -0.046661373 0.023641145
0.0890285 -0.03151707 0.023616659
-0.029027427 -0.1030355 0.024755402
-0.010325869 -0.10312417 0.024696851
-0.026356373 -0.089831442 0.024656862
0.011253771 -0.089863673 0.024622906
-0.034688722 -0.076365903 0.024979554
0.0033617243 -0.075801529 0.024145233
0.0084729055 -0.075828888 0.024171818
0.027308714 -0.075856492 0.024198694
-0.083008759 -0.062383171 0.024746627
-0.093657263 -0.06161103 0.024106503
0.065038547 -0.061642867 0.024087422
0.070413165 -0.03221488 0.024334108
0.067849606 -0.016219268 0.024046309
0.065091059 -7.1438153e-05 0.024172248
0.0355139 -0.090551227 0.025364166
0.043648057 -0.063080221 0.025445744
-0.056056332 -0.062929869 0.025557036
-0.031544115 -0.091145918 0.026139742
0.016903482 -0.091267616 0.026069771
-0.0099070119 -0.078638293 0.026987102
-0.023218986 -0.077876657 0.026307119
0.014439739 -0.077929214 0.026278986
-0.069418736 -0.063707769 0.026203444
0.070724867 -0.063757904 0.026185028
0.062750742 -0.019166 0.02666902
0.019924877 -0.079358958 0.027716285
-0.017936377 -0.078586303 0.027015749
-0.074246295 -0.065181561 0.027605496
0.03064804 -0.065205902 0.027582653
0.035914697 -0.065201893 0.027570641
0.052268419 -0.065158613 0.027533503
-0.079659112 -0.035920303 0.027665071
0.092446849 -0.019970823 0.027287209
0.017301299 -0.065943629 0.028252251
0.022855304 -0.065944135 0.028240331
0.041674383 -0.051699761 0.028443901
0.071198381 -0.0053480621 0.028704036
0.055080201 -0.08063931 0.029099977
-0.036501676 -0.067082345 0.029771108
-0.011834253 -0.068067305 0.030339761
-0.079082549 -0.068756215 0.031033155
-0.030402005 -0.070065074 0.032501508
-0.024718624 -0.071528815 0.033852026
0.0078352541 -0.072258271 0.034507919
0.02678773 -0.059637241 0.035979155
-0.013363312 -0.075114906 0.037308659
-0.069722243 -0.091061853 0.039803967
-0.074504457 -0.091821402 0.040493045
-0.0016605806 -0.066128924 0.042121254
