# .PCD v0.7 - Point Cloud Data file format
VERSION 0.7
FIELDS x y z
SIZE 4 4 4
TYPE F F F
COUNT 1 1 1
WIDTH 239
HEIGHT 1
VIEWPOINT 0 0 0 1 0 0 0
POINTS 239
DATA ascii
0.15594764 -0.80285269 0.030593086
-0.045956261 -0.79728526 0.02448085
0.02930478 -0.79463172 0.025975084
0.037515331 -0.79438555 0.026091695
0.064226851 -0.79351306 0.026583012
0.083012804 -0.79290998 0.026961084
0.091103077 -0.79262054 0.027140077
0.020955138 -0.79469556 0.025856948
0.11499928 -0.77865529 0.024748638
0.12565625 -0.77832055 0.024978792
0.13391927 -0.77801466 0.025141113
-0.044381075 -0.75737256 0.016994245
0.14891441 -0.75083166 0.020695861
0.16510595 -0.75025237 0.021025939
0.15954725 -0.73680621 0.019049101
-0.052943833 -0.82269341 0.030032247
0.1458509 -0.81595165 0.033831935
0.086456232 -0.8061884 0.031028679
0.16696195 -0.80342638 0.032567851
-0.042661853 -0.810072 0.02766368
0.032653887 -0.80747473 0.029144688
0.040912379 -0.80722022 0.029284138
0.043423068 -0.807163 0.02933329
0.059561472 -0.80661982 0.029615205
0.10528615 -0.80505717 0.030484539
0.14287503 -0.80373996 0.03121775
0.15062612 -0.80353075 0.031369574
0.099450484 -0.79333687 0.028997088
0.11024342 -0.79294652 0.029200351
0.17740592 -0.79067713 0.030496478
0.015919749 -0.79529119 0.026652882
0.088763535 -0.79319113 0.027960138
-0.038051732 -0.78486979 0.023545025
-0.011262342 -0.78394473 0.024059661
0.16613746 -0.77797848 0.027455565
0.1281161 -0.76599199 0.024201376
0.16839412 -0.76464134 0.024983706
0.16440478 -0.72229737 0.016752176
0.046498723 -0.81979352 0.032798592
0.10022953 -0.81795412 0.03381718
0.17003769 -0.81555468 0.035178293
-0.031375341 -0.8106271 0.029628119
0.018995371 -0.80858785 0.030680867
0.094598018 -0.80637813 0.032050014
-0.039971828 -0.79852355 0.027194235
-0.034686573 -0.79832637 0.027300272
0.045857131 -0.79566699 0.028838754
-0.032198407 -0.7852096 0.024499502
0.01036099 -0.78346848 0.025384156
0.10473333 -0.78059012 0.027094139
0.12354813 -0.7799201 0.027489711
0.14231361 -0.77927339 0.027829595
-0.016681187 -0.77201885 0.023127323
0.12043143 -0.76730335 0.025736813
-0.035547994 -0.7720601 0.021908658
-0.022049628 -0.7716887 0.022152243
0.16061498 -0.76542825 0.025676314
0.1766728 -0.76490188 0.025963388
0.16289401 -0.75190693 0.023471834
0.14547387 -0.79277557 0.031610351
0.1616213 -0.79218507 0.031931143
0.16952696 -0.79191846 0.032081265
-0.018924467 -0.78533953 0.025612989
-0.0028730482 -0.78463477 0.025935423
-0.029948741 -0.77294523 0.023675364
0.11780655 -0.76790822 0.02650952
0.13666885 -0.76726311 0.0268999
-0.038563862 -0.75928521 0.020456426
0.15186685 -0.73875159 0.021312799
0.17046015 -0.72436863 0.020132406
0.1728539 -0.72371882 0.01934576
0.17843539 -0.72353953 0.019448038
-0.017961055 -0.81120151 0.031629577
0.062465321 -0.79654151 0.031693209
0.081255525 -0.79596317 0.032086812
0.11294632 -0.78179735 0.029815016
-0.064789876 -0.77473778 0.023875419
-0.046405986 -0.76069653 0.021942319
0.13909002 -0.75432974 0.025529038
0.15513951 -0.75384223 0.025796285
0.17143106 -0.75327808 0.026150612
0.090671219 -0.83213043 0.040006146
0.035659142 -0.79792583 0.032081675
0.054379676 -0.79737246 0.032414924
0.14000459 -0.78137195 0.031211929
-0.0081128776 -0.77370441 0.026625292
0.10748826 -0.76934785 0.027976425
-0.027411975 -0.76056588 0.023128595
0.1796588 -0.7535491 0.027116833
-0.05985608 -0.74819911 0.020627633
-0.054478213 -0.74798989 0.020706261
-0.057832487 -0.73330265 0.017416384
0.082179762 -0.82091755 0.037850965
-0.061443351 -0.78882688 0.028215922
-0.042426601 -0.78863907 0.029390106
0.094432026 -0.78348887 0.031184472
0.17261061 -0.78133124 0.033539854
0.14525366 -0.76914334 0.030416554
-0.05120264 -0.76194251 0.023522241
0.14723235 -0.75522149 0.027339904
-0.049028456 -0.74835718 0.021590533
-0.051923126 -0.73422068 0.019096714
-0.063077167 -0.73406386 0.018106377
0.15454963 -0.72662693 0.02222334
0.16269019 -0.72629839 0.022404427
0.055442397 -0.82275546 0.039072905
0.15420696 -0.79493201 0.036024824
-0.032065809 -0.76233262 0.025563966
-0.046068013 -0.83813488 0.039986547
-0.049554043 -0.8028565 0.033866249
-0.052515768 -0.80246031 0.032978736
-0.047522128 -0.78984785 0.030979913
0.14841634 -0.78321457 0.034766763
0.15919818 -0.78281915 0.034959503
0.16472608 -0.78257757 0.035069622
-0.046921253 -0.80325872 0.034758963
0.1513924 -0.78412044 0.036504455
0.15397952 -0.77145016 0.034745008
0.15724131 -0.78543472 0.039155114
-0.0042496026 -0.77776426 0.033441342
0.037533104 -0.82606989 0.044001635
-0.054995514 -0.79267561 0.035159905
0.065849759 -0.77705014 0.037272889
0.084636711 -0.77644682 0.03765031
-0.057723045 -0.78077936 0.034133486
0.017281666 -0.77782106 0.03564515
0.05762453 -0.77687395 0.03629639
-0.023111165 -0.76638699 0.03237066
-0.052092835 -0.78161204 0.035899915
0.014996976 -0.7789529 0.037277624
0.009252958 -0.77873689 0.036263954
0.0064622574 -0.76625329 0.034671597
0.0042860806 -0.7805934 0.038698629
0.079686634 -0.76563454 0.038535919
0.11720566 -0.76425815 0.039221626
0.098282166 -0.76440448 0.038046788
0.10905924 -0.76403898 0.038225304
-0.0041963421 -0.7544772 0.034004588
0.12921053 -0.72176415 0.031726401
0.072555207 -0.79238921 0.044358321
0.087709427 -0.76586533 0.039516661
-0.0010602027 -0.76875097 0.037833396
0.13025433 -0.75109571 0.038224168
0.092511475 -0.75185841 0.036682766
0.053885367 -0.79356933 0.044830527
-0.0090609044 -0.76960725 0.038496751
0.012440238 -0.76862937 0.038972955
0.095842719 -0.76611561 0.040504958
0.1068055 -0.76574546 0.040676776
0.11164024 -0.7523033 0.038672574
-0.036620062 -0.74330544 0.03323618
0.15056592 -0.70788735 0.031793129
0.023629807 -0.78240567 0.043300468
0.031976189 -0.78233606 0.043415073
0.040185288 -0.78208953 0.043532003
0.093769364 -0.78032255 0.044578824
0.053310111 -0.76867062 0.041324571
0.069271535 -0.76809359 0.041644149
0.020500585 -0.76940233 0.040823359
0.042549845 -0.76844478 0.040313121
0.061201651 -0.76784348 0.040644269
0.12665972 -0.70925534 0.032152478
0.14290619 -0.70869261 0.032447107
-0.0062431023 -0.75788534 0.038887858
0.039570905 -0.75637567 0.03976509
0.08250282 -0.75500751 0.040587328
0.12006243 -0.75365114 0.041302893
0.12281842 -0.75356591 0.041373044
-0.011583388 -0.75758249 0.037988175
0.1011021 -0.7537939 0.040118281
0.12899956 -0.69463807 0.030620843
0.15318118 -0.69324064 0.030249383
0.045981765 -0.7835297 0.046178937
0.048515663 -0.78345889 0.046224911
0.075313821 -0.7819761 0.045873657
0.034811929 -0.77084208 0.043513518
0.058310267 -0.75639617 0.040944811
0.12534939 -0.74010831 0.039587919
-0.014972862 -0.73080069 0.034601804
0.11134171 -0.72647464 0.036988303
0.12451981 -0.71111757 0.034490962
0.14833504 -0.71036607 0.034942668
0.13727559 -0.69495392 0.031571597
0.083645061 -0.78280377 0.047732849
0.026709586 -0.77147734 0.044225547
0.031746022 -0.75827295 0.042123638
0.023266759 -0.7577917 0.041192792
0.066534646 -0.75660259 0.041903913
0.074693635 -0.75632143 0.042068277
0.09093339 -0.75578898 0.042417523
0.10679695 -0.74190694 0.040821735
-0.03026494 -0.74596232 0.037412927
-0.0010659844 -0.74488336 0.038001444
0.11950473 -0.72675091 0.037951261
0.14545524 -0.69535851 0.032491684
0.031275071 -0.83268976 0.05616802
0.056766529 -0.7842434 0.048043597
-0.019019902 -0.76067102 0.041931648
0.03728912 -0.7586816 0.043026876
0.015681643 -0.75853688 0.041899715
-0.024968553 -0.74693191 0.039113071
0.13363585 -0.741521 0.04219
-0.041418098 -0.73342037 0.036468279
-0.028127018 -0.7323662 0.035920005
-0.019966356 -0.73214972 0.036080983
0.11389695 -0.71325642 0.036649425
0.076646335 -0.80893117 0.054302949
0.065246195 -0.78494555 0.049871545
0.038178243 -0.78531951 0.048555508
0.051249467 -0.77197868 0.046295524
0.07814189 -0.7710548 0.046805661
0.10491213 -0.77013195 0.047310751
0.064476676 -0.75888807 0.045148756
0.029249944 -0.759413 0.043741927
0.048147131 -0.7589342 0.044049226
0.056132622 -0.75867754 0.044180647
0.0046505556 -0.7469362 0.041396175
-0.0088259093 -0.746898 0.040276736
0.096082941 -0.74340618 0.042282112
0.1177042 -0.74262035 0.042669643
0.14680022 -0.7276383 0.040893428
0.018360656 -0.83430111 0.058584008
0.030275896 -0.78654218 0.050129507
0.045868002 -0.76010525 0.045653924
-0.016495962 -0.74840868 0.041749652
0.085523188 -0.74491632 0.043686476
0.012815583 -0.74648559 0.041574538
0.018299613 -0.74681467 0.042539544
-0.0061717071 -0.7338801 0.039565343
0.10943615 -0.72946411 0.040949244
0.072915398 -0.75972843 0.046990912
0.077854156 -0.74632055 0.045168273
0.13230722 -0.68358326 0.034091678
0.11549319 -0.74555039 0.046697922
0.12487206 -0.6863485 0.037034452
0.081192262 -0.74851269 0.048505716
0.09939456 -0.73330349 0.045605306
0.021622259 -0.75070798 0.048280276
0.017872166 -0.74446797 0.056218833
