# .PCD v0.7 - Point Cloud Data file format
VERSION 0.7
FIELDS x y z
SIZE 4 4 4
TYPE F F F
COUNT 1 1 1
WIDTH 1325
HEIGHT 1
VIEWPOINT 0 0 0 1 0 0 0
POINTS 1325
DATA ascii
-0.06121831 -0.67389745 0.020710029
-0.1789255 -0.66514647 0.020997241
-0.067768596 -0.66514075 0.020998014
-0.065690652 -0.66508079 0.02091472
-0.064273231 -0.66576684 0.020257792
-0.063598752 -0.6650632 0.020893231
-0.23049206 -0.6575911 0.020690419
-0.071161106 -0.65721923 0.020991221
-0.069381461 -0.65721893 0.020984
-0.16831028 -0.65009683 0.020658541
-0.20324384 -0.64294273 0.020417718
-0.075137168 -0.64295071 0.020431818
-0.19016781 -0.63582855 0.020421648
-0.080780357 -0.63587296 0.020468358
-0.12918212 -0.62951851 0.020036172
-0.12631443 -0.62949479 0.020017277
-0.085630015 -0.62948376 0.020003833
-0.082434334 -0.62952077 0.020038288
-0.16325793 -0.62256217 0.020516308
-0.16117196 -0.62252784 0.020466536
-0.15905534 -0.62251347 0.020459479
-0.15046984 -0.61625719 0.020415554
-0.14905314 -0.6162737 0.020460099
-0.13357553 -0.61003995 0.020565731
-0.095029742 -0.61004764 0.020569494
-0.12443488 -0.60447139 0.020119714
-0.099630147 -0.6044836 0.020122724
-0.12666017 -0.60389137 0.020893358
-0.10114319 -0.60388017 0.020872308
-0.097349413 -0.6038394 0.020857988
-0.10095043 -0.59833199 0.020579521
-0.10489859 -0.59284675 0.020484952
-0.036660064 -0.72122449 0.021011336
-0.035972156 -0.72048163 0.021565886
-0.043177724 -0.71076709 0.021003762
-0.087940477 -0.70987964 0.021427356
-0.048402328 -0.70034975 0.021328904
-0.045970727 -0.70035422 0.021339672
-0.049823929 -0.69961852 0.021906862
-0.04769313 -0.69960839 0.021896448
-0.051907796 -0.68999887 0.021994246
-0.18466248 -0.68191916 0.02121539
-0.18408082 -0.67313474 0.021266775
-0.18225253 -0.67315465 0.021282271
-0.063383743 -0.67312926 0.021259265
-0.18739036 -0.67241842 0.021880452
-0.18447846 -0.67242116 0.021875955
-0.18011504 -0.67246509 0.021925505
-0.18707976 -0.66520542 0.021072244
-0.18675146 -0.66520625 0.021071503
-0.18427701 -0.66515893 0.021007821
-0.17559966 -0.6572324 0.02100026
-0.17336839 -0.65725422 0.021019993
-0.17813781 -0.65653723 0.021650149
-0.17560688 -0.65653878 0.021641519
-0.21547581 -0.64940536 0.021268647
-0.21416576 -0.64936 0.021248128
-0.075661466 -0.64937741 0.021265451
-0.07388287 -0.64936632 0.021228528
-0.21663262 -0.64869708 0.021923097
-0.071384192 -0.64867806 0.02188433
-0.20258382 -0.64228064 0.021095676
-0.20087834 -0.64224565 0.02107859
-0.19725172 -0.64227742 0.021101633
-0.078020461 -0.64228451 0.021105491
-0.079498418 -0.64158583 0.021757845
-0.07598716 -0.64159572 0.021768695
-0.18737191 -0.6351766 0.021117317
-0.18522538 -0.63522536 0.021182049
-0.082180336 -0.635212 0.021164404
-0.078661889 -0.63519907 0.021131603
-0.17462614 -0.62818474 0.021387229
-0.17252664 -0.62819624 0.02143177
-0.087530628 -0.6281724 0.021383109
-0.084534556 -0.62817466 0.021396067
-0.16234636 -0.62126821 0.021923672
-0.16046239 -0.62187541 0.021157401
-0.15813233 -0.6212185 0.021870099
-0.088195719 -0.62188381 0.021174435
-0.087871574 -0.62188071 0.021169527
-0.14701468 -0.6156314 0.021142757
-0.095407017 -0.61500275 0.02187903
-0.091506742 -0.61560053 0.021115057
-0.090836994 -0.6149646 0.021840682
-0.13721681 -0.60936564 0.021234203
-0.12495261 -0.60325336 0.021629188
-0.12254272 -0.60321015 0.021567767
-0.098803341 -0.60324353 0.021611216
-0.10078085 -0.71966761 0.022079624
-0.099350885 -0.71967781 0.022091407
-0.039508425 -0.71972013 0.022109078
-0.097553156 -0.71891004 0.02261672
-0.037377961 -0.71896762 0.022656189
-0.036996577 -0.71896851 0.022653388
-0.09277676 -0.70920545 0.022089617
-0.087205753 -0.70914322 0.022002148
-0.08106672 -0.7092666 0.022151347
-0.044260655 -0.70927006 0.022122916
-0.040382486 -0.70925343 0.022104004
-0.093798354 -0.70845544 0.022634316
-0.091011174 -0.7084111 0.02259443
-0.08892259 -0.7083894 0.022540431
-0.085023627 -0.70842981 0.022590576
-0.078935549 -0.7085287 0.022720892
-0.045676954 -0.70852906 0.022685248
-0.08951436 -0.69842553 0.022706697
-0.04914913 -0.69886667 0.02247222
-0.05406275 -0.68928885 0.022653274
-0.053726379 -0.68928659 0.022647865
-0.051168054 -0.68927306 0.022576366
-0.055824567 -0.6805104 0.022479091
-0.18444477 -0.67171949 0.022489265
-0.18199189 -0.67170042 0.022491537
-0.062336046 -0.67171329 0.02249538
-0.059868943 -0.67175692 0.022551291
-0.18673894 -0.66378134 0.022312731
-0.18390705 -0.66375875 0.022261258
-0.18115884 -0.66339374 0.022580434
-0.17821379 -0.66305643 0.022895671
-0.17643733 -0.66378123 0.022311555
-0.066419065 -0.66336322 0.022549406
-0.22874682 -0.65587783 0.022303918
-0.22734049 -0.65588599 0.022313612
-0.22666495 -0.65516847 0.022953141
-0.22494966 -0.65509069 0.022868507
-0.17313126 -0.65583724 0.022283703
-0.17091972 -0.6558857 0.022330323
-0.069845654 -0.65512919 0.022906629
-0.21454899 -0.64801937 0.022580439
-0.16919249 -0.64799368 0.022558982
-0.19986486 -0.64089334 0.022418799
-0.19624159 -0.64093292 0.022427944
-0.18637946 -0.63385636 0.022499947
-0.18429142 -0.63389707 0.022536043
-0.083346486 -0.63387936 0.02252304
-0.17156684 -0.62688357 0.022816172
-0.15532498 -0.62056601 0.022563221
-0.14324947 -0.6143561 0.022575682
-0.13548593 -0.60877734 0.022010857
-0.13409445 -0.60878015 0.022020601
-0.13263473 -0.60877436 0.022015382
-0.0959787 -0.60814524 0.022726774
-0.094122097 -0.60880095 0.022030136
-0.12083305 -0.60261518 0.022335092
-0.11631058 -0.59711093 0.022081101
-0.11379392 -0.59714353 0.022116186
-0.10296211 -0.59653074 0.022866214
-0.03805564 -0.71745455 0.023734346
-0.084235966 -0.70769197 0.023157731
-0.082472697 -0.70773065 0.023209298
-0.080360942 -0.70701897 0.023820175
-0.046248339 -0.70740211 0.023525368
-0.086832136 -0.70688623 0.023652764
-0.056132909 -0.68857187 0.02328358
-0.052963559 -0.68854988 0.023218367
-0.052289441 -0.68781078 0.023788713
-0.058040086 -0.67978001 0.023070555
-0.057266124 -0.67906368 0.023674011
-0.18949015 -0.67033613 0.023781976
-0.1870264 -0.67098987 0.02309118
-0.17948276 -0.67031437 0.023779759
-0.064236462 -0.67023027 0.023659499
-0.061328966 -0.67029291 0.023732267
-0.2402962 -0.66237491 0.023559839
-0.18947677 -0.66233611 0.023512566
-0.18639024 -0.66235405 0.023541586
-0.17611533 -0.6623584 0.023543177
-0.16994916 -0.65448564 0.02360272
-0.071254626 -0.65445918 0.023571432
-0.21278909 -0.64730257 0.02319647
-0.074305959 -0.64731604 0.023215402
-0.21104357 -0.64662224 0.023859484
-0.19770598 -0.64024252 0.023090806
-0.19565849 -0.64024335 0.023099128
-0.078502454 -0.64024186 0.023096202
-0.11631162 -0.63320309 0.023175558
-0.082707815 -0.63321167 0.02320384
-0.080934197 -0.63321286 0.023208447
-0.079183549 -0.63320392 0.023178743
-0.082692005 -0.62621343 0.023462506
-0.15720326 -0.61991638 0.023271542
-0.1565149 -0.61927933 0.023982732
-0.090232469 -0.61994731 0.023294069
-0.089910701 -0.61994165 0.023284091
-0.14438486 -0.61372006 0.023297915
-0.097772703 -0.60747886 0.023415994
-0.12549837 -0.60204697 0.02311657
-0.12406736 -0.60201651 0.023107126
-0.1000075 -0.60202795 0.023095587
-0.12136621 -0.60136515 0.023785165
-0.11050762 -0.59593952 0.023626814
-0.10796335 -0.59591788 0.023609921
-0.10406826 -0.59590763 0.023576371
-0.099512234 -0.59592748 0.023598706
-0.039636664 -0.71669543 0.024277182
-0.099300295 -0.71588141 0.024781549
-0.087818511 -0.70539671 0.024768913
-0.049469125 -0.69666022 0.024190038
-0.047732797 -0.69664502 0.024185112
-0.08492732 -0.68701041 0.024280395
-0.055125181 -0.68711096 0.024457717
-0.057617813 -0.68636823 0.024995189
-0.059424076 -0.67834145 0.024270754
-0.18471363 -0.67756867 0.024803784
-0.0587295 -0.67761898 0.024866935
-0.18138506 -0.66955698 0.024332948
-0.063174248 -0.66880786 0.024886459
-0.23864318 -0.66169012 0.024217909
-0.2350549 -0.66158366 0.024100164
-0.18642484 -0.66164821 0.024154272
-0.18367215 -0.66164643 0.024149053
-0.18088025 -0.6616292 0.024149938
-0.17795351 -0.66163039 0.024141951
-0.067202501 -0.66161692 0.024136197
-0.068651251 -0.66089702 0.024744784
-0.22220315 -0.65375173 0.024214486
-0.17032532 -0.65378934 0.024265081
-0.072674006 -0.65376031 0.024205437
-0.071994051 -0.65306377 0.024842052
-0.070605472 -0.65376145 0.024211014
-0.068837442 -0.65373957 0.024186537
-0.20937023 -0.64593512 0.024507245
-0.20798483 -0.64594209 0.024531959
-0.073352315 -0.64594322 0.024517661
-0.19472769 -0.63888812 0.024436509
-0.18306652 -0.63188696 0.024576947
-0.18125121 -0.63188612 0.024573106
-0.16776538 -0.62553114 0.024134878
-0.086009108 -0.62553906 0.024152463
-0.16711481 -0.62485731 0.024819046
-0.085287243 -0.62487912 0.024841234
-0.15404524 -0.61862642 0.024679743
-0.088610351 -0.61864954 0.0246912
-0.1469273 -0.61308813 0.024020875
-0.14560707 -0.6130712 0.024009282
-0.093600877 -0.61244953 0.024739254
-0.13291474 -0.60690069 0.024204291
-0.13146855 -0.60690057 0.024203015
-0.13007449 -0.60693216 0.024222581
-0.097157933 -0.60685503 0.024144711
-0.095084436 -0.60689509 0.02418627
-0.10066637 -0.59532458 0.024375437
-0.097462036 -0.71514469 0.025338888
-0.096052997 -0.71514136 0.025338201
-0.040519454 -0.71520114 0.025376307
-0.041825566 -0.71444178 0.025904251
-0.039805871 -0.71444058 0.025913673
-0.043433264 -0.70479465 0.025465475
-0.09198194 -0.70396125 0.025965538
-0.052686021 -0.69443774 0.025902398
-0.051269017 -0.69444412 0.025909809
-0.054211803 -0.68638098 0.025035858
-0.061241277 -0.6768778 0.025444925
-0.058042139 -0.67689949 0.025473686
-0.18345891 -0.66814548 0.025558943
-0.17886782 -0.66817236 0.025619121
-0.065365978 -0.66804659 0.025448715
-0.23650782 -0.66027772 0.025468333
-0.23541343 -0.66023022 0.025420668
-0.069759496 -0.66019517 0.025372203
-0.21940874 -0.6523788 0.02549829
-0.075132683 -0.64526415 0.025196373
-0.20585167 -0.64457232 0.025830593
-0.079009756 -0.63819695 0.025086563
-0.19379061 -0.63753033 0.025786541
-0.19127503 -0.63748372 0.025717957
-0.17878734 -0.63114178 0.025151545
-0.083254464 -0.63054621 0.025918921
-0.16646461 -0.62420094 0.025510848
-0.15013281 -0.61801898 0.025427958
-0.15550031 -0.61798716 0.025385315
-0.14180087 -0.61180747 0.02544833
-0.14042133 -0.61178106 0.025426744
-0.13059334 -0.60564584 0.025655091
-0.12530667 -0.60562414 0.025617568
-0.12186692 -0.60012734 0.025264189
-0.11443085 -0.60018235 0.025317267
-0.10066791 -0.60015798 0.02529355
-0.098841235 -0.60017699 0.025308231
-0.10498714 -0.59468061 0.025075851
-0.041126195 -0.71368581 0.026446326
-0.090233788 -0.70323038 0.026542382
-0.049488604 -0.69371331 0.026486218
-0.088129468 -0.69287455 0.026983732
-0.087737896 -0.69288141 0.026985003
-0.056359731 -0.68491066 0.026181441
-0.060466669 -0.6761561 0.026042499
-0.059812039 -0.67543238 0.026646014
-0.067144297 -0.66733849 0.026069809
-0.066403702 -0.6666224 0.026676774
-0.064349897 -0.66662103 0.026675731
-0.23440765 -0.65880901 0.026649451
-0.2208271 -0.65167981 0.026133988
-0.073102452 -0.65166318 0.026108701
-0.22016123 -0.65096879 0.026773734
-0.175916 -0.650967 0.026764652
-0.17331311 -0.65097982 0.026761329
-0.074861385 -0.65096587 0.026739411
-0.20666271 -0.64387506 0.026498055
-0.20368898 -0.64388585 0.026481068
-0.10942259 -0.63687587 0.026454492
-0.079712011 -0.6368534 0.026423167
-0.1778193 -0.62981689 0.026515745
-0.17574614 -0.62984616 0.026551683
-0.11339793 -0.62986732 0.026605971
-0.085452504 -0.62984842 0.026553893
-0.088662766 -0.62357789 0.026242962
-0.16550915 -0.62289464 0.02689869
-0.16341227 -0.62296677 0.026981391
-0.16131659 -0.62290961 0.026917515
-0.087473899 -0.62290728 0.026921194
-0.15129477 -0.61735189 0.026112879
-0.091537245 -0.61669087 0.026802361
-0.095220648 -0.6105423 0.026885565
-0.1090824 -0.59351742 0.026635004
-0.10264666 -0.59349334 0.026593404
-0.09237887 -0.70245868 0.027077727
-0.045557596 -0.70253813 0.027139813
-0.049132369 -0.70179379 0.027689869
-0.047038294 -0.70179766 0.027702909
-0.044837378 -0.7017917 0.027698141
-0.086335488 -0.69213051 0.02755353
-0.04876012 -0.69297141 0.027051192
-0.084743328 -0.68336248 0.027211238
-0.061239202 -0.67398506 0.027836692
-0.23304665 -0.65807092 0.027239086
-0.070127353 -0.65808553 0.027249768
-0.068376362 -0.65808439 0.027252326
-0.21771291 -0.65028608 0.02742235
-0.18116015 -0.65025055 0.027377853
-0.074235566 -0.65026593 0.02738386
-0.07883323 -0.6432156 0.027158568
-0.077031791 -0.64321107 0.027159549
-0.075628132 -0.64320737 0.02715273
-0.073822424 -0.64319718 0.027152332
-0.20269276 -0.64248723 0.027781609
-0.2009439 -0.64249986 0.027793357
-0.19273423 -0.63619691 0.027130311
-0.19027217 -0.63613605 0.027049653
-0.18776543 -0.63617671 0.027104206
-0.11306827 -0.63613307 0.027041735
-0.11168494 -0.63616592 0.027084753
-0.1095322 -0.63619375 0.027112484
-0.10316301 -0.63615263 0.027078679
-0.18710119 -0.63550353 0.02777504
-0.11304994 -0.63545942 0.027703898
-0.10599297 -0.63551503 0.027781358
-0.17717783 -0.6291374 0.027179962
-0.17290859 -0.62918693 0.027261071
-0.12827386 -0.62921178 0.027269559
-0.12158922 -0.62918985 0.027255842
-0.12021955 -0.62918723 0.027260469
-0.11878673 -0.62917787 0.027225224
-0.082322538 -0.62921345 0.02728259
-0.17478217 -0.62851834 0.027918583
-0.13332617 -0.62850976 0.027922628
-0.12085349 -0.62851256 0.027916892
-0.16270785 -0.62230128 0.027658274
-0.16065602 -0.62225956 0.02761226
-0.086679697 -0.62224561 0.027610129
-0.150373 -0.61606747 0.027541429
-0.090564899 -0.61604518 0.027512282
-0.13778275 -0.60984415 0.027539862
-0.097847633 -0.60435569 0.027071932
-0.12658606 -0.60380077 0.027866522
-0.099328183 -0.60377371 0.027857607
-0.1146132 -0.59833473 0.027538285
-0.10740501 -0.59291798 0.027389705
-0.043940742 -0.71142852 0.028083973
-0.041465141 -0.71065325 0.028612103
-0.045856047 -0.70029855 0.028806575
-0.050536372 -0.69074577 0.028761428
-0.059003402 -0.68198508 0.02849759
-0.056896143 -0.68198407 0.028496355
-0.06276127 -0.67250878 0.028999202
-0.2417282 -0.66461307 0.028693441
-0.062963657 -0.66448969 0.028531883
-0.2309486 -0.65670162 0.028539333
-0.22945136 -0.65673774 0.028549388
-0.22775182 -0.6567241 0.028551148
-0.21918286 -0.64958191 0.028053816
-0.21532595 -0.64887631 0.02870705
-0.213865 -0.648866 0.028664978
-0.071504332 -0.6488772 0.028675549
-0.19880034 -0.64182669 0.02844088
-0.16269088 -0.64184046 0.028463036
-0.18931624 -0.63477439 0.028380172
-0.082035981 -0.63482714 0.028451255
-0.078418069 -0.63481772 0.02841433
-0.17195287 -0.62786156 0.02861069
-0.16001341 -0.62159002 0.028288504
-0.090944968 -0.62161767 0.028314302
-0.14518997 -0.61477482 0.028939405
-0.09495353 -0.61477733 0.028943231
-0.13603432 -0.6092509 0.028307389
-0.13684818 -0.6085797 0.028985694
-0.11296691 -0.59772146 0.028284572
-0.10344335 -0.5970723 0.028991051
-0.10570341 -0.59227556 0.028106021
-0.047881853 -0.7316041 0.029338021
-0.038008783 -0.72034717 0.0293217
-0.036306486 -0.72035116 0.029331099
-0.038552798 -0.70915568 0.029705383
-0.04913111 -0.69879234 0.029912749
-0.047336522 -0.69880974 0.029924793
-0.051891267 -0.68998152 0.029311609
-0.058000438 -0.68051684 0.029666997
-0.05587652 -0.68051267 0.02966105
-0.060172237 -0.67254126 0.02903189
-0.23963785 -0.66318601 0.029919846
-0.225704 -0.65592164 0.029092049
-0.18382497 -0.65527046 0.02975874
-0.068702027 -0.65596932 0.02912646
-0.21637209 -0.64820772 0.029352389
-0.17492923 -0.64818084 0.029309621
-0.072919555 -0.64817053 0.029295631
-0.21174411 -0.64749116 0.029953981
-0.074409939 -0.6474883 0.029959219
-0.074262828 -0.64114439 0.029110072
-0.1996551 -0.64043492 0.029750735
-0.078928709 -0.64046371 0.029769585
-0.077171274 -0.64047295 0.02977825
-0.18611136 -0.63416809 0.029131593
-0.11703762 -0.63415045 0.029088413
-0.083444461 -0.63415539 0.029114015
-0.18408558 -0.63349801 0.029796382
-0.1822813 -0.63347137 0.029764963
-0.17341101 -0.62719601 0.029304493
-0.17132799 -0.62719244 0.029276423
-0.1302231 -0.62720591 0.029304767
-0.12848639 -0.62719899 0.029303197
-0.08313299 -0.62719643 0.029285315
-0.17070477 -0.62651622 0.029959718
-0.12421708 -0.62649441 0.029945577
-0.086193293 -0.62649918 0.029952791
-0.1591008 -0.62027729 0.029686037
-0.15686268 -0.62028718 0.029687995
-0.15535584 -0.62094843 0.029001413
-0.089926772 -0.62095845 0.029013665
-0.14637955 -0.61411637 0.029635781
-0.13117661 -0.60864437 0.029045174
-0.13513108 -0.60798079 0.029749056
-0.13371223 -0.60798013 0.029756209
-0.097913526 -0.60793519 0.029679568
-0.09587349 -0.60797864 0.029734928
-0.11860596 -0.60250974 0.029289104
-0.096654668 -0.6024738 0.02925195
-0.1229681 -0.60184646 0.029973028
-0.12080387 -0.60186958 0.029997272
-0.11371933 -0.59709871 0.029008435
-0.11023146 -0.59710109 0.029024241
-0.10853925 -0.59645456 0.029737506
-0.10745351 -0.59644067 0.029721281
-0.039067514 -0.71881181 0.030378606
-0.044239324 -0.70840603 0.030250667
-0.042139824 -0.7084046 0.030250169
-0.043519109 -0.70765895 0.030800382
-0.041431271 -0.70764351 0.030791109
-0.050879352 -0.68850303 0.030454583
-0.084424257 -0.679703 0.030140065
-0.064483143 -0.67100686 0.030119903
-0.061757356 -0.67106652 0.030206805
-0.082900912 -0.6703167 0.030758107
-0.066114277 -0.66236424 0.030408869
-0.22646084 -0.65458095 0.030415474
-0.22467376 -0.65453303 0.030373309
-0.21258666 -0.64677167 0.030596621
-0.2100535 -0.64679027 0.0305994
-0.19752102 -0.6397599 0.030399334
-0.16209871 -0.63978755 0.030429885
-0.07823541 -0.63977915 0.030419359
-0.18513422 -0.63281327 0.030451901
-0.0807027 -0.63279939 0.030446514
-0.17000192 -0.62584013 0.030625999
-0.13387775 -0.62583655 0.030621663
-0.12926804 -0.62587166 0.030661091
-0.085416228 -0.62583005 0.030635016
-0.15447012 -0.61961013 0.030366637
-0.088985987 -0.61963952 0.030389054
-0.14424312 -0.61347759 0.030336825
-0.14284876 -0.61347926 0.030345306
-0.093971714 -0.61348218 0.030351641
-0.12156288 -0.60123879 0.03071655
-0.11910827 -0.60123771 0.030725433
-0.1013914 -0.60125405 0.030728957
-0.097874239 -0.60126698 0.030775009
-0.10581301 -0.59581602 0.030447144
-0.099423587 -0.59584898 0.030459339
-0.039732885 -0.71651816 0.031962786
-0.044549823 -0.70614296 0.031885564
-0.042432364 -0.70690042 0.031335924
-0.052630845 -0.68775988 0.031055471
-0.06345287 -0.66956431 0.031318806
-0.24001208 -0.66176844 0.031141028
-0.23823415 -0.66105533 0.031761829
-0.23716225 -0.661017 0.03173048
-0.069353364 -0.66168362 0.031056913
-0.06754262 -0.66169792 0.031069512
-0.22368614 -0.6531173 0.031619899
-0.18638049 -0.65389073 0.031036049
-0.072402559 -0.65317011 0.031658299
-0.070984937 -0.65387595 0.031035155
-0.069187693 -0.65385026 0.031006549
-0.21076417 -0.64609605 0.031230288
-0.20903003 -0.64539778 0.031864159
-0.20648301 -0.64539891 0.031886265
-0.075201079 -0.6453988 0.031896949
-0.19646932 -0.63908702 0.03106045
-0.19440554 -0.63911438 0.031108404
-0.16003367 -0.63908345 0.031070957
-0.094940245 -0.63907117 0.031053161
-0.079661489 -0.63908166 0.031061096
-0.076190569 -0.63909757 0.03108382
-0.19372849 -0.63840753 0.031720061
-0.09843459 -0.63840073 0.031717446
-0.097792447 -0.6383968 0.03171901
-0.18125351 -0.63208711 0.031063851
-0.13844901 -0.63209474 0.031062804
-0.08213219 -0.63212001 0.03111179
-0.18058819 -0.63140541 0.031718746
-0.12008806 -0.63143378 0.031740688
-0.11442857 -0.6314342 0.031782053
-0.098130949 -0.63145036 0.031777859
-0.16936676 -0.62516707 0.031310983
-0.1688197 -0.62516546 0.031300128
-0.13314328 -0.62517273 0.031303603
-0.084338091 -0.62516665 0.031309955
-0.15702555 -0.62449706 0.031990204
-0.087992996 -0.6245001 0.031984083
-0.086917207 -0.62450349 0.031992972
-0.15812112 -0.61896354 0.031074103
-0.15778141 -0.61896354 0.031076621
-0.15590817 -0.61897063 0.031067135
-0.1549679 -0.61830103 0.031757392
-0.15355016 -0.61830109 0.03176301
-0.14923663 -0.6189841 0.031097827
-0.13262187 -0.61828393 0.031737261
-0.1258224 -0.61833692 0.031782582
-0.10106069 -0.61834115 0.031795502
-0.14539188 -0.61281532 0.031038297
-0.14153928 -0.61248112 0.031376641
-0.1404976 -0.61214221 0.031694464
-0.13127299 -0.61220562 0.031776652
-0.096195757 -0.61219227 0.031765737
-0.093294755 -0.61283416 0.031044522
-0.092960417 -0.61283368 0.031045845
-0.13112463 -0.60607052 0.031902041
-0.13003312 -0.60672933 0.031200666
-0.096763916 -0.60602152 0.031831879
-0.094240643 -0.60608101 0.031895418
-0.1199109 -0.60061479 0.031448115
-0.099331424 -0.60064191 0.031478144
-0.11010301 -0.59525311 0.03124035
-0.10700102 -0.59459668 0.031943589
-0.10635243 -0.59459329 0.031948239
-0.10208297 -0.59461302 0.031966429
-0.038998842 -0.71575952 0.032492541
-0.04388753 -0.70537877 0.032425031
-0.051957283 -0.69507331 0.032711666
-0.04959641 -0.69544518 0.032426104
-0.048740324 -0.69544172 0.032425575
-0.047356218 -0.69580132 0.032136705
-0.054321367 -0.68631321 0.032281891
-0.085926339 -0.6854859 0.032691412
-0.053649124 -0.68557078 0.032844868
-0.058274493 -0.67687273 0.032591451
-0.23648228 -0.66029215 0.032342635
-0.081373379 -0.66027218 0.032275874
-0.23511338 -0.65953451 0.032873839
-0.23408192 -0.65953219 0.032877669
-0.23186551 -0.65959758 0.032930512
-0.071494527 -0.65954465 0.032886922
-0.067735583 -0.65954304 0.032893423
-0.066173866 -0.65954912 0.032908075
-0.22295152 -0.65243626 0.03227317
-0.22013332 -0.65247756 0.032300197
-0.21337792 -0.6524598 0.032281566
-0.22036621 -0.65175951 0.032926597
-0.2116874 -0.65175158 0.032934599
-0.20798787 -0.65173197 0.032889195
-0.071336992 -0.65176034 0.032912143
-0.20733193 -0.64470148 0.032526955
-0.20543623 -0.64472342 0.032540955
-0.19485943 -0.64468801 0.032521918
-0.19309093 -0.63768023 0.032328743
-0.19236608 -0.63767183 0.032330967
-0.18450128 -0.63769025 0.032347135
-0.16972677 -0.637703 0.032355592
-0.082150802 -0.63771629 0.032364126
-0.078697376 -0.63770604 0.032365303
-0.17963482 -0.63070124 0.032359984
-0.17826857 -0.63069791 0.032355953
-0.17714065 -0.63075083 0.032403607
-0.17642868 -0.63074946 0.032406732
-0.15268679 -0.63076979 0.032437451
-0.1509186 -0.63072795 0.032376815
-0.13353617 -0.63076079 0.032426409
-0.12472732 -0.63072079 0.032368775
-0.11726533 -0.63077313 0.032428645
-0.11676106 -0.63076782 0.032428451
-0.11230892 -0.63070875 0.032360815
-0.10883197 -0.63075733 0.032425355
-0.083395608 -0.63076687 0.032448862
-0.1665142 -0.62451512 0.032000475
-0.13715231 -0.62451112 0.03200978
-0.16568097 -0.62385798 0.032704674
-0.16380367 -0.62386221 0.032697011
-0.1495406 -0.6238609 0.032692861
-0.087258555 -0.62384284 0.032669086
-0.15243971 -0.61766344 0.032466732
-0.12702952 -0.61765957 0.032476787
-0.092986971 -0.61764854 0.032458741
-0.11718959 -0.61150688 0.032434139
-0.098472074 -0.61151576 0.032435402
-0.094520926 -0.61153984 0.03246833
-0.13042945 -0.60544336 0.032617748
-0.12911592 -0.60545319 0.032630041
-0.12657291 -0.60541767 0.032598749
-0.10530282 -0.60541666 0.032567531
-0.099376634 -0.60540336 0.032588005
-0.11716256 -0.60000354 0.032209456
-0.11638534 -0.60001266 0.032207701
-0.11821283 -0.59998822 0.032179452
-0.11652134 -0.59938091 0.032933298
-0.11474416 -0.5993973 0.032942992
-0.11365733 -0.59939557 0.032940995
-0.10937643 -0.59997833 0.032185972
-0.10224554 -0.59999818 0.032174457
-0.1002206 -0.59938699 0.032928299
-0.040230412 -0.72543621 0.03342472
-0.039659943 -0.71423638 0.033542097
-0.045922905 -0.70387644 0.03352185
-0.044683967 -0.70388061 0.033521734
-0.049800389 -0.69433182 0.033268981
-0.051926278 -0.69357777 0.03382463
-0.050894164 -0.69358325 0.033829447
-0.056123201 -0.6840896 0.033987075
-0.05565384 -0.68408597 0.033994801
-0.084234864 -0.67607236 0.033089932
-0.063339151 -0.67611325 0.033141561
-0.060505923 -0.67611885 0.033159994
-0.084246553 -0.67533863 0.03367671
-0.083292738 -0.66741121 0.03313249
-0.067833275 -0.66734213 0.033062339
-0.069178246 -0.66666508 0.03373019
-0.064263493 -0.66663301 0.033678241
-0.06395784 -0.66663885 0.033688225
-0.23338057 -0.65883505 0.033504978
-0.22977141 -0.65886986 0.033552721
-0.084231183 -0.65886408 0.033552155
-0.075751804 -0.65885293 0.033522889
-0.21800689 -0.65108275 0.033562183
-0.21761921 -0.65108174 0.033557184
-0.21663013 -0.65104258 0.03354197
-0.2158889 -0.6510402 0.033525072
-0.21446137 -0.65104717 0.033534855
-0.21310611 -0.65104705 0.033529613
-0.081711777 -0.65106606 0.033567265
-0.070703037 -0.65105587 0.033547744
-0.20509812 -0.64401823 0.033169344
-0.20048563 -0.64401627 0.033168759
-0.18175599 -0.64401776 0.033188902
-0.16402844 -0.64403284 0.033188034
-0.092196062 -0.64403641 0.033196069
-0.077748962 -0.64402294 0.033190984
-0.20666407 -0.64399564 0.033162475
-0.20337698 -0.64363503 0.033464424
-0.20048255 -0.64333129 0.033817511
-0.19781594 -0.64332783 0.033848599
-0.19491211 -0.64397949 0.033137519
-0.19134052 -0.64335436 0.033851091
-0.18924125 -0.64335865 0.033864699
-0.18710242 -0.64397061 0.033118729
-0.18428443 -0.64332336 0.033803336
-0.088280641 -0.64334434 0.03384975
-0.079555839 -0.64333439 0.033832818
-0.077043951 -0.64332807 0.033828653
-0.07560166 -0.64332443 0.03383046
-0.17257306 -0.63705468 0.033069383
-0.16977105 -0.63700813 0.033005692
-0.19061926 -0.63699359 0.033005986
-0.18962085 -0.63630444 0.03365453
-0.17893955 -0.63634491 0.033693198
-0.15731366 -0.63635343 0.03368669
-0.10332961 -0.63632536 0.033667892
-0.099678963 -0.6363439 0.033672869
-0.1774272 -0.6300447 0.033046417
-0.16450268 -0.63005918 0.033074189
-0.16164549 -0.63005567 0.033065341
-0.14761049 -0.63007885 0.033099141
-0.14462362 -0.6300841 0.033111259
-0.1424706 -0.63010597 0.03311741
-0.13147883 -0.63009644 0.033107821
-0.12088577 -0.63007849 0.033098057
-0.11238593 -0.63003653 0.033046793
-0.085468866 -0.63007379 0.033069201
-0.082661085 -0.63009262 0.033120308
-0.17472379 -0.62941206 0.033771768
-0.15070879 -0.62936485 0.033720661
-0.14390169 -0.62941682 0.033777148
-0.1427647 -0.62942559 0.033791501
-0.13866864 -0.62935668 0.033706937
-0.13218743 -0.6294148 0.033757061
-0.12978636 -0.62940532 0.033768602
-0.12727827 -0.62938547 0.033746205
-0.12692331 -0.62937951 0.033736289
-0.12446012 -0.62935948 0.033701789
-0.11811858 -0.62939662 0.033738095
-0.1177874 -0.62939107 0.033742622
-0.091256872 -0.62937552 0.033734098
-0.088669352 -0.62937945 0.033731822
-0.16238631 -0.6231764 0.033344913
-0.15960415 -0.62317044 0.033354115
-0.14783636 -0.62319398 0.033385344
-0.14462741 -0.62318087 0.033367936
-0.1397236 -0.62321603 0.033396348
-0.10147422 -0.62319863 0.033384252
-0.15112324 -0.61702287 0.033202767
-0.15034567 -0.61702824 0.033189099
-0.14968657 -0.61702055 0.033179462
-0.14017117 -0.61700404 0.033166923
-0.13870159 -0.61701304 0.03317675
-0.098691925 -0.61701882 0.033177264
-0.091267079 -0.61700654 0.033181116
-0.090583444 -0.6170187 0.033186823
-0.15042679 -0.61636353 0.033894315
-0.14867333 -0.61635929 0.033860821
-0.14516561 -0.61635876 0.033869144
-0.1434468 -0.61631519 0.033821907
-0.14193296 -0.61697561 0.033133566
-0.13207677 -0.61632639 0.033822447
-0.12811922 -0.61698443 0.033140749
-0.10437508 -0.61696309 0.033111382
-0.098732784 -0.61637241 0.033882309
-0.093164727 -0.61632925 0.03383312
-0.1409549 -0.61088538 0.033166647
-0.1378143 -0.61021167 0.033845458
-0.13606672 -0.61022538 0.033862479
-0.13284364 -0.61090648 0.033176515
-0.13113314 -0.61025977 0.033881679
-0.12799276 -0.61018515 0.03380416
-0.12682083 -0.6108588 0.033119138
-0.12400241 -0.61086035 0.033137083
-0.12087677 -0.61024344 0.033862021
-0.11948261 -0.61023659 0.033862375
-0.11415254 -0.61018813 0.033811208
-0.1048559 -0.61087728 0.033141684
-0.10169224 -0.61083394 0.03310689
-0.09641543 -0.61056685 0.033518046
-0.095273495 -0.61088568 0.033160493
-0.094620228 -0.61056489 0.033517681
-0.12731645 -0.60482436 0.033350267
-0.12696415 -0.60479611 0.033335954
-0.12558244 -0.60476547 0.03328073
-0.12418921 -0.60475647 0.03327176
-0.12139156 -0.60412407 0.033997647
-0.11843406 -0.60480189 0.033315357
-0.11035032 -0.60475355 0.033261247
-0.097614624 -0.60442448 0.033616535
-0.11481144 -0.59876925 0.033673033
-0.10911119 -0.5987249 0.033635382
-0.10349158 -0.59874964 0.03365916
-0.10245954 -0.59873831 0.033630628
-0.10292405 -0.59338373 0.033431612
-0.045546882 -0.72314095 0.034986474
-0.044112254 -0.72312653 0.034973186
-0.037721485 -0.72315568 0.03498897
-0.039639395 -0.71347696 0.034078203
-0.040702116 -0.7127223 0.034612488
-0.045880113 -0.70312148 0.034062911
-0.048758041 -0.70237023 0.034611717
-0.051501576 -0.69208622 0.034938246
-0.055098716 -0.68409026 0.034001354
-0.084428445 -0.68326712 0.034401242
-0.059455648 -0.67465669 0.03433267
-0.069133006 -0.67378503 0.034730699
-0.062625811 -0.67391568 0.034893952
-0.060857043 -0.67392558 0.03490755
-0.23778836 -0.66522157 0.034923702
-0.23635243 -0.66526318 0.034971517
-0.084422834 -0.66597199 0.034337509
-0.083021879 -0.66596448 0.034335192
-0.080918305 -0.66525304 0.034953509
-0.077357404 -0.66524315 0.03495219
-0.075917155 -0.66523373 0.034932271
-0.074436352 -0.66523719 0.034931783
-0.073460408 -0.6659584 0.034338333
-0.070286036 -0.66524035 0.034953885
-0.067460291 -0.66590112 0.034265894
-0.066400357 -0.66589504 0.034252573
-0.23198266 -0.65814865 0.034159627
-0.22978394 -0.65817684 0.034166008
-0.22739002 -0.6580686 0.034075536
-0.22487977 -0.65813363 0.03414683
-0.068678848 -0.65811205 0.034117579
-0.23126312 -0.65744793 0.034772705
-0.2301719 -0.65744978 0.034776334
-0.22983663 -0.65744841 0.034781154
-0.22737943 -0.65736455 0.034693845
-0.22241814 -0.65743315 0.034768458
-0.22068144 -0.65741563 0.034773286
-0.086416185 -0.65744901 0.034780458
-0.084999688 -0.65743798 0.034776252
-0.073686056 -0.65742648 0.03475666
-0.072276652 -0.65740204 0.034731954
-0.069774747 -0.65739727 0.034729429
-0.21597765 -0.6503312 0.034162957
-0.20946319 -0.65034473 0.034168445
-0.20304771 -0.65036881 0.034189086
-0.085925646 -0.65035492 0.034176104
-0.072531328 -0.65034312 0.034160178
-0.2142168 -0.64962852 0.034786906
-0.21105886 -0.64964205 0.034807578
-0.20735873 -0.64962244 0.034791149
-0.20527658 -0.64963102 0.034801174
-0.20313334 -0.64963597 0.034787681
-0.19998518 -0.64962494 0.034766383
-0.088426143 -0.64965659 0.034804091
-0.087010071 -0.64964825 0.034798071
-0.073960446 -0.6496256 0.034768131
-0.20096914 -0.6426127 0.034450103
-0.19459435 -0.64259368 0.034419131
-0.1867656 -0.64258718 0.034401793
-0.17793891 -0.64258873 0.034416933
-0.096861377 -0.64261591 0.034439821
-0.089791715 -0.64264596 0.034494784
-0.085096829 -0.64263523 0.034452852
-0.18661237 -0.63567746 0.034369834
-0.1818091 -0.63560843 0.034272868
-0.17895348 -0.63565564 0.034325574
-0.17565897 -0.63563406 0.034312148
-0.17226006 -0.63566655 0.03436324
-0.16942814 -0.63564432 0.034312561
-0.16664508 -0.63563842 0.034321886
-0.16406797 -0.6356467 0.034320638
-0.15884708 -0.63565338 0.03434208
-0.10215317 -0.63564271 0.034330472
-0.099752069 -0.63565147 0.034327835
-0.083399303 -0.6356647 0.034361091
-0.082024202 -0.63565415 0.034337003
-0.080916621 -0.63564789 0.034321606
-0.079159528 -0.63564301 0.034320135
-0.17225753 -0.63496244 0.034992937
-0.16672599 -0.63493991 0.034967866
-0.15489864 -0.63497418 0.034999482
-0.090919346 -0.63493967 0.034971356
-0.17374232 -0.62873214 0.03444783
-0.17053701 -0.62869614 0.034383293
-0.16737811 -0.62876147 0.03446354
-0.1642601 -0.62870336 0.034401737
-0.15384479 -0.62873304 0.034433417
-0.15211479 -0.62873167 0.034435149
-0.12527663 -0.62868202 0.034389805
-0.12270548 -0.62871569 0.034404844
-0.1142573 -0.62872076 0.034427676
-0.10928681 -0.6286934 0.034382015
-0.10075609 -0.62871206 0.034399692
-0.084179632 -0.62873012 0.034420848
-0.16284142 -0.62251222 0.034031611
-0.15969643 -0.62249207 0.034025993
-0.15109289 -0.62251383 0.034048174
-0.098347329 -0.62252575 0.034047648
-0.14934522 -0.62186211 0.034729984
-0.14580773 -0.62180585 0.03467568
-0.098354474 -0.62186551 0.034735162
-0.092098527 -0.62184918 0.034717601
-0.090304114 -0.62184644 0.034717403
-0.089894205 -0.62185359 0.034719054
-0.14872554 -0.61569744 0.034555238
-0.14659774 -0.61570203 0.03455903
-0.13848577 -0.61569703 0.034571167
-0.13502881 -0.61571795 0.034580827
-0.12931091 -0.61567748 0.034535725
-0.12080737 -0.61570567 0.034564115
-0.10064748 -0.61569524 0.034549851
-0.13616928 -0.60957611 0.034558244
-0.13470092 -0.60958445 0.034568079
-0.12941073 -0.60958189 0.034575939
-0.12519623 -0.60956037 0.034527265
-0.12236311 -0.60957909 0.034555838
-0.11522961 -0.60955054 0.034529995
-0.11138078 -0.60957593 0.034556687
-0.10747027 -0.60957438 0.034528423
-0.10606361 -0.60958457 0.03455114
-0.10461807 -0.60958689 0.034557562
-0.09966974 -0.6095345 0.034505811
-0.12562208 -0.60414541 0.03402235
-0.11673184 -0.60417068 0.034035798
-0.099130936 -0.60414386 0.034045547
-0.12398617 -0.60347933 0.03470676
-0.11970076 -0.60350972 0.034743581
-0.11821818 -0.60353142 0.034757569
-0.11684268 -0.60353339 0.034764029
-0.11545807 -0.60352188 0.034759223
-0.11260209 -0.60349208 0.03472716
-0.10869244 -0.60350752 0.034730662
-0.099168472 -0.6035158 0.034769494
-0.11311429 -0.59814143 0.034401421
-0.11166877 -0.59814554 0.03440294
-0.11024892 -0.59811682 0.034383021
-0.10635339 -0.59810746 0.034349386
-0.046855617 -0.72237206 0.035489392
-0.041947007 -0.72236246 0.035487801
-0.048288796 -0.72159034 0.035998981
-0.042125378 -0.71117646 0.035649654
-0.041719384 -0.71118152 0.035653107
-0.15521224 -0.70082611 0.03566514
-0.054384548 -0.70087326 0.0356998
-0.046566937 -0.70084596 0.035684854
-0.053964399 -0.69130659 0.035479683
-0.052564085 -0.69132072 0.035480775
-0.057163626 -0.68260461 0.0350913
-0.056856792 -0.68260247 0.035092991
-0.077108048 -0.6817382 0.035504974
-0.058233596 -0.68187106 0.035669334
-0.082510695 -0.67314458 0.035429649
-0.066593722 -0.67309725 0.035365298
-0.060857292 -0.6731931 0.035492048
-0.078249656 -0.67238379 0.035986595
-0.070486255 -0.67232352 0.03590202
-0.068773143 -0.67231911 0.035899732
-0.23251656 -0.66453481 0.035566825
-0.2304024 -0.66448337 0.035518423
-0.067308366 -0.66446126 0.035482503
-0.06540253 -0.66443849 0.035441559
-0.22780079 -0.65669316 0.035349604
-0.22420597 -0.65600586 0.035985775
-0.22208829 -0.65600157 0.035995033
-0.21430099 -0.65670401 0.035366174
-0.08007741 -0.65670609 0.03535841
-0.076820396 -0.65670371 0.035347223
-0.07068114 -0.65668845 0.035343729
-0.22707063 -0.655949 0.035939835
-0.22460684 -0.65598863 0.035986047
-0.21854605 -0.65597713 0.035956271
-0.081506297 -0.6559912 0.035989501
-0.073334806 -0.65599912 0.035982791
-0.18935491 -0.64819264 0.035997074
-0.083843395 -0.64895689 0.035443719
-0.082460381 -0.64896345 0.035456304
-0.079643093 -0.64894998 0.035442658
-0.078192957 -0.64894581 0.035445485
-0.07503137 -0.64892697 0.03539649
-0.20030138 -0.64191532 0.035088185
-0.19746153 -0.64124292 0.035745528
-0.1943236 -0.64119363 0.035699725
-0.1910858 -0.64124531 0.035758562
-0.18900596 -0.64127147 0.035781782
-0.18893051 -0.64196545 0.035141949
-0.18676822 -0.64190906 0.03506406
-0.18407169 -0.64155304 0.035379354
-0.18118966 -0.64159518 0.035448968
-0.1779644 -0.6419093 0.035064388
-0.17480677 -0.64197367 0.03514557
-0.1612861 -0.64125806 0.035761319
-0.095671535 -0.64121974 0.035720602
-0.093493022 -0.64145416 0.035515625
-0.092693679 -0.64122671 0.035720274
-0.091282681 -0.6412465 0.035742652
-0.089564934 -0.6412496 0.03576934
-0.087675795 -0.64124924 0.035764344
-0.083397917 -0.64193672 0.035098787
-0.082072429 -0.64192498 0.035094488
-0.080629334 -0.64193755 0.035102867
-0.079225197 -0.64159626 0.035429046
-0.077811651 -0.64194548 0.035111919
-0.18503475 -0.6349954 0.035025302
-0.18413496 -0.63453007 0.035455491
-0.18153022 -0.63422424 0.035573233
-0.17874493 -0.63427091 0.035624396
-0.1755846 -0.63427103 0.035628147
-0.17230755 -0.63427413 0.035632405
-0.16920766 -0.63427472 0.035632204
-0.16383189 -0.63425875 0.035620648
-0.16166402 -0.63427955 0.035646748
-0.15248659 -0.63423681 0.035591681
-0.10570211 -0.63429618 0.035650115
-0.096907765 -0.63428354 0.035635479
-0.09335757 -0.6342693 0.035622418
-0.090897731 -0.63425457 0.035619516
-0.086620666 -0.63498199 0.035009079
-0.08453548 -0.6342895 0.035662796
-0.082035236 -0.63497186 0.035000809
-0.17379352 -0.62805194 0.035112988
-0.16443539 -0.6280297 0.035061233
-0.15888865 -0.62802184 0.035066757
-0.15531179 -0.62805432 0.0350926
-0.14863813 -0.6280033 0.035043068
-0.14542127 -0.62805027 0.03511158
-0.14009482 -0.62805301 0.035111856
-0.13871403 -0.62802184 0.035053954
-0.13480872 -0.62801731 0.035054002
-0.12774311 -0.62805867 0.035104644
-0.12420273 -0.62800574 0.035046749
-0.12272146 -0.62803096 0.035057046
-0.096932352 -0.62805766 0.035118263
-0.091279805 -0.62803012 0.035074029
-0.088468418 -0.62802655 0.035067149
-0.086656116 -0.62802202 0.035070065
-0.085973375 -0.62802929 0.03508015
-0.16729495 -0.62739766 0.035795197
-0.16139686 -0.62735939 0.035735812
-0.15675128 -0.62738192 0.035792984
-0.15011479 -0.62734878 0.035744701
-0.14686118 -0.62737006 0.035761867
-0.14369012 -0.62736583 0.035758704
-0.14051268 -0.62740088 0.035787407
-0.13872588 -0.62736195 0.03574609
-0.13719434 -0.62733275 0.035712138
-0.13593458 -0.62735319 0.035742436
-0.13309409 -0.62736082 0.035749733
-0.12776616 -0.62738293 0.035772201
-0.12497119 -0.62733752 0.035735365
-0.0969491 -0.62737232 0.0357727
-0.094163641 -0.62737167 0.035753664
-0.091537789 -0.62735856 0.035747796
-0.088484988 -0.62735152 0.035730615
-0.15651141 -0.621162 0.035383999
-0.15434413 -0.62118232 0.035409305
-0.15256763 -0.62119609 0.035421316
-0.14725943 -0.62119049 0.03541562
-0.14587829 -0.62115389 0.035357662
-0.14406951 -0.62116599 0.035397317
-0.14232382 -0.62117863 0.035414111
-0.13913283 -0.62121183 0.035432912
-0.13595726 -0.62118381 0.035424292
-0.133119 -0.62115914 0.035371743
-0.10089967 -0.62119579 0.035421811
-0.092115328 -0.62118697 0.035406522
-0.14663784 -0.61505282 0.035256777
-0.14525011 -0.61504042 0.035250638
-0.14487955 -0.61504316 0.035244633
-0.14319044 -0.61501658 0.035230409
-0.13180399 -0.61502832 0.035231356
-0.12616959 -0.61502856 0.035235707
-0.12192645 -0.61504078 0.035252187
-0.11804811 -0.61500448 0.035220552
-0.10878339 -0.61505252 0.035244428
-0.098557122 -0.61505258 0.03525725
-0.096085191 -0.61504751 0.035259459
-0.094296739 -0.6150434 0.03524138
-0.093590856 -0.61502624 0.035223309
-0.14141572 -0.61466384 0.03553918
-0.13964163 -0.61437821 0.035938248
-0.13823624 -0.61437571 0.035940833
-0.13646926 -0.61437458 0.03593538
-0.13478009 -0.6144042 0.035967097
-0.13045457 -0.61499834 0.035199005
-0.12475687 -0.61438203 0.035934053
-0.12301086 -0.61439544 0.035948861
-0.10533682 -0.61437798 0.035954759
-0.10382795 -0.61498803 0.035178732
-0.10209227 -0.6149931 0.035188999
-0.096080855 -0.61439675 0.035951398
-0.13402373 -0.60892493 0.035265408
-0.13229457 -0.60896236 0.035288218
-0.1309014 -0.60896081 0.035286188
-0.12773122 -0.60889322 0.035216309
-0.12628043 -0.60890979 0.035228066
-0.12353478 -0.60826111 0.035940584
-0.12214527 -0.60827929 0.035968203
-0.12063862 -0.60894692 0.035271853
-0.11777364 -0.60894984 0.035273585
-0.11635344 -0.60892129 0.03525348
-0.11361383 -0.60824567 0.035919905
-0.1124564 -0.60891283 0.035219189
-0.10860354 -0.60892403 0.03524128
-0.10293584 -0.6089372 0.035282571
-0.099424638 -0.60823649 0.035913605
-0.098052733 -0.60825413 0.035925031
-0.097986802 -0.60891712 0.035247222
-0.096527666 -0.60894829 0.035275351
-0.12259328 -0.60286129 0.035433989
-0.12112228 -0.6028617 0.035437644
-0.10985152 -0.60283637 0.035410453
-0.10062875 -0.60287964 0.035456579
-0.10222151 -0.59749287 0.035098877
-0.11006253 -0.5968765 0.035860829
-0.10619076 -0.59683877 0.035793621
-0.10477579 -0.5968653 0.035830706
-0.10340922 -0.59686613 0.03584794
-0.045135416 -0.7216047 0.036016427
-0.040155627 -0.72159368 0.036006384
-0.043110028 -0.71042818 0.036185164
-0.044858851 -0.70968169 0.036724608
-0.051186454 -0.70009249 0.036223721
-0.048304714 -0.70011246 0.036241096
-0.047974601 -0.7001062 0.036236901
-0.049359702 -0.69934076 0.036764324
-0.055409767 -0.68982857 0.036661297
-0.05379324 -0.6898067 0.036599979
-0.060087975 -0.68112665 0.036235258
-0.084874034 -0.68030936 0.036694374
-0.072503075 -0.68099558 0.036059145
-0.058306105 -0.68038481 0.036808651
-0.057954457 -0.68038595 0.036809362
-0.084228054 -0.67241281 0.036008824
-0.064055942 -0.67241287 0.03601094
-0.083522916 -0.67168152 0.036590535
-0.073284961 -0.67166126 0.036589645
-0.071876436 -0.67161834 0.036541082
-0.066280462 -0.67162776 0.036534429
-0.062316395 -0.67171454 0.036645677
-0.061953444 -0.67171806 0.036647614
-0.2413837 -0.66386294 0.03622885
-0.23990828 -0.66386598 0.036228579
-0.23847233 -0.66381824 0.036183383
-0.23416696 -0.66385353 0.036179617
-0.23212479 -0.66311586 0.036780365
-0.22758292 -0.66380674 0.03616247
-0.084828801 -0.6630885 0.036771521
-0.078372046 -0.66381443 0.036157176
-0.071035124 -0.66305685 0.036733147
-0.069572479 -0.66307092 0.036746234
-0.2199848 -0.65529644 0.036612406
-0.21673582 -0.65528142 0.036578193
-0.2120886 -0.65529221 0.036606241
-0.087155849 -0.65530157 0.036614008
-0.085082285 -0.65529525 0.036614437
-0.074741401 -0.65528256 0.03658966
-0.071780294 -0.65526295 0.036578387
-0.21211348 -0.64822328 0.036034349
-0.21067967 -0.64824069 0.036047451
-0.20889832 -0.64823592 0.036052924
-0.20705518 -0.64823627 0.036050104
-0.2049471 -0.64822406 0.036056302
-0.20279755 -0.64823264 0.03604928
-0.20000041 -0.64827347 0.036106102
-0.19964144 -0.6482541 0.036064111
-0.19650683 -0.64820987 0.036043644
-0.19184582 -0.64826304 0.036090106
-0.16737525 -0.64826006 0.03608007
-0.09269359 -0.64825809 0.036086429
-0.090752006 -0.64825737 0.03608916
-0.089213289 -0.64824766 0.036068454
-0.08071702 -0.64824724 0.036075987
-0.19652718 -0.64749736 0.036660891
-0.19363062 -0.64756268 0.036730401
-0.18659297 -0.64752609 0.036666676
-0.089211553 -0.64754689 0.036705829
-0.08777298 -0.64753687 0.036679219
-0.084926359 -0.6475352 0.036684435
-0.076147556 -0.64752609 0.036686286
-0.074697345 -0.64751709 0.036649507
-0.19467865 -0.64051121 0.036349397
-0.19111331 -0.64054459 0.03639365
-0.18411317 -0.64048511 0.036314923
-0.18119 -0.64055485 0.036399629
-0.17769191 -0.64051908 0.036348797
-0.17453495 -0.64057189 0.036424272
-0.16670838 -0.6405133 0.036351517
-0.099763252 -0.64054036 0.036374409
-0.086008027 -0.64054942 0.036408357
-0.084574312 -0.64054662 0.036380377
-0.083136693 -0.64053971 0.036370449
-0.081744619 -0.64053726 0.036371492
-0.080352068 -0.6405341 0.036376629
-0.18407522 -0.63979131 0.036946617
-0.17772719 -0.63982689 0.036998171
-0.18190931 -0.63354623 0.036232848
-0.17558448 -0.63359278 0.036277138
-0.17237014 -0.63355941 0.036252271
-0.16923259 -0.63358694 0.036279924
-0.16643575 -0.63357228 0.036280818
-0.1595691 -0.6336062 0.036311306
-0.15250459 -0.63354802 0.036244038
-0.11392134 -0.63354731 0.036238659
-0.10790054 -0.63360626 0.036311891
-0.093469158 -0.63357121 0.036269065
-0.088061959 -0.63358909 0.036274098
-0.086312175 -0.63360673 0.036308546
-0.083099775 -0.63360661 0.036319539
-0.08277455 -0.63359982 0.036313552
-0.17558518 -0.63290751 0.036943588
-0.17241082 -0.63286287 0.036900669
-0.16926615 -0.63291419 0.036956429
-0.16136956 -0.63290244 0.03694091
-0.15608683 -0.63291937 0.036963008
-0.15116039 -0.6328727 0.03691563
-0.15075232 -0.63288921 0.036940571
-0.1479288 -0.63291007 0.036958799
-0.14581572 -0.63293493 0.036977038
-0.11628597 -0.63290906 0.036974266
-0.11511962 -0.63287723 0.036935367
-0.1128982 -0.63286018 0.036894321
-0.10938547 -0.63291639 0.03696363
-0.099146612 -0.63290405 0.036948122
-0.090610258 -0.63288093 0.036929455
-0.088168502 -0.63289165 0.036923978
-0.084232323 -0.6329155 0.036967263
-0.16434589 -0.62667292 0.036398217
-0.16142683 -0.62668037 0.036402419
-0.15899263 -0.62666178 0.03638896
-0.15683752 -0.62670583 0.036459338
-0.15503746 -0.62669575 0.036427785
-0.15324762 -0.6267091 0.036438052
-0.14514562 -0.62668914 0.036430117
-0.13982213 -0.62672651 0.036458898
-0.13525072 -0.62667346 0.036397438
-0.10019942 -0.6266796 0.036404669
-0.096981905 -0.62668955 0.036437225
-0.094246373 -0.62669337 0.036412913
-0.15694466 -0.62049323 0.036059864
-0.14734134 -0.62052768 0.036096394
-0.14055645 -0.62050694 0.036088005
-0.13743566 -0.62054181 0.036109719
-0.10845131 -0.62050402 0.036098007
-0.098078333 -0.62053061 0.036091734
-0.092156738 -0.62051427 0.036083203
-0.15448429 -0.61982256 0.036740236
-0.15063882 -0.61984259 0.036767706
-0.14879435 -0.61986047 0.036777552
-0.13887367 -0.61986238 0.03678241
-0.13569137 -0.61985302 0.036784697
-0.13147119 -0.6198284 0.036738601
-0.10457177 -0.61981606 0.036722135
-0.10275605 -0.61986196 0.036777355
-0.098159172 -0.61986268 0.036781929
-0.095014445 -0.61982548 0.036747493
-0.14146495 -0.61367619 0.036574259
-0.13299417 -0.61375165 0.036654633
-0.12727593 -0.61370397 0.036597177
-0.1202475 -0.61373377 0.036640227
-0.10179139 -0.61368036 0.036568772
-0.12466069 -0.60761893 0.036645044
-0.11613917 -0.6076389 0.036683183
-0.11085334 -0.60762745 0.036652327
-0.11948888 -0.60222661 0.036168873
-0.11380876 -0.60225463 0.036196221
-0.11238645 -0.60222441 0.036169369
-0.10702111 -0.60222644 0.036162678
-0.10322411 -0.60223675 0.036160626
-0.1017473 -0.60225821 0.036183789
-0.10964671 -0.60156429 0.036854997
-0.10816771 -0.60158801 0.036865812
-0.10739195 -0.59620947 0.036543105
-0.1062675 -0.59620678 0.036522195
-0.049307149 -0.72006792 0.037036721
-0.14114335 -0.70811158 0.037778933
-0.045602072 -0.70813751 0.037778042
-0.15699935 -0.69854885 0.03728069
-0.15552257 -0.69857037 0.0373028
-0.054706447 -0.69859707 0.037320297
-0.15804806 -0.6977849 0.037809499
-0.0574435 -0.68834853 0.037825163
-0.055207632 -0.68833816 0.037788488
-0.069601707 -0.67955703 0.037237905
-0.067536108 -0.67960751 0.037315425
-0.060021464 -0.67965525 0.037380889
-0.059703737 -0.6796512 0.037378419
-0.083774976 -0.67882401 0.037827574
-0.071829185 -0.67877173 0.037765734
-0.063596711 -0.67889786 0.037926044
-0.061432075 -0.67891026 0.037945781
-0.084581986 -0.67021072 0.037746817
-0.074323431 -0.67018914 0.037741005
-0.072939791 -0.67020434 0.037759919
-0.068061076 -0.67011857 0.037647281
-0.064475179 -0.67091566 0.037141204
-0.063746043 -0.67056668 0.037456397
-0.23676302 -0.66231579 0.03731418
-0.23531771 -0.66234893 0.037344094
-0.22969484 -0.66231942 0.037322249
-0.22722583 -0.66236687 0.037365351
-0.086181469 -0.66237909 0.037380498
-0.084463 -0.66236794 0.037371099
-0.076338172 -0.66236699 0.037357755
-0.07213024 -0.66233754 0.037333153
-0.06782005 -0.6623444 0.037344478
-0.22471781 -0.66166395 0.037983671
-0.22296527 -0.6616326 0.037957389
-0.079528093 -0.66163599 0.03794596
-0.074584492 -0.66162479 0.037936497
-0.2242745 -0.65454561 0.037199292
-0.20789865 -0.65456194 0.037208427
-0.086464234 -0.65459371 0.037230302
-0.082544945 -0.65457767 0.037223857
-0.07940647 -0.65456665 0.037202988
-0.076163955 -0.65455508 0.03718169
-0.20497356 -0.65388358 0.037831493
-0.089311607 -0.65386111 0.037822563
-0.087920129 -0.65385723 0.037827775
-0.085090682 -0.65387672 0.037851937
-0.08081302 -0.65385437 0.0378378
-0.20465797 -0.64645743 0.037615906
-0.19968089 -0.64685678 0.037355632
-0.18338434 -0.64683884 0.037314828
-0.093791433 -0.64685178 0.037334207
-0.091696836 -0.64684713 0.03734117
-0.085656203 -0.64612848 0.037932843
-0.08322417 -0.64683765 0.037326407
-0.080437712 -0.64683574 0.03732324
-0.078633055 -0.64613098 0.037944939
-0.07751549 -0.64683247 0.037322488
-0.076171942 -0.64682549 0.037322987
-0.19114012 -0.6398356 0.037020843
-0.18874267 -0.63986778 0.037061557
-0.1862267 -0.63915622 0.037669178
-0.16423808 -0.63916248 0.037690561
-0.15997304 -0.63916051 0.037674874
-0.15892339 -0.63915652 0.037674997
-0.10057203 -0.63915056 0.03765529
-0.098615199 -0.63983685 0.037016865
-0.096271761 -0.63983887 0.037009027
-0.090619929 -0.63915652 0.037656154
-0.088895582 -0.63916886 0.037690833
-0.087077975 -0.6391629 0.037684701
-0.082852915 -0.63914913 0.037654918
-0.17561197 -0.63221043 0.037605327
-0.17244488 -0.63217413 0.037553634
-0.16923177 -0.63224816 0.037626889
-0.16361426 -0.6321972 0.037576869
-0.15925477 -0.63223839 0.037624612
-0.15761712 -0.63221216 0.037605826
-0.14869013 -0.63221371 0.037610296
-0.14722571 -0.63221109 0.037605237
-0.13948371 -0.63219517 0.037568074
-0.13564424 -0.63220978 0.037603058
-0.10760219 -0.63222837 0.037612561
-0.10410123 -0.63222653 0.03760216
-0.088202417 -0.63220394 0.037585765
-0.086052269 -0.63222873 0.037611678
-0.15686281 -0.62602496 0.037113264
-0.10027181 -0.62600976 0.037074912
-0.097054474 -0.62600344 0.037083287
