# .PCD v0.7 - Point Cloud Data file format
VERSION 0.7
FIELDS x y z
SIZE 4 4 4
TYPE F F F
COUNT 1 1 1
WIDTH 1327
HEIGHT 1
VIEWPOINT 0 0 0 1 0 0 0
POINTS 1327
DATA ascii
-0.11132519 -0.60348219 0.034721449
-0.11216804 -0.59813982 0.034403346
-0.11102486 -0.59814084 0.034402326
-0.10504364 -0.59811449 0.034372646
-0.1043338 -0.59811783 0.034389753
-0.10222287 -0.5981304 0.034382269
-0.10270665 -0.59276295 0.034162369
-0.041407257 -0.72236145 0.035485722
-0.043725573 -0.71119231 0.035660669
-0.041548155 -0.71156102 0.035383433
-0.047656551 -0.70161712 0.035155259
-0.051027026 -0.70084858 0.03568498
-0.05414531 -0.69130468 0.035484359
-0.055579312 -0.68261218 0.03512603
-0.056672368 -0.6818608 0.035660084
-0.083963387 -0.67314959 0.035432056
-0.073323309 -0.6731118 0.035402823
-0.06204962 -0.67318523 0.035479929
-0.071665704 -0.67233664 0.035925813
-0.069201179 -0.67231482 0.035896324
-0.067888521 -0.66447765 0.035503287
-0.22712094 -0.65667206 0.035321511
-0.22495601 -0.65673029 0.035393521
-0.22001822 -0.65670294 0.035373565
-0.21370518 -0.65671182 0.035378084
-0.21261142 -0.6567114 0.035362214
-0.20383066 -0.65600044 0.035976987
-0.086902641 -0.65673035 0.035392173
-0.085814051 -0.65673476 0.035399169
-0.083268002 -0.65671772 0.035384793
-0.078032993 -0.65669197 0.035339411
-0.074465312 -0.65600181 0.035984635
-0.07050205 -0.65668827 0.035337631
-0.22781119 -0.65599298 0.035984125
-0.22574 -0.65595478 0.035951413
-0.21116985 -0.65597886 0.035972502
-0.075504653 -0.65599233 0.03597213
-0.072278351 -0.6559844 0.035962481
-0.071252674 -0.65597546 0.035952896
-0.21284582 -0.64893913 0.035405472
-0.21182607 -0.64893794 0.035424363
-0.21080653 -0.64894348 0.035438273
-0.20586841 -0.64891785 0.035413701
-0.20478278 -0.64893824 0.035441238
-0.089242652 -0.64896071 0.035441231
-0.087583706 -0.64895231 0.035423141
-0.083243296 -0.64895827 0.035446025
-0.073997207 -0.64892018 0.035394948
-0.20014296 -0.6419245 0.035097383
-0.1976181 -0.64124805 0.035742335
-0.19666182 -0.64125758 0.035773028
-0.19557644 -0.64122945 0.03572413
-0.19239825 -0.6419217 0.035107113
-0.19056331 -0.64125937 0.035763208
-0.18918508 -0.64128602 0.035797797
-0.18671945 -0.64120799 0.035708781
-0.18430477 -0.64118129 0.035681322
-0.18357074 -0.64192033 0.03507299
-0.17650037 -0.64120221 0.035700463
-0.17370862 -0.64124691 0.035752062
-0.17091319 -0.64121777 0.035723042
-0.16241127 -0.64193356 0.035110857
-0.16174227 -0.64123899 0.035764612
-0.098408684 -0.64156771 0.03539921
-0.093795881 -0.64121556 0.035724573
-0.088426039 -0.64159989 0.035443228
-0.08704555 -0.64194506 0.035124391
-0.081044614 -0.64192533 0.035092417
-0.078634925 -0.64194179 0.035110816
-0.18462414 -0.63431549 0.035689499
-0.18208626 -0.63422781 0.035578962
-0.1751022 -0.63425624 0.035605226
-0.17122471 -0.63429874 0.035674203
-0.16838032 -0.6342662 0.035620708
-0.166694 -0.63426155 0.035635654
-0.1648028 -0.63426328 0.035617836
-0.15858461 -0.63427812 0.035647389
-0.15603551 -0.63426816 0.035625599
-0.15490879 -0.63498318 0.035010204
-0.15361807 -0.63424474 0.03559982
-0.09661027 -0.63428235 0.035632256
-0.093443044 -0.63426328 0.035611093
-0.09024746 -0.63425243 0.035618261
-0.089181498 -0.63426596 0.035624608
-0.086372636 -0.63429087 0.035654474
-0.082465343 -0.63497084 0.035004981
-0.17086694 -0.62802339 0.035060655
-0.16908564 -0.62800795 0.035045661
-0.16629386 -0.62805295 0.035096079
-0.1599085 -0.62802404 0.0350715
-0.15565196 -0.62806815 0.035108455
-0.15466793 -0.62804514 0.035095539
-0.14684543 -0.62805384 0.035103273
-0.13980521 -0.62803394 0.035094265
-0.13841641 -0.62802863 0.035060927
-0.095985867 -0.62804639 0.035083238
-0.09489055 -0.62805229 0.035090987
-0.08710628 -0.62801433 0.035068572
-0.085990489 -0.6280356 0.035077006
-0.16489002 -0.62736207 0.035737213
-0.16318321 -0.62734801 0.035733707
-0.15862171 -0.62734425 0.035737485
-0.15740798 -0.6273821 0.035796642
-0.15642093 -0.62739348 0.035798524
-0.15286268 -0.6273703 0.035749771
-0.1489865 -0.62733448 0.035697814
-0.13913397 -0.62736392 0.035768349
-0.13319708 -0.6273514 0.035742462
-0.12786688 -0.6273877 0.035781514
-0.12471561 -0.62733477 0.035728659
-0.11221092 -0.62735224 0.035752196
-0.088953309 -0.6273483 0.035727337
-0.08782725 -0.6273371 0.035721384
-0.15825357 -0.62116593 0.035381153
-0.15221833 -0.62119937 0.035428088
-0.15126209 -0.62118262 0.035410687
-0.14871545 -0.62117106 0.035389077
-0.14236063 -0.62118131 0.035413552
-0.13394444 -0.62115115 0.035372861
-0.10377467 -0.62118602 0.035413779
-0.10272413 -0.62119293 0.035412982
-0.098850347 -0.62120014 0.035420924
-0.095689669 -0.62116456 0.03538686
-0.093531199 -0.62117767 0.035419036
-0.092554919 -0.62118852 0.035416141
-0.091483682 -0.62118512 0.035404328
-0.090418003 -0.62118477 0.035397545
-0.14560439 -0.6150316 0.035232868
-0.14457358 -0.6150437 0.035241876
-0.14206475 -0.61500067 0.035183862
-0.13961276 -0.61504227 0.035254065
-0.13479514 -0.61504614 0.035256639
-0.13221176 -0.61503053 0.035253063
-0.096783787 -0.61505127 0.035264071
-0.093667202 -0.61503303 0.035229273
-0.13793391 -0.61437857 0.035953902
-0.13645545 -0.61437851 0.035946485
-0.13544863 -0.61438465 0.035936452
-0.13297701 -0.6144008 0.035959437
-0.12873754 -0.61436373 0.035913311
-0.12597378 -0.61436158 0.035920244
-0.12064709 -0.61439627 0.035957791
-0.10581388 -0.61438578 0.035958145
-0.10497337 -0.61499685 0.035211395
-0.10279397 -0.61499 0.035188708
-0.10140811 -0.61434883 0.035891503
-0.10045263 -0.61437231 0.035928335
-0.095467381 -0.61439073 0.035946198
-0.13231921 -0.60828233 0.035965346
-0.13168453 -0.60895008 0.035274979
-0.12396466 -0.60826117 0.035933882
-0.12139284 -0.60893846 0.035258748
-0.12034547 -0.60894054 0.035262212
-0.11827421 -0.60894334 0.035273958
-0.11712985 -0.60894507 0.035272829
-0.11185912 -0.60826784 0.035932057
-0.10946921 -0.60828888 0.035976857
-0.10803583 -0.60828722 0.035957213
-0.10444848 -0.60893184 0.035259262
-0.10055286 -0.60823256 0.035910312
-0.09940996 -0.60824096 0.035912722
-0.097408779 -0.60827184 0.035955034
-0.096935242 -0.60893738 0.035270017
-0.12119511 -0.60286462 0.035436388
-0.11951847 -0.60286337 0.035452809
-0.11839406 -0.60288072 0.035469007
-0.11732363 -0.60288894 0.035471283
-0.11527731 -0.60288471 0.035479542
-0.114195 -0.60289675 0.03548903
-0.10954791 -0.60284036 0.035414711
-0.10030347 -0.60287875 0.035455007
-0.099360734 -0.60288674 0.035488591
-0.10724629 -0.59747338 0.035089113
-0.10442192 -0.59748906 0.035106
-0.10302272 -0.5975129 0.035136141
-0.10808682 -0.59684145 0.035818458
-0.044551685 -0.72083038 0.03652861
-0.15566024 -0.70006794 0.036208358
-0.048860259 -0.70011026 0.036236908
-0.054915853 -0.69934624 0.036772933
-0.053382713 -0.69055915 0.036031432
-0.084924646 -0.68104553 0.036117081
-0.057303838 -0.68112916 0.03623696
-0.067958705 -0.68034118 0.036730263
-0.06543082 -0.68038034 0.036783248
-0.058044199 -0.6803866 0.036805697
-0.06418848 -0.67240173 0.036000799
-0.082492001 -0.67168707 0.036598414
-0.074764833 -0.67165881 0.036577683
-0.073698439 -0.67166221 0.036583766
-0.066365346 -0.67162657 0.036529407
-0.063427731 -0.67168623 0.036595963
-0.062417533 -0.67170912 0.036640689
-0.23997216 -0.66385639 0.036225006
-0.23816541 -0.66310066 0.036796477
-0.23745252 -0.66376662 0.036108274
-0.23390064 -0.66383219 0.036163688
-0.2279928 -0.66310412 0.036781237
-0.084521525 -0.66381526 0.03616235
-0.080928154 -0.66308761 0.036741398
-0.077415533 -0.66381061 0.036159165
-0.075311527 -0.66379005 0.03613288
-0.073867276 -0.66306907 0.036732912
-0.072475776 -0.66342592 0.036435753
-0.071033172 -0.66379184 0.036143962
-0.068260945 -0.66306949 0.036749747
-0.067230888 -0.66374552 0.036089875
-0.066137515 -0.66372818 0.036053453
-0.083965771 -0.65601474 0.03600242
-0.2250687 -0.65525341 0.036587279
-0.22392669 -0.65531516 0.036626346
-0.22037195 -0.65530407 0.036593501
-0.21478155 -0.65528923 0.036603533
-0.073055483 -0.65528262 0.036596149
-0.21113178 -0.64824158 0.03605311
-0.20943792 -0.64822024 0.036052864
-0.20831263 -0.64824045 0.036062464
-0.20723674 -0.64824098 0.036049087
-0.20330244 -0.64824861 0.03605872
-0.2023209 -0.64823949 0.036060661
-0.20126839 -0.6482448 0.036065474
-0.2002579 -0.64826095 0.03609122
-0.19776532 -0.64820927 0.036041185
-0.19388409 -0.64827114 0.036103085
-0.092043132 -0.64826125 0.036087859
-0.090993233 -0.64825267 0.03608546
-0.089972042 -0.64825177 0.036083803
-0.083979599 -0.64824462 0.03606113
-0.080462679 -0.64824575 0.036073022
-0.076907814 -0.6482296 0.036060028
-0.075827755 -0.64823502 0.036049422
-0.074604623 -0.64822257 0.036020845
-0.20978221 -0.64752829 0.036695436
-0.1959991 -0.64752328 0.036677342
-0.19211851 -0.64757776 0.036742203
-0.092804022 -0.64755386 0.036720265
-0.089996345 -0.64755064 0.036712192
-0.077013947 -0.64752567 0.03669288
-0.1928373 -0.64050698 0.036361087
-0.18741675 -0.64056921 0.036416858
-0.18145543 -0.64055485 0.036404178
-0.17229241 -0.64053679 0.0363665
-0.093081072 -0.64053303 0.036371592
-0.083843671 -0.64054197 0.036375366
-0.080055453 -0.64053982 0.036377929
-0.18466823 -0.63978875 0.036951926
-0.18285209 -0.6335817 0.036285721
-0.18144467 -0.63353699 0.036233265
-0.17582503 -0.63359338 0.036281805
-0.1737292 -0.63355482 0.036262929
-0.1726497 -0.6335476 0.036246937
-0.16130519 -0.63359636 0.036310893
-0.15921983 -0.63360947 0.036318291
-0.15187536 -0.63355738 0.036260337
-0.15074468 -0.63359046 0.036291473
-0.097419627 -0.63359451 0.036288258
-0.087787665 -0.63359976 0.036289115
-0.084991656 -0.63360453 0.036321256
-0.083901569 -0.63360512 0.036315646
-0.082849793 -0.63359743 0.03631353
-0.17660168 -0.63290066 0.036964525
-0.16677327 -0.6328851 0.036932863
-0.16493547 -0.63288945 0.036924135
-0.16218358 -0.63287526 0.036925446
-0.15009789 -0.63290536 0.036956988
-0.14904514 -0.63290358 0.036956619
-0.14757454 -0.63290721 0.036961325
-0.10237374 -0.63288677 0.036929138
-0.16916528 -0.62664133 0.036374159
-0.16635914 -0.62671894 0.036448985
-0.15370128 -0.62669152 0.036441453
-0.15118335 -0.62669992 0.03642283
-0.14984547 -0.6266703 0.036407094
-0.14484273 -0.62669218 0.036443483
-0.13675459 -0.6266644 0.036381472
-0.13386971 -0.62666094 0.036383953
-0.10127906 -0.62670976 0.036436558
-0.090725482 -0.62667537 0.036399987
-0.089687176 -0.62666714 0.03639327
-0.088236816 -0.62666821 0.036392123
-0.15688071 -0.62048751 0.036054384
-0.15519308 -0.62048578 0.036061283
-0.15399899 -0.62051839 0.036099046
-0.15297848 -0.62053174 0.036123626
-0.14696498 -0.62053144 0.036105141
-0.13821959 -0.62053084 0.036098156
-0.10130905 -0.62053281 0.036103494
-0.097449712 -0.62052906 0.036088135
-0.096413858 -0.62050581 0.036071278
-0.15331663 -0.61985958 0.03680329
-0.14426357 -0.61981189 0.036728635
-0.13226295 -0.61982906 0.03673315
-0.098920844 -0.61986166 0.036776088
-0.09365543 -0.61982644 0.036752522
-0.14263642 -0.61370003 0.036609937
-0.14115813 -0.61367726 0.03656907
-0.14005791 -0.61370635 0.036612015
-0.13865812 -0.61371499 0.036633153
-0.13380329 -0.61373842 0.036640093
-0.12734827 -0.61370718 0.036595955
-0.11682889 -0.61369365 0.036595482
-0.10759374 -0.61372089 0.036618128
-0.10280218 -0.61367506 0.036568735
-0.097906716 -0.61373913 0.036640245
-0.13081272 -0.60764921 0.036684867
-0.12963848 -0.60766894 0.036702763
-0.12859 -0.60762537 0.036673173
-0.12152684 -0.60763621 0.036670066
-0.12047087 -0.60764843 0.036672592
-0.11517631 -0.6076175 0.036651131
-0.11989946 -0.60221517 0.036147218
-0.1160171 -0.60225987 0.036193047
-0.11283866 -0.60223079 0.036173243
-0.10783885 -0.60222554 0.036151007
-0.10401857 -0.60224271 0.036166854
-0.11747098 -0.60160917 0.03689421
-0.10861322 -0.60157239 0.036845632
-0.14016894 -0.70811176 0.037779886
-0.043629467 -0.70891458 0.037250314
-0.1564168 -0.69853425 0.037273027
-0.051355217 -0.69859278 0.037312262
-0.049557809 -0.69858217 0.037306078
-0.052389082 -0.6978367 0.037849821
-0.050590202 -0.697837 0.037849262
-0.054126825 -0.68906325 0.03718726
-0.070059299 -0.6795516 0.037235361
-0.062625676 -0.67964113 0.037364621
-0.060105108 -0.67965609 0.037378918
-0.084685303 -0.67021072 0.03775055
-0.083954498 -0.67094469 0.037174091
-0.07513231 -0.67018682 0.037744332
-0.071572542 -0.67017782 0.037728686
-0.069520392 -0.67086357 0.037070952
-0.066712819 -0.6701442 0.037679713
-0.064543709 -0.67091864 0.037138164
-0.23431955 -0.66238898 0.037384555
-0.22618172 -0.66239089 0.037378903
-0.085351929 -0.66236567 0.037376944
-0.084912784 -0.66236395 0.037370663
-0.070021391 -0.66234297 0.037339266
-0.068947271 -0.66234666 0.037348833
-0.067510173 -0.66233581 0.03733604
-0.23506136 -0.66162395 0.037930943
-0.2305156 -0.66161537 0.037938237
-0.2293812 -0.66160864 0.037928808
-0.079270072 -0.66163307 0.037943199
-0.078161255 -0.66164464 0.037960052
-0.22115353 -0.65457726 0.037213828
-0.21764728 -0.65455109 0.037199728
-0.21652615 -0.65456641 0.037194803
-0.21544144 -0.65457296 0.037200894
-0.20629497 -0.65456927 0.03720836
-0.086873949 -0.65458828 0.037227087
-0.21831942 -0.65383393 0.037803806
-0.20486002 -0.65387565 0.037833165
-0.087962806 -0.6538558 0.037823364
-0.084124193 -0.6538704 0.03784319
-0.080516905 -0.65384859 0.037829433
-0.079461657 -0.65385497 0.037825312
-0.077033676 -0.65383375 0.037787687
-0.2041612 -0.64610547 0.037940435
-0.19917871 -0.64684933 0.037333969
-0.19033143 -0.64682657 0.037310068
-0.18759826 -0.64607143 0.037874687
-0.18689457 -0.6468038 0.037283
-0.18507023 -0.64613301 0.037946586
-0.18439992 -0.64683217 0.037336498
-0.094208524 -0.64684528 0.037325565
-0.085733116 -0.64682817 0.037305404
-0.084301963 -0.6468271 0.037306964
-0.080845669 -0.64684212 0.037327059
-0.077965915 -0.64612257 0.037941489
-0.076614819 -0.64681864 0.03731541
-0.19106619 -0.63984865 0.037040252
-0.18225971 -0.63983339 0.037004404
-0.17937304 -0.63915241 0.037655357
-0.17870109 -0.63983494 0.037007872
-0.17479007 -0.63985479 0.037047815
-0.17342336 -0.63917828 0.037691921
-0.16711028 -0.63912225 0.037638456
-0.15961422 -0.63915288 0.037658539
-0.15293187 -0.6391449 0.037673868
-0.10309434 -0.63915819 0.037683103
-0.10133231 -0.6391561 0.037666816
-0.099906139 -0.6391499 0.037653737
-0.089945048 -0.63986003 0.037037607
-0.081867471 -0.63914722 0.037652969
-0.1772851 -0.63221955 0.037601348
-0.16816776 -0.63221467 0.037589721
-0.13575163 -0.63220537 0.037602194
-0.11194222 -0.63217533 0.037550345
-0.10908857 -0.63222903 0.037609469
-0.092164025 -0.63220513 0.037578288
-0.091085821 -0.63218939 0.037574228
-0.16147032 -0.6260013 0.037071325
-0.14695252 -0.62600076 0.037075985
-0.14304981 -0.62601495 0.0371022
-0.13817532 -0.62600076 0.037075698
-0.092530549 -0.62601274 0.037076734
-0.15973385 -0.6259855 0.037062418
-0.15159036 -0.62533313 0.037746128
-0.14524262 -0.62533104 0.037763391
-0.13715044 -0.62597287 0.037041884
-0.13573089 -0.62599641 0.037058391
-0.12938441 -0.62535489 0.037773032
-0.098914795 -0.6259945 0.037067901
-0.094395988 -0.62533283 0.037752256
-0.093306713 -0.62534082 0.037750915
-0.1509438 -0.61920035 0.037460815
-0.14496373 -0.61914408 0.037396185
-0.12803331 -0.61917728 0.037442401
-0.094313502 -0.61916083 0.037428655
-0.13940883 -0.61305958 0.037311837
-0.13452342 -0.613074 0.037327487
-0.13098134 -0.61304915 0.037303418
-0.12995434 -0.61302245 0.037270244
-0.12888688 -0.61304641 0.037288517
-0.10373788 -0.61300927 0.037272163
-0.11912521 -0.60700858 0.037391558
-0.12793933 -0.60698509 0.037385348
-0.11593966 -0.60699224 0.037380494
-0.11193903 -0.60094833 0.037603159
-0.14852598 -0.70736837 0.038327135
-0.047075175 -0.70662445 0.038845837
-0.053077787 -0.69632763 0.038941938
-0.055489223 -0.68759894 0.038366616
-0.065438859 -0.67815346 0.038484093
-0.062948495 -0.67815828 0.038498227
-0.084924132 -0.6773591 0.038988929
-0.072585925 -0.67727339 0.038882107
-0.075855501 -0.66946453 0.038329814
-0.066040404 -0.66942006 0.038277607
-0.23728673 -0.66879612 0.03895716
-0.076566257 -0.66872901 0.038911782
-0.069517888 -0.66867328 0.038840208
-0.23218682 -0.66094559 0.0385832
-0.21844819 -0.66093057 0.038561661
-0.086276218 -0.66092795 0.038571235
-0.075715452 -0.66091025 0.03854556
-0.21906658 -0.65315163 0.038440868
-0.21056384 -0.65315497 0.038452141
-0.088693283 -0.65314406 0.038435675
-0.084871896 -0.65315908 0.038458664
-0.078093916 -0.65312862 0.038410887
-0.074921899 -0.65313047 0.038422953
-0.19963571 -0.64542598 0.038581431
-0.19080906 -0.64545256 0.038626291
-0.087229058 -0.64542699 0.038562469
-0.081220493 -0.64543748 0.038582254
-0.16852082 -0.63844228 0.038287818
-0.10176118 -0.63844973 0.038303461
-0.097838417 -0.63844311 0.038296666
-0.096778102 -0.63842368 0.038273267
-0.087168396 -0.63846618 0.038327258
-0.085091852 -0.63846338 0.038322926
-0.098563932 -0.63775474 0.038933605
-0.17348234 -0.63151199 0.038229015
-0.16960725 -0.63155001 0.038277343
-0.16676667 -0.63152683 0.038244572
-0.16323207 -0.63150442 0.038224507
-0.15302473 -0.63153052 0.038261194
-0.1473458 -0.63153201 0.038265657
-0.13609423 -0.63151211 0.0382347
-0.11622818 -0.63153708 0.038258605
-0.11373051 -0.63147765 0.03819694
-0.10489601 -0.63154918 0.03827082
-0.093975961 -0.63151944 0.038246561
-0.14425404 -0.63085973 0.038922206
-0.094708182 -0.63084024 0.038896542
-0.14742948 -0.62461674 0.038364802
-0.12445807 -0.62463665 0.038401954
-0.11847898 -0.62466931 0.038438771
-0.10213163 -0.62467325 0.038440805
-0.091524869 -0.62466186 0.038410544
-0.09723974 -0.61852688 0.038132604
-0.13309732 -0.61782593 0.038771745
-0.099770397 -0.61785454 0.038814653
-0.12557891 -0.60631633 0.038037904
-0.10395198 -0.6063484 0.03807665
-0.10526837 -0.60033345 0.038340416
-0.14992079 -0.7058351 0.039359305
-0.050640643 -0.70510656 0.039915998
-0.15877004 -0.69552469 0.039469991
-0.085563116 -0.68601412 0.039328888
-0.085877344 -0.68526918 0.039881602
-0.083833493 -0.67660272 0.039543752
-0.068280473 -0.67659932 0.039526295
-0.065870233 -0.67665011 0.039603252
-0.067823082 -0.66792673 0.039405577
-0.21708933 -0.66019779 0.039176673
-0.072131798 -0.66017687 0.039126601
-0.2244872 -0.65948319 0.039775793
-0.22094557 -0.65946656 0.039741684
-0.08159887 -0.65171796 0.03966938
-0.18793058 -0.64466554 0.03913632
-0.18297157 -0.64472795 0.039215572
-0.18199517 -0.64471471 0.039179806
-0.18092427 -0.64470077 0.039173502
-0.1770504 -0.64473814 0.039222512
-0.16475409 -0.64471799 0.039204873
-0.10317782 -0.64401489 0.039821375
-0.094954781 -0.64471656 0.039188117
-0.093941785 -0.64402264 0.03982012
-0.092208602 -0.64402646 0.039839115
-0.087943383 -0.64472324 0.039206095
-0.085115276 -0.64401072 0.039805375
-0.084428206 -0.64470994 0.039186615
-0.16709004 -0.63704693 0.039553843
-0.15727212 -0.63707066 0.039585199
-0.15445422 -0.63701999 0.039527997
-0.10414308 -0.63705105 0.039570641
-0.10145186 -0.63706154 0.039578594
-0.11631799 -0.63015789 0.039550375
-0.1119478 -0.63011426 0.039505962
-0.14143847 -0.62397838 0.039084151
-0.15303341 -0.70425999 0.04035043
-0.14634015 -0.70431429 0.040425979
-0.055133302 -0.69479918 0.040015295
-0.05791498 -0.68535841 0.040023882
-0.072935998 -0.6758033 0.04003172
-0.078680687 -0.66726369 0.040079612
-0.085793696 -0.66654938 0.040671896
-0.086405396 -0.65804088 0.040978622
-0.085591249 -0.65876037 0.040367678
-0.084112309 -0.65803206 0.040972747
-0.081781872 -0.65874612 0.040342569
-0.080048516 -0.6587314 0.040320948
-0.078551926 -0.65874606 0.040339023
-0.090055868 -0.65100849 0.040278416
-0.090890422 -0.65029889 0.040905017
-0.088380165 -0.65064609 0.040577352
-0.096540704 -0.64326966 0.040416721
-0.15561134 -0.63634354 0.040208962
-0.10604149 -0.63636321 0.040212378
-0.1541137 -0.6356355 0.040805664
-0.10951586 -0.63568246 0.040873829
-0.10671725 -0.63568795 0.040879365
-0.11497664 -0.62946844 0.040220909
-0.11192928 -0.62942648 0.040156927
-0.15654105 -0.70278341 0.041458648
-0.15561379 -0.70278007 0.041501343
-0.16122362 -0.6924808 0.041604217
-0.083824962 -0.67440802 0.041282725
-0.083694756 -0.66580939 0.041249696
-0.094355017 -0.6425907 0.041061271
-0.097960532 -0.64188582 0.041682687
-0.096882842 -0.64186984 0.041677997
-0.09330754 -0.64189821 0.041696053
-0.1014444 -0.63498235 0.041529685
-0.1355484 -0.62807202 0.041487537
-0.13268444 -0.62810248 0.041517381
-0.12635088 -0.62806892 0.041494798
-0.11856485 -0.62810284 0.041501731
-0.13719225 -0.71155322 0.042645451
-0.13511696 -0.71153402 0.042641658
-0.13401185 -0.71153408 0.042645942
-0.085426264 -0.68228185 0.042103928
-0.084377266 -0.68153483 0.042659599
-0.084534101 -0.6721921 0.042999007
-0.085775375 -0.66436595 0.042455081
-0.087798305 -0.65660995 0.042180616
-0.086761348 -0.65660304 0.042178396
-0.088538341 -0.65587407 0.042766038
-0.086812854 -0.65588021 0.042779107
-0.092277482 -0.64887542 0.042148426
-0.16160537 -0.64119756 0.042334106
-0.094759405 -0.64116591 0.042307783
-0.16164918 -0.64048672 0.042962223
-0.15987653 -0.64048195 0.042948864
-0.10401707 -0.63425684 0.042123258
-0.10318934 -0.63425809 0.042129748
-0.15461293 -0.63357955 0.042790599
-0.13808113 -0.62737757 0.042140886
-0.13625896 -0.62739205 0.042146157
-0.13202585 -0.62742078 0.042176683
-0.1313199 -0.62741667 0.042174548
-0.12888387 -0.62742186 0.042188015
-0.12711866 -0.62739116 0.042163681
-0.11559425 -0.6274091 0.042169377
-0.13560776 -0.62670398 0.042807177
-0.12428559 -0.62669241 0.042795125
-0.11831012 -0.6267243 0.042813957
-0.14287795 -0.71002626 0.043718271
-0.14111339 -0.71079642 0.043185584
-0.13576007 -0.71077353 0.043156419
-0.15689626 -0.70049053 0.043048937
-0.15905437 -0.6997261 0.043566328
-0.084765285 -0.66362685 0.043020487
-0.089187637 -0.65441871 0.043954074
-0.16697605 -0.64744478 0.043360833
-0.092670657 -0.64744961 0.043375097
-0.089866847 -0.64744115 0.043358941
-0.093424335 -0.64673507 0.043993164
-0.090585671 -0.64673221 0.043984592
-0.10045733 -0.63978553 0.04357557
-0.13821152 -0.7084766 0.044718567
-0.15970406 -0.69821304 0.04465396
-0.15724424 -0.69818777 0.04461319
-0.16182764 -0.68872344 0.04433779
-0.086445689 -0.68793321 0.044841401
-0.083048023 -0.67072195 0.04414707
-0.085780084 -0.66216552 0.044214137
-0.087857351 -0.65370238 0.044560794
-0.086788528 -0.6537106 0.044572562
-0.091255523 -0.64601827 0.044595487
-0.15955181 -0.63906586 0.044195108
-0.10232257 -0.63907713 0.044212129
-0.098111771 -0.6390484 0.04418603
-0.095903106 -0.6390537 0.044181444
-0.10403528 -0.63836676 0.044852886
-0.11506198 -0.63213247 0.044018347
-0.11180535 -0.63146383 0.04466185
-0.1029984 -0.63148034 0.044680804
-0.14104457 -0.70770055 0.045242425
-0.14166348 -0.70694876 0.045774303
-0.16035727 -0.69665444 0.045683291
-0.15683617 -0.69666064 0.045664314
-0.16390777 -0.68648279 0.045985658
-0.084345549 -0.67779541 0.045445833
-0.084219672 -0.66922092 0.045265522
-0.081632599 -0.66068643 0.045339081
-0.094516367 -0.6453048 0.0451952
-0.091988035 -0.64530927 0.045210198
-0.093446091 -0.64459318 0.045816936
-0.10272931 -0.63767052 0.045476735
-0.098437116 -0.63765597 0.04545423
-0.15042862 -0.63078195 0.045331534
-0.14906079 -0.63010585 0.045997351
-0.14552687 -0.6300953 0.045981258
-0.14424723 -0.63010722 0.045999974
-0.12724347 -0.63006449 0.045956392
-0.12687585 -0.63007188 0.045954533
-0.11588699 -0.63080168 0.045371015
-0.11190885 -0.63005507 0.045926362
-0.14330226 -0.7061637 0.046245582
-0.16205774 -0.69510961 0.046684951
-0.16101883 -0.69588894 0.046176754
-0.15748644 -0.6951471 0.046735998
-0.086831383 -0.67632639 0.046592403
-0.084647082 -0.67630851 0.046569265
-0.083497815 -0.66700429 0.046985153
-0.084448695 -0.65924048 0.04655676
-0.091400579 -0.65153748 0.046353213
-0.088898391 -0.65080494 0.046948142
-0.092445955 -0.64387721 0.046438076
-0.10410818 -0.63694036 0.046079639
-0.1218992 -0.63011444 0.046002705
-0.14239904 -0.62942535 0.046651661
-0.13540126 -0.62938476 0.046610024
-0.12051073 -0.62940347 0.046607837
-0.11764123 -0.62940776 0.046622939
-0.11447975 -0.62937927 0.046613961
-0.14477229 -0.70462775 0.047275785
-0.14373071 -0.70460683 0.047263239
-0.14922351 -0.70388317 0.047820404
-0.15922005 -0.69360459 0.04777785
-0.085038401 -0.67482442 0.047704358
-0.085429534 -0.65851933 0.047146574
-0.086114712 -0.65779901 0.047736466
-0.16426335 -0.64314848 0.047035467
-0.16391878 -0.64315015 0.047049183
-0.095582917 -0.64314133 0.047016125
-0.093837194 -0.64315689 0.047021683
-0.097088397 -0.64240682 0.047613014
-0.15505891 -0.63551456 0.047296941
-0.14559299 -0.62800598 0.047905494
-0.13998215 -0.62868845 0.047234636
-0.12867318 -0.62869644 0.047256146
-0.11847083 -0.62869072 0.047238871
-0.11585131 -0.62870866 0.0472547
-0.11264578 -0.62865835 0.047205638
-0.13825643 -0.627994 0.047876108
-0.13750976 -0.62799579 0.047884438
-0.13382301 -0.71338737 0.048648879
-0.15242505 -0.7022782 0.048761621
-0.16305068 -0.69207072 0.048831791
-0.16207001 -0.69205391 0.048821378
-0.16131392 -0.69280559 0.048252832
-0.16415948 -0.68268979 0.04868504
-0.086936928 -0.65706557 0.048323866
-0.087216578 -0.64935428 0.048147745
-0.0903816 -0.64865136 0.04876072
-0.16214617 -0.64101362 0.04887028
-0.16141517 -0.64100617 0.048859794
-0.098830782 -0.64170849 0.048224743
-0.096717089 -0.64097846 0.048833024
-0.13609369 -0.62730205 0.048514549
-0.12693293 -0.62729102 0.048524711
-0.13167711 -0.7126233 0.049173024
-0.13065562 -0.71261418 0.049187727
-0.13843286 -0.71180373 0.049623195
-0.13410883 -0.71182072 0.049637187
-0.12949811 -0.71184689 0.049674645
-0.12742376 -0.71183926 0.049674012
-0.15129249 -0.70152402 0.049293388
-0.15035167 -0.7015363 0.049333792
-0.15386316 -0.70071453 0.049799841
-0.16446674 -0.69058263 0.049932905
-0.084535047 -0.68189055 0.049181476
-0.083428539 -0.66329694 0.049820412
-0.082341596 -0.6633119 0.049829613
-0.092826054 -0.64721102 0.049978998
-0.091437489 -0.64756346 0.049676258
-0.16141428 -0.64029658 0.049474962
-0.098551773 -0.64026999 0.049452063
-0.097503066 -0.64027494 0.049452841
-0.14638039 -0.6327424 0.049864639
-0.1212763 -0.63272089 0.049831465
-0.11408788 -0.63268381 0.049795948
-0.11375392 -0.63268411 0.049792424
-0.11269618 -0.63270611 0.049821604
-0.10979687 -0.63274693 0.049866665
-0.14229208 -0.71105438 0.050153419
-0.13908422 -0.71103776 0.05012738
-0.13698843 -0.71103704 0.0501239
-0.13586798 -0.71102583 0.050112214
-0.13484479 -0.7110185 0.050125569
-0.13197824 -0.71105909 0.050144441
-0.13025397 -0.71106142 0.050176628
-0.12804244 -0.71106458 0.050169885
-0.14081068 -0.71027577 0.050641049
-0.13260831 -0.71027356 0.050636213
-0.12560241 -0.71027625 0.050657708
-0.15667631 -0.70000738 0.050362255
-0.15456405 -0.70000041 0.050380092
-0.1551899 -0.69924575 0.050884578
-0.16519721 -0.6897974 0.05044923
-0.16299061 -0.68903941 0.050967
-0.16192456 -0.6890232 0.050941691
-0.085499845 -0.68038744 0.050262552
-0.16548274 -0.67965674 0.050819539
-0.084476769 -0.67962909 0.050803654
-0.085887589 -0.66257626 0.050434265
-0.084002435 -0.66256547 0.050390877
-0.084877796 -0.66183615 0.05099145
-0.087692961 -0.64647448 0.050539985
-0.10245753 -0.63958335 0.050091457
-0.099252924 -0.63956434 0.050071638
-0.14697368 -0.63201845 0.050477121
-0.11983876 -0.63201791 0.050464794
-0.11740807 -0.63201964 0.050483767
-0.13973466 -0.70949644 0.051138148
-0.13868621 -0.70948631 0.051139358
-0.13763814 -0.70946151 0.051112317
-0.13335198 -0.70947009 0.05112274
-0.14427547 -0.70871425 0.051643379
-0.14257118 -0.70871663 0.051642839
-0.14147948 -0.70872045 0.051651411
-0.14039418 -0.70872056 0.051643223
-0.12020065 -0.70870823 0.05162837
-0.15739271 -0.69845015 0.051374134
-0.085515164 -0.67811608 0.051890422
-0.084842645 -0.67811477 0.051886946
-0.092115723 -0.65267301 0.051817827
-0.094621941 -0.64503694 0.051761054
-0.092886187 -0.64503956 0.051782027
-0.099673778 -0.63814461 0.051310573
-0.14424919 -0.63134736 0.051138375
-0.12618093 -0.63129973 0.051068205
-0.12343625 -0.6313259 0.051121533
-0.1209514 -0.63130975 0.051080313
-0.11809933 -0.63131738 0.051092491
-0.11487576 -0.63126391 0.051045325
-0.14183219 -0.63060093 0.051714949
-0.12484936 -0.6305964 0.051709302
-0.11960937 -0.63060069 0.051714581
-0.15050377 -0.70718354 0.052649494
-0.14350732 -0.70755076 0.052398749
-0.16010742 -0.69615197 0.052941088
-0.15798168 -0.69693446 0.052398439
-0.16334198 -0.68752265 0.052030887
-0.16573015 -0.68676066 0.05254991
-0.08588659 -0.67661536 0.052988172
-0.086017907 -0.66883188 0.05212865
-0.08354459 -0.66809154 0.052702658
-0.085245274 -0.66035146 0.052143548
-0.097522072 -0.64355016 0.052931633
-0.095675305 -0.64357901 0.052942276
-0.12417166 -0.629893 0.052341364
-0.12169223 -0.62990791 0.052348714
-0.14843097 -0.70639801 0.053153966
-0.14732055 -0.70640999 0.053156517
-0.15190852 -0.70561922 0.053646747
-0.14906475 -0.70562363 0.053660043
-0.14407167 -0.70558953 0.053616144
-0.15858717 -0.69540215 0.053446651
-0.16431077 -0.68523896 0.053617582
-0.16363482 -0.68599397 0.053084284
-0.08478529 -0.67584348 0.053514164
-0.089745894 -0.65047657 0.05357058
-0.10284334 -0.6428557 0.0535421
-0.099341556 -0.63529247 0.053760253
-0.097937047 -0.6359964 0.053150356
-0.11715239 -0.62849337 0.053606734
-0.14974146 -0.70484602 0.054147962
-0.14552432 -0.70405895 0.054630056
-0.14479007 -0.70482361 0.054105438
-0.16134958 -0.69382769 0.054426532
-0.16035241 -0.69382787 0.054441288
-0.085739888 -0.68442321 0.054083593
-0.084669016 -0.68441314 0.05408268
-0.16645429 -0.68367183 0.054633848
-0.087424174 -0.68366051 0.054603159
-0.088344157 -0.64973944 0.054154191
-0.096108004 -0.6421119 0.054131407
-0.094305396 -0.6421442 0.054145899
-0.097896248 -0.64138532 0.054723375
-0.096891813 -0.64137453 0.054715291
-0.09503796 -0.64140052 0.054733172
-0.15363342 -0.63455844 0.054361366
-0.15238355 -0.63458657 0.054398026
-0.10539109 -0.63455993 0.054363217
-0.101183 -0.63457394 0.054382838
-0.15451472 -0.70324004 0.055063199
-0.15005168 -0.7032848 0.055130385
-0.15066938 -0.70251322 0.055631291
-0.16319154 -0.69226664 0.055460151
-0.16207425 -0.69227064 0.055455711
-0.16096567 -0.6922785 0.055432677
-0.085004032 -0.68212712 0.055666059
-0.092246048 -0.6482932 0.055356529
-0.090122573 -0.64755517 0.055912398
-0.099357747 -0.63993639 0.055917718
-0.098285452 -0.63995492 0.055926289
-0.095417745 -0.63994056 0.055924859
-0.11917619 -0.63387072 0.05500127
-0.10185489 -0.63387126 0.05501508
-0.12647073 -0.71275449 0.05610365
-0.13639097 -0.71192795 0.056556139
-0.13239585 -0.71197861 0.056605365
-0.13066535 -0.71197736 0.056626163
-0.12956381 -0.71198529 0.056618847
-0.12852286 -0.71197295 0.056615219
-0.15314342 -0.70168215 0.056061994
-0.15496726 -0.70089346 0.056584615
-0.15381026 -0.70089984 0.05655488
-0.15210429 -0.70090389 0.056563918
-0.16593266 -0.6806134 0.056719106
-0.089473531 -0.65519059 0.056143794
-0.085938282 -0.65518671 0.056147702
-0.16651274 -0.64682132 0.056511804
-0.095414847 -0.64683354 0.056521393
-0.092554629 -0.64683002 0.056529876
-0.12345489 -0.63173681 0.056839339
-0.13807416 -0.71117538 0.057058636
-0.13699968 -0.71115762 0.057049561
-0.13306342 -0.71119481 0.057073999
-0.12711157 -0.71118593 0.057098851
-0.12605081 -0.71119034 0.057080846
-0.12353378 -0.71117705 0.05706301
-0.13375334 -0.71038753 0.057540733
-0.13200669 -0.71041083 0.057568751
-0.13094267 -0.7104125 0.05757853
-0.12376063 -0.71040177 0.057545677
-0.12072828 -0.71039623 0.057557415
-0.15777472 -0.70016897 0.057112541
-0.15570028 -0.70017058 0.057152744
-0.15888181 -0.69936919 0.057590723
-0.1562447 -0.69939762 0.057608042
-0.16306759 -0.68920326 0.057530891
-0.16235968 -0.68996608 0.057002299
-0.16695888 -0.67910278 0.057798322
-0.084560953 -0.67984051 0.057244565
-0.086158246 -0.67056984 0.057321131
-0.084681034 -0.66982603 0.057880502
-0.097158 -0.64609087 0.057083718
-0.090140782 -0.64609355 0.057097308
-0.092923082 -0.64536983 0.057700973
-0.10364845 -0.63779664 0.057740688
-0.10074556 -0.63780129 0.057736862
-0.097577371 -0.63778335 0.057715807
-0.096522473 -0.63777572 0.057716347
-0.13976713 -0.70960552 0.058035243
-0.13878874 -0.70958066 0.058015827
-0.13761804 -0.70960456 0.058014687
-0.13443972 -0.70958525 0.058015056
-0.12176437 -0.70959961 0.058028847
-0.11926489 -0.70962161 0.058055505
-0.14152817 -0.70883274 0.058524493
-0.14039452 -0.70883906 0.058520067
-0.13617568 -0.70881087 0.058495458
-0.12947293 -0.70883626 0.058558062
-0.11786868 -0.70883602 0.058542211
-0.15411681 -0.69858885 0.058108523
-0.15948075 -0.69783801 0.058601182
-0.156951 -0.69783884 0.058611091
-0.16367793 -0.68846154 0.058064889
-0.16589671 -0.67833728 0.058323774
-0.16732682 -0.67756152 0.058828447
-0.086892344 -0.65987051 0.058850642
-0.16584708 -0.64462501 0.058282871
-0.093663774 -0.64463782 0.058291204
-0.090825856 -0.64463538 0.058282685
-0.095080622 -0.6439054 0.058852676
-0.15982768 -0.6370647 0.058329087
-0.15699168 -0.63704085 0.058298182
-0.10634393 -0.63705653 0.058330804
-0.10113298 -0.63707447 0.058340386
-0.15564165 -0.63631785 0.058909681
-0.15418258 -0.63635182 0.058953445
-0.10392899 -0.63636011 0.058970027
-0.1018659 -0.63635564 0.058946472
-0.12107764 -0.62958592 0.058655903
-0.11981542 -0.62285262 0.058632791
-0.14424868 -0.70804441 0.059027892
-0.14328218 -0.70804811 0.059026849
-0.14221871 -0.70804018 0.059015159
-0.14947993 -0.70648992 0.059988949
-0.14840004 -0.70649475 0.059990458
-0.14448516 -0.70646763 0.059953231
-0.158034 -0.69704837 0.059090786
-0.15550767 -0.69706136 0.059097771
-0.1611691 -0.69627124 0.059609666
-0.15654708 -0.69627106 0.05959443
-0.16645631 -0.6861527 0.059594393
-0.16439916 -0.68653321 0.059348606
-0.086541958 -0.68609202 0.059548642
-0.085155345 -0.67679214 0.059352282
-0.084392853 -0.67679489 0.059352975
-0.090812631 -0.65074986 0.059551883
-0.09399844 -0.64317644 0.059446614
-0.15672243 -0.63559532 0.059501261
-0.10611553 -0.63561076 0.059524179
-0.14524993 -0.70567113 0.060432307
-0.10413269 -0.70568931 0.060447499
-0.14975174 -0.70492214 0.060955305
-0.1597244 -0.69551784 0.060126577
-0.16676547 -0.68459427 0.060614627
-0.16499951 -0.68460435 0.060617901
-0.16724108 -0.67528272 0.060422618
-0.084852241 -0.65761995 0.060512807
-0.09795437 -0.64167124 0.060574286
-0.15332597 -0.70410496 0.061409056
-0.15038545 -0.70414472 0.061443325
-0.14761955 -0.70414335 0.061441209
-0.14652358 -0.70414251 0.061428621
-0.14549443 -0.70411509 0.061405778
-0.15216425 -0.70333982 0.061913423
-0.151106 -0.70335203 0.061913323
-0.16355565 -0.69313973 0.061565816
-0.16139287 -0.69392914 0.061062623
-0.16035713 -0.69393086 0.061096467
-0.16566281 -0.68383533 0.061124872
-0.16752416 -0.67376751 0.061521862
-0.085450202 -0.67375541 0.061487686
-0.087470464 -0.66528606 0.061119229
-0.085691512 -0.66527402 0.061100163
-0.092613071 -0.64853615 0.061302066
-0.089038387 -0.64852518 0.061270699
-0.088727497 -0.64852297 0.06127229
-0.087608248 -0.64852363 0.061272126
-0.091196671 -0.64780045 0.061856847
-0.16294286 -0.6409722 0.061182685
-0.10576726 -0.64024228 0.06178629
-0.096527018 -0.64020646 0.061752014
-0.095411882 -0.64022779 0.061760481
-0.15141791 -0.63345367 0.061348554
-0.15284117 -0.70253378 0.062355742
-0.14889561 -0.70257306 0.062396504
-0.15413859 -0.70173466 0.062807277
-0.14954302 -0.70179373 0.062888145
-0.16203567 -0.69235814 0.062038578
-0.16057245 -0.69160116 0.06255874
-0.16673392 -0.68226349 0.062129997
-0.085706227 -0.67224187 0.062552281
-0.091530055 -0.64705575 0.062433925
-0.10132052 -0.63949847 0.062349372
-0.10013767 -0.63947898 0.062333427
-0.096858405 -0.63874578 0.062909104
-0.142782 -0.62530953 0.062367961
-0.12716609 -0.62527025 0.062332951
-0.12431327 -0.62526494 0.062298983
-0.12434281 -0.62454289 0.062913433
-0.12325867 -0.62456638 0.062936075
-0.13739961 -0.71195072 0.063467972
-0.1345011 -0.71198195 0.063492045
-0.13022172 -0.71120095 0.063992776
-0.1295478 -0.71198934 0.063524313
-0.12854089 -0.71198815 0.063522451
-0.12749347 -0.71197891 0.063507482
-0.1259006 -0.71118891 0.063959412
-0.12213749 -0.71118408 0.063962378
-0.11712189 -0.71118355 0.063965686
-0.15671222 -0.70019931 0.063847333
-0.15490393 -0.70093298 0.06328661
-0.15272351 -0.70016271 0.063769393
-0.16238809 -0.69002157 0.063558012
-0.1666348 -0.67995024 0.063655525
-0.085553668 -0.67994022 0.063642219
-0.084681705 -0.67146897 0.063076183
-0.093953088 -0.64558738 0.063588381
-0.12865207 -0.62388086 0.063602634
-0.12741566 -0.62384987 0.063568719
-0.12616388 -0.62383687 0.063551851
-0.12513337 -0.62383729 0.063548341
-0.12015571 -0.6238789 0.063595988
-0.11875786 -0.62386626 0.06356471
-0.11737765 -0.62384903 0.063552856
-0.11381843 -0.62386894 0.063603848
-0.11050153 -0.62382132 0.063524112
-0.13588652 -0.71036404 0.064410195
-0.134767 -0.71038836 0.064419404
-0.13301963 -0.71040422 0.064429216
-0.13194972 -0.71041256 0.064452805
-0.12451928 -0.7104004 0.064413875
-0.12315071 -0.71038944 0.064420737
-0.12065085 -0.71040499 0.064444199
-0.14293773 -0.7096079 0.064905226
-0.1408236 -0.70960081 0.064896256
-0.13973129 -0.7095921 0.064879246
-0.13869399 -0.70958084 0.064872742
-0.13763356 -0.70959163 0.064875819
-0.13651486 -0.70958084 0.064864196
-0.13090037 -0.70961457 0.064928427
-0.1297611 -0.70962262 0.064924024
-0.1286898 -0.70961815 0.064921685
-0.1276868 -0.70961511 0.064923376
-0.12663329 -0.70960742 0.064911939
-0.12311733 -0.70959556 0.06488812
-0.11785552 -0.70960283 0.064914025
-0.15326925 -0.69938093 0.064252451
-0.15413956 -0.69857043 0.06474711
-0.16298451 -0.68926054 0.064065985
-0.16476277 -0.68852031 0.064609677
-0.16369256 -0.6884945 0.064574525
-0.16554201 -0.67917818 0.064164966
-0.16765326 -0.67841548 0.064688437
-0.16690412 -0.67841786 0.064689256
-0.16668653 -0.66922599 0.064711295
-0.092527114 -0.64484227 0.064157471
-0.091856621 -0.64483833 0.064158313
-0.097280405 -0.6372931 0.064086094
-0.1022229 -0.63658345 0.064696737
-0.11554874 -0.62244016 0.064802304
-0.14463912 -0.70882207 0.065394156
-0.14364044 -0.7088033 0.065374874
-0.1414458 -0.70881617 0.065362498
-0.13931134 -0.70801324 0.065830261
-0.13110784 -0.7080344 0.065845892
-0.11986474 -0.70802468 0.065836824
-0.11887795 -0.70881975 0.065383345
-0.11739612 -0.70803154 0.065857425
-0.11588306 -0.70802873 0.065845281
-0.11479048 -0.70880449 0.065371633
-0.11345287 -0.70800561 0.065830365
-0.1382634 -0.70798916 0.065803424
-0.16009103 -0.69706696 0.0657508
-0.1590313 -0.69705546 0.065742783
-0.15655231 -0.69706392 0.065761752
-0.15583427 -0.69785696 0.065289102
-0.15482865 -0.69784069 0.065297
-0.16509783 -0.68694341 0.065593876
-0.087817818 -0.65925378 0.065484114
-0.083626196 -0.65923899 0.065439634
-0.092193633 -0.64336711 0.065302484
-0.096406266 -0.64261144 0.065841459
-0.12709501 -0.62835115 0.065469317
-0.14489071 -0.70722795 0.06630405
-0.13996503 -0.70723224 0.066296324
-0.14547324 -0.70643628 0.066754021
-0.1427903 -0.70643866 0.066770576
-0.14169866 -0.70644218 0.066779032
-0.1406135 -0.70644265 0.066770874
-0.11405846 -0.70643562 0.066772923
-0.10918728 -0.70640993 0.066720292
-0.15763591 -0.69626343 0.066231012
-0.16073568 -0.69550294 0.066750422
-0.15964837 -0.6954993 0.066724472
-0.16533838 -0.68540972 0.066586487
-0.16722178 -0.67531496 0.066731989
-0.16769703 -0.66691279 0.066260882
-0.089423329 -0.65014821 0.066072315
-0.088338025 -0.65015656 0.066078894
-0.089385778 -0.64940423 0.066628799
-0.086888142 -0.64941835 0.066645779
-0.10356141 -0.64187121 0.066413149
-0.095034622 -0.6418798 0.066416018
-0.093634337 -0.6418857 0.066436887
-0.12496059 -0.62765974 0.06610205
-0.12753223 -0.62691784 0.066705257
-0.15010589 -0.70565951 0.067260429
-0.14901461 -0.7048704 0.0677232
-0.14790361 -0.70488238 0.067725688
-0.14691035 -0.70485836 0.067693509
-0.14587003 -0.70483786 0.067680866
-0.15820302 -0.69471991 0.067195073
-0.16135217 -0.69391441 0.067676298
-0.16747063 -0.68381906 0.067564964
-0.16558723 -0.68384916 0.067575298
-0.16786179 -0.67456979 0.067264356
-0.16611046 -0.67456472 0.067252345
-0.16794582 -0.66537887 0.067323729
-0.084411651 -0.65698189 0.067108974
-0.090075128 -0.64866203 0.06718687
-0.092949271 -0.64114475 0.067016013
-0.10389007 -0.64039481 0.067560859
-0.10038687 -0.6403715 0.067536645
-0.097586043 -0.64035738 0.067530163
-0.14301085 -0.62625879 0.067366578
-0.13842848 -0.62621486 0.067312561
-0.13070275 -0.62624061 0.0673462
-0.12494437 -0.62621278 0.067297086
-0.11937518 -0.62622261 0.067312956
-0.14413512 -0.62552071 0.067945078
-0.12289057 -0.62549341 0.067929111
-0.12185419 -0.62551481 0.067949012
-0.12043504 -0.62550706 0.067915007
-0.11936866 -0.62549943 0.067908011
-0.1132945 -0.62545472 0.067873545
-0.10742665 -0.70404196 0.068127424
-0.15208636 -0.70328742 0.068652734
-0.14924376 -0.70329124 0.068665922
-0.14425023 -0.70325857 0.068622261
-0.10583153 -0.70325238 0.06861183
-0.15992889 -0.6931386 0.068190016
-0.15878741 -0.69315928 0.068182945
-0.16303903 -0.69231087 0.068588927
-0.1619194 -0.69234222 0.068620242
-0.16627526 -0.68306279 0.068068169
-0.16814253 -0.67302543 0.068311587
-0.16794235 -0.66309047 0.068902865
-0.086472683 -0.65473092 0.068743467
-0.089830123 -0.64717025 0.068294689
-0.091484256 -0.64642417 0.068872832
-0.1007154 -0.63890034 0.068685181
-0.12891969 -0.62478364 0.068536438
-0.11617427 -0.62478346 0.068519257
-0.11399719 -0.62476444 0.068525553
-0.15282072 -0.70247555 0.069102824
-0.15059237 -0.70170397 0.069578059
-0.10426736 -0.70167768 0.069548383
-0.10391843 -0.70167953 0.069549665
-0.15297222 -0.70088255 0.069996834
-0.16053271 -0.69155771 0.069117457
-0.16262202 -0.6907568 0.069588862
-0.16626818 -0.6807034 0.069540247
-0.16923918 -0.67073047 0.069860466
-0.086250119 -0.66230237 0.069380514
-0.088702381 -0.65397626 0.06928838
-0.087246485 -0.65322429 0.069837138
-0.096720435 -0.64568198 0.069430955
-0.094255224 -0.64568418 0.06944792
-0.093186937 -0.6456812 0.069446981
-0.16117898 -0.63817137 0.069268987
-0.098598406 -0.63816416 0.06925571
-0.160459 -0.63744479 0.069850147
-0.15942307 -0.63743323 0.069853202
-0.099315315 -0.63740611 0.069818161
-0.13024874 -0.63069409 0.069350906
-0.11748355 -0.62998992 0.069976695
-0.11345887 -0.62997115 0.06992358
-0.10319837 -0.6299867 0.069951713
-0.13616522 -0.71104199 0.070792966
-0.12697977 -0.71107066 0.070806094
-0.12309083 -0.71105462 0.070801988
-0.15366411 -0.70007563 0.070448816
-0.1512005 -0.70091879 0.070048489
-0.10282615 -0.70089763 0.070030309
-0.10097098 -0.69930696 0.070963532
-0.16365337 -0.68958676 0.070323214
-0.1607345 -0.68919659 0.070531286
-0.16767551 -0.66919899 0.070884094
-0.086658292 -0.66993833 0.070328847
-0.085593343 -0.66917151 0.07085079
-0.084844902 -0.66994846 0.070338406
-0.086536579 -0.66078562 0.070463091
-0.086861424 -0.65170974 0.0709152
-0.16642053 -0.64417726 0.070542164
-0.097055905 -0.64418638 0.070532538
-0.094441526 -0.64418781 0.070565552
-0.13896151 -0.71026349 0.07124795
-0.13788773 -0.71024591 0.071238786
-0.13463707 -0.71027035 0.071255855
-0.13006313 -0.71028793 0.071290448
-0.12902269 -0.71027559 0.07128685
-0.12799977 -0.71027297 0.071287997
-0.12299892 -0.71026003 0.071252659
-0.13648999 -0.70943457 0.071679838
-0.13355207 -0.70948499 0.07171496
-0.13182087 -0.7094866 0.071737096
-0.1307642 -0.70948219 0.071749404
-0.124023 -0.70946747 0.071704023
-0.12160626 -0.70947075 0.071715973
-0.12016418 -0.70948863 0.071736261
-0.11772071 -0.70946687 0.071723953
-0.15619859 -0.69853449 0.071478404
-0.15787937 -0.69774288 0.071905605
-0.15673363 -0.69774932 0.071903609
-0.16534308 -0.68766099 0.071569748
-0.16424526 -0.68765146 0.071560398
-0.16676416 -0.67838687 0.071019985
-0.086472988 -0.67757893 0.071500883
-0.16645348 -0.6592716 0.071550451
-0.083367117 -0.65924108 0.071479827
-0.16568246 -0.64343536 0.071097039
-0.096026011 -0.64343959 0.071099319
-0.091092154 -0.64343768 0.071113512
-0.16458984 -0.64268053 0.071643203
-0.098135717 -0.64265853 0.071631163
-0.1492874 -0.62853235 0.071156532
-0.1419064 -0.62849337 0.071089163
-0.1280815 -0.62850398 0.071103297
-0.12698309 -0.62850702 0.071082644
-0.12560305 -0.62851965 0.071115293
-0.12277453 -0.62853628 0.071128204
-0.11992825 -0.62852979 0.071123838
-0.11889919 -0.62853235 0.071133099
-0.11779424 -0.62853855 0.071139432
-0.1053671 -0.62854785 0.071139723
-0.12985662 -0.62778378 0.071702294
-0.12812902 -0.62777555 0.071691431
-0.1249065 -0.62779009 0.071706049
-0.12137056 -0.62780935 0.071702145
-0.11921994 -0.62780696 0.071719788
-0.11316336 -0.62776107 0.071663499
-0.11145489 -0.62779576 0.071716309
-0.13248441 -0.7086876 0.072179005
-0.11873071 -0.70868129 0.072186269
-0.11618201 -0.70867026 0.072169214
-0.14512692 -0.70789021 0.072654523
-0.14125188 -0.70788759 0.072617188
-0.13925633 -0.70784521 0.07259538
-0.13808502 -0.70786941 0.072594412
-0.13490874 -0.70784986 0.07259465
-0.11872465 -0.70788401 0.072639339
-0.11729743 -0.70787019 0.072633192
-0.11411488 -0.70786142 0.07261885
-0.11330991 -0.70786536 0.072621413
-0.11232447 -0.70785731 0.072593674
-0.1585802 -0.69613898 0.072820634
-0.16560373 -0.68608958 0.072533123
-0.16670512 -0.67604721 0.072525516
-0.16815066 -0.67523777 0.072992183
-0.16817419 -0.66610062 0.072919637
-0.087164029 -0.65020537 0.072001353
-0.088911876 -0.64942729 0.072520569
-0.16353793 -0.64117759 0.072748527
-0.14292328 -0.62705708 0.072310477
-0.13088299 -0.62708157 0.072316952
-0.12665054 -0.62703598 0.072254397
-0.13271753 -0.62635338 0.072903581
-0.13167785 -0.62634671 0.072903454
-0.12954509 -0.6263209 0.072880805
-0.12845927 -0.62631232 0.072865233
-0.14306489 -0.70707512 0.07308156
-0.14198467 -0.70708358 0.073073357
-0.13983524 -0.70707196 0.07306654
-0.11378283 -0.70706463 0.073074721
-0.14862734 -0.70628864 0.073527575
-0.14543507 -0.70626754 0.073513135
-0.1437286 -0.70628548 0.073544778
-0.10979997 -0.70625043 0.073472291
-0.10829595 -0.70626438 0.073491193
-0.1492267 -0.70550382 0.073995419
-0.14710979 -0.70547938 0.073952347
-0.14429586 -0.70548463 0.073997758
-0.11145675 -0.70547175 0.073963314
-0.11020689 -0.70546597 0.073930308
-0.15955214 -0.69537181 0.073302947
-0.16626269 -0.68531328 0.07302139
-0.16415529 -0.68451643 0.073496811
-0.16652822 -0.68374246 0.073969238
-0.083341986 -0.66532457 0.073417574
-0.16852146 -0.66456109 0.073944874
-0.088976964 -0.65697861 0.073117413
-0.087818727 -0.65697652 0.0731057
-0.086304545 -0.65620786 0.073638991
-0.085047446 -0.65620178 0.073631451
-0.091978125 -0.64868164 0.073065989
-0.090989165 -0.64868104 0.073054954
-0.088853277 -0.64867383 0.073062211
-0.08991535 -0.64791989 0.073602937
-0.099180743 -0.64041209 0.073293887
-0.096323699 -0.64042699 0.073303707
-0.16173796 -0.63969302 0.073880538
-0.15545937 -0.63222611 0.073787563
-0.11232579 -0.6322636 0.073847733
-0.10214475 -0.63225609 0.073840074
-0.13059737 -0.62562394 0.073501065
-0.15166038 -0.70470303 0.074446529
-0.14950755 -0.70390391 0.074897274
-0.14771959 -0.70391029 0.074889667
-0.1074032 -0.70387858 0.074843712
-0.16015927 -0.69380164 0.074269786
-0.097091913 -0.69375956 0.074210562
-0.16082595 -0.69298679 0.07471779
-0.16681603 -0.68215638 0.074929275
-0.16839837 -0.67371356 0.074023396
-0.089666739 -0.65546113 0.07417579
-0.093808994 -0.64717919 0.074179024
-0.091704637 -0.64717329 0.074149169
-0.094448641 -0.64642429 0.074719243
-0.092383146 -0.64641827 0.074708447
-0.088868871 -0.64640641 0.074688725
-0.16138819 -0.63820451 0.074991979
-0.15925433 -0.63816279 0.074943833
-0.098440774 -0.63817447 0.074961357
-0.097779423 -0.63891405 0.074405268
-0.1006941 -0.63152117 0.074418515
-0.14869267 -0.63077486 0.074988544
-0.14489453 -0.63077116 0.074999928
-0.12756175 -0.63076317 0.074956164
-0.11231516 -0.63078612 0.074997894
-0.10669786 -0.63078231 0.074986838
-0.10447386 -0.63076049 0.074973457
-0.14013554 -0.62412733 0.074617028
-0.13304716 -0.62488329 0.074062236
-0.15015863 -0.70310771 0.07535056
-0.14841536 -0.70311326 0.075353935
-0.14629027 -0.70308602 0.07531853
-0.14526653 -0.70307338 0.075310163
-0.10603935 -0.70306683 0.075299114
-0.1537219 -0.70227844 0.075773664
-0.15078215 -0.70231724 0.075807743
-0.14907822 -0.70230466 0.075807244
-0.10452683 -0.70228308 0.075769596
-0.16141412 -0.69139588 0.075612418
-0.16871095 -0.67217624 0.075058267
-0.084678784 -0.66144997 0.075947583
-0.098704889 -0.64566112 0.07523448
-0.095151052 -0.64567381 0.075263135
-0.1593111 -0.63741529 0.075505354
-0.15229338 -0.63078409 0.075001441
-0.14747871 -0.63078535 0.075004227
-0.11843706 -0.63004202 0.07558585
-0.10877585 -0.63079089 0.075000793
-0.10522711 -0.63002849 0.075535759
