# .PCD v0.7 - Point Cloud Data file format
VERSION 0.7
FIELDS x y z
SIZE 4 4 4
TYPE F F F
COUNT 1 1 1
WIDTH 479
HEIGHT 1
VIEWPOINT 0 0 0 1 0 0 0
POINTS 479
DATA ascii
-0.17571455 -0.57645601 0.0091267042
0.14348692 -0.58197165 0.0024156529
0.02979422 -0.58343965 0.0053468766
-0.20685618 -0.58275217 0.011071166
-0.21039852 -0.57930177 0.012820633
0.14467558 -0.59130323 0.0045295265
0.010432657 -0.58097553 0.009243113
0.015053116 -0.58360195 0.0090668593
-0.14476083 -0.57929289 0.013059924
-0.0051496997 -0.58187503 0.010254285
0.14745829 -0.58264446 0.0070177512
-0.16084391 -0.58098471 0.014842737
-0.0097539276 -0.57876188 0.01139855
0.027830362 -0.57906693 0.011840913
0.14857568 -0.59183395 0.0090864534
-0.18158573 -0.57947791 0.016438831
-0.18586282 -0.57628644 0.017327849
0.14344136 -0.61697501 0.0098461146
0.14568488 -0.61831832 0.0097891744
-0.13561861 -0.58155352 0.017019022
-0.11836399 -0.57947707 0.01710299
-0.096987873 -0.58049577 0.016224273
-0.043095611 -0.57881188 0.015014533
0.1475223 -0.60008222 0.010435688
0.060971521 -0.57744694 0.014214271
0.067993626 -0.5816263 0.014011116
0.14467409 -0.62662232 0.011524331
0.079602011 -0.57833475 0.014694439
0.14648351 -0.60793161 0.01284478
-0.1941006 -0.58136517 0.020996375
-0.03502842 -0.58195364 0.017433867
0.0046307519 -0.58363956 0.017220506
-0.15034322 -0.58201396 0.021184839
-0.057977453 -0.5785535 0.019218439
0.04148702 -0.58448714 0.016883129
-0.19774044 -0.57794976 0.0228555
-0.16720827 -0.58368945 0.022150837
-0.078259706 -0.57661825 0.021072306
-0.050221451 -0.58185464 0.020621657
-0.026842475 -0.58500427 0.019684378
0.00070717186 -0.5803169 0.019068368
-0.014450274 -0.58091193 0.021182336
0.022055056 -0.5813576 0.020540431
0.14456795 -0.58632088 0.017731147
-0.17033102 -0.57912397 0.025388878
-0.12427266 -0.58199239 0.025063202
-0.10331249 -0.58278245 0.024077825
-0.086525306 -0.58133006 0.023628948
-0.065385059 -0.58255696 0.02334236
0.038919441 -0.58050859 0.021438086
0.14732464 -0.63481915 0.017889438
0.14544433 -0.63330424 0.0189049
-0.20521097 -0.58190584 0.028224301
-0.10662811 -0.57900673 0.026741125
0.14310269 -0.61189026 0.021007879
0.055951089 -0.579319 0.024522237
-0.15642193 -0.58415526 0.029343847
-0.13946261 -0.5819447 0.029148024
-0.045267999 -0.58090842 0.026616186
-0.20795664 -0.5775544 0.031536773
-0.098534629 -0.58193749 0.028981477
-0.039654151 -0.58321589 0.028288264
-0.0052444115 -0.58260876 0.027089832
-0.15990415 -0.58007729 0.031838894
-0.092886716 -0.58404803 0.030493852
-0.071893141 -0.58524883 0.030045934
-0.027853638 -0.57907969 0.028567825
0.075051546 -0.57978439 0.026662998
0.14378449 -0.54784977 0.025610778
-0.18080701 -0.57895142 0.032630663
-0.17601606 -0.58185661 0.032600354
-0.054666169 -0.58371353 0.030726928
0.016504187 -0.58400786 0.028419971
0.064242184 -0.58248699 0.027931213
0.14665616 -0.57554722 0.026022153
0.14568707 -0.56613553 0.026039647
0.14467491 -0.55683333 0.026245603
0.14761899 -0.55822891 0.027095992
-0.16696292 -0.62529677 0.033136517
0.1463695 -0.59272718 0.027361143
0.14653037 -0.54889649 0.027408805
-0.1594737 -0.62898636 0.033744626
-0.1944631 -0.58193195 0.03495327
-0.18951979 -0.58470631 0.034618251
-0.12985289 -0.58375579 0.033841472
-0.11329731 -0.58210975 0.033022098
-0.063713647 -0.58827513 0.032382563
-0.019258209 -0.5819785 0.031795189
0.083113 -0.58318532 0.029172763
-0.11714934 -0.57861334 0.034896351
0.033506606 -0.58214909 0.030961283
0.14203689 -0.6267671 0.028147154
-0.1671522 -0.58391535 0.036699764
-0.1039491 -0.62104064 0.034671959
0.14538713 -0.60026592 0.029697891
0.14769711 -0.60161823 0.029584663
-0.18960138 -0.62224281 0.03684634
-0.18237628 -0.62660712 0.036787298
-0.21801585 -0.59150648 0.038408052
-0.1669046 -0.62175423 0.037051674
-0.15093802 -0.63185626 0.035833068
-0.067045778 -0.58455575 0.035056408
0.0075670928 -0.62734342 0.033334073
0.00052218884 -0.58178324 0.03392861
0.025528993 -0.58615977 0.033475261
0.050483681 -0.58147317 0.032971714
-0.19536038 -0.61715406 0.038222935
-0.14450431 -0.58392107 0.037983179
-0.0059067719 -0.6191448 0.034749512
0.0057766475 -0.62574953 0.034300178
0.019761372 -0.63420022 0.033901073
-0.04977116 -0.58248049 0.036575299
0.14531887 -0.61758703 0.031825699
-0.2029047 -0.62516087 0.039462108
-0.17664917 -0.62771922 0.038992304
-0.17390934 -0.6293596 0.038870547
-0.17963673 -0.58568984 0.039976399
-0.14898285 -0.58059913 0.038985159
-0.10809992 -0.58076185 0.038658362
-0.086924344 -0.58209491 0.037927184
-0.20449768 -0.62272179 0.040965207
-0.026217736 -0.61714017 0.036874
-0.019128785 -0.62122822 0.036587805
-0.014463384 -0.62398386 0.036510888
-0.0074574277 -0.62801182 0.03621744
-0.014714099 -0.58146173 0.036963254
-0.0098725334 -0.58436865 0.036882099
-0.19723766 -0.62638837 0.041731194
-0.1823186 -0.62213266 0.04135504
-0.19822995 -0.5864529 0.041788165
-0.19327623 -0.58858478 0.042298112
-0.1234969 -0.58174282 0.041149296
-0.1028121 -0.59376383 0.040216882
-0.0026695691 -0.63010585 0.03686526
0.078912109 -0.62536663 0.035992015
-0.18966559 -0.63028651 0.042520855
-0.20419221 -0.607539 0.043101054
-0.18923651 -0.60313016 0.042618919
-0.20037767 -0.58451045 0.042730417
-0.20434371 -0.58145511 0.043662701
-0.1403677 -0.59505922 0.04173588
-0.089516461 -0.62485945 0.039986111
-0.10199802 -0.58247668 0.040906608
-0.088022977 -0.59067798 0.040446647
-0.071415313 -0.58881015 0.040871799
-0.050256118 -0.60120434 0.040166527
0.042056374 -0.62395424 0.036973663
0.033355657 -0.61819863 0.038080648
-0.207397 -0.61873347 0.043325998
-0.18224712 -0.60678446 0.043469399
-0.2005313 -0.59588343 0.043870345
-0.14402768 -0.61715645 0.042180773
-0.11379321 -0.63480121 0.040936816
-0.15731084 -0.59644318 0.043099482
-0.15019776 -0.60061181 0.0428157
-0.17315243 -0.58620429 0.043940116
-0.17089903 -0.58763725 0.043988749
-0.13311389 -0.59863847 0.042395014
-0.12606303 -0.60271257 0.042098377
-0.13470274 -0.58574426 0.042610418
-0.13041912 -0.5882203 0.042504318
-0.1234213 -0.592291 0.042295288
-0.097212553 -0.60698658 0.042045347
-0.076550812 -0.61917484 0.0414088
-0.11560151 -0.58502811 0.042487528
-0.10881604 -0.58895236 0.04211114
-0.034049846 -0.62180078 0.039577909
-0.093987986 -0.58592111 0.042280562
-0.073394127 -0.59807211 0.041719921
-0.066524878 -0.60210764 0.041460123
-0.043238282 -0.61562794 0.040583134
-0.047760293 -0.59104973 0.041197635
-0.03161975 -0.59024394 0.040306427
0.039489377 -0.58085734 0.039776567
-0.19468239 -0.59774506 0.045063116
-0.18037452 -0.59403342 0.044278871
-0.17369157 -0.59818381 0.044400971
-0.16647464 -0.60254145 0.0443382
-0.15937421 -0.60671014 0.044156309
-0.18692428 -0.58936751 0.045150496
-0.1639161 -0.59183478 0.043991689
-0.14271386 -0.60432929 0.043440152
-0.12466024 -0.5903033 0.043976247
-0.10357469 -0.6025877 0.043032058
-0.10341749 -0.59084386 0.043583963
-0.089164019 -0.59920949 0.043073449
-0.061738625 -0.61527771 0.042199977
-0.045098364 -0.62499857 0.041605614
-0.042934835 -0.62631249 0.041563187
-0.0359395 -0.61936581 0.041263271
-0.077434197 -0.58396101 0.042707209
-0.072825529 -0.58672512 0.042600017
-0.056550674 -0.59624392 0.042026337
-0.040239029 -0.59501684 0.041924782
-0.023632117 -0.60473359 0.041329738
-0.0078861713 -0.60360909 0.040420659
-0.039853439 -0.58434236 0.042347066
-0.014575467 -0.59918201 0.04155669
0.017905038 -0.61788154 0.040349338
-0.021540485 -0.58479536 0.041507158
0.053925492 -0.58917278 0.040358081
0.12770705 -0.62317795 0.037805341
0.078065351 -0.58482301 0.039350357
0.14781894 -0.62572753 0.037135642
0.089162074 -0.58203119 0.039111558
0.14262614 -0.61342317 0.037417851
0.094995849 -0.56717879 0.039664079
0.097228527 -0.56848222 0.039583717
-0.20993231 -0.60204542 0.045802791
-0.20640801 -0.59104675 0.045752026
-0.18314937 -0.60397398 0.045715317
-0.15230086 -0.61011815 0.044738419
-0.12788412 -0.61160982 0.04451102
-0.14141554 -0.59168148 0.045017269
-0.092425108 -0.62040454 0.043279987
-0.1384439 -0.58150798 0.045155305
-0.13139629 -0.58566093 0.044989791
-0.11744459 -0.59380949 0.04448925
-0.11032246 -0.59797591 0.044116586
-0.052115135 -0.62101996 0.041968595
-0.095865086 -0.594643 0.044140149
-0.081991635 -0.60280406 0.043731399
-0.067797765 -0.61119658 0.043272756
-0.05419594 -0.61920679 0.042904861
-0.031073891 -0.63267899 0.042086706
-0.058710113 -0.60530853 0.042787816
-0.065345593 -0.59054637 0.043256711
-0.042117983 -0.60417819 0.042487457
-0.032937333 -0.60947186 0.042084988
-0.049137592 -0.58902967 0.042909525
-0.016705252 -0.60813993 0.041951485
-0.0096439272 -0.61226159 0.041712269
-0.0048486665 -0.61505795 0.041559257
0.0019699 -0.61896414 0.041315299
-0.032551087 -0.58807528 0.043015242
0.011363596 -0.61355865 0.041503664
0.0065110065 -0.60073805 0.041569989
0.027422283 -0.61286151 0.040821925
0.041447289 -0.62132514 0.040435567
0.052847661 -0.62808663 0.040076021
-0.0054100975 -0.58373582 0.042004012
0.0016799122 -0.5878256 0.041721612
0.036566161 -0.60827649 0.040611658
0.052858155 -0.61798584 0.040125668
0.073047996 -0.60000688 0.040641021
0.082372658 -0.60546041 0.040347014
0.10980787 -0.62155777 0.039450034
0.13348348 -0.63543832 0.038700327
0.060515776 -0.58322638 0.040823873
0.072219789 -0.59019428 0.040458627
0.11784307 -0.6076895 0.039002292
0.12499627 -0.61182338 0.038709018
0.10930163 -0.57527119 0.040207475
0.13269283 -0.54572755 0.040056277
-0.20912243 -0.62793046 0.046881784
-0.1973493 -0.6077438 0.046621323
-0.15471259 -0.62097186 0.045261562
-0.14085156 -0.62904 0.0448291
-0.1894955 -0.59936631 0.046464458
-0.17559332 -0.6078918 0.046521474
-0.16869166 -0.61200237 0.046466943
-0.13082685 -0.62196577 0.044731349
-0.16473114 -0.5892787 0.046335842
-0.13421951 -0.60726982 0.045591608
-0.15471494 -0.58323419 0.046191022
-0.14761312 -0.58740377 0.046008062
-0.112993 -0.60763115 0.044745199
-0.098397553 -0.60432512 0.044526853
-0.091381416 -0.60838538 0.044299696
-0.07449539 -0.60660106 0.044369448
-0.079220511 -0.59269822 0.044336047
-0.057814702 -0.59438074 0.04380998
-0.055703856 -0.58472133 0.044071596
-0.041713819 -0.59294766 0.043681428
-0.032420568 -0.59824002 0.043199521
-0.025535628 -0.60236013 0.043051716
-0.015911028 -0.59727943 0.043347694
-0.0020167232 -0.6053524 0.042897455
0.0049884208 -0.60938084 0.042607192
0.025697052 -0.62151545 0.041934002
-0.013673156 -0.58846074 0.043106548
-0.0071432516 -0.59222436 0.04288375
-8.6292624e-05 -0.59634405 0.042647123
0.013741776 -0.60426879 0.042142063
0.02078272 -0.60826409 0.041867346
0.043737147 -0.6119917 0.041254137
0.0094701573 -0.59132248 0.043260481
0.034843158 -0.60612977 0.042417053
0.020667456 -0.58781248 0.043104671
0.022882689 -0.58903623 0.042997338
0.02992079 -0.59303015 0.04272607
0.0369564 -0.5973053 0.042536888
0.062002607 -0.60288417 0.041323211
0.082717985 -0.61503977 0.04065666
0.038848855 -0.58894098 0.041945938
0.045712925 -0.59317678 0.041812595
0.059351351 -0.59142494 0.041953858
0.061536215 -0.59275752 0.041930366
0.070753776 -0.59818697 0.041592401
0.10098045 -0.61587012 0.040610131
0.10792951 -0.61994803 0.040375076
0.12683879 -0.6310389 0.039802469
0.14521909 -0.64190954 0.039235637
0.081825927 -0.59531242 0.041053038
0.091098145 -0.60081178 0.04079099
0.10975204 -0.61173999 0.040192507
0.11684962 -0.61586887 0.039943278
0.12602316 -0.62124676 0.039643668
0.1422741 -0.6308049 0.039137803
0.081431441 -0.58589697 0.041097872
0.12784649 -0.61308599 0.039601065
0.13485795 -0.61719859 0.039370108
0.10856515 -0.5925709 0.04034913
0.12706634 -0.60340166 0.039744817
0.10045389 -0.56961417 0.041373514
0.11816211 -0.57104504 0.041432012
0.14358829 -0.58628672 0.039660476
0.10816431 -0.55654448 0.041537825
0.12648414 -0.56728595 0.040926665
0.14511241 -0.57818907 0.040295549
0.13389927 -0.5545662 0.040715154
0.1361836 -0.55591857 0.040647715
0.1260033 -0.54150575 0.041215416
-0.21207817 -0.61239809 0.047507674
-0.13689658 -0.61702228 0.046657816
-0.12297636 -0.62514997 0.045994129
-0.1573803 -0.59296119 0.047062036
-0.11269352 -0.61912167 0.04542597
-0.11952096 -0.60313261 0.045830712
-0.10542533 -0.61140591 0.04528062
-0.08834964 -0.60887349 0.045837864
-0.083680019 -0.61168909 0.045748584
-0.067848451 -0.62151229 0.044307373
-0.067169242 -0.59921807 0.044877209
-0.05086042 -0.60881698 0.044372253
-0.04394412 -0.6127525 0.044026166
-0.033860803 -0.60706294 0.044631273
-0.025054812 -0.61298764 0.04363722
-0.0225695 -0.59269404 0.044319224
0.012316842 -0.60239941 0.043972053
0.019378122 -0.60637581 0.043707795
0.0071265884 -0.58996445 0.043377854
0.01451847 -0.59368265 0.043958552
0.051142618 -0.61593229 0.042015757
0.063235499 -0.62241185 0.042404428
0.028236322 -0.60150987 0.043411549
0.01604547 -0.58518082 0.043281332
0.044067971 -0.60166752 0.042372447
0.050980844 -0.60576791 0.04214561
0.05316586 -0.60710055 0.042123038
0.062382203 -0.61252946 0.041785061
0.052869804 -0.59691972 0.04246958
0.071592033 -0.60795873 0.041882493
0.10884516 -0.62981653 0.040692415
0.118017 -0.63519323 0.040391412
0.052803602 -0.5870558 0.043072689
0.080749713 -0.60351384 0.042183127
0.092120126 -0.61025059 0.041857116
0.11769886 -0.62515867 0.040935494
0.068256162 -0.58697116 0.042504821
0.070743896 -0.58840328 0.042354025
0.079959169 -0.5937596 0.042031258
0.08921206 -0.59923863 0.041794639
0.10089628 -0.60604644 0.041366659
0.088755786 -0.58970296 0.041763924
0.091108382 -0.5911119 0.041709449
0.10012381 -0.59643829 0.04143659
0.1163001 -0.60586828 0.04084741
0.10970962 -0.60155529 0.041987039
0.099472992 -0.58685923 0.04158175
0.11812735 -0.59778732 0.040982928
0.13439834 -0.60729432 0.040435895
0.11631436 -0.5963251 0.041988101
0.12557046 -0.60169202 0.041644938
0.10814171 -0.58285385 0.041637655
0.12657349 -0.59363127 0.041012261
0.13622014 -0.59926444 0.040707454
0.14323169 -0.60337734 0.04047738
0.10749355 -0.57339722 0.042089693
0.12614824 -0.58432502 0.041490559
0.10713665 -0.56418693 0.042722508
0.12539721 -0.57487679 0.042097073
0.12799178 -0.57644761 0.042064525
0.13459477 -0.5802967 0.041821461
0.10592416 -0.55486166 0.042527609
0.11766056 -0.56184173 0.042226754
0.13601869 -0.57254118 0.04155685
0.14093634 -0.57541072 0.041417155
0.14313048 -0.57667619 0.04133869
0.10519682 -0.54596251 0.042538501
0.10738509 -0.54719108 0.042439278
0.11451467 -0.55141401 0.042248923
0.1166385 -0.55267048 0.042197719
0.12586929 -0.55809468 0.041885648
0.13537133 -0.56367528 0.041590095
0.11588284 -0.54369104 0.042269684
0.12505908 -0.54915094 0.042023253
0.14341637 -0.55985016 0.041355588
0.14391403 -0.54326957 0.041926961
-0.14974901 -0.59676629 0.047619503
-0.12187092 -0.61302733 0.046591736
-0.11458646 -0.61661553 0.047116797
-0.10750146 -0.62080193 0.046882726
-0.1004857 -0.62486196 0.046655081
-0.076288529 -0.61536539 0.046363484
-0.069209069 -0.61944968 0.046039458
-0.062084176 -0.62368065 0.045847852
-0.017103821 -0.61632496 0.044948906
-0.0079896003 -0.60066921 0.044698589
0.026903439 -0.61027086 0.044287317
0.021681268 -0.59721327 0.044578791
0.042693421 -0.60978168 0.043984547
0.060969442 -0.61064279 0.043596014
0.072772779 -0.61753196 0.043236453
0.075137466 -0.61894798 0.043181598
0.098137334 -0.63243973 0.042432394
0.060262527 -0.60088837 0.043242361
0.099967301 -0.62417048 0.041920315
0.032478001 -0.58416599 0.043992497
0.044340484 -0.59080726 0.044532996
0.090304106 -0.60871387 0.042834826
0.099439994 -0.61399049 0.04246188
0.11576618 -0.6235438 0.041941531
0.13201866 -0.63311774 0.041434981
0.098807916 -0.60441381 0.042379353
0.10831748 -0.60999811 0.042082485
0.13370401 -0.62484789 0.041270155
0.14078788 -0.62902403 0.041028135
0.10778578 -0.59997022 0.042961035
0.13314804 -0.61530298 0.041272134
0.14293192 -0.62061656 0.041871306
0.097920686 -0.58509195 0.043508057
0.10715406 -0.59051841 0.043195352
0.14205247 -0.61095434 0.042086586
0.099462651 -0.57731682 0.042828988
0.11771668 -0.58800256 0.042202853
0.12499708 -0.59186631 0.042884529
0.13406417 -0.59755599 0.041638833
0.1055802 -0.57188267 0.043115988
0.11726798 -0.57869297 0.042690992
0.13357553 -0.58825833 0.042164918
0.13576767 -0.5895226 0.042086504
0.14275178 -0.59363842 0.041868143
0.098142654 -0.5585559 0.043941576
0.11648448 -0.56933796 0.043375175
0.11550619 -0.56019253 0.043198489
0.12494995 -0.56568319 0.042877208
0.13416114 -0.57112002 0.042599067
0.12385061 -0.55659652 0.042910535
0.14229037 -0.56737822 0.042285442
0.1415458 -0.55845976 0.042406414
0.14307788 -0.55094898 0.042604987
-0.21430482 -0.62193441 0.050223403
-0.21385154 -0.59531105 0.050564203
-0.083172396 -0.62249863 0.047084481
0.033976696 -0.62477607 0.044324107
0.070588887 -0.61571401 0.044167936
0.091477215 -0.62798071 0.043500211
0.10070533 -0.63340569 0.043194257
0.10780258 -0.63753366 0.042980306
0.081593901 -0.61287487 0.043414269
0.090830229 -0.61830378 0.043101046
0.11695148 -0.63308161 0.043138977
0.12572384 -0.63873613 0.041991446
0.099002361 -0.59445423 0.044236355
0.11611693 -0.58623677 0.044105787
0.14149095 -0.60153878 0.04240457
0.13263933 -0.55288994 0.043628637
-0.059121117 -0.62415057 0.04747181
0.062228411 -0.62026578 0.045113523
0.089679956 -0.62640548 0.04445985
-0.14166445 -0.61072052 0.050745938
-0.12285091 -0.62170219 0.049930744
-0.051776558 -0.62768024 0.047929183
0.07403861 -0.62665093 0.045643419
0.080949523 -0.63073134 0.045416828
0.02023156 -0.62364554 0.049199194
0.055010591 -0.62322909 0.049595911
-0.073002905 -0.6237638 0.052379716
