# .PCD v0.7 - Point Cloud Data file format
VERSION 0.7
FIELDS x y z
SIZE 4 4 4
TYPE F F F
COUNT 1 1 1
WIDTH 1419
HEIGHT 1
VIEWPOINT 0 0 0 1 0 0 0
POINTS 1419
DATA ascii
0.30924103 1.5690465 0.45764816
0.29691929 1.5680476 0.38785002
0.28468907 1.5565881 0.31857544
0.26593536 1.571162 0.21232806
0.2537204 1.5585071 0.14313775
0.2409222 1.5660801 0.070626959
0.22811686 1.5670396 -0.0019219785
0.2153506 1.5623991 -0.074247368
0.21511155 1.3022774 -0.075373873
0.20151454 1.3358595 -0.1524338
0.18815291 1.2598855 -0.228056
0.2224324 0.68436092 -0.033237699
0.21636675 0.65654159 -0.067540422
0.13237354 1.4656121 -0.54433382
0.22656538 0.2134912 -0.0090255933
0.22608542 0.16828932 -0.011630408
0.22626489 0.12216392 -0.010493503
0.22635934 0.080809213 -0.0098414905
0.22651604 0.04250728 -0.0088378098
0.22668484 0.0071590114 -0.0077669262
0.22644933 -0.023232533 -0.008992427
0.22674027 -0.054485735 -0.007230618
0.226528 -0.081124574 -0.0083262073
0.22654344 -0.10733142 -0.0081299944
0.22650395 -0.13184422 -0.0082463222
0.22652426 -0.15534906 -0.0080237901
0.22658888 -0.17788194 -0.0075503676
0.22653425 -0.19896951 -0.007754242
0.22575718 -0.22690319 -0.012005869
0.22592352 -0.24683714 -0.01095639
0.22591908 -0.26559195 -0.01087649
0.2260472 -0.2840755 -0.010044593
0.22630458 -0.30225769 -0.008479354
0.22635761 -0.31949127 -0.0080738934
0.22619201 -0.33594847 -0.0089093586
0.22630085 -0.35253236 -0.0081875427
0.22634712 -0.36870262 -0.0078208121
0.22632502 -0.3845394 -0.0078421282
0.22604601 -0.40777299 -0.0092693707
0.22592086 -0.42320356 -0.0098754419
0.22606297 -0.43866378 -0.008964913
0.22577845 -0.45396024 -0.010475185
0.22593378 -0.46930093 -0.0094894534
0.22566174 -0.48471951 -0.01092865
0.22582987 -0.50007504 -0.00987007
0.22591238 -0.52329308 -0.0092448313
0.22580111 -0.53908652 -0.0097710639
0.22561923 -0.55519974 -0.010697715
0.22554046 -0.57147205 -0.011039068
0.23374259 -0.57437462 0.035601288
0.2324677 -0.59173518 0.028473672
0.23144835 -0.61752921 0.022849627
0.23145843 -0.6339516 0.023013284
0.23174001 -0.65012687 0.024717724
0.23259668 -0.66502684 0.029684855
0.2338524 -0.67883366 0.036916032
0.23459572 -0.69443613 0.041240785
0.23533539 -0.71998596 0.04560006
0.22428039 -0.78609735 -0.01699421
0.22541644 -0.81783515 -0.010380808
0.22498064 -0.8460905 -0.012737729
0.2246702 -0.87561297 -0.014382147
0.22401302 -0.9092387 -0.017991185
0.22513518 -0.95137239 -0.01144729
0.047245182 -2.4055402 -1.0197102
0.052876603 -2.5848267 -0.9874717
0.05150149 -2.7658088 -0.99504274
0.082350373 -2.6475067 -0.81995273
0.26205221 -2.6038346 0.20118551
0.27521187 -2.5954216 0.27598041
0.28817245 -2.5923312 0.34965107
0.30106437 -2.5856276 0.42292997
0.3139542 -2.5923264 0.49620962
0.32675776 -2.5824437 0.56898695
0.34594452 -2.5707798 0.67797405
0.35875756 -2.5634181 0.75077075
0.37206414 -2.569169 0.826379
0.62810969 -4.9085393 2.2820189
0.78814691 -6.4903188 3.1917164
0.79038221 -6.0036211 3.2040617
0.80390638 -5.6961598 3.2806282
0.81673741 -5.4134164 3.3532808
0.83260721 -5.0080042 3.4431109
0.8174355 -4.5616632 3.3566995
0.81068295 -4.2243195 3.3181622
0.77967298 -3.7517345 3.1418431
0.80858791 -3.7128305 3.3059835
0.81086707 -3.5065386 3.3188162
0.80642253 -3.2763317 3.2934701
0.80215752 -3.0638268 3.2691584
0.80852884 -2.8316007 3.3052309
0.81010872 -2.6738539 3.3141375
0.80401838 -2.4926183 3.2794948
0.80263084 -2.3400459 3.2715659
0.80626869 -2.2122018 3.2921786
0.79866236 -2.0522501 3.2489519
0.80026662 -1.8656951 3.258013
0.79769027 -1.7367138 3.2433598
0.79433388 -1.6108894 3.224283
0.79463607 -1.4975771 3.22598
0.79285479 -1.3830886 3.2158525
0.79179841 -1.2730781 3.2098436
0.79388857 -1.1701925 3.2216983
0.7856819 -1.0048395 3.1751051
0.75525773 -0.87647355 3.0024173
0.78384215 -0.80345333 3.1646574
0.78838319 -0.70747775 3.1904299
0.78402919 -0.60757822 3.165719
0.78114772 -0.50994074 3.1493678
0.35675615 -0.42765725 0.74110627
0.34469497 -0.42142591 0.67277431
0.34287807 -0.41430917 0.66253895
0.34170687 -0.40696692 0.65596789
0.34133747 -0.39873719 0.6539464
0.3405253 -0.38684842 0.64945036
0.34052402 -0.37783581 0.64951766
0.3410677 -0.37203887 0.65263963
0.3428469 -0.347947 0.66288203
0.34320194 -0.33633015 0.66497022
0.34209996 -0.32879388 0.65879279
0.34110785 -0.3210265 0.65323865
0.34065485 -0.31131172 0.65074295
0.34084421 -0.2987366 0.65189075
0.34052047 -0.2812438 0.65016443
0.34058705 -0.26751098 0.65061516
0.34039941 -0.24680366 0.64965999
0.34127051 -0.22616681 0.65467232
0.3425298 -0.20127173 0.66188544
0.5812847 1.6850834 2.0158951
0.56033063 1.6763383 1.8970826
0.54125237 1.6744457 1.7889116
0.51603156 1.6895595 1.6459208
0.49918866 1.6918617 1.5504342
0.48258445 1.6900665 1.4563051
0.46780261 1.7043704 1.3725095
0.43907443 1.5160389 1.2096829
0.42574939 1.5229871 1.1341584
0.41465893 1.5650585 1.0712967
0.399376 1.5281695 0.98468643
0.37993154 1.5251 0.87449193
0.36753544 1.5310634 0.80424255
0.35562709 1.5512701 0.73675483
0.34334287 1.5591863 0.6671412
0.33098426 1.5616349 0.5971089
0.31868491 1.5655828 0.52741277
0.30022129 1.5773671 0.42278489
0.28790751 1.5671318 0.35301518
0.27570531 1.5554445 0.28388005
0.26310539 1.5701799 0.21247768
0.25058621 1.5704037 0.14154054
0.23810932 1.5651098 0.070846431
0.22531196 1.5660772 -0.0016677439
0.20647401 1.5513699 -0.10839918
0.20399852 1.348666 -0.12226792
0.19628996 1.2743546 -0.16587937
0.21974711 0.74269772 -0.032494456
0.2150581 0.69085199 -0.058987208
0.20972364 0.65313965 -0.089147635
0.12418476 1.5262314 -0.57467926
0.18606688 0.72174615 -0.22320597
0.22385333 0.21267061 -0.0084680524
0.22457488 0.15765841 -0.0042679063
0.22429845 0.11579323 -0.0057346667
0.22421511 0.076164924 -0.0061072735
0.22428818 0.038752545 -0.0055935672
0.22436352 0.0042526205 -0.005068426
0.22427042 -0.026748851 -0.0055003501
0.22433095 -0.05651233 -0.0050614099
0.22400209 -0.082416974 -0.0068329941
0.22389276 -0.10794085 -0.0073595927
0.22399786 -0.13302773 -0.0066700913
0.22339441 -0.1652461 -0.0099556083
0.22424686 -0.17949541 -0.0050728759
0.22326621 -0.20761791 -0.010499979
0.22344375 -0.22829042 -0.0094018811
0.22346473 -0.24769248 -0.0091925282
0.22346774 -0.26638386 -0.0090853954
0.22360297 -0.28480297 -0.0082285134
0.22370401 -0.30257776 -0.0075659459
0.22376142 -0.31977814 -0.0071511227
0.22343308 -0.33592606 -0.0089250887
0.2237128 -0.35275173 -0.0072496287
0.22359309 -0.36867982 -0.0078404136
0.2231721 -0.39200264 -0.010096407
0.22312577 -0.40762767 -0.010271336
0.22334836 -0.42326713 -0.0089209294
0.22332013 -0.43863997 -0.0089935567
0.22338529 -0.45397115 -0.0085365986
0.22319612 -0.46927667 -0.0095223403
0.22310004 -0.48464265 -0.0099802157
0.2230452 -0.50781614 -0.010160835
0.22301225 -0.52340722 -0.010260808
0.22290473 -0.53923488 -0.010784005
0.22272679 -0.55538207 -0.011706518
0.22838061 -0.56346452 0.020446751
0.23086168 -0.57462734 0.034604546
0.22982508 -0.59933078 0.028854163
0.22857915 -0.61786336 0.021873677
0.22859466 -0.63431793 0.022047523
0.22903945 -0.6501025 0.024655778
0.22989969 -0.66500258 0.029620202
0.2311592 -0.67880982 0.036848687
0.23246709 -0.70166874 0.044394009
0.23221961 -0.72163975 0.043075956
0.22244641 -0.79441524 -0.012218998
0.22179538 -0.82221174 -0.015824834
0.22178435 -0.84868574 -0.01580137
0.22136761 -0.87899357 -0.018078517
0.22234903 -0.91911077 -0.012384026
0.22236402 -0.95208609 -0.012212885
0.043928426 -2.2754042 -1.0238936
0.04889502 -2.4436378 -0.99558282
0.048124991 -2.6029489 -0.9998498
0.048168674 -2.7724752 -0.99950212
0.27290604 -2.5894325 0.27604252
0.28578025 -2.5973322 0.34912267
0.29871914 -2.5916395 0.42256799
0.31160963 -2.5893481 0.49573812
0.33092639 -2.5835485 0.60538435
0.34369332 -2.5728047 0.67784154
0.35655773 -2.5664284 0.75086141
0.37631217 -2.5656681 0.86298805
0.77484298 -6.3437762 3.12341
0.81068075 -6.0085297 3.3267269
0.8098554 -5.5618749 3.3221114
0.82075226 -5.274528 3.3839705
0.82133549 -4.9253922 3.3873475
0.80947691 -4.5117874 3.320173
0.80729353 -4.2119894 3.3078651
0.7744481 -3.7282455 3.1216869
0.81696773 -3.6637142 3.3629129
0.81431144 -3.4324014 3.3479283
0.80849314 -3.2007477 3.3150139
0.80537307 -2.9994764 3.297401
0.80234748 -2.8117201 3.2803247
0.80406517 -2.6560552 3.2901468
0.78418237 -2.4205923 3.1774814
0.80954713 -2.3011873 3.32144
0.80623323 -2.1503351 3.3027327
0.79774404 -1.9908997 3.254678
0.79623586 -1.8602332 3.2462111
0.79439938 -1.7336931 3.2358832
0.79245281 -1.6114936 3.2249317
0.79110938 -1.4947252 3.2174006
0.79182899 -1.3307519 3.2216134
0.79174793 -1.2232679 3.2212429
0.79283267 -1.1193537 3.227484
0.75337327 -0.97126573 3.0038066
0.77263492 -0.89450985 3.1131265
0.77288502 -0.79743946 3.1146362
0.78447586 -0.70680952 3.1804585
0.7811538 -0.55893731 3.1617587
0.77709132 -0.46180958 3.1388147
0.3558051 -0.43842351 0.74986225
0.35428742 -0.42192203 0.74137557
0.34194204 -0.42615765 0.67140311
0.34017476 -0.41451594 0.66150022
0.33933908 -0.4111228 0.65680087
0.33882529 -0.40309981 0.65396684
0.33798879 -0.38686201 0.64938271
0.33840582 -0.38155437 0.65178788
0.33826828 -0.36317933 0.65116829
0.34093785 -0.34626949 0.66638935
0.34066254 -0.33634254 0.66490859
0.33996263 -0.33300835 0.66097921
0.33871484 -0.32052231 0.65402353
0.33854878 -0.30968815 0.65316278
0.33793378 -0.29412305 0.64979643
0.33811146 -0.28063717 0.65088582
0.33756945 -0.2628552 0.64793432
0.33810413 -0.24544756 0.65104944
0.33921063 -0.22334616 0.65740865
0.57768637 1.6778255 2.0106227
0.55035704 1.6954468 1.8557699
0.53030533 1.6821638 1.7421378
0.51194626 1.6756551 1.638106
0.49631938 1.6900536 1.5495746
0.47956493 1.6864339 1.4546435
0.46493652 1.7025102 1.3717747
0.4373987 1.5308485 1.2156425
0.41720986 1.5390546 1.1012795
0.40200263 1.5054615 1.0151128
0.39031601 1.5320174 0.94892901
0.37722474 1.5260658 0.87477005
0.36498189 1.5369481 0.80542713
0.35292152 1.5532433 0.73712081
0.34074587 1.5671273 0.66815978
0.32205677 1.5634243 0.56229687
0.3097541 1.5671365 0.49261215
0.29743704 1.5583771 0.42284161
0.28513139 1.5651457 0.35314077
0.27278048 1.5664325 0.28318104
0.26039922 1.5652243 0.21304841
0.24776079 1.5714128 0.14145947
0.229165 1.5585868 0.036120616
0.21620637 1.5621684 -0.037285507
0.20384224 1.5475311 -0.10732654
0.19862075 1.3974636 -0.13690668
0.19351174 1.2743807 -0.16584066
0.18260506 1.2590005 -0.22761793
0.21209025 0.69455755 -0.060516141
0.20725182 0.65044451 -0.087890998
0.19787218 0.66196674 -0.14100067
0.22245359 0.15358406 -0.0014581069
0.22210343 0.11261997 -0.003380107
0.22215459 0.072300352 -0.0030261732
0.22225673 0.035000067 -0.0023821471
0.22060221 -0.0048175249 -0.011662708
0.22086658 -0.03716201 -0.010097403
0.22078055 -0.065472879 -0.010517806
0.2206756 -0.091995224 -0.011045116
0.22093315 -0.11867466 -0.0095167626
0.2208558 -0.14243062 -0.0098867556
0.22068314 -0.16466646 -0.01079682
0.22083226 -0.1870997 -0.0098822648
0.22115779 -0.20909789 -0.007967053
0.2211946 -0.22920939 -0.0076888064
0.22106856 -0.24811096 -0.0083336467
0.220919 -0.26636404 -0.0091118626
0.22121876 -0.28515792 -0.0073420703
0.22084965 -0.31053379 -0.00932997
0.22079833 -0.32739872 -0.0095508406
0.22085761 -0.34409344 -0.0091445399
0.22085613 -0.36036924 -0.0090826508
0.22078787 -0.37630552 -0.0093995538
0.2208194 -0.39214018 -0.0091506112
0.2209494 -0.40785265 -0.0083432207
0.22083047 -0.42324841 -0.0089475876
0.22080536 -0.43862137 -0.0090200678
0.22068217 -0.46159673 -0.0096138874
0.22071616 -0.47691754 -0.0093513895
0.22049658 -0.49235916 -0.010527291
0.22054446 -0.50779808 -0.010186353
0.22034274 -0.5235284 -0.011261255
0.22065103 -0.54688793 -0.0094091967
0.22069447 -0.56282425 -0.00909412
0.22687601 -0.56952512 0.026039047
0.22855636 -0.58176261 0.035640053
0.22685148 -0.60028946 0.026037507
0.22610146 -0.61784559 0.021850992
0.22612023 -0.63430023 0.022025326
0.22714391 -0.65711069 0.027933959
0.22820553 -0.67145109 0.03402384
0.22950666 -0.68509752 0.041472428
0.22971204 -0.70271075 0.04270396
0.23027034 -0.72945768 0.045970064
0.2197236 -0.79560262 -0.013810043
0.2188151 -0.82471287 -0.018903513
0.21895528 -0.85063797 -0.018047616
0.21958317 -0.89019918 -0.014395825
0.2198045 -0.91981441 -0.01308233
0.21901666 -0.95801544 -0.017498003
0.044985857 -2.3173268 -1.0052367
0.044241823 -2.4630694 -1.0094767
0.043614451 -2.6228628 -1.0130645
0.052537963 -2.7122831 -0.96243948
0.088450946 -2.6253793 -0.75859195
0.24438226 -2.6005769 0.12656516
0.25758073 -2.5978329 0.20149668
0.27057374 -2.6013768 0.27525866
0.29007965 -2.5912805 0.38600555
0.30297312 -2.5902824 0.45920673
0.31578192 -2.5797019 0.53193426
0.32871398 -2.5825088 0.6053521
0.34799272 -2.5728648 0.71482801
0.36089158 -2.5661497 0.78806692
0.37388012 -2.5597441 0.86181325
0.79131734 -6.3011518 3.2272608
0.80254781 -5.9403787 3.2912633
0.80882072 -5.5703745 3.3271551
0.80517864 -5.1488523 3.3068511
0.81079865 -4.8522749 3.3389904
0.80386853 -4.4833155 3.3000035
0.81059498 -4.118165 3.3384976
0.78179783 -3.6775067 3.1755476
0.81566334 -3.6686816 3.3676782
0.80858773 -3.4117444 3.3277915
0.80198592 -3.1774118 3.2905774
0.79765642 -2.9717758 3.2662306
0.79890233 -2.8059134 3.2734759
0.80154073 -2.6547098 3.2886083
0.77825534 -2.3344297 3.1568744
0.80873555 -2.3063476 3.3298154
0.79956979 -2.1356976 3.2780199
0.79527384 -1.9902967 3.2538242
0.79218835 -1.8552792 3.2364867
0.78935903 -1.7266482 3.2205977
0.79073888 -1.5554374 3.2286427
0.79145873 -1.4442638 3.2328696
0.78894931 -1.3297509 3.2187862
0.7886855 -1.2221102 3.2174332
0.79043186 -1.1192327 3.2274766
0.74754781 -0.96733689 2.984462
0.79337132 -0.9155187 3.2444248
0.77743345 -0.75322998 3.1542616
0.78113568 -0.65715897 3.1753929
0.77783555 -0.55865204 3.1568177
0.77636921 -0.46170151 3.1486404
0.35298005 -0.43852916 0.7478773
0.33899695 -0.42203808 0.66878891
0.33752269 -0.41467679 0.66051179
0.33668727 -0.41130105 0.65581566
0.33594811 -0.39491144 0.65179151
0.33566475 -0.37747884 0.65035295
0.33610141 -0.36237031 0.6529569
0.33860734 -0.34581923 0.66725689
0.33778006 -0.33204246 0.66269273
0.33665341 -0.32461643 0.65638751
0.33593035 -0.31588858 0.65237188
0.33572719 -0.30504239 0.65130585
0.33572182 -0.29292211 0.65136272
0.33589101 -0.27938083 0.65241027
0.33546677 -0.26086259 0.65013587
0.33611467 -0.24269541 0.65390193
0.33720243 -0.22049381 0.66016513
0.59100431 1.7195393 2.1010766
0.56575143 1.6838442 1.9579389
0.54518783 1.673936 1.8414111
0.52728999 1.6788124 1.7400116
0.50981766 1.6808896 1.6410233
0.49220181 1.6741968 1.5412149
0.47014278 1.7017081 1.4162829
0.45541358 1.7153486 1.3328607
0.42812437 1.5362228 1.1780665
0.41416606 1.5324622 1.0990024
0.39813873 1.4825348 1.0081694
0.3872599 1.5233473 0.94660389
0.37449238 1.5241388 0.87429714
0.36219198 1.5330418 0.80464649
0.34427953 1.5644679 0.70323831
0.33191559 1.5711849 0.63322747
0.30702767 1.5581568 0.49227816
0.29476169 1.5573912 0.42281851
0.28248915 1.5591623 0.35332471
0.26409879 1.5537003 0.24918282
0.25139642 1.5691509 0.1772656
0.23887995 1.5671165 0.10638802
0.22613619 1.568413 0.034225613
0.21338801 1.5651008 -0.037965171
0.20524225 1.4596395 -0.084152274
0.19592878 1.397472 -0.13692138
0.19111241 1.2696613 -0.16425304
0.17445387 1.2509297 -0.25858101
0.20745489 0.66664147 -0.071925677
0.19539267 0.71044344 -0.14018497
0.18408841 0.73569578 -0.20416287
0.18097381 0.67204714 -0.22179192
0.21842948 0.14274596 -0.0096809724
0.21844012 0.100262 -0.0095769372
0.21875668 0.059320487 -0.0077374824
0.21842502 0.025913402 -0.0095660379
0.21864404 -0.0084055616 -0.0082738334
0.21868213 -0.03923732 -0.0080043161
0.21848123 -0.066802479 -0.0090867244
0.21878548 -0.095200635 -0.0073064659
0.21865301 -0.11989737 -0.0079985224
0.21858442 -0.14359762 -0.0083277095
0.21870822 -0.16689476 -0.0075660734
0.21872455 -0.18868101 -0.0074123149
0.21891038 -0.2100894 -0.0062974561
0.21810307 -0.23731786 -0.010777184
0.21803798 -0.25619662 -0.011082591
0.21826707 -0.27521038 -0.0097205853
0.21846946 -0.29351458 -0.0085094078
0.21847062 -0.31085107 -0.0084380154
0.21842194 -0.32768282 -0.0086488305
0.21848366 -0.34434402 -0.0082336776
0.21848436 -0.36058599 -0.008164078
0.21841799 -0.37648815 -0.0084744124
0.21845125 -0.39228848 -0.0082200617
0.21808016 -0.41538718 -0.010224164
0.21818125 -0.43089592 -0.0095850984
0.21820332 -0.44626784 -0.0093939863
0.21814492 -0.46158868 -0.0096588889
0.21800584 -0.47694439 -0.010381243
0.21796028 -0.49235117 -0.010573624
0.2180087 -0.50779015 -0.010233385
0.2180009 -0.53120184 -0.010179259
0.21794608 -0.54707086 -0.010424794
0.21799132 -0.56304133 -0.01010332
0.22635949 -0.56641257 0.037403241
0.22569554 -0.58234018 0.033704821
0.22399397 -0.60093325 0.02412283
0.22389007 -0.62529314 0.02363047
0.2241203 -0.64136767 0.024999859
0.22492902 -0.65622711 0.029648973
0.22598621 -0.6705054 0.035706732
0.22683144 -0.6855908 0.040562361
0.22704065 -0.70323402 0.041810662
0.22803195 -0.72830415 0.047523946
0.21766829 -0.80574262 -0.011168854
0.21726307 -0.83311898 -0.013412575
0.2170998 -0.86105859 -0.014285641
0.21681011 -0.89158106 -0.015877949
0.21619718 -0.9262808 -0.019306352
0.21743779 -0.96950716 -0.012198877
0.04081285 -2.3291171 -1.0144234
0.044995889 -2.5110512 -0.99077588
0.045001168 -2.6714292 -0.99082518
0.067841701 -2.6310298 -0.86126137
0.2616955 -2.5984392 0.23835447
0.27468926 -2.6006706 0.31206003
0.28769305 -2.5922859 0.38583255
0.30059338 -2.5882907 0.45901358
0.31349263 -2.5877013 0.53218412
0.32636157 -2.5825219 0.60518694
0.3328518 -2.5829411 0.64202499
0.34569585 -2.5748622 0.71493876
0.35860974 -2.5681381 0.78824818
0.37117743 -2.5499835 0.85960871
0.68712723 -8.882678 2.6440024
0.61106735 -4.9733844 2.2173989
0.78342015 -6.2311134 3.1933067
0.78872931 -5.8124156 3.2239668
0.80168808 -5.5193434 3.2978582
0.78792965 -5.0089827 3.2205257
0.81257331 -4.7229805 3.3607094
0.80821812 -4.3886385 3.3364942
0.80704558 -4.1081138 3.3302636
0.78190631 -3.6926484 3.188309
0.8104105 -3.6497121 3.3500614
0.80368656 -3.3962305 3.3123291
0.80454266 -3.1088145 3.3176613
0.80239487 -2.9184651 3.3058023
0.79995394 -2.7384441 3.2922695
0.80286264 -2.5912721 3.3090293
0.77723587 -2.3394883 3.1641264
0.80170274 -2.289413 3.3029985
0.79527634 -2.1292176 3.2668471
0.79153854 -1.9860886 3.2459185
0.79190135 -1.7997205 3.2483368
0.78879499 -1.6721933 3.230969
0.78703487 -1.5525776 3.2212241
0.78821814 -1.4426404 3.2281547
0.78335899 -1.3241969 3.2008371
0.78540057 -1.2208147 3.2126248
0.78970486 -1.0692135 3.2373414
0.74736696 -0.92272288 2.99757
0.7899372 -0.8636229 3.2390764
0.78529817 -0.7594896 3.2129848
0.77879769 -0.65721226 3.1763365
0.77583379 -0.5587377 3.1597331
0.77140439 -0.4616794 3.1348181
0.34972385 -0.43304005 0.74447453
0.3360275 -0.41786617 0.66709185
0.33452791 -0.41068697 0.65869731
0.33310395 -0.39519653 0.65083897
0.33298832 -0.38653398 0.65029138
0.33340201 -0.38120979 0.6526913
0.33403638 -0.36572582 0.65645117
0.33570191 -0.34107307 0.66611391
0.33507964 -0.33205092 0.66269302
0.33421552 -0.32927197 0.65784597
0.33322221 -0.31589711 0.65237415
0.33315927 -0.30449167 0.65212548
0.33261833 -0.28830209 0.64921945
0.3327392 -0.27471665 0.65001363
0.33300462 -0.25955859 0.65162808
0.33295807 -0.23725006 0.65152746
0.33444911 -0.2120138 0.66009611
0.58629906 1.7046189 2.0894756
0.56195164 1.6749923 1.9514908
0.54163539 1.6665186 1.836373
0.523875 1.672069 1.7357533
0.49925616 1.6881957 1.5962886
0.48261568 1.6892707 1.5020128
0.46702576 1.6963 1.4136953
0.45246723 1.711693 1.3312285
0.42544177 1.5362426 1.1779821
0.41108948 1.5258602 1.0966721
0.39621708 1.4968919 1.012404
0.37812465 1.5226337 0.90993583
0.36606717 1.5396682 0.84164506
0.35243374 1.5060233 0.76439726
0.34161448 1.564465 0.70313978
0.32907388 1.561233 0.63209707
0.31680208 1.569415 0.56258118
0.30441645 1.5651377 0.49241415
0.28595385 1.5680617 0.38782066
0.27371725 1.5575985 0.31849366
0.2612966 1.5646276 0.24812597
0.24870534 1.5720931 0.17678908
0.23631337 1.5651004 0.10657728
0.22342297 1.5713118 0.033540118
0.20460439 1.5575439 -0.073091589
0.1970081 1.4464611 -0.11612809
0.18806869 1.3805512 -0.16677304
0.18260162 1.269267 -0.19772992
0.20560953 0.65562171 -0.067169264
0.12403788 1.5210809 -0.52966726
0.17954196 0.75593448 -0.21485795
0.21598953 0.18666179 -0.0079215495
0.21627705 0.1378355 -0.0062064743
0.21609636 0.097052932 -0.0071456931
0.21631341 0.05696493 -0.0058277608
0.21622232 0.022139568 -0.0062565785
0.21657796 -0.012780185 -0.0041503664
0.21638632 -0.04207518 -0.0051480234
0.21632579 -0.070208006 -0.0054012295
0.21611218 -0.095903821 -0.0065221786
0.21508741 -0.12884736 -0.012198867
0.2149505 -0.15192036 -0.012883638
0.21528858 -0.17571662 -0.010873066
0.21522351 -0.19692311 -0.011149364
0.215472 -0.21827875 -0.0096461438
0.21526513 -0.23738249 -0.010726208
0.21535259 -0.25668445 -0.01013593
0.2157388 -0.27605748 -0.0078501469
0.2156166 -0.29358077 -0.0084488904
0.21561298 -0.31091785 -0.0083744088
0.21555957 -0.32775024 -0.0085821608
0.21543299 -0.35230863 -0.00915707
0.21530968 -0.36830559 -0.0097608119
0.21528675 -0.38421142 -0.0097947065
0.21536297 -0.40000534 -0.0092657004
0.21536435 -0.41556254 -0.0091610877
0.21546097 -0.43103701 -0.0085158069
0.21530496 -0.44633982 -0.0093039032
0.21524167 -0.46166128 -0.009565576
0.21514738 -0.48468995 -0.0099538788
0.21514343 -0.50009835 -0.0098781073
0.21506116 -0.5156514 -0.010246618
0.21507475 -0.53127718 -0.010070778
0.2148443 -0.54733771 -0.011279478
0.21522354 -0.56289285 -0.0090280771
0.22340871 -0.56648409 0.037522536
0.22257406 -0.58270514 0.032885861
0.22129551 -0.60839111 0.025780695
0.22092216 -0.62536824 0.023762789
0.22130485 -0.64103639 0.026035745
0.22226027 -0.65542573 0.031559393
0.22315171 -0.67011118 0.036720332
0.22436784 -0.69291818 0.043775659
0.22462703 -0.71056652 0.045349609
0.21431683 -0.78319013 -0.013003919
0.21410489 -0.80828965 -0.014101564
0.21384011 -0.83513248 -0.015498314
0.21380946 -0.86248273 -0.015565648
0.21446031 -0.90290868 -0.011710525
0.21384683 -0.93851745 -0.015082474
0.21357523 -0.97487807 -0.016513059
0.041652407 -2.3680997 -0.99177867
0.039789177 -2.5284796 -1.0022017
0.039391328 -2.6934631 -1.0043024
0.064389586 -2.6338117 -0.86231321
0.083548963 -2.6168048 -0.75345242
0.13943072 -2.6202023 -0.43584484
0.21805467 -2.6134081 0.011121733
0.25795329 -2.6094568 0.23798443
0.27115628 -2.5927298 0.31305325
0.28405806 -2.5923228 0.38642105
0.2969254 -2.5873165 0.45959249
0.31623152 -2.586441 0.56938499
0.32905123 -2.5789592 0.64221972
0.34212187 -2.581779 0.7165029
0.35503328 -2.5740206 0.78987604
0.68045735 -8.8620853 2.6405447
0.60373998 -4.9351382 2.2033575
0.77556813 -6.1992879 3.1795392
0.79950851 -5.7589488 3.3153253
0.79702187 -4.9608493 3.3009505
0.80346334 -4.687386 3.3374488
0.80045271 -4.3651142 3.3202672
0.79714543 -4.0704532 3.3014159
0.77977425 -3.7081587 3.2026975
0.81182814 -3.5754066 3.3846874
0.80565906 -3.3310235 3.3496163
0.79706681 -3.0924172 3.3007939
0.79474705 -2.9020631 3.287601
0.79527152 -2.7362692 3.290565
0.7965247 -2.5821307 3.2976718
0.77799147 -2.3581946 3.1924305
0.80003875 -2.2274699 3.3176177
0.79281765 -2.0675838 3.2766201
0.78986663 -1.9291641 3.2598717
0.78618097 -1.7947769 3.238956
0.78292859 -1.6672157 3.2205033
0.78231192 -1.5505017 3.2170174
0.78326827 -1.3850757 3.2224727
0.78155065 -1.2737296 3.2127409
0.78347045 -1.1705004 3.2236602
0.78542095 -1.0683224 3.2347548
0.74504858 -0.92387271 3.0056
0.78484672 -0.86225057 3.2315423
0.77799362 -0.75704318 3.1926668
0.7746281 -0.60782444 3.1736042
0.77261049 -0.50999594 3.1621802
0.34629929 -0.43321031 0.74261796
0.33276615 -0.4225204 0.66595888
0.3314831 -0.41069144 0.65879136
0.33060774 -0.3987374 0.65393794
0.32952455 -0.39175418 0.64786708
0.33001271 -0.37275594 0.65079033
0.33071524 -0.35669318 0.65489173
0.33269268 -0.34107858 0.66618955
0.33207598 -0.33205694 0.6627661
0.3306506 -0.32563177 0.6547538
0.33022985 -0.31590432 0.65244234
0.33025187 -0.29816312 0.65268153
0.32977784 -0.28770819 0.65006781
0.33003509 -0.27346605 0.65160352
0.32966897 -0.25420275 0.64963979
0.33049703 -0.23447984 0.65441352
0.33221748 -0.2077058 0.6642499
0.58082336 1.6857772 2.0748568
0.5516451 1.6944451 1.9093821
0.53170341 1.686265 1.7962929
0.51281351 1.6787696 1.6891737
0.49574652 1.6812351 1.5923986
0.47939891 1.6848457 1.4997067
0.46392256 1.6926991 1.4119593
0.44492155 1.6472756 1.304224
0.41431072 1.5136231 1.1306682
0.40252599 1.5422615 1.0638688
0.38762596 1.5099285 0.97940606
0.37531692 1.521661 0.90963709
0.36338255 1.5416194 0.84199375
0.34986264 1.5119236 0.76536453
0.33880085 1.5614833 0.70266831
0.32035023 1.5745822 0.59809572
0.30794674 1.575561 0.52779859
0.29555053 1.5680443 0.45754534
0.28327072 1.5570428 0.38795424
0.27103177 1.5545801 0.31859407
0.25845248 1.5735698 0.24729967
0.24621254 1.5621426 0.17793751
0.2274131 1.5611317 0.071398817
0.21449712 1.5660336 -0.0018001092
0.20182459 1.5594569 -0.073614605
0.19693542 1.3935651 -0.10123727
0.1909382 1.2816155 -0.13515684
0.18095623 1.2523264 -0.19170006
0.20916852 0.67969692 -0.031440411
0.20278187 0.65651214 -0.067587078
0.11693126 1.4860549 -0.55469149
0.21471326 0.22440687 0.00052214618
0.21485728 0.17254992 0.0014321607
0.2142076 0.13215476 -0.0021628712
0.21416678 0.090732045 -0.0023036003
0.21408609 0.053118557 -0.0026713526
0.212567 0.010791242 -0.011157095
0.21268174 -0.021842588 -0.010417064
0.21422498 -0.045562256 -0.00161617
0.21275146 -0.079836175 -0.0098450975
0.21276276 -0.1060963 -0.0096933693
0.21285795 -0.13126561 -0.0090660192
0.21259381 -0.15365134 -0.010477669
0.21279728 -0.17681542 -0.0092365239
0.21273956 -0.1979619 -0.0094775418
0.21299514 -0.21925634 -0.0079412078
0.21294975 -0.23875161 -0.0081127696
0.21288908 -0.25753611 -0.0083711911
0.21312176 -0.27645391 -0.0069654468
0.21300317 -0.29394406 -0.0075527299
0.21300307 -0.31124756 -0.0074680392
0.21271914 -0.33596912 -0.0089510232
0.21266277 -0.35231084 -0.0091858618
0.21254109 -0.36830696 -0.0097912913
0.21269085 -0.38438565 -0.0088570472
0.21276979 -0.40014434 -0.0083245113
0.21260111 -0.41556162 -0.0091969725
0.21243761 -0.43863052 -0.0099978428
0.21250324 -0.45399651 -0.0095413271
0.21248835 -0.46931949 -0.0095416335
0.21239296 -0.48468548 -0.0099987453
0.21239112 -0.50009316 -0.009925127
0.21231098 -0.51564533 -0.010295848
0.21215534 -0.53142679 -0.011094982
0.2121926 -0.55521697 -0.010758197
0.21941602 -0.55366099 0.030257996
0.22050399 -0.56673628 0.036512546
0.2197137 -0.59051555 0.03215434
0.21840079 -0.60872406 0.024790147
0.2181931 -0.62535828 0.023694992
0.21928291 -0.64760685 0.030000802
0.22043715 -0.66141039 0.036630508
0.22106694 -0.6769098 0.040285256
0.22135592 -0.69393629 0.042006761
0.22147915 -0.71218789 0.042788062
0.2114647 -0.78376037 -0.013891347
0.21084923 -0.81073391 -0.017300222
0.21060304 -0.83768439 -0.018614564
0.21169215 -0.87358028 -0.01231451
0.20918675 -0.91773695 -0.026443578
0.21091844 -0.93995816 -0.016540254
0.036283944 -2.3879626 -1.0068185
0.03485046 -2.5463951 -1.0148705
0.033627898 -2.7201922 -1.0217276
0.068196125 -2.6570256 -0.8255437
0.088140637 -2.6292868 -0.71234423
0.21562594 -2.6104312 0.011346385
0.25566658 -2.5974922 0.23865238
0.2751202 -2.6013474 0.34908742
0.28808209 -2.5906522 0.42266995
0.30097154 -2.5893559 0.49583992
0.31385753 -2.5864654 0.56898946
0.33309251 -2.5747859 0.67818207
0.34623694 -2.5782721 0.7528097
0.35937855 -2.5760818 0.82742196
0.61471546 -4.8948264 2.2757998
0.78199124 -6.0456257 3.2245424
0.79345387 -5.7137804 3.2896655
0.80626404 -5.429832 3.3624258
0.79678702 -4.974576 3.3088017
0.81033427 -4.6030493 3.3857889
0.80644363 -4.2843313 3.3638332
0.77893412 -3.8322849 3.207937
0.79532737 -3.7077477 3.3009999
0.80019844 -3.5174472 3.3287213
0.79490453 -3.2820046 3.2987969
0.78831351 -3.0572491 3.2615147
0.79675287 -2.8354893 3.3095131
0.79749948 -2.6739652 3.3138382
0.79820508 -2.5202594 3.3179297
0.78967392 -2.3390639 3.2696383
0.79328817 -2.2112782 3.2902226
0.78640586 -2.0538082 3.2512794
0.78505999 -1.9212731 3.2437325
0.78429568 -1.7351866 3.2395253
0.78316307 -1.6147335 3.2331858
0.78183889 -1.4976736 3.2257593
0.77921408 -1.3816382 3.2109559
0.78097028 -1.2764791 3.2209969
0.78138125 -1.1707686 3.2234082
0.77721065 -1.0611048 3.1998363
0.73943096 -0.87389696 2.9857023
0.77680135 -0.80768323 3.1977122
0.77564579 -0.70764989 3.1912367
0.77127635 -0.60771358 3.1665342
0.76751268 -0.50995213 3.1452665
0.34368679 -0.42757624 0.74197984
0.33161607 -0.42129102 0.67364353
0.32979652 -0.41413939 0.66340315
0.32862291 -0.40676257 0.65682584
0.32771295 -0.39494616 0.65178275
0.32743549 -0.38655913 0.65028733
0.32736668 -0.36837304 0.65005314
0.32930899 -0.35888797 0.66110677
0.32979113 -0.33680275 0.66399646
0.32955277 -0.33207592 0.66268355
0.32785004 -0.32104433 0.65314394
0.32770544 -0.31592187 0.65236259
0.32707867 -0.29471838 0.64896291
0.32753074 -0.28652126 0.65156502
0.32719374 -0.26817018 0.64976937
0.32753193 -0.25221133 0.6517638
0.32776329 -0.22759674 0.65319014
0.32950461 -0.1998246 0.66314012
0.56938869 1.6954349 2.0235336
0.54806304 1.6845015 1.902666
0.52873725 1.6811289 1.7931383
0.50941974 1.6692458 1.683659
0.49307454 1.6785244 1.5910326
0.47020236 1.7008313 1.4614244
0.45464209 1.7061783 1.3732499
0.42499021 1.5048959 1.2051934
0.41172844 1.5116951 1.1300545
0.40048683 1.5498267 1.0663664
0.38538957 1.5146984 0.98082489
0.37275162 1.51969 0.90922374
0.35490763 1.551666 0.80812871
0.34257111 1.5611364 0.73823571
0.33001187 1.5591762 0.66708153
0.31766579 1.562622 0.59713519
0.30529395 1.559582 0.527044
0.29300871 1.5580502 0.45744357
0.28072855 1.566051 0.38786972
0.26235035 1.5564348 0.28375193
0.24992314 1.5612222 0.21334466
0.23755299 1.5575231 0.1432627
0.22473107 1.5660878 0.070615932
0.21185419 1.5690051 -0.0023415501
0.19911876 1.5633799 -0.074494846
0.19664216 1.3484293 -0.088418305
0.18328938 1.2686749 -0.16401817
0.21039902 0.74587673 -0.010108625
0.20454402 0.70940608 -0.043230642
0.19692701 0.6467889 -0.086301453
0.1163441 1.4638524 -0.54344487
0.17090136 0.74098098 -0.23377575
0.2106604 0.21182543 -0.008000914
0.21099171 0.16010953 -0.0060317274
0.21059842 0.11898139 -0.0081745153
0.21060742 0.078490026 -0.0080356477
0.21066871 0.041010391 -0.0076008043
0.21061416 0.0071717119 -0.0078237066
0.21050544 -0.0239267 -0.0083543668
0.21067786 -0.054472603 -0.0072904918
0.21046944 -0.081111193 -0.0083875153
0.2106237 -0.10794719 -0.0074273795
0.2105917 -0.13243222 -0.0075240559
0.21061933 -0.15590861 -0.0072827227
0.21054544 -0.1778677 -0.0076174042
0.2106432 -0.19947007 -0.0069785556
0.20987557 -0.22735773 -0.011206679
0.21004827 -0.24726039 -0.010142988
0.21004987 -0.26598334 -0.010049947
0.21018387 -0.28443459 -0.0092060026
0.21012066 -0.30189988 -0.0094806766
0.21001002 -0.31885722 -0.010024372
0.21034487 -0.33620796 -0.0080413502
0.21029021 -0.35251597 -0.0082675545
0.21050967 -0.36889398 -0.0069389362
0.21032105 -0.38452256 -0.0079249144
0.21004684 -0.40775576 -0.0093542282
0.20992494 -0.42318612 -0.0099617066
0.209897 -0.43859378 -0.010036088
0.20978901 -0.45394233 -0.010564322
0.20994771 -0.46928284 -0.0095800729
0.2098522 -0.48464882 -0.010037248
0.2097982 -0.50782228 -0.010216778
0.20976576 -0.52341336 -0.010315997
0.20982969 -0.53906739 -0.0098685529
0.20948114 -0.55538821 -0.011760113
0.21715811 -0.56056738 0.03186043
0.21795169 -0.57408136 0.036445513
0.21667773 -0.59140801 0.029306244
0.21569633 -0.60903114 0.02382651
0.21615058 -0.63236982 0.026531044
0.21705544 -0.64672709 0.031748004
0.21773988 -0.66183007 0.035715323
0.21852393 -0.67687565 0.040247727
0.21866335 -0.69441724 0.041125253
0.21912053 -0.72108537 0.043848731
0.20849274 -0.78548717 -0.016319582
0.20895419 -0.8203299 -0.013567763
0.20866857 -0.84803581 -0.015095657
0.20888209 -0.87490791 -0.013792872
0.20620359 -0.93638033 -0.028836515
0.20934619 -0.95060581 -0.010926588
0.031490698 -2.2692206 -1.0189189
0.032019425 -2.3998673 -1.0157763
0.035960365 -2.5930347 -0.993209
0.035104383 -2.7699654 -0.99789602
0.065736376 -2.6543612 -0.82413387
0.17129406 -2.6123352 -0.22492111
0.21279877 -2.6133411 0.010733943
0.25956154 -2.5874331 0.27624071
0.27238235 -2.6013227 0.34904838
0.28534213 -2.5936296 0.42263311
0.29824674 -2.5923336 0.49590844
0.31111184 -2.5864468 0.56895721
0.33045134 -2.5797327 0.67875385
0.34316495 -2.5664062 0.75093263
0.35659832 -2.5750892 0.82720512
0.60824585 -4.8479133 2.2561226
0.76508516 -6.3935313 3.1465485
0.76970983 -5.9423304 3.1726151
0.79664087 -5.5669775 3.3252714
0.81181872 -5.3185344 3.4112971
0.81162769 -4.9592934 3.4100974
0.79776561 -4.527072 3.3313222
0.80093443 -4.2654915 3.3492289
0.76388329 -3.7488518 3.1388903
0.7926808 -3.7093067 3.302269
0.80198222 -3.439395 3.3549876
0.79648173 -3.2088573 3.3237412
0.79264343 -3.003341 3.301935
0.79046851 -2.8192031 3.2895739
0.79280025 -2.6656175 3.3027883
0.78295237 -2.4698603 3.2469037
0.78942919 -2.3484018 3.2836435
0.79385316 -2.1537752 3.3087366
0.78678137 -1.9983548 3.2686172
0.78392696 -1.8632473 3.2524278
0.78021926 -1.7316067 3.2314003
0.77763069 -1.6080714 3.2167237
0.77758604 -1.4943353 3.2164803
0.77545023 -1.3795575 3.2043762
0.77808404 -1.2227076 3.2193344
0.7796858 -1.1195382 3.2284331
0.75354165 -0.9863084 3.0801601
0.74734294 -0.88352102 3.0450199
0.7625398 -0.79947942 3.1312304
0.77190393 -0.70712698 3.1843565
0.76806307 -0.60759145 3.1625898
0.76663882 -0.46178478 3.154537
0.34259349 -0.43842152 0.74982411
0.34090602 -0.42204261 0.74035931
0.32890496 -0.426018 0.67233968
0.32698202 -0.41008392 0.66157818
0.32596692 -0.40698266 0.65585786
0.32543021 -0.39901152 0.65288615
0.32522792 -0.39494151 0.6517747
0.32544717 -0.38562778 0.65308934
0.32520741 -0.36761996 0.6518721
0.32761538 -0.35182828 0.66559517
0.32769185 -0.3410953 0.66609889
0.32636666 -0.32880932 0.65869111
0.32537478 -0.32104155 0.65313798
0.32492241 -0.31132659 0.65064335
0.32460672 -0.29471606 0.64895785
0.32479036 -0.28125849 0.65006763
0.32499114 -0.26688287 0.65127397
0.3254523 -0.25020257 0.6539557
0.32603621 -0.2233533 0.65736556
0.56532472 1.6817985 2.0135088
0.5447787 1.6762546 1.8970684
0.51733482 1.6812948 1.7415407
0.50028598 1.6877586 1.6449264
0.48328316 1.6882668 1.5485768
0.4666934 1.6864132 1.4545716
0.45221096 1.704317 1.3725049
0.42378959 1.5206305 1.2115166
0.40983635 1.5182489 1.1324644
0.39292684 1.5771645 1.0366466
0.37715918 1.5262042 0.94733584
0.36473066 1.5357922 0.87692338
0.35269773 1.5546004 0.8087489
0.34026113 1.561129 0.73829311
0.32774311 1.5611572 0.66737986
0.31535351 1.5626209 0.59719425
0.29683265 1.5591289 0.49228013
0.28456554 1.5653656 0.42278659
0.27230874 1.5571402 0.35336104
0.25989947 1.5674212 0.28305933
0.24758498 1.5622333 0.21330525
0.23515882 1.560514 0.14291587
0.21629739 1.5585835 0.036071934
0.2033789 1.5611926 -0.037111461
0.19119799 1.5427021 -0.1060985
0.18593021 1.3936396 -0.13579954
0.18076745 1.2715462 -0.16492179
0.16931635 1.2646062 -0.22977678
0.19989263 0.68351054 -0.05593919
0.13400677 1.3135506 -0.42984602
0.17808507 0.73859841 -0.17948455
0.20935203 0.1535821 -0.0014950052
0.20899484 0.1126181 -0.0034167108
0.20882067 0.073852956 -0.0043019652
0.20867939 0.038017265 -0.0050024665
0.20875874 0.0035405715 -0.0044527873
0.208915 -0.028851029 -0.0034682087
0.20860703 -0.056493096 -0.005119056
0.20853984 -0.08371 -0.0054048169
0.20751037 -0.11744455 -0.01110415
0.20756184 -0.14184406 -0.010718777
0.20766945 -0.16522697 -0.010015649
0.20767054 -0.18710092 -0.0099174846
0.20769136 -0.20809898 -0.0097079612
0.20787179 -0.22874108 -0.0085935248
0.20773943 -0.24767369 -0.009253989
0.20805961 -0.26717874 -0.0073478287
0.20787761 -0.28478435 -0.0082904659
0.20750029 -0.31020913 -0.010296483
0.20803602 -0.31975976 -0.0072134463
0.20766577 -0.34409437 -0.009180069
0.20766103 -0.36037013 -0.0091182794
0.20758952 -0.37630633 -0.0094352923
0.2076178 -0.39214095 -0.0091864774
0.20757221 -0.40773147 -0.0093566813
0.20762241 -0.42324913 -0.0089837471
0.20759404 -0.43862206 -0.0090563931
0.20729224 -0.4615972 -0.010635268
0.2074966 -0.4769181 -0.0093881944
0.20744686 -0.49228993 -0.0095818806
0.20662712 -0.50821626 -0.01414129
0.20711282 -0.52352875 -0.011298762
0.20717691 -0.53921735 -0.010846698
0.20677872 -0.56372404 -0.012970676
0.21450837 -0.56078833 0.030895324
0.21564737 -0.58118087 0.037484668
0.21426259 -0.59898978 0.029722897
0.21350002 -0.61641449 0.025488993
0.21366578 -0.63234901 0.02651797
0.21529013 -0.65316844 0.03585979
0.21555674 -0.66957623 0.03746099
0.21654217 -0.68410081 0.043136705
0.216295 -0.70324373 0.041826729
0.21547996 -0.72553909 0.037299007
0.2062903 -0.79620391 -0.014640569
0.20605348 -0.82219511 -0.015886765
0.20564699 -0.85063714 -0.01809318
0.20676528 -0.88742018 -0.011608822
0.20611684 -0.92197162 -0.015182588
0.032559291 -2.3078024 -0.99803728
0.031924155 -2.4516742 -1.0014535
0.030311123 -2.6186469 -1.0103976
0.031169865 -2.7817504 -1.0053289
0.065889753 -2.6265743 -0.80849576
0.16890299 -2.6084745 -0.22389613
0.25679028 -2.6043911 0.27493772
0.26982975 -2.6003282 0.34894699
0.28923559 -2.5903194 0.45908782
0.3021481 -2.5907302 0.53237987
0.3150138 -2.5845511 0.60540122
0.32797292 -2.5827403 0.67897141
0.34747341 -2.5760629 0.78965372
0.36049029 -2.5686185 0.86353463
0.78319901 -6.3778033 3.2637057
0.78602469 -5.9185572 3.279479
0.79156321 -5.542048 3.3106973
0.7932753 -5.1711531 3.320225
0.79880893 -4.8715944 3.3514752
0.78953195 -4.4819417 3.298682
0.78816611 -4.1900125 3.2908187
0.76922059 -3.686794 3.1831694
0.80326158 -3.6784317 3.376281
0.79556549 -3.4169314 3.3325491
0.7896812 -3.1858284 3.299113
0.78623271 -2.9838142 3.2795103
0.78650671 -2.8124335 3.2810383
0.78727514 -2.6525271 3.2853787
0.76547819 -2.3379979 3.1617017
0.79480529 -2.3055096 3.3280768
0.78852636 -2.1444154 3.2924564
0.78170556 -1.9905092 3.2537684
0.77880448 -1.8559268 3.2373216
0.77425981 -1.7227859 3.2115562
0.77742255 -1.5559989 3.2295234
0.77636117 -1.4412084 3.2235246
0.77535033 -1.3296562 3.2178147
0.77493858 -1.2217879 3.2155054
0.77636379 -1.1185263 3.2236166
0.7343595 -0.96770513 2.9854112
0.77658945 -0.91257876 3.224957
0.77125978 -0.80750811 3.1947618
0.76887381 -0.65775913 3.1812811
0.7668094 -0.55928475 3.1696086
0.76136905 -0.46187583 3.1387918
0.33939812 -0.43870997 0.74590945
0.32593459 -0.42191786 0.66976082
0.32413363 -0.41050455 0.6596694
0.32327855 -0.40286306 0.6549015
0.32227322 -0.38686684 0.64936268
0.32243437 -0.37751174 0.65035713
0.32271263 -0.36279336 0.65205586
0.32522324 -0.34627441 0.66637087
0.32479325 -0.33680129 0.66401303
0.32369274 -0.3292948 0.65785331
0.3230001 -0.32052675 0.6540063
0.32250452 -0.30507243 0.65131605
0.32236019 -0.29353946 0.65057695
0.32197115 -0.27599588 0.64849001
0.32272625 -0.26559535 0.65280968
0.32277364 -0.24340563 0.65319526
0.32336864 -0.21563065 0.65668368
0.57882643 1.7241873 2.1047339
0.55435699 1.6950963 1.9660614
0.53323841 1.6813293 1.8463844
0.51437736 1.6779015 1.7395049
0.49587041 1.6695732 1.6346352
0.4805283 1.6865035 1.547701
0.46379587 1.6828223 1.4528919
0.44254583 1.7143831 1.332485
0.41472793 1.5277816 1.1748985
0.40042669 1.5172983 1.0938791
0.38712865 1.5169286 1.0185436
0.37474629 1.5300785 0.94839358
0.3622545 1.5387266 0.87762469
0.3501367 1.5555941 0.80897188
0.33149725 1.5654366 0.70337504
0.3189688 1.5632098 0.63240165
0.3063201 1.5414768 0.56075603
0.29422668 1.5571427 0.49223894
0.28197211 1.5633782 0.4228124
0.26965091 1.5681456 0.35300773
0.25129086 1.5556843 0.24900071
0.23877566 1.5621963 0.17809273
0.22619857 1.5641483 0.10683557
0.21341351 1.5674274 0.034397118
0.20075513 1.562175 -0.037318949
0.19206777 1.4683313 -0.086463131
0.18431322 1.3754756 -0.13031724
0.17841625 1.2677697 -0.16362701
0.16165046 1.2509304 -0.25859827
0.19887772 0.66234535 -0.047070086
0.17940469 0.74639469 -0.15745284
0.17188708 0.72774839 -0.20000514
0.16655226 0.68676931 -0.23016389
0.20512465 0.14436044 -0.010819526
0.20522186 0.10104633 -0.010162413
0.20541181 0.060848888 -0.0089809699
0.20517899 0.026652813 -0.010201033
0.20526434 -0.0069706296 -0.0096165277
0.20541093 -0.038546484 -0.0086857704
0.20545703 -0.06747558 -0.0083265426
0.20522624 -0.093276136 -0.0095397932
0.20548643 -0.11990141 -0.0079673231
0.20541194 -0.14360169 -0.0082951579
0.20552976 -0.16689891 -0.0075321263
0.20539343 -0.18815523 -0.0082121743
0.20542032 -0.20909359 -0.00796647
0.20545316 -0.22920516 -0.0076874509
0.20547938 -0.24854524 -0.0074464008
0.20506163 -0.27521476 -0.009679391
0.2050972 -0.29316062 -0.009386207
0.20509191 -0.31052995 -0.0093252352
0.20520309 -0.32768738 -0.0086035775
0.20526055 -0.34434861 -0.0081870584
0.20508803 -0.36036563 -0.0090756379
0.20518681 -0.37649283 -0.0084250802
0.20483789 -0.39980072 -0.010270143
0.20499896 -0.40772739 -0.0093113678
0.20493656 -0.43090078 -0.0095309205
0.20495474 -0.44627276 -0.0093383705
0.20489256 -0.46159366 -0.0096018314
0.20492323 -0.47691455 -0.0093385279
0.20487355 -0.49228653 -0.0095311841
0.20457228 -0.5078997 -0.011151282
0.20473129 -0.53120703 -0.010115407
0.20484297 -0.54688531 -0.0093925856
0.20403726 -0.56394631 -0.013874589
0.21223369 -0.56771123 0.032716483
0.21273679 -0.58176029 0.035659511
0.21152109 -0.59931058 0.028851336
0.21076141 -0.61676836 0.024630461
0.21192664 -0.63852572 0.031374719
0.21255678 -0.653602 0.035038833
0.21267299 -0.67051029 0.035787497
0.21366383 -0.68509561 0.041497953
0.21401574 -0.71158499 0.043628845
0.20403619 -0.77132505 -0.012893296
0.2035865 -0.79680461 -0.015353263
0.20268019 -0.82597005 -0.020403093
0.20357974 -0.89089257 -0.015069665
0.20307577 -0.9248485 -0.017835174
0.028096985 -2.3236337 -1.0100186
0.025938444 -2.480871 -1.0221376
0.032971617 -2.6580446 -0.98205411
0.053922892 -2.6344893 -0.86309743
0.2007481 -2.6203654 -0.029173275
0.26084453 -2.6026626 0.31222618
0.2738308 -2.5982769 0.38600352
0.28675801 -2.5972779 0.45944759
0.29963815 -2.5906827 0.53262371
0.31252167 -2.5864887 0.60582042
0.31901839 -2.5868993 0.64272857
0.3318032 -2.5758297 0.71536529
0.34492254 -2.5759909 0.78990346
0.35789031 -2.5675621 0.86357814
0.67270392 -8.9105988 2.65221
0.59321856 -4.9288116 2.2001691
0.77150339 -6.2696714 3.2124481
0.76777738 -5.7487555 3.19122
0.79229635 -5.5755501 3.3303792
0.77331322 -5.0114465 3.2225621
0.78601104 -4.7851024 3.2946265
0.79513329 -4.4013438 3.3463931
0.79279822 -4.1111536 3.3331344
0.76586729 -3.6827738 3.1802661
0.7961942 -3.6518438 3.3524284
0.78955299 -3.3982937 3.3147488
0.78417999 -3.1712594 3.2842746
0.78588974 -2.9081318 3.2940233
0.78972536 -2.75687 3.3158271
0.78955048 -2.595346 3.3148715
0.76345766 -2.3411298 3.16682
0.79013526 -2.2989182 3.3182731
0.78035504 -2.1266878 3.2628117
0.77648908 -1.9832457 3.2409196
0.77844775 -1.8013906 3.2521122
0.77618498 -1.6756933 3.2393241
0.77334297 -1.5532813 3.2232506
0.77308041 -1.4403515 3.2218177
0.77172697 -1.3282845 3.2141955
0.77146918 -1.2208123 3.2127922
0.77406597 -1.1192298 3.2275894
0.73405349 -0.92324841 3.0006263
0.77522963 -0.86293733 3.2343495
0.76785403 -0.75730747 3.1925614
0.76587337 -0.65757805 3.1813879
0.7618956 -0.55872291 3.1588836
0.75714487 -0.46170253 3.131994
0.3363606 -0.43302381 0.74453676
0.32285315 -0.41767496 0.6681186
0.3213563 -0.41046134 0.65971601
0.31976905 -0.39517871 0.65089172
0.31949121 -0.38682517 0.64940625
0.31965026 -0.37747037 0.65039974
0.32024488 -0.36197111 0.65391016
0.32222399 -0.34149438 0.66527629
0.32160756 -0.33250329 0.66186994
0.3210502 -0.32877001 0.65875316
0.31990954 -0.31587979 0.65241843
0.31984943 -0.30447438 0.65216887
0.31969941 -0.2929132 0.65140915
0.31943649 -0.27469942 0.65005499
0.31957376 -0.26019749 0.65092552
0.31953773 -0.23792766 0.65085888
0.3212772 -0.21127795 0.66082007
0.57359231 1.7084998 2.0926371
0.54902703 1.6773658 1.9533557
0.5287056 1.6689565 1.8381532
0.50955921 1.6618476 1.7296187
0.48647758 1.6925298 1.5988061
0.4705267 1.7017095 1.5084038
0.45391336 1.6971756 1.4142436
0.43942347 1.7135074 1.332132
0.41101468 1.5175536 1.1710474
0.39711908 1.5126102 1.092308
0.38217723 1.4806267 1.0076329
0.37145451 1.5243186 0.94689745
0.35318825 1.547496 0.84341395
0.3408038 1.5562559 0.77325141
0.32823452 1.5555649 0.70204043
0.31593063 1.5622451 0.63233614
0.29125676 1.5651659 0.49255368
0.27282777 1.5571003 0.38815141
0.26047519 1.5666287 0.3181738
0.24810572 1.5666691 0.24810024
0.23584029 1.5582526 0.17861681
0.22304174 1.569113 0.10611109
0.2102917 1.570399 0.033880342
0.18493327 1.4244362 -0.10973868
0.18057473 1.2798271 -0.13437726
0.17036378 1.2543255 -0.19220527
0.20138028 0.64178443 -0.016212804
0.19288965 0.64931035 -0.064280652
0.18002979 0.70418018 -0.13712893
0.16803807 0.7374922 -0.20505391
0.20275573 0.18674421 -0.007878596
0.20293927 0.13872766 -0.006747182
0.2029659 0.096348964 -0.0065055941
0.20262821 0.060114026 -0.00833009
0.20321463 0.020738833 -0.0049130721
0.20321627 -0.011974498 -0.0048127435
0.20314428 -0.041987929 -0.0051298649
0.20321196 -0.070789017 -0.0046547479
0.20300163 -0.096457534 -0.0057564559
0.20273437 -0.12048405 -0.0071810861
0.2026639 -0.14415616 -0.0074894573
0.20204325 -0.175624 -0.010872723
0.2021267 -0.19734471 -0.010308052
0.20207438 -0.21769968 -0.010513518
0.20201918 -0.2372873 -0.01073527
0.20179191 -0.25574312 -0.011933107
0.20217331 -0.27517933 -0.0096785463
0.20237078 -0.29348329 -0.0084673082
0.20236731 -0.31081954 -0.0083958879
0.20231408 -0.32765102 -0.0086066909
0.20220353 -0.34405309 -0.0091427322
0.20236747 -0.36055368 -0.0081219254
0.20204231 -0.38410902 -0.009830026
0.20211902 -0.39990216 -0.0093041901
0.20212093 -0.4154585 -0.0092027634
0.20204496 -0.43086237 -0.0095431162
0.20240973 -0.44630402 -0.0073836586
0.20200007 -0.46155462 -0.0096170399
0.20190689 -0.48458195 -0.01001041
0.20207675 -0.49990246 -0.008957006
0.20165005 -0.51566339 -0.011287616
0.20183694 -0.53116655 -0.010137893
0.2019483 -0.5468446 -0.0094167981
0.20131131 -0.56368017 -0.012941006
0.20917191 -0.56793058 0.031737708
0.20967638 -0.58201307 0.034688514
0.2087198 -0.60691363 0.029395418
0.20833908 -0.62375921 0.027324151
0.20918983 -0.63807845 0.032238517
0.20950525 -0.65399957 0.034115747
0.20962414 -0.67093873 0.034877893
0.21085259 -0.69383681 0.041977707
0.20995557 -0.71590036 0.036975563
0.20014589 -0.77529484 -0.018590802
0.20171191 -0.80447233 -0.009579259
0.200629 -0.83500761 -0.015639195
0.19969827 -0.8670404 -0.020836765
0.20006458 -0.89431936 -0.018676359
0.20112084 -0.9354645 -0.012561955
0.20037961 -0.97474909 -0.016688189
0.028545791 -2.3669968 -0.99160963
0.027289158 -2.5224376 -0.99870586
0.026588978 -2.6897974 -1.0026519
0.050601237 -2.6395242 -0.86635613
0.070235349 -2.6182847 -0.75490332
0.19827496 -2.6134658 -0.027994137
0.21802716 -2.6305158 0.08414723
0.25819391 -2.5976436 0.31221145
0.27114791 -2.5962577 0.38576108
0.28406128 -2.5922656 0.45908079
0.30339375 -2.5874109 0.56884551
0.31633675 -2.5859084 0.64233273
0.32924375 -2.5798013 0.71562147
0.34212363 -2.571084 0.7887575
0.59268022 -4.9530582 2.2092011
0.62611765 -4.9701476 2.3989234
0.7624377 -6.1863036 3.1715989
0.78259474 -5.7087412 3.2862744
0.80538088 -5.5209136 3.4156826
0.7826122 -4.9412379 3.2869008
0.79428148 -4.7124867 3.3532755
0.7878167 -4.3624392 3.3168559
0.78575903 -4.0771856 3.3054008
0.76619625 -3.7003496 3.1947045
0.79272872 -3.6447592 3.3452961
0.79292721 -3.3294585 3.3466902
0.78596091 -3.099618 3.3073671
0.78258818 -2.9038537 3.2884092
0.78309762 -2.7380052 3.2914553
0.78447801 -2.5843985 3.2994354
0.76375026 -2.3519657 3.1820607
0.78475553 -2.2885392 3.3013041
0.78209805 -2.0738986 3.2864482
0.77714825 -1.9292014 3.2585192
0.77343875 -1.7948403 3.2376196
0.77160275 -1.6708238 3.2273407
0.76952881 -1.5506227 3.2157102
0.76940322 -1.4382803 3.2151258
0.76918834 -1.3284916 3.2140331
0.77046287 -1.1704926 3.2214472
0.77341801 -1.0696318 3.2383285
0.73334229 -0.92534804 3.0111763
0.77299738 -0.86342114 3.2361848
0.76543862 -0.75761348 3.1934364
0.76119804 -0.65693951 3.1695046
0.75911635 -0.55888528 3.1578152
0.33319575 -0.43321696 0.74254042
0.31968996 -0.41803595 0.66614848
0.3183662 -0.41068262 0.65872353
0.31751233 -0.40307555 0.65396351
0.31698605 -0.39950386 0.65102011
0.31659934 -0.3825075 0.64899272
0.31672961 -0.37310398 0.64981472
0.31775269 -0.36120382 0.65570098
0.31941521 -0.34150943 0.66525614
0.31880024 -0.33251825 0.66185105
0.31809169 -0.32926953 0.65787351
0.31665015 -0.31184632 0.64986289
