# .PCD v0.7 - Point Cloud Data file format
VERSION 0.7
FIELDS x y z
SIZE 4 4 4
TYPE F F F
COUNT 1 1 1
WIDTH 1421
HEIGHT 1
VIEWPOINT 0 0 0 1 0 0 0
POINTS 1421
DATA ascii
0.27096376 1.5534327 0.56151366
0.24647053 1.5543553 0.42274788
0.2342224 1.5561264 0.35335714
0.22197698 1.5534368 0.28398219
0.20947696 1.5632051 0.21316385
0.19105221 1.5512695 0.1087817
0.1779467 1.5664041 0.03453042
0.17646477 1.282485 0.026202954
0.15985771 1.397772 -0.067906335
0.15380651 1.2817093 -0.10214675
0.14215378 1.2809583 -0.16815622
0.1640124 0.65493751 -0.044019315
0.15075111 0.71837997 -0.11915045
0.14939836 0.63341463 -0.12674037
0.17783517 0.19409658 0.034708399
0.17122506 0.15518649 -0.0026156339
0.17107093 0.11258405 -0.0034064737
0.17090034 0.073818929 -0.0042906506
0.1708762 0.037228525 -0.0043441397
0.17096308 0.0027752439 -0.0037679852
0.16957135 -0.035808261 -0.01153568
0.16973242 -0.065508381 -0.010538511
0.16935876 -0.090744987 -0.012573902
0.16946912 -0.11686289 -0.011864143
0.1696592 -0.14187799 -0.010702239
0.16962449 -0.16470157 -0.010815065
0.16977102 -0.1871347 -0.0099000474
0.1697932 -0.20813268 -0.0096901394
0.16997494 -0.22877468 -0.008575337
0.16984369 -0.24770726 -0.0092355013
0.170165 -0.26721218 -0.0073290276
0.16998397 -0.28481779 -0.0082714232
0.17008592 -0.30259258 -0.007608817
0.1701442 -0.31979299 -0.0071939472
0.16943966 -0.34360987 -0.011062801
0.16977113 -0.36040333 -0.0090983575
0.16987081 -0.37653035 -0.0084485374
0.16990083 -0.39233053 -0.0081935618
0.16968438 -0.40776452 -0.0093363589
0.16973521 -0.42328209 -0.0089633157
0.16970745 -0.43865496 -0.0090358667
0.16958024 -0.46163017 -0.0096298372
0.1696115 -0.47695088 -0.0093674734
0.16948853 -0.4846577 -0.010022279
0.16943417 -0.50783122 -0.010202772
0.16957349 -0.52328318 -0.0093274163
0.16946523 -0.53907639 -0.0098559083
0.1708152 -0.55331862 -0.0021152454
0.17460302 -0.5637216 0.019449441
0.17775401 -0.57381582 0.037402827
0.17879046 -0.58678353 0.0433654
0.1789217 -0.6015178 0.044195037
0.17930248 -0.6237849 0.046482712
0.17905116 -0.64039886 0.045143396
0.17892191 -0.65730101 0.044496421
0.1789179 -0.67446244 0.044559777
0.1791532 -0.70062453 0.046023402
0.17904289 -0.71997786 0.045484487
0.18035287 -0.73436344 0.052998718
0.18504152 -0.73375505 0.079669826
0.18378502 -0.75988561 0.072632514
0.16800964 -0.87764508 -0.016678402
0.16773766 -0.90922439 -0.018131323
0.16851828 -0.95358771 -0.013571205
-0.0093939761 -2.273083 -1.0220748
-0.0030222214 -2.4298952 -0.98578268
-0.0047542336 -2.5963271 -0.99548548
3.2764401e-05 -2.7216046 -0.96822912
0.028022727 -2.6283627 -0.80944026
0.064136058 -2.5998116 -0.60448927
0.19327246 -2.5857594 0.12854271
0.20621766 -2.5919061 0.20203267
0.24505928 -2.5716586 0.42252606
0.25781548 -2.5673816 0.49494031
0.27053204 -2.5615437 0.56712902
0.29626417 -2.562043 0.7132228
0.30897591 -2.5514519 0.78540784
0.63584203 -8.8692617 2.640595
0.56895304 -4.8599763 2.2609277
0.72682774 -5.9112668 3.1567376
0.73631865 -5.5696516 3.2106185
0.76658738 -5.2720103 3.3824115
0.76851761 -4.9345374 3.3934138
0.7530489 -4.4915843 3.3057141
0.75117499 -4.1954622 3.2951472
0.7213704 -3.7336283 3.1261306
0.75320226 -3.7146077 3.3067884
0.75871938 -3.4225173 3.3382001
0.75462228 -3.2007623 3.3150353
0.7492764 -2.9883358 3.2847888
0.74969327 -2.8173962 3.2872357
0.74978012 -2.6542594 3.2878118
0.74112779 -2.4641967 3.2388127
0.74799329 -2.3446589 3.2778449
0.74643224 -2.1985469 3.2690754
0.74586874 -1.9970064 3.2660089
0.74190009 -1.8589194 3.2435827
0.73989779 -1.7320658 3.2323117
0.73584986 -1.6051227 3.2094362
0.73626441 -1.4926697 3.2118752
0.7326203 -1.3752714 3.1912906
0.73721129 -1.2222253 3.2174642
0.738967 -1.1193449 3.22751
0.72406024 -0.99874222 3.1430354
0.70077246 -0.87806809 3.0110183
0.7221294 -0.79962206 3.1322532
0.72975171 -0.70635909 3.1755753
0.72745669 -0.60760486 3.1626401
0.72213042 -0.50982189 3.1325092
0.3004818 -0.42769513 0.74103105
0.28875405 -0.42114648 0.67464781
0.28676084 -0.41415066 0.66343558
0.28540409 -0.40263224 0.65588063
0.28467125 -0.39495638 0.65181744
0.28455642 -0.38626006 0.6512596
0.28460214 -0.37242606 0.65165871
0.28527901 -0.3513557 0.65568352
0.28680319 -0.34198391 0.66437459
0.28578505 -0.32882062 0.6587379
0.28478986 -0.32105246 0.65318525
0.28433397 -0.31133699 0.65069103
0.28401285 -0.29472572 0.64900619
0.28446376 -0.28652847 0.65160865
0.28438964 -0.26689142 0.65132296
0.28484687 -0.25021052 0.65400481
0.28456527 -0.22830994 0.65254021
0.54995382 1.7135321 2.1574929
0.52497596 1.6850384 2.0158851
0.50322068 1.6697448 1.892552
0.48465234 1.6718934 1.7872891
0.46611172 1.666666 1.6821858
0.44286707 1.691834 1.5504166
0.42610905 1.6882437 1.4554222
0.41154963 1.7052613 1.3728884
0.38202998 1.5058204 1.2056004
0.36894548 1.5154521 1.1314374
0.35666603 1.5355597 1.0618342
0.34515852 1.5704504 0.99660009
0.33096519 1.547828 0.9161613
0.31210867 1.5575554 0.80928022
0.29843313 1.5196531 0.73178667
0.28696024 1.556198 0.66674036
0.27450058 1.5506665 0.59612137
0.26236296 1.5645739 0.5273152
0.25005305 1.5630475 0.45754039
0.23779276 1.5560496 0.38804966
0.21944195 1.5524404 0.28403085
0.2070099 1.5592281 0.21355166
0.19470634 1.5535557 0.1438093
0.18188649 1.5631256 0.071124084
0.169323 1.5582362 -9.7137738e-05
0.16883868 1.2703391 -0.0025493507
0.15599436 1.3022768 -0.075392947
0.13781652 1.3112092 -0.17845319
0.16342147 0.68250555 -0.0325149
0.1468201 0.73468709 -0.12665844
0.14630267 0.63875353 -0.12943631
0.1768752 0.20346734 0.044571459
0.17042904 0.18665199 0.0081271464
0.16782275 0.160915 -0.0065581752
0.16741928 0.11976589 -0.0087268949
0.16698164 0.082361251 -0.011092316
0.16724177 0.043259628 -0.0094949491
0.1675234 0.0071564568 -0.0077776155
0.16753258 -0.024649469 -0.0076100687
0.16745074 -0.053806614 -0.0079610888
0.1674957 -0.081783608 -0.0075929477
0.16751453 -0.10796393 -0.0073743118
0.16733986 -0.13184753 -0.0082558533
0.16750176 -0.15592609 -0.0072263363
0.16713309 -0.17679629 -0.0092113409
0.16736896 -0.19897327 -0.0077630528
0.16659197 -0.22690721 -0.012014439
0.16675788 -0.2468413 -0.010964682
0.16675314 -0.26559627 -0.010884528
0.16704164 -0.28445455 -0.0091392156
0.16697483 -0.30192026 -0.0094122803
0.16719052 -0.31949601 -0.0080810692
0.16702478 -0.33595338 -0.0089162802
0.16713329 -0.35253739 -0.0081941634
0.16700964 -0.36849993 -0.0087904558
0.16698615 -0.3843711 -0.0088180359
0.16688982 -0.39999104 -0.0092592156
0.1667524 -0.42320931 -0.0098807206
0.16689415 -0.43866968 -0.0089698369
0.16678295 -0.45398375 -0.0094951158
0.1667645 -0.46930712 -0.0094936816
0.16666555 -0.48467353 -0.0099490108
0.16666004 -0.5000816 -0.0098735429
0.16674842 -0.51551229 -0.0092648743
0.1668013 -0.53891975 -0.0088036163
0.16899358 -0.55208772 0.0037499331
0.17242894 -0.56276906 0.023360139
0.17439947 -0.57465684 0.034654148
0.17609663 -0.58648819 0.044396207
0.17605926 -0.60153174 0.044292103
0.17612372 -0.61673272 0.044766735
0.17597492 -0.63288188 0.044031385
0.17635594 -0.65640777 0.046359248
0.17634244 -0.67350781 0.046393692
0.17630783 -0.69135314 0.046309296
0.17568234 -0.71218038 0.042872652
0.17661591 -0.73790544 0.048342191
0.18008618 -0.73306423 0.068091854
0.18167658 -0.75604218 0.077289701
0.16586968 -0.87357634 -0.012212497
0.1654443 -0.90571272 -0.014499296
0.16519958 -0.93922383 -0.015758129
0.16492838 -0.97560734 -0.017163841
-0.0079267584 -2.375226 -0.99714887
-0.0091687255 -2.5308747 -1.0039351
-0.010330001 -2.7026258 -1.0102431
0.023864204 -2.64061 -0.81595713
0.044091534 -2.6081309 -0.70101058
0.060452785 -2.6080015 -0.60798365
0.24173062 -2.5696268 0.42302406
0.25448412 -2.5713363 0.49558431
0.26718724 -2.5644822 0.56784928
0.29276997 -2.5589957 0.7133345
0.30547896 -2.5493958 0.78558594
0.3184931 -2.5470097 0.85957944
0.5508498 -4.8832622 2.1826761
0.7383036 -6.0926261 3.2491002
0.74314487 -5.6873174 3.2761595
0.75486213 -5.3944612 3.3424158
0.74613732 -4.9475169 3.2923706
0.7504462 -4.6571651 3.3165529
0.75799 -4.2770166 3.3590343
0.74115044 -3.8979509 3.2629869
0.74484724 -3.6874681 3.2837961
0.7524001 -3.514354 3.3265545
0.74963981 -3.2929063 3.3106759
0.74458915 -3.0751059 3.2817934
0.74205899 -2.8847935 3.2672622
0.74250102 -2.7197323 3.2696452
0.75266689 -2.526361 3.3272636
0.73594135 -2.3138096 3.2320793
0.74670672 -2.2126205 3.29318
0.74048263 -2.057003 3.2577155
0.73656118 -1.9165368 3.2353492
0.73407608 -1.7864079 3.2211549
0.73222733 -1.663 3.2105839
0.73253125 -1.4923531 3.2122245
0.73254097 -1.3817587 3.2122276
0.73181736 -1.272433 3.2080677
0.73323512 -1.1686471 3.2160788
0.73535424 -1.0669495 3.2280769
0.69279838 -0.92047387 2.9862652
0.71933776 -0.84883636 3.1370103
0.72842085 -0.7072103 3.1885633
0.72320884 -0.60711968 3.1589262
0.71877265 -0.50957012 3.1337001
0.29779717 -0.43319622 0.74264413
0.2844857 -0.41785222 0.66721433
0.28299478 -0.41067347 0.65881729
0.28212166 -0.39871898 0.6539644
0.28137195 -0.39115056 0.64977747
0.28147623 -0.38652098 0.65040469
0.28163669 -0.37713313 0.65138602
0.28191766 -0.35748747 0.65312111
0.28374472 -0.34237483 0.66356373
0.28329101 -0.33297664 0.66105705
0.28232411 -0.32511199 0.65563703
0.28160751 -0.31641424 0.65163797
0.28135243 -0.29986358 0.65029311
0.28130639 -0.2876876 0.65009999
0.28098315 -0.26941869 0.64836699
0.28196055 -0.25757772 0.65394783
0.28178149 -0.23584813 0.65303129
0.28486565 -0.19174226 0.67063022
0.53204191 1.6833781 2.0731499
0.5029071 1.6919595 1.9077966
0.48271027 1.6812093 1.7931818
0.46377456 1.6727502 1.6857282
0.44726193 1.6803451 1.5920244
0.43085301 1.6830524 1.4989144
0.41539952 1.6908789 1.4112272
0.39689431 1.6518751 1.3062452
0.37104681 1.4877099 1.1596608
0.35380468 1.5356108 1.0618291
0.34254736 1.5753049 0.99795145
0.32821026 1.5498133 0.91663301
0.31535617 1.5494609 0.84371823
0.30267304 1.5483813 0.77177566
0.29028752 1.5525934 0.70151973
0.27783445 1.5493109 0.63088614
0.25948408 1.5546201 0.52679884
0.24728069 1.565078 0.45757446
0.23502782 1.5540795 0.38808495
0.22278084 1.5556182 0.3186202
0.2104025 1.5616579 0.24840683
0.19805463 1.5592107 0.17837289
0.18534762 1.5670986 0.10629251
0.16677018 1.5533712 0.00093394343
0.16581589 1.2771578 -0.0042058802
0.15212587 1.3253736 -0.08189632
0.14086576 1.3149624 -0.1457466
0.11523698 1.5305377 -0.29134834
0.16024806 0.68902475 -0.035078984
0.1550771 0.64926142 -0.064332597
0.1468706 0.64930022 -0.11085133
0.16951776 0.19562882 0.018308615
0.16557807 0.13463807 -0.0038595304
0.1651994 0.095516682 -0.0059024976
0.165199 0.057005581 -0.0057981582
0.16533692 0.020694919 -0.0049099866
0.16545743 -0.012737619 -0.004122837
0.16526395 -0.042031568 -0.0051216362
0.16507292 -0.069494188 -0.0061079632
0.1651198 -0.096500933 -0.0057438272
0.16498896 -0.12114309 -0.0063904729
0.16520232 -0.14596276 -0.0050827689
0.16430691 -0.17621185 -0.010027993
0.16424474 -0.19738773 -0.010287552
0.16419251 -0.21774256 -0.010491435
0.16429199 -0.23778407 -0.0098341946
0.16438217 -0.2570537 -0.0092304116
0.16461115 -0.27600324 -0.0078388872
0.16465139 -0.29388389 -0.0075198947
0.16465043 -0.31118715 -0.0074354396
0.16403225 -0.33535698 -0.010812202
0.16430856 -0.3522498 -0.0091538671
0.16465721 -0.36082023 -0.0071293539
0.16433521 -0.38432419 -0.0088254837
0.1642417 -0.39994347 -0.0092683975
0.16424429 -0.41549966 -0.0091658505
0.16416913 -0.4309034 -0.0095051164
0.16418758 -0.44627494 -0.0093129659
0.16412964 -0.46925676 -0.0095112976
0.16415673 -0.47691581 -0.009314049
0.16403146 -0.50002992 -0.0098952716
0.16395088 -0.51558191 -0.010266251
0.16396618 -0.53120673 -0.010092936
0.16680236 -0.54383206 0.0060973172
0.17020275 -0.55472326 0.025490364
0.17313957 -0.56512123 0.042250682
0.17329435 -0.57941908 0.043214649
0.1735412 -0.59377354 0.044701312
0.17384478 -0.61593026 0.046552435
0.17337814 -0.632828 0.043988112
0.17366077 -0.6483376 0.045677632
0.17359135 -0.66534173 0.045368478
0.17334791 -0.68359065 0.044071421
0.17397724 -0.70885628 0.047771826
0.17336772 -0.73059696 0.044396736
0.17613031 -0.73902655 0.060164601
0.17999113 -0.74163783 0.082166374
0.16286659 -0.86172593 -0.014914755
0.16245033 -0.89296812 -0.01719079
0.16220139 -0.92555892 -0.018516751
0.1635379 -0.96799457 -0.010799018
-0.0077039758 -2.3551061 -0.98258042
-0.008547985 -2.5061433 -0.98725897
-0.0087948209 -2.668081 -0.98854554
0.013814515 -2.6293194 -0.86010885
0.034294832 -2.5982437 -0.74375916
0.082525313 -2.596209 -0.46969888
0.11900663 -2.6023948 -0.26238689
0.14731883 -2.5962243 -0.1014981
0.23315799 -2.5752757 0.38631445
0.2459271 -2.5692804 0.45887971
0.25863403 -2.5627222 0.53109157
0.27135998 -2.5595956 0.60341156
0.28415769 -2.5578716 0.67612845
0.29715928 -2.560456 0.75002563
0.31021318 -2.55936 0.82421893
0.54836625 -4.8713889 2.1771386
0.69565475 -5.8563142 3.0136824
0.72305864 -5.7073536 3.1693208
0.76160753 -5.4736328 3.3882592
0.74326551 -4.9360771 3.2841122
0.75780147 -4.731195 3.3666823
0.74930012 -4.3639054 3.3184323
0.74641025 -4.0723915 3.3020535
0.72221255 -3.6647511 3.1646817
0.75348151 -3.6409693 3.3422809
0.75530201 -3.3348827 3.352679
0.74582148 -3.0914562 3.2988894
0.74269032 -2.8972943 3.2811556
0.74358833 -2.7335634 3.2863021
0.74551916 -2.5825026 3.2973139
0.71950459 -2.3294692 3.1496525
0.7472775 -2.2921159 3.3073983
0.7428565 -2.0713415 3.2823741
0.74038482 -1.9340643 3.2683933
0.73404944 -1.7921735 3.2324762
0.73253232 -1.6691301 3.2239172
0.73062545 -1.5494173 3.213146
0.72886497 -1.4339168 3.2032068
0.72780752 -1.3230972 3.1972594
0.7317456 -1.1698774 3.2197034
0.73317802 -1.0672116 3.2278929
0.69211781 -0.92227364 2.9948328
0.7184971 -0.8502003 3.1446579
0.72693032 -0.75737792 3.1925948
0.72322202 -0.65694904 3.1715994
0.71855164 -0.55830109 3.1451428
0.71536505 -0.46176824 3.1271102
0.29583472 -0.43294647 0.74552268
0.28233829 -0.41750944 0.66909271
0.27999887 -0.40695223 0.65592647
0.2794261 -0.39463535 0.65278977
0.27857825 -0.38282752 0.64809138
0.27881601 -0.37782019 0.64947939
0.27909821 -0.36315107 0.651196
0.28129441 -0.34750921 0.6637395
0.28118262 -0.33722278 0.66318113
0.28012529 -0.32411587 0.65729344
0.27895993 -0.31694755 0.65075445
0.27847767 -0.30727816 0.64809299
0.2789093 -0.29350904 0.65061921
0.27865624 -0.27533677 0.6492967
0.27893114 -0.26020566 0.65093279
0.27889946 -0.23793586 0.65086639
0.28076172 -0.210567 0.66151226
0.53265965 1.706897 2.0914733
0.50812006 1.6757228 1.9522432
0.48762882 1.6656178 1.8359927
0.46971208 1.6694585 1.7343557
0.45179757 1.6661446 1.6327329
0.42964712 1.6990188 1.5070961
0.4132829 1.6971593 1.4142747
0.39880523 1.713492 1.3321608
0.3693527 1.5016695 1.1650709
0.35737357 1.5267798 1.0971402
0.34519881 1.5485113 1.0281
0.33079362 1.5223755 0.94640517
0.31894663 1.5455706 0.87922567
0.30007967 1.5503376 0.77223724
0.28762978 1.552585 0.70163918
0.27517337 1.5493077 0.63100499
0.26293799 1.5534683 0.56162494
0.25082478 1.5761515 0.4929359
0.23846497 1.555398 0.42285359
0.22617884 1.5641679 0.35318553
0.2077363 1.5606847 0.24861059
0.19543345 1.5562602 0.17885022
0.18298414 1.5552783 0.10825825
0.16996552 1.5674471 0.034432709
0.16858603 1.2805978 0.026723599
0.15142553 1.4084631 -0.070630766
0.14515951 1.2951648 -0.10610466
0.11276915 1.5268348 -0.28988838
0.16243654 0.67739457 -0.0077787344
0.15597862 0.65592182 -0.044355594
0.14470656 0.64394999 -0.10822199
0.16841541 0.20787185 0.026626213
0.16373749 0.15115173 0.00023832935
0.16188486 0.10106637 -0.010152062
0.1620778 0.060868926 -0.0089717284
0.16184784 0.026672885 -0.010192853
0.16193581 -0.0069505493 -0.0096093994
0.16220962 -0.039221134 -0.0079712458
0.16187543 -0.0661171 -0.0097851539
0.16217048 -0.094541706 -0.0080269026
0.16216692 -0.11988129 -0.0079642283
0.1619541 -0.14299372 -0.0090897279
0.16207032 -0.16631952 -0.0083474247
0.16222678 -0.18866502 -0.0073768445
0.16195807 -0.20857333 -0.008820123
0.16229598 -0.22965449 -0.006819691
0.16232659 -0.24896346 -0.0065640197
0.16218016 -0.26715329 -0.0073133809
0.16216052 -0.28513369 -0.0073431022
0.16178867 -0.31050962 -0.00933138
0.16190125 -0.32766706 -0.0086107031
0.16196008 -0.34432828 -0.0081951721
0.161789 -0.36034527 -0.0090847546
0.16188908 -0.37647247 -0.0084352
0.16174823 -0.39211634 -0.0091532115
0.16187608 -0.4078289 -0.0083460584
0.16164342 -0.43088034 -0.0095446575
0.16166282 -0.44625232 -0.0093531646
0.16160187 -0.46157318 -0.0096177021
0.16163373 -0.47689408 -0.0093554836
0.16158526 -0.49226603 -0.0095492499
0.16163039 -0.50767022 -0.0092116278
0.16142587 -0.52336597 -0.01029106
0.16576205 -0.53468072 0.014402695
0.1686101 -0.54619604 0.03064953
0.17049696 -0.55810356 0.041440487
0.17111197 -0.57881802 0.04505299
0.17102766 -0.59375763 0.044655602
0.1710442 -0.60886621 0.044830691
0.17116354 -0.62412119 0.045589358
0.17091569 -0.6407671 0.044264
0.17123361 -0.66485828 0.046190642
0.17113799 -0.68257701 0.045729436
0.17088343 -0.70163035 0.044366419
0.16090809 -0.77073056 -0.012125572
0.16073339 -0.79497838 -0.013034542
0.17651621 -0.73616427 0.07658039
0.16021161 -0.84864742 -0.015830016
0.16093934 -0.88739848 -0.011575087
0.16065657 -0.91979223 -0.01309614
-0.012518685 -2.3046589 -0.99559236
-0.01325955 -2.4492559 -0.9996953
-0.014286083 -2.6111951 -1.0054171
0.0044789733 -2.6087661 -0.89882731
0.030584438 -2.6104596 -0.75053352
0.063815691 -2.6049504 -0.56175637
0.079666391 -2.6007924 -0.47171012
0.15817979 -2.6027367 -0.025642145
0.24346778 -2.5772853 0.45894134
0.2689271 -2.562593 0.60359567
0.27528018 -2.5590675 0.63967949
0.29450077 -2.5535529 0.74887568
0.30755165 -2.5534818 0.8230195
0.5604592 -4.8553076 2.2590888
0.71046525 -6.0585899 3.1106677
0.73673362 -5.8804588 3.2597928
0.73714411 -5.4561777 3.2621386
0.74712849 -5.1684794 3.3188367
0.75193352 -4.8631744 3.3461401
0.74318725 -4.4785795 3.2965291
0.74092001 -4.1804314 3.2836995
0.72071785 -3.6700704 3.1690998
0.75451529 -3.6614854 3.3609805
0.74854034 -3.4111526 3.3271186
0.74133629 -3.1734324 3.286284
0.73910826 -2.9784479 3.2736943
0.73960507 -2.8085411 3.2765727
0.74158335 -2.6542175 3.2878611
0.71431935 -2.3890109 3.133183
0.74468875 -2.2910867 3.3056443
0.74072039 -2.1388035 3.2831876
0.73416537 -1.9861746 3.2460515
0.73341346 -1.8580118 3.2418528
0.73030037 -1.728376 3.2242541
0.72671843 -1.6028479 3.2039959
0.73097783 -1.442734 3.2282782
0.72814244 -1.3278005 3.2122593
0.72855002 -1.2214291 3.2146471
0.72996426 -1.1182026 3.2227488
0.68678409 -0.96608657 2.9777615
0.69503576 -0.88024336 3.0246701
0.72707421 -0.80887675 3.206578
0.7228142 -0.7069599 3.1824799
0.71793824 -0.55866933 3.1549273
0.71474797 -0.46178666 3.1369023
0.29272425 -0.4275524 0.74201101
0.28066173 -0.42126414 0.67367351
0.27884308 -0.41411215 0.66343325
0.27749023 -0.40259418 0.65587735
0.27713048 -0.39872998 0.65387625
0.27631703 -0.38684064 0.64938188
0.27656955 -0.38185868 0.6508559
0.27657309 -0.36797127 0.65099841
0.2778694 -0.3550584 0.65843761
0.27852392 -0.33768427 0.66227543
0.2780368 -0.32830089 0.65959293
0.2768921 -0.32101777 0.65317845
0.27643806 -0.31130266 0.65068388
0.27654043 -0.29292873 0.65138894
0.27616352 -0.28184983 0.64933258
0.27663112 -0.26621577 0.65206975
0.27655602 -0.24474773 0.65176868
0.27704394 -0.22615685 0.65462202
0.5414511 1.7111849 2.1557357
0.5149318 1.6706511 2.0053165
0.49377015 1.6590863 1.8853077
0.46824658 1.6796322 1.740595
0.45104289 1.6843277 1.6430517
0.43447754 1.689183 1.5491315
0.41781539 1.6864463 1.4546609
0.40305549 1.7006958 1.3709893
0.37353006 1.5002646 1.2034787
0.36089531 1.5164009 1.1318678
0.34866232 1.537473 1.0625383
0.32875592 1.5349275 0.94970155
0.31674722 1.5562835 0.88164604
0.30393118 1.5556111 0.80900383
0.29021913 1.5157239 0.73126805
0.27880678 1.5542367 0.66660154
0.26648024 1.5566701 0.59673882
0.24804738 1.557155 0.49226764
0.23579758 1.5563893 0.42284015
0.22355987 1.5551639 0.35348138
0.21133709 1.5514814 0.28420693
0.19903508 1.5513133 0.21448398
0.18648788 1.5575615 0.14337155
0.17409235 1.5523407 0.073116936
0.16542068 1.443843 0.023965707
0.15475151 1.279013 -0.036493458
0.14332981 1.2788929 -0.10122088
0.11643359 1.5334705 -0.25368786
0.15340258 0.65498698 -0.04398324
0.14249285 0.68942851 -0.10579702
0.13824411 0.63970286 -0.1298369
0.16732763 0.19328536 0.035234373
0.16003574 0.16014786 -0.0059881164
0.1598544 0.11742214 -0.0069474634
0.16009426 0.075418986 -0.0055166828
0.15983501 0.040292989 -0.0069162711
0.15978734 0.0064772991 -0.0071150749
0.15993071 -0.026011474 -0.0062296325
0.1598639 -0.055118348 -0.0065358118
0.1597925 -0.08238738 -0.0068677911
0.15862001 -0.11558764 -0.013409033
0.1588044 -0.14065884 -0.012289139
0.15905222 -0.16465838 -0.010809151
0.15890591 -0.18603192 -0.011564923
0.15907378 -0.20759012 -0.01053804
0.15925412 -0.22826296 -0.0094403364
0.15927778 -0.24766536 -0.0092313169
0.15928343 -0.26635706 -0.0091244671
0.15926029 -0.28440186 -0.0091809081
0.15936166 -0.30220959 -0.0085308421
0.15941954 -0.31944332 -0.0081274146
0.15942557 -0.33617631 -0.0080182338
0.15954079 -0.35272664 -0.0072894851
0.15942346 -0.36865509 -0.0078803236
0.15917748 -0.39213485 -0.0091636861
0.15913431 -0.40772563 -0.0093338238
0.15901399 -0.42315632 -0.0099418815
0.15916094 -0.43861672 -0.0090333549
0.15905483 -0.45393071 -0.0095609771
0.15921509 -0.46923667 -0.0085772108
0.15894781 -0.48462042 -0.010019663
0.15894763 -0.50002843 -0.0099466452
0.15903774 -0.52324671 -0.0093245385
0.16354604 -0.53435296 0.016333673
0.16690281 -0.54517597 0.03545741
0.16844766 -0.55739707 0.044298653
0.16838807 -0.57185107 0.044034246
0.16842318 -0.58643913 0.044306986
0.16839147 -0.60148263 0.044200256
0.1683009 -0.61705828 0.043759074
0.16868398 -0.63994175 0.046041906
0.16855471 -0.65681285 0.045380116
0.16824698 -0.67491323 0.043704964
0.16834371 -0.70165068 0.044360101
0.15716764 -0.76411784 -0.019010756
0.15763105 -0.78546441 -0.016312653
0.15821001 -0.84604585 -0.012861026
0.15803526 -0.87488639 -0.013789004
0.15370378 -0.92969912 -0.038318682
0.15862854 -0.9498421 -0.010266284
-0.01236432 -2.42342 -0.98115486
-0.012751795 -2.5780869 -0.9833703
-0.013205452 -2.7504361 -0.98597312
0.017274138 -2.6344197 -0.81288129
0.053744972 -2.602499 -0.60577089
0.14915641 -2.6013124 -0.063912928
0.23481111 -2.5836165 0.42258388
0.26041585 -2.5734658 0.56801778
0.286183 -2.5699093 0.71438175
0.29896167 -2.5602572 0.78700739
0.55445808 -4.8000364 2.2360046
0.71895432 -6.4415579 3.1684496
0.7250303 -6.0038018 3.2033241
0.73645413 -5.6753535 3.2684689
0.75230807 -5.4238915 3.3586986
0.74161983 -4.9586997 3.2984543
0.74977261 -4.5464792 3.3451328
0.75043285 -4.2654815 3.349158
0.72679985 -3.8415365 3.2154262
0.73857754 -3.687001 3.2824502
0.74342328 -3.4980881 3.3101606
0.73961699 -3.2723424 3.288799
0.73811108 -3.0747101 3.2804708
0.73418421 -2.8779936 3.2584035
0.74195689 -2.6656053 3.3027742
0.74259698 -2.5122957 3.3065898
0.72978187 -2.3157086 3.2340856
0.7400896 -2.2128906 3.292722
0.73274863 -2.053875 3.2512529
0.72999811 -1.917254 3.2358148
0.73060811 -1.7352544 3.2395127
0.72833759 -1.6121792 3.2267871
0.72763997 -1.496716 3.2229805
0.72549462 -1.381707 3.2109582
0.7239024 -1.2710352 3.202071
0.72663015 -1.1693872 3.2176869
0.72889543 -1.06783 3.2306781
0.68505788 -0.92001283 2.982126
0.71182972 -0.79983026 3.1342039
0.71875226 -0.70615244 3.173609
0.71610165 -0.6073665 3.1587024
0.71215552 -0.50986648 3.1364443
0.2900371 -0.4275634 0.74199438
0.27663097 -0.41805023 0.66613662
0.2754612 -0.41488743 0.65955019
0.27479663 -0.40697253 0.65588039
0.27366737 -0.39117411 0.64967424
0.27369088 -0.38219726 0.64990813
0.27365381 -0.37311921 0.6497981
0.27435413 -0.35710531 0.65392208
0.27564216 -0.33815193 0.66138071
0.2755594 -0.33300224 0.66096127
0.27415818 -0.32103187 0.65316111
0.27355531 -0.31186154 0.64984047
0.2734592 -0.30046248 0.64939517
0.27354997 -0.28771314 0.65001035
0.27348444 -0.26815888 0.6497885
0.27394739 -0.2515313 0.65251547
0.27425563 -0.23448534 0.65436459
0.53910506 1.7134998 2.1575618
0.51632369 1.7017792 2.0284014
0.49426755 1.6852801 1.903355
0.47475204 1.6802536 1.7927245
0.45571259 1.6709273 1.6847944
0.43902299 1.6767457 1.590198
0.42214438 1.6740488 1.4945287
0.40746102 1.690792 1.4113157
0.38055611 1.6393188 1.2588038
0.35840198 1.5201396 1.1331943
0.34614271 1.541257 1.063736
0.33464155 1.5771722 0.99858004
0.32011262 1.5478235 0.91624099
0.30700377 1.5406138 0.84196073
0.29457152 1.5463731 0.77152061
0.27607232 1.5552106 0.66670716
0.26363003 1.5506744 0.59620994
0.25140429 1.5555974 0.52694231
0.23915613 1.5580624 0.45754775
0.22690953 1.5550674 0.38816211
0.21466123 1.5546123 0.31876731
0.20225972 1.5616553 0.24850422
0.1835333 1.5644796 0.1424056
0.1713326 1.5513427 0.073281914
0.15814808 1.5651228 -0.0014213517
0.15761407 1.2781414 -0.0043685618
0.14490238 1.3061665 -0.076387219
0.13390754 1.29311 -0.13866702
0.15168531 0.69552904 -0.037638895
0.14717819 0.64653611 -0.063112073
0.1383689 0.65381247 -0.1129895
0.16619606 0.20263916 0.04506043
0.16127495 0.19733308 0.01724169
0.1580853 0.17593087 -0.00075441622
0.15741362 0.13545577 -0.004466244
0.15745814 0.093160823 -0.0041148812
0.15591089 0.047076125 -0.012743294
0.15617287 0.010856234 -0.011157533
0.15640791 -0.022485049 -0.0097244065
0.15644217 -0.052399334 -0.0094300667
0.15621871 -0.079115868 -0.010597475
0.15622342 -0.10540296 -0.01047031
0.15631212 -0.13060008 -0.0098664314
0.156326 -0.15416136 -0.0096869236
0.15623884 -0.17620747 -0.010080374
0.15632378 -0.19789885 -0.0094973091
0.15642461 -0.21870878 -0.0088240551
0.15652803 -0.23868912 -0.0081359316
0.15646428 -0.25747383 -0.0083958497
0.15653409 -0.27600119 -0.0078980736
0.15657215 -0.29388231 -0.0075802067
0.15611552 -0.31883246 -0.010017049
0.15611313 -0.33563206 -0.0099282013
0.15622035 -0.35224968 -0.0092175314
0.15626512 -0.36845395 -0.0088607809
0.15641265 -0.38449869 -0.007921055
0.1563172 -0.40008393 -0.0083593847
0.15631768 -0.41560593 -0.0082533797
0.15624002 -0.43097532 -0.008590417
0.15625581 -0.44631246 -0.0083971573
0.15601966 -0.46925995 -0.0095807351
0.15592052 -0.48462611 -0.010038733
0.15626089 -0.49985984 -0.0080038449
0.15738209 -0.51449031 -0.0015402659
0.1613311 -0.52620828 0.020961452
0.16447441 -0.53735352 0.038893189
0.16546364 -0.55023354 0.044608172
0.16518401 -0.56487149 0.043127228
0.1651676 -0.57942849 0.043139402
0.16548601 -0.60114712 0.04510355
0.16554831 -0.61631548 0.045562897
0.16539696 -0.63243228 0.044811003
0.16520512 -0.64922571 0.043830015
0.16575813 -0.67298013 0.047126856
0.16542281 -0.69182503 0.045333412
0.15520059 -0.78252882 -0.012353294
0.1551109 -0.83248651 -0.012637266
0.15415838 -0.86441422 -0.017923733
0.15470231 -0.90566093 -0.014667129
0.15457703 -0.93844044 -0.015260425
0.15475844 -0.97178155 -0.014113698
-0.017424053 -2.3646593 -0.98979533
-0.018422902 -2.5175819 -0.99527401
-0.019371364 -2.6865027 -1.0004573
0.0048026005 -2.6344407 -0.8632642
0.025752518 -2.5991025 -0.7443493
0.049462989 -2.6105604 -0.60969847
0.064411923 -2.6220865 -0.52479607
0.08097063 -2.6061361 -0.43077835
0.13909823 -2.5923593 -0.10066649
0.27607799 -2.5688393 0.67731947
0.2886731 -2.5535944 0.74881834
0.30841559 -2.5558944 0.86090159
0.544312 -4.9308276 2.2005355
0.57507735 -4.91535 2.3750834
0.74054497 -5.7594686 3.3141937
0.75786501 -5.514905 3.4123569
0.73280078 -4.914392 3.2699375
0.74634141 -4.7026453 3.3466868
0.74249017 -4.3728094 3.3247335
0.74043614 -4.0864973 3.3129983
0.71587199 -3.6754282 3.1735284
0.74392408 -3.6308427 3.3326778
0.74542785 -3.3238778 3.3411512
0.73924196 -3.0982554 3.3060203
0.73616099 -2.9038277 3.288517
0.73451072 -2.7281249 3.279139
0.7382462 -2.5849557 3.3003247
0.71223664 -2.3318026 3.152751
0.73740304 -2.2847939 3.2955363
0.7338382 -2.0675571 3.2753184
0.72918451 -1.9241672 3.2489269
0.72751307 -1.7956446 3.2394571
0.72378469 -1.666873 3.2183218
0.72316605 -1.5502197 3.2148304
0.72125077 -1.4343258 3.2039857
0.7195366 -1.3223014 3.1942837
0.72415394 -1.1701983 3.22051
0.72593457 -1.0679128 3.2306349
0.68382013 -0.9218244 2.9917839
0.71142977 -0.85082966 3.1484158
0.71936125 -0.75755364 3.1934304
0.71409643 -0.65645939 3.1635978
0.70890373 -0.55798322 3.1341758
0.70762807 -0.461833 3.1269708
0.28751597 -0.43306899 0.74447519
0.27417931 -0.41754323 0.66902953
0.27268317 -0.4102948 0.66062099
0.27146795 -0.39875507 0.65384388
0.27071643 -0.39118594 0.64965844
0.27090853 -0.38188314 0.65082371
0.27109662 -0.3627919 0.65204179
0.27277663 -0.3432869 0.66168094
0.27286914 -0.33770761 0.66224301
0.27196574 -0.32414624 0.6572333
0.27079931 -0.31697759 0.65069473
0.27031678 -0.30730784 0.64803356
0.27022702 -0.28952554 0.64763612
0.27063152 -0.27473637 0.6500029
0.27090332 -0.2595782 0.65161699
0.27074128 -0.2379639 0.65080744
0.27188247 -0.21491048 0.65734804
0.52411366 1.7013597 2.0870996
0.49927604 1.6676124 1.9463285
0.47988322 1.6664267 1.8364202
0.46047091 1.6567186 1.726406
0.43692958 1.6819965 1.5929935
0.42175144 1.699 1.5069785
0.40529829 1.6962343 1.4137428
0.39074579 1.7116326 1.3312765
0.36051536 1.4885805 1.160023
0.34962586 1.5305426 1.0983169
0.33726573 1.5494481 1.0282825
0.3227047 1.5204241 0.9457919
0.30509105 1.5601814 0.84598809
0.29199454 1.5483471 0.77179366
0.27961856 1.5535542 0.70167577
0.26727268 1.5572419 0.63172936
0.25488088 1.5534459 0.56152642
0.2427711 1.5781268 0.49290645
0.23038702 1.556374 0.42275691
0.2120548 1.5506182 0.31890023
0.19948241 1.5706202 0.24765795
0.18729825 1.5572253 0.17863663
0.17483267 1.5562371 0.10801154
0.16173229 1.5703617 0.03377695
0.16027482 1.284465 0.025753776
0.1440724 1.3910438 -0.066129506
0.13102683 1.2969048 -0.13995235
0.104587 1.5267975 -0.28997535
0.15243232 0.70443761 -0.018078204
0.14452885 0.64561462 -0.062754713
0.13306706 0.68436265 -0.12771077
0.15880194 0.19478294 0.018782521
0.15415539 0.13949426 -0.007382581
0.15385468 0.099458329 -0.0089855082
0.15383132 0.060836915 -0.0090161897
0.15371487 0.025897589 -0.0095769782
0.15428707 -0.010579597 -0.006230568
0.15420577 -0.040642682 -0.006594805
0.15374875 -0.066818602 -0.0090924008
0.15404598 -0.095216841 -0.0073104007
0.15377095 -0.119298 -0.0087769506
0.15383348 -0.14361404 -0.0083285896
0.15380774 -0.16635208 -0.0083818426
0.15381555 -0.18816768 -0.0082453135
0.15399303 -0.20960611 -0.0071466248
0.1533301 -0.23733477 -0.010771569
0.15310326 -0.25579101 -0.011968069
0.15364473 -0.27561823 -0.0088055423
0.15352079 -0.29317337 -0.0094188023
0.15367988 -0.31086835 -0.008426616
0.15346122 -0.32740781 -0.009577808
0.15351726 -0.34410268 -0.0091706794
0.15368177 -0.36060357 -0.0081484355
0.15361166 -0.37650585 -0.0084573589
0.15364112 -0.39230627 -0.0082015684
0.15326481 -0.41540518 -0.010203564
0.15336213 -0.43091401 -0.009563013
0.1533805 -0.44628605 -0.0093704117
0.15297127 -0.46160692 -0.011603433
0.15334933 -0.47692794 -0.0093704592
0.1531266 -0.49236968 -0.010545494
0.1550706 -0.50665921 0.00056997617
0.15932778 -0.51839077 0.024805903
0.1619219 -0.53019959 0.03960805
0.16270289 -0.54331797 0.044125546
0.16254932 -0.5576517 0.043342277
0.1626603 -0.57914221 0.044103608
0.16274099 -0.59378952 0.044649307
0.16259442 -0.60925645 0.043906298
0.1623954 -0.6253252 0.042866092
0.16246846 -0.6412217 0.043369208
0.16294236 -0.66489023 0.046190489
0.15239586 -0.7491774 -0.013392168
0.15217781 -0.77248645 -0.014536603
0.15215091 -0.79621726 -0.014596368
0.15151018 -0.82409662 -0.018136198
0.15225403 -0.8895179 -0.013681316
0.15210274 -0.92126656 -0.014442543
-0.021612758 -2.1821299 -0.99907261
-0.022498377 -2.3157837 -1.0039465
-0.022873037 -2.4582491 -1.0059173
-0.023368211 -2.6162643 -1.0085632
0.0037752837 -2.6199455 -0.85446084
0.019919595 -2.633281 -0.76278943
0.054331038 -2.6177092 -0.56742567
0.070335701 -2.612824 -0.47655523
0.20277202 -2.599391 0.27551207
0.22227699 -2.5822887 0.38627765
0.26064605 -2.5675676 0.60418564
0.27335572 -2.5588622 0.67633331
0.28640193 -2.5624259 0.75041604
0.29931438 -2.5564058 0.82373452
0.65692925 -7.6352763 2.8553526
0.71670651 -6.2309933 3.1939261
0.71903682 -5.7787457 3.2069714
0.73794204 -5.5469394 3.3141565
0.73700321 -5.1513453 3.3086886
0.74366689 -4.8630013 3.3464043
0.73371589 -4.4687033 3.2898176
0.74431479 -4.1321049 3.3498662
0.71114284 -3.6608574 3.1615205
0.74549443 -3.6562002 3.3564475
0.73937905 -3.4053338 3.3216972
0.73481798 -3.1821408 3.295779
0.73199922 -2.9835413 3.2797575
0.73132467 -2.8077581 3.2759113
0.73959184 -2.6011927 3.3228078
0.70907611 -2.3293574 3.1496401
0.73996526 -2.3031266 3.3249178
0.73201883 -2.1366577 3.2798297
0.72561258 -1.9846243 3.2434862
0.72345704 -1.8526114 3.2312655
0.72127211 -1.7257982 3.2188814
0.72251529 -1.5543268 3.2259591
0.72045982 -1.4377173 3.2143161
0.71976137 -1.3270855 3.2103741
0.72000593 -1.220524 3.2117844
0.72210068 -1.1183002 3.2236927
0.68214977 -0.96978921 2.9970744
0.69591981 -0.88826442 3.0752223
0.72090095 -0.75989228 3.2169814
0.71287751 -0.65685153 3.1714966
0.70699281 -0.55796117 3.1381466
0.70571643 -0.46167457 3.130939
0.28453523 -0.42754364 0.74199015
0.27246851 -0.42125833 0.67365319
0.27049342 -0.40984833 0.66255933
0.26929876 -0.40258935 0.65585601
0.26910722 -0.3984665 0.65480596
0.26812768 -0.38683626 0.64935964
0.26877949 -0.37645558 0.65312934
0.26968545 -0.35505399 0.65841335
0.27034274 -0.33767989 0.66225016
0.26985684 -0.32829669 0.65956724
0.26871291 -0.3210139 0.65315247
0.26826015 -0.31129897 0.65065742
0.26836511 -0.29292515 0.65136158
0.26812646 -0.28123081 0.65008074
0.26845938 -0.26621237 0.65204114
0.26851404 -0.24406253 0.65245938
0.26887736 -0.22615364 0.65459156
0.53246588 1.7034558 2.1494088
0.50629306 1.6650981 2.0010436
0.47821602 1.6747661 1.8419061
0.46031997 1.6796607 1.7404776
0.44310918 1.6843531 1.6429368
0.42629242 1.6865567 1.547632
0.40986753 1.6864661 1.4545512
0.39496109 1.698886 1.3700804
0.36574379 1.5030595 1.2044884
0.35326624 1.5220505 1.1337934
0.33413425 1.539909 1.0253966
0.32129785 1.5465256 0.95267016
0.30878505 1.5572633 0.88177866
0.29575849 1.550707 0.80797744
0.28214902 1.513751 0.73087674
0.2707679 1.5532455 0.66639936
0.25838158 1.5516893 0.59622955
0.24003495 1.5601519 0.49229425
0.2277614 1.5553873 0.42276576
0.21553032 1.5531622 0.35347795
0.20324156 1.555468 0.28386259
0.19096427 1.5523034 0.21431361
0.17814051 1.5694399 0.14166197
0.16593821 1.5552899 0.072541088
0.14693019 1.5524313 -0.035138939
0.14652444 1.2819051 -0.03731031
0.13502935 1.2827122 -0.10242271
0.10839842 1.5325185 -0.25341928
0.14560464 0.65037972 -0.04209568
0.13134594 0.72658372 -0.12289484
0.1583613 0.20099738 0.03064221
0.15236689 0.1560498 -0.003189814
0.15220742 0.11342698 -0.0040092189
0.15203178 0.074640341 -0.0049210782
0.15166116 0.040291797 -0.0069396663
0.15184836 0.0050136703 -0.0057946523
0.15175319 -0.026012009 -0.0062518548
0.15193875 -0.056482639 -0.0051171156
0.15174296 -0.083043352 -0.0061458801
0.1516396 -0.10854047 -0.0066508059
0.1518892 -0.13420172 -0.0051540346
0.15178585 -0.15701979 -0.0056594289
0.15171933 -0.17892104 -0.0059562791
0.1508868 -0.20758814 -0.01055774
0.15106629 -0.22826067 -0.009459883
0.15093304 -0.24722433 -0.010135849
0.15125258 -0.26676089 -0.0082441382
0.15123102 -0.28477323 -0.0082870563
0.15122791 -0.31943938 -0.0081465552
0.15123326 -0.33617201 -0.0080373632
0.15139969 -0.3688581 -0.0069362284
0.1509828 -0.39212939 -0.009182916
0.15099098 -0.42323741 -0.0089802109
0.15096441 -0.43861029 -0.009052882
0.15084371 -0.46924695 -0.0095817344
0.15065052 -0.49234763 -0.010560944
0.15403536 -0.49836591 0.0086734369
0.15737237 -0.51795232 0.02771372
0.15977666 -0.52291036 0.0413871
0.16040547 -0.54308945 0.045068633
0.16025221 -0.5573889 0.044276435
0.16002508 -0.57211816 0.043065097
0.16006137 -0.5867393 0.043347564
0.16019416 -0.60147357 0.044177122
0.16041748 -0.62413138 0.045558143
0.1604851 -0.63993198 0.046017833
0.16050966 -0.65634882 0.046233173
0.15913473 -0.67781132 0.038511895
0.14953761 -0.73978966 -0.015799902
0.14866571 -0.76522321 -0.020669099
0.15040267 -0.79318202 -0.010706145
0.14961119 -0.82155269 -0.015119844
0.1498604 -0.84668803 -0.013632087
0.1495606 -0.87623608 -0.015258088
0.1453533 -0.93039083 -0.039044376
0.15040295 -0.94982713 -0.010297066
-0.020930618 -2.4241805 -0.98177338
-0.022007199 -2.5846694 -0.98782003
-0.021607956 -2.7495372 -0.98549932
0.0083751166 -2.6387041 -0.81539434
0.028784221 -2.6044388 -0.69958746
0.045229852 -2.603358 -0.60625964
0.2264913 -2.5826144 0.4224883
0.26501667 -2.5739975 0.64113051
0.27785355 -2.5679395 0.71401107
0.29075411 -2.5622401 0.78725362
0.61424613 -8.7948408 2.6208577
0.55315286 -4.8949175 2.2754736
0.71332514 -6.4751911 3.1836419
0.7093969 -5.9210329 3.1615615
0.72793883 -5.6728272 3.2668583
0.74210995 -5.4051318 3.3473713
0.7334258 -4.9587936 3.2982991
0.74304932 -4.5578976 3.3530946
0.74369556 -4.275815 3.3569069
0.7159065 -3.8224661 3.1994832
0.73061055 -3.6878257 3.2829955
0.73692679 -3.50752 3.3189456
0.73094469 -3.2689455 3.285157
0.72646546 -3.056047 3.2598867
0.7320537 -2.8211498 3.2917647
0.73451376 -2.668081 3.3058391
0.73617589 -2.5186715 3.315387
0.72355324 -2.3223066 3.2439258
0.72974348 -2.2047095 3.2791491
0.72646344 -2.0592654 3.2606649
0.72127724 -1.9150376 3.2313695
0.72172171 -1.732864 3.2340615
0.71783429 -1.606232 3.2121282
0.71988308 -1.4971032 3.2238593
0.71725076 -1.3811312 3.2090414
0.71616203 -1.2713506 3.2029767
0.71788728 -1.1682148 3.2128708
0.71947289 -1.0659933 3.2219722
0.6751076 -0.91795748 2.9704564
0.6992923 -0.79656577 3.1077826
0.71295035 -0.70722485 3.1853533
0.70909518 -0.60765171 3.1635928
0.70307058 -0.50976437 3.1295266
0.28207439 -0.4275578 0.7419908
0.26867121 -0.4180434 0.66613507
0.26750273 -0.41488042 0.65954906
0.26647037 -0.39873499 0.65386015
0.26571789 -0.39116606 0.64967519
0.26574457 -0.38218892 0.64990973
0.26571062 -0.37311053 0.6498003
0.26657379 -0.3616004 0.65477961
0.26792783 -0.34282926 0.66258502
0.26762769 -0.33299243 0.6609655
0.26623079 -0.32102162 0.65316629
0.2656309 -0.31185097 0.6498462
0.2656801 -0.29987803 0.65020823
0.26563185 -0.2877019 0.65001708
0.26615834 -0.27220106 0.65308636
0.26603726 -0.25151926 0.65252334
0.26634875 -0.23447298 0.65437275
0.53084636 1.7104222 2.155057
0.50703698 1.6906294 2.0200775
0.48624262 1.6836727 1.9021994
0.46654692 1.6769295 1.7905527
0.44770598 1.6692433 1.6837536
0.43111095 1.6759011 1.5896937
0.41494703 1.6812062 1.4980782
0.39286712 1.705272 1.3729397
0.37227315 1.6328562 1.2561929
0.35086933 1.5248641 1.1348526
0.33885148 1.5507928 1.0667524
0.32662457 1.5733516 0.99746525
0.31228814 1.5478469 0.91621214
0.29957825 1.5513955 0.8441841
0.28675106 1.5463941 0.77149022
0.26827678 1.556222 0.66679525
0.25583103 1.5516881 0.59626311
0.24357489 1.5536158 0.5268054
0.23134805 1.5580766 0.45751286
0.21910469 1.5550798 0.38812625
0.20677833 1.5636104 0.31826687
0.19458313 1.5536941 0.24915238
0.17598334 1.554582 0.14373578
0.16315381 1.5641481 0.071018338
0.15047395 1.5621884 -0.00084977114
0.14974602 1.2800817 -0.0048780139
0.13712384 1.3061634 -0.076422371
0.12109416 1.3825046 -0.16730677
0.098935738 1.5352569 -0.29297486
0.14540085 0.67420101 -0.029167268
0.13735573 0.67302549 -0.074738979
0.1260456 0.6575079 -0.1387977
0.15763959 0.21043332 0.040636543
0.15341195 0.19817954 0.016727576
0.1502213 0.17675741 -0.0012964736
0.14995591 0.13302577 -0.002719224
0.14991122 0.09158162 -0.0028897179
0.14826956 0.04631751 -0.012082287
0.14842092 0.010852174 -0.011140714
0.15000801 -0.014892658 -0.0020925114
0.1483162 -0.050357774 -0.011570381
0.14847703 -0.079120621 -0.010575515
0.1448441 -0.088415772 -0.031110898
0.14871609 -0.13120709 -0.0090547483
0.14865702 -0.1767578 -0.009226229
0.14860007 -0.19790474 -0.0094675692
0.14885633 -0.2191997 -0.007931496
0.14865704 -0.23824142 -0.0089807073
0.14906625 -0.25832564 -0.006576573
0.14882526 -0.27600795 -0.007862431
0.14852659 -0.30188215 -0.0094347121
0.14858152 -0.31914896 -0.0090412293
0.14841796 -0.33563974 -0.0098875863
0.14857771 -0.36846209 -0.0088172341
0.14855821 -0.38433331 -0.0088458834
0.14864215 -0.41561472 -0.0082054073
0.14848016 -0.4386321 -0.009001445
0.14853197 -0.4692522 -0.0085427547
0.14809021 -0.4846884 -0.010967418
0.15223818 -0.49803993 0.012655303
0.15593317 -0.5101133 0.033707425
0.15762539 -0.52261907 0.043393601
0.15785074 -0.5362162 0.044755273
0.15765227 -0.55046576 0.043711837
0.15754607 -0.56487906 0.043192137
0.15772855 -0.58645344 0.044352558
0.15785837 -0.60115504 0.045172699
0.15792489 -0.61632353 0.045633815
0.15777795 -0.63244063 0.044883754
0.15759061 -0.64923429 0.043904666
0.14710873 -0.72891635 -0.01536678
0.14774956 -0.75910258 -0.011601896
0.14775774 -0.78195518 -0.011469501
0.1474046 -0.80761415 -0.013386966
0.14700589 -0.83507222 -0.015562443
0.14659117 -0.86442947 -0.01782809
0.14787887 -0.90143365 -0.010388602
0.14678608 -0.93991876 -0.016500009
0.14675416 -0.97481626 -0.016590811
-0.024767306 -2.3647621 -0.98959768
-0.026249569 -2.5217819 -0.99788684
-0.02687397 -2.6882856 -1.001303
-0.0032412619 -2.6413922 -0.86709374
0.018327538 -2.6000614 -0.74459666
0.042036604 -2.6115322 -0.60989267
0.073670924 -2.6052666 -0.43016374
0.10343698 -2.5986416 -0.2610355
0.24944316 -2.5804391 0.56873161
0.26862895 -2.5697799 0.67773801
0.28156939 -2.5673625 0.75127119
0.30102268 -2.5587587 0.86180979
0.5365113 -4.9269204 2.1995738
0.56793606 -4.9206181 2.3779979
0.73055893 -5.7346845 3.3014107
0.74529397 -5.4674606 3.3850205
0.72606897 -4.9224939 3.2758043
0.73764813 -4.6941652 3.3415201
0.73404396 -4.3669357 3.3210344
0.73248643 -4.0846643 3.312181
0.70813221 -3.6751645 3.1739111
0.73533422 -3.6254489 3.3283546
0.73702192 -3.3201342 3.3379579
0.73003167 -3.0906308 3.2982974
0.7294215 -2.9087102 3.2948618
0.72738117 -2.7309477 3.2833128
0.72985947 -2.5823503 3.2974184
0.70441175 -2.331563 3.1530082
0.73132324 -2.2909052 3.3058124
0.72613132 -2.0678005 3.2764149
0.72178233 -1.9252928 3.2517822
0.71900946 -1.7937217 3.2360992
0.71622205 -1.6674265 3.2203364
0.71478909 -1.54892 3.2122641
0.7135157 -1.4344307 3.2050998
0.71162927 -1.3220844 3.1944585
0.71505171 -1.1682907 3.2139852
0.71800059 -1.0677011 3.230792
0.67504656 -0.92076302 2.9870777
0.70159507 -0.84909827 3.1378293
0.71036696 -0.75672621 3.1876903
0.70699662 -0.65661293 3.1686401
0.70318609 -0.55824649 3.1470942
0.69912618 -0.46164581 3.1241345
0.26646292 -0.41750449 0.66909283
0.2649644 -0.4102568 0.66068321
0.26411772 -0.40694776 0.65592581
0.26353967 -0.39463091 0.65278828
0.26292738 -0.38682857 0.64940906
0.26292244 -0.37781572 0.64947677
0.26378813 -0.37130204 0.65443778
0.26523513 -0.34792659 0.66284239
0.26473197 -0.33344507 0.66013175
0.26421374 -0.32411072 0.65728766
0.26304439 -0.31694257 0.65074831
0.26270205 -0.30671403 0.64890289
0.26260066 -0.2888895 0.64847434
0.26329353 -0.27937472 0.65245587
0.26312852 -0.25954425 0.65166736
0.26363945 -0.24200702 0.65466666
0.2639735 -0.21559629 0.65671277
0.51623344 1.7038012 2.0889773
0.49149609 1.6709198 1.9487028
0.47150648 1.6648352 1.8353779
0.45229435 1.6567805 1.7264653
0.42908952 1.6855512 1.5949639
0.41278696 1.6901431 1.5025685
0.39712417 1.6962837 1.4138048
0.38263837 1.7125994 1.3317244
0.35350245 1.5054264 1.166438
0.34188232 1.5372007 1.1006244
0.32856634 1.5389664 1.0251788
0.31447867 1.5185274 0.94534671
0.29705521 1.5631484 0.84666944
0.28394249 1.5513326 0.77237463
0.27145043 1.5525934 0.70160776
0.25916308 1.5592594 0.63200569
0.24674658 1.5544705 0.56166673
0.23462488 1.5791526 0.49301425
0.22223713 1.5543995 0.42283109
0.20378387 1.5636246 0.3183071
0.19159846 1.5527128 0.24928007
0.17914069 1.5572491 0.17871587
0.16675445 1.5532978 0.10855427
0.15360042 1.5694039 0.034047391
0.15204009 1.2874122 0.025165586
0.13782346 1.3504988 -0.055345964
0.12306082 1.2940767 -0.13895971
0.096415691 1.5268233 -0.28988686
0.14403184 0.71006507 -0.020132801
0.13686119 0.64107352 -0.060690511
0.12473102 0.68798542 -0.12937377
0.15249886 0.20529746 0.02814411
0.14600173 0.14114182 -0.0084955757
0.14590934 0.099488221 -0.0089425156
0.14588983 0.060867283 -0.0089748716
0.1461253 0.023698878 -0.007560493
0.14599037 -0.0083901631 -0.0082448032
0.14614849 -0.039916255 -0.0072667534
0.14568904 -0.066117138 -0.009789234
0.14478695 -0.088755831 -0.014820652
0.14584383 -0.11926479 -0.0087449765
0.14548628 -0.14181687 -0.010688205
0.14573927 -0.1657587 -0.0091692517
0.14589211 -0.18813306 -0.0082178283
0.14592019 -0.20907098 -0.0079734959
0.1459541 -0.22918215 -0.0076958654
0.14588417 -0.27597225 -0.0078782868
0.14543866 -0.29277769 -0.010318919
0.14493936 -0.30920252 -0.013064595
0.14570798 -0.32766205 -0.0086199138
0.14559829 -0.344064 -0.0091561321
0.14576314 -0.36056447 -0.0081355078
0.14569327 -0.37646624 -0.0084460527
0.14551686 -0.39991269 -0.0093182633
0.14534698 -0.41536433 -0.010196426
0.14561781 -0.43094251 -0.0085752141
0.14546327 -0.44624427 -0.0093667777
0.14505436 -0.4615646 -0.011601598
0.14560632 -0.47685036 -0.0083862422
0.14988662 -0.49044481 0.015977943
0.1531979 -0.50295979 0.034846134
0.15467851 -0.51570505 0.043329954
0.15469012 -0.52946281 0.043480251
0.15478745 -0.5432753 0.044116408
0.1546343 -0.5576086 0.043331143
0.15474601 -0.57909846 0.044089396
0.15482731 -0.59374541 0.044632971
0.15468156 -0.60921186 0.043887727
0.15514095 -0.63157988 0.046615589
0.1551047 -0.64787126 0.046489786
0.15610592 -0.66155845 0.052250672
0.14381637 -0.71955794 -0.017414913
0.14449911 -0.74912709 -0.013429519
0.14442632 -0.77186209 -0.013770597
0.14412205 -0.79676765 -0.015427145
0.1438939 -0.82278609 -0.016653612
0.14481179 -0.8583504 -0.011343676
0.14475301 -0.88738108 -0.011613928
0.14399208 -0.92265153 -0.015873678
0.14368576 -0.95797497 -0.017555794
-0.030152906 -2.3164504 -1.0047716
-0.030588128 -2.4597437 -1.0073131
-0.031226126 -2.6194551 -1.0110258
-0.004045398 -2.6232579 -0.85675633
0.013051415 -2.6270475 -0.75971848
0.047025155 -2.6157975 -0.56687164
0.063089237 -2.6099694 -0.4756828
0.21484578 -2.5912588 0.3857958
0.25336081 -2.574532 0.60444802
0.26629633 -2.5747414 0.67791772
0.27902958 -2.5634184 0.75023764
0.2920132 -2.5593617 0.82396847
0.65142763 -7.6411347 2.8562431
0.54833686 -4.8949094 2.2752895
0.71554774 -6.2914219 3.2220242
0.71630323 -5.818686 3.2270195
0.72232652 -5.4562144 3.2617495
0.73279655 -5.1736059 3.3215966
0.73746067 -4.8673577 3.3485422
0.72761691 -4.4745708 3.2933102
0.7276054 -4.1938643 3.2937
0.70407814 -3.6610463 3.1610773
0.74032497 -3.6681044 3.3667524
0.73432446 -3.4175525 3.3331299
0.72798604 -3.1843798 3.2975671
0.72341275 -2.9771698 3.2719817
0.7216996 -2.7972455 3.2625828
0.72343546 -2.6428156 3.2727137
0.70188737 -2.3306489 3.1510193
0.73292321 -2.3048997 3.3271747
0.72508562 -2.1388359 3.2830153
0.71941161 -1.9890234 3.2511063
0.71677232 -1.8554124 3.2363882
0.71472317 -1.7288134 3.225008
0.71062988 -1.6021285 3.2020321
0.7136997 -1.4398332 3.2197695
0.71264774 -1.3284149 3.2140217
0.71236473 -1.2209406 3.21263
0.71409321 -1.1182315 3.2226398
0.66932166 -0.9643935 2.9689653
0.69967723 -0.89905047 3.1412985
0.71062028 -0.80853885 3.2035542
0.70681441 -0.65776366 3.1822646
0.7031616 -0.55894053 3.1617403
0.69700003 -0.46181172 3.1269832
0.27633509 -0.42188883 0.74135357
0.26424727 -0.41681162 0.67292053
0.26256323 -0.41410068 0.66341245
0.26137605 -0.40234083 0.65681338
0.25986606 -0.38713807 0.64842725
0.26002741 -0.37781638 0.6494332
0.25998676 -0.36392862 0.64933819
0.26124257 -0.35088605 0.65655506
0.26207739 -0.33812705 0.66138345
0.2613253 -0.32411224 0.65725231
0.26059711 -0.32100657 0.65316552
0.26014161 -0.31129146 0.65067172
0.25996107 -0.29409307 0.64978445
0.26000017 -0.28122312 0.65009856
0.25985458 -0.26151398 0.64941084
0.26037902 -0.24405481 0.65248096
0.26001108 -0.22207208 0.65053302
0.52462858 1.7080694 2.1532876
0.49885443 1.6730417 2.0071266
0.47070625 1.6830212 1.8475672
0.45165896 1.6779345 1.7395854
0.43472141 1.6851932 1.6435796
0.41773984 1.6856518 1.547318
0.40109628 1.6828529 1.4529705
0.38649583 1.6988714 1.3702257
0.35783455 1.510468 1.2075719
0.34513479 1.5267426 1.1356087
0.32586193 1.5427754 1.0263896
0.3151634 1.5957872 0.96580124
0.30028927 1.5553168 0.88146144
0.28711525 1.5438403 0.80678511
0.27374738 1.5137578 0.73099643
0.26240772 1.5552393 0.66675925
0.25009006 1.5586731 0.59694844
0.23164541 1.5601647 0.49240899
0.2193784 1.5544016 0.42287803
0.20713507 1.5561763 0.35348511
0.19489504 1.5534899 0.28410769
0.18241782 1.5622671 0.21339045
0.16990221 1.5645078 0.14245072
