# .PCD v0.7 - Point Cloud Data file format
VERSION 0.7
FIELDS x y z
SIZE 4 4 4
TYPE F F F
COUNT 1 1 1
WIDTH 1375
HEIGHT 1
VIEWPOINT 0 0 0 1 0 0 0
POINTS 1375
DATA ascii
-0.15157071 -0.12081142 0.24429332
-0.15429184 -0.13419574 0.22900468
-0.15598822 -0.14378028 0.21948084
-0.15780945 -0.15199995 0.20924746
-0.15978371 -0.15895976 0.19814473
-0.16193776 -0.16477638 0.18602088
-0.16486576 -0.16580483 0.16950095
-0.16980731 -0.16601047 0.14160134
-0.19592004 -0.055232432 -0.0065342388
-0.19625914 -0.081189521 -0.0083427802
-0.19610894 -0.10802514 -0.0073735812
-0.19600625 -0.1331117 -0.0066753081
-0.19583684 -0.15713303 -0.0055990042
-0.19605319 -0.17848991 -0.0067139864
-0.19625346 -0.19903283 -0.0077383299
-0.19584374 -0.22075084 -0.0052997256
-0.19670859 -0.24733879 -0.010042612
-0.19639368 -0.26687458 -0.0081437239
-0.19658044 -0.28451252 -0.0090932855
-0.19648419 -0.30231962 -0.0084366444
-0.19643138 -0.31955278 -0.0080268737
-0.19626361 -0.33656067 -0.0069647846
-0.19632024 -0.35283497 -0.0071767513
-0.19627282 -0.36897084 -0.0067984229
-0.19629398 -0.38477305 -0.0068094102
-0.19657192 -0.40795481 -0.0082236081
-0.19652376 -0.42343745 -0.0078414185
-0.1965543 -0.43877542 -0.0079060365
-0.19666524 -0.45405433 -0.0084269773
-0.19685709 -0.46936008 -0.0094071468
-0.19660936 -0.48462093 -0.0078924857
-0.19678842 -0.50004631 -0.0087998528
-0.19687898 -0.52335119 -0.0091506019
-0.19681942 -0.53897053 -0.0087035839
-0.1970025 -0.55504942 -0.0096333418
-0.19708267 -0.57128757 -0.0099789472
-0.19739184 -0.5882147 -0.011623801
-0.19698596 -0.61275965 -0.0091561535
-0.19717731 -0.63048732 -0.010131699
-0.1974051 -0.64885634 -0.011313625
-0.19750182 -0.66751105 -0.011751522
-0.19792826 -0.6877836 -0.014059473
-0.19775115 -0.71719563 -0.012886778
-0.19808903 -0.73937356 -0.014690834
-0.19767393 -0.7597447 -0.012222836
-0.19794707 -0.78380132 -0.013658124
-0.19843009 -0.81015986 -0.016282892
-0.19767612 -0.84548837 -0.011832403
-0.19773582 -0.87362063 -0.012053508
-0.19791347 -0.90434247 -0.012942285
-0.1974169 -0.9499386 -0.0099454783
-0.19755672 -0.98643279 -0.010615486
-0.37526441 -2.4042518 -1.017985
-0.36925143 -2.5801506 -0.9835887
-0.36945221 -2.7499928 -0.98451024
-0.36388782 -2.8824909 -0.95274013
-0.33295777 -2.7549155 -0.77720058
-0.29794329 -2.7466223 -0.5783006
-0.27492592 -2.7658851 -0.44751555
-0.25880474 -2.760339 -0.35593349
-0.12161962 -2.7415712 0.42349648
-0.10779203 -2.7461576 0.5020662
-0.094076879 -2.7339807 0.57998592
-0.07299456 -2.7463388 0.69978166
-0.059224024 -2.734148 0.7779848
0.20376277 -4.8822699 2.2722809
0.3640002 -6.4669476 3.1827037
0.36662069 -5.986866 3.1973002
0.36405766 -5.5135255 3.1824901
0.4026629 -5.2989058 3.4014969
0.40002534 -4.9201899 3.3863325
0.38776743 -4.5034738 3.3165543
0.39378422 -4.2645354 3.3505969
0.35417396 -3.7303448 3.1255345
0.38447767 -3.7016776 3.2975359
0.39420015 -3.4349008 3.3526239
0.38829511 -3.2024527 3.3190269
0.38298082 -2.9899356 3.2887967
0.38207665 -2.8126006 3.2836154
0.38187549 -2.6484289 3.282433
0.3750577 -2.4660656 3.2436945
0.37699988 -2.327863 3.2546933
0.38440061 -2.1453307 3.2966719
0.37820265 -1.9931958 3.2614734
0.37329307 -1.852677 3.2335942
0.36968496 -1.7221451 3.2131069
0.36849171 -1.6026583 3.2063303
0.36629695 -1.4848696 3.1938727
0.36707938 -1.3764783 3.1983154
0.37052557 -1.2212676 3.2178802
0.37178114 -1.1177132 3.2250125
0.35313559 -0.99305028 3.1192067
0.33069363 -0.87406069 2.9918633
0.3704648 -0.80928493 3.2175717
0.3660441 -0.7069084 3.1924984
0.36099049 -0.60673612 3.163836
0.35608852 -0.46088406 3.1360445
0.3547489 -0.36494806 3.1284609
-0.065141268 -0.42699724 0.74605733
-0.066428892 -0.41640154 0.73882061
-0.065741278 -0.39833504 0.74282569
-0.066340074 -0.38725996 0.73949748
-0.077454746 -0.38763905 0.67654365
-0.078932837 -0.38054964 0.66822857
-0.080849014 -0.36524111 0.65749919
-0.081628919 -0.35739166 0.65314555
-0.08249522 -0.34484205 0.6483373
-0.08240141 -0.33945492 0.64890486
-0.082576759 -0.32951787 0.64798075
-0.083267413 -0.31555572 0.64416885
-0.083192997 -0.30378547 0.64466125
-0.083214872 -0.29180726 0.64460731
-0.074222341 -0.11878581 0.69608432
-0.076967746 -0.1141047 0.68058133
-0.081923261 -0.057084575 0.65270698
-0.081965648 -0.022693619 0.65252835
0.0172711 1.5311369 1.2151647
0.0047464329 1.5523623 1.1441736
-0.028617887 1.5573393 0.95507121
-0.041425817 1.5623031 0.88248098
-0.05434496 1.559689 0.80926317
-0.066888623 1.5632622 0.7381736
-0.079498433 1.5593076 0.66671199
-0.091977313 1.5537683 0.59599411
-0.11052451 1.5312262 0.49089423
-0.12261729 1.5604243 0.42235443
-0.13493477 1.5681701 0.35254824
-0.14726175 1.5664381 0.28269207
-0.15941994 1.5532752 0.21379815
-0.17190765 1.5565232 0.14302874
-0.19016299 1.5379065 0.039585695
-0.2032254 1.5474654 -0.034446035
-0.14552088 -0.058359165 0.29371884
-0.14836513 -0.07790941 0.27770457
-0.1500096 -0.09249077 0.26845682
-0.15172945 -0.10453026 0.25878057
-0.15349479 -0.11501636 0.24884562
-0.1551688 -0.12576617 0.23942886
-0.15692924 -0.13504174 0.22952129
-0.15871155 -0.14376871 0.21948941
-0.16052943 -0.15198785 0.20925553
-0.16250044 -0.15894705 0.19815241
-0.16577435 -0.1674732 0.17969649
-0.16870537 -0.16883908 0.16314498
-0.17347929 -0.16024114 0.13613491
-0.19813 -0.05793431 -0.0036346877
-0.19958824 -0.091433525 -0.011781097
-0.19933635 -0.11813962 -0.0102664
-0.19941887 -0.14192359 -0.010649968
-0.19916467 -0.16586533 -0.0091232983
-0.1994521 -0.18665054 -0.010670518
-0.19913124 -0.20867816 -0.0087664677
-0.19894543 -0.22928938 -0.0076292688
-0.19891663 -0.24862932 -0.0073832693
-0.1989062 -0.26725748 -0.0072418214
-0.19876398 -0.28561223 -0.0063528568
-0.19881949 -0.30297998 -0.0065861144
-0.19934797 -0.32747927 -0.0094624963
-0.19912215 -0.34443247 -0.0081000486
-0.19912322 -0.36067441 -0.0080251507
-0.19919124 -0.37657663 -0.0083303051
-0.1991597 -0.39237684 -0.0080707949
-0.19920224 -0.40793291 -0.0082316659
-0.19914922 -0.42341575 -0.0078505753
-0.19917493 -0.43875393 -0.0079162745
-0.19929937 -0.46167713 -0.0085022291
-0.19929452 -0.46932122 -0.0084348079
-0.19931425 -0.49230006 -0.0084270621
-0.19944113 -0.50777411 -0.0090672038
-0.1996446 -0.5234701 -0.010141936
-0.19957906 -0.53912419 -0.009690606
-0.19975598 -0.55523747 -0.010614877
-0.19949199 -0.5791806 -0.0089983549
-0.19957711 -0.59587538 -0.009401965
-0.19971578 -0.61306608 -0.010109495
-0.19989984 -0.63082671 -0.011074507
-0.19996028 -0.64883727 -0.011338302
-0.19973506 -0.67604011 -0.0099422717
-0.20024236 -0.69688243 -0.012740999
-0.20058779 -0.71817756 -0.014621615
-0.20091376 -0.74041539 -0.016391726
-0.20042786 -0.77198201 -0.013517119
-0.2000391 -0.79387844 -0.011233084
-0.20082588 -0.82227808 -0.015617164
-0.20044127 -0.84678358 -0.0133566
-0.19985335 -0.88611227 -0.0099034021
-0.20327739 -0.93716389 -0.029246554
-0.20140643 -0.95958489 -0.018554946
-0.37442312 -2.311357 -0.99976683
-0.37358558 -2.4439862 -0.99492913
-0.3748306 -2.607445 -1.0019035
-0.37631452 -2.7914853 -1.0102322
-0.35216492 -2.7421114 -0.87316889
-0.32768476 -2.7686512 -0.73418862
-0.30970857 -2.7602091 -0.6321432
-0.29283366 -2.7575302 -0.53634524
-0.27678087 -2.7593124 -0.44521102
-0.26147985 -2.7669261 -0.35834128
-0.11687396 -2.7492235 0.46265319
-0.10303904 -2.7454209 0.54120153
-0.089029312 -2.7527857 0.62074155
-0.075227253 -2.7423921 0.69912952
-0.054379195 -2.7314773 0.81750524
0.36915612 -6.283361 3.2207212
0.38071766 -5.9272871 3.2863626
0.38616219 -5.5497169 3.3173058
0.38197362 -5.1243734 3.293606
0.39223093 -4.8689365 3.3518555
0.38053459 -4.4607377 3.2855713
0.39200962 -4.1314039 3.3507652
0.35991696 -3.6677442 3.1687863
0.3947866 -3.6657314 3.3666565
0.38870016 -3.4145319 3.3322022
0.38035938 -3.1705365 3.2849612
0.37771222 -2.9736662 3.2700186
0.37642062 -2.7957401 3.2627661
0.38526362 -2.5928476 3.3130403
0.35769036 -2.3331621 3.156708
0.38624623 -2.2981787 3.3187664
0.37885457 -2.1339576 3.2769148
0.37410289 -1.9872153 3.2500389
0.36882794 -1.8462225 3.2201955
0.36904499 -1.667156 3.2215452
0.36809233 -1.5496919 3.2162209
0.36616272 -1.4337699 3.2053554
0.36675906 -1.3258069 3.2088189
0.36799237 -1.2208624 3.2158957
0.36974096 -1.1180493 3.2258961
0.32585248 -0.96513915 2.9770248
0.36051059 -0.90337503 3.1737022
0.36729154 -0.75866663 3.2122915
0.34574246 -0.65038508 3.0901396
0.35751629 -0.55793214 3.1570101
0.35327753 -0.46098647 3.1330509
0.35210028 -0.36511883 3.1264582
-0.068038449 -0.42154086 0.74344569
-0.069187261 -0.41098714 0.73701084
-0.06851951 -0.39873853 0.74088049
-0.068272278 -0.38660571 0.74236482
-0.080303334 -0.38346639 0.67428207
-0.081802927 -0.37655827 0.66585743
-0.082682773 -0.36871544 0.6609484
-0.083605081 -0.36111602 0.65579855
-0.083922982 -0.35700303 0.65403628
-0.084439918 -0.34843531 0.65118599
-0.08508943 -0.33500063 0.64762491
-0.085726827 -0.32110825 0.64413267
-0.08589673 -0.31055501 0.64325136
-0.086007454 -0.29930857 0.64270586
-0.086071394 -0.28730524 0.64242589
-0.076381221 -0.1164727 0.69794393
-0.082808889 -0.073127791 0.66177696
-0.083814904 -0.051039089 0.65615582
-0.083572872 -0.012997502 0.65761662
0.035240013 1.7146895 1.3320404
0.0091352612 1.5532495 1.1840272
-0.018160153 1.5544386 1.0293734
-0.031443853 1.5534525 0.9541111
-0.044116184 1.5613073 0.88231844
-0.056769088 1.5665407 0.81063563
-0.075965546 1.557631 0.7018773
-0.088155665 1.5712614 0.63282144
-0.10067988 1.5634979 0.56186676
-0.11298081 1.5671904 0.49218091
-0.1252965 1.5674112 0.42241085
-0.13759992 1.5651602 0.35270998
-0.15611334 1.5646316 0.24782889
-0.16847208 1.561165 0.17781438
-0.18060835 1.5472981 0.10905971
-0.19276208 1.5349541 0.040206388
-0.20569441 1.5416125 -0.033059072
-0.14911427 -0.06355682 0.28777447
-0.15059151 -0.082588486 0.27947339
-0.15234363 -0.095263533 0.26961452
-0.15412048 -0.10635418 0.25961572
-0.15587524 -0.11680966 0.24974225
-0.15762307 -0.1266522 0.23990826
-0.15946819 -0.13505325 0.22952278
-0.16221562 -0.14743242 0.21405929
-0.16400886 -0.15583165 0.203968
-0.16606614 -0.16219871 0.19237955
-0.16865131 -0.16518705 0.1777976
-0.17171377 -0.16587864 0.16050918
-0.20178284 -0.06623318 -0.0097708749
-0.20135164 -0.095300004 -0.0072502117
-0.20148574 -0.11999711 -0.0079349829
-0.20141543 -0.14428522 -0.007460292
-0.20128986 -0.16755372 -0.0066720368
-0.20141904 -0.18878108 -0.0073283198
-0.2013852 -0.20968959 -0.0070600095
-0.20204353 -0.23741931 -0.010678634
-0.20131321 -0.2490797 -0.0064985142
-0.20188226 -0.27531189 -0.00961057
-0.20184338 -0.29325777 -0.0093132798
-0.20168129 -0.31095254 -0.0083171437
-0.2017311 -0.32778457 -0.0085228197
-0.20167056 -0.34444579 -0.0081025548
-0.20133257 -0.36113739 -0.0061087073
-0.20156792 -0.37678093 -0.0073666056
-0.20153472 -0.39254698 -0.0071014725
-0.20157583 -0.40806869 -0.0072577782
-0.20180543 -0.43106857 -0.0084448475
-0.20178409 -0.44640577 -0.0082471287
-0.20184335 -0.46169195 -0.0085066548
-0.20180996 -0.476978 -0.00824067
-0.20203035 -0.49238527 -0.0094142333
-0.20250151 -0.50810379 -0.012010371
-0.20201451 -0.5233463 -0.0091718696
-0.20205085 -0.54698449 -0.0092639597
-0.20319203 -0.56449711 -0.015661277
-0.2023671 -0.57971501 -0.010906402
-0.20228222 -0.59618449 -0.010349488
-0.20227961 -0.62175912 -0.010221872
-0.20224164 -0.63925731 -0.0099315997
-0.20208341 -0.65692729 -0.0089594312
-0.20289494 -0.67781186 -0.013488729
-0.20293052 -0.69736975 -0.013616717
-0.20263661 -0.72693944 -0.011839228
-0.20303322 -0.7498095 -0.014016284
-0.20281698 -0.77142662 -0.012717059
-0.20298506 -0.79570299 -0.013598804
-0.2027881 -0.83258402 -0.012374682
-0.2025699 -0.85848987 -0.011066464
-0.20300248 -0.88960564 -0.013451405
-0.20362975 -0.92423254 -0.016942082
-0.37909764 -2.199317 -1.0124874
-0.3784644 -2.323209 -1.0088665
-0.37968469 -2.4731457 -1.0157695
-0.37373272 -2.6592388 -0.98197037
-0.37447917 -2.8439913 -0.98620164
-0.34754059 -2.7638872 -0.83330536
-0.32921314 -2.7588787 -0.72927952
-0.31224766 -2.7620509 -0.63298178
-0.29495311 -2.7538762 -0.53481311
-0.27165467 -2.7659149 -0.40256312
-0.13309228 -2.7472579 0.38403717
-0.11923473 -2.752239 0.46270448
-0.10540818 -2.7454355 0.54120111
-0.091503158 -2.7458255 0.62013936
-0.084659144 -2.7389967 0.65906227
-0.070442714 -2.7480516 0.7397998
-0.056732263 -2.7324715 0.81767756
0.1872227 -4.9283543 2.2012424
0.36075151 -6.2096405 3.1853139
0.3712661 -5.8486867 3.2452054
0.37397325 -4.8975053 3.2611768
0.39075434 -4.713954 3.3565342
0.38366136 -4.359066 3.3165243
0.38584036 -4.1041842 3.3290701
0.35868055 -3.6752675 3.1752493
0.38944528 -3.6474278 3.3498619
0.37942356 -3.3749201 3.2931962
0.3748951 -3.154151 3.2676702
0.3784169 -2.9016001 3.2878587
0.37904915 -2.7364202 3.2915819
0.37943658 -2.5787253 3.2939117
0.35421184 -2.3292322 3.1509874
0.38200653 -2.2918038 3.3087375
0.37441778 -2.1274431 3.2658195
0.37150916 -1.9232508 3.2494957
0.36918396 -1.7930437 3.2364187
0.36590165 -1.6655797 3.2179101
0.36461112 -1.5475293 3.2106946
0.36365014 -1.4337571 3.2053454
0.3640773 -1.3255024 3.2078662
0.3646355 -1.2195576 3.2111275
0.36878714 -1.0678484 3.2348125
0.32511607 -0.92013699 2.9872174
0.37076455 -0.8638587 3.2462041
0.36217713 -0.75709325 3.1975844
0.34356195 -0.65051687 3.0920889
0.3523885 -0.55740488 3.1422298
0.35127413 -0.46097946 3.1359875
-0.070798509 -0.42167169 0.74246103
-0.071773328 -0.4052622 0.73705578
-0.071313709 -0.39312065 0.73974437
-0.080755614 -0.38984281 0.68631852
-0.083059713 -0.38376775 0.67333299
-0.084557734 -0.37689281 0.66491896
-0.085273527 -0.36872414 0.66094089
-0.085890539 -0.36526832 0.65748233
-0.086844146 -0.35293052 0.65219581
-0.087232165 -0.34396034 0.65007603
-0.08792638 -0.33054474 0.64625973
-0.088169739 -0.3205865 0.64495957
-0.088342518 -0.31000397 0.64405936
-0.088315696 -0.29814088 0.64429057
-0.079800755 -0.11008148 0.69317096
-0.082865924 -0.1205208 0.67583078
-0.085193887 -0.071438923 0.66280794
-0.085686758 -0.044117425 0.66008067
-0.086797796 -0.0008926586 0.65387928
0.033083633 1.7174424 1.33315
-0.0070121065 1.5544024 1.1059425
-0.021089613 1.5439101 1.0261672
-0.039936919 1.5625523 0.91935545
-0.052699622 1.5671775 0.84702939
-0.065622866 1.5622633 0.77379793
-0.078322344 1.5576241 0.70183557
-0.090853572 1.5523589 0.6308279
-0.10301755 1.5644894 0.56189322
-0.12148846 1.566105 0.45722488
-0.13376701 1.558091 0.38765216
-0.14610371 1.5656012 0.31774029
-0.15843368 1.563632 0.24787244
-0.17091021 1.5661246 0.1771706
-0.18283147 1.5433455 0.10963443
-0.19525747 1.5398607 0.039223377
-0.21467212 1.5468111 -0.070800461
-0.15128398 -0.070177488 0.29000738
-0.15297276 -0.085391261 0.28052014
-0.15470991 -0.098026805 0.27075711
-0.15654512 -0.10816837 0.2604363
-0.15941437 -0.12081401 0.24429324
-0.16121514 -0.12994622 0.23416753
-0.16294399 -0.13937768 0.22445025
-0.16479349 -0.14743288 0.21404773
-0.16669017 -0.1550229 0.20337753
-0.16886024 -0.16062279 0.19115524
-0.17235948 -0.16806501 0.17143677
-0.17590202 -0.16618434 0.15142456
-0.2033858 -0.042805661 -0.0044353325
-0.20331481 -0.071581259 -0.003927934
-0.2035218 -0.097223967 -0.0049991403
-0.20467545 -0.12948385 -0.011392573
-0.20466769 -0.15310146 -0.011246274
-0.20372872 -0.16810812 -0.0058666165
-0.20438333 -0.19798544 -0.0094295954
-0.20443314 -0.21831046 -0.0096114045
-0.20433137 -0.2383213 -0.0089333011
-0.20408185 -0.25798216 -0.0074171443
-0.2041681 -0.27608687 -0.0078063193
-0.20396668 -0.29432595 -0.0065634525
-0.20413071 -0.31127134 -0.0073941522
-0.20401663 -0.32836205 -0.0066469922
-0.20430738 -0.35257694 -0.0081464984
-0.2041274 -0.36090535 -0.0070754723
-0.20428084 -0.38458359 -0.0077955569
-0.20437494 -0.40016887 -0.0082290033
-0.20437314 -0.41569072 -0.0081181275
-0.20427626 -0.43112963 -0.007467886
-0.20443238 -0.44639704 -0.0082522435
-0.20466961 -0.46168318 -0.009496239
-0.20459113 -0.48465836 -0.0088982983
-0.20459592 -0.50003129 -0.0088230344
-0.20485173 -0.51567101 -0.010170745
-0.20466711 -0.53113943 -0.0090204487
-0.20472884 -0.54697412 -0.0092665097
-0.20553705 -0.56403607 -0.013744339
-0.20486194 -0.58764857 -0.0097583029
-0.20473072 -0.60413885 -0.0089078574
-0.20498152 -0.62174761 -0.010222376
-0.20527147 -0.6399951 -0.011757611
-0.21302009 -0.68821472 -0.055512343
-0.20495795 -0.68549895 -0.0097048208
-0.204789 -0.70457095 -0.0086349016
-0.20552303 -0.72744167 -0.012680721
-0.20592432 -0.75034106 -0.014838859
-0.20505062 -0.7808485 -0.00971126
-0.20569056 -0.80768347 -0.013216365
-0.20582899 -0.83385581 -0.013877397
-0.20629767 -0.89237022 -0.016276831
-0.20538875 -0.93413526 -0.010929252
-0.37878576 -2.3690245 -0.99200368
-0.37957704 -2.5204124 -0.99616498
-0.38100287 -2.6935873 -1.0038894
-0.38079828 -2.8713815 -1.0023563
-0.35029563 -2.7568505 -0.82942033
-0.32635593 -2.7870002 -0.69343561
-0.30764011 -2.7666731 -0.58720928
-0.27457345 -2.7574279 -0.39946565
-0.17851587 -2.7554209 0.14603674
-0.13659826 -2.7482495 0.38409033
-0.12273395 -2.7562325 0.46284482
-0.073970921 -2.7470648 0.73972881
-0.052992135 -2.7359324 0.85877913
0.18222451 -4.9163561 2.1965432
0.36116511 -6.0191374 3.2131252
0.37592584 -5.7227359 3.296386
0.39467549 -5.4942908 3.4023798
0.37702504 -4.9604926 3.3014879
0.3818326 -4.6731014 3.3283427
0.37868762 -4.3503814 3.3100529
0.37446883 -4.0498929 3.2857156
0.3739273 -3.6847975 3.2821658
0.38678706 -3.5433936 3.3549294
0.37896535 -3.2917655 3.3102551
0.3731356 -3.0699806 3.2769268
0.37297109 -2.891422 3.2757921
0.37400737 -2.7285237 3.2814939
0.3749603 -2.5735428 3.2867379
0.3624846 -2.3024831 3.2157063
0.37900653 -2.221957 3.309351
0.37131456 -2.0609231 3.2655778
0.36648625 -1.9174596 3.2380714
0.36416364 -1.7876607 3.2247965
0.36136389 -1.6617831 3.2088244
0.3595967 -1.5429823 3.1987202
0.36298874 -1.3831747 3.2178602
0.3622742 -1.273649 3.2137451
0.36387146 -1.1699009 3.222749
0.36600265 -1.067963 3.234786
0.32235795 -0.92024201 2.9871919
0.3654477 -0.86189061 3.2315483
0.35859767 -0.75668705 3.1926606
0.35541517 -0.60752195 3.1745639
0.34923625 -0.50924486 3.1394975
0.34836844 -0.41303197 3.1345532
-0.074010156 -0.41630542 0.73976308
-0.07467524 -0.40544921 0.73607337
-0.07404425 -0.39313421 0.73973185
-0.083993547 -0.39063126 0.68345267
-0.086210959 -0.37966073 0.67100853
-0.088306926 -0.36452964 0.65929663
-0.088775031 -0.36074468 0.65668571
-0.089771174 -0.34845483 0.65116686
-0.090190038 -0.33949259 0.6488778
-0.090930894 -0.32610118 0.64480644
-0.090765901 -0.3200677 0.6457839
-0.091417857 -0.30554426 0.6422165
-0.091431476 -0.29365084 0.64222395
-0.086971425 -0.11853122 0.6681909
-0.088609383 -0.062116507 0.65910745
-0.089218363 -0.03474284 0.65573388
-0.088926844 0.0062212422 0.65745771
-0.0023638408 1.5616831 1.1476295
-0.016121857 1.5614085 1.0697429
-0.030103076 1.5504183 0.9905979
-0.04280027 1.5596112 0.91872144
-0.055486776 1.5661728 0.84690785
-0.068418242 1.5612555 0.77371246
-0.087240174 1.5622441 0.6671772
-0.099646255 1.5636946 0.5969584
-0.11195355 1.5696313 0.52729785
-0.12434205 1.5580997 0.45718616
-0.1366429 1.5690864 0.38756081
-0.14897044 1.5666009 0.31779131
-0.16133603 1.5656292 0.24780573
-0.17965893 1.5495903 0.1441129
-0.19184297 1.5384895 0.075161859
-0.20431325 1.5347328 0.0045852158
-0.21769413 1.5487742 -0.071160771
-0.15194227 -0.061883051 0.30239856
-0.15503919 -0.077287011 0.28499523
-0.15678653 -0.090749353 0.27519259
-0.15861282 -0.10168765 0.26494125
-0.16041483 -0.11199529 0.25482711
-0.16220777 -0.12169298 0.24476404
-0.16400643 -0.1308077 0.23466809
-0.16591722 -0.13852476 0.22393593
-0.16863354 -0.15117486 0.20868735
-0.17051008 -0.15895227 0.198149
-0.17288488 -0.16321315 0.18478499
-0.17559753 -0.16579342 0.1695053
-0.17951362 -0.16178793 0.14740184
-0.20732872 -0.051786084 -0.010107717
-0.20729384 -0.079840608 -0.009805195
-0.20701474 -0.10735922 -0.008118961
-0.20705286 -0.13187191 -0.0082322704
-0.2070311 -0.15537661 -0.0080069294
-0.20711069 -0.17736478 -0.0083568888
-0.20701829 -0.19899677 -0.0077323928
-0.2070622 -0.21926127 -0.0078814812
-0.20679991 -0.23966441 -0.006295159
-0.2071529 -0.26683906 -0.0081484746
-0.20733817 -0.28447703 -0.0091008069
-0.20740329 -0.3019425 -0.0093724979
-0.20718534 -0.31951779 -0.0080400379
-0.2071825 -0.33625048 -0.0079274159
-0.20707029 -0.35280046 -0.0071953111
-0.20719081 -0.36872876 -0.0077829086
-0.20721115 -0.38456541 -0.0078030298
-0.20713256 -0.40028968 -0.0072627906
-0.20730194 -0.41567254 -0.0081286971
-0.20746672 -0.43868953 -0.0089220945
-0.20740204 -0.45402071 -0.0084620966
-0.20759176 -0.46932653 -0.0094447816
-0.20734133 -0.48458776 -0.0079327282
-0.20734501 -0.49992588 -0.0078616329
-0.20777227 -0.51565284 -0.010192129
-0.20775731 -0.53127795 -0.010016275
-0.20721315 -0.55439264 -0.0067957295
-0.20780019 -0.57125503 -0.010033812
-0.20793962 -0.5879063 -0.010734903
-0.20821294 -0.62241387 -0.012107348
-0.20794821 -0.64843351 -0.010475367
-0.21434061 -0.68396616 -0.046629455
-0.20831451 -0.68684334 -0.012379576
-0.20855488 -0.72793877 -0.013572922
-0.20777829 -0.75747633 -0.0090450821
-0.20834154 -0.78259438 -0.012156744
-0.2080756 -0.8441456 -0.010449086
-0.20864524 -0.87495452 -0.013601836
-0.20954452 -0.90996975 -0.018625919
-0.20916128 -0.93996894 -0.016378803
-0.20785175 -0.98410481 -0.0088450173
-0.38375315 -2.3881032 -1.0064747
-0.38447165 -2.5408025 -1.0105553
-0.37856707 -2.7371023 -0.97708899
-0.37920386 -2.9308276 -0.98073953
-0.3442114 -2.7636073 -0.78223819
-0.30938932 -2.7602167 -0.58472985
-0.29184324 -2.7444499 -0.4852027
-0.27042693 -2.7820096 -0.36374041
-0.11786333 -2.7482035 0.50166249
-0.083152443 -2.7404592 0.69857997
-0.069134697 -2.7381849 0.77812135
-0.055052612 -2.7340205 0.85802889
0.19627541 -4.9064932 2.2813828
0.35439518 -6.4564891 3.1764929
0.36529312 -6.0719233 3.2386544
0.37096941 -5.6783571 3.2712247
0.38039955 -5.3650975 3.3250077
0.37861589 -4.983356 3.3152816
0.38688308 -4.5694256 3.3625906
0.38713709 -4.2838764 3.364336
0.35518771 -3.8019788 3.183701
0.37430325 -3.6968975 3.2922132
0.37993351 -3.5119603 3.3243504
0.37469822 -3.2773883 3.2949386
0.37961957 -3.0211813 3.3231506
0.37561315 -2.827486 3.3006706
0.37587595 -2.6644855 3.3023641
0.37494022 -2.5048938 3.297261
0.36526984 -2.3206449 3.2426679
0.37204021 -2.2051609 3.2812083
0.36570656 -2.0499671 3.2455041
0.36567914 -1.8592108 3.2456086
0.36064458 -1.7245724 3.2172508
0.3610467 -1.6086676 3.2196929
0.35836613 -1.4893618 3.2046647
0.35931447 -1.3808825 3.210196
0.35871619 -1.2718974 3.2069609
0.36043802 -1.1686257 3.216871
0.34859073 -1.0498524 3.1498842
0.31943056 -0.87332362 2.9848497
0.36129645 -0.81027758 3.2222571
0.35581422 -0.70720083 3.1913328
0.35090765 -0.6071108 3.1636684
0.34643245 -0.50938708 3.1384466
0.34484226 -0.41327739 3.1295745
-0.076690331 -0.41619733 0.7407186
-0.077357441 -0.40530625 0.73702472
-0.076898336 -0.39316493 0.73971468
-0.08724615 -0.38632664 0.68123108
-0.088817947 -0.38409832 0.67236412
-0.091163307 -0.36455548 0.65928376
-0.091631375 -0.36077031 0.65667325
-0.092627406 -0.34847993 0.65115565
-0.093278073 -0.33504486 0.64759594
-0.093224145 -0.32958013 0.64794487
-0.093918949 -0.31561741 0.64413512
-0.09398935 -0.3044208 0.64382255
-0.094010308 -0.29247072 0.64379054
-0.086702637 -0.11957843 0.68589991
-0.090396643 -0.11016172 0.66508734
-0.089826964 -0.077466354 0.66841239
-0.090946011 -0.056995366 0.66215974
-0.092749923 -0.023637746 0.65207136
-0.0063788807 1.5475507 1.1426843
-0.020101661 1.5461576 1.06498
-0.033268474 1.5494264 0.99042898
-0.052182849 1.5651419 0.88334501
-0.065197706 1.560594 0.80965155
-0.077949077 1.5572668 0.73745203
-0.090428703 1.5582538 0.66679478
-0.10289738 1.5537143 0.59619713
-0.11545595 1.5246766 0.52507877
-0.12742527 1.5610847 0.45733014
-0.14588369 1.5661422 0.35282549
-0.15809956 1.5554429 0.28365809
-0.17052938 1.5602214 0.21328509
-0.18239108 1.5357196 0.14611922
-0.19499987 1.5414377 0.074732326
-0.20744692 1.5366844 0.0042576939
-0.15581016 -0.066941828 0.29646677
-0.15754884 -0.081995904 0.28668556
-0.15939362 -0.093541279 0.27630457
-0.16126972 -0.10352507 0.26574689
-0.16313291 -0.11290435 0.2552627
-0.16491646 -0.12258606 0.24522974
-0.16779779 -0.13420248 0.2290141
-0.16958654 -0.14294712 0.21895227
-0.17141086 -0.15118486 0.20868914
-0.17338848 -0.15816367 0.19755766
-0.17576502 -0.16244599 0.18416636
-0.17961146 -0.16810824 0.16248365
-0.18427512 -0.16025099 0.1361343
-0.20959675 -0.054522153 -0.0072216741
-0.20967075 -0.08181718 -0.0075714765
-0.20977928 -0.10736819 -0.0081161503
-0.2093955 -0.13368618 -0.0058706189
-0.20907302 -0.15825331 -0.0039718361
-0.21042171 -0.18611853 -0.011505466
-0.20991768 -0.22881848 -0.008503289
-0.2098904 -0.24818973 -0.0082749762
-0.20972265 -0.26725635 -0.0072503136
-0.20990153 -0.28486243 -0.0081895674
-0.22851354 -0.27416512 -0.11355146
-0.20973669 -0.31983805 -0.0071058027
-0.20972836 -0.3365376 -0.0069833556
-0.20997073 -0.39237714 -0.0080918055
-0.20995928 -0.42341647 -0.0078745
-0.20998462 -0.43875483 -0.0079416018
-0.21010363 -0.46932247 -0.0084628575
-0.21012297 -0.49230164 -0.0084571149
-0.21010906 -0.5231933 -0.0082242088
-0.21021628 -0.53895241 -0.0087547526
-0.20996428 -0.57866532 -0.0071331793
-0.21021886 -0.59558564 -0.0084987637
-0.21054569 -0.63047123 -0.010196288
-0.21076834 -0.64884049 -0.011380803
-0.21038678 -0.67560524 -0.0091017783
-0.21143587 -0.68822235 -0.015009449
-0.21142791 -0.73935908 -0.014770582
-0.21169573 -0.78555155 -0.016133863
-0.21124983 -0.84678847 -0.013412987
-0.21078682 -0.87224454 -0.010711284
-0.21432927 -0.93860704 -0.030676659
-0.21058853 -0.94918466 -0.0093948683
-0.38338181 -2.4350245 -0.98870885
-0.38467991 -2.5982635 -0.99600357
-0.38492969 -2.770221 -0.99735689
-0.36888158 -2.8000891 -0.90631789
-0.34666428 -2.760114 -0.78030396
-0.3275871 -2.7420254 -0.67209053
-0.30423233 -2.7648683 -0.53959459
-0.28818554 -2.7676947 -0.44855911
-0.27242693 -2.7688026 -0.35915667
-0.19048898 -2.7551267 0.10572571
-0.13454461 -2.7586167 0.42315078
-0.12061886 -2.7592039 0.50216496
-0.099722147 -2.7548261 0.62073249
-0.085771076 -2.7503846 0.69990873
-0.071745045 -2.7460837 0.77948135
0.18975948 -4.8594985 2.2619874
0.36736956 -6.3842206 3.2686257
0.3715449 -5.9398532 3.2923958
0.36533189 -5.4451451 3.2572913
0.38482481 -5.2458386 3.3678575
0.38736004 -4.9155684 3.3823223
0.37562335 -4.5038176 3.3159046
0.37337986 -4.2042122 3.3032825
0.352649 -3.688318 3.1859324
0.38316545 -3.6578989 3.3589613
0.38132668 -3.4317093 3.3486271
0.37269843 -3.1850626 3.299814
0.36974087 -2.9856789 3.2831368
0.36878869 -2.8085296 3.2778232
0.36979225 -2.6499648 3.2835927
0.35973331 -2.3814406 3.2267075
0.37518701 -2.2957387 3.3143673
0.371537 -2.1441615 3.2937613
0.36315879 -1.9855429 3.2463582
0.35990015 -1.8503697 3.2279689
0.35800529 -1.7244972 3.2173076
0.35745481 -1.6063459 3.2142651
0.35862595 -1.4395046 3.2210171
0.3582595 -1.3292241 3.2190163
0.35817146 -1.2218416 3.2185931
0.3590816 -1.1178036 3.2238262
0.31566671 -0.96551871 2.9778564
0.32306883 -0.87888384 3.019881
0.35807729 -0.80971831 3.2183578
0.35243112 -0.70669466 3.1864331
0.35084626 -0.55886191 3.1775613
0.34382877 -0.46118444 3.1378641
0.34213221 -0.36524713 3.1283219
-0.07820791 -0.42122778 0.74633569
-0.079530694 -0.41072652 0.73891455
-0.079015687 -0.40443701 0.74187088
-0.079463512 -0.38733381 0.73944598
-0.090090409 -0.38687959 0.67933428
-0.091741338 -0.37999836 0.67005354
-0.094136424 -0.3607724 0.65666848
-0.094455197 -0.35664329 0.6548996
-0.095331125 -0.34399861 0.65004843
-0.095778205 -0.33504725 0.64759004
-0.095572837 -0.32908237 0.64879143
-0.096269853 -0.31507513 0.64495409
-0.096832789 -0.29994261 0.64187646
-0.097028576 -0.28858286 0.6408419
-0.09085051 -0.11976217 0.67641079
-0.092565544 -0.10770606 0.66676599
-0.091817819 -0.07327459 0.67107666
-0.092781074 -0.050996829 0.66569155
-0.094717972 -0.018342081 0.65482557
0.0042852089 1.5328814 1.2160096
-0.014912833 1.5581189 1.1073191
-0.028568376 1.5562818 1.0300044
-0.041828118 1.5562857 0.95493263
-0.054604609 1.5622214 0.88259929
-0.06753704 1.5596136 0.80938298
-0.08028397 1.5562786 0.73721808
-0.092758738 1.5572587 0.6665954
-0.11131888 1.5574725 0.5615232
-0.1237611 1.5331756 0.49108741
-0.13587931 1.5543804 0.42248422
-0.14820969 1.5681317 0.35267934
-0.16051273 1.5634125 0.28303117
-0.17281003 1.5582203 0.21341567
-0.19104005 1.5403737 0.11021727
-0.20339324 1.5349476 0.040285546
-0.21625595 1.5396621 -0.03253435
-0.15940593 -0.070196912 0.29000869
-0.15988284 -0.083885603 0.28734514
-0.16289815 -0.097124949 0.27037203
-0.16473852 -0.10728026 0.26001936
-0.16656785 -0.11682881 0.24972929
-0.168401 -0.12579609 0.23941745
-0.17025243 -0.13421386 0.22900204
-0.17213607 -0.14212008 0.2184041
-0.17386593 -0.15119657 0.20867781
-0.17687167 -0.16142593 0.19175926
-0.17935124 -0.16520117 0.17778398
-0.18253161 -0.16514856 0.15983692
-0.21237083 -0.066904046 -0.0090424502
-0.21233571 -0.094016567 -0.0087643396
-0.21261527 -0.11815228 -0.010269728
-0.21227542 -0.1436993 -0.0082647223
-0.21229801 -0.16643734 -0.008313885
-0.21243452 -0.1877231 -0.0090087252
-0.21206754 -0.22977217 -0.0067716273
-0.21234791 -0.24820466 -0.0082818549
-0.21202211 -0.26767778 -0.0063568833
-0.21203811 -0.28562614 -0.0063689793
-0.23080882 -0.27450708 -0.11262587
-0.21219669 -0.31985265 -0.0071104155
-0.21256354 -0.34418803 -0.0090715019
-0.2122611 -0.3925477 -0.0071215709
-0.21253321 -0.43106899 -0.0084667867
-0.21251234 -0.44640613 -0.0082698157
-0.2125393 -0.47697821 -0.0082648275
-0.2125871 -0.49231541 -0.0084567619
-0.21257375 -0.52320689 -0.0082230484
-0.21261267 -0.54679328 -0.0083247758
-0.21276566 -0.57919657 -0.0090329908
-0.21285109 -0.59589148 -0.0094374921
-0.21397607 -0.61503655 -0.01573237
-0.21281794 -0.63888186 -0.0090503097
-0.21298054 -0.65733343 -0.0098916125
-0.21316683 -0.67649519 -0.010867028
-0.21351893 -0.696899 -0.01278163
-0.21416625 -0.71919435 -0.01636876
-0.2133417 -0.74817383 -0.011575568
-0.21356416 -0.77142519 -0.012754776
-0.21359557 -0.79509956 -0.012851236
-0.21410643 -0.82229513 -0.015663715
-0.21385331 -0.84745705 -0.014147427
-0.21325991 -0.88682479 -0.010661315
-0.21390818 -0.92135262 -0.014250685
-0.21411061 -0.95588601 -0.015313555
-0.38857546 -2.3160481 -1.0034926
-0.38832581 -2.4536586 -1.0019684
-0.3894214 -2.6165285 -1.0080613
-0.39122629 -2.8041706 -1.0181677
-0.36057949 -2.7839482 -0.84438843
-0.34140277 -2.7713039 -0.73564452
-0.32302502 -2.7583816 -0.63142812
-0.30695963 -2.7667267 -0.5403105
-0.28971395 -2.7518394 -0.44250998
-0.27512318 -2.770709 -0.35974619
-0.14401045 -2.7462814 0.38391885
-0.13011801 -2.7612658 0.4627232
-0.11625189 -2.7514606 0.54137218
-0.10229918 -2.7518415 0.62051421
-0.095182754 -2.7579341 0.66087729
-0.081507549 -2.7391865 0.73841661
-0.06719359 -2.7443411 0.8195805
0.35451311 -6.2619772 3.2099509
0.36124346 -5.8550816 3.2480457
0.37227362 -5.5386515 3.3105226
0.35817528 -5.022809 3.2306051
0.37562245 -4.8359737 3.329469
0.3774628 -4.3912268 3.3399017
0.37636709 -4.1106205 3.3337059
0.34834674 -3.6754773 3.1749525
0.37939379 -3.6491115 3.3509028
0.37480706 -3.4076593 3.3249457
0.3652789 -3.1577764 3.2709959
0.37099311 -2.9153132 3.3034379
0.3707644 -2.7452548 3.3021903
0.37178147 -2.5895207 3.3080049
0.34589118 -2.3367078 3.1613708
0.37553471 -2.3052666 3.3293831
0.36667392 -2.1356564 3.2792416
0.35916659 -1.9803737 3.2367716
0.35968021 -1.7949471 3.2397828
0.35737225 -1.6696978 3.2267776
0.35529831 -1.5495322 3.2151003
0.35320196 -1.4333177 3.2032986
0.3556253 -1.3286362 3.2171059
0.35553309 -1.2213213 3.2166631
0.35728616 -1.1184756 3.2266769
0.31351936 -0.96570837 2.978797
0.36049631 -0.86393368 3.2450783
0.35483849 -0.7589739 3.2131126
0.33343801 -0.65072078 3.0919571
0.34279352 -0.55771625 3.1450553
0.34341452 -0.46118405 3.148669
0.33945379 -0.36531919 3.1263263
-0.081171244 -0.42160115 0.74339628
-0.082321726 -0.4110471 0.73696232
-0.081312381 -0.39841682 0.7427659
-0.082155913 -0.38174129 0.7381143
-0.092953414 -0.38264516 0.67706275
-0.094625086 -0.3759627 0.66767597
-0.09522564 -0.37232047 0.66431576
-0.096438929 -0.36038959 0.65756923
-0.09691862 -0.3566514 0.65489399
-0.097283058 -0.34761336 0.652915
-0.097707652 -0.3385888 0.65059537
-0.098308936 -0.32459089 0.64731824
-0.098912373 -0.31005043 0.64402968
-0.099027485 -0.29877537 0.64346534
-0.10018016 -0.28538334 0.63706559
-0.093667343 -0.12216768 0.67463279
-0.094024256 -0.085205197 0.67275894
-0.094878465 -0.063006498 0.6680178
-0.095950156 -0.040701792 0.66204512
-0.0039808825 1.5540918 1.1844693
-0.018006289 1.551488 1.1051157
-0.031681888 1.5486193 1.0277438
-0.044770319 1.5514444 0.95370263
-0.063567504 1.5680944 0.84738338
-0.076487623 1.564176 0.77429235
-0.089291997 1.5565814 0.70185471
-0.10163949 1.5622561 0.63201529
-0.11398358 1.5664407 0.56219459
-0.12636274 1.5631477 0.4921701
-0.13867356 1.5693707 0.42254043
-0.1571881 1.5675696 0.31781462
-0.1695209 1.5636073 0.24805371
-0.1816144 1.547246 0.17963868
-0.19384785 1.5393785 0.11043791
-0.20633778 1.5378854 0.039789718
-0.21962221 1.552322 -0.035345305
-0.1611678 -0.036093969 0.29462367
-0.16170682 -0.074932978 0.29162315
-0.16349113 -0.088219538 0.28159031
-0.16534732 -0.098974474 0.27115232
-0.16717744 -0.1091013 0.26086241
-0.16907585 -0.1177282 0.25018686
-0.17090461 -0.12667903 0.23990536
-0.17383671 -0.13770659 0.22341484
-0.17559978 -0.14662826 0.21350516
-0.17750233 -0.15423776 0.20280656
-0.17967904 -0.15985805 0.19055685
-0.18228197 -0.16291115 0.17589524
-0.18662247 -0.16620535 0.15143391
-0.21480541 -0.039344471 -0.0079476777
-0.21487659 -0.067578919 -0.0082924757
-0.21456747 -0.09595041 -0.0064839004
-0.21455854 -0.1212358 -0.00637308
-0.21476009 -0.14429271 -0.0074527659
-0.21463212 -0.16756116 -0.0066666389
-0.21475944 -0.18878835 -0.0073248134
-0.21442217 -0.21069649 -0.0053526149
-0.21522498 -0.23787987 -0.0098019699
-0.21505442 -0.27570903 -0.0087084202
-0.21501131 -0.29362243 -0.0083999867
-0.21489115 -0.32808304 -0.0075904545
-0.21482696 -0.34471068 -0.0071623446
-0.21514006 -0.38442373 -0.00877384
-0.21502499 -0.3923966 -0.0080899764
-0.21471989 -0.40819618 -0.0062977592
-0.214946 -0.43114367 -0.0074821599
-0.2150961 -0.44641116 -0.008268429
-0.21494412 -0.47694811 -0.0072810124
-0.21523701 -0.50004584 -0.0088461814
-0.21563305 -0.50800371 -0.01105864
-0.21529438 -0.53115427 -0.0090477504
-0.21534893 -0.54698902 -0.0092959525
-0.21564221 -0.56337553 -0.010897411
-0.21566056 -0.57971919 -0.010941952
-0.21557294 -0.5961886 -0.01038691
-0.21556614 -0.62176305 -0.0102622
-0.21584742 -0.6400106 -0.011799974
-0.21552248 -0.6573379 -0.0099034645
-0.21617278 -0.67781514 -0.013535379
-0.21563503 -0.70555693 -0.010409314
-0.21605429 -0.7274577 -0.012735807
-0.21629837 -0.7498123 -0.01407141
-0.21636236 -0.77257675 -0.014388043
-0.21549481 -0.80462104 -0.009403755
-0.21590431 -0.83194363 -0.011685506
-0.21620087 -0.8605001 -0.013330177
-0.21649067 -0.89099735 -0.014940109
-0.21521473 -0.93049514 -0.0076581561
-0.21574853 -0.96810806 -0.010662939
-0.39284813 -2.3317952 -1.0157347
-0.3879143 -2.5080831 -0.98797768
-0.38771451 -2.6667061 -0.98704004
-0.38935912 -2.8610539 -0.99661022
-0.36102992 -2.7681911 -0.83595645
-0.34335607 -2.7712932 -0.73580676
-0.3243103 -2.7502155 -0.62784749
-0.30044171 -2.7630386 -0.49260244
-0.28460366 -2.7658815 -0.4028514
-0.27021345 -2.7880275 -0.32133365
-0.1319101 -2.7602797 0.46250629
-0.097127251 -2.749001 0.6597479
-0.083098717 -2.747128 0.73931348
-0.069042988 -2.7423923 0.81903791
0.17674325 -4.9470925 2.2079296
0.33572012 -6.0481524 3.1066952
0.3677299 -5.71069 3.2887623
0.38790312 -5.4979215 3.4035056
0.367571 -4.9430785 3.2894084
0.37740824 -4.6995077 3.3456507
0.37181735 -4.3577628 3.3146708
0.37020567 -4.0765047 3.3061211
0.35120466 -3.7042241 3.1992283
0.38493079 -3.581706 3.3905997
0.37242585 -3.3023732 3.3203335
0.36782259 -3.0868926 3.2947109
0.364057 -2.890322 3.2737982
0.36623237 -2.7330167 3.2864656
0.36783218 -2.5807786 3.2958622
0.34440365 -2.3384547 3.1636488
0.37328866 -2.2334671 3.3275375
0.36313537 -2.0640099 3.270386
0.3580901 -1.9199051 3.242121
0.35429323 -1.7861451 3.2209074
0.35366023 -1.6658616 3.2175889
0.3523429 -1.5478104 3.2103887
0.35135663 -1.4340374 3.2050538
0.35211587 -1.2727159 3.2097113
0.35399896 -1.1695855 3.2206042
0.35642475 -1.0681307 3.2345653
0.31334373 -0.9210912 2.9908791
0.35698497 -0.86302918 3.2381804
0.35060561 -0.75789356 3.2022746
0.33662775 -0.65301353 3.1233358
0.34218398 -0.50967932 3.1551039
0.33797404 -0.41324085 3.1314633
-0.084254451 -0.41621447 0.74069905
-0.084923729 -0.40532333 0.73700535
-0.084465943 -0.39318192 0.73969525
-0.084257632 -0.3810246 0.74097204
-0.095732637 -0.38294542 0.67611307
-0.098425582 -0.36382291 0.66109228
-0.099378578 -0.35625106 0.65578675
-0.099712737 -0.35213792 0.65394026
-0.10063587 -0.33953401 0.6488502
-0.10081521 -0.32959664 0.64792764
-0.10121459 -0.32010838 0.64575821
-0.10139308 -0.30949637 0.6448406
-0.10202258 -0.29429257 0.64141428
-0.09516111 -0.12589841 0.68103343
-0.095588572 -0.076088622 0.67881495
-0.097143151 -0.059617378 0.6701048
-0.099369556 -0.031280801 0.65763891
-0.098948188 0.011531218 0.66013801
0.019602943 1.7164122 1.3329426
-0.0074065714 1.5419406 1.1799164
-0.02729216 1.5537506 1.0674044
-0.040752973 1.5522951 0.99123579
-0.053552572 1.559568 0.91881788
-0.066317216 1.5641762 0.846596
-0.079150483 1.5622028 0.77398103
-0.091915905 1.5555893 0.70174736
-0.1041278 1.5682234 0.63266128
-0.12275914 1.5666068 0.52724338
-0.13511966 1.5590731 0.45730281
-0.147423 1.567063 0.38769606
-0.159751 1.5655806 0.31794384
-0.17202251 1.5586367 0.24850851
-0.1841469 1.5452732 0.17990299
-0.20261055 1.5374908 0.075433478
-0.21515071 1.5356992 0.0044810735
-0.16231924 -0.063815437 0.30297291
-0.16521651 -0.082004301 0.28667736
-0.16712812 -0.092622213 0.27592745
-0.16901146 -0.10261928 0.26533821
-0.1708055 -0.11291172 0.25525478
-0.17267245 -0.12171023 0.24475949
-0.17464304 -0.12909256 0.23367819
-0.17656244 -0.1368452 0.22288686
-0.17823391 -0.14661439 0.21349889
-0.18023935 -0.15341449 0.20222116
-0.18252859 -0.15826736 0.18933746
-0.18616709 -0.16505304 0.16885345
-0.19008952 -0.16107027 0.14672513
-0.21668331 -0.043491639 -0.003702498
-0.21791106 -0.079194166 -0.010545747
-0.22101016 -0.091008954 -0.028017424
-0.21766722 -0.13127954 -0.0090187043
-0.21849938 -0.15137157 -0.013655064
-0.21772315 -0.17682943 -0.0091847647
-0.21792796 -0.19746105 -0.010267789
-0.21767291 -0.21878558 -0.0087465122
-0.21756451 -0.23876558 -0.008054669
-0.21738906 -0.27646783 -0.0069032717
-0.21718177 -0.29467458 -0.0056497306
-0.21750544 -0.31126159 -0.0074018221
-0.21738814 -0.32835227 -0.0066567333
-0.21767509 -0.35256693 -0.008159047
-0.21762468 -0.36873692 -0.0077914512
-0.21764289 -0.38457346 -0.0078119189
-0.21756221 -0.40029767 -0.0072720083
-0.21755697 -0.41578481 -0.0071588028
-0.21771869 -0.43874946 -0.0079484414
-0.21778397 -0.44638658 -0.0082758842
-0.21766689 -0.46929887 -0.0074856249
-0.21776274 -0.48459518 -0.007942969
-0.2179386 -0.5000205 -0.0088529438
-0.21801955 -0.5155381 -0.0092250118
-0.21800464 -0.53112853 -0.0090539828
-0.21823452 -0.54715401 -0.010268561
-0.21804933 -0.57101983 -0.0090884939
-0.21819028 -0.58763731 -0.0097983684
-0.2183869 -0.60474586 -0.010822926
-0.21846779 -0.6220783 -0.011191717
-0.21875297 -0.64035815 -0.012716626
-0.21830544 -0.66664004 -0.010047161
-0.21842511 -0.6859414 -0.010633534
-0.21885836 -0.70698386 -0.012994615
-0.21912731 -0.72845989 -0.014424824
-0.21834731 -0.7580415 -0.0098686889
-0.21848789 -0.7814244 -0.010570141
-0.21898368 -0.80767113 -0.013281478
-0.21938448 -0.83512902 -0.015454013
-0.21819341 -0.87018532 -0.0085650124
-0.21838985 -0.90078157 -0.0095777176
-0.21901639 -0.93631703 -0.01302328
-0.21975723 -0.97562599 -0.017113974
-0.39271465 -2.373723 -0.99575198
-0.39464989 -2.5350645 -1.0065397
-0.39472657 -2.697686 -1.0067992
-0.38928771 -2.9221642 -0.97574139
-0.3569074 -2.7830322 -0.79233843
-0.32048109 -2.7629583 -0.58586431
-0.28818375 -2.7658403 -0.40276027
-0.14252946 -2.7656114 0.42309734
-0.12858257 -2.7612002 0.50217712
-0.11465266 -2.7569871 0.5811606
-0.093775824 -2.7474115 0.69948387
-0.079809435 -2.741153 0.77864367
-0.065793097 -2.7340252 0.85808539
0.17044753 -4.9202209 2.1974218
0.35216692 -6.0487676 3.227134
0.35603622 -5.6372619 3.2488697
0.38544598 -5.5176706 3.4153821
0.36734492 -4.9791718 3.3126576
0.36972812 -4.6708732 3.3260462
0.37715748 -4.2886128 3.3680017
0.35894647 -3.9000306 3.2647512
0.36252505 -3.6887319 3.2849696
0.36948404 -3.5119686 3.3243473
0.36429697 -3.2773964 3.2949269
0.35911068 -3.0601583 3.2655225
0.35872406 -2.8813498 3.2633145
0.36492011 -2.6614847 3.2983942
0.36884379 -2.5215323 3.3206131
0.35317668 -2.3135738 3.2318816
0.3638131 -2.2118626 3.2921276
0.35739326 -2.0557911 3.2557805
0.35296977 -1.9140246 3.2307446
0.35060328 -1.7844739 3.2173619
0.3505117 -1.6075515 3.2168767
0.35127792 -1.495523 3.221241
0.34980363 -1.3818163 3.2129207
0.34939876 -1.2730064 3.2106581
0.35030517 -1.1683909 3.215822
0.34425095 -1.0567162 3.181576
0.30833477 -0.91884589 2.9782569
0.3536455 -0.81186682 3.2348564
0.34645182 -0.70746845 3.1941655
0.34277517 -0.60763931 3.1733892
0.33935815 -0.50967062 3.1540844
0.33534822 -0.41324848 3.1314244
-0.087176949 -0.41634271 0.7397058
-0.087501742 -0.40513855 0.73795652
-0.08721374 -0.39317107 0.73967612
-0.096675187 -0.38988829 0.68625343
-0.098652303 -0.38322705 0.67515242
-0.10134109 -0.36418706 0.66015965
-0.10213321 -0.35624063 0.65576684
-0.1028142 -0.34804782 0.65200323
-0.1032373 -0.33905423 0.64969915
-0.10341933 -0.32908651 0.64875948
-0.10382182 -0.31956849 0.64657205
-0.104481 -0.30500102 0.642977
-0.10516195 -0.28981841 0.63925868
-0.097358331 -0.12194954 0.684035
-0.099028252 -0.067408368 0.67479986
-0.10047908 -0.049287219 0.66667581
-0.10281581 0.019268222 0.65366203
0.0028446773 1.6218785 1.2513815
-0.016160728 1.5513031 1.1439215
-0.029497303 1.557564 1.0685235
-0.043185562 1.5523037 0.99113935
-0.056164123 1.5556949 0.91776985
-0.074875183 1.5733484 0.8119958
-0.087806612 1.5671368 0.7388975
-0.10055719 1.5592388 0.66682392
-0.11305239 1.5547029 0.59619504
-0.12527546 1.5656128 0.5271017
-0.13762774 1.5630766 0.45728195
-0.14995396 1.5670661 0.38760775
-0.16845532 1.5634149 0.28303239
-0.1804629 1.5413171 0.21517147
-0.19264381 1.5337304 0.14632484
-0.20526029 1.5394593 0.075008646
-0.21818613 1.5474342 0.0019410669
-0.16569753 -0.026186857 0.29975349
-0.16603491 -0.071705654 0.29795489
-0.16793041 -0.083884023 0.28732604
-0.16983576 -0.094477355 0.27664089
-0.1717836 -0.10353407 0.26571479
-0.17357704 -0.11381218 0.25566304
-0.17656088 -0.12491954 0.23892175
-0.17741303 -0.12996116 0.23414809
-0.18031859 -0.14127931 0.21784991
-0.18205947 -0.15037525 0.20809533
-0.18415298 -0.15657614 0.19634385
-0.18654555 -0.16090156 0.18289898
-0.18939021 -0.16279453 0.16689463
-0.19497555 -0.15954168 0.1354242
-0.22134636 -0.048395611 -0.013727047
-0.22041287 -0.081171818 -0.0083367899
-0.22418149 -0.089761019 -0.029568512
-0.22029559 -0.1324935 -0.0074646729
-0.22020124 -0.17847432 -0.0067242924
-0.22134621 -0.20618786 -0.013052428
-0.22087121 -0.2278908 -0.010261298
-0.2208543 -0.24732435 -0.010063833
-0.22021949 -0.26767409 -0.0063688601
-0.22056216 -0.28487363 -0.0082074068
-0.22046232 -0.30264869 -0.0075413231
-0.22057168 -0.3195405 -0.0080596721
-0.2204023 -0.33654901 -0.0070003048
-0.22028911 -0.35306555 -0.0062592314
-0.22040921 -0.36896014 -0.0068389187
-0.22042926 -0.38476282 -0.0068522943
-0.22070616 -0.4079451 -0.0082698446
-0.22065666 -0.42342824 -0.0078899777
-0.22068608 -0.43876669 -0.007956841
-0.22079606 -0.45404598 -0.0084799612
-0.22081321 -0.46933448 -0.0084776226
-0.22073752 -0.4846136 -0.0079499008
-0.22079621 -0.50768328 -0.0081334021
-0.22083224 -0.52320552 -0.0082382364
-0.22094342 -0.53896475 -0.0087685511
-0.22112556 -0.555044 -0.0097004445
-0.22120447 -0.57128251 -0.010048237
-0.22134569 -0.58793408 -0.010748689
-0.2209392 -0.61243016 -0.0083000269
-0.22145636 -0.63084245 -0.011128229
-0.2215206 -0.64885324 -0.011393154
-0.22161582 -0.66750836 -0.011833455
-0.22135164 -0.69549018 -0.010190525
-0.22140904 -0.71569359 -0.010416847
-0.22175509 -0.737782 -0.012276713
-0.22177954 -0.75974411 -0.012316558
-0.2223326 -0.78497684 -0.015347956
-0.22187692 -0.81977814 -0.012621364
-0.22177337 -0.84548944 -0.011936896
-0.22208497 -0.87498641 -0.013601697
-0.22225167 -0.9057588 -0.014446413
-0.22150321 -0.94994152 -0.01006298
-0.22130434 -0.98413765 -0.0088388082
-0.39326075 -2.4253345 -0.98171312
-0.39404443 -2.5833585 -0.98604029
-0.39439407 -2.7549741 -0.98791069
-0.39016271 -2.9014423 -0.96385777
-0.35830778 -2.7663136 -0.78349358
-0.34031016 -2.7618184 -0.6815443
-0.32355124 -2.7648375 -0.58660531
-0.29917809 -2.7677114 -0.44852903
-0.28362447 -2.7726014 -0.3604126
-0.18734576 -2.7619965 0.18505213
-0.14532308 -2.7676289 0.4231399
-0.13136561 -2.7612147 0.50221783
-0.1104361 -2.7558334 0.62079632
-0.096553408 -2.7474174 0.69952339
-0.082471691 -2.7451062 0.77929783
-0.068391867 -2.7389326 0.85906082
0.18121243 -4.884356 2.2722952
0.33767375 -6.4156303 3.1579592
0.34871444 -6.035316 3.22049
0.36431867 -5.5360751 3.3088737
0.38282284 -5.320466 3.4136515
0.37725443 -4.915575 3.3821785
0.36622733 -4.5094881 3.3198125
0.3659507 -4.2239189 3.318295
0.33153883 -3.7291453 3.1235795
0.36295676 -3.7072289 3.30145
0.37125084 -3.4317219 3.348469
0.36338058 -3.1891675 3.3039777
0.35913542 -2.9830697 3.2800043
0.3580361 -2.8053989 3.2738357
0.36013892 -2.6517861 3.2857897
0.35202375 -2.4641166 3.2399156
0.35759529 -2.3396432 3.2715013
0.36359465 -2.1511796 3.3055344
0.35494319 -1.9911958 3.2566266
0.3521865 -1.8569648 3.2410796
0.35064951 -1.731432 3.2324352
0.3469156 -1.6052459 3.2113583
0.3458651 -1.4896537 3.205467
0.34617186 -1.3799074 3.2072568
0.34846711 -1.2223859 3.2203257
0.34904617 -1.1178315 3.2236557
0.32026383 -0.98194283 3.0608311
0.30886418 -0.87516123 2.9963753
0.34874293 -0.81023592 3.2220964
0.34274825 -0.70690012 3.1882253
0.33889112 -0.60722953 3.1664503
0.3360585 -0.46121585 3.1504979
0.33227494 -0.36524627 3.1291385
-0.090358205 -0.41089535 0.73788381
-0.090713166 -0.39975837 0.73594809
-0.090118133 -0.38734618 0.73938757
-0.10033543 -0.38118649 0.68172151
-0.10208283 -0.37939164 0.67187101
-0.10388651 -0.36841607 0.66177535
-0.10465156 -0.36039302 0.65751976
-0.10549354 -0.34761664 0.65286535
-0.10630274 -0.33457372 0.64839625
-0.10666415 -0.32510906 0.64642417
-0.10694653 -0.31508651 0.64489919
-0.10701805 -0.30386096 0.64456689
-0.10784245 -0.28920999 0.64001125
-0.071585946 -0.032351941 0.84536082
-0.099234447 -0.074948661 0.68929929
-0.10124528 -0.062382877 0.67799264
-0.10254495 -0.042436365 0.67070794
-0.10423575 -0.0059916247 0.66124278
-0.10467593 0.030047394 0.6588167
-0.0068799658 1.5226581 1.2118953
-0.019325912 1.5447183 1.1415375
-0.039369673 1.5505238 1.0282302
-0.052253693 1.558199 0.95539862
-0.065100081 1.563179 0.88278121
-0.078124478 1.5586165 0.8091597
-0.090694018 1.5621911 0.73810989
-0.10332986 1.5582393 0.66668761
-0.11583444 1.5527037 0.59600884
-0.13437708 1.5371654 0.49120587
-0.14653718 1.5563742 0.42246971
-0.15888587 1.5681275 0.35266927
-0.17118371 1.5614156 0.28316253
-0.18319738 1.5403188 0.21526851
-0.19544502 1.5357077 0.14604601
-0.21455377 1.5467317 0.038035918
-0.16625397 -0.010452832 0.31191459
-0.16789341 -0.036763839 0.30272269
-0.16853967 -0.075512983 0.29915425
-0.17052834 -0.085766286 0.2879816
-0.17360005 -0.098046087 0.27072003
-0.17543824 -0.10818677 0.26039901
-0.17636181 -0.11291535 0.25521314
-0.17934963 -0.12404633 0.23842625
-0.18121494 -0.13249856 0.22795159
-0.18311228 -0.14044131 0.21729566
-0.18485542 -0.14955637 0.2075126
-0.18695122 -0.15577734 0.19573344
-0.19037434 -0.16366579 0.17648354
-0.19356902 -0.16365823 0.15848546
-0.22161895 -0.061346479 -5.4696553e-05
-0.22358485 -0.092077814 -0.011050985
-0.22360334 -0.11752573 -0.011069722
-0.22354953 -0.14192511 -0.010679723
-0.22329526 -0.1658669 -0.0091557167
-0.22314128 -0.18824132 -0.0081994981
-0.22311224 -0.20917943 -0.0079505891
-0.22307731 -0.2292908 -0.0076685357
-0.22304907 -0.24863064 -0.0074246055
-0.22303928 -0.26725873 -0.0072851423
-0.22305873 -0.28523895 -0.0073112668
-0.22295372 -0.30298105 -0.0066332663
-0.22331826 -0.32777214 -0.0085702511
-0.22288407 -0.33681425 -0.0060717831
