# .PCD v0.7 - Point Cloud Data file format
VERSION 0.7
FIELDS x y z
SIZE 4 4 4
TYPE F F F
COUNT 1 1 1
WIDTH 1419
HEIGHT 1
VIEWPOINT 0 0 0 1 0 0 0
POINTS 1419
DATA ascii
0.13557541 -0.77247554 -0.014523959
0.13540594 -0.79680812 -0.015371966
0.1356011 -0.83377147 -0.014093715
0.13594717 -0.8590613 -0.012015613
0.13538398 -0.8908965 -0.015094101
0.13451353 -0.9270103 -0.019914098
0.13562839 -0.97102714 -0.013412883
-0.040689521 -2.3275304 -1.0131384
-0.03648138 -2.5085838 -0.98900247
-0.036254149 -2.6663878 -0.98752326
-0.029572431 -2.7801633 -0.94943911
0.018916382 -2.6471865 -0.67413396
0.14558151 -2.633106 0.045520648
0.15892491 -2.6382203 0.12134343
0.20541455 -2.6203036 0.38549587
0.2184989 -2.628309 0.45984846
0.23152888 -2.617686 0.53388196
0.24439347 -2.6014774 0.60697359
0.25100222 -2.605844 0.64454705
0.26424018 -2.608562 0.71975344
0.27746838 -2.6055932 0.79490203
0.59989882 -8.8218975 2.6283288
0.52266407 -4.8992739 2.1881456
0.55639076 -4.9253693 2.3796446
0.68539608 -6.0622263 3.1124671
0.72358638 -5.7865396 3.3291793
0.74096489 -5.5405769 3.4277575
0.71653616 -4.9437041 3.2888837
0.72646135 -4.7001438 3.3451664
0.72175872 -4.3639808 3.3183844
0.72281402 -4.1004443 3.3243198
0.69857192 -3.6904829 3.1866081
0.72610235 -3.6417708 3.3429134
0.72857058 -3.3391187 3.3568943
0.72312057 -3.116281 3.3259349
0.71841836 -2.9127855 3.2992308
0.71832293 -2.7434764 3.2986903
0.71821499 -2.5831504 3.2980838
0.69307148 -2.3334408 3.1553433
0.72146487 -2.298002 3.3165612
0.71183777 -2.1263266 3.261925
0.71142155 -1.9295754 3.2595983
0.71009457 -1.801522 3.2520931
0.70767772 -1.6754307 3.2384038
0.70402932 -1.5512555 3.2177258
0.7029388 -1.4368917 3.211571
0.70289683 -1.3275262 3.2113705
0.70314121 -1.2209285 3.2127969
0.70506525 -1.1184435 3.2237594
0.66933453 -0.92700016 3.0210063
0.69128013 -0.85037428 3.1456199
0.70023572 -0.75782925 3.1964989
0.69791543 -0.65781808 3.1833751
0.6925562 -0.55861032 3.1530032
0.68850398 -0.46179631 3.1300519
0.26761618 -0.42192507 0.74141395
0.2555021 -0.42144674 0.67273784
0.25382873 -0.41858503 0.66328019
0.25250301 -0.40262017 0.65591484
0.2519398 -0.39466891 0.65279788
0.25133055 -0.38686636 0.64941967
0.25158328 -0.38188431 0.65089369
0.25174832 -0.36762211 0.65194958
0.25270557 -0.35049984 0.65750104
0.25338504 -0.33816308 0.66143602
0.25248569 -0.32464805 0.65645093
0.25205755 -0.32052743 0.6540609
0.25113088 -0.30675095 0.6489206
0.25169912 -0.29236528 0.652224
0.25145599 -0.28064275 0.65092307
0.25143906 -0.26023692 0.65094453
0.25195807 -0.24272557 0.65396762
0.2523118 -0.22476624 0.65605259
0.50792253 1.726593 2.1065938
0.48192877 1.685426 1.9591528
0.46234316 1.6838499 1.8480721
0.44311401 1.6770835 1.7390158
0.42618966 1.6843219 1.6430372
0.40938318 1.6865273 1.5477289
0.39289233 1.6855392 1.4542127
0.3784245 1.7034271 1.3721732
0.34763542 1.4854181 1.1975628
0.3313303 1.5504001 1.1051228
0.31738386 1.5417985 1.0260494
0.30494893 1.5571281 0.95554811
0.29101187 1.5338565 0.87653172
0.27883255 1.5477402 0.80748111
0.26530418 1.5127414 0.7307871
0.25425538 1.5671194 0.66814125
0.23547253 1.5544361 0.56165665
0.22329023 1.5671252 0.49258816
0.21098292 1.5583644 0.4228158
0.19868863 1.5651315 0.35311255
0.18638471 1.5634241 0.28335664
0.17399606 1.5642127 0.21311878
0.16130304 1.5733747 0.14115037
0.14280355 1.557584 0.036270685
0.13048628 1.5455815 -0.03356
0.12980366 1.2818751 -0.037278663
0.11705098 1.3065886 -0.10959201
0.091769338 1.5315384 -0.25308049
0.086653672 1.402746 -0.2820017
0.12853482 0.65495092 -0.043979336
0.11367532 0.73833215 -0.12826963
0.1411638 0.20525163 0.028157536
0.1346976 0.21266744 -0.0084685404
0.13522168 0.15929326 -0.0053980001
0.13514598 0.11578928 -0.0057348902
0.13495506 0.076937802 -0.0067270841
0.13491116 0.040257316 -0.0068854475
0.13497886 0.0057102246 -0.0064109792
0.13524635 -0.02746149 -0.0048028375
0.13480493 -0.054472178 -0.0072205472
0.13472715 -0.081767224 -0.0075741089
0.13474998 -0.10794759 -0.0073568793
0.13485619 -0.13303484 -0.0066667302
0.13382341 -0.16357625 -0.012400711
0.13396291 -0.18606827 -0.011522378
0.13382843 -0.20662649 -0.012200012
0.13400102 -0.2273604 -0.011134429
0.1340175 -0.24682507 -0.010955482
0.13417487 -0.26598683 -0.0099768685
0.13430864 -0.28443846 -0.009132483
0.13440841 -0.30224621 -0.0084812883
0.13446479 -0.31948 -0.0080767516
0.13430262 -0.33593738 -0.0089131398
0.13441476 -0.35252145 -0.0081922282
0.1344644 -0.36869192 -0.0078263991
0.13444571 -0.38452888 -0.0078486158
0.13417195 -0.40776271 -0.0092772227
0.13405031 -0.42319348 -0.0098842019
0.13419583 -0.43865389 -0.0089745605
0.1340884 -0.45396799 -0.0095010865
0.13407376 -0.46929139 -0.0095009189
0.13397868 -0.48465782 -0.0099575333
0.1339771 -0.50006592 -0.0098833721
0.13389727 -0.51561856 -0.010253532
0.13395759 -0.53907782 -0.0097866999
0.1337796 -0.55519122 -0.010714326
0.13370472 -0.5714637 -0.011056656
0.13356793 -0.58814889 -0.011750581
0.13397959 -0.61269534 -0.0092895404
0.13313718 -0.62306529 -0.014030728
0.13356876 -0.64879233 -0.011456787
0.13331899 -0.66787004 -0.012792298
0.1330542 -0.68771976 -0.014213126
0.13338786 -0.71663284 -0.012195353
0.13334565 -0.73772103 -0.012352676
0.13317978 -0.76024228 -0.013212017
0.13333584 -0.78256422 -0.012243768
0.13257711 -0.81009805 -0.016469087
0.1323275 -0.83702183 -0.017803954
0.13328299 -0.8735612 -0.012256292
0.13311054 -0.90428329 -0.0131532
0.13251016 -0.93993998 -0.016479529
0.13225201 -0.97634679 -0.017862977
-0.041342992 -2.3831537 -1.0032248
-0.042904045 -2.5422835 -1.0120053
-0.042828064 -2.7042434 -1.011492
-0.011907765 -2.6751997 -0.83582944
0.0077223596 -2.6522319 -0.7243039
0.16324233 -2.6392832 0.15948328
0.20303012 -2.6253052 0.38562068
0.22264238 -2.6213169 0.49709168
0.23563397 -2.6123805 0.57093352
0.2551879 -2.6055305 0.68206799
0.26855823 -2.6108396 0.75806159
0.28148538 -2.5966678 0.83153814
0.53222734 -4.8459764 2.2556851
0.69615322 -6.4794846 3.1865096
0.63163298 -5.239182 2.8202434
0.71267378 -5.6961994 3.280453
0.7259956 -5.4185982 3.356163
0.72638875 -5.0516443 3.3584669
0.73174626 -4.6070032 3.3889928
0.72618049 -4.2755728 3.3574634
0.70166594 -3.8444548 3.2183473
0.71359038 -3.6905661 3.2861242
0.72064686 -3.5144799 3.3262615
0.71709204 -3.2888622 3.3061509
0.71261525 -3.074558 3.2808056
0.71044046 -2.8861983 3.2685308
0.71872264 -2.6750789 3.3156641
0.72014719 -2.5241845 3.3238256
0.70437759 -2.315556 3.234364
0.71498847 -2.213764 3.2946825
0.70964777 -2.060992 3.2644334
0.70680195 -1.9234549 3.2483494
0.70464492 -1.7936987 3.2361763
0.70494163 -1.6165184 3.237972
0.70200074 -1.4958756 3.2213488
0.70002973 -1.3812418 3.2102323
0.70228314 -1.2769426 3.2231007
0.70236081 -1.1706806 3.2236161
0.70430344 -1.0685019 3.23472
0.6586352 -0.91865224 2.9755094
0.68292999 -0.84558791 3.1135199
0.69697839 -0.70773691 3.1933928
0.69313419 -0.60788858 3.1716423
0.6871208 -0.50972641 3.1375761
0.26542267 -0.43312863 0.74360049
0.25195447 -0.41335431 0.66736913
0.2507768 -0.41027483 0.66072208
0.24993196 -0.40696591 0.65596467
0.24956217 -0.39873597 0.65394354
0.24914278 -0.39058262 0.65164083
0.24916632 -0.38153914 0.65185285
0.2488766 -0.35872445 0.65040386
0.25086579 -0.34326848 0.66177595
0.25095782 -0.33768928 0.66233754
0.24977365 -0.31947812 0.65577143
0.24888882 -0.31696066 0.65078706
0.24821007 -0.30217433 0.64705127
0.24845363 -0.28890762 0.64851266
0.24898757 -0.27346167 0.65162277
0.24887905 -0.25285965 0.6511246
0.24907413 -0.23655905 0.65231097
0.50077724 1.6943754 2.0816836
0.47703108 1.6685189 1.9469466
0.45707068 1.662371 1.8337036
0.43260148 1.6881515 1.6949036
0.41497901 1.6855669 1.5949348
0.39861122 1.689265 1.5020896
0.38340706 1.7008251 1.4158512
0.36856815 1.7126068 1.3316869
0.34130755 1.5334353 1.1769941
0.32789183 1.5381455 1.1009097
0.31503883 1.5485259 1.0280206
0.29699916 1.5866674 0.92572719
0.28305191 1.5631384 0.84662515
0.26983058 1.5473806 0.77164465
0.25749543 1.5535682 0.70169657
0.24534157 1.5671972 0.63277841
0.23281641 1.5564444 0.56175131
0.22056949 1.56014 0.49230483
0.20218791 1.5570648 0.3880716
0.18985584 1.56559 0.31814274
0.17770065 1.5526779 0.24921703
0.16519269 1.5601885 0.17829017
0.15255691 1.5651085 0.10663775
0.14010756 1.5585608 0.036043309
0.12837248 1.5319334 -0.030497089
0.12473548 1.3340284 -0.051075067
0.095442705 1.5384443 -0.21723464
0.081845179 1.538978 -0.29434547
0.13095389 0.69787955 -0.015570698
0.12227552 0.65015775 -0.06471961
0.10675978 0.73646539 -0.15271489
0.13354161 0.2000846 -0.00043222492
0.1294506 0.16212586 -0.023538947
0.13158301 0.10258958 -0.01135793
0.13199142 0.060816273 -0.0089625381
0.13176303 0.026620269 -0.010181644
0.13197306 -0.0077223773 -0.0089120353
0.13212779 -0.039273355 -0.0079561481
0.13192378 -0.066838473 -0.0090365727
0.13182539 -0.093308084 -0.0095174322
0.13181537 -0.11870182 -0.0094965007
0.13187705 -0.14304553 -0.0090685394
0.13213816 -0.16693033 -0.0075083999
0.13185754 -0.1876566 -0.0090234047
0.13203427 -0.20912474 -0.0079422221
0.13206972 -0.22923619 -0.0076630004
0.13194253 -0.24813773 -0.0083069643
0.1319503 -0.26679748 -0.0081846742
0.13209 -0.28518453 -0.0073136464
0.13171935 -0.31056041 -0.0093004638
0.13166681 -0.32742527 -0.0095205987
0.13172475 -0.34411994 -0.0091135632
0.13189104 -0.36062062 -0.0080914209
0.13165253 -0.3763319 -0.0093672248
0.13168274 -0.3921665 -0.0091176229
0.13181132 -0.40787888 -0.0083095739
0.1316912 -0.42327461 -0.0089133438
0.13159989 -0.44630206 -0.0093145026
0.1317132 -0.4616228 -0.0085933032
0.13157229 -0.47694355 -0.009315093
0.13152456 -0.49231538 -0.0095079942
0.1313979 -0.507824 -0.010148937
0.13136671 -0.52341515 -0.010248059
0.1310901 -0.53941655 -0.011740269
0.13137357 -0.56307489 -0.01001435
0.13118263 -0.57964331 -0.011020437
0.13110045 -0.59640503 -0.011409106
0.13112918 -0.61333632 -0.011168321
0.13078484 -0.63148785 -0.013045266
0.13114388 -0.65766829 -0.010890762
0.13096033 -0.67686135 -0.01185525
0.13061148 -0.69729567 -0.01375813
0.12996812 -0.71962082 -0.017332921
0.13009252 -0.74035823 -0.016549625
0.13086148 -0.77077824 -0.01206887
0.13013384 -0.7974332 -0.016122619
0.13044783 -0.82096219 -0.014263407
0.13030005 -0.84803885 -0.01502577
0.13013549 -0.876957 -0.01588358
0.13073836 -0.91911989 -0.0123471
0.13040729 -0.95432472 -0.014150823
-0.042048857 -2.3016176 -0.99302626
-0.042189348 -2.4412768 -0.99375784
-0.043256611 -2.6030159 -0.99975234
-0.044859342 -2.7878075 -1.0087888
-0.018490262 -2.7158766 -0.85902637
0.0061969208 -2.6416109 -0.7188108
0.20711781 -2.6246212 0.42272714
0.22013508 -2.6123109 0.49669132
0.23324576 -2.6173584 0.5711835
0.25293642 -2.6144559 0.68305022
0.26598266 -2.6058955 0.75719392
0.2855655 -2.5910528 0.86848599
0.70636237 -6.3631282 3.2573831
0.69362861 -5.737257 3.18525
0.71805704 -5.5642681 3.324024
0.72453386 -5.2361569 3.3609061
0.72507012 -4.8895354 3.3640661
0.71381336 -4.4832687 3.3002846
0.71401763 -4.2031198 3.301549
0.68091762 -3.7180977 3.1137755
0.72768199 -3.6810629 3.379354
0.72206032 -3.4314919 3.3475385
0.71560436 -3.1964567 3.3109841
0.71128076 -2.9894378 3.2865305
0.71129805 -2.8165591 3.2867138
0.71262628 -2.6588683 3.2943363
0.69519377 -2.4330227 3.1954684
0.71103936 -2.3493598 3.2854896
0.71454716 -2.1516404 3.3055165
0.70684063 -1.9944644 3.2618484
0.70426482 -1.8604816 3.2473013
0.70100707 -1.7302504 3.2288826
0.69791865 -1.6056869 3.2114232
0.6993174 -1.495223 3.2194324
0.6965183 -1.379109 3.2036123
0.69896513 -1.2220476 3.2176006
0.70089155 -1.1193937 3.2285998
0.668284 -0.97891873 3.0435829
0.66564012 -0.88072312 3.0286391
0.69871408 -0.80993831 3.2164266
0.69342601 -0.7071529 3.1864717
0.68923444 -0.60744274 3.1627388
0.68426162 -0.50969821 3.1345708
0.26286101 -0.42744371 0.74303424
0.25143763 -0.42516094 0.67827338
0.24915153 -0.41373122 0.6654098
0.24797507 -0.4106859 0.65876985
0.2472683 -0.39847246 0.65486974
0.24635009 -0.39116272 0.64973241
0.24637826 -0.3821857 0.64996594
0.2462261 -0.36872193 0.64921266
0.24736989 -0.36120647 0.65574026
0.248566 -0.34282586 0.66263741
0.24811442 -0.33345872 0.66014731
0.24702267 -0.32050404 0.65406013
0.24613042 -0.3123934 0.64906889
0.24632695 -0.29987594 0.65025574
0.24641913 -0.28709817 0.65084994
0.24648847 -0.26685992 0.65134925
0.24707763 -0.24951017 0.65476203
0.24725387 -0.233082 0.65583122
0.5127942 1.7198235 2.1624415
0.4881072 1.6938922 2.0223944
0.46631166 1.6788194 1.898755
0.44751066 1.6795015 1.7921051
0.42848819 1.6701506 1.6842027
0.41181603 1.6759461 1.5896336
0.38914192 1.6999754 1.4610209
0.37360135 1.7053057 1.3728745
0.34462109 1.5132774 1.2085408
0.33274692 1.54274 1.1411939
0.3192881 1.5451049 1.0648657
0.30609983 1.5474124 0.99007326
0.29390568 1.567264 0.92091417
0.2800377 1.5425998 0.84227753
0.26169375 1.561161 0.73824531
0.24910322 1.5572138 0.6668489
0.23697825 1.5736006 0.59808403
0.22448669 1.5635954 0.52725273
0.19993334 1.5570668 0.38802236
0.18756652 1.5695863 0.31788683
0.16907455 1.5642146 0.21302795
0.1567452 1.5585201 0.14311564
0.14407921 1.5621529 0.071287401
0.13184914 1.5484658 0.0019436174
0.13013676 1.2907264 -0.0075573763
0.11817404 1.3022872 -0.075396858
0.097791791 1.4566523 -0.19111128
0.072738633 1.5380998 -0.33326143
0.12458803 0.69735146 -0.038417455
0.11774606 0.67847615 -0.0771695
0.10804257 0.64411014 -0.13211766
0.1385843 0.20867522 0.041619014
0.13079959 0.17838813 -0.0023993768
0.1304194 0.13542552 -0.0044552754
0.12878816 0.085481547 -0.013569755
0.12880576 0.047799628 -0.013370174
0.13039982 0.019928508 -0.0042664534
0.1306463 -0.014200119 -0.0027694742
0.12919982 -0.051066663 -0.010841615
0.12936258 -0.079803444 -0.0098225856
0.12923805 -0.10543459 -0.010436024
0.12905143 -0.12942818 -0.011402626
0.1293442 -0.15419318 -0.009647632
0.12911364 -0.17569479 -0.010864749
0.12919739 -0.19741587 -0.01029761
0.12914555 -0.21777128 -0.010500726
0.12924543 -0.23781334 -0.0098426919
0.12949315 -0.25750613 -0.0083455499
0.12940559 -0.27564284 -0.0087522883
0.12944375 -0.29355642 -0.0084453132
0.12944084 -0.31089306 -0.0083716903
0.12955414 -0.32801735 -0.0076384875
0.1294459 -0.34438631 -0.0081629548
0.12931025 -0.36848709 -0.0087979399
0.12911855 -0.38418457 -0.0097960876
0.12919569 -0.3999781 -0.0092680445
0.12919804 -0.41553485 -0.0091644144
0.12929562 -0.43100891 -0.0085201366
0.12914063 -0.44631127 -0.0093092611
0.12907836 -0.46163225 -0.0095719816
0.12898557 -0.48466027 -0.0099619012
0.12898262 -0.50006825 -0.0098872352
0.12907356 -0.51549894 -0.0092793955
0.12874444 -0.53140259 -0.011054906
0.12885669 -0.54711539 -0.010325382
0.12855916 -0.56353587 -0.01192067
0.12873106 -0.58787513 -0.010804849
0.12870046 -0.60470819 -0.01088409
0.12861848 -0.62204093 -0.011254206
0.12817161 -0.64069557 -0.013693693
0.12817633 -0.65890104 -0.013570333
0.1285017 -0.68635917 -0.011578269
0.12837426 -0.70646286 -0.012202305
0.12825 -0.72739381 -0.012807254
0.12785088 -0.75029296 -0.014969802
0.12778017 -0.77308643 -0.015268144
0.12836301 -0.80640501 -0.01180614
0.12795305 -0.83380872 -0.014024194
0.12830091 -0.85909837 -0.011943161
0.12736414 -0.89301783 -0.017143244
0.12723143 -0.92488992 -0.017781658
0.12798606 -0.97106421 -0.01332754
-0.048530586 -2.3284461 -1.0135187
-0.043628976 -2.5037947 -0.98536688
-0.044105604 -2.6673527 -0.98779541
-0.036889784 -2.7760003 -0.94662553
-0.0066525792 -2.6560674 -0.77505773
0.10972036 -2.6477146 -0.11389834
0.15104985 -2.6431959 0.12093843
0.16455065 -2.6376481 0.1976475
0.18436842 -2.6436379 0.31026855
0.19759727 -2.6402993 0.38543665
0.21072264 -2.620301 0.45999649
0.22377585 -2.6176701 0.5341683
0.23664173 -2.601454 0.60725957
0.24325621 -2.6058161 0.64483643
0.25656429 -2.6114974 0.72045296
0.26965994 -2.6035805 0.79484606
0.59920394 -8.9878149 2.673177
0.5150767 -4.9046607 2.1908956
0.68953556 -6.2066665 3.1826425
0.69933218 -5.8369575 3.2378452
0.71349841 -5.5529337 3.3179517
0.70697725 -4.9291682 3.280288
0.72211146 -4.7293491 3.3659966
0.71918452 -4.4044299 3.3490663
0.71625817 -4.109489 3.3321781
0.69017774 -3.6864424 3.1837506
0.71958703 -3.6495349 3.3506672
0.71137685 -3.3868649 3.303843
0.71445704 -3.1113198 3.3211131
0.71067679 -2.9125113 3.2995081
0.71059865 -2.7432029 3.2989469
0.71078753 -2.584053 3.2999146
0.68667758 -2.3382144 3.1629009
0.71378595 -2.2977288 3.3167636
0.704925 -2.1285589 3.2663722
0.69955921 -1.9802992 3.2358401
0.70104688 -1.7974536 3.2442033
0.69893861 -1.6724325 3.2321863
0.69722867 -1.5527866 3.2224369
0.69681501 -1.4395622 3.2200518
0.6936475 -1.3243439 3.2020397
0.6960634 -1.2214466 3.2157252
0.69850862 -1.1195345 3.2295794
0.65535331 -0.96720225 2.9846244
0.68355709 -0.849985 3.1446762
0.69459283 -0.75872487 3.207293
0.68899679 -0.65700811 3.1755247
0.68502915 -0.55836147 3.1530013
0.68133068 -0.46155003 3.1320083
0.26015338 -0.42176491 0.74239099
0.24803239 -0.42125788 0.67370993
0.24621147 -0.41410664 0.66346848
0.24502397 -0.40234715 0.65686619
0.24449474 -0.398725 0.65390885
0.24367832 -0.38683578 0.64941257
0.2439301 -0.38185355 0.65088576
0.24393107 -0.36796585 0.65102607
0.24488927 -0.35089105 0.65659529
0.2453358 -0.33392042 0.6592617
0.24482143 -0.32461661 0.65643352
0.24395019 -0.31641871 0.65158159
0.24378733 -0.31129616 0.65070254
0.24346624 -0.2946853 0.64901471
0.24378294 -0.2806116 0.65089875
0.243763 -0.26020569 0.65091735
0.24428041 -0.24269405 0.65393811
0.24438688 -0.22614877 0.6546281
0.50802863 1.7035654 2.1492987
0.47556838 1.6944613 1.9652956
0.45552805 1.6897802 1.8517039
0.43606731 1.6814417 1.7414042
0.41884604 1.6861643 1.6438018
0.40218139 1.6901616 1.549359
0.38558176 1.6883305 1.4552901
0.37087604 1.7035153 1.371955
0.3401877 1.487347 1.198104
0.32935202 1.5305529 1.1367069
0.31044602 1.5542915 1.0295929
0.29711556 1.552354 0.95407468
0.28296092 1.5231875 0.87389928
0.27156821 1.5585824 0.80935144
0.25826129 1.5345089 0.73398328
0.2464141 1.55822 0.66686612
0.23394968 1.5536878 0.59626615
0.21554512 1.5561523 0.4920184
0.20329523 1.5713794 0.42262474
0.1909707 1.5681397 0.35281971
0.17864904 1.5654244 0.28303102
0.16629077 1.563218 0.21303499
0.15368831 1.5684181 0.14164986
0.14121829 1.5631306 0.071022764
0.12307035 1.5367949 -0.031745963
0.12197682 1.2828234 -0.037692551
0.10961201 1.2998719 -0.10773556
0.083455436 1.5400152 -0.25614098
0.069017783 1.5502145 -0.33793595
0.11928809 0.67426383 -0.052170634
0.10334852 0.76912302 -0.1425367
0.13349509 0.20352618 0.029094923
0.12712568 0.21013793 -0.0069366014
0.12756006 0.15764181 -0.0043418435
0.12728006 0.11577633 -0.0058056675
0.12697479 0.077702068 -0.0074151079
0.12692131 0.040999405 -0.0075974893
0.12686141 0.0071605225 -0.0078180972
0.12699294 -0.025352282 -0.0069538136
0.12704177 -0.055166099 -0.006560429
0.12683253 -0.081778981 -0.0076327547
0.12685098 -0.10795911 -0.0074140956
0.12681432 -0.13244432 -0.0075091752
0.12683736 -0.15592089 -0.007266317
0.12690459 -0.17842481 -0.0067736013
0.12606013 -0.2071373 -0.011399375
0.12592518 -0.22690153 -0.012055333
0.12624691 -0.24727373 -0.01012081
0.12624438 -0.26599687 -0.010026596
0.12621334 -0.28407365 -0.010094611
0.1263071 -0.30191374 -0.0094550876
0.12652275 -0.31948927 -0.008124481
0.1263566 -0.33594647 -0.0089602889
0.12629656 -0.3522884 -0.0091944057
0.12634107 -0.36849263 -0.0088358037
0.12631744 -0.38436365 -0.008864102
0.12620883 -0.40777084 -0.0093221534
0.12625633 -0.42328852 -0.0089476146
0.12605195 -0.43860927 -0.010002136
0.12611414 -0.45397547 -0.0095447889
0.12609585 -0.46929866 -0.0095442422
0.12599707 -0.48466489 -0.010000476
0.12599188 -0.50007272 -0.0099259568
0.12607455 -0.52329069 -0.0093015935
0.12596345 -0.53908414 -0.0098284101
0.12595162 -0.5549894 -0.0097923791
0.12587179 -0.57122767 -0.010142074
0.125396 -0.58843035 -0.012737791
0.1258056 -0.6130262 -0.010260817
0.12528802 -0.62272865 -0.013144999
0.12571156 -0.64840651 -0.010589497
0.12545572 -0.66745216 -0.011938488
0.12533937 -0.68681639 -0.012496423
0.12430298 -0.70985991 -0.018272402
0.12449726 -0.72997218 -0.017069012
0.12557597 -0.75856841 -0.010799319
0.12501615 -0.78374344 -0.013873093
0.12480809 -0.80887026 -0.014952059
0.12414841 -0.83766812 -0.018592469
0.12426335 -0.86445397 -0.017840024
0.12518032 -0.90357876 -0.012489302
0.1249273 -0.93701696 -0.013824237
0.12430618 -0.97559446 -0.017246788
-0.048951685 -2.3784189 -0.99959189
-0.050744954 -2.5390642 -1.0096611
-0.050690729 -2.7009451 -1.0092543
-0.027771093 -2.6620359 -0.8791796
0.15508944 -2.6442354 0.15891463
0.16855726 -2.6373107 0.23537682
0.19499053 -2.636281 0.38545007
0.21470521 -2.6292834 0.49737835
0.22764975 -2.6113505 0.57087129
0.24084394 -2.61573 0.64579844
0.26045364 -2.6048734 0.75713158
0.27375659 -2.6025145 0.83265603
0.52897698 -4.9047856 2.2803361
0.68504012 -5.9268975 3.1654437
0.70791668 -5.7231712 3.2952628
0.72150022 -5.4458852 3.3723862
0.70956349 -4.9676404 3.3048005
0.71323639 -4.6710873 3.3257232
0.7215789 -4.2959266 3.3731675
0.70987648 -3.9515707 3.3069022
0.70699519 -3.695642 3.2906542
0.7156558 -3.5287404 3.3398514
0.7114284 -3.2984641 3.3159676
0.70441842 -3.0704236 3.2763047
0.70487446 -2.8950796 3.2789762
0.70452082 -2.7258914 3.2770557
0.71371895 -2.5280857 3.3293388
0.69430876 -2.3056448 3.2193587
0.71023208 -2.2229259 3.3097329
0.70402533 -2.0667043 3.2746205
0.69950551 -1.9238064 3.2490735
0.69766104 -1.7948666 3.2386963
0.69407415 -1.6665241 3.2184389
0.6963318 -1.4995434 3.2313619
0.69553441 -1.3867117 3.2269213
0.69331318 -1.2743723 3.2144067
0.69573456 -1.1718024 3.2282169
0.69700533 -1.068624 3.2355027
0.65316147 -0.92065847 2.986973
0.66648924 -0.83827406 3.0626264
0.68885607 -0.7568236 3.1895335
0.68616658 -0.60797071 3.174403
0.68222904 -0.50991583 3.1521554
0.67804682 -0.41358161 3.1285205
0.24440329 -0.41733479 0.67000395
0.24290448 -0.41005364 0.66158807
0.24205753 -0.406728 0.65682709
0.24131308 -0.39463693 0.65273011
0.24093045 -0.39086312 0.65060198
0.24111931 -0.38152772 0.65175569
0.24128014 -0.36721724 0.65279192
0.24270554 -0.3487795 0.66099858
0.24275507 -0.33813357 0.66136229
0.24200417 -0.32411972 0.65722889
0.24098359 -0.3164224 0.6515249
0.24064018 -0.3061651 0.64966071
0.24053733 -0.28829864 0.64920199
0.2407975 -0.2740843 0.65076017
0.24119452 -0.25824386 0.65309435
0.2415736 -0.24133708 0.6553269
0.24154402 -0.21704768 0.65528387
0.49506482 1.7093589 2.0930409
0.46976745 1.6725733 1.9496852
0.44995117 1.6681818 1.8374085
0.43089247 1.6618943 1.7294278
0.40729454 1.6873201 1.5957524
0.39199904 1.7035235 1.5091106
0.37536711 1.6990141 1.4148912
0.36072382 1.7135276 1.3319485
0.33273801 1.5240991 1.1733493
0.3199839 1.5390896 1.1011189
0.30665156 1.5408738 1.02561
0.29483804 1.5697128 0.95871383
0.27441561 1.5465068 0.84304744
0.26218286 1.5601796 0.77377504
0.24844877 1.5129634 0.69598836
0.23716104 1.5612261 0.63207614
0.22482525 1.5644211 0.56222034
0.21248357 1.5631343 0.49233145
0.20018744 1.5613686 0.42270124
0.18792155 1.5581374 0.3532429
0.16935834 1.5646291 0.24812476
0.1567827 1.5711042 0.17691183
0.14433596 1.5660943 0.10642966
0.13219559 1.5497248 0.037684415
0.12030273 1.5280353 -0.02965733
0.11668313 1.3301643 -0.050102003
0.093311496 1.5485259 -0.18250993
0.073081762 1.5464985 -0.29707113
0.12540171 0.65773451 -0.00044830356
0.11810353 0.64942157 -0.041739587
0.099487685 0.72478205 -0.14714751
0.12521386 0.20092179 -0.0010254143
0.12531318 0.15191692 -0.00037989605
0.12323771 0.10337613 -0.012021213
0.1234175 0.063112892 -0.010919035
0.12329027 0.028104989 -0.011557227
0.12349061 -0.0062852446 -0.010338318
0.12351094 -0.037191004 -0.010139744
0.12355138 -0.066171013 -0.0098270895
0.12331474 -0.092024215 -0.011085103
0.12356979 -0.1187036 -0.0095556965
0.12348994 -0.14245956 -0.009924748
0.12345881 -0.16525462 -0.010017523
0.12346149 -0.1871286 -0.0099185929
0.12348381 -0.20812668 -0.0097083515
0.12351234 -0.22829925 -0.0094627691
0.12369068 -0.24813981 -0.0083679557
0.12385611 -0.2672064 -0.0073463134
0.12314317 -0.29247659 -0.011261912
0.12329917 -0.31023699 -0.010293645
0.12340973 -0.32742754 -0.0095829545
0.12346666 -0.34412223 -0.0091762822
0.12363208 -0.360623 -0.0081545431
0.12356267 -0.3765251 -0.0084639722
0.12342128 -0.39216891 -0.0091814362
0.1233765 -0.40775949 -0.0093512591
0.12342752 -0.42327714 -0.0089779627
0.12322644 -0.43859771 -0.010033705
0.12346577 -0.45398134 -0.0085929809
0.12330446 -0.4769462 -0.0093812421
0.12308219 -0.4923878 -0.010557037
0.12312751 -0.50782669 -0.010216043
0.12292305 -0.52355701 -0.011290893
0.12247474 -0.53976649 -0.013748066
0.12298042 -0.55518508 -0.010797426
0.12290653 -0.57964617 -0.0110901
0.12282301 -0.59640795 -0.011479411
0.12268624 -0.61366481 -0.012170486
0.12250444 -0.63149077 -0.013116945
0.12228678 -0.64995658 -0.014266554
0.12267691 -0.67686445 -0.011928963
0.12247961 -0.69682932 -0.012963174
0.12198149 -0.71862382 -0.015702633
0.12209842 -0.73930144 -0.014955712
0.12194155 -0.76191026 -0.015760798
0.12253527 -0.79442739 -0.012269275
0.12188437 -0.82222402 -0.015874745
0.12213598 -0.84738612 -0.014364449
0.12183844 -0.87696022 -0.015967006
0.12131742 -0.90992868 -0.018836312
0.12233886 -0.95284188 -0.012920519
-0.05560695 -2.2723126 -1.0214459
-0.05005113 -2.4355648 -0.98982573
-0.051451541 -2.5996499 -0.99767864
-0.051793799 -2.7724922 -0.99953383
-0.025047407 -2.6959152 -0.84784347
-0.0024056435 -2.642458 -0.7194199
0.11140399 -2.6442065 -0.073701553
0.15918143 -2.6366563 0.19739228
0.18567635 -2.6363227 0.34772915
0.19885629 -2.6246541 0.42251441
0.21192107 -2.6173458 0.49664634
0.22505474 -2.6203945 0.57116807
0.24461015 -2.6085522 0.68210399
0.25805059 -2.6148412 0.75835121
0.27109209 -2.6026144 0.83233821
0.52478015 -4.8829708 2.2704988
0.67929238 -6.3936305 3.1462238
0.72200048 -5.2821608 3.3885961
0.7255398 -4.9577255 3.4087527
0.70988041 -4.5117855 3.3201053
0.71517956 -4.2671504 3.3502357
0.67694545 -3.7427981 3.1336486
0.70641744 -3.707895 3.3007758
0.71420813 -3.4295654 3.3450785
0.7083661 -3.1980114 3.3120694
0.70522445 -2.9968429 3.2943647
0.70379853 -2.816745 3.2863841
0.70568234 -2.6614602 3.2971621
0.69748873 -2.4727802 3.2508256
0.70134813 -2.3413699 3.2728014
0.70779461 -2.1543195 3.3094928
0.69993502 -1.9965173 3.2650499
0.69736266 -1.8624076 3.2505744
0.6941064 -1.7320472 3.2322223
0.69295168 -1.6118484 3.2257824
0.69079024 -1.4933361 3.2136366
0.69044852 -1.3820537 3.2118058
0.69003284 -1.2732754 3.2095563
0.69160157 -1.1696608 3.2185555
0.67226499 -0.99204683 3.1091135
0.65303755 -0.87633246 3.0002344
0.69267535 -0.81118959 3.2250233
0.68599373 -0.70739114 3.1872597
0.68213582 -0.60774815 3.1655028
0.67871219 -0.51005352 3.1462076
0.2545239 -0.42759088 0.74197316
0.24128431 -0.41790408 0.66708809
0.23978981 -0.40632477 0.65874153
0.2389109 -0.39876932 0.65384281
0.2385397 -0.3949579 0.65178037
0.23802009 -0.38254866 0.64896065
0.23786831 -0.36913356 0.6482265
0.23983881 -0.33908385 0.65961027
0.23991351 -0.33349547 0.66007638
0.23939703 -0.32416087 0.6572333
0.23792236 -0.31242919 0.64900011
0.23754759 -0.30220577 0.64696085
0.23752691 -0.28373352 0.64697272
0.23800576 -0.26818052 0.64977461
0.23885848 -0.24954513 0.65469718
0.23807953 -0.23043518 0.65041149
0.4817847 1.7081977 2.0330467
0.45907491 1.6869454 1.9043912
0.43943948 1.6811168 1.793169
0.4204697 1.6726638 1.6857189
0.40417683 1.6828878 1.5934511
0.38858742 1.6954502 1.5051715
0.37185353 1.6889945 1.4103957
0.34546804 1.6448922 1.2609335
0.32439864 1.5436378 1.1415374
0.31085977 1.5450648 1.064875
0.29774687 1.5492971 0.99062812
0.28677779 1.598277 0.92855394
0.27187502 1.5513688 0.84413701
0.25918773 1.5512896 0.77229971
0.24697843 1.5644324 0.70317769
0.22828557 1.5646057 0.59733689
0.21586761 1.5585744 0.52702218
0.19130234 1.5640403 0.38793352
0.178992 1.5635705 0.31822985
0.1666041 1.5656067 0.24808717
0.15408449 1.5691005 0.17719793
0.13547888 1.5591774 0.071841262
0.12354124 1.5376859 0.0042379848
0.12130377 1.2945873 -0.0084792282
0.1088194 1.3157251 -0.079163268
0.084377326 1.5393757 -0.21754165
0.069506615 1.5596316 -0.30175579
0.1164078 0.69176769 -0.036198448
0.11136149 0.65013564 -0.064746909
0.10328914 0.64836127 -0.11043203
0.12968093 0.21298343 0.03913923
0.12203425 0.18085325 -0.0040690722
0.12164616 0.13783045 -0.0062111691
0.12189775 0.093896158 -0.0047272742
0.12180308 0.056194369 -0.0052035917
0.12172081 0.021392127 -0.00560831
0.12172338 -0.01134555 -0.0055311979
0.12190226 -0.04277356 -0.0044539636
0.12159176 -0.069542259 -0.0061490755
0.12164446 -0.09654972 -0.005785326
0.12151872 -0.12119261 -0.0064321961
0.12159714 -0.14542522 -0.0059214588
0.12070181 -0.17571864 -0.01089571
0.12064096 -0.19692484 -0.011173463
0.12059006 -0.21731065 -0.011394447
0.12069122 -0.23738369 -0.010753206
0.1207831 -0.25668541 -0.010164368
0.12101411 -0.27566749 -0.0087866038
0.12089391 -0.29322287 -0.0093995659
0.12105688 -0.31091803 -0.0084070973
0.12100789 -0.32775015 -0.0086162211
0.12090151 -0.34415284 -0.0091505731
0.12106974 -0.36065391 -0.0081280479
0.12100317 -0.3765564 -0.0084366789
0.12083167 -0.40000397 -0.0093059642
0.12066504 -0.41545638 -0.010182135
0.12076596 -0.43096539 -0.0095412964
0.1207879 -0.44633764 -0.0093484009
0.12072945 -0.46165881 -0.009611506
0.12076393 -0.47697997 -0.0093478505
0.12054478 -0.49242198 -0.010522567
0.12042046 -0.5079658 -0.011159839
0.12058537 -0.53127342 -0.01012342
0.12053058 -0.5471428 -0.010366975
0.12040666 -0.56333858 -0.011003018
0.12005143 -0.58020014 -0.012951314
0.12055603 -0.60442722 -0.0099904258
0.12031405 -0.62206912 -0.011297525
0.12019443 -0.63997471 -0.01191122
0.12004144 -0.65852284 -0.012714801
0.11970946 -0.67821801 -0.014534414
0.11967792 -0.69780713 -0.014650472
0.11982959 -0.72793806 -0.013697115
0.11958641 -0.75032234 -0.015016004
0.11923884 -0.7742632 -0.0169283
0.11936735 -0.79747707 -0.016140498
0.11887585 -0.82478255 -0.018872166
0.12033148 -0.85779011 -0.010528292
0.11989664 -0.88888007 -0.012942374
0.11938762 -0.92276233 -0.015779631
0.11908359 -0.95808667 -0.01745598
-0.054690227 -2.3158953 -1.0038887
-0.05563993 -2.4632151 -1.0093306
-0.057131398 -2.630471 -1.017863
-0.049402885 -2.8223469 -0.9740991
0.0031592096 -2.6509001 -0.67574179
0.10226163 -2.6448402 -0.11327887
0.11579262 -2.6556563 -0.036483407
0.14348309 -2.6442146 0.12070298
0.19010136 -2.6403182 0.38533488
0.20327087 -2.6323154 0.46010092
0.21633485 -2.6216776 0.5342716
0.22939993 -2.6164069 0.60844409
0.23606834 -2.6207426 0.64627272
0.26233378 -2.6075234 0.79541755
0.51130474 -4.9426341 2.2058029
0.68900448 -6.2695117 3.2125788
0.68687439 -5.7671385 3.2010431
0.68804497 -4.9883895 3.20856
0.70717412 -4.8189259 3.317286
0.71264839 -4.4043679 3.3488305
0.7119087 -4.1257496 3.3449674
0.68222135 -3.6788425 3.1770804
0.7133655 -3.653136 3.3538129
0.70716673 -3.4023683 3.3189607
0.70291179 -3.1813233 3.2951043
0.69911933 -2.9781585 3.2738543
0.69917881 -2.8063653 3.274421
0.70597798 -2.5940022 3.3132832
0.67765087 -2.3314669 3.1529393
0.70796323 -2.302989 3.3249493
0.70132786 -2.1410224 3.287535
0.69536906 -1.9901246 3.2539475
0.69149584 -1.8529174 3.2321751
0.68848848 -1.7240399 3.2153053
0.691136 -1.5559863 3.2305751
0.69004792 -1.4411666 3.2245758
0.6888451 -1.3292928 3.2179229
0.68807137 -1.22091 3.2136998
0.69014567 -1.1186178 3.2256222
0.64759547 -0.96719021 2.9845164
0.69084167 -0.91300792 3.2298858
0.68852532 -0.75976008 3.2169843
0.68151623 -0.65714025 3.1773918
0.67873412 -0.55867016 3.1617665
0.67344469 -0.4615472 3.1319206
0.25185058 -0.42190492 0.74137086
0.24024133 -0.4209637 0.67561394
0.23808973 -0.40965924 0.66353756
0.23689158 -0.40236658 0.65682626
0.23636281 -0.39874452 0.65386921
0.23538283 -0.38716471 0.64843708
0.2356361 -0.38219914 0.64991593
0.23592582 -0.37240416 0.65164387
0.23629026 -0.35217968 0.65388077
0.23744333 -0.33860624 0.66050714
0.23696096 -0.32928476 0.65785605
0.23626757 -0.32051751 0.65400773
0.23505084 -0.30786017 0.64723325
0.23570883 -0.29931599 0.65100944
0.23538722 -0.28186509 0.64931417
0.23611996 -0.26494518 0.65355879
0.23603137 -0.24339879 0.65318757
0.23614177 -0.22687884 0.65390247
0.50099641 1.71363 2.1574061
0.47528601 1.679536 2.0116539
0.45376068 1.6657283 1.8896486
0.42779288 1.6830999 1.7425072
0.410732 1.6895907 1.6458334
0.39379975 1.6910071 1.5498859
0.37711814 1.6882937 1.455357
0.36247942 1.7043927 1.3724257
0.33072338 1.4724777 1.1922626
0.32157084 1.5408558 1.1404777
0.30810994 1.5431962 1.0642176
0.28885883 1.5561857 0.95516592
0.27484336 1.5309519 0.87574363
0.26306692 1.5565892 0.80905151
0.25056276 1.5611482 0.73821932
0.2379816 1.5581925 0.66694576
0.2256849 1.5646197 0.59729159
0.2132463 1.5555904 0.5268231
0.19486542 1.573357 0.42271161
0.18254973 1.5671194 0.35294259
0.17021203 1.5664028 0.28305247
0.15770394 1.5721517 0.21220036
0.1454608 1.5604808 0.14284021
0.13304164 1.5552392 0.07248617
0.12073495 1.544533 0.0027669088
0.11867563 1.2965281 -0.0089885034
0.10120553 1.3008212 -0.10793968
0.079467624 1.4662628 -0.23103112
0.060798366 1.5474147 -0.33677274
0.11121086 0.67241496 -0.051356722
0.10555245 0.64042318 -0.083385713
0.13204505 0.2182243 0.06670516
0.12760258 0.20865834 0.04158571
0.11874356 0.2126458 -0.0085308002
0.11837967 0.16664451 -0.01054365
0.11847614 0.12135908 -0.0099453032
0.11869554 0.079249009 -0.0086478954
0.11864369 0.042501654 -0.0088852271
0.11870359 0.007885051 -0.0084874658
0.11871792 -0.023944687 -0.008346336
0.11876775 -0.053808521 -0.0080025736
0.11855911 -0.080473006 -0.0091225393
0.11871339 -0.10733563 -0.0081845075
0.11881997 -0.13244994 -0.0075157741
0.11870869 -0.1553527 -0.0080811298
0.11892599 -0.17842995 -0.0067832018
0.11858334 -0.19845754 -0.0086585628
0.11854146 -0.2187521 -0.0088284519
0.11865103 -0.23873213 -0.0081393644
0.11813854 -0.26559401 -0.01094162
0.1184339 -0.2844519 -0.0091981413
0.11853641 -0.30225918 -0.0085475165
0.11859533 -0.31949249 -0.0081435638
0.11826834 -0.33567378 -0.0099271666
0.11838139 -0.35229108 -0.0092157796
0.11826206 -0.36828718 -0.0098216077
0.11858531 -0.38453948 -0.0079179434
0.11832356 -0.39998531 -0.0093308268
0.11850177 -0.41564623 -0.0082489876
0.11825656 -0.43094563 -0.0095677972
0.11823657 -0.45397648 -0.0095735984
0.11822379 -0.46929944 -0.0095742149
0.11813044 -0.48466539 -0.01003162
0.11813067 -0.50007302 -0.0099582933
0.11805253 -0.51562518 -0.010329296
0.11789882 -0.53140658 -0.011128702
0.11810893 -0.55498874 -0.0098290537
0.1180343 -0.57122678 -0.010180054
0.11773053 -0.58815342 -0.011830481
0.11770534 -0.60501951 -0.011901229
0.11746586 -0.6227268 -0.013187168
0.11789707 -0.64840448 -0.010633841
0.11796101 -0.66660458 -0.010199358
0.11707075 -0.68817568 -0.015176437
0.11741478 -0.7069478 -0.01315382
0.11700051 -0.72893864 -0.015431904
0.11764511 -0.75912416 -0.011669519
0.11765566 -0.78197628 -0.011538844
0.11730485 -0.80763471 -0.01345809
0.11690861 -0.83509231 -0.015635444
0.11675461 -0.86311078 -0.016439356
0.11766658 -0.90215963 -0.01116319
0.11646266 -0.94139981 -0.017923813
0.11667116 -0.97483402 -0.016673749
-0.0558214 -2.3719497 -0.99503607
-0.056548685 -2.5234184 -0.99912864
-0.057903755 -2.6966689 -1.0067877
-0.034469139 -2.6525333 -0.87381411
0.0082091736 -2.656472 -0.63162005
0.1609541 -2.6353297 0.2353164
0.17412691 -2.6416433 0.31008542
0.18735081 -2.6403048 0.38514635
0.2005188 -2.6313083 0.4598923
0.21358788 -2.6216762 0.53407741
0.23346858 -2.6287065 0.6469
0.24649025 -2.6164687 0.7208336
0.25956264 -2.6065586 0.79505455
0.59323734 -9.0371847 2.6852508
0.50553453 -4.9028912 2.189621
0.69459623 -6.119596 3.2615173
0.70210946 -5.7409096 3.3043425
0.70336592 -4.9796219 3.3119142
0.70500374 -4.6655908 3.3214035
0.70348674 -4.3566465 3.3130023
0.699099 -4.055223 3.2883201
0.69755536 -3.683974 3.2798376
0.71060145 -3.5440698 3.3539605
0.70495272 -3.304934 3.3221076
0.70080847 -3.0913792 3.2987769
0.69871652 -2.9023592 3.2870758
0.69880593 -2.7347159 3.2877367
0.69932318 -2.5777197 3.2908204
0.67768747 -2.3422551 3.1683106
0.70420784 -2.2287869 3.3188798
0.69802505 -2.072227 3.2839696
0.6921348 -1.9248993 3.250715
0.68997246 -1.7950475 3.2385936
0.6871767 -1.6686541 3.2228789
0.68573695 -1.550048 3.2148509
0.68462121 -1.4357836 3.2086582
0.68575621 -1.2748126 3.2152915
0.68682343 -1.1702708 3.2214735
0.68909663 -1.068575 3.2344925
0.64626998 -0.92167014 2.9917848
0.66355133 -0.8423152 3.0899005
0.68213171 -0.75759763 3.1953838
0.67823488 -0.65699446 3.1734135
0.67476249 -0.55852127 3.1538486
0.67043567 -0.41369683 3.1294997
0.24940643 -0.4217881 0.74231738
0.23679847 -0.41718429 0.6709671
0.23512635 -0.4100759 0.66158217
0.23409708 -0.40260887 0.65584272
0.23331256 -0.39059126 0.65153968
0.23291741 -0.38685539 0.64934736
0.23316874 -0.38187325 0.65082127
0.23302947 -0.36356369 0.650226
0.23443957 -0.35006595 0.65832013
0.23456962 -0.33394074 0.65920371
0.23405404 -0.32463688 0.65637696
0.23318164 -0.31643882 0.65152639
0.23316382 -0.31077161 0.651474
0.23286816 -0.28771183 0.64999163
0.23271731 -0.27535743 0.64923334
0.23325068 -0.25891393 0.65235567
0.23307598 -0.23726131 0.65151083
0.23336329 -0.21921836 0.65323776
0.48737901 1.710901 2.0943041
0.462789 1.6798248 1.9549425
0.4422498 1.6698138 1.838555
0.42419448 1.672896 1.7362547
0.40745398 1.6817728 1.6414107
0.38316128 1.6928151 1.5037824
0.36784375 1.7035311 1.4170067
0.35324186 1.7190387 1.3342894
0.32485569 1.5240892 1.1733768
0.3121593 1.540027 1.101465
0.29887354 1.5427793 1.0262088
0.28619587 1.5532863 0.95440155
0.2719593 1.5221829 0.87374896
0.25430971 1.5601761 0.77378982
0.24084415 1.5238538 0.69750834
0.22931059 1.5622185 0.63218898
0.21685019 1.5554411 0.56160939
0.20463826 1.5661308 0.49243942
0.19232681 1.5613669 0.42270353
0.18000929 1.5671302 0.35293329
0.16764635 1.5684098 0.28290454
0.14912397 1.5621685 0.17798498
0.13654472 1.5641158 0.10672805
0.1247183 1.5389229 0.039739158
0.11234756 1.5309532 -0.030336624
0.11077882 1.288624 -0.039156191
0.08583831 1.5418245 -0.18051514
0.071259879 1.5608298 -0.26311326
0.10992346 0.65401787 -0.043672882
0.10231667 0.64768648 -0.086727597
0.12678108 0.21707101 0.052203156
0.11726917 0.20175414 -0.0015647011
0.11716289 0.15436791 -0.0020765776
0.11722149 0.11018857 -0.0016529745
0.11684548 0.073041879 -0.0036941366
0.11671084 0.037228372 -0.0043660952
0.11644119 0.0049689193 -0.0058036027
0.11615223 -0.039977249 -0.0073043429
0.11646581 -0.070193566 -0.0054333331
0.1154335 -0.11748037 -0.011103611
0.1154854 -0.14188005 -0.010716502
0.11530541 -0.16414471 -0.01164459
0.11574171 -0.18766712 -0.0090767313
0.11561529 -0.20813546 -0.0097007621
0.11548903 -0.22783872 -0.010323796
0.115663 -0.24771051 -0.0092436876
0.11598287 -0.26721561 -0.0073359371
0.11580046 -0.28482148 -0.0082771266
0.11573787 -0.3022545 -0.0085386662
0.11595786 -0.31979716 -0.0071971226
0.11558677 -0.34413227 -0.0091616167
0.11558138 -0.36040822 -0.0090983603
0.1155092 -0.37634465 -0.0094139129
0.11553676 -0.39217946 -0.0091636162
0.11566275 -0.40789205 -0.0083548706
0.11553985 -0.42328799 -0.0089579029
0.11551069 -0.43866113 -0.0090290401
0.11540131 -0.45397508 -0.0095552346
0.11523779 -0.47699261 -0.010341184
0.11536077 -0.49232975 -0.0095490832
0.11540391 -0.50773406 -0.0092097884
0.11519723 -0.52342993 -0.010287483
0.11508859 -0.53925794 -0.010808946
0.11507937 -0.55519754 -0.01076636
0.11500233 -0.5714699 -0.011108348
0.11524995 -0.59583604 -0.0095609305
0.11510787 -0.61302674 -0.0102716
0.11492036 -0.63078731 -0.011239843
0.11469661 -0.6491887 -0.01241341
0.11460418 -0.66787559 -0.012841986
0.11487194 -0.69590425 -0.011179164
0.11436655 -0.71763808 -0.013949818
0.11432815 -0.73878592 -0.014071267
0.11488593 -0.75856966 -0.010810563
0.11418648 -0.78433245 -0.014681322
0.11423046 -0.82098043 -0.014285972
0.11434117 -0.84674519 -0.013560383
0.11403789 -0.87629366 -0.015182745
0.11424766 -0.90499467 -0.013894418
0.11475446 -0.95062804 -0.010871248
-0.062434543 -2.3999491 -1.0156604
-0.057708025 -2.5864837 -0.98867655
-0.057122465 -2.7496946 -0.98523498
-0.031581648 -2.6830132 -0.84024876
-0.010914764 -2.6495996 -0.72290796
0.1444104 -2.6402745 0.15935031
0.15772499 -2.6413078 0.23499195
0.19078235 -2.6306288 0.4227964
0.20385584 -2.6213102 0.49707019
0.21703392 -2.627336 0.57194102
0.23661336 -2.614454 0.68311858
0.25002265 -2.6187308 0.75926226
0.26297668 -2.6035275 0.83281922
0.51560855 -4.8726377 2.2668157
0.6776641 -6.4794378 3.1864874
0.67473847 -5.9358993 3.1698577
0.68808049 -5.6323051 3.2455568
0.72075194 -5.3496981 3.4309475
0.72208256 -5.0013585 3.4385047
0.70467073 -4.5381885 3.3397217
0.70660532 -4.2668557 3.3507223
0.66919851 -3.7478878 3.1385071
0.69821447 -3.7098391 3.3031771
0.6988849 -3.4942899 3.3070202
0.70592177 -3.2304659 3.3470109
0.69852942 -3.0057509 3.3051171
0.69824404 -2.8303163 3.3035491
0.69882715 -2.6684103 3.306911
0.69694561 -2.5046344 3.2962925
0.68833035 -2.3242221 3.2474732
0.69572872 -2.2106249 3.2895079
0.68945634 -2.055126 3.2539854
0.68996984 -1.8652214 3.2569966
0.68642157 -1.7338301 3.2369337
0.68576676 -1.6145972 3.2332876
0.68379182 -1.4961696 3.2221541
0.6821515 -1.3821207 3.2129202
0.68190873 -1.273587 3.2116168
0.68331462 -1.1696649 3.2196679
0.68423378 -1.0663747 3.2249591
0.64290905 -0.87455243 2.9906325
0.68440455 -0.81108129 3.2261252
0.67807847 -0.7074275 3.1903176
0.67336178 -0.60742229 3.1636415
0.67081171 -0.50988823 3.1492584
0.246444 -0.42754212 0.74200165
0.23338634 -0.41768703 0.66808248
0.23206079 -0.41026595 0.66064274
0.23121513 -0.40695712 0.65588534
0.23042445 -0.39057392 0.65156114
0.23019589 -0.38652912 0.65030491
0.22992332 -0.37346169 0.64888018
0.2306288 -0.3623744 0.65296417
0.23199001 -0.34369802 0.66080976
0.23169535 -0.33392358 0.65921992
0.23133281 -0.32411987 0.6572451
0.22985962 -0.3123889 0.64901012
0.22962759 -0.30159214 0.64777637
0.2300055 -0.28769532 0.65000373
0.22981106 -0.26878354 0.64902574
0.23066747 -0.2501744 0.65396941
0.23059538 -0.23516102 0.65364492
0.23147444 -0.21344729 0.65871847
0.48053715 1.6825867 2.0724583
0.45137295 1.6911376 1.9071512
0.43144253 1.6828841 1.7941765
0.41372657 1.6864626 1.6937681
0.39593107 1.6820923 1.5929065
0.37972742 1.6875054 1.5010791
0.36415333 1.6945018 1.4128238
0.34628931 1.6647599 1.3115656
0.32260269 1.534386 1.1772398
0.30297285 1.5489224 1.066026
0.28974929 1.5512695 0.99110401
0.27781084 1.5779479 0.92348188
0.26368946 1.548478 0.8434549
0.25102746 1.5483758 0.77171856
0.23824097 1.5367428 0.69927132
0.22637606 1.5612382 0.6320672
0.20781304 1.5576079 0.52690148
0.19558088 1.5700681 0.4576101
0.18328236 1.5600685 0.38793269
0.17093849 1.5665917 0.31800556
0.15859962 1.564634 0.2481032
0.1462197 1.5621744 0.17796808
0.13399583 1.5512805 0.10871436
0.12181833 1.5389268 0.039723143
0.10392172 1.5109801 -0.061671399
0.1017383 1.2974777 -0.074068658
0.075966589 1.5469978 -0.22004561
0.061710637 1.5568249 -0.30081528
0.10860749 0.68900502 -0.035138004
0.10365069 0.64650017 -0.063190192
0.08432775 0.77780473 -0.17264473
0.12306592 0.22669731 0.046938177
0.11325765 0.18750741 -0.0085100736
0.11334042 0.14027974 -0.00798262
0.11421895 0.091554858 -0.0029426769
0.11540116 -0.051085062 0.0040135114
0.11539833 -0.078885324 0.0040634102
0.11524029 -0.10423806 0.0032340493
0.11338072 -0.12055156 -0.0072419718
0.11317421 -0.14363609 -0.0083455332
0.11329688 -0.16693313 -0.0075822426
0.11331226 -0.18871927 -0.007426952
0.11334667 -0.20962758 -0.0071634343
0.11354005 -0.23017795 -0.0059981504
0.11278083 -0.25665748 -0.010200049
0.11301155 -0.27563918 -0.0088227047
0.11289118 -0.29319417 -0.0094361454
0.11288971 -0.31056336 -0.0093753114
0.11283865 -0.32742828 -0.0095956037
0.11289818 -0.34412292 -0.009188747
0.11289697 -0.36039868 -0.0091263382
0.11282898 -0.37633494 -0.009442755
0.11286077 -0.39216954 -0.0091933431
0.11281869 -0.40776008 -0.0093629677
0.11276168 -0.43093333 -0.0095830597
0.11278345 -0.44630516 -0.0093909027
0.11272486 -0.46162593 -0.0096547762
0.11275916 -0.47694671 -0.0093919123
0.11271313 -0.49231857 -0.0095850276
0.11241551 -0.50793171 -0.011205591
0.11238687 -0.52355754 -0.011300748
0.11252531 -0.54710776 -0.010414972
0.11257044 -0.56307817 -0.010092429
0.11238144 -0.57964659 -0.011098748
0.11213534 -0.59670079 -0.012429478
0.11200405 -0.61399084 -0.0131095
0.11234973 -0.63956285 -0.011051822
0.11219437 -0.65807843 -0.011870007
0.11201589 -0.67730314 -0.012820237
0.11182562 -0.69729912 -0.013838235
0.11197279 -0.72738391 -0.012912268
0.1117265 -0.74973822 -0.014250796
0.11308132 -0.76676661 -0.006503175
0.11136214 -0.79743677 -0.016204242
0.11154508 -0.82159513 -0.015110834
0.11140519 -0.84869856 -0.015851462
0.11201666 -0.88814378 -0.012303589
0.11138328 -0.92272025 -0.015851293
0.11119571 -0.95730096 -0.016870826
-0.061785191 -2.3095191 -0.99916351
-0.062364127 -2.4534333 -1.0025165
-0.063525073 -2.617131 -1.0091919
-0.06537962 -2.8056383 -1.0198278
-0.033777952 -2.6829865 -0.840397
-0.005662981 -2.6606333 -0.68080783
0.10785502 -2.654629 -0.036442991
0.17557319 -2.6312954 0.34799421
0.18871723 -2.6316173 0.42260912
0.2083815 -2.6246476 0.53424555
0.22157156 -2.6263466 0.60911936
0.24130836 -2.61941 0.72125393
0.25460538 -2.6163752 0.79677296
0.26749361 -2.5988681 0.86998874
0.49324474 -5.0268207 2.148334
0.68007606 -6.2588339 3.2070422
0.66480398 -5.6153784 3.1211956
0.70022827 -5.5616384 3.3222895
0.69189245 -5.0978947 3.2755911
0.70476544 -4.8671227 3.3489482
0.69513655 -4.4759607 3.2948332
0.70471936 -4.1320806 3.3496864
0.67472315 -3.6827221 3.180095
0.70991313 -3.6817732 3.3797932
0.70068473 -3.4116735 3.3278134
0.69495523 -3.182117 3.2956371
0.69168764 -2.9815495 3.2773938
0.69135767 -2.8077343 3.2757843
0.69956768 -2.6011682 3.3226888
0.67128193 -2.3382821 3.1625941
0.70133293 -2.3084011 3.3331616
0.69277078 -2.1396337 3.2848456
0.68664789 -1.9883561 3.2503469
0.68354231 -1.8534641 3.232945
0.68021816 -1.7237407 3.2142973
0.68221015 -1.5543028 3.2258792
0.68357313 -1.4445305 3.2337947
0.68105865 -1.3299851 3.2197199
0.67995113 -1.2210175 3.2136188
0.68185431 -1.1185008 3.2245874
0.63981891 -0.96766847 2.9863811
0.66522205 -0.89715898 3.1306081
0.67874491 -0.80885309 3.2074654
0.67239118 -0.70585859 3.1715958
0.67043352 -0.55874032 3.1607363
0.66601217 -0.46165091 3.135819
0.24373165 -0.42765436 0.74097681
0.23234794 -0.42079625 0.67653817
0.23019415 -0.40943995 0.66445351
0.22917603 -0.40628785 0.6587221
0.22825925 -0.39437053 0.65365374
0.22770953 -0.39087215 0.65057927
0.22773336 -0.3818621 0.65080261
0.22741325 -0.36872414 0.64911878
0.22790721 -0.35301399 0.65205383
0.22921966 -0.33904976 0.65958893
0.2288916 -0.32927436 0.65781623
0.22834665 -0.31999207 0.65481287
0.22744825 -0.31185189 0.649804
0.22692762 -0.30217353 0.64693856
0.227724 -0.28649989 0.6515469
0.22730801 -0.2615304 0.64936531
0.22795981 -0.2433892 0.65315449
0.22782461 -0.22828361 0.65247774
0.49313575 1.7151248 2.1587043
0.46731588 1.6802816 2.0123029
0.44628748 1.6705958 1.8930932
0.42638943 1.66102 1.780295
0.4026719 1.6895541 1.6458886
0.38606933 1.6945064 1.5517901
0.37005424 1.6999499 1.4610238
0.35464275 1.7071087 1.373682
0.32559878 1.5141841 1.2089097
0.31370533 1.5436608 1.1415349
0.30012354 1.5441363 1.0645684
0.28702676 1.548358 0.9903546
0.26985192 1.6069492 0.89307147
0.25536972 1.5664053 0.81097674
0.24237615 1.555225 0.73734027
0.22996087 1.5581986 0.66699088
0.2176227 1.56164 0.59707892
0.20531361 1.5645899 0.52733159
0.18070695 1.5660657 0.38789999
0.16223575 1.5644299 0.28323302
0.14974375 1.5701877 0.21244919
0.13758868 1.5555575 0.14356746
0.12550528 1.5404978 0.075092249
0.11063855 1.2975324 -0.0091951005
0.098864146 1.3042263 -0.075906917
0.069567822 1.4984541 -0.24189457
0.053080857 1.5437282 -0.33532274
0.10554183 0.69644022 -0.038054213
0.1004703 0.65474129 -0.066761546
0.11929949 0.21128701 0.040103406
0.11248869 0.22276148 0.0015538854
0.11225952 0.17425859 0.00031490403
0.10990915 0.12538446 -0.01291603
0.11403892 0.037081547 0.010596913
0.11242994 -0.0030542172 0.001576305
0.11260075 -0.090939477 0.0027566538
0.11254574 -0.11611584 0.0025171025
0.11048392 -0.13121575 -0.0091019766
0.1105063 -0.15474872 -0.0089014573
0.11042736 -0.17676584 -0.0092749074
0.11052035 -0.19842756 -0.0086728241
0.11032519 -0.21823747 -0.0097042965
0.11058518 -0.23870255 -0.0081541389
0.1106834 -0.25790983 -0.0075208168
0.11076024 -0.27640525 -0.0070084329
0.11013944 -0.30154613 -0.010413714
0.11035816 -0.31915468 -0.0090956585
0.11019508 -0.33564514 -0.0099428082
