# .PCD v0.7 - Point Cloud Data file format
VERSION 0.7
FIELDS x y z
SIZE 4 4 4
TYPE F F F
COUNT 1 1 1
WIDTH 1424
HEIGHT 1
VIEWPOINT 0 0 0 1 0 0 0
POINTS 1424
DATA ascii
0.040390294 -2.5447967 -1.0136541
0.040001415 -2.7110076 -1.0157346
0.045911442 -2.9324629 -0.98202682
0.043567393 -3.169693 -0.99518692
0.041533705 -3.4376001 -1.0065818
0.042747106 -3.705693 -0.99955797
0.040351976 -4.0702929 -1.0129882
0.05412161 -4.4650173 -0.93467277
0.078140803 -8.2851677 -0.79735303
0.1520233 -8.2010489 -0.37814522
0.19779801 -8.3224783 -0.11838965
0.29315084 -10.627662 0.4229995
0.35544673 -10.73939 0.77645606
0.41851634 -10.790425 1.134289
0.48249239 -10.839475 1.4971972
0.54573822 -10.814882 1.855968
0.60864484 -10.768618 2.2128146
0.6051439 -4.9093151 2.1925654
0.79181272 -6.0989799 3.251684
0.80141848 -5.7434072 3.3062024
0.79992753 -4.9568501 3.2978117
0.8073284 -4.6916742 3.3398407
0.80338049 -4.3621078 3.3174927
0.79588187 -4.0379972 3.275007
0.797584 -3.6890466 3.2847497
0.81103098 -3.5511293 3.361093
0.8048203 -3.3082743 3.3259256
0.79993987 -3.0905776 3.2983067
0.79706103 -2.8977275 3.2820446
0.79754698 -2.73212 3.2848718
0.79946613 -2.5811124 3.2958305
0.78003341 -2.3538697 3.1856701
0.80383074 -2.2296793 3.320776
0.79538959 -2.0657887 3.2729695
0.79040301 -1.9215865 3.2447608
0.78901887 -1.7940673 3.2369881
0.78654766 -1.6685191 3.2230501
0.7846306 -1.5488379 3.2122562
0.78450191 -1.4366245 3.2116077
0.78632343 -1.2766048 3.2220643
0.78622919 -1.1701328 3.2216129
0.78816873 -1.06802 3.2326989
0.74553418 -0.92137039 2.9909356
0.78774256 -0.86221778 3.2304513
0.78070205 -0.75693595 3.1905992
0.77802229 -0.65699524 3.1754839
0.77424896 -0.50994915 3.1542096
0.34931269 -0.42735597 0.7439965
0.33552718 -0.4225359 0.66591936
0.33424225 -0.41070607 0.65875375
0.33356681 -0.40720633 0.65496355
0.33261272 -0.39118266 0.64971602
0.33271608 -0.38655293 0.65034354
0.33260527 -0.37312683 0.64983863
0.33393326 -0.36536929 0.65741342
0.33581197 -0.34542224 0.66819495
0.33522153 -0.33634079 0.6649282
0.33355165 -0.32514223 0.65557921
0.33267003 -0.31132174 0.65070212
0.3327156 -0.29931968 0.65104336
0.33252481 -0.28771707 0.65004402
0.33264616 -0.27410385 0.65081543
0.33228421 -0.25487968 0.64888662
0.33299044 -0.23587658 0.65297633
0.33358446 -0.20712888 0.65647113
0.58494395 1.6960167 2.0827222
0.56106687 1.6693871 1.9473553
0.541085 1.6632538 1.8340863
0.51658726 1.6890564 1.6952436
0.49869269 1.6838605 1.5938145
0.48216459 1.6857392 1.5001371
0.46638286 1.6899834 1.4106936
0.4489536 1.6656899 1.3119013
0.4248842 1.5297222 1.1754318
0.41068956 1.5211431 1.0949894
0.3912465 1.5291575 0.984815
0.37789264 1.519724 0.909141
0.36571324 1.532819 0.84013087
0.3520641 1.4971539 0.76277912
0.34152144 1.5644561 0.70305687
0.32892984 1.5582371 0.63170564
0.3165226 1.5534382 0.56139982
0.29815978 1.5580444 0.45734823
0.2858904 1.5630393 0.38782394
0.27354074 1.5685568 0.31784374
0.2612533 1.5626059 0.24821524
0.24871905 1.5680902 0.17718668
0.23654337 1.5542003 0.1081905
0.22375403 1.5594935 0.035713617
0.20483434 1.5507089 -0.071504503
0.19876185 1.4098895 -0.10588562
0.18988167 1.3472186 -0.15619098
0.16963072 1.281406 -0.27092925
0.20588574 0.65101385 -0.065201491
0.12421006 1.5183241 -0.52844936
0.19845426 0.47015524 -0.1071379
0.21591462 0.18662663 -0.0079357112
0.21620379 0.13780087 -0.0062187514
0.21623874 0.095442876 -0.0059437631
0.21602076 0.058463234 -0.0071033747
0.21603879 0.02284939 -0.0069239102
0.21639219 -0.012093545 -0.0048417309
0.21644831 -0.04280201 -0.0044459752
0.21587825 -0.068232529 -0.0076026516
0.21592113 -0.095292449 -0.0072817164
0.21592295 -0.12060499 -0.0071937619
0.215996 -0.14486524 -0.0067016231
0.21598025 -0.16754609 -0.0067132986
0.21517722 -0.19695249 -0.01115273
0.21527667 -0.21782285 -0.01051066
0.21553378 -0.23831874 -0.0089741573
0.21531481 -0.25671238 -0.01013873
0.21554419 -0.27569419 -0.0087593989
0.2154227 -0.2932494 -0.009370965
0.21558416 -0.31094429 -0.0083770575
0.21536785 -0.32748392 -0.0095266597
0.21559384 -0.34443745 -0.0081666522
0.21559294 -0.36067954 -0.0080940658
0.21552508 -0.37658188 -0.0084014572
0.21517982 -0.39989009 -0.010244203
0.21535642 -0.41558591 -0.0091645168
0.21528332 -0.43099022 -0.0095018763
0.21530388 -0.44636226 -0.0093077952
0.21507053 -0.46168333 -0.010554535
0.2151037 -0.47703919 -0.010289111
0.21515487 -0.50011915 -0.0098830145
0.21490404 -0.51579368 -0.011229333
0.21509366 -0.53129703 -0.010076373
0.21486706 -0.54735714 -0.011285435
0.21474293 -0.56358683 -0.011913174
0.21472307 -0.5799644 -0.011949389
0.21447718 -0.5970524 -0.013268333
0.21465074 -0.62243378 -0.012169065
0.21453162 -0.6403718 -0.012769138
0.2145378 -0.65854508 -0.012658275
0.21404816 -0.67867863 -0.015361574
0.21386425 -0.6987682 -0.016330037
0.21446793 -0.72744453 -0.012791304
0.21392845 -0.75088859 -0.015778603
0.2138664 -0.77371097 -0.016056543
0.21357323 -0.798702 -0.017646579
0.2140629 -0.83450228 -0.01475714
0.21403413 -0.86182564 -0.014847687
0.21387087 -0.89167929 -0.015702097
0.21349649 -0.92494088 -0.017755603
0.21449049 -0.96960509 -0.012007041
0.038176741 -2.3278 -1.0128167
0.036674507 -2.4802892 -1.0213079
0.042399969 -2.6691704 -0.98875558
0.040457591 -2.8661456 -0.99975777
0.040364992 -3.0690331 -1.0002648
0.038900159 -3.3147962 -1.0085714
0.036537446 -3.608496 -1.0219876
0.046356965 -3.9535646 -0.96624774
0.049323298 -4.2910361 -0.94943511
0.043032654 -4.8632827 -0.98522335
0.12472454 -8.2830086 -0.52219445
0.17183702 -8.3346415 -0.25476649
0.26045012 -10.714095 0.24758428
0.32264033 -10.744051 0.6005919
0.41779989 -10.871136 1.1407207
0.51213688 -10.81871 1.6762708
0.57386124 -10.737361 2.0266943
0.58857107 -4.9295645 2.1123476
0.77959585 -6.2342868 3.1962783
0.78407437 -5.8058138 3.22189
0.78523278 -5.020442 3.2288322
0.8021335 -4.8295264 3.3248718
0.80732495 -4.4113784 3.3545582
0.80589217 -4.1271276 3.3465779
0.77604908 -3.6786768 3.1774135
0.81037438 -3.6727057 3.3722825
0.80260378 -3.4113877 3.3283272
0.79550821 -3.1743338 3.2881961
0.79300815 -2.9779904 3.274133
0.7994166 -2.7522237 3.3106678
0.79919928 -2.5908952 3.3095486
0.77291238 -2.33634 3.1605141
0.80353397 -2.3086495 3.3343635
0.79259342 -2.1318593 3.2723956
0.78721327 -1.983391 3.2419746
0.78581351 -1.8536336 3.2341361
0.78672737 -1.6753709 3.2394743
0.78403646 -1.5533199 3.2243066
0.78393024 -1.4406838 3.2238035
0.78273702 -1.3288443 3.2171319
0.78281057 -1.2217898 3.2176471
0.78422272 -1.1184627 3.2257571
0.74222273 -0.96762061 2.9875364
0.78828281 -0.86470717 3.2490366
0.7812556 -0.75877255 3.2092578
0.77719897 -0.65761805 3.1863344
0.77148145 -0.55824399 3.1539862
0.76741773 -0.46140182 3.1310217
0.34750304 -0.43267438 0.74846935
0.33361286 -0.42188284 0.66981566
0.33198178 -0.41026405 0.66068423
0.33095685 -0.40283188 0.65495086
0.33039427 -0.39491507 0.6518411
0.32995087 -0.3868376 0.6494078
0.33011112 -0.37748283 0.65040004
0.33038795 -0.36276495 0.65209538
0.33305266 -0.34582153 0.66729987
0.33207279 -0.33251494 0.66186422
0.33151615 -0.32878214 0.65874696
0.33067143 -0.32050008 0.65403646
0.33003086 -0.30560625 0.65052646
0.33002934 -0.29351464 0.65060139
0.33020252 -0.28000119 0.65166789
0.32965392 -0.26217988 0.64868057
0.3303104 -0.24406424 0.65249038
0.3306672 -0.21776566 0.65464222
0.59223002 1.6911747 2.1393695
0.56040567 1.6855975 1.9589169
0.54129994 1.6881522 1.8505923
0.52194875 1.6806191 1.7408733
0.50447762 1.682721 1.6418247
0.48792085 1.6875296 1.5479656
0.47096348 1.6811532 1.4518316
0.45651674 1.6989571 1.3699489
0.42862725 1.5216576 1.2117492
0.40836436 1.5268288 1.0969065
0.39491296 1.5246431 1.0206689
0.38154468 1.5175753 0.94490206
0.36948383 1.5348729 0.87655991
0.35709405 1.5428669 0.80634981
0.34497616 1.5582025 0.73768479
0.3324382 1.5562217 0.66663289
0.31400141 1.5644218 0.56215924
0.30168581 1.5661292 0.4923715
0.28937989 1.5573614 0.42263669
0.27707902 1.5651221 0.35293549
0.26475713 1.5644063 0.28311357
0.25253814 1.5552405 0.21387395
0.23386274 1.5552043 0.10805124
0.22116603 1.5575482 0.036106281
0.20817843 1.5621041 -0.037487645
0.19910185 1.4769485 -0.088916808
0.19501883 1.3141925 -0.11203727
0.18498226 1.282814 -0.16889763
0.17315556 1.2803905 -0.23590507
0.20542233 0.67608249 -0.052931041
0.19335394 0.72287989 -0.12129689
0.18701041 0.69396973 -0.15720543
0.19807829 0.48555061 -0.094389103
0.21432115 0.15434484 -0.0020811418
0.21417424 0.11176305 -0.0028417755
0.21401052 0.073019475 -0.0036966838
0.21387906 0.037206303 -0.0043678912
0.2140862 0.0020218592 -0.0031181485
0.21413286 -0.029613856 -0.0027778798
0.2139599 -0.057912808 -0.0036824401
0.21364236 -0.083765648 -0.0054066102
0.21367887 -0.10986522 -0.0051223999
0.2128125 -0.1424877 -0.0099195354
0.21278253 -0.16528258 -0.010011474
0.21263908 -0.18662645 -0.010746912
0.2128097 -0.20815422 -0.0097007584
0.21299258 -0.22879602 -0.0085848905
0.2125503 -0.24685186 -0.011014427
0.21302618 -0.26682648 -0.0082363337
0.21300484 -0.28483874 -0.0082781641
0.21310784 -0.30261338 -0.007614675
0.21257576 -0.32716143 -0.010513156
0.21300736 -0.33623719 -0.0080254404
0.21245819 -0.359974 -0.011020593
0.21272677 -0.37635991 -0.0094175274
0.21275672 -0.39219433 -0.0091678184
0.21271276 -0.40778473 -0.0093371635
0.21276458 -0.42330214 -0.0089633819
0.21256441 -0.43862259 -0.010018672
0.21243848 -0.46165001 -0.010612885
0.21247086 -0.47700548 -0.010349206
0.21242304 -0.49241203 -0.010540338
0.21246915 -0.50785071 -0.010198852
0.21226561 -0.52358091 -0.011273214
0.21216035 -0.53944302 -0.011790215
0.21215475 -0.55541646 -0.011742016
0.21191308 -0.57196444 -0.013032783
0.21216938 -0.59643096 -0.011459312
0.21203357 -0.61368763 -0.012149793
0.21201487 -0.63115507 -0.012176219
0.21147634 -0.65036994 -0.015151118
0.21155132 -0.66872948 -0.014646363
0.21167798 -0.69732076 -0.013808925
0.2113345 -0.71864581 -0.015678048
0.21145241 -0.7393232 -0.014930297
0.21192698 -0.77080274 -0.012120304
0.21161446 -0.79565215 -0.013814574
0.21124259 -0.82224512 -0.015845852
0.21110222 -0.84937513 -0.01656419
0.21094541 -0.87834495 -0.017376147
0.21180236 -0.91914356 -0.012399669
0.033470955 -2.2755075 -1.0238303
0.038549822 -2.4429297 -0.9949311
0.03739626 -2.6055374 -1.0014199
0.035993565 -2.7886894 -1.009326
0.035481121 -2.9852421 -1.0121862
0.033231311 -3.2261524 -1.0249087
0.040052474 -3.5294936 -0.98615897
0.0397931 -3.8352911 -0.98760772
0.038420312 -4.2127662 -0.99538606
0.039086774 -4.6323209 -0.99160904
0.09920489 -8.2184048 -0.65098578
0.14535743 -8.3044357 -0.38920042
0.19408685 -8.2356539 -0.11277144
0.25757039 -10.684082 0.2468159
0.31962302 -10.714081 0.59876758
0.38318774 -10.861373 0.95926458
0.4467687 -10.876864 1.3198786
0.47646326 -10.75893 1.4883541
0.57392919 -10.839298 2.0411906
0.63975006 -10.867889 2.4145379
0.6834572 -8.9521513 2.6629877
0.61333436 -4.8727188 2.2665348
0.77127922 -6.4269876 3.1619816
0.77486253 -5.961853 3.1824825
0.78531128 -5.6263008 3.241889
0.81570894 -5.3235331 3.4144568
0.81122619 -4.9276986 3.3891981
0.80191481 -4.534265 3.3365555
0.8045575 -4.2685537 3.3516757
0.77113676 -3.777112 3.1623299
0.79289478 -3.6906374 3.2858136
0.79717809 -3.4980075 3.3102207
0.79915303 -3.206718 3.3215954
0.79527444 -3.0012789 3.2997184
0.79522246 -2.8272903 3.2995348
0.79550147 -2.6643181 3.3012259
0.78931826 -2.4835317 3.266273
0.79149073 -2.345037 3.2786953
0.7923097 -2.2071397 3.2834415
0.78646302 -2.0533054 3.2503908
0.78648442 -1.8622715 3.2506599
0.78640276 -1.7400492 3.250294
0.78255892 -1.6128421 3.2285936
0.78154814 -1.4966291 3.2229564
0.77825445 -1.3794566 3.2043731
0.77882797 -1.2726016 3.2077172
0.78073192 -1.1695404 3.2186046
0.7680549 -0.99937594 3.1468546
0.73995852 -0.8741917 2.9876223
0.76526642 -0.79937643 3.1312189
0.77548468 -0.70745677 3.1892488
0.77076554 -0.60748541 3.162575
0.76665175 -0.50982851 3.139333
0.34417498 -0.42735383 0.74391979
0.33188042 -0.42573127 0.67428023
0.32976776 -0.41431692 0.66241777
0.32876456 -0.40674931 0.65680718
0.3282252 -0.39874417 0.65382689
0.32763934 -0.39088306 0.65058279
0.32741013 -0.37784189 0.64940012
0.32779172 -0.37240317 0.65160304
0.3296105 -0.35848385 0.66199458
0.33031154 -0.34108469 0.66608673
0.32928836 -0.32782903 0.66040128
0.32799158 -0.32103083 0.65312523
0.32753789 -0.31131572 0.65063024
0.32772678 -0.29874024 0.65177882
0.32712838 -0.28247824 0.64850146
0.32792217 -0.2722103 0.65304136
0.32780221 -0.25152856 0.65247691
0.32802716 -0.22687598 0.65386778
0.32964551 -0.19981086 0.66312134
0.56795114 1.6834732 2.0146215
0.54759425 1.6796039 1.8992552
0.52839172 1.6769525 1.7904347
0.50963539 1.6701196 1.6841449
0.4927783 1.6741679 1.5886242
0.47575349 1.669636 1.4921529
0.45469293 1.7052809 1.3728286
0.42530793 1.5076929 1.2062801
0.41066161 1.4929168 1.1232976
0.3988353 1.5184574 1.0563033
0.38579631 1.520481 0.98243392
0.37274399 1.516794 0.90848935
0.3610138 1.5416089 0.84203953
0.34268674 1.5611508 0.73821646
0.33008426 1.5572053 0.66682237
0.3177796 1.562636 0.59711623
0.30546159 1.5655876 0.52733451
0.29314834 1.5670625 0.45757976
0.28086671 1.5570658 0.3880057
0.26854146 1.5635957 0.31818226
0.25001395 1.5622298 0.21322356
0.23746793 1.5654581 0.14214838
0.22501887 1.5601916 0.071624018
0.21203235 1.5670613 -0.0019497806
0.21270144 1.2519256 0.0019587087
0.19632022 1.3570929 -0.09087871
0.18871866 1.2778693 -0.13390261
0.21354687 0.69796449 0.0070508402
0.20622498 0.68716574 -0.034394644
0.19922747 0.67118257 -0.073999807
0.1187302 1.4380236 -0.53049618
0.17968772 0.65090567 -0.18461789
0.19096884 0.45641428 -0.12053834
0.21257384 0.22191198 0.0020564557
0.211023 0.16094133 -0.0066141994
0.21210012 0.12977712 -0.00046267462
0.21030284 0.081611305 -0.010532258
0.21046023 0.043287203 -0.0095566735
0.21039286 0.0093784891 -0.0098562092
0.21051724 -0.023206906 -0.0090683261
0.21055914 -0.053095892 -0.0087485518
0.21047419 -0.080442406 -0.0091483686
0.21062514 -0.1073051 -0.0082103861
0.21045129 -0.1312158 -0.009114665
0.21033008 -0.15417504 -0.0097204382
0.21039215 -0.17676561 -0.0092868377
0.21063283 -0.19894224 -0.0078402692
0.21059154 -0.2192066 -0.0079929363
0.21054684 -0.23870188 -0.0081650689
0.21003121 -0.26556376 -0.010967189
0.21072023 -0.27640426 -0.0070187706
0.21009833 -0.30154496 -0.010423657
0.2103164 -0.3191534 -0.0091053294
0.21031962 -0.33591938 -0.0090055633
0.2100953 -0.35201913 -0.01019624
0.21031246 -0.36846516 -0.00888306
0.21046391 -0.38450959 -0.0079424838
0.21037236 -0.40009466 -0.0083799753
0.21020406 -0.41551188 -0.009252578
0.21004115 -0.43858075 -0.010053624
0.21010716 -0.45394677 -0.0095972111
0.21009262 -0.46926978 -0.009597593
0.20999749 -0.48463577 -0.010054756
0.20982294 -0.50013053 -0.010962223
0.20974363 -0.51571745 -0.011329384
0.20941743 -0.53168988 -0.013096439
0.20979796 -0.5551672 -0.01081425
0.20972282 -0.57143927 -0.01115722
0.20975256 -0.58784842 -0.010905132
0.20889774 -0.60622615 -0.015668677
0.20915373 -0.62303948 -0.014133279
0.20958519 -0.64876598 -0.011560523
0.20949203 -0.66742063 -0.012004193
0.20891413 -0.68814647 -0.015195837
0.20788863 -0.71128178 -0.020924896
0.20794572 -0.73199958 -0.020515386
0.20892559 -0.78429836 -0.014743295
0.20708054 -0.81684041 -0.025115877
0.208202 -0.83763444 -0.01866962
0.20928974 -0.87353057 -0.012369325
0.20592147 -0.92263639 -0.03137324
0.20851228 -0.93990833 -0.016594997
0.034268077 -2.3838856 -1.0039339
0.032399166 -2.5454919 -1.0143857
0.032104187 -2.7108834 -1.0159092
0.037399959 -2.9384019 -0.985659
0.035816897 -3.167803 -0.99445868
0.035893627 -3.4105115 -0.99383867
0.034880076 -3.7046542 -0.99937892
0.032591429 -4.0673852 -1.01212
0.046772491 -4.4544945 -0.9314031
0.070613362 -8.2613468 -0.79409152
0.14292994 -8.2516766 -0.38382989
0.18991521 -8.2994556 -0.11724921
0.28486043 -10.637613 0.42245063
0.3476958 -10.829307 0.77899277
0.41023144 -10.790417 1.1337314
0.47218513 -10.729096 1.4852048
0.53943849 -10.89711 1.8667692
0.60158402 -10.809052 2.2192488
0.59870207 -4.9307032 2.2007432
0.63334501 -4.9654627 2.3973179
0.78743613 -6.1400995 3.2718718
0.79377753 -5.7470427 3.3077502
0.81378382 -5.5292926 3.4212055
0.79048544 -4.9435701 3.2889049
0.79792202 -4.6795301 3.3310547
0.79548663 -4.3622513 3.3171952
0.79019129 -4.0536828 3.2871206
0.77418321 -3.7016792 3.1962721
0.80294538 -3.5498421 3.3594654
0.79936206 -3.321624 3.3391376
0.79302502 -3.0954123 3.3031933
0.78872263 -2.8953068 3.2788005
0.79002398 -2.7335038 3.2862053
0.7919597 -2.5824425 3.2972128
0.77240157 -2.3545773 3.1862881
0.79532129 -2.2272642 3.3163619
0.788544 -2.068856 3.2779529
0.78327328 -1.9235603 3.2480936
0.78112072 -1.7938031 3.2359254
0.77833486 -1.6675057 3.2201674
0.77722853 -1.5497143 3.2139385
0.77694684 -1.4371113 3.2123885
0.77894837 -1.2773201 3.2238162
0.77835858 -1.1700562 3.2205217
0.78132266 -1.0692272 3.2373855
0.73784089 -0.92152101 2.9908159
0.78092051 -0.86308414 3.2352099
0.77337128 -0.75731379 3.1924469
0.77121836 -0.65751314 3.1802909
0.76676184 -0.51013607 3.1550984
0.34184241 -0.43294829 0.74544197
0.32794675 -0.42235464 0.66681719
0.32664385 -0.41487119 0.65951902
0.32581156 -0.40718102 0.6548897
0.32527307 -0.39924362 0.65192634
0.32518664 -0.39057261 0.65152687
0.32484442 -0.37310186 0.6497671
0.32570648 -0.36159167 0.65474564
0.32768342 -0.34106708 0.66609055
0.32706416 -0.33204481 0.66266888
0.32578599 -0.32511866 0.65551102
0.32521245 -0.3158907 0.65234852
0.32466239 -0.30044332 0.6493637
0.32514358 -0.29233623 0.65213633
0.32487574 -0.27408075 0.65075105
0.32500982 -0.25955203 0.65159947
0.32509363 -0.23654881 0.65220648
0.32682669 -0.20984946 0.66211867
0.57644516 1.688816 2.0773375
0.55372578 1.6709076 1.9485849
0.53372765 1.6648241 1.835261
0.50813568 1.680409 1.6902486
0.49113014 1.6837933 1.5938929
0.47585946 1.699936 1.5073709
0.45895767 1.6917444 1.411608
0.44252828 1.6812959 1.3185248
0.41647381 1.517556 1.1709166
0.40251738 1.5116653 1.0918567
0.38965943 1.5188779 1.0190215
0.37027478 1.5197183 0.90921807
0.35852638 1.5445575 0.84266764
0.34488806 1.5119339 0.76542258
0.33372492 1.557538 0.70218199
0.32129771 1.5582576 0.63179123
0.30903158 1.5654362 0.56231099
0.29668027 1.5631543 0.49235135
0.27823934 1.5640833 0.38789767
0.26599649 1.5566244 0.31855479
0.2535654 1.5646566 0.24813731
0.2412466 1.5592229 0.17836228
0.22857691 1.5651377 0.10659191
0.21608092 1.559574 0.035811394
0.21438229 1.2815521 0.026389876
0.19158758 1.3994108 -0.10281155
0.1843677 1.3083258 -0.14363028
0.2003651 0.73261958 -0.052459564
0.19838259 0.64745134 -0.063574567
0.1833322 0.72841328 -0.14888237
0.19098839 0.46678782 -0.10515789
0.20807226 0.18671291 -0.0079507651
0.20815013 0.13950512 -0.0073956051
0.20816867 0.097105175 -0.007179114
0.20815812 0.058549788 -0.007129252
0.20805399 0.023679221 -0.0076117557
0.20851761 -0.012007001 -0.0048736539
0.20819366 -0.040631305 -0.0066057448
0.2081219 -0.068814561 -0.0069075432
0.20816359 -0.095848069 -0.0065663876
0.2081642 -0.12113342 -0.0064589595
0.20809557 -0.14477789 -0.0067450111
0.20807503 -0.16745862 -0.0067586838
0.20794047 -0.18868564 -0.0074196709
0.20735995 -0.21773465 -0.010560472
0.20714857 -0.23686852 -0.011658228
0.20723183 -0.25620133 -0.011084599
0.20761418 -0.2756058 -0.0088144867
0.20716423 -0.29244405 -0.011266451
0.20748141 -0.31053013 -0.0093665486
0.20759097 -0.3276875 -0.0086447708
0.20747907 -0.34408984 -0.0091793779
0.2074725 -0.36036566 -0.009116644
0.20731454 -0.38414648 -0.009863059
0.20721799 -0.39980066 -0.010311003
0.20704517 -0.41528735 -0.011191671
0.20714 -0.43083084 -0.010554172
0.20732959 -0.44627255 -0.0093791876
0.2072656 -0.46159339 -0.0096426569
0.20712097 -0.4769491 -0.010363579
0.20706977 -0.49235588 -0.010554503
0.20708297 -0.51558137 -0.010330283
0.20692459 -0.53136295 -0.011129123
0.20703548 -0.54707557 -0.010400446
0.20690568 -0.56327099 -0.011036984
0.20654449 -0.58013213 -0.012985819
0.20703995 -0.60435891 -0.010025694
0.20662858 -0.62234241 -0.012258786
0.20650473 -0.64028019 -0.012860801
0.19920915 -0.67716199 -0.054137185
0.20601141 -0.67858642 -0.015457409
0.20669569 -0.70593685 -0.01142507
0.20671675 -0.72632235 -0.011204284
0.20616518 -0.74970669 -0.014230562
0.20609091 -0.77247101 -0.014549529
0.20578481 -0.7974053 -0.016182825
0.20612194 -0.83376652 -0.014116127
0.20578431 -0.89158595 -0.015822059
0.20540288 -0.92484713 -0.017879372
0.029709574 -2.3283596 -1.0136907
0.034334786 -2.5061667 -0.98724604
0.034176104 -2.6672666 -0.98799109
0.032639839 -2.8599172 -0.99653828
0.032058164 -3.0670547 -0.99966478
0.029440524 -3.3252571 -1.0143206
0.028199749 -3.6055439 -1.0211571
0.037814934 -3.9524109 -0.96633905
0.03418291 -4.8649549 -0.98639977
0.11502484 -8.3056688 -0.52594078
0.16325641 -8.2936678 -0.25224507
0.31326193 -10.784038 0.59997183
0.40819722 -10.861231 1.1386979
0.50268871 -10.81886 1.6749296
0.56418163 -10.727686 2.0238173
0.57857811 -4.9083071 2.1035914
0.77450466 -6.2769046 3.2157559
0.77050626 -5.7523308 3.1929278
0.79133004 -5.5418205 3.3110337
0.77803457 -5.0326939 3.2354717
0.79271382 -4.8216286 3.3187203
0.78485453 -4.446938 3.27405
0.79754764 -4.1275244 3.3460176
0.76832587 -3.6828227 3.1801403
0.80044222 -3.6628671 3.3623743
0.79276824 -3.4025896 3.3188012
0.786919 -3.1726766 3.2855914
0.78351796 -2.9718165 3.2662804
0.78331172 -2.7990327 3.2651026
0.79276478 -2.5983422 3.3187351
0.76366746 -2.3322375 3.1536417
0.79487026 -2.306927 3.3306828
0.78649414 -2.1387479 3.2831652
0.78086567 -1.9889395 3.25124
0.77748698 -1.8531399 3.2320824
0.77562225 -1.7271092 3.2215159
0.77574289 -1.5529852 3.2222214
0.77548558 -1.4400892 3.2207773
0.77280915 -1.3257167 3.2056115
0.77422065 -1.2211361 3.2136362
0.77598184 -1.1183959 3.2236445
0.73381239 -0.96739638 2.9844644
0.77895331 -0.91495985 3.2405369
0.77444339 -0.75978166 3.2149849
0.7688449 -0.65778702 3.1832507
0.76400685 -0.55868781 3.1558304
0.76013023 -0.46177271 3.1338646
0.33967787 -0.43260676 0.74937713
0.32547769 -0.41751871 0.66902453
0.32398206 -0.4102709 0.66061544
0.32295838 -0.40283799 0.65488321
0.3225998 -0.39899081 0.65288621
0.32195562 -0.38684309 0.64934248
0.32211801 -0.37748858 0.65033597
0.322537 -0.36722514 0.65278429
0.3249099 -0.34625259 0.66634727
0.32448125 -0.3367801 0.66398859
0.32353398 -0.32878959 0.65868938
0.32269076 -0.32050693 0.6539802
0.3220531 -0.30561271 0.65047228
0.32191351 -0.29410896 0.64975202
0.3220931 -0.28062364 0.650841
0.32168484 -0.26218644 0.64863223
0.32234499 -0.24407147 0.6524443
0.323569 -0.22121346 0.65945178
0.5850094 1.6932772 2.1413984
0.55284244 1.6853954 1.9590887
0.53246546 1.6771892 1.8436062
0.51436824 1.680449 1.7410481
0.49688998 1.6825656 1.6420014
0.48016375 1.685622 1.5472198
0.46343765 1.6819245 1.4524431
0.44884065 1.6979283 1.3697317
0.41488317 1.534317 1.1773552
0.39997602 1.5144625 1.0929044
0.38735661 1.526492 1.0214127
0.37428534 1.5262159 0.94736505
0.36193427 1.5377536 0.8773964
0.34948954 1.5447979 0.80689967
0.33735701 1.5601559 0.73817009
0.31863016 1.5602301 0.63209349
0.30621815 1.5564455 0.56179005
0.2939769 1.5631455 0.49245062
0.2816835 1.5623859 0.4228197
0.26938415 1.5641578 0.35315466
0.25705102 1.5644517 0.28329962
0.24466302 1.564247 0.21313438
0.22592567 1.5631775 0.10700751
0.21347357 1.5566489 0.036483802
0.2008768 1.5514791 -0.034860104
0.19839744 1.3253951 -0.048730183
0.1858775 1.3401178 -0.1196466
0.17849892 1.2611791 -0.16136539
0.16797878 1.2413013 -0.2209249
0.19837306 0.66513109 -0.048230868
0.18373384 0.74473768 -0.13119306
0.16502315 0.69892794 -0.23705699
0.18627046 0.4496102 -0.11642629
0.2062133 0.20433404 -0.0031543223
0.20628807 0.15525128 -0.0026264705
0.20602588 0.11344772 -0.0040125847
0.20584729 0.074661158 -0.0049262242
0.2059294 0.037293587 -0.004362335
0.20589516 0.0035717578 -0.0044599124
0.20580615 -0.027405387 -0.0048691789
0.2056168 -0.05577958 -0.0058486778
0.20440175 -0.090679079 -0.012600124
0.20451023 -0.116797 -0.011892038
0.20483902 -0.14240003 -0.0099350475
0.20466225 -0.16463566 -0.010846035
0.20466003 -0.18653879 -0.010767552
0.20467769 -0.20756669 -0.010576726
0.20485517 -0.22823925 -0.0094799707
0.20487602 -0.2476413 -0.0092718583
0.2048789 -0.26633266 -0.0091659138
0.20485303 -0.2843771 -0.0092232591
0.20495179 -0.30218449 -0.0085741347
0.20517229 -0.31972703 -0.0072350493
0.20501055 -0.3361505 -0.0080633983
0.20462762 -0.36011201 -0.010101688
0.20472519 -0.37627319 -0.0094600534
0.20475332 -0.39210773 -0.0092121605
0.20470756 -0.40769815 -0.0093832845
0.20475762 -0.42321569 -0.0090112826
0.2045556 -0.43853605 -0.010068307
0.20428398 -0.47695383 -0.011387441
0.20440799 -0.49232566 -0.010596121
0.20441891 -0.52335548 -0.010357348
0.2043108 -0.53918308 -0.010881519
0.20388848 -0.57187802 -0.013097678
0.204142 -0.59634489 -0.011527058
0.20383975 -0.61392701 -0.013150717
0.20382097 -0.63142729 -0.013167425
0.19481009 -0.68159813 -0.064098619
0.20399018 -0.67680073 -0.011983077
0.20379138 -0.69676536 -0.013018864
0.20314103 -0.71905941 -0.016612921
0.20281731 -0.74135631 -0.018355586
0.20267181 -0.76408201 -0.019087562
0.20383933 -0.79436296 -0.01233256
0.20332113 -0.82152992 -0.015174722
0.20330435 -0.84797716 -0.01517506
0.20288111 -0.87825888 -0.017477134
0.20240444 -0.92697006 -0.020031696
0.024879955 -2.2768219 -1.0253295
0.029745646 -2.4459302 -0.99752784
0.029364217 -2.6019852 -0.9995178
0.02735897 -2.7901475 -1.0106938
0.02743493 -2.9806745 -1.0100719
0.024793139 -3.2250295 -1.0248244
0.031930011 -3.5238223 -0.98407787
0.032201298 -3.8212504 -0.98228931
0.029873306 -4.2106633 -0.99518216
0.030349314 -4.6320863 -0.99216413
0.08793886 -8.2994232 -0.66324711
0.13642351 -8.2863922 -0.38837183
0.18485992 -8.2355547 -0.11379406
0.30995423 -10.675097 0.5967561
0.43543562 -10.756445 1.3081311
0.46880645 -10.859523 1.4974027
0.56535071 -10.870143 2.0446143
0.62694186 -10.766079 2.393656
0.67151093 -8.889679 2.6453121
0.60605717 -4.8886209 2.2724681
0.76153743 -6.4128671 3.1545196
0.76132637 -5.9052076 3.1531301
0.79220039 -5.5733557 3.3280492
0.80761349 -5.3264899 3.4153538
0.80582327 -4.9529796 3.4050965
0.79487681 -4.5443721 3.3429315
0.79654878 -4.2705283 3.3523529
0.75626975 -3.7315135 3.1238828
0.78858167 -3.7155504 3.3070929
0.795609 -3.4319148 3.3469138
0.79259861 -3.2152901 3.3298354
0.78722084 -3.0016608 3.2993426
0.78611124 -2.8226349 3.2930591
0.78832251 -2.6683085 3.3056107
0.78061479 -2.4810357 3.2619298
0.78220481 -2.3405066 3.2709696
0.78435075 -2.2075112 3.2831659
0.78280574 -2.0019104 3.2744582
0.77856016 -1.8626345 3.250428
0.77738005 -1.7375624 3.2437801
0.77385253 -1.6113251 3.2238281
0.77349412 -1.4966414 3.2218451
0.77119893 -1.3813527 3.2088847
0.77128959 -1.2735023 3.2094526
0.7747665 -1.1200086 3.2292469
0.76685053 -1.0071602 3.1844316
0.73261732 -0.8749764 2.9904339
0.75725186 -0.79958642 3.1301432
0.76644033 -0.7071836 3.1822939
0.76345736 -0.60797578 3.1654501
0.75865334 -0.51013929 3.1382852
0.33603016 -0.42748043 0.74291492
0.32378012 -0.42129087 0.67360163
0.32210386 -0.41841111 0.66414183
0.32078412 -0.40676001 0.6567868
0.32024378 -0.39875433 0.653808
0.31970555 -0.39521819 0.65079921
0.31951734 -0.38220763 0.64985865
0.31980768 -0.37241262 0.65158868
0.32096064 -0.35007539 0.65829271
0.32232651 -0.34109548 0.66607702
0.32170817 -0.33207265 0.66265661
0.32000318 -0.32103968 0.65311909
0.31954837 -0.31132412 0.65062571
0.31973639 -0.29874864 0.65177613
0.3191362 -0.28248602 0.6485014
0.31992987 -0.27221853 0.65304261
0.31980833 -0.25153649 0.65248114
0.31990895 -0.22759083 0.65317893
0.3218869 -0.19835708 0.66447574
0.56121808 1.6920975 2.0213447
0.53999841 1.681915 1.9011536
0.52010733 1.673465 1.7884933
0.50162929 1.669142 1.6838423
0.48502022 1.6758075 1.5897853
0.46223247 1.6989557 1.46075
0.44653115 1.702456 1.371838
0.41708207 1.5039186 1.2049958
0.40286562 1.4956795 1.1244994
0.39069223 1.5155555 1.0555842
0.37814158 1.527169 0.98453003
0.36541855 1.5322859 0.91249853
0.34718058 1.5565673 0.80924928
0.33390793 1.5334821 0.73410088
0.32205915 1.5571991 0.6670239
0.30971655 1.5606445 0.59714699
0.29739398 1.5626003 0.52738297
0.28509751 1.5660783 0.45776656
0.27279052 1.5640873 0.38808981
0.25440642 1.5554835 0.28400636
0.24195887 1.5612754 0.2135316
0.22960499 1.5565928 0.14358677
0.21690136 1.5612303 0.071658999
0.20397393 1.5661441 -0.0015381732
0.20456634 1.2529563 0.0018957229
0.1888403 1.3446652 -0.087165065
0.18093474 1.2722359 -0.13189876
0.20355448 0.72809529 -0.0036041935
0.19878012 0.67795658 -0.030587612
0.18787868 0.71327442 -0.092302479
0.11051132 1.4390236 -0.5307464
0.16720016 0.69646519 -0.20932262
0.18304461 0.45476985 -0.11942665
0.20420492 0.22451481 0.00056498038
0.20415558 0.17431575 0.00036606228
0.20390457 0.1306445 -0.00097599544
0.20398106 0.088475496 -0.00046160675
0.20247945 0.042590935 -0.0088528087
0.2022979 0.0094368672 -0.0098013375
0.20242214 -0.02314882 -0.009016267
0.20233685 -0.052355941 -0.0094192093
0.20250982 -0.081040896 -0.0083579477
0.20225962 -0.10598896 -0.0096958373
0.20235553 -0.13115859 -0.0090715392
0.20251875 -0.15526536 -0.0080658281
0.20229618 -0.17670882 -0.009247289
0.2022391 -0.1978555 -0.0094906287
0.20249553 -0.21915038 -0.0079566296
0.20245078 -0.23864585 -0.0081302011
0.20270559 -0.25827596 -0.0066055246
0.20206723 -0.28399146 -0.010105045
0.20216554 -0.30183166 -0.0094678858
0.20205541 -0.31878915 -0.010012735
0.20205702 -0.33558875 -0.0099241361
0.20204735 -0.36820269 -0.0098204082
0.20219795 -0.38428172 -0.0088874437
0.2018016 -0.4230321 -0.010937887
0.20212093 -0.43857968 -0.0090487106
0.20182636 -0.46923408 -0.010562651
0.20173205 -0.48463514 -0.011019601
0.20165303 -0.51566494 -0.011312613
0.20188692 -0.53900224 -0.0098706409
0.20146692 -0.57162935 -0.012099382
0.20166628 -0.58779693 -0.010892675
0.20156427 -0.6307047 -0.011282487
0.20134377 -0.64910585 -0.012458302
0.20109735 -0.6682151 -0.013781736
0.20083615 -0.68809593 -0.015189525
0.20046747 -0.72988933 -0.01713516
0.20085773 -0.78424883 -0.014743055
0.19942699 -0.81494367 -0.022789611
0.20027351 -0.83694237 -0.017918475
0.20123275 -0.87348199 -0.012374925
0.19713452 -0.92682904 -0.035561148
0.20070088 -0.93839735 -0.015261791
0.2003224 -0.97551179 -0.017346401
0.026846901 -2.3805833 -1.0016965
0.025482493 -2.5380123 -1.0094479
0.023941057 -2.7141306 -1.0182151
0.022636002 -2.9086738 -1.0256536
0.028842704 -3.1597528 -0.99049312
0.026858719 -3.4265859 -1.0018271
0.026488222 -3.7146001 -1.0040258
0.024387933 -4.0765538 -1.0160792
0.038159341 -4.4733071 -0.93811697
0.066288985 -8.1703949 -0.78051561
0.13612776 -8.2516127 -0.38443148
0.18313095 -8.2994061 -0.11785169
0.34132358 -10.81931 0.77785182
0.40515828 -10.891185 1.1398685
0.46884096 -10.890241 1.5010816
0.52894294 -10.724851 1.8421434
0.59311163 -10.738214 2.206157
0.59025115 -4.9150071 2.1941628
0.62635994 -4.9701071 2.399008
0.78029668 -6.1402183 3.2714682
0.78429365 -5.7235475 3.2944896
0.78313696 -4.9436903 3.2885981
0.7903282 -4.6780133 3.3296397
0.78709656 -4.355185 3.3116021
0.7784254 -4.0234923 3.2627177
0.78298056 -3.6945143 3.2888913
0.79354781 -3.539175 3.3490109
0.78711289 -3.2960424 3.3127532
0.7844584 -3.0908492 3.2979133
0.78062749 -2.8934987 3.2763958
0.78189081 -2.7317777 3.2837491
0.78449339 -2.5837395 3.2986898
0.77128726 -2.3092442 3.2240884
0.78662294 -2.2242959 3.3112097
0.78010631 -2.0670373 3.2744329
0.77572972 -1.9245878 3.2497849
0.77183062 -1.7901179 3.2278397
0.76996207 -1.6664518 3.2174048
0.76964122 -1.5505493 3.2157438
0.77073026 -1.3854797 3.2221529
0.77099437 -1.277439 3.2238042
0.77055657 -1.170417 3.2214742
0.77282679 -1.068723 3.2345006
0.72880989 -0.92058659 2.9850128
0.77152705 -0.86208981 3.2274294
0.76533806 -0.75743157 3.1924765
0.76057214 -0.65658289 3.1655924
0.75782382 -0.51016462 3.1502242
0.3338173 -0.43294984 0.74548829
0.31992707 -0.42235279 0.66686398
0.3183026 -0.4065043 0.65781641
0.31688881 -0.39546385 0.64992166
0.31700701 -0.39086297 0.65063423
0.31735992 -0.38120186 0.65272051
0.31785592 -0.36119974 0.65570354
0.31988218 -0.34582129 0.66728526
0.31890225 -0.33251372 0.66185296
0.31777909 -0.32511801 0.65556514
0.31720683 -0.31589004 0.65240335
0.31665835 -0.30044281 0.64941967
0.31661308 -0.28829512 0.64924896
0.31700754 -0.27345136 0.65157443
0.31651026 -0.25485674 0.64888316
0.31721577 -0.23585455 0.6529758
0.31906295 -0.20841189 0.66354996
0.56882656 1.6942635 2.0817997
0.54516447 1.6692276 1.9476426
0.51888609 1.6894789 1.7987142
0.49961078 1.6786443 1.689449
0.48270425 1.6828727 1.5936301
0.46649611 1.6883112 1.5017731
0.4506976 1.6926132 1.4122388
0.43291458 1.6637733 1.3114252
0.40743715 1.5063266 1.1668801
0.39411905 1.5097513 1.0914142
0.37530473 1.528165 0.98481947
0.362544 1.5323169 0.9125151
0.35039479 1.5484579 0.84368712
0.33671311 1.5148798 0.76613307
0.32557634 1.5624833 0.7030682
0.31326783 1.5711836 0.63333082
0.30061412 1.5524684 0.56161696
0.28225097 1.5540876 0.45756727
0.26997077 1.5700905 0.38799432
0.25774336 1.5576345 0.31870157
0.24546161 1.5557051 0.24910742
0.23303251 1.5582476 0.1786799
0.2205904 1.5562688 0.10817536
0.20748921 1.5703956 0.033942357
0.20699155 1.2620881 0.030993907
0.1843113 1.3811761 -0.097472042
0.17743652 1.2864821 -0.13645656
0.19262947 0.72801 -0.050483484
0.19012752 0.65021896 -0.064650796
0.17809886 0.69518721 -0.13278103
0.17472862 0.63594455 -0.15186206
0.16117866 0.68419814 -0.22862059
0.17851254 0.43736956 -0.13037369
0.20012426 0.1867363 -0.0078613078
0.2002134 0.1395283 -0.007309848
0.20045625 0.095552117 -0.0058842176
0.20024151 0.058572598 -0.0070498507
0.2002627 0.022958662 -0.0068762139
0.20061922 -0.011984664 -0.0047997865
0.20042822 -0.041303795 -0.0058258078
0.20023941 -0.0687925 -0.0068381578
0.19815999 -0.08554069 -0.018568726
0.20015986 -0.120496 -0.0071697077
0.19967316 -0.142405 -0.0098683368
0.19948158 -0.17563705 -0.010861829
0.19912352 -0.1958129 -0.012829565
0.19952266 -0.21771362 -0.010502844
0.19947229 -0.23730171 -0.010724642
0.19979571 -0.27558541 -0.0087614143
0.19967587 -0.29314059 -0.0093759783
0.19967489 -0.31051007 -0.0093162339
0.19979033 -0.32766765 -0.0085958065
0.19985193 -0.34432906 -0.0081804981
0.20002174 -0.36079624 -0.0071511855
0.19995664 -0.37666443 -0.007454155
0.20013075 -0.40033856 -0.0063668373
0.19944854 -0.415373 -0.010170203
0.1995495 -0.43088195 -0.0095309047
0.19974495 -0.44628903 -0.0083553251
0.19951306 -0.46157509 -0.0096042333
0.19937402 -0.47693095 -0.010326362
0.19942725 -0.50001109 -0.0099244304
0.19900545 -0.51580727 -0.012251069
0.19919729 -0.53134543 -0.011096167
0.1994842 -0.54686755 -0.0094019305
0.19902062 -0.56347871 -0.011966147
0.19883443 -0.58011508 -0.01295667
0.19966853 -0.60372436 -0.0081251189
0.19893311 -0.62232584 -0.012232913
0.1986544 -0.64063835 -0.013749455
0.19105449 -0.67836392 -0.056814823
0.19817854 -0.6790086 -0.016321097
0.19917956 -0.70543641 -0.010544281
0.19860907 -0.72785175 -0.013719055
0.19836524 -0.7502358 -0.015040517
0.1981591 -0.77360278 -0.016148806
0.19786741 -0.79859358 -0.017743571
0.19849229 -0.83375174 -0.014106523
0.19691396 -0.86907774 -0.023007955
0.19804576 -0.89226604 -0.016525336
0.19767736 -0.92555195 -0.018560879
0.19845311 -0.97176206 -0.01407536
0.022170518 -2.3298774 -1.0150112
0.02724302 -2.5044715 -0.98623699
0.027105341 -2.6655326 -0.98705113
0.025059668 -2.8632886 -0.99871498
0.024538124 -3.0704966 -1.001738
0.023092216 -3.3162901 -1.0100313
0.021043044 -3.6063929 -1.021777
0.030340414 -3.9588466 -0.96915138
0.032226581 -4.3142495 -0.95861322
0.026257602 -4.8839207 -0.99278569
0.10925825 -8.2828074 -0.52373099
0.15699901 -8.2936459 -0.25279543
0.30739301 -10.774055 0.59906888
0.40248486 -10.871248 1.1386493
0.49682802 -10.818925 1.6742002
0.56507534 -10.973701 2.0614474
0.58804786 -4.9205661 2.1964877
0.76622558 -6.2590299 3.2068129
0.7614519 -5.7285876 3.1801767
0.78330135 -5.5306597 3.3043842
0.76579642 -4.9844451 3.2055173
0.79879177 -4.7697363 3.3930278
0.78972971 -4.3958902 3.3419516
0.78993642 -4.1244993 3.3434002
0.76062071 -3.6798797 3.1774464
0.79139817 -3.6519735 3.3521981
0.784715 -3.3984196 3.3145387
0.77955842 -3.1727455 3.2855229
0.77546239 -2.9686012 3.2625103
0.78163433 -2.742826 3.2978208
0.78359663 -2.5913458 3.3091486
0.75657386 -2.3339667 3.1560791
0.78393841 -2.2947886 3.3114691
0.77560866 -2.1277938 3.2644069
0.77126545 -1.982879 3.2399499
0.76922733 -1.8514259 3.2285633
0.76978695 -1.6726637 3.2319932
0.76836604 -1.5537336 3.2240999
0.76775962 -1.4401175 3.2208235
0.76472676 -1.3251567 3.2037804
0.76611084 -1.2206398 3.211792
0.76902914 -1.1195393 3.2285061
0.72650909 -0.96798319 2.9874325
0.77290773 -0.86538309 3.2509007
0.7646656 -0.75863808 3.2042918
0.75904053 -0.65702271 3.1725287
0.75626004 -0.55872315 3.1569033
0.75253665 -0.46177012 3.1359262
0.33154389 -0.43278271 0.74747974
0.31782049 -0.42189223 0.66981006
0.31634325 -0.41449618 0.66152734
0.31550628 -0.41110313 0.65682799
0.31459239 -0.39492095 0.65184152
0.31456134 -0.38153523 0.65181518
0.3148787 -0.36684945 0.6537661
0.31708133 -0.34625065 0.66641706
0.31664813 -0.33677781 0.6640588
0.31569681 -0.32878697 0.65876001
0.31440705 -0.31642637 0.6515907
0.31406105 -0.30616841 0.6497274
0.31420067 -0.29351738 0.65062088
0.31437114 -0.28000376 0.65168953
0.31455824 -0.26557362 0.65285295
0.31459919 -0.24338421 0.653238
0.31530708 -0.21489017 0.65741009
0.56954914 1.7195203 2.1011617
0.5443089 1.6838274 1.9580201
0.52462941 1.6813824 1.8464458
0.50586909 1.6787992 1.7400864
0.48727953 1.6696197 1.634693
0.47071958 1.6733034 1.5408213
0.45514008 1.6819645 1.4525149
0.43390155 1.7134995 1.3321527
0.40551075 1.5175449 1.1710654
0.39167449 1.5135466 1.0926448
0.37891132 1.5226942 1.0203185
0.36595798 1.5243088 0.94690979
0.35393324 1.5436221 0.87877738
0.34155583 1.5536522 0.80863959
0.32904685 1.5572097 0.7377525
0.31040895 1.5602425 0.63213342
0.29796672 1.553462 0.56162059
0.28575987 1.5621521 0.49244961
0.27347785 1.5663886 0.42285007
0.26122695 1.557161 0.35342169
0.24885681 1.5644469 0.28332308
0.23035762 1.5592225 0.17848656
0.21799199 1.554273 0.10840864
0.20490441 1.5684092 0.034241173
0.19263503 1.5534041 -0.035294626
0.19440664 1.2365037 -0.025270678
0.17932823 1.310442 -0.11071197
0.1706733 1.2564181 -0.15975218
0.15969233 1.2440646 -0.22197551
0.19101739 0.65589917 -0.044350822
0.17576911 0.74379873 -0.13075039
0.16974136 0.66063672 -0.16484565
0.15752184 0.69369042 -0.2340793
0.17597659 0.43564352 -0.12935986
0.19851662 0.20179249 -0.0014959772
0.19871119 0.15194875 -0.00031592467
0.19847284 0.11022685 -0.0015891875
0.19831704 0.071525857 -0.0023929083
0.19785146 0.038021397 -0.0049523995
0.19592556 -0.00049936381 -0.015752813
0.19678557 -0.036465544 -0.010790904
0.1966925 -0.064802125 -0.01123433
0.19644763 -0.090708181 -0.012538216
0.19683115 -0.11805773 -0.010276656
0.19674709 -0.14184178 -0.010666959
0.19699968 -0.16578412 -0.0091470201
0.19685772 -0.18709908 -0.0098649431
0.19687922 -0.20809737 -0.0096550472
0.19690691 -0.22827016 -0.0094097508
0.19709001 -0.26677096 -0.0081933532
0.19706678 -0.28478363 -0.0082359202
0.19679908 -0.32739961 -0.0095306691
0.1965196 -0.34357682 -0.011026501
0.19583526 -0.35902065 -0.014819179
0.19677827 -0.37630698 -0.0093782153
0.19680627 -0.39214185 -0.0091288704
0.19624358 -0.40736693 -0.012230957
0.1968102 -0.4232505 -0.0089250309
0.19654197 -0.44624341 -0.010310669
0.19650969 -0.47695521 -0.010311554
0.1964599 -0.49236217 -0.01050281
0.19629852 -0.52353179 -0.011235848
0.1961913 -0.53939432 -0.011752891
0.19584414 -0.55578399 -0.013631326
0.1962778 -0.57962173 -0.011033191
0.19602719 -0.59667611 -0.012363709
0.19605535 -0.61364079 -0.012112303
0.19587255 -0.63146698 -0.013058059
0.18639873 -0.68286443 -0.066684507
0.19604188 -0.6768412 -0.011868001
0.19569044 -0.69727576 -0.013770841
0.19534498 -0.71860111 -0.015639829
0.19487201 -0.74139857 -0.018232601
0.19487129 -0.76356548 -0.018145224
0.19547853 -0.79621077 -0.014561962
0.19537802 -0.82157302 -0.015041121
0.19496964 -0.84998876 -0.017267814
0.19494157 -0.87830293 -0.017336205
0.195674 -0.91982168 -0.013043155
0.19546083 -0.95430738 -0.014162579
0.022856595 -2.3023808 -0.99364787
0.022515133 -2.4436798 -0.99550968
0.021266654 -2.6071379 -1.0025213
0.018859673 -2.7996576 -1.0161107
0.019712202 -2.9834554 -1.0112013
0.024980409 -3.2593513 -0.98119688
0.023582343 -3.5357871 -0.98906994
0.02410141 -3.8315597 -0.98606533
0.022637552 -4.2099171 -0.99432331
0.022431111 -4.643621 -0.99545169
0.082537778 -8.2421341 -0.65424192
0.12966846 -8.2805319 -0.38668135
0.20121524 -8.2728853 0.019496342
0.36665326 -10.841369 0.95836443
0.43162221 -10.959515 1.3271527
0.49376339 -10.85953 1.6799785
0.55769128 -10.849139 2.0429006
0.66527444 -8.9173441 2.6539748
0.70164835 -7.6513586 2.8607156
0.59737116 -4.8791342 2.2693551
0.7538138 -6.4160857 3.1571362
0.78162301 -5.9853683 3.3151152
0.77483213 -5.4811325 3.2766976
0.79240215 -5.2616048 3.3765032
0.7943545 -4.9251924 3.3876848
0.78137189 -4.5026951 3.314115
0.78051865 -4.2133765 3.3093677
0.74881154 -3.737262 3.1295395
0.78100407 -3.7203507 3.3122997
0.78791636 -3.435755 3.3516481
0.78097767 -3.1978426 3.3123558
0.77771032 -2.9960227 3.2938938
0.77587974 -2.8140678 3.2835827
0.77788794 -2.6594985 3.2950525
0.76088178 -2.4353464 3.1986263
0.77339929 -2.3390439 3.269726
0.77892441 -2.1491766 3.3011808
0.77319437 -1.9982581 3.2687342
0.76939321 -1.8605212 3.2472312
0.76677001 -1.7319189 3.2324114
0.76353055 -1.606854 3.2140937
0.7644484 -1.4952685 3.2193635
0.76197982 -1.3797745 3.2054174
0.76477015 -1.2231336 3.2213385
0.76619714 -1.1196718 3.2294927
0.74005514 -0.98641241 3.0812221
0.72905225 -0.87921113 3.0188501
0.74473107 -0.79646683 3.1078632
0.75821984 -0.70703906 3.1844478
0.75108039 -0.60650975 3.1439924
0.75148332 -0.50997132 3.1463287
0.33113772 -0.43756106 0.76166821
0.32783425 -0.42744601 0.74300474
0.31554586 -0.42585742 0.67336804
0.3137497 -0.41856015 0.66325706
0.3127698 -0.41089457 0.65777701
0.31202671 -0.39436996 0.65371895
0.31131172 -0.39116392 0.64970231
0.31174564 -0.38591656 0.65220308
0.31150743 -0.36797467 0.65100825
0.31294098 -0.34963325 0.65925652
0.31399289 -0.34151375 0.66526198
0.31312615 -0.3278203 0.66046119
0.31182975 -0.32102236 0.65318483
0.3109079 -0.30729076 0.64807111
0.31105882 -0.29469734 0.64900321
0.31164959 -0.28589866 0.65239173
0.31144038 -0.26686442 0.65131813
0.31189999 -0.25018421 0.65399921
0.3121132 -0.22545633 0.65531892
0.3133775 -0.19112606 0.66259706
0.55214727 1.685838 2.0164976
0.53038996 1.6705644 1.8931382
0.51210302 1.6752481 1.7894578
0.48670027 1.6886619 1.6454387
0.47002563 1.6927168 1.550907
0.45311117 1.6873449 1.4550202
0.43763927 1.6924721 1.3673124
0.40943581 1.5104592 1.2074744
0.39549106 1.5069985 1.1284369
0.38261852 1.5155921 1.0554764
0.36998594 1.5252765 0.98387706
0.35143006 1.5436071 0.87870651
0.33915484 1.5565822 0.80913395
0.32641125 1.5522567 0.73691422
0.31403711 1.5562098 0.66678643
0.30175856 1.5626348 0.59720004
0.28932559 1.5526063 0.52674741
0.27712354 1.5630659 0.45759392
0.2586644 1.5681425 0.35298562
0.24638493 1.5624411 0.28340366
0.2340329 1.5612451 0.21340828
0.22147278 1.5654701 0.14222994
0.20890662 1.5641452 0.071021341
0.19593641 1.5700126 -0.0024828657
0.19689515 1.2470906 0.0032246844
0.18251397 1.3128937 -0.078317054
0.16801149 1.2583082 -0.16043441
0.19475441 0.7412073 -0.0083777234
0.19002932 0.68903762 -0.03506922
0.17299376 0.74561059 -0.13161854
0.16808371 0.69850099 -0.15936072
0.15731749 0.71652734 -0.22036201
0.17523955 0.4530057 -0.11845201
0.19458137 0.21269228 -0.008502244
0.19530083 0.15767983 -0.0043035108
0.19450079 0.11980791 -0.0087345196
0.19482854 0.07696341 -0.0067646732
0.1944401 0.042547394 -0.0088623874
0.19460963 0.0071991482 -0.0077941567
0.19437487 -0.023192223 -0.0090220571
0.19432417 -0.080428019 -0.0091038588
0.19433652 -0.10666152 -0.0089320121
0.19443269 -0.13180359 -0.0082852961
0.19473813 -0.15645562 -0.0064516319
0.19422819 -0.17675179 -0.0092455558
0.19442098 -0.21919315 -0.0079531893
0.19385666 -0.2467958 -0.011007058
0.19385302 -0.26555052 -0.010929258
0.19414291 -0.28440872 -0.0091864094
0.19412896 -0.3191407 -0.0090695852
0.19396231 -0.33563113 -0.0099171903
0.19428585 -0.3686609 -0.0078862049
0.1940935 -0.38432384 -0.0088794557
0.19403484 -0.42324859 -0.0089671407
0.19383131 -0.43856913 -0.010023317
0.19370307 -0.46927583 -0.010553421
0.19377851 -0.48462456 -0.010026711
0.19429289 -0.49977115 -0.0070106923
0.19368517 -0.5233894 -0.010307387
0.19357525 -0.53921717 -0.010830597
0.19356471 -0.55515665 -0.010789794
0.19331771 -0.57167065 -0.012089192
0.1931787 -0.58838928 -0.012775719
0.19314986 -0.60528892 -0.012836993
0.19323653 -0.63110399 -0.012191245
0.19317301 -0.6491468 -0.01244749
0.19307855 -0.66783351 -0.012878195
0.19249927 -0.68859065 -0.016055796
0.19238411 -0.70884818 -0.016601721
0.19235203 -0.74033272 -0.016621148
0.19248532 -0.76188183 -0.015756035
0.19236541 -0.78546476 -0.016324259
0.19230245 -0.81005937 -0.016568109
0.19305526 -0.84538978 -0.012130345
0.19286656 -0.87420416 -0.013081774
0.19232193 -0.90707207 -0.016046712
0.1918484 -0.94209385 -0.018605463
0.017220622 -2.3878083 -1.0069478
0.01485138 -2.553612 -1.0200922
0.013537658 -2.7284229 -1.0272386
0.020438632 -2.9417961 -0.98770386
0.018432017 -3.1756783 -0.99870509
0.016076593 -3.4472892 -1.0116369
0.013542054 -3.7639606 -1.0255274
0.022944817 -4.1491408 -0.97158641
0.027765339 -4.490355 -0.94373173
0.080060802 -8.15096 -0.6420663
0.12505966 -8.2755127 -0.38662046
0.17305963 -8.2525578 -0.11434193
0.26706025 -10.70564 0.42201033
0.33006027 -10.85934 0.77957225
0.42430589 -10.816184 1.3141216
0.45566976 -10.798815 1.4919577
0.52266419 -10.93883 1.8720703
0.58045 -10.69792 2.1994865
0.59379262 -4.8774905 2.2682605
0.63434076 -4.9825144 2.4983878
0.75927478 -6.013783 3.2081687
0.77197391 -5.6965261 3.2798557
0.7839492 -5.4052167 3.347472
0.77622712 -4.9664259 3.3032155
0.77996504 -4.6699109 3.3241191
0.78699982 -4.2845683 3.363647
0.76438832 -3.8654494 3.2349904
0.77637029 -3.7102051 3.3028193
0.78347027 -3.532783 3.3429391
0.77819771 -3.296123 3.3128285
0.77277368 -3.0762057 3.2818809
0.77131087 -2.8910043 3.2734382
0.77913558 -2.6771927 3.3176651
0.78074813 -2.5267859 3.3267052
0.76283598 -2.3098598 3.2249506
0.77582669 -2.2166395 3.2985804
0.76916212 -2.0593476 3.2606778
0.76602215 -1.9210221 3.2427852
0.76387471 -1.791451 3.2305315
0.76451021 -1.6153057 3.2340424
0.76386684 -1.4995791 3.2303348
0.76309359 -1.386776 3.2258947
0.7600621 -1.2730857 3.2086482
0.76300269 -1.1714418 3.2252815
0.76480234 -1.0689863 3.2354438
0.7204802 -0.92046571 2.9840176
0.76316178 -0.81140065 3.2260342
0.7578941 -0.70826453 3.196121
0.75354743 -0.60815066 3.1714342
0.74772114 -0.51000106 3.1383595
0.32542923 -0.42738023 0.74393559
0.31150895 -0.41824675 0.66515088
0.31035787 -0.41071975 0.65869528
0.30948365 -0.39876449 0.65384471
0.30906522 -0.39061087 0.6515429
0.30861068 -0.36875421 0.64914089
0.30975634 -0.36123917 0.65566868
0.3114239 -0.34154388 0.66522211
0.31055906 -0.32784951 0.66042244
0.3092632 -0.32105088 0.6531468
0.30866536 -0.31188014 0.64982629
0.30857503 -0.30048072 0.64938104
0.30867198 -0.28773102 0.6499961
0.30906713 -0.27285948 0.65229934
0.30869824 -0.25355563 0.65030521
0.30927625 -0.23519669 0.65364122
0.31105733 -0.19909985 0.66381818
0.55920434 1.6776963 2.0688796
0.53067619 1.6909912 1.9072112
0.51092702 1.6844262 1.7953089
0.49176261 1.6743371 1.6867268
0.47479391 1.6776031 1.590579
0.45774496 1.673142 1.4939852
0.44313923 1.6907774 1.4112189
0.42433146 1.6481011 1.3046979
0.39876616 1.4885633 1.1600003
0.3805798 1.5203229 1.0569507
0.36738387 1.5194865 0.98220026
0.35530642 1.5381103 0.91376817
0.34301397 1.5513631 0.84412342
0.32917771 1.5138648 0.76578629
0.31793657 1.5565109 0.70206606
0.30538729 1.5502667 0.63098794
0.28710645 1.566572 0.52741814
0.27477315 1.564051 0.45755926
0.26250648 1.5540565 0.38808739
0.25025272 1.5546007 0.31867516
0.23780556 1.5646316 0.24815397
0.22544461 1.5611849 0.17813824
0.21276426 1.5670913 0.10629912
0.19376747 1.5641291 -0.0013108688
0.1944748 1.2470756 0.0031746787
0.17828581 1.3494066 -0.08868365
0.17066087 1.2712166 -0.13174942
0.19322461 0.72615606 -0.0030282361
0.18696231 0.69736594 -0.038427733
0.17891382 0.69402337 -0.083988927
0.1704281 0.69334078 -0.13203326
0.16761753 0.6279484 -0.14781205
0.15139967 0.65785575 -0.23970653
