# .PCD v0.7 - Point Cloud Data file format
VERSION 0.7
FIELDS x y z
SIZE 4 4 4
TYPE F F F
COUNT 1 1 1
WIDTH 467
HEIGHT 1
VIEWPOINT 0 0 0 1 0 0 0
POINTS 467
DATA ascii
-0.037678637 -0.72813058 0.0026093847
-0.16843358 -0.66064358 0.002322214
0.0080022346 -0.74910492 0.0031302192
-0.061561212 -0.70688373 0.0038926511
-0.14439808 -0.66945666 0.0032203437
-0.19243968 -0.65123606 0.0036854788
0.021392195 -0.75934386 0.0040696505
0.013295993 -0.74792343 0.0047120973
0.074767783 -0.73723644 0.0048108692
-0.082709417 -0.70655406 0.0047371183
-0.21374594 -0.6417833 0.0049409047
-0.12529813 -0.68689924 0.0052667968
0.043187428 -0.76840395 0.0067598424
0.051398709 -0.76843762 0.0068424055
-0.15701668 -0.66761947 0.0066694957
0.00061941479 -0.74626619 0.007148549
-0.0076028523 -0.73553783 0.0072279875
-0.039435804 -0.72495973 0.007654476
-0.074170284 -0.70504034 0.0073708841
-0.11675864 -0.68607217 0.0071470975
-0.026070153 -0.7350834 0.0081430692
-0.01537603 -0.73509336 0.0081365118
0.027572267 -0.7553075 0.0096679535
-0.063055679 -0.71327162 0.0098877633
-0.10860952 -0.6942963 0.0092583662
-0.14559652 -0.67502171 0.010313306
-0.13489231 -0.67505711 0.010356634
-0.16999304 -0.66588843 0.010237899
-0.15898162 -0.66500562 0.011971481
-0.19378288 -0.64752913 0.011752639
-0.20931417 -0.63028204 0.011931769
0.036071271 -0.76430196 0.012397113
0.020274313 -0.75360018 0.012107133
-0.051900074 -0.72151589 0.01257328
-0.041030869 -0.72173727 0.012627484
-0.08385355 -0.70203191 0.012406306
-0.076044634 -0.70207351 0.01248373
-0.027782768 -0.73180079 0.0130809
-0.06541872 -0.71124536 0.013214967
-0.12616733 -0.68224061 0.013984962
-0.18273889 -0.65564263 0.013200124
-0.21496186 -0.63826442 0.013061629
0.042077608 -0.76254731 0.014764341
-0.10235134 -0.69132835 0.014364819
0.07409814 -0.74069077 0.015311634
-0.054475259 -0.71936649 0.015859729
-0.086089671 -0.70010108 0.015907364
-0.10998856 -0.69097352 0.015325632
0.050510865 -0.77213806 0.016839342
0.0073342994 -0.75077403 0.016193939
-0.016407371 -0.73959261 0.016920639
-0.0084745558 -0.73952574 0.016964599
-0.093709365 -0.69965345 0.016781475
0.013148245 -0.74957001 0.017767023
-0.029560959 -0.72846746 0.017961603
-0.067395374 -0.7087267 0.017497038
-0.17115651 -0.66239214 0.017323585
-0.20350216 -0.64505708 0.017076053
0.034545798 -0.7595945 0.018748803
0.061621111 -0.75964046 0.018858794
0.072268151 -0.73847884 0.018614018
-0.11764465 -0.68897837 0.018743301
-0.13607867 -0.67997313 0.018450374
-0.14684799 -0.67088902 0.018177224
0.064404227 -0.75902009 0.019565128
0.0002785816 -0.74841183 0.019358238
-0.18414466 -0.65267926 0.019475158
-0.21647398 -0.63554752 0.019420521
0.026811907 -0.75848031 0.020427242
-0.056180902 -0.7162481 0.020936707
-0.077368855 -0.70672631 0.020873785
-0.12792876 -0.67852527 0.020973051
-0.17300636 -0.66062701 0.02087274
-0.20534943 -0.64346951 0.020675372
-0.018392904 -0.73680496 0.021083048
-0.042306721 -0.72617793 0.021250302
-0.14919257 -0.66903478 0.021675952
0.0058152708 -0.74616194 0.022601141
0.069942541 -0.74615765 0.022591485
-0.031180715 -0.72517139 0.022929084
-0.11152424 -0.68711233 0.022257606
-0.15974095 -0.66862059 0.022553325
-0.19437343 -0.65139461 0.022106621
0.048711438 -0.76730067 0.023101354
0.067480966 -0.74554503 0.023374556
-0.095422238 -0.69560713 0.023566701
0.059606392 -0.76613301 0.024780942
0.019477325 -0.75552362 0.02435654
-0.11917827 -0.68555897 0.024719801
-0.13795571 -0.67667931 0.024530334
-0.0016238996 -0.7438187 0.025811413
-0.068356141 -0.71325606 0.02598175
-0.057828825 -0.71363318 0.025109595
-0.079132266 -0.70413995 0.025050258
0.033313267 -0.76494277 0.026327746
-0.044420138 -0.72281712 0.026132274
-0.089522429 -0.70320839 0.026874024
-0.086983025 -0.70317709 0.026826978
-0.10279097 -0.69403094 0.026037052
-0.16144663 -0.66633457 0.026933733
0.0067006657 -0.78639716 0.027812034
0.025446249 -0.76436973 0.027139887
0.041760683 -0.76370674 0.027844576
0.012301349 -0.75321943 0.027606566
-0.17471194 -0.65755564 0.027123503
-0.18529074 -0.64890075 0.027535442
-0.2065094 -0.64026421 0.027872412
-0.0090027722 -0.7421056 0.028233675
-0.046518378 -0.72114313 0.028632659
-0.19572516 -0.64847112 0.028352212
0.11671104 -0.77375197 0.029208831
-0.1771225 -0.65628529 0.02981713
0.020515246 -0.79588032 0.030428266
-0.040809251 -0.78432572 0.030018771
-0.024817824 -0.78450072 0.030122954
-0.0087054977 -0.78446835 0.030093092
0.057904169 -0.76193112 0.03026888
-0.12889342 -0.68224615 0.030852167
-0.15034075 -0.67329305 0.030529832
-0.13958454 -0.67339963 0.030617293
-0.16348702 -0.66452616 0.030479452
-0.19860008 -0.64758307 0.030146062
0.047438327 -0.81956786 0.031102719
0.082069792 -0.80674523 0.031838108
-0.013928071 -0.79527974 0.031153714
0.028688487 -0.79525506 0.031240342
0.066425063 -0.7952078 0.031170074
-0.0033257985 -0.79455054 0.031883299
0.0049484819 -0.79460067 0.031934842
0.055751964 -0.77190769 0.031609848
0.079456471 -0.7398327 0.031477507
-0.032580756 -0.72943711 0.031621173
-0.11251322 -0.6911633 0.03131824
-0.21681067 -0.63859046 0.03141411
-0.0032123711 -0.73919809 0.032223828
-0.059166703 -0.7190392 0.032008097
0.034500338 -0.80540353 0.033266794
0.064128213 -0.80540836 0.033343762
0.042798072 -0.80471504 0.033948913
-0.010962309 -0.79336238 0.033484366
0.042804934 -0.78129101 0.033874962
0.061205626 -0.78130937 0.033958327
0.071905896 -0.78135806 0.033925839
0.090618379 -0.78129405 0.033902794
0.047812577 -0.77064514 0.033079378
0.07721331 -0.77071553 0.033145372
0.079865336 -0.77009422 0.033935737
-0.018739162 -0.73872536 0.033137895
-0.010988726 -0.73872054 0.033114031
-0.069569752 -0.70848638 0.033530682
-0.096150957 -0.69900143 0.033473242
-0.10429268 -0.6895898 0.033790532
-0.15236598 -0.67191088 0.033133816
0.05629719 -0.81625336 0.034849461
0.077480122 -0.81629282 0.03483475
0.053626057 -0.80406642 0.034697305
0.072032869 -0.80412602 0.034744971
0.077383444 -0.79268914 0.034198005
0.037363146 -0.79198128 0.034922414
-0.021434456 -0.78073841 0.03473467
0.085607216 -0.7694295 0.034642015
-0.082773946 -0.7272191 0.034916598
-0.037261754 -0.72772467 0.034065112
-0.034786142 -0.72776747 0.034104493
0.045752775 -0.82783651 0.035914313
0.018656559 -0.80342454 0.035501301
0.026900982 -0.80346328 0.035520773
0.093439803 -0.80342293 0.035504136
-0.026499987 -0.79134482 0.035649154
0.013711331 -0.79142785 0.035776295
0.064533219 -0.78006923 0.035539951
0.005585358 -0.768852 0.035474312
0.021421328 -0.76884592 0.035476163
0.029459737 -0.76886302 0.035531737
0.03747287 -0.7688036 0.035445105
-0.09333767 -0.75769967 0.035747267
-0.010531545 -0.75777632 0.035796039
0.0081211487 -0.75776124 0.035768416
0.0056046639 -0.74730068 0.035509203
-0.01314243 -0.73698986 0.035472732
-0.0692017 -0.72660166 0.035721894
-0.16001004 -0.71702111 0.035306297
-0.079862528 -0.70741826 0.035118915
-0.11999023 -0.68855703 0.035439875
-0.13052841 -0.67984486 0.035167903
-0.1868984 -0.65369338 0.035240792
-0.21910946 -0.63653648 0.035892814
0.069749907 -0.84021306 0.036606178
0.069705106 -0.81492543 0.036272258
0.010823037 -0.80284101 0.03629107
0.096750863 -0.80212694 0.036975607
0.056597032 -0.79072154 0.036476985
0.069748104 -0.79073197 0.036436565
0.088528633 -0.79074734 0.036505144
0.099373326 -0.79074985 0.036569078
0.07535167 -0.77948403 0.036259901
0.01382166 -0.76827687 0.036317039
0.067329504 -0.76820081 0.036241144
0.096644484 -0.76823181 0.036254298
0.10423455 -0.76824063 0.036317836
-0.06401179 -0.76749706 0.036986288
-0.061287962 -0.76744342 0.036914218
-0.045092981 -0.7673372 0.036890514
-0.028740644 -0.767551 0.036984324
-0.023668954 -0.75715047 0.036569335
0.0002483259 -0.75711089 0.036538243
0.018884778 -0.75710917 0.03655849
0.024570361 -0.75714076 0.036548216
0.091095127 -0.75709069 0.03652373
0.10993029 -0.75710016 0.036551014
-0.058408841 -0.75691789 0.036489721
-0.055857722 -0.7568872 0.036459044
-0.042636503 -0.75688434 0.036390822
0.075381197 -0.74675286 0.036341745
-0.021115612 -0.73641622 0.036346972
-0.10098405 -0.7260313 0.036437299
-0.079643145 -0.72603405 0.036455035
-0.055837162 -0.72589409 0.03646557
-0.047696114 -0.72583383 0.036458898
-0.061396636 -0.71635002 0.036087528
-0.093095027 -0.70643014 0.036862642
-0.098400034 -0.69690424 0.036861248
0.054073896 -0.82647306 0.037338085
0.03234458 -0.81426811 0.037013058
0.059058975 -0.8142578 0.037044611
0.080380455 -0.81427932 0.037044968
0.040479507 -0.81355643 0.037756424
0.075605728 -0.80151576 0.037757527
0.059108008 -0.79009032 0.037231084
0.040537577 -0.78941542 0.037964705
0.048649333 -0.78940541 0.037901454
0.019077197 -0.77816612 0.037765581
0.027310839 -0.7782045 0.037784949
0.035311982 -0.77817649 0.037759922
0.051266443 -0.77812803 0.037677575
0.083011307 -0.77883488 0.037049927
0.093858436 -0.77816445 0.037768237
0.10181253 -0.77880371 0.037041172
-0.0342981 -0.76757562 0.037037671
-0.03166391 -0.76756817 0.037002597
0.040392186 -0.76757747 0.037020508
-0.053262476 -0.76673311 0.037716903
-0.0022681053 -0.76695555 0.03775261
0.10188993 -0.75651568 0.037385616
-0.098418355 -0.74601942 0.037013743
-0.079420485 -0.74543619 0.037810776
-0.053369686 -0.74585241 0.037024263
-0.017896248 -0.74558777 0.037959438
-0.074398436 -0.73516619 0.037883069
-0.061248831 -0.73562896 0.037009999
-0.02606711 -0.735192 0.037866618
-0.023556229 -0.73582888 0.037135914
-0.044913456 -0.73495001 0.037795644
-0.042379271 -0.73499018 0.037773199
-0.066366762 -0.72548538 0.03732131
-0.05330836 -0.72530305 0.037286177
-0.10603189 -0.71546066 0.037851665
-0.087595239 -0.71545714 0.03789613
-0.12201569 -0.70588422 0.037652716
-0.082262158 -0.70589489 0.03771561
-0.10894134 -0.69704759 0.03700383
-0.18922594 -0.69650048 0.037983485
-0.17842001 -0.69651312 0.037954859
-0.13006629 -0.69653791 0.037837278
-0.11689555 -0.69643551 0.037723232
-0.14077914 -0.67835635 0.037708286
-0.16760357 -0.66092104 0.037508063
-0.16519421 -0.66091079 0.03750376
0.065091737 -0.82513857 0.03891607
0.075665355 -0.82586443 0.038149901
0.00060446921 -0.78879869 0.03871648
0.080696195 -0.78882647 0.038738802
0.0036283908 -0.77754289 0.038510568
0.011244281 -0.77760899 0.038575899
-0.015334592 -0.76643324 0.038638089
0.03264508 -0.76638865 0.038562153
0.07013543 -0.76637745 0.038554486
-0.020674495 -0.75535864 0.038947441
0.011330555 -0.75537586 0.038961604
0.072801054 -0.7553491 0.038905028
-0.015294892 -0.74499321 0.038752437
-0.0046578427 -0.74491996 0.038715713
0.086326793 -0.74491191 0.03864203
-0.10587879 -0.73468167 0.038740955
-0.084920123 -0.73464715 0.038738057
-0.058006074 -0.73444957 0.038675703
-0.12194511 -0.72497159 0.038117401
-0.050432008 -0.72412878 0.038852561
-0.14328474 -0.71485746 0.038629334
-0.13550916 -0.70542401 0.038601469
-0.10061649 -0.70529628 0.038442992
-0.14327522 -0.69594294 0.038602352
-0.20229533 -0.68715686 0.038186766
-0.13812774 -0.68666768 0.038987342
-0.1354239 -0.68666112 0.038986027
-0.12178876 -0.68659127 0.038874283
-0.23973212 -0.67757225 0.038111757
-0.1650281 -0.67783421 0.038558621
-0.20790111 -0.64379925 0.038161911
0.062135808 -0.83742446 0.039498642
0.072839186 -0.83747315 0.039467689
0.062112007 -0.81223887 0.039257992
0.051635124 -0.81153512 0.039879195
0.091659673 -0.81155473 0.039933644
0.046342161 -0.80013001 0.039172716
0.086511746 -0.79946905 0.039887488
0.025070883 -0.78818566 0.039481513
0.032789972 -0.78817236 0.039462548
0.054445304 -0.77689373 0.039238613
-0.012477872 -0.76580966 0.039327987
0.099896714 -0.76577902 0.039459866
0.10772692 -0.76577443 0.039371792
0.094219528 -0.7547003 0.039707024
-0.066001788 -0.74427152 0.039453525
-0.050364871 -0.74403292 0.03934459
-0.033848379 -0.74431676 0.039505027
-0.03121306 -0.74430919 0.039470688
-0.092653431 -0.73405594 0.039521452
-0.07130564 -0.73402536 0.039522745
-0.13248086 -0.72448868 0.039055251
-0.12986627 -0.72450137 0.039039288
-0.089814588 -0.72447383 0.03901837
-0.14606836 -0.72382444 0.039761692
-0.15680557 -0.71431464 0.039445434
-0.14048849 -0.71435869 0.039490823
-0.12739992 -0.71437013 0.039530717
-0.11660635 -0.71429074 0.039419472
-0.09511368 -0.7142818 0.039389554
-0.084766462 -0.71433723 0.039499752
-0.074105993 -0.71428305 0.039454151
-0.071302153 -0.71428883 0.039480142
-0.063535206 -0.71422547 0.039454363
-0.169774 -0.70484036 0.039381083
-0.11109617 -0.70489568 0.039445572
-0.089733072 -0.7048862 0.039406192
-0.1619419 -0.69542038 0.039466918
-0.15927061 -0.69541323 0.039427761
-0.12738311 -0.69548476 0.039518051
-0.10573895 -0.69548577 0.039494
-0.21535333 -0.68615907 0.039831463
-0.19966753 -0.6866169 0.039037127
-0.18624952 -0.68668562 0.039152201
-0.17250557 -0.68610376 0.039844334
-0.21032611 -0.67739189 0.039516836
-0.19376737 -0.67741239 0.039565776
-0.14608718 -0.67730367 0.039385881
-0.22135387 -0.6686613 0.039247628
-0.17545582 -0.66868472 0.039356045
-0.17257997 -0.66864067 0.039317153
-0.15419742 -0.66864043 0.039211843
-0.21298347 -0.66006315 0.039371219
-0.18888566 -0.6514582 0.039636433
-0.2102332 -0.64295459 0.039908301
0.038400881 -0.82304794 0.040957034
0.068008326 -0.82374245 0.040256914
0.017080795 -0.78752792 0.040250264
-0.017538583 -0.77634758 0.040111445
0.046641085 -0.77563447 0.040783722
0.089191936 -0.7651608 0.04017235
-0.036151666 -0.75403118 0.040447615
-0.0068599521 -0.75410926 0.040472962
-0.038959045 -0.75396931 0.040404499
-0.10839 -0.74381202 0.040352244
-0.046907704 -0.74288654 0.040997166
-0.094968811 -0.73344445 0.04023743
-0.10831592 -0.72337735 0.040684506
-0.09777844 -0.72323436 0.040536974
-0.10317252 -0.71375871 0.040292613
-0.16715573 -0.70432252 0.040209636
-0.15115859 -0.70429158 0.04017796
-0.14867797 -0.70426571 0.040182248
-0.13225409 -0.70437115 0.040278099
-0.19117306 -0.69494814 0.040464967
-0.17528811 -0.69496036 0.040425293
-0.14032969 -0.69495857 0.04032525
-0.19678269 -0.68562853 0.040785946
-0.16954271 -0.68560761 0.040638309
-0.16707015 -0.68561947 0.040630896
-0.1510666 -0.68558848 0.0405991
-0.13216867 -0.68566823 0.04069832
-0.22612512 -0.67679662 0.04011099
-0.18047 -0.67690623 0.040477261
-0.1617787 -0.67684859 0.040277265
-0.20192285 -0.6682238 0.040233728
-0.18878601 -0.66821051 0.0403114
-0.21018811 -0.65959126 0.040231559
-0.17797822 -0.65959519 0.040300187
-0.2211414 -0.65100068 0.040329866
-0.0041809836 -0.77500933 0.041600771
-0.049999651 -0.76359904 0.041524086
-0.046816561 -0.76362735 0.041585192
-0.02542877 -0.76388562 0.041627504
0.017347425 -0.76392424 0.041699186
0.0041246419 -0.75350451 0.041258276
-0.076346137 -0.74310833 0.041003287
-0.028009575 -0.74311692 0.041045964
0.078629404 -0.74320251 0.041084554
-0.063137338 -0.74247527 0.041846223
-0.12429692 -0.73235852 0.041932028
-0.11618185 -0.73230648 0.041882019
-0.10290116 -0.73231947 0.041931402
-0.038823586 -0.73278934 0.04107713
-0.12442162 -0.71325344 0.041118428
-0.11373217 -0.71322614 0.041126851
-0.15376605 -0.71268249 0.041920245
-0.19349372 -0.70384526 0.041192371
-0.18292312 -0.70385033 0.041278269
-0.18035381 -0.70382363 0.041244879
-0.16462006 -0.7037825 0.041042197
-0.14568248 -0.7032066 0.041840743
-0.20416477 -0.69450277 0.041276272
-0.15649553 -0.69439954 0.041124515
-0.11370996 -0.69440049 0.041153878
-0.12424945 -0.69391221 0.04198822
-0.21261685 -0.6851691 0.041598175
-0.22879627 -0.68497765 0.041186143
-0.22352275 -0.67635477 0.041064452
-0.20739433 -0.67642009 0.041282035
-0.19101597 -0.67640638 0.041289903
-0.17781445 -0.67642576 0.041310605
-0.15896255 -0.67635691 0.04110156
-0.14281704 -0.67637175 0.041120075
-0.23632604 -0.67563635 0.041551903
-0.21823874 -0.66773713 0.041026279
-0.21497567 -0.66728753 0.041913085
-0.19929032 -0.66771472 0.041101389
-0.18586622 -0.66778302 0.041211437
-0.18290409 -0.66777492 0.041211411
-0.19667922 -0.65911484 0.041166089
-0.19347824 -0.65915745 0.041156478
-0.18032898 -0.65913647 0.041205231
-0.22870581 -0.65851015 0.041604422
-0.035832938 -0.77432126 0.042311098
-0.081402831 -0.75228006 0.042847015
-0.073685206 -0.75284916 0.042012669
-0.070872754 -0.75285548 0.042038936
-0.067974716 -0.75222182 0.042832799
-0.13479184 -0.73181552 0.042818304
-0.1134641 -0.73175704 0.042745795
-0.14833829 -0.72214687 0.042224094
-0.11883307 -0.72214162 0.042175267
-0.076128334 -0.72214329 0.042176586
-0.17200261 -0.7121377 0.042856082
-0.11873539 -0.70267117 0.042640354
-0.15359077 -0.693371 0.042809527
-0.18268134 -0.68467671 0.042562835
-0.14828213 -0.68456298 0.042309485
-0.2040114 -0.675991 0.042119518
-0.23369959 -0.66651112 0.04228444
-0.23130524 -0.66652596 0.042340443
-0.16916254 -0.66676688 0.042739093
-0.22567154 -0.65811956 0.04260033
-0.22322026 -0.6581623 0.042690605
-0.20724054 -0.65868163 0.042026825
-0.20387174 -0.65828264 0.042882439
-0.218023 -0.65013874 0.042140082
-0.1990806 -0.65011621 0.042215578
-0.212395 -0.64170408 0.042600416
-0.089036621 -0.74143887 0.043504484
-0.11038122 -0.73124325 0.04363554
-0.21786839 -0.68413883 0.04322625
-0.15602863 -0.67491877 0.043693289
-0.21476585 -0.64972019 0.04304352
-0.20140542 -0.64971691 0.043101806
-0.13718456 -0.71111226 0.044504646
-0.19040878 -0.657305 0.044667795
-0.086204052 -0.73967785 0.045929737
