# .PCD v0.7 - Point Cloud Data file format
VERSION 0.7
FIELDS x y z
SIZE 4 4 4
TYPE F F F
COUNT 1 1 1
WIDTH 1403
HEIGHT 1
VIEWPOINT 0 0 0 1 0 0 0
POINTS 1403
DATA ascii
0.038321409 -0.86106557 -0.014231141
0.038274489 -0.89019871 -0.014406292
0.03764566 -0.92484891 -0.017883193
0.038746316 -0.9687593 -0.011497258
-0.13757712 -2.325943 -1.0119796
-0.13297363 -2.5036571 -0.98567098
-0.13276643 -2.6613433 -0.98436648
-0.13254666 -2.8367207 -0.98298484
-0.098929927 -2.6865587 -0.79209876
-0.064181902 -2.6765587 -0.59466374
0.033601243 -2.6663351 -0.038980458
0.10813973 -2.6652937 0.38465807
0.12146988 -2.6653011 0.46042055
0.13472906 -2.6556332 0.53577685
0.14781933 -2.639333 0.61017191
0.15463454 -2.6486087 0.6489107
0.1746372 -2.641494 0.76255548
0.18811862 -2.6379402 0.83914995
0.5048129 -8.8624964 2.6388488
0.60155189 -6.4833932 3.1875348
0.60720658 -5.8037181 3.2195277
0.61445278 -5.4536581 3.260622
0.63949949 -5.3051014 3.4028151
0.62639475 -4.5231543 3.3283405
0.63006306 -4.2656174 3.3491578
0.5902372 -3.7298136 3.1230173
0.62005782 -3.698277 3.2923455
0.62163049 -3.4888628 3.3012841
0.62532657 -3.2076056 3.3222914
0.62095255 -2.9995129 3.2974772
0.61955833 -2.8193088 3.2895854
0.62202138 -2.6663227 3.3035955
0.62297666 -2.5141296 3.3090477
0.61006492 -2.3169062 3.2357776
0.61890757 -2.2088773 3.2860122
0.61172444 -2.0505846 3.2452693
0.60789692 -1.9109979 3.2235782
0.6114949 -1.7373857 3.2440619
0.60764968 -1.6104003 3.2222741
0.60679829 -1.4947555 3.2174826
0.60581636 -1.3821055 3.2119508
0.60474551 -1.2722248 3.205915
0.60699046 -1.169714 3.2187014
0.60893363 -1.0677046 3.229775
0.56325668 -0.91800213 2.9705458
0.60879225 -0.81173313 3.2290812
0.60149062 -0.75692618 3.1876583
0.59586877 -0.60727942 3.1558149
0.59419417 -0.51010901 3.1463542
0.59071785 -0.41390848 3.1266668
0.1704271 -0.42192459 0.74139279
0.15888184 -0.41165689 0.67601693
0.15701973 -0.40925422 0.66548622
0.15582137 -0.4018926 0.65876025
0.15470412 -0.3903079 0.6525324
0.15387769 -0.37384579 0.64799237
0.1542428 -0.36836895 0.65010184
0.15408179 -0.34942257 0.64933741
0.15505037 -0.33629689 0.65490818
0.15526517 -0.33026236 0.65616411
0.1545848 -0.31591746 0.65241414
0.15409625 -0.30618927 0.64971554
0.15395993 -0.29471368 0.64901537
0.15439315 -0.27347779 0.6515829
0.15596718 -0.25170609 0.66058582
0.15541904 -0.23931316 0.65754753
0.15428853 -0.22138447 0.65124023
0.15488702 -0.20005701 0.654706
0.38471296 1.6845984 1.9585736
0.36396939 1.673056 1.8409115
0.34582058 1.6753724 1.7379708
0.32916963 1.6851746 1.6435283
0.31219715 1.6856325 1.5472646
0.2955617 1.6828328 1.4529152
0.27453497 1.7171532 1.3336589
0.24765983 1.5445915 1.1812695
0.23423128 1.5503958 1.1051179
0.22038832 1.5437081 1.0266199
0.20753951 1.550365 0.953758
0.19489679 1.558215 0.88206488
0.1821073 1.558539 0.80954218
0.16933121 1.5532386 0.73709804
0.1560443 1.5145181 0.66177118
0.14454272 1.5546606 0.59653765
0.12611182 1.5511413 0.49202982
0.11390295 1.540372 0.42280686
0.10176772 1.5391562 0.35399669
0.089575052 1.5414877 0.28485829
0.077267177 1.5453279 0.21506476
0.064835168 1.5486305 0.14456654
0.051838323 1.5651245 0.070854612
0.039086517 1.5651153 -0.0014579193
0.022377443 1.505023 -0.096165523
0.020079307 1.3046932 -0.10902962
0.0082990285 1.3036846 -0.17582712
-0.0032095048 1.2944691 -0.24107787
-0.01412478 1.2744792 -0.30295533
-0.040025126 1.4389409 -0.44999877
0.065377988 0.00039848412 0.14935525
0.061808679 -0.01973686 0.12922028
0.0589463 -0.028789124 0.11305358
0.055597108 -0.034510691 0.094121471
0.05269732 -0.044117652 0.077742621
0.043909103 -0.046550948 0.028009517
0.041608155 -0.075598612 0.015079513
0.039102796 -0.11485387 0.0010335785
0.039803181 -0.1420459 0.0051022405
0.037102859 -0.17621854 -0.010053045
0.037041318 -0.197395 -0.010312937
0.037293032 -0.21872011 -0.008794345
0.037244253 -0.23824656 -0.0089825783
0.037409972 -0.27601293 -0.0078649577
0.037288748 -0.29353577 -0.0084654056
0.037614111 -0.31152365 -0.0065302439
0.037399691 -0.32799679 -0.0076602469
0.03710904 -0.35226214 -0.0091795148
0.037457939 -0.3608329 -0.0071549173
0.037136253 -0.38433769 -0.0088506369
0.037042957 -0.3999576 -0.0092932293
0.037045747 -0.41551438 -0.0091903228
0.036970727 -0.43091872 -0.0095291818
0.037162684 -0.44632578 -0.0083523281
0.036927566 -0.46161187 -0.009600006
0.036785226 -0.47696775 -0.010320874
0.037006129 -0.49996078 -0.0089358818
0.036924854 -0.51547861 -0.0093098292
0.03693923 -0.53106946 -0.0091406386
0.036879767 -0.54690427 -0.0093904287
0.03658184 -0.56329066 -0.0109936
0.043111231 -0.58470255 0.026244355
0.045524262 -0.59542304 0.040028471
0.045712207 -0.61033738 0.041183099
0.045520194 -0.62650335 0.040181503
0.046150863 -0.64923793 0.043893836
0.035973903 -0.69728851 -0.013774138
0.035628591 -0.71861392 -0.015642568
0.03600676 -0.7491836 -0.01335836
0.036215197 -0.7707721 -0.012082601
0.035900258 -0.79562187 -0.013776012
0.035525743 -0.8222152 -0.01580639
0.036689259 -0.85640204 -0.0090604713
0.036487956 -0.88605136 -0.010105195
0.036073755 -0.9191153 -0.012356202
0.03585441 -0.95357722 -0.013499899
-0.13686192 -2.3016033 -0.99302191
-0.13753092 -2.4453084 -0.99664432
-0.13772066 -2.5996873 -0.99753797
-0.139736 -2.7877958 -1.008773
-0.11084462 -2.6907523 -0.84472859
-0.084731258 -2.6917953 -0.69634902
-0.067310959 -2.6829684 -0.59737051
0.11219164 -2.6586223 0.42278084
0.12547122 -2.656285 0.49825969
0.13881858 -2.6592569 0.57412761
0.15210879 -2.6535499 0.64967424
0.16531682 -2.6431849 0.72473431
0.43893418 -4.9049187 2.280257
0.61200017 -6.1231103 3.2637172
0.61724454 -5.7198701 3.2932739
0.61574733 -4.935966 3.2843714
0.62284648 -4.6696448 3.3245602
0.61880457 -4.3406343 3.3014636
0.62257427 -3.9709132 3.3227241
0.61694515 -3.6958311 3.2906604
0.62814832 -3.5440376 3.3542328
0.62180078 -3.3007362 3.3181159
0.61754608 -3.0866678 3.2939012
0.61400193 -2.8907638 3.2737339
0.61391658 -2.7229953 3.2732208
0.6173386 -2.5788746 3.2926354
0.59534264 -2.3416774 3.167702
0.62036562 -2.2231057 3.3097994
0.61630708 -2.0736682 3.286751
0.60906655 -1.9221642 3.24564
0.60675603 -1.79208 3.2325296
0.60540462 -1.6694287 3.2248702
0.60253394 -1.5475345 3.2085879
0.60290021 -1.4364319 3.2106886
0.60036939 -1.3227164 3.1963439
0.60447955 -1.1697896 3.2197211
0.60659438 -1.0679562 3.2317581
0.56485713 -0.92219615 2.994838
0.60652936 -0.86250669 3.2314563
0.6015746 -0.75844496 3.2033646
0.59545147 -0.65665835 3.1686432
0.59199548 -0.55836129 3.149066
0.58829045 -0.46169034 3.128077
0.16797127 -0.42177683 0.74237227
0.15488707 -0.41316065 0.66828305
0.15353686 -0.4058381 0.66070974
0.15244833 -0.39409471 0.65466762
0.15183339 -0.38622567 0.65126836
0.15123129 -0.37382561 0.64798784
0.15143394 -0.36872339 0.64918369
0.1516235 -0.35872152 0.65035087
0.15231054 -0.34177262 0.65438718
0.15230255 -0.33121237 0.65443325
0.1517738 -0.31642824 0.65156955
0.15157306 -0.30561128 0.65052187
0.15086836 -0.29645839 0.64661413
0.15158266 -0.27408877 0.65080535
0.15312752 -0.25979125 0.65961832
0.15260907 -0.23997708 0.65681344
0.15208437 -0.22686704 0.65392745
0.15114945 -0.20672767 0.64875942
0.39151657 1.6810603 2.0129666
0.37088838 1.6746736 1.8959864
0.35191655 1.673584 1.7884077
0.32670435 1.6886746 1.6454601
0.31003076 1.6927291 1.5509276
0.29418328 1.6999397 1.4610844
0.27835247 1.701619 1.3713374
0.24829122 1.4937809 1.2008494
0.23783298 1.5436565 1.1415905
0.22419977 1.5431825 1.0643183
0.21096739 1.5445116 0.98932153
0.19836174 1.5546359 0.91788173
0.17960607 1.5693524 0.81159079
0.16645882 1.5532532 0.73708123
0.15418355 1.5621737 0.66751921
0.14165561 1.5546733 0.59652489
0.12942591 1.561602 0.52722299
0.11704591 1.532078 0.45707062
0.1049285 1.5390801 0.38840714
0.092787944 1.5376449 0.31961331
0.080536433 1.5417393 0.2501902
0.062789947 1.5120013 0.14963728
0.049281381 1.5523328 0.073080905
0.036165204 1.5641487 -0.0012472044
0.023419498 1.5595347 -0.073472038
0.021495389 1.3340465 -0.084283151
-0.0019606135 1.323833 -0.21718243
0.026862824 0.73540318 -0.053512555
0.064140186 -0.015017169 0.1584643
0.061446499 -0.024652967 0.1432755
0.058414653 -0.031544421 0.12616785
0.053806439 -0.04237574 0.10016335
0.051772229 -0.042715065 0.08866857
0.039920673 -0.068415508 0.021754742
0.040273603 -0.096915819 0.023852877
0.036761031 -0.10484347 0.0040170895
0.030269641 -0.11313716 -0.032673698
0.034693811 -0.14418536 -0.0075224908
0.034814842 -0.16745371 -0.0067408308
0.034681413 -0.18868048 -0.0074031977
0.033798959 -0.21675935 -0.012268632
0.034746248 -0.22966945 -0.0068463315
0.033819184 -0.25577259 -0.011965378
0.034359742 -0.2755996 -0.008804149
0.034234904 -0.29315439 -0.0094186785
0.034228928 -0.31052345 -0.0093589267
0.034339413 -0.32768062 -0.0086385161
0.034228511 -0.34408271 -0.0091744903
0.034392014 -0.36058334 -0.0081535988
0.034320947 -0.37648529 -0.008463894
0.034349434 -0.39228538 -0.0082095005
0.034303878 -0.40784121 -0.0083754258
0.03418098 -0.42323676 -0.0089804251
0.034151856 -0.43860951 -0.0090535535
0.034042567 -0.45392311 -0.0095817717
0.034052741 -0.4769052 -0.0093866084
0.034002423 -0.49227691 -0.0095808152
0.034045793 -0.50768089 -0.0092436578
0.034011357 -0.52323723 -0.0093482966
0.033731256 -0.53920394 -0.010847275
0.03355271 -0.55535102 -0.011770319
0.035490911 -0.57675773 -0.0006367832
0.04272199 -0.58766472 0.04053304
0.042963225 -0.60994989 0.042035978
0.042448986 -0.62686437 0.039206397
0.042846132 -0.64204305 0.041548613
0.033368226 -0.69631654 -0.012110294
0.033318095 -0.71658045 -0.012308731
0.03312768 -0.73819798 -0.013304035
0.032820277 -0.76130712 -0.014964123
0.032842144 -0.78427362 -0.014756205
0.033293508 -0.81903327 -0.012070225
0.033132717 -0.84602958 -0.012901452
0.033208635 -0.87350571 -0.012390285
0.032667976 -0.90634841 -0.015380472
0.032080699 -0.9420771 -0.018637063
-0.14246218 -2.3910012 -1.0094168
-0.1373128 -2.5730579 -0.98016667
-0.13761839 -2.7435956 -0.98190647
-0.11376829 -2.6932559 -0.8464781
-0.095238954 -2.6838956 -0.74126083
-0.045189854 -2.6719449 -0.45704827
0.03506216 -2.6751444 -0.0012965332
0.089688584 -2.6605833 0.30894527
0.10301739 -2.6602726 0.38464233
0.12297388 -2.6582787 0.49797931
0.13623475 -2.6522751 0.57329303
0.1562736 -2.6501985 0.68707556
0.16962141 -2.6444321 0.76290697
0.18926866 -2.6214004 0.87453967
0.42540494 -4.963244 2.2133114
0.45634282 -4.947289 2.3889699
0.59471709 -6.1898632 3.1734145
0.61765575 -5.7410631 3.304024
0.57950658 -4.9671111 3.0881631
0.61556566 -4.9504213 3.2928801
0.62847054 -4.7312818 3.3663447
0.62127125 -4.374373 3.3258197
0.6204769 -4.0973454 3.3215842
0.59521842 -3.6814344 3.1786187
0.6249398 -3.6469023 3.3473783
0.61712408 -3.3871534 3.3032837
0.61291921 -3.1673374 3.2796509
0.61548495 -2.9089422 3.2945011
0.61574501 -2.7416439 3.2961662
0.61784363 -2.5908077 3.3082516
0.59010243 -2.3306584 3.1510847
0.6192162 -2.2980189 3.3163846
0.61151069 -2.1328444 3.2728431
0.60536128 -1.9819896 3.2381213
0.60269755 -1.8488451 3.2231658
0.60046732 -1.7223139 3.2106645
0.60213464 -1.5523505 3.2203407
0.60152429 -1.4388658 3.2170193
0.60164267 -1.3295943 3.217829
0.60054135 -1.2206913 3.2117162
0.60261875 -1.1184661 3.2236345
0.55839384 -0.96516746 2.9728606
0.5779506 -0.88982624 3.0839388
0.58781803 -0.80062205 3.1400456
0.59388155 -0.70629913 3.1745703
0.5908981 -0.55881053 3.1578236
0.58683336 -0.46182233 3.1348789
0.58478862 -0.3660565 3.1233931
0.1654429 -0.42153952 0.74427724
0.15236053 -0.40819526 0.67025638
0.15083185 -0.40561503 0.66162401
0.14974308 -0.39382046 0.65557098
0.14985615 -0.38911909 0.65625423
0.14863016 -0.3778317 0.64942205
0.14852509 -0.37346804 0.64886725
0.1485994 -0.35912883 0.64941311
0.14937675 -0.35216865 0.65386552
0.14983755 -0.33533901 0.65660429
0.14905879 -0.32153603 0.65230864
0.14919022 -0.30967209 0.65313667
0.14823082 -0.30159807 0.64777458
0.14805478 -0.29010847 0.64685756
0.14934638 -0.26429039 0.65430963
0.15030473 -0.24482819 0.65982962
0.14957623 -0.23308352 0.65577704
0.1486066 -0.2136967 0.65039647
0.39255041 1.710564 2.0349391
0.36994943 1.6901975 1.9067607
0.35022146 1.6836128 1.7948849
0.33116814 1.6743624 1.686837
0.31446427 1.680252 1.5921202
0.29835904 1.686532 1.5007997
0.28272596 1.6926154 1.4121579
0.25884339 1.5809318 1.2767056
0.24120486 1.5324663 1.1766846
0.22160517 1.546978 1.0655669
0.20835364 1.5483503 0.99043792
0.19568685 1.5575427 0.91862625
0.18263403 1.5533463 0.84462428
0.17025217 1.563132 0.77442855
0.15774587 1.5664413 0.70352656
0.14512993 1.5592457 0.63200289
0.13267395 1.5504687 0.56138676
0.1142895 1.5360848 0.45716199
0.10218057 1.5340898 0.38851407
0.089994594 1.5416492 0.31942752
0.077800401 1.5407542 0.25029495
0.064496875 1.5890081 0.17486055
0.052444249 1.5661364 0.10653341
0.039721847 1.5674404 0.034402005
0.026838321 1.5680344 -0.038643945
0.020955896 1.4132857 -0.071935557
0.014609953 1.3008957 -0.10786246
-0.0035427548 1.3059943 -0.21077614
-0.014387866 1.2852505 -0.27224961
-0.030549604 1.3326452 -0.36390716
-0.056323867 1.480745 -0.51013565
0.063207418 -0.014723135 0.168642
0.05928345 -0.02967556 0.14649349
0.056285072 -0.036449961 0.12955715
0.052996702 -0.041506488 0.11097477
0.04937999 -0.045037318 0.090528697
0.045626603 -0.048760172 0.069307089
0.037930615 -0.058532912 0.02579074
0.035633318 -0.086869977 0.012878215
0.033127513 -0.10033572 -0.0012603387
0.033568054 -0.1272784 0.001325747
0.031433545 -0.14182675 -0.010704874
0.031686265 -0.16576909 -0.0091848699
0.0313976 -0.186554 -0.010737845
0.031416394 -0.20758219 -0.01054558
0.031594798 -0.22825499 -0.0094473278
0.031616617 -0.24765733 -0.0092377616
0.031937439 -0.26716256 -0.0073310211
0.031756319 -0.28476837 -0.0082731498
0.031531878 -0.30185929 -0.0094610341
0.031750936 -0.31943506 -0.0081315981
0.031755075 -0.33616796 -0.0080218324
0.031373482 -0.36013004 -0.010057906
0.031471543 -0.37629148 -0.0094146719
0.031500198 -0.39212629 -0.0091651715
0.031454988 -0.40771702 -0.0093346806
0.031505451 -0.42323485 -0.0089610126
0.031477358 -0.43860799 -0.0090329126
0.031369042 -0.45392191 -0.0095598698
0.031353481 -0.46924523 -0.0095601352
0.03125738 -0.48461148 -0.010017176
0.031374928 -0.50768089 -0.0092170369
0.031341035 -0.52323759 -0.0093202377
0.031232286 -0.53903109 -0.0098478496
0.031392422 -0.55472857 -0.0088492949
0.032829028 -0.56875604 -0.00060724723
0.037511848 -0.57707822 0.026054446
0.040218949 -0.58735698 0.041505095
0.040353343 -0.60215747 0.042358164
0.039942157 -0.61854732 0.040116224
0.040334973 -0.64162272 0.042482551
0.040522151 -0.65771139 0.043636978
0.030499119 -0.70689827 -0.013132305
0.030080784 -0.72888935 -0.015409723
0.030718584 -0.75907552 -0.011646054
0.030443514 -0.78310347 -0.013108062
0.030368669 -0.80758673 -0.013433004
0.030233154 -0.83375907 -0.014100657
0.029807456 -0.8630634 -0.016412525
0.029646063 -0.89296794 -0.01722342
0.0299732 -0.93842793 -0.015207776
0.029814631 -0.97403318 -0.015997129
-0.14206837 -2.3654852 -0.99028534
-0.14346306 -2.5217054 -0.99798697
-0.14391628 -2.6865313 -1.0003361
-0.13702503 -2.7998927 -0.96103907
-0.1084169 -2.6988256 -0.79865581
-0.065404952 -2.689698 -0.55430359
0.11319164 -2.6642728 0.46056128
0.12646458 -2.656599 0.53598791
0.13969798 -2.6492581 0.61119074
0.15310879 -2.650182 0.68734437
0.1663785 -2.6414492 0.76271266
0.17976436 -2.6349468 0.83874196
0.59797549 -6.2769165 3.2158861
0.59898764 -5.8062 3.2212598
0.6071524 -5.4647479 3.2673435
0.61291194 -5.1370091 3.299793
0.62532258 -4.8987308 3.3700693
0.6133759 -4.4857683 3.3019671
0.62392831 -4.146945 3.3616457
0.59157246 -3.6797924 3.1776841
0.6217674 -3.6482244 3.3490753
0.61734003 -3.4075212 3.3238077
0.61356926 -3.1883421 3.3022871
0.61106312 -2.9908187 3.2879636
0.60936505 -2.8097045 3.2782416
0.6108169 -2.6529179 3.286418
0.59835303 -2.4474275 3.2155838
0.61395216 -2.2899292 3.3040838
0.61270058 -2.1467063 3.2969351
0.60682416 -1.9954679 3.2635357
0.60318124 -1.8583534 3.2428243
0.60087913 -1.7307197 3.2297311
0.59700519 -1.6042498 3.2077205
0.59857297 -1.494258 3.2166059
0.59743214 -1.3813326 3.2101192
0.59874332 -1.2221073 3.2175519
0.60000557 -1.1185533 3.2247131
0.5851174 -0.99805671 3.1402097
0.55893856 -0.87483048 2.9916306
0.5835526 -0.79939055 3.1313391
0.59394884 -0.70755792 3.1903508
0.58907408 -0.60749775 3.1626945
0.58532339 -0.5098744 3.1414201
0.58271849 -0.41376266 3.126651
0.16223255 -0.41624495 0.7406556
0.15048005 -0.41200301 0.67407691
0.14861748 -0.40515026 0.66358238
0.1477598 -0.40185809 0.65875292
0.14657855 -0.3859033 0.65219963
0.14597765 -0.37345374 0.64890236
0.14573665 -0.35992795 0.6476472
0.14651723 -0.3529993 0.65211314
0.14698803 -0.33626324 0.65489614
0.14679191 -0.32611203 0.65385801
0.14621325 -0.31129146 0.65068704
0.14569151 -0.30158386 0.64780182
0.1461772 -0.29350513 0.65059423
0.14673382 -0.27155691 0.65386307
0.14829603 -0.24970473 0.66279864
0.14691749 -0.23376356 0.65508962
0.14646384 -0.2199132 0.65258986
0.37554738 1.6757841 1.9521052
0.35504481 1.6656746 1.8358563
0.33721021 1.6703596 1.7347419
0.31304631 1.6908091 1.5977519
0.29718864 1.7008454 1.5078553
0.28073058 1.6981059 1.4145569
0.26610336 1.7126088 1.3316419
0.23925066 1.539976 1.1794198
0.22544748 1.5390985 1.1011863
0.2122255 1.5427976 1.0262496
0.19933027 1.5484761 0.95316684
0.18673101 1.5572805 0.88176298
0.16777563 1.5631527 0.77433997
0.15526433 1.5664582 0.70343816
0.1421335 1.5314124 0.62903267
0.13033949 1.5634468 0.56219321
0.11790178 1.5441701 0.49171647
0.10572807 1.5323939 0.42273581
0.093621574 1.5331792 0.35413331
0.081493355 1.5325264 0.28540832
0.068525761 1.5751779 0.21190983
0.050294034 1.5522949 0.10860568
0.03711975 1.5693859 0.033942185
0.024530027 1.5621665 -0.037398212
0.015400448 1.4779795 -0.089087695
0.011447708 1.3123461 -0.11138621
-0.0010079831 1.3216494 -0.18197063
-0.011264667 1.2916659 -0.24006914
-0.027389158 1.3425924 -0.33147833
0.064297728 -0.015714981 0.18923879
0.061693706 -0.02512663 0.17454815
0.058877617 -0.03249101 0.15865383
0.055806562 -0.037965067 0.14131251
0.052541703 -0.04253234 0.12287138
0.048952091 -0.045533385 0.10258738
0.043861259 -0.054059766 0.073827796
0.035119914 -0.057137679 0.024396181
0.031358514 -0.11673544 0.0033097423
0.029299647 -0.13180843 -0.0082879234
0.02946591 -0.15588696 -0.0072597605
0.029246565 -0.17730173 -0.0084200557
0.028249105 -0.20560348 -0.013953987
0.029451434 -0.2196836 -0.0070900819
0.028583689 -0.24636355 -0.011888972
0.028897546 -0.26596361 -0.010025348
0.028870873 -0.28404054 -0.010094198
0.028968953 -0.30188081 -0.0094554871
0.029188884 -0.31945652 -0.0081256703
0.02902705 -0.33591384 -0.0089622131
0.029139724 -0.35249785 -0.0082414933
0.029189855 -0.36866823 -0.0078758625
0.0290007 -0.38433146 -0.0088681402
0.02908035 -0.40009052 -0.0083355093
0.029085042 -0.41561264 -0.0082283933
0.028838538 -0.43091244 -0.00954674
0.028816504 -0.45394388 -0.0095517859
0.028802441 -0.46926725 -0.0095518809
0.029054588 -0.48452893 -0.0080418177
0.028706972 -0.5000416 -0.0099348845
0.02880004 -0.51547229 -0.0093278484
0.028644528 -0.53121954 -0.010131464
0.02858769 -0.54708874 -0.010375481
0.031167706 -0.55968511 0.004341267
0.035146143 -0.56927526 0.026992256
0.037684899 -0.58737659 0.041513458
0.037821595 -0.60217708 0.042366546
0.037734739 -0.61781788 0.041950922
0.03743979 -0.63447011 0.040354282
0.037578434 -0.65054512 0.041217517
0.028133282 -0.7064364 -0.012261022
0.027864456 -0.72788239 -0.013711284
0.027764305 -0.74972188 -0.014204946
0.027695062 -0.77248639 -0.01452377
0.028553564 -0.80453157 -0.0095422287
0.027872289 -0.83313954 -0.01333551
0.028351098 -0.85773373 -0.010546615
0.027912995 -0.88882345 -0.012961662
0.027400486 -0.92270553 -0.015799956
0.027092746 -0.95802963 -0.017477376
-0.14706866 -2.3181698 -1.0057627
-0.14781515 -2.4639342 -1.0099677
-0.1480573 -2.6204314 -1.0113168
-0.1433036 -2.8394001 -0.98431003
-0.11042023 -2.6971447 -0.79764509
-0.0744875 -2.6748192 -0.59364986
0.10452232 -2.6576059 0.42271715
0.12447497 -2.6565919 0.5360052
0.13788627 -2.6602046 0.61214966
0.14441271 -2.6495507 0.64918846
0.15772092 -2.6441522 0.72479838
0.17761295 -2.6300142 0.8378166
0.49467218 -8.8419437 2.6341572
0.42952573 -4.8726358 2.2666867
0.58658272 -6.4160042 3.1571841
0.58818358 -5.9296689 3.1665766
0.61501008 -5.5555196 3.3190863
0.63384259 -5.342073 3.426122
0.62518013 -4.9093428 3.3772585
0.61676496 -4.5244403 3.3297772
0.62296999 -4.2857728 3.3651791
0.58272183 -3.7463584 3.1371601
0.61113739 -3.7046404 3.298486
0.61380297 -3.5014856 3.3137898
0.60877413 -3.2686703 3.2854521
0.61349666 -3.0123124 3.3124931
0.61201614 -2.8309462 3.3042629
0.61216891 -2.6672063 3.3052907
0.61452979 -2.5206931 3.3188379
0.60060269 -2.3193188 3.2400019
0.61063832 -2.2152581 3.297071
0.60361809 -2.0570621 3.2574
0.59872341 -1.9138695 3.2297812
0.59665424 -1.7851942 3.2181854
0.59734493 -1.6100969 3.2223101
0.59484321 -1.4910337 3.2082551
0.59613484 -1.3830413 3.2157149
0.59488612 -1.2727531 3.2087636
0.59560436 -1.1679639 3.2129679
0.59939212 -1.0684453 3.2345829
0.55555576 -0.92050821 2.986047
0.59740895 -0.86125576 3.2235873
0.59104741 -0.75663489 3.1876256
0.58714759 -0.65631127 3.1656272
0.58318794 -0.50977218 3.1433489
0.58090985 -0.41355696 3.1305468
0.15955502 -0.41623446 0.74064207
0.14862843 -0.41576329 0.67875808
0.1465992 -0.41333205 0.66729724
0.14523241 -0.40161043 0.65969592
0.14362851 -0.38184333 0.65085083
0.14337176 -0.37781265 0.64944506
0.14330471 -0.36870527 0.64916611
0.14380974 -0.35788989 0.65213269
0.14410546 -0.33672845 0.65401334
0.14390752 -0.326608 0.65299171
0.14422736 -0.31997254 0.65485698
0.14390881 -0.30965388 0.65315121
0.14248863 -0.29129493 0.64529669
0.14441985 -0.27629423 0.65630406
0.1452731 -0.2510134 0.66129708
0.14471549 -0.23859508 0.65823489
0.14344978 -0.22134939 0.65120614
0.14415862 -0.19927876 0.65532923
0.37571082 1.7001199 1.9693832
0.35330653 1.6756821 1.8423786
0.33531278 1.6797419 1.7403972
0.31810144 1.6844287 1.6428545
0.30152875 1.6892756 1.5489346
0.28478315 1.6856315 1.4540333
0.27002224 1.6998589 1.3703922
0.24256958 1.5290698 1.2147375
0.22279687 1.5438477 1.1027133
0.20979533 1.5523784 1.0290531
0.19656794 1.5523539 0.95411098
0.18401872 1.5631374 0.883017
0.1714202 1.5703623 0.81164312
0.15823624 1.5532761 0.73694652
0.1452381 1.5284448 0.66330391
0.13353124 1.5616587 0.59699023
0.12092891 1.5326484 0.52559298
0.10275938 1.541382 0.4226642
0.090600923 1.5411589 0.35378715
0.078457281 1.5374957 0.28499413
0.065871045 1.5572544 0.2136917
0.054007515 1.5337629 0.14648712
0.040392809 1.5729829 0.069351539
0.027834091 1.5660677 -0.001795499
0.014989488 1.5633723 -0.074563891
0.013239151 1.3340017 -0.084405273
-0.013507748 1.2804204 -0.2358928
0.065365322 -0.0021286546 0.21169257
0.063295931 -0.017906027 0.20005271
0.060613945 -0.026067335 0.18493806
0.057714749 -0.032187883 0.1685914
0.053362593 -0.0421368 0.14405252
0.050119013 -0.046604864 0.12575255
0.046656799 -0.050289817 0.1062125
0.043065008 -0.054096695 0.085937515
0.03933654 -0.058105629 0.064887337
0.030945415 -0.10408345 0.017638603
0.027860451 -0.1142516 0.0002394192
0.028279185 -0.14026737 0.0027153664
0.026075033 -0.15420026 -0.0096870475
0.026133912 -0.17679122 -0.0092521319
0.026073705 -0.19793816 -0.0094926124
0.025871269 -0.21777868 -0.010539781
0.026124123 -0.23827478 -0.0090041878
0.026215505 -0.25751367 -0.0083844429
0.02628574 -0.27604121 -0.0078845443
0.026162144 -0.29356417 -0.0084840395
0.026321361 -0.31122643 -0.0074791876
0.026102491 -0.32773295 -0.0086189006
0.026158111 -0.34439436 -0.0082014771
0.026152788 -0.36063656 -0.0081296461
0.025996212 -0.38436651 -0.0088645536
0.025900288 -0.39998651 -0.0093063526
0.025727844 -0.41543886 -0.01018207
0.025996018 -0.43101752 -0.0085583627
0.025838809 -0.44631997 -0.0093474304
0.025774376 -0.4616411 -0.0096101062
0.025802786 -0.47696218 -0.0093460241
0.02592398 -0.49226457 -0.0085555287
0.025762357 -0.51550812 -0.0093173981
0.02560259 -0.53125542 -0.010120153
0.0257119 -0.54693389 -0.0093965512
0.027272038 -0.56084555 -0.00044377503
0.031925544 -0.56956887 0.026054226
0.034762535 -0.57975906 0.042248964
0.034680117 -0.59479851 0.041885372
0.034537107 -0.61036402 0.041178335
0.034182422 -0.62692094 0.039270956
0.034262683 -0.64294505 0.039830707
0.024476798 -0.6982581 -0.015512563
0.024435487 -0.71864462 -0.015640965
0.02425438 -0.74038243 -0.016561827
0.025016617 -0.77080274 -0.012078894
0.02483798 -0.79505086 -0.012984748
0.024727346 -0.82035816 -0.01350442
0.024308158 -0.84872067 -0.015773326
0.025280332 -0.88608223 -0.010096724
0.025105517 -0.91770762 -0.010978151
0.024759488 -0.95286524 -0.012829576
-0.14813063 -2.3016944 -0.9929201
-0.14777318 -2.437309 -0.99074805
-0.14868559 -2.5972908 -0.99577111
-0.14877567 -2.7675333 -0.99612576
-0.12485879 -2.7185471 -0.8603707
-0.1041352 -2.6875911 -0.7427237
-0.085821927 -2.6718106 -0.63874435
0.11443911 -2.6662838 0.49866667
0.12769896 -2.656265 0.57398123
0.14089206 -2.6455908 0.64890456
0.15442817 -2.6501095 0.72574598
0.16782661 -2.6439481 0.80180269
0.41143277 -4.8888593 2.1845217
0.59802324 -6.081984 3.2432675
0.60888779 -5.7407184 3.3048356
0.60815048 -4.9609842 3.3005345
0.61289984 -4.6735973 3.3274446
0.60969174 -4.3508744 3.3092167
0.60585207 -4.0534906 3.2874165
0.59922737 -3.649617 3.2498252
0.62233686 -3.5719476 3.3809297
0.60989064 -3.2929542 3.3103306
0.60957235 -3.09991 3.3085387
0.60489529 -2.8976955 3.2820253
0.60470486 -2.7290134 3.2809682
0.60647273 -2.5775599 3.2910225
0.58414662 -2.3393087 3.1644113
0.6061188 -2.2802191 3.2890773
0.6046294 -2.0701373 3.2806835
0.60060257 -1.9283843 3.2578824
0.59674656 -1.7936361 3.2360528
0.59459829 -1.6689043 3.2239122
0.59285122 -1.549552 3.2140491
0.5922398 -1.4362994 3.2106292
0.58986729 -1.3228774 3.1972225
0.59226316 -1.22015 3.2108626
0.59609044 -1.0680314 3.2326484
0.55242759 -0.92033976 2.9850676
0.59756613 -0.86376601 3.241128
0.58950126 -0.75747854 3.1954455
0.5850963 -0.65666938 3.1705215
0.57937795 -0.55785054 3.1381505
0.57931119 -0.46156427 3.1378326
0.15687977 -0.42177308 0.74234706
0.14413007 -0.41277918 0.67019355
0.14260946 -0.40561378 0.6616466
0.14152147 -0.39382014 0.65559173
0.14090674 -0.38591796 0.65218246
0.14046699 -0.37311047 0.64980412
0.14069171 -0.36316323 0.65115583
0.14076601 -0.34313619 0.65173173
0.14122462 -0.33121401 0.65441006
0.14055185 -0.3169601 0.65071112
0.14064461 -0.30505416 0.65131491
0.13979787 -0.29646072 0.64659077
0.14094846 -0.27877694 0.65319395
0.14219618 -0.25915033 0.66034806
0.1416748 -0.23929721 0.65750879
0.14102502 -0.2268694 0.65390235
0.14051098 -0.21296875 0.65106589
0.38110536 1.6851177 2.0157919
0.35994062 1.674732 1.8958522
0.34123969 1.6761528 1.7898858
0.32239765 1.6684405 1.6831189
0.29928681 1.6954188 1.5521901
0.28333676 1.7017738 1.4618257
0.26748499 1.703478 1.3720188
0.23720509 1.492877 1.2003741
0.22674501 1.542737 1.1411471
0.21332429 1.5460522 1.0651271
0.20001915 1.5464467 0.98976254
0.18726847 1.5536746 0.91754323
0.17444433 1.5553102 0.84490722
0.15549889 1.557204 0.73760271
0.14327739 1.5701106 0.66838634
0.13071007 1.5636322 0.59720683
0.11816553 1.5426176 0.52615488
0.10598571 1.5430627 0.45717418
0.093850225 1.5320641 0.38844359
0.081664048 1.5396215 0.3194285
0.069212228 1.5556623 0.2489087
0.057201099 1.5383486 0.18088306
0.037610173 1.5700268 0.06992761
0.024994129 1.5650905 -0.0015255453
0.012236423 1.5604655 -0.073781699
0.0093594147 1.3541929 -0.090045065
0.065228969 -0.014907433 0.22683883
0.061274011 -0.026819689 0.20452993
0.059791919 -0.028986454 0.19616532
0.0556251 -0.03904698 0.17265542
0.052509163 -0.043133572 0.15506577
0.049190462 -0.046319798 0.1363266
0.045853887 -0.050332334 0.11748589
0.042068157 -0.052073341 0.096098863
0.037783708 -0.051821589 0.071884431
0.028783018 -0.067756601 0.02104331
0.029007209 -0.095613256 0.022387551
0.026419044 -0.10809414 0.0077884127
0.015957369 -0.085457228 -0.05144709
0.023552183 -0.14363487 -0.0083174473
0.023529822 -0.16637263 -0.0083707236
0.023540918 -0.18818794 -0.0082342671
0.022810848 -0.21679702 -0.012262902
0.023062803 -0.23735438 -0.010760853
0.023637 -0.24857724 -0.0074686403
0.023223622 -0.2752465 -0.0097018396
0.023262313 -0.29319212 -0.0094088716
0.023260046 -0.31056121 -0.0093481559
0.023208203 -0.32742599 -0.0095685646
0.023266982 -0.34412056 -0.0091618402
0.023434255 -0.36062115 -0.0081400424
0.023366759 -0.37652317 -0.008449425
0.023398871 -0.39232329 -0.0081941346
0.02335687 -0.40787914 -0.0083591649
0.023237454 -0.42327479 -0.0089632645
0.023320926 -0.44633701 -0.0083807418
0.023087971 -0.46162274 -0.0096290158
0.023121519 -0.4769434 -0.0093663465
0.023074681 -0.49231517 -0.0095596639
0.023121584 -0.50771916 -0.0092216274
0.022918632 -0.52341473 -0.010300609
0.022984842 -0.53906876 -0.0098535512
0.022808494 -0.55518168 -0.010782203
0.029475667 -0.56177783 0.027096681
0.031948745 -0.5727042 0.041192457
0.031989593 -0.58739209 0.041495394
0.032233052 -0.6096279 0.042982444
0.031879429 -0.62611949 0.041047484
0.031803139 -0.64250213 0.040684897
0.032309007 -0.6577453 0.043623507
0.022585239 -0.71611941 -0.011422125
0.021805996 -0.73982668 -0.015774658
0.022087527 -0.76078713 -0.014111522
0.021968884 -0.78431278 -0.014718859
0.021907249 -0.80885148 -0.015003714
0.022268195 -0.84606874 -0.012860964
0.022347581 -0.87354493 -0.01234842
0.021932786 -0.90568072 -0.014640545
0.021462634 -0.94065398 -0.017248355
0.022892522 -0.98405963 -0.0090501001
-0.15298951 -2.3878896 -1.0069195
-0.1538109 -2.5414069 -1.0115898
-0.14753783 -2.734349 -0.97602445
-0.12537564 -2.7002599 -0.85028142
-0.10597449 -2.6822011 -0.74020207
-0.088822551 -2.6798146 -0.64288455
-0.073718242 -2.696126 -0.55718774
-0.056892775 -2.6840568 -0.46171647
0.092234731 -2.6752939 0.38449743
0.10558965 -2.6573 0.46029204
0.12561998 -2.6602712 0.57395267
0.14559454 -2.6512017 0.68730462
0.15884832 -2.6414769 0.76255214
0.17197421 -2.6271217 0.8370778
0.41358787 -4.9446483 2.2061059
0.58485246 -6.1960635 3.1766379
0.59716505 -5.8556871 3.246773
0.59414917 -5.3998361 3.2300601
0.60233784 -4.9251657 3.276938
0.61709392 -4.7229929 3.3608332
0.61203635 -4.3830624 3.3324609
0.61249638 -4.1143475 3.3353288
0.58367372 -3.6737981 3.1722553
0.61728048 -3.6636283 3.3629165
0.60734737 -3.3905957 3.3068476
0.61037749 -3.114862 3.3243287
0.60708767 -2.9184923 3.3058789
0.60630918 -2.7458615 3.3016536
0.60674745 -2.5877764 3.3043175
0.57968998 -2.3305731 3.1511266
0.61059046 -2.3042865 3.3264432
0.601713 -2.1347547 3.2762859
0.59465033 -1.9809626 3.2364082
0.59400851 -1.8535804 3.2329228
0.59053475 -1.7234479 3.2133796
0.59221256 -1.5533394 3.2231078
0.59029341 -1.437152 3.2123685
0.59173071 -1.330386 3.2206547
0.58979398 -1.2200886 3.20981
0.59288448 -1.1192811 3.2274647
0.56125271 -0.97997874 3.0482543
0.56186062 -0.88458365 3.0518267
0.5725677 -0.79712772 3.1126583
0.58467251 -0.70682758 3.1814148
0.58047456 -0.55872977 3.1577954
0.57657999 -0.46174282 3.1358325
0.57418573 -0.36601257 3.1223743
0.15426938 -0.41614005 0.74160296
0.14199363 -0.41241837 0.67211807
0.14011614 -0.40116629 0.66159558
0.13941596 -0.39771834 0.65766627
0.13842621 -0.38593736 0.65217716
0.13754278 -0.36949325 0.64733166
0.13773903 -0.35955569 0.64852667
0.13817431 -0.34854698 0.65107703
0.13898332 -0.3358286 0.65574694
0.13878302 -0.325647 0.65469289
0.13865593 -0.31485939 0.65405387
0.13767129 -0.30104554 0.64859235
0.13763027 -0.28892606 0.64844131
0.13864513 -0.26431149 0.65431923
0.13986202 -0.24351102 0.66130215
0.13899985 -0.23241021 0.65649396
0.13778615 -0.21444979 0.64973265
0.35954881 1.6918604 1.9078089
0.33970362 1.6844718 1.7953424
0.32072249 1.6760927 1.6877751
0.30399716 1.6820136 1.5930009
0.28858009 1.6963415 1.5056454
0.27199617 1.6917142 1.4116708
0.24803832 1.5790907 1.2758718
0.23077404 1.5361969 1.178036
0.2171021 1.5371636 1.1005745
0.1976521 1.5483391 0.99038112
0.1849768 1.5575286 0.9185707
0.17227659 1.5631109 0.84661835
0.15952535 1.5631125 0.77437603
0.14676908 1.5565163 0.70210463
0.1344412 1.5622042 0.63226265
0.12182586 1.5424604 0.56078964
0.10956197 1.5311415 0.49130967
0.091412812 1.5330554 0.38848835
0.079251938 1.5376177 0.319592
0.066816747 1.5536652 0.24913952
0.053742249 1.5869805 0.17506072
0.041884359 1.5572021 0.10788212
0.028842883 1.569356 0.033990245
0.016329529 1.560189 -0.036906302
0.0091911582 1.4335185 -0.077316307
0.0034322233 1.3075366 -0.1099021
0.062685743 -0.014000127 0.22645991
0.060513079 -0.027519684 0.21421629
0.057809368 -0.034290284 0.19896066
0.054882582 -0.039016213 0.1824398
0.051873416 -0.043548591 0.16545174
0.048673935 -0.047117148 0.1473843
0.045157094 -0.049036898 0.12751688
0.040365312 -0.057519183 0.10045824
0.036797952 -0.06163862 0.08030457
0.026915623 -0.05716845 0.024413388
0.023694945 -0.1192833 0.0063883173
0.020663114 -0.14187826 -0.010686298
0.020772951 -0.16526142 -0.0099820718
0.020628858 -0.18660571 -0.010717977
0.020798862 -0.20813401 -0.0096722627
0.020981152 -0.22877635 -0.0085567506
0.020850474 -0.24770929 -0.009216195
0.021013686 -0.26680776 -0.0082086278
0.020991832 -0.2848205 -0.0082505737
0.020931162 -0.3022536 -0.0085125463
0.020987965 -0.31948736 -0.0081080813
0.020992864 -0.33622035 -0.0079978695
0.021106971 -0.35277072 -0.0072680977
0.020881455 -0.376535 -0.0084229279
0.020740433 -0.39217907 -0.0091397157
0.020695945 -0.40776992 -0.0093088197
0.020747194 -0.42328784 -0.0089347633
0.020719843 -0.43866107 -0.0090062739
0.020612217 -0.45397511 -0.0095328363
0.020771047 -0.46928108 -0.008548025
0.020675443 -0.48461258 -0.0090059452
0.020500194 -0.50007296 -0.0099152708
0.020419961 -0.51562554 -0.010285472
0.020992802 -0.53856391 -0.0069091725
0.020470934 -0.55499023 -0.0097831134
0.026628736 -0.56227833 0.0252224
0.029603459 -0.57244557 0.042176906
0.029640172 -0.58710045 0.042470891
0.029447107 -0.602552 0.041462261
0.029360764 -0.61822546 0.041059226
0.02922494 -0.63450313 0.040376049
0.029627539 -0.6582182 0.042790215
0.019906886 -0.70646828 -0.012237946
0.019486401 -0.72842932 -0.014532012
0.019386595 -0.75029844 -0.015007089
0.019843904 -0.78257084 -0.012276626
0.019903535 -0.80641073 -0.01184568
0.019362465 -0.83445722 -0.014819197
0.019458372 -0.86111158 -0.014180372
0.020222323 -0.90075427 -0.0097046625
0.019714799 -0.93555832 -0.012483018
0.019197984 -0.97333431 -0.015312013
-0.15232839 -2.3615787 -0.98723012
-0.15304352 -2.5119627 -0.99111319
-0.15288705 -2.6706839 -0.99004596
-0.15234937 -2.8436937 -0.98680621
-0.12034077 -2.7111511 -0.80524516
-0.08276204 -2.6712115 -0.59194595
0.028267156 -2.6745079 0.038494822
0.10259268 -2.6613169 0.46057418
0.11586547 -2.6546433 0.53594726
0.12947115 -2.67221 0.61322558
0.14248261 -2.6472409 0.68704736
0.1560407 -2.6493847 0.76400691
0.16921917 -2.6349783 0.83880246
0.58605659 -6.2552972 3.2056308
0.58496189 -5.7637696 3.1991625
0.59806347 -5.4750891 3.2733395
0.6093877 -5.1980157 3.3374479
0.61022693 -4.8563938 3.3420563
0.60462642 -4.4970407 3.3101366
0.60131699 -4.1897411 3.2912464
0.57173556 -3.7296057 3.12327
0.61214036 -3.6518235 3.3524799
0.60968173 -3.4223132 3.3384731
0.60357279 -3.1896491 3.3037648
0.60040659 -2.9887936 3.2857671
0.5989545 -2.8090177 3.2775056
0.6015026 -2.6570723 3.2919495
0.59231406 -2.4645786 3.2398081
0.59773934 -2.3395634 3.2705896
0.59779829 -2.1993852 3.2709293
0.59557456 -1.9925911 3.2583308
0.59315187 -1.8591702 3.2446043
0.59052753 -1.7306598 3.2297385
0.58744735 -1.6060634 3.212291
0.58722425 -1.4921454 3.211056
0.58721834 -1.3815808 3.211056
0.58614445 -1.271734 3.2050006
0.58771467 -1.1682882 3.2139475
0.58765501 -1.0124978 3.2136736
0.54695743 -0.87336773 2.9828689
0.58931965 -0.81078488 3.2232106
0.58247733 -0.70697147 3.1844504
0.57845616 -0.60738242 3.161695
0.57330644 -0.50965464 3.1325409
0.57173359 -0.41375232 3.1236775
0.1515556 -0.41627458 0.74067408
0.14028917 -0.41614971 0.67685068
0.13827386 -0.40925172 0.66549927
0.13724239 -0.40164873 0.65972829
0.13589044 -0.38593593 0.65221947
0.13539292 -0.37785003 0.64947748
0.13519479 -0.36435267 0.64847386
0.13566837 -0.35345423 0.65124011
0.1366758 -0.34042877 0.65703452
0.13594744 -0.32664403 0.65302432
0.1358266 -0.31591606 0.65241981
0.13548034 -0.3056289 0.65053695
0.13481806 -0.29012626 0.64690238
0.13616906 -0.27095914 0.65464675
0.13719723 -0.24417539 0.66060126
0.13703254 -0.2372653 0.6597082
0.13575882 -0.21994446 0.65260726
0.13681081 -0.19559647 0.65865707
0.3651911 1.6790459 1.9543663
0.34475607 1.6698409 1.8385574
0.32688642 1.6746169 1.7373002
0.30866131 1.6688045 1.6340261
0.28653908 1.7026346 1.5087004
0.270062 1.6999222 1.4153416
0.25541499 1.71445 1.3323644
0.22849123 1.5409031 1.1797327
0.21524058 1.5494896 1.104674
0.20139018 1.5427846 1.0262115
0.18866773 1.5523236 0.95414889
0.17592093 1.5582356 0.8819477
0.16331658 1.5644431 0.8105545
0.14439939 1.566431 0.70340323
0.13101201 1.5174584 0.62755883
0.11924589 1.545457 0.56092381
0.1069975 1.540136 0.4915472
0.094843432 1.533354 0.42270499
0.082682729 1.5411311 0.35382807
0.070427924 1.5464461 0.28441685
0.057730265 1.5691612 0.2124977
0.039601438 1.5443388 0.10981017
0.026567485 1.55853 0.035981476
0.013764807 1.5582078 -0.036539108
0.0030432183 1.5088249 -0.097268917
-0.001946296 1.3591394 -0.12551466
-0.0098243039 1.2865971 -0.17012486
0.059793815 -0.030250106 0.2246314
0.055818614 -0.040487543 0.20220582
0.054204304 -0.040961858 0.1930909
0.051128782 -0.044214189 0.1757286
0.046694122 -0.052111201 0.15069705
0.043206666 -0.053912044 0.13099837
0.039683916 -0.056619998 0.11109907
0.035909377 -0.058719106 0.089771688
0.031862605 -0.060361315 0.066900179
0.020459803 -0.116166 0.0025710962
0.023669062 -0.15413478 0.020840883
0.018705668 -0.15594742 -0.0072314669
0.018488485 -0.17736226 -0.0083909566
0.018734284 -0.19950955 -0.0069250339
0.018545976 -0.21925932 -0.0079207635
0.018503092 -0.23875497 -0.0080918577
0.018602299 -0.25796244 -0.007457193
0.018680178 -0.276458 -0.0069435085
0.018224198 -0.30194151 -0.0094216159
0.018115848 -0.31889924 -0.0099643618
0.01811921 -0.33569896 -0.009873677
0.018232232 -0.35231665 -0.0091611771
0.018452713 -0.36872894 -0.0078393379
0.018436326 -0.3845658 -0.007861115
0.018174907 -0.40001214 -0.00927292
0.018180691 -0.41556892 -0.0091693979
0.01828183 -0.431043 -0.0085252412
0.018130315 -0.44634542 -0.00931447
0.018250758 -0.46931064 -0.0085264873
0.018157864 -0.48464215 -0.0089839865
0.018158406 -0.50001532 -0.0089118145
0.018080475 -0.51553327 -0.0092852097
0.017755449 -0.53143704 -0.011060847
0.017872054 -0.54714978 -0.010331494
0.018424632 -0.5624454 -0.0071290778
0.02711721 -0.56519228 0.042257015
0.026943378 -0.58007538 0.041338682
0.027033363 -0.59482229 0.041916665
0.027030032 -0.61787605 0.041997794
0.027054273 -0.63371485 0.042201217
0.027033933 -0.65016496 0.042150933
0.01686701 -0.69828266 -0.015482744
0.017320953 -0.72742867 -0.012815434
0.017074952 -0.74978334 -0.014152315
0.017150849 -0.77197433 -0.013663511
0.018008407 -0.80397713 -0.0087112617
0.017459903 -0.83191538 -0.011770564
0.017547432 -0.8584643 -0.011221248
0.016992789 -0.89027441 -0.014319955
0.016854757 -0.92204785 -0.015056009
0.015967073 -0.96106416 -0.020051811
-0.15736799 -2.3167143 -1.0044341
-0.15749295 -2.4575825 -1.0052154
-0.15804432 -2.6164072 -1.0084356
-0.1519592 -2.8223755 -0.9740302
-0.12154573 -2.7042506 -0.80133408
-0.10405415 -2.7034919 -0.70205277
-0.08574196 -2.6848855 -0.59809846
0.039977286 -2.6818447 0.11555798
0.094103836 -2.6696403 0.42284742
0.12737782 -2.6542501 0.61176485
0.1341114 -2.6555381 0.64993417
0.14755191 -2.6540704 0.7262944
0.48768276 -8.8969069 2.6490121
0.42118388 -4.896503 2.2768633
0.57815367 -6.43402 3.1657186
0.58706433 -6.0293503 3.2168446
0.59203249 -5.6322026 3.2455919
0.59058535 -5.2187328 3.2379591
0.61536753 -4.9117222 3.3790545
0.60834652 -4.5380907 3.3397481
0.61160523 -4.2770033 3.358629
0.57883132 -3.7899325 3.1733479
0.60168767 -3.7097499 3.3031983
0.6044789 -3.5071504 3.3193545
0.59845394 -3.2685847 3.2855356
0.59509879 -3.0617154 3.2668247
0.59387082 -2.8790011 3.2601528
0.60191232 -2.667732 3.3061397
0.60468602 -2.5229137 3.3221228
0.58783281 -2.3105373 3.2268391
0.60093278 -2.2177663 3.3013401
0.59360451 -2.058454 3.2600286
0.59040374 -1.920166 3.2421072
0.58583784 -1.7842938 3.2164381
0.58456469 -1.6626089 3.2094305
0.58659345 -1.4957734 3.2212417
0.58624923 -1.384232 3.2194898
0.58432788 -1.272711 3.2087901
0.58554065 -1.1686502 3.2158594
0.58830339 -1.0677848 3.2317157
0.54803437 -0.92360473 3.0035267
0.58715248 -0.86150312 3.2255578
0.5812993 -0.75713003 3.1925421
0.57617933 -0.65614784 3.1636806
0.57307243 -0.50980508 3.1463203
0.56974351 -0.41359314 3.12761
0.14899719 -0.42190015 0.74139875
0.13573384 -0.40449545 0.66647315
0.13400173 -0.39796409 0.6567505
0.13292952 -0.38187003 0.65087467
0.1323085 -0.36473349 0.64755827
0.13295117 -0.35832369 0.65125638
0.1334765 -0.34178156 0.65439266
0.13305584 -0.32713544 0.65216172
0.13293405 -0.31643784 0.65157479
0.13301878 -0.3045027 0.65215987
0.1321644 -0.29588079 0.647416
0.13357942 -0.27693784 0.65555072
0.1348301 -0.24972941 0.66280645
0.13413687 -0.23794134 0.65897804
0.13347429 -0.22546344 0.65532392
0.13321893 -0.20079362 0.65403473
0.36518961 1.7025027 1.9711863
0.34412923 1.6897316 1.8518085
0.32476115 1.682242 1.7420332
0.30744654 1.6861168 1.6439117
0.29086232 1.6909977 1.5499339
0.27410564 1.687386 1.4549733
0.25940284 1.7025567 1.3716731
0.23142467 1.5243931 1.2129688
0.21804261 1.5314521 1.1371566
0.19897272 1.55234 1.0291345
0.18587953 1.5552144 0.95495909
0.17307776 1.5601783 0.882438
0.16026488 1.5605116 0.80985171
0.14770995 1.5641079 0.73873043
0.13508965 1.5601749 0.66723496
0.12238984 1.5407095 0.59528083
0.11009606 1.5316225 0.52563554
0.097988032 1.533054 0.45704946
0.079848982 1.5291445 0.35429856
0.067521565 1.5464545 0.28447694
0.054951891 1.5622107 0.21328087
0.043616973 1.5159243 0.14905849
0.029864542 1.5631244 0.071169965
0.016858492 1.5699728 -0.0025042372
0.0042841304 1.5604575 -0.073737197
0.0024237616 1.3339986 -0.084303305
0.057220824 -0.033862777 0.22629078
0.054633137 -0.041084625 0.21170783
0.051669557 -0.044445727 0.19499487
0.048612423 -0.04762708 0.17775156
0.0455456 -0.051528525 0.1604532
0.042175185 -0.053700175 0.14143392
0.037334751 -0.060539581 0.11412437
0.03358081 -0.062527224 0.09293057
0.029437615 -0.063310049 0.069529884
0.021857735 -0.073320128 0.026732814
0.021725137 -0.098965041 0.02606868
0.018622059 -0.10874267 0.0085644359
0.016461467 -0.1354485 -0.0035516452
0.015083157 -0.15304758 -0.011276494
0.015282523 -0.1762405 -0.010055793
0.015071691 -0.19690138 -0.011160223
0.015168343 -0.21777137 -0.010520696
0.015267896 -0.23781297 -0.0098641841
0.01535794 -0.25708267 -0.0092610931
0.015586828 -0.2760323 -0.0078702755
0.015302223 -0.29319623 -0.0093906587
0.015460548 -0.31089079 -0.0083991438
0.015406894 -0.32772225 -0.008609239
0.015463574 -0.34438309 -0.0081933765
0.01562847 -0.36084971 -0.0071635507
0.015133023 -0.38418007 -0.0098302057
0.015209026 -0.39997312 -0.0093037179
0.015210133 -0.4155294 -0.0092016468
0.015133286 -0.43093321 -0.0095413579
0.015150107 -0.44630483 -0.0093496684
0.015086465 -0.46162534 -0.0096140131
0.015289231 -0.47691098 -0.0083674127
0.015237653 -0.49224773 -0.0085628731
0.015249457 -0.51536846 -0.0083499672
0.015089518 -0.5310806 -0.0091593293
0.015198492 -0.5467242 -0.0084435623
0.014727809 -0.56330073 -0.011014592
0.023969978 -0.55815202 0.041443288
0.023743741 -0.57298231 0.040258683
0.024000917 -0.59478176 0.041864857
0.02402059 -0.60998839 0.042075232
0.02398386 -0.62573081 0.041965984
0.023742493 -0.64250398 0.040696546
0.014104563 -0.69729465 -0.013805903
0.014057911 -0.7176196 -0.013970295
0.013576487 -0.74035662 -0.01659973
0.014624215 -0.76962942 -0.010507459
0.014300225 -0.79442209 -0.012243346
0.014051354 -0.82033056 -0.013552901
0.013894736 -0.84738022 -0.014338925
0.013975087 -0.87490821 -0.013780847
0.01331539 -0.90850806 -0.017418424
0.014434322 -0.95060575 -0.010918589
-0.15786779 -2.432317 -0.98749882
-0.15774101 -2.5830574 -0.98665255
-0.15865342 -2.7597589 -0.99169415
-0.13408308 -2.7036967 -0.85226285
-0.11523939 -2.6918888 -0.74529976
-0.096818805 -2.6752992 -0.640737
-0.057854954 -2.6891057 -0.41951418
0.015954392 -2.6712544 -0.00043451533
0.029481383 -2.680953 0.076380335
0.090442285 -2.6666441 0.42253906
0.1037939 -2.6663067 0.49835545
0.11708123 -2.6582925 0.57380521
0.13041632 -2.6545842 0.64951587
0.14381547 -2.6511524 0.72556943
0.15731198 -2.6479492 0.80217522
0.40239137 -4.911345 2.1927865
0.5889439 -6.0992742 3.2510307
0.59805954 -5.7384596 3.3027196
0.59350765 -4.9252806 3.2768927
0.60252202 -4.6755972 3.3280311
0.59890497 -4.3496346 3.3075309
0.60697269 -4.0086656 3.3533216
0.58783418 -3.6447592 3.244803
0.61151886 -3.5708666 3.3791628
0.60131049 -3.3044169 3.3213005
0.59821963 -3.0962398 3.3038089
0.5943163 -2.8980353 3.2817121
0.59535766 -2.7348921 3.2876596
0.59729946 -2.5837748 3.2987158
0.57399768 -2.3413064 3.1666164
0.60216409 -2.2336013 3.3264186
0.59450907 -2.0719192 3.2830563
0.59002692 -1.9287069 3.257688
0.5864861 -1.7947994 3.2376595
0.58450347 -1.6703912 3.2264678
0.58195359 -1.5491463 3.2120602
0.58166778 -1.4366082 3.2104921
0.57962859 -1.3237673 3.1989818
0.5815267 -1.2201955 3.2097983
0.58310795 -1.1173631 3.2188179
0.54322481 -0.92200512 2.9927466
0.58734971 -0.86434436 3.2430031
0.57859635 -0.75756234 3.1934226
0.57592475 -0.65751642 3.1783271
0.57055765 -0.55848324 3.1479485
0.56736875 -0.46184447 3.12992
0.56654888 -0.36600944 3.1253245
0.14623636 -0.42181382 0.74233311
0.13349231 -0.40822613 0.67026764
0.13194862 -0.40117821 0.66159201
0.13087502 -0.39385134 0.65558171
0.13001797 -0.38189343 0.65083736
0.12982085 -0.37314054 0.64979631
0.12973465 -0.35915959 0.64942205
0.1301685 -0.34811917 0.65195787
0.13042834 -0.33172825 0.65354478
0.1297607 -0.31751874 0.64987338
0.12985738 -0.30564192 0.65049684
0.12915492 -0.2964887 0.64658999
0.12975155 -0.28773198 0.65000963
0.13106029 -0.25434217 0.6575774
0.1312899 -0.23796134 0.65895289
0.1303867 -0.2268969 0.65390682
0.13011055 -0.21153314 0.65241474
0.37190896 1.6945658 2.0230286
0.34988573 1.677884 1.8982342
0.33097461 1.6777153 1.7910799
0.31221026 1.6709062 1.6847602
0.28924078 1.6997391 1.554621
0.27280688 1.7007885 1.461512
0.25724351 1.7061397 1.3733375
0.23441634 1.6022167 1.2440152
0.21633539 1.5436167 1.1415888
0.20274834 1.544096 1.064622
0.18969497 1.5492824 0.99067938
0.17688587 1.5555727 0.91812116
0.16426782 1.5630983 0.84664559
0.15136293 1.5581787 0.77354807
0.13283618 1.5710796 0.66860342
0.12000449 1.5476744 0.59592789
0.10759231 1.5306203 0.52562845
0.09548635 1.5310555 0.45705846
0.083388261 1.5320597 0.38853273
0.071141087 1.5466119 0.31915602
0.058619875 1.5646325 0.24822381
0.045520868 1.5959255 0.17400973
0.027609859 1.5552703 0.072575763
0.014579784 1.5641323 -0.0012389251
0.0019130926 1.5575784 -0.07298699
-0.0041216416 1.4147779 -0.10707323
0.056372829 -0.037741423 0.23686567
0.053733155 -0.043686327 0.22197825
0.050799832 -0.046639133 0.20542441
0.047772862 -0.049395338 0.18833947
0.043399222 -0.056544043 0.16365919
0.040061355 -0.058597952 0.1448109
0.036589313 -0.060704578 0.12520179
0.03286586 -0.062165316 0.10416671
0.028756097 -0.062375583 0.080940463
0.018784536 -0.07121563 0.02459557
0.018510167 -0.096268259 0.023128891
0.0086106695 -0.073366582 -0.032938763
0.012920967 -0.14361998 -0.0083094435
0.013183735 -0.16747645 -0.0067304838
0.012757077 -0.18764357 -0.0090625416
0.012781732 -0.20861189 -0.0088349534
0.012965786 -0.22922355 -0.007703552
0.013148886 -0.24900207 -0.0065778638
0.013160149 -0.26759875 -0.0064270599
0.012288162 -0.29246223 -0.01124262
0.012443594 -0.3102228 -0.010274501
0.012553643 -0.32741344 -0.0095639201
0.012610116 -0.34410828 -0.0091573233
0.012775065 -0.3606092 -0.0081356168
0.012705309 -0.37651142 -0.0084450571
0.012735135 -0.39231181 -0.0081897909
0.012690853 -0.40786794 -0.0083548147
0.012569153 -0.42326379 -0.008958878
0.012541239 -0.43863687 -0.0090310536
0.012433073 -0.45395073 -0.0095582819
0.012618517 -0.47689843 -0.008377376
0.01256891 -0.49223557 -0.0085723763
0.012440078 -0.50770956 -0.0092165098
0.012406564 -0.5232662 -0.0093200244
0.012298178 -0.53905964 -0.0098479502
0.012289024 -0.5549649 -0.009813033
0.012885918 -0.57023573 -0.0063416287
