# .PCD v0.7 - Point Cloud Data file format
VERSION 0.7
FIELDS x y z rgb
SIZE 4 4 4 4
TYPE F F F U
COUNT 1 1 1 1
WIDTH 239
HEIGHT 1
VIEWPOINT 0 0 0 1 0 0 0
POINTS 239
DATA ascii
0.087958917 -0.12153045 0.0011726369 4278190080
-0.11352399 -0.10611343 0.00047778408 4278190080
-0.038208764 -0.10707464 0.00091238925 4278190080
-0.029994857 -0.10721262 0.0009056963 4278190080
-0.0032677832 -0.10761383 0.0010078866 4278190080
0.015528986 -0.10791281 0.0011095305 4278190080
0.023625501 -0.10801572 0.0011750748 4278190080
-0.046553127 -0.1067519 0.00095685222 4278190080
0.048116751 -0.094902635 0.0011245145 4278190080
0.05877969 -0.095082641 0.0011960549 4278190080
0.067049332 -0.09517356 0.0012449813 4278190080
-0.11017884 -0.065616407 0.0010765913 4278190080
0.083241463 -0.068326451 0.0020047282 4278190080
0.099445164 -0.068526722 0.0021083448 4278190080
0.094496109 -0.054729275 0.0029704249 4278190080
-0.12162229 -0.1317917 0.00099005294 4278190080
0.07730142 -0.13456289 0.0019404613 4278190080
0.018397342 -0.1218733 0.0023729722 4278190080
0.098956779 -0.12296446 0.0027646194 4278190080
-0.11079188 -0.11940899 0.00097567262 4278190080
-0.035424791 -0.12042505 0.0013849463 4278190080
-0.027162347 -0.12056148 0.0014013101 4278190080
-0.024651315 -0.12062402 0.0014088829 4278190080
-0.0085029425 -0.12084773 0.0014592002 4278190080
0.037251905 -0.12147251 0.0016756544 4278190080
0.074867323 -0.12195788 0.0018782883 4278190080
0.082620986 -0.12211919 0.0019082336 4278190080
0.031951513 -0.1094503 0.0026784644 4278190080
0.04275256 -0.10957631 0.0027319575 4278190080
0.10995841 -0.11052314 0.0030635507 4278190080
-0.051601194 -0.10727622 0.0017220301 4278190080
0.021271622 -0.1086371 0.0019130511 4278190080
-0.10506123 -0.09411636 0.0018751411 4278190080
-0.078253664 -0.094474092 0.0020090682 4278190080
0.099258967 -0.096997015 0.0028522559 4278190080
0.061801858 -0.082966506 0.0028440435 4278190080
0.10210544 -0.083545491 0.0030457624 4278190080
0.099997029 -0.040278658 0.0035152745 4278190080
-0.022127148 -0.13381386 0.0022191897 4278190080
0.031639233 -0.13454434 0.002471278 4278190080
0.10149448 -0.13549146 0.0028376926 4278190080
-0.099521391 -0.1208346 0.0025555971 4278190080
-0.049101524 -0.12123069 0.0029506485 4278190080
0.026532782 -0.12261616 0.003167036 4278190080
-0.10757257 -0.1081281 0.0027649014 4278190080
-0.102283 -0.10818526 0.002798656 4278190080
-0.021690398 -0.10937834 0.0031683645 4278190080
-0.099219382 -0.09489353 0.0026211708 4278190080
-0.056617681 -0.095209673 0.0029538013 4278190080
0.037799791 -0.096821733 0.0032487814 4278190080
0.056628715 -0.097059913 0.0033803368 4278190080
0.075406633 -0.097307689 0.003453691 4278190080
-0.083121672 -0.082379907 0.0035880981 4278190080
0.054082815 -0.084224924 0.0042456789 4278190080
-0.10198283 -0.081359193 0.0027767525 4278190080
-0.088479891 -0.081629001 0.0028099287 4278190080
0.094306663 -0.084117569 0.0037283583 4278190080
0.11037383 -0.084355243 0.0037820549 4278190080
0.097187154 -0.070540339 0.0042200931 4278190080
0.077978387 -0.11141737 0.004397355 4278190080
0.094138429 -0.11160295 0.0044950149 4278190080
0.10204913 -0.11171442 0.0045315493 4278190080
-0.085953854 -0.095818669 0.0034111263 4278190080
-0.06988436 -0.095888481 0.0035352095 4278190080
-0.096410707 -0.082821868 0.0042149075 4278190080
0.051441781 -0.084858 0.0049363356 4278190080
0.070316918 -0.085121602 0.0050568418 4278190080
-0.10441715 -0.068433903 0.0039661434 4278190080
0.086760283 -0.056754183 0.0049589174 4278190080
0.10598827 -0.043245304 0.0062879538 4278190080
0.10840037 -0.042555321 0.0055974247 4278190080
0.11398497 -0.042642072 0.0056177876 4278190080
-0.086126037 -0.1223786 0.0041238754 4278190080
-0.0051088966 -0.11152534 0.0054462273 4278190080
0.013691161 -0.11185185 0.0055580549 4278190080
0.045978736 -0.098904021 0.005503275 4278190080
-0.13129283 -0.083107643 0.0047747865 4278190080
-0.11229868 -0.069773361 0.0053025656 4278190080
0.0733217 -0.072293043 0.0062449449 4278190080
0.089378498 -0.072564386 0.0062716352 4278190080
0.10568167 -0.0727887 0.0063939118 4278190080
0.021503681 -0.14924549 0.0059030564 4278190080
-0.031944118 -0.11179725 0.006105735 4278190080
-0.013215522 -0.11213303 0.0061549107 4278190080
0.073041871 -0.09993922 0.0063962359 4278190080
-0.074601069 -0.085101455 0.0065010497 4278190080
0.041085392 -0.086114049 0.0062998114 4278190080
-0.093306676 -0.070705585 0.006097394 4278190080
0.11389853 -0.073603809 0.0071159741 4278190080
-0.12516652 -0.056695364 0.0067874468 4278190080
-0.1197842 -0.056739256 0.0067948345 4278190080
-0.12248884 -0.041559458 0.0065726279 4278190080
0.013519164 -0.13747124 0.00620544 4278190080
-0.12855586 -0.097912118 0.0061457907 4278190080
-0.10953863 -0.09878701 0.0069396971 4278190080
0.02742294 -0.10003217 0.006890771 4278190080
0.10563926 -0.10177772 0.0080095856 4278190080
0.078845166 -0.088038132 0.0079489034 4278190080
-0.11712946 -0.071101621 0.0067010424 4278190080
0.081434183 -0.073881127 0.0076723723 4278190080
-0.11434754 -0.057511896 0.0074749356 4278190080
-0.1166095 -0.043050498 0.0079131629 4278190080
-0.1277549 -0.042215675 0.0072052819 4278190080
0.090015233 -0.045185484 0.0082152048 4278190080
0.098163821 -0.045252722 0.0082895653 4278190080
-0.013258755 -0.138357 0.0075895237 4278190080
0.086652316 -0.11479055 0.0081107728 4278190080
-0.098009109 -0.072721176 0.0082270131 4278190080
-0.11535778 -0.14919713 0.0075176917 4278190080
-0.11726794 -0.11329059 0.0086349323 4278190080
-0.12021813 -0.11259685 0.007905867 4278190080
-0.11466609 -0.10006791 0.0083614681 4278190080
0.081399448 -0.10281908 0.0093368022 4278190080
0.092189521 -0.10293749 0.0093812309 4278190080
0.097723573 -0.10296248 0.0094228322 4278190080
-0.11464655 -0.11397715 0.0093746781 4278190080
0.084350094 -0.10418262 0.010796728 4278190080
0.087503865 -0.091540933 0.011548199 4278190080
0.090161897 -0.10625333 0.013010018 4278190080
-0.070852049 -0.09060774 0.012288204 4278190080
-0.031244444 -0.14181288 0.012127462 4278190080
-0.12221394 -0.10334937 0.012046871 4278190080
-0.00075569993 -0.093711995 0.014732407 4278190080
0.018042088 -0.094010584 0.014833448 4278190080
-0.12439623 -0.091381863 0.013472081 4278190080
-0.049322624 -0.092037253 0.013989877 4278190080
-0.0089745894 -0.092987679 0.013981313 4278190080
-0.089174449 -0.078440726 0.013900638 4278190080
-0.11879075 -0.092794508 0.014919788 4278190080
-0.051638409 -0.093373097 0.01541059 4278190080
-0.057377536 -0.092709914 0.014579613 4278190080
-0.059602138 -0.080051415 0.015568927 4278190080
-0.062396832 -0.09479966 0.016697116 4278190080
0.013611577 -0.083390847 0.017961493 4278190080
0.05115943 -0.083805837 0.01813083 4278190080
0.032237262 -0.082894266 0.017342625 4278190080
0.043021012 -0.083039008 0.017367233 4278190080
-0.069707759 -0.067930147 0.017486509 4278190080
0.065042347 -0.041232228 0.019020341 4278190080
0.0053100344 -0.11043514 0.018473491 4278190080
0.02162577 -0.084160641 0.018710047 4278190080
-0.067195475 -0.082803704 0.018323744 4278190080
0.064794466 -0.071288012 0.019510349 4278190080
0.027041668 -0.070091315 0.018629823 4278190080
-0.013387745 -0.11087632 0.019087255 4278190080
-0.075219117 -0.083428204 0.018968428 4278190080
-0.053691696 -0.083497636 0.019184755 4278190080
0.029749531 -0.084955767 0.019459838 4278190080
0.040718909 -0.085102648 0.019474966 4278190080
0.046150804 -0.071753763 0.02009416 4278190080
-0.10158274 -0.055437461 0.019634971 4278190080
0.087020181 -0.028588127 0.02141292 4278190080
-0.043106291 -0.098332934 0.020443026 4278190080
-0.03476496 -0.098649137 0.020396329 4278190080
-0.02655248 -0.098786786 0.020390049 4278190080
0.027064288 -0.099587411 0.020658381 4278190080
-0.012843505 -0.085778914 0.020633796 4278190080
0.0031301032 -0.085969321 0.020731449 4278190080
-0.045655113 -0.084973879 0.020676315 4278190080
-0.023592614 -0.08488927 0.019910865 4278190080
-0.0049304608 -0.085174777 0.019968966 4278190080
0.063082024 -0.028963761 0.021987103 4278190080
0.079339385 -0.029175589 0.022051539 4278190080
-0.071854092 -0.072155528 0.021632662 4278190080
-0.0260124 -0.072837532 0.021844439 4278190080
0.0169433 -0.073522225 0.022033796 4278190080
0.054531101 -0.073964573 0.022227542 4278190080
0.057288699 -0.074014455 0.022256218 4278190080
-0.077184573 -0.071447544 0.020922346 4278190080
0.035572205 -0.073045887 0.021431258 4278190080
0.066082105 -0.014451346 0.023355454 4278190080
0.090296604 -0.014056398 0.022769578 4278190080
-0.02079897 -0.10097755 0.022575673 4278190080
-0.018264176 -0.10102728 0.022582339 4278190080
0.0085680699 -0.10066605 0.02197912 4278190080
-0.031396035 -0.087541625 0.022728009 4278190080
-0.0072818757 -0.073905453 0.02260793 4278190080
0.060422748 -0.060594544 0.023140833 4278190080
-0.079362229 -0.044409133 0.02302015 4278190080
0.047035947 -0.046122964 0.023605216 4278190080
0.060885031 -0.031162269 0.023950681 4278190080
0.084713064 -0.031548508 0.024049914 4278190080
0.074344933 -0.015309324 0.024052421 4278190080
0.016872775 -0.1022093 0.023462761 4278190080
-0.039510343 -0.087955184 0.023466587 4278190080
-0.033889193 -0.07482817 0.023938427 4278190080
-0.042347092 -0.07380347 0.023298189 4278190080
0.00093456917 -0.074655704 0.023335995 4278190080
0.009099151 -0.074766777 0.023384133 4278190080
0.025349041 -0.075018853 0.023496177 4278190080
0.041822288 -0.06179877 0.024374848 4278190080
-0.095310107 -0.059149895 0.023064865 4278190080
-0.066087715 -0.059476171 0.023251975 4278190080
0.055187892 -0.046939742 0.02432438 4278190080
0.082507022 -0.016243903 0.024703616 4278190080
-0.037662078 -0.15045835 0.022854837 4278190080
-0.010038199 -0.10251667 0.024036588 4278190080
-0.084710501 -0.074938476 0.024323225 4278190080
-0.028361015 -0.075649142 0.02462692 4278190080
-0.049949944 -0.074345954 0.023999121 4278190080
-0.090045191 -0.060668733 0.024427239 4278190080
0.068664134 -0.062857367 0.025236411 4278190080
-0.10587728 -0.046201941 0.024873562 4278190080
-0.092558794 -0.045635857 0.024271544 4278190080
-0.084395595 -0.045809582 0.024303433 4278190080
0.050199915 -0.033228125 0.025858391 4278190080
0.0087417066 -0.12879516 0.024829695 4278190080
-0.0015797475 -0.10393736 0.02551158 4278190080
-0.028649218 -0.10286753 0.024708323 4278190080
-0.014998028 -0.089923255 0.02488612 4278190080
0.011912352 -0.090285748 0.025013262 4278190080
0.038700573 -0.090642951 0.025137778 4278190080
-0.0011897373 -0.077453554 0.026101336 4278190080
-0.036416665 -0.076160043 0.025347982 4278190080
-0.017515389 -0.07657133 0.025353178 4278190080
-0.0095256241 -0.076692276 0.025367746 4278190080
-0.060433891 -0.062412988 0.026049554 4278190080
-0.073906064 -0.061567783 0.025239637 4278190080
0.031067781 -0.063094787 0.025728211 4278190080
0.052705221 -0.063339584 0.025816867 4278190080
0.082444794 -0.049579728 0.026464244 4278190080
-0.050608542 -0.15196015 0.025167594 4278190080
-0.036581088 -0.10403735 0.026169971 4278190080
-0.019827764 -0.077940248 0.026738741 4278190080
-0.081620492 -0.06300924 0.02653997 4278190080
0.02046621 -0.064396895 0.027021341 4278190080
-0.052255217 -0.062361214 0.026145114 4278190080
-0.046781607 -0.063114084 0.026911234 4278190080
-0.070656911 -0.04879861 0.027085854 4278190080
0.045039423 -0.049759898 0.026928434 4278190080
0.0072215395 -0.079010569 0.027563516 4278190080
0.012757851 -0.065735981 0.028351607 4278190080
0.069941171 -0.0044696885 0.02889351 4278190080
0.050407149 -0.066918619 0.029224237 4278190080
0.062420018 -0.0074437605 0.031378541 4278190080
0.016028836 -0.068694726 0.031114521 4278190080
0.034884747 -0.054015618 0.030931529 4278190080
-0.043577354 -0.068218663 0.031689357 4278190080
-0.046940185 -0.063538887 0.040789522 4278190080
