# .PCD v0.7 - Point Cloud Data file format
VERSION 0.7
FIELDS x y z
SIZE 4 4 4
TYPE F F F
COUNT 1 1 1
WIDTH 1018
HEIGHT 1
VIEWPOINT 0 0 0 1 0 0 0
POINTS 1018
DATA ascii
0.1289541 -0.72486925 0.0026664957
0.097472772 -0.6953035 0.0022797012
0.093632564 -0.67748439 0.0024733888
0.10194743 -0.67746073 0.0024448263
0.059383646 -0.62452257 0.0038601924
0.058595445 -0.61559892 0.006825292
0.016327983 -0.54372972 0.0062021739
0.081124045 -0.65575582 0.0076559167
0.0022937809 -0.529935 0.0070663556
0.10624897 -0.69782817 0.0080217421
0.082605384 -0.66313565 0.0081921024
0.10703747 -0.70533919 0.0096713137
0.075564399 -0.64651883 0.0095395613
0.050197568 -0.60180604 0.0090476312
0.030696178 -0.56934363 0.0098306471
0.025600281 -0.56459403 0.0098283915
0.052441798 -0.60688531 0.010143818
0.078007616 -0.65171486 0.011661709
0.069849454 -0.63739163 0.011698056
0.055077005 -0.61190379 0.011271171
0.036302272 -0.58344924 0.011582909
0.023167709 -0.5588429 0.011610765
-0.00072972273 -0.51987296 0.011891163
-0.0067997836 -0.51635677 0.011331461
0.11589314 -0.72273982 0.012132361
0.10793187 -0.71217608 0.012177985
0.095056266 -0.68319494 0.012707736
0.071633704 -0.64389503 0.012280364
0.045612682 -0.599419 0.012103703
0.04363025 -0.59387106 0.012032323
0.041226201 -0.58840853 0.012189779
0.017829558 -0.55363011 0.012789994
0.0064179241 -0.53584445 0.012743585
-0.0058087348 -0.50088984 0.012381311
0.089507028 -0.67364407 0.01344297
0.082360595 -0.65689605 0.013983995
0.065523893 -0.63545501 0.013800406
0.034263421 -0.57687539 0.013546833
0.10439041 -0.68985748 0.014578496
0.083806403 -0.66424352 0.014590182
0.063990958 -0.62838078 0.014140817
0.03993449 -0.58122438 0.014774329
0.018161511 -0.54381967 0.014420182
0.11502486 -0.71827501 0.015510825
0.096976556 -0.6884045 0.015775735
0.090810575 -0.68033367 0.015164111
0.027131807 -0.56571525 0.015649248
0.10268333 -0.69731438 0.016152369
0.085241027 -0.67086643 0.016021658
0.010272013 -0.5428654 0.016086213
0.11131886 -0.71527189 0.017664792
0.060320776 -0.62513256 0.017621588
0.021695932 -0.55121261 0.017025566
0.11677344 -0.72431481 0.018973099
0.098887511 -0.69439912 0.018454738
0.073170148 -0.64493793 0.018366307
0.049931251 -0.60574818 0.018680234
0.045565899 -0.59405768 0.018960651
0.00054969959 -0.5211215 0.018064041
0.10494888 -0.70254266 0.019606069
0.058709215 -0.61762345 0.019048566
0.052016541 -0.61069894 0.019854754
0.047526181 -0.59955943 0.019083126
0.03062984 -0.573053 0.019186601
-0.0027256641 -0.51299614 0.019622527
-0.013244529 -0.49841067 0.019968916
0.091054134 -0.67460406 0.020081053
0.076700263 -0.657184 0.020913774
0.075580701 -0.65004146 0.020550575
0.054456793 -0.61625224 0.020383129
0.092715696 -0.68118864 0.021786407
0.069234468 -0.64229178 0.021109574
0.067584187 -0.63518918 0.021110535
0.022957509 -0.56210178 0.021459166
0.0025175309 -0.53136677 0.021507433
0.10639717 -0.70851684 0.022667767
0.087173887 -0.67174208 0.022515273
0.041327979 -0.59173262 0.022063171
0.017435849 -0.54824871 0.022173636
0.0062770532 -0.53953254 0.022027066
-0.0082868701 -0.50815654 0.022867803
0.063702784 -0.63257986 0.023906384
0.059993073 -0.62001193 0.023345547
0.039322048 -0.5851962 0.023706747
0.033940695 -0.58034426 0.023121435
-0.017348917 -0.49034828 0.023432706
0.1124299 -0.71673071 0.024299448
0.094817191 -0.68633968 0.02488835
0.082208723 -0.66094935 0.024772717
0.074443065 -0.64592451 0.024475368
0.061955813 -0.62557173 0.024164889
0.032187186 -0.57444328 0.024278713
0.026489781 -0.56979531 0.024053775
0.021241492 -0.55542785 0.024926472
0.10848221 -0.71446121 0.025943795
0.091736525 -0.6768775 0.025400274
0.04951264 -0.60019118 0.02528891
0.010396185 -0.5463025 0.025548033
0.00032759632 -0.52530825 0.025969513
-0.0013173305 -0.51418555 0.025642879
0.083908349 -0.66675782 0.026789187
0.076649964 -0.65164614 0.026034933
0.068720482 -0.63684762 0.026402043
0.055719081 -0.6173842 0.026125388
0.05401678 -0.61119473 0.026174475
0.0037899776 -0.53271073 0.026935322
0.1144074 -0.72265661 0.027789814
0.096378952 -0.69292331 0.027019829
0.077943347 -0.65806293 0.027176354
0.070882313 -0.64253527 0.027765699
0.044714887 -0.59833139 0.027513362
0.1024922 -0.70102876 0.028236127
0.049310815 -0.60931373 0.028354377
0.042923871 -0.59232438 0.028110486
0.035671983 -0.58164912 0.028309865
-0.011876734 -0.49897191 0.028743131
0.10753898 -0.70990849 0.029159283
0.064745285 -0.63417292 0.029093731
0.033336442 -0.57576245 0.029382821
0.098298714 -0.69801992 0.030429892
0.09551055 -0.68847448 0.030420171
0.028309686 -0.56998968 0.030650342
0.022703785 -0.55635291 0.030556263
0.1044445 -0.70610511 0.031847838
0.08476571 -0.66893315 0.031988546
0.057027142 -0.61841071 0.031840928
0.038777564 -0.58935225 0.031941861
0.10957482 -0.71579891 0.032502495
0.10233134 -0.69504511 0.03270562
0.060879845 -0.6307776 0.032426093
0.052501213 -0.61765987 0.03243487
0.014987416 -0.55530125 0.032327767
0.0087506678 -0.53793687 0.032787256
0.0055391155 -0.53397995 0.032428406
0.092140406 -0.68482095 0.033308838
0.086242586 -0.67608535 0.033035442
0.079406478 -0.65881836 0.033443719
0.037218191 -0.58282763 0.033498432
0.01246774 -0.54583609 0.033659276
0.00015783304 -0.51446819 0.033563044
0.098219626 -0.69281322 0.034337506
0.072913811 -0.64259052 0.034396678
0.060175043 -0.62252724 0.034008376
-0.0083811963 -0.51092196 0.034035381
0.10433549 -0.70082539 0.035669848
0.081586093 -0.66457516 0.035544131
0.051473625 -0.60896891 0.03528934
0.049862508 -0.60291541 0.035495412
0.047111224 -0.59750241 0.035093535
0.024666587 -0.56666756 0.035461102
0.011876319 -0.53656793 0.035444271
0.0025826844 -0.52439344 0.03568669
0.11152022 -0.72087169 0.036598567
0.076273583 -0.65522879 0.036498245
0.067002378 -0.63357872 0.036259852
0.0068697389 -0.53598875 0.036150981
-0.0056038853 -0.50974059 0.036748972
0.097908385 -0.68830246 0.037689842
0.092080168 -0.67961162 0.037291262
0.069028988 -0.63986689 0.037034307
0.0032183374 -0.52730846 0.03746758
-0.016904792 -0.49251884 0.03797641
0.1058763 -0.7066161 0.038825199
0.063173451 -0.63089031 0.038951766
0.043188356 -0.59499258 0.038008582
0.033362798 -0.57863379 0.038820293
0.022463355 -0.55998832 0.038594872
0.01939421 -0.55164951 0.038074274
0.011030262 -0.54284179 0.038709588
0.09427844 -0.68457532 0.040457744
0.088712059 -0.67518467 0.040750034
0.073147893 -0.65097576 0.040218886
0.055123556 -0.61587244 0.040853824
0.039038643 -0.59253371 0.040972359
0.012150087 -0.55002373 0.040555999
-0.0022395428 -0.52227211 0.040164508
-0.011961583 -0.50147492 0.040607881
-0.025124863 -0.45805395 0.040400762
0.11414192 -0.72511494 0.04130033
0.083341777 -0.665142 0.041865688
0.036737863 -0.58670163 0.04163897
0.029478593 -0.57623011 0.041848902
-0.013982842 -0.4912706 0.041759327
-0.096761204 -0.45199066 0.041661706
0.10843363 -0.71160322 0.042704828
0.077346072 -0.65654063 0.042051174
0.071452878 -0.64812165 0.042676285
0.070208222 -0.64120597 0.042293556
0.059173577 -0.6274212 0.042163741
0.062110897 -0.62674344 0.042827897
0.057768762 -0.62066048 0.042469949
0.046876423 -0.60183412 0.042986266
0.026897702 -0.575661 0.042617928
-0.07818573 -0.48160976 0.042660523
-0.092668205 -0.45471925 0.042940587
-0.093574621 -0.45195737 0.042692367
-0.097627796 -0.44902554 0.04243182
-0.090420045 -0.44033763 0.042954706
0.10171171 -0.69973791 0.043574452
0.08490885 -0.672221 0.043016072
0.048995927 -0.60720438 0.043592587
0.044536933 -0.5958811 0.043327462
0.024202118 -0.57057995 0.043023441
0.015269742 -0.54846317 0.043054052
-0.081974603 -0.47826859 0.043729194
-0.027868515 -0.47231027 0.043123491
-0.082235619 -0.46935779 0.043542475
-0.091150641 -0.4662492 0.043881074
-0.088394389 -0.46624932 0.043807391
-0.083479911 -0.46630427 0.043880664
-0.08952079 -0.46341571 0.043333907
-0.081850804 -0.46347031 0.043333091
-0.076192126 -0.46348232 0.043283425
-0.090923175 -0.46044445 0.043806385
-0.085144863 -0.46040884 0.043758593
-0.082704611 -0.46044284 0.043816209
-0.077345051 -0.46048656 0.043862633
-0.066557132 -0.46045062 0.043833811
-0.094285309 -0.45756561 0.043314572
-0.089305423 -0.45760626 0.043375582
-0.083527744 -0.45757052 0.043328602
-0.071364775 -0.45465538 0.04396449
-0.088597916 -0.45180777 0.043695718
-0.080328695 -0.45175105 0.043631982
-0.075415522 -0.45180291 0.043698464
-0.089478798 -0.4489013 0.0433577
-0.084499806 -0.44894072 0.043419003
-0.076281376 -0.44893807 0.043428052
-0.07092572 -0.44898269 0.043470163
-0.093616851 -0.44605598 0.043186743
-0.079884619 -0.4460521 0.043239169
-0.10213678 -0.44320711 0.043094769
-0.09698388 -0.44319084 0.043062773
-0.09446688 -0.44321242 0.043079257
-0.088810198 -0.44328001 0.043078572
-0.097914383 -0.44030735 0.043984629
-0.063426904 -0.44033998 0.043951552
-0.093868062 -0.43742329 0.04394139
-0.091353267 -0.43744349 0.043957222
-0.085702732 -0.43750942 0.043955725
-0.083159931 -0.43742576 0.043889958
-0.078182131 -0.43746367 0.043951627
-0.08732143 -0.43457907 0.043947019
-0.079099007 -0.43462917 0.04399268
-0.0735965 -0.43457493 0.043998286
-0.068383649 -0.4346081 0.043986369
-0.043350779 -0.4086628 0.043816578
0.11442831 -0.71964478 0.044714663
0.088869885 -0.67861122 0.044939246
0.079629034 -0.66218907 0.044204313
-0.0054909443 -0.5953387 0.044233117
0.039743468 -0.59525585 0.04404287
0.032677513 -0.58418941 0.044558182
-0.086092092 -0.48110089 0.044531327
-0.072767012 -0.48104385 0.04452901
-0.067437485 -0.48107052 0.044548362
-0.082729146 -0.47498447 0.044843558
-0.077686109 -0.47494337 0.044858471
-0.069403954 -0.47492725 0.044843305
-0.058752712 -0.47497126 0.044849522
-0.091673732 -0.47210503 0.04409644
-0.086754709 -0.472161 0.044171777
-0.078623161 -0.47215351 0.044163026
-0.087579317 -0.46910629 0.044470865
-0.079446018 -0.46913838 0.044435177
-0.07440529 -0.46909732 0.04445098
-0.06885127 -0.46912667 0.044524748
-0.075333737 -0.46610454 0.044852614
-0.069794282 -0.46609831 0.044866763
-0.067215443 -0.46611089 0.044901762
-0.064484164 -0.46606487 0.0448143
-0.056642741 -0.46613795 0.044899501
-0.073712759 -0.46328607 0.044307504
-0.0695391 -0.46026987 0.044782192
-0.063983783 -0.46029958 0.044855908
-0.032057341 -0.46027482 0.044775516
-0.072971433 -0.45748752 0.044336863
-0.062375255 -0.45747614 0.044426911
-0.084694274 -0.45458981 0.044015191
-0.079493426 -0.454624 0.044001911
-0.074135683 -0.45466807 0.044046164
-0.066346578 -0.45448101 0.044972155
-0.058063254 -0.4544645 0.044961661
-0.05272742 -0.45449385 0.044972766
-0.067308664 -0.45168099 0.044679679
-0.059193242 -0.4516862 0.04473133
-0.054046351 -0.45164406 0.044662405
-0.048621189 -0.45171329 0.044724692
-0.068196125 -0.44886595 0.044383917
-0.063153207 -0.44882521 0.044401322
-0.08544042 -0.44602042 0.04422956
-0.072258323 -0.4460156 0.044232674
-0.064118162 -0.44601306 0.0442206
-0.058587834 -0.44600579 0.044237539
-0.077171318 -0.44596499 0.044168733
-0.08633294 -0.44312027 0.044007324
-0.081354663 -0.44315892 0.044068806
-0.067782372 -0.44320059 0.044117473
-0.082328252 -0.44027379 0.044993803
-0.076823726 -0.44021845 0.044998843
-0.069146462 -0.44026899 0.04499729
-0.061004743 -0.44026744 0.044984367
-0.072484203 -0.43738559 0.04490656
-0.064686261 -0.43746269 0.044994157
-0.05687264 -0.43740773 0.044935651
-0.066000558 -0.43459731 0.044992726
-0.060348187 -0.43461111 0.044943143
-0.052333087 -0.43458897 0.044997562
-0.047023367 -0.43455398 0.044955932
-0.04459409 -0.43455955 0.04496561
-0.082554795 -0.43180197 0.044064179
-0.075026631 -0.43175876 0.044061415
-0.06925524 -0.43172279 0.04402161
-0.066808261 -0.43175462 0.04406948
-0.078433514 -0.42886806 0.044139463
-0.070454374 -0.42886761 0.044220835
-0.062773518 -0.4289161 0.044218928
-0.066122033 -0.42601517 0.044359803
-0.058325615 -0.4260923 0.044439442
-0.062115353 -0.42319369 0.044658989
-0.059652291 -0.42320859 0.044668008
-0.054002631 -0.42322308 0.044618309
-0.063013576 -0.42031184 0.044924431
-0.049954835 -0.42035922 0.044961449
-0.050776027 -0.41745922 0.044304486
-0.051996585 -0.41461676 0.044799931
-0.046731994 -0.41458726 0.044761863
-0.038623188 -0.41458973 0.044818889
-0.047546808 -0.41164926 0.044225574
-0.035400797 -0.40877482 0.044855755
0.059130263 -0.71806514 0.045676276
0.10958087 -0.7180931 0.045685291
0.074079938 -0.6529476 0.045054954
0.06641636 -0.63766152 0.045437507
0.056292363 -0.61729115 0.045806583
0.016721893 -0.5600177 0.045087855
0.024729544 -0.55998361 0.045022156
-0.036896992 -0.52717525 0.045619596
-0.052509233 -0.51620346 0.045793269
-0.052382533 -0.50636822 0.04505128
-0.04992919 -0.50596458 0.045979638
-0.058659989 -0.50280511 0.045542408
-0.045023527 -0.50278032 0.045500934
-0.039741587 -0.50286216 0.045583528
-0.065756246 -0.49620339 0.045844425
-0.059862852 -0.4962582 0.045916352
-0.04942565 -0.49629697 0.04591861
-0.0413872 -0.49617878 0.045813102
-0.066592552 -0.49310902 0.045659795
-0.06104197 -0.49313417 0.045701914
-0.055929702 -0.49311429 0.04568284
-0.072507329 -0.49003169 0.045520268
-0.062282283 -0.48999801 0.045504559
-0.063138857 -0.48692384 0.045454275
-0.052476089 -0.4869293 0.045477942
-0.033616815 -0.48691681 0.045482181
-0.071987964 -0.48384225 0.045447186
-0.058857314 -0.48383313 0.04543281
-0.04813242 -0.48382992 0.045442916
-0.059736401 -0.48078364 0.04551468
-0.04907373 -0.48078927 0.045538969
-0.043518789 -0.48079625 0.045501664
-0.08712776 -0.47779235 0.045707084
-0.073762387 -0.47777042 0.045709033
-0.068614937 -0.47772753 0.045639127
-0.06318894 -0.47779733 0.045710277
-0.055485871 -0.47771764 0.045624658
-0.049590394 -0.47776744 0.045697436
-0.044761874 -0.47771382 0.045635015
-0.064036235 -0.47471687 0.045831569
-0.056389645 -0.47469723 0.045836233
-0.050844394 -0.47472236 0.045878693
-0.045727085 -0.47470307 0.04586114
-0.040172473 -0.47470951 0.045823075
-0.026870156 -0.47468898 0.045864932
-0.073055111 -0.47192445 0.045151047
-0.065328054 -0.47189397 0.045115322
-0.060768794 -0.46890089 0.045430794
-0.055447791 -0.4689177 0.045419544
-0.047579028 -0.46890667 0.045478553
-0.06205792 -0.46587446 0.045812655
-0.051494483 -0.46588072 0.04581593
-0.043035056 -0.46590954 0.045871321
-0.038209774 -0.46585801 0.045808841
-0.032597683 -0.46595526 0.045865804
-0.060448658 -0.4630709 0.045271561
-0.055021647 -0.46314082 0.045338485
-0.049882114 -0.46307716 0.045274358
-0.044338353 -0.46310234 0.045316931
-0.055925231 -0.46011886 0.045769755
-0.045719821 -0.46008104 0.045757897
-0.039825123 -0.46012622 0.045831621
-0.059661504 -0.45728153 0.045331124
-0.049005091 -0.45732766 0.045332566
-0.044120196 -0.45727244 0.045331616
-0.036015425 -0.45729813 0.045375668
-0.030464048 -0.45730308 0.045335565
-0.063372366 -0.45449838 0.045009725
-0.045100547 -0.45434174 0.045969043
-0.034438219 -0.45434818 0.045996442
-0.045841139 -0.45156831 0.045641053
-0.040955856 -0.45151255 0.045640599
-0.030236678 -0.4515062 0.045651421
-0.054911841 -0.44870546 0.045385987
-0.049575295 -0.4487353 0.045395352
-0.056052819 -0.44592977 0.045267999
-0.07319396 -0.44308302 0.045073189
-0.060026649 -0.44307312 0.045052599
-0.051746171 -0.44305634 0.045044731
-0.055477511 -0.44025987 0.045002136
-0.04780791 -0.44017276 0.045965865
-0.051316254 -0.43743742 0.045007151
-0.043330472 -0.43737936 0.045931365
-0.0010029681 -0.43742546 0.045997657
-0.061549675 -0.43178812 0.045100953
-0.056290574 -0.43175873 0.045060907
-0.053735528 -0.43173274 0.045044471
-0.048178904 -0.4317624 0.045115445
-0.07605464 -0.42892429 0.045209665
-0.057222366 -0.42893371 0.045164295
-0.049207523 -0.42891192 0.045218728
-0.043897592 -0.42887667 0.045178894
-0.041465264 -0.42888266 0.045187257
-0.030894654 -0.42889082 0.045187216
-0.072000496 -0.42606989 0.045391988
-0.053172898 -0.42608142 0.045394026
-0.050619163 -0.42605507 0.045378916
-0.045062318 -0.4260847 0.04544938
-0.037004121 -0.42606977 0.045377601
-0.031682823 -0.42608693 0.04536815
-0.067451842 -0.423195 0.045662656
-0.046104643 -0.42323563 0.045665368
-0.040794488 -0.42320019 0.045627318
-0.032937463 -0.42327377 0.045685329
-0.027787743 -0.42321503 0.045633841
-0.05521759 -0.42038867 0.045000166
-0.041845117 -0.42036209 0.045017637
-0.036815744 -0.42037091 0.045942355
-0.033913139 -0.42039669 0.045936942
-0.028591672 -0.42041388 0.045927629
-0.023703603 -0.42035511 0.045930013
-0.059019223 -0.41749462 0.045334794
-0.045858435 -0.41748425 0.045313716
-0.042894777 -0.41750261 0.045347985
-0.037584376 -0.41746685 0.045311712
-0.029725153 -0.41754061 0.045366164
-0.055021457 -0.414664 0.045765407
-0.033609055 -0.41462925 0.045739904
-0.025387377 -0.41467232 0.045724917
-0.020498708 -0.41461301 0.045727856
-0.014646195 -0.41464257 0.045798626
-0.042644221 -0.41170493 0.045230549
-0.034371585 -0.41168734 0.04522986
-0.038155347 -0.40887371 0.045801636
-0.030401733 -0.40884495 0.045771919
-0.024981728 -0.40891138 0.0458172
-0.01729315 -0.40882832 0.045760155
-0.039431576 -0.40588665 0.04538361
-0.031160388 -0.40586895 0.045384239
-0.034780625 -0.40291375 0.045095243
-0.02702382 -0.40288505 0.045066055
-0.022613687 -0.40005299 0.045772392
0.11134747 -0.72929049 0.046088915
0.054274343 -0.7165274 0.046665438
0.10338376 -0.70539635 0.04674704
0.097938746 -0.69590461 0.046179287
0.052425485 -0.61052936 0.046289731
0.047895733 -0.60454899 0.04633826
0.0082747079 -0.59860718 0.04654564
0.035756357 -0.5875594 0.046821769
0.027791321 -0.56821829 0.046089154
0.0091319913 -0.55886048 0.046756532
-0.029213179 -0.54629153 0.046136584
0.010932814 -0.54636735 0.046332855
-0.026573721 -0.54572564 0.046922494
-0.0023590049 -0.54567152 0.046880607
-0.037959512 -0.5382787 0.04615983
-0.024562886 -0.53777665 0.046974566
-0.033127315 -0.53407848 0.046753325
-0.020051681 -0.53402621 0.046668876
-0.033610348 -0.5303812 0.046564035
-0.029015087 -0.52671766 0.046494987
-0.044605039 -0.51588482 0.04680685
-0.038831227 -0.51584387 0.046741083
-0.050405655 -0.51221257 0.046957679
-0.012924806 -0.51226366 0.046990618
-0.056632534 -0.50918686 0.046511803
-0.035072636 -0.50912595 0.046453156
-0.016786166 -0.50913203 0.046505895
-0.054840531 -0.50604159 0.046025332
-0.035665527 -0.50560391 0.046896838
-0.022436887 -0.5055989 0.046909995
-0.0092066573 -0.50559133 0.046865441
-0.05036369 -0.50248039 0.046475224
-0.037163083 -0.50251561 0.046540279
-0.031381521 -0.50247455 0.046474174
-0.064540476 -0.49935529 0.046177562
-0.046268072 -0.49933702 0.046146918
-0.040568423 -0.49932429 0.046162669
-0.032125112 -0.4993549 0.046146665
-0.052021857 -0.49589065 0.046787083
-0.046746168 -0.49590507 0.046798334
-0.03354878 -0.49594164 0.046863642
-0.027763294 -0.49590057 0.046797384
-0.053199288 -0.49276954 0.04659228
-0.047594458 -0.49286515 0.046656013
-0.042682465 -0.49279198 0.046613403
-0.036981396 -0.49277821 0.046629135
-0.028538598 -0.49280813 0.046612564
-0.02336874 -0.49281192 0.046590105
-0.06710843 -0.48973778 0.0464557
-0.056308944 -0.48974094 0.046524119
-0.048561681 -0.48971435 0.046458106
-0.043286301 -0.48972791 0.046469104
-0.037828915 -0.48966485 0.046421375
-0.030092079 -0.48976594 0.046534687
-0.024302807 -0.48972476 0.046468273
-0.019255087 -0.48972744 0.046475627
-0.068197958 -0.48669237 0.046475939
-0.057519101 -0.48665309 0.046449099
-0.044160727 -0.48670718 0.046460226
-0.039248496 -0.48663577 0.046419069
-0.063695826 -0.48360261 0.04639354
-0.052900273 -0.48360312 0.046462864
-0.034416113 -0.48353016 0.046360578
-0.029138895 -0.48360816 0.046440687
-0.054135472 -0.48054177 0.046519212
-0.035865892 -0.48052487 0.046489473
-0.030161746 -0.48050904 0.046505179
-0.025000421 -0.4805817 0.046540439
-0.031056924 -0.47744524 0.046562187
-0.025781229 -0.47752199 0.046641521
-0.032539099 -0.47446805 0.046819862
-0.059873488 -0.47174078 0.046159219
-0.052172344 -0.47166035 0.046075165
-0.046276201 -0.47170845 0.046148222
-0.041449238 -0.47165591 0.046085775
-0.035838787 -0.47175273 0.046144214
-0.042440478 -0.46867934 0.046439372
-0.036886152 -0.46868527 0.046400573
-0.031611998 -0.4686957 0.046410564
-0.036597721 -0.46287513 0.046251245
-0.030985277 -0.46297231 0.046307314
-0.04115174 -0.45716819 0.046380091
-0.039561883 -0.45436653 0.046011698
-0.041962404 -0.44861367 0.046394568
-0.036427151 -0.4486382 0.046437278
-0.031299289 -0.44862014 0.046422746
-0.02575383 -0.44862467 0.046382215
-0.018152522 -0.44862294 0.046408318
-0.050953519 -0.44580004 0.046194475
-0.045528729 -0.44586858 0.046254456
-0.046466596 -0.44301394 0.046048079
-0.0050274921 -0.4402152 0.046001244
-0.038083702 -0.43735421 0.046917938
-0.03021696 -0.43734306 0.046975609
-0.039254032 -0.43460035 0.046017237
-0.034190267 -0.43451321 0.046958424
-0.02092859 -0.4344829 0.0469556
-0.040211149 -0.43173525 0.046039231
-0.034889854 -0.43175241 0.046029642
-0.030002896 -0.43169472 0.046030957
-0.03614277 -0.42895359 0.04623545
-0.025471184 -0.42891774 0.046225168
-0.01773677 -0.42886257 0.046180226
-0.026903586 -0.42604744 0.046363946
-0.021040754 -0.42608079 0.046435419
-0.013250915 -0.42608079 0.04636595
-0.022384532 -0.42327213 0.046669479
-0.017238218 -0.42325512 0.04665811
-0.014650526 -0.42321604 0.046625301
-0.0090413839 -0.423309 0.04666619
-0.017971018 -0.42043588 0.046992049
-0.010176784 -0.42043814 0.046922617
-0.024707282 -0.41754693 0.046305407
-0.019190773 -0.41756979 0.046348542
-0.014040465 -0.41755292 0.046337865
-0.0099300155 -0.4146831 0.04672543
-0.029181171 -0.41181529 0.046212561
-0.021507241 -0.41179863 0.046216916
-0.015994173 -0.41182116 0.046260156
-0.025985681 -0.40602762 0.046359327
-0.02066393 -0.4060449 0.046350248
-0.021778626 -0.40309137 0.046083733
-0.016624033 -0.40303504 0.04603827
0.071262017 -0.73890084 0.047593381
0.079524718 -0.73889828 0.047615722
0.017002484 -0.6355713 0.047328666
0.0093190474 -0.61585331 0.047065061
0.0048964 -0.60917741 0.047617704
0.023613438 -0.60924745 0.047684964
0.031649932 -0.60918707 0.0476113
0.0015017453 -0.58695096 0.047618188
-0.00081181835 -0.57214093 0.047377434
-0.0088548902 -0.56702375 0.047673583
-0.027831292 -0.5624488 0.047257788
0.0044245236 -0.56267995 0.047612756
-0.039440371 -0.54525715 0.047831401
-0.033898134 -0.54525411 0.047811218
-0.029198535 -0.54149604 0.047323644
-0.010616251 -0.54129303 0.04715566
-0.016213285 -0.53712606 0.047667693
0.0076539204 -0.53726202 0.047873199
-0.039606195 -0.52625501 0.047339734
-0.048421677 -0.52265805 0.047409762
-0.034538332 -0.52262008 0.047375992
-0.026827941 -0.52262235 0.047380336
-0.035596825 -0.51901072 0.047455702
-0.022366239 -0.51901346 0.047498286
-0.049635205 -0.51539558 0.047663476
-0.036027338 -0.51542908 0.047629654
-0.030571423 -0.51542574 0.047668606
-0.017322432 -0.51542461 0.047652036
-0.0040494795 -0.51526755 0.047481991
-0.04512145 -0.51229608 0.047041483
-0.039381087 -0.51227772 0.047022201
-0.026152674 -0.51227242 0.047034837
-0.031679213 -0.51186937 0.047920834
-0.059200447 -0.50872308 0.047352467
-0.045894191 -0.50870395 0.047391083
-0.040720433 -0.50877291 0.047428977
-0.026829313 -0.50873464 0.047395896
-0.027981251 -0.50522399 0.047809057
-0.014751029 -0.50522673 0.04785379
-0.061082903 -0.5020898 0.047421698
-0.055526387 -0.50209868 0.047387235
-0.028610162 -0.50211287 0.047389627
-0.023154879 -0.50211066 0.047430992
-0.017988322 -0.50210911 0.047422618
-0.0099092787 -0.50210762 0.047414187
-0.037757698 -0.49902162 0.047096573
-0.056678228 -0.49896419 0.047055632
-0.019553509 -0.49556446 0.04776717
-0.014385927 -0.49556333 0.047759283
-0.034186646 -0.49250346 0.047574729
-0.025032638 -0.48635438 0.047370259
-0.019860663 -0.48635882 0.047346886
-0.0398129 -0.48331016 0.047364399
-0.03906209 -0.47730541 0.047628034
-0.036472704 -0.47725266 0.047573596
-0.026259383 -0.45414537 0.047997564
-0.035133317 -0.45131814 0.047698673
-0.041202869 -0.44295833 0.04703382
-0.0093575483 -0.44291136 0.047078576
-0.042449817 -0.44018322 0.047019728
-0.037370689 -0.44006509 0.047959119
-0.034821566 -0.44004354 0.047944654
-0.024105139 -0.44003618 0.047955461
-0.025155479 -0.43728319 0.047958799
-0.0063116029 -0.43726465 0.047958899
-0.025773026 -0.43452701 0.047016811
-0.015401244 -0.43454984 0.047996931
-0.0020655149 -0.43452013 0.047989611
-0.021974584 -0.43171209 0.047070403
-0.01644098 -0.43171588 0.047029037
-0.011176052 -0.43172103 0.047036763
-0.0057051275 -0.43167484 0.047004793
-0.0031330122 -0.43169311 0.047069974
-0.0072836829 -0.42890695 0.047191404
-0.0080945268 -0.42610398 0.047367241
-0.0026236435 -0.42605951 0.047336925
0.081747875 -0.72451866 0.048844226
0.11631431 -0.72459245 0.048945092
0.10892723 -0.71421349 0.048163474
0.041002981 -0.67336673 0.04882849
0.0862379 -0.6733458 0.048763186
0.077374414 -0.66555285 0.048137743
0.035227463 -0.664823 0.048694976
0.085412055 -0.66485107 0.048727281
0.029057905 -0.65706885 0.048282273
0.078979231 -0.65701735 0.048215397
0.027740126 -0.64940703 0.048189778
0.049346697 -0.64866781 0.0487624
0.05741103 -0.6486308 0.048723236
0.056099176 -0.62732345 0.048506133
0.051743627 -0.62057084 0.048722606
0.050446529 -0.60853142 0.048334092
0.011390651 -0.60254592 0.048367925
0.024784077 -0.6025905 0.04840735
0.038917504 -0.59145272 0.048383802
-0.0038210377 -0.58631194 0.048427481
0.0019725019 -0.58117932 0.048417985
0.031353153 -0.5804708 0.048991002
-0.0055943313 -0.57096112 0.048886497
0.020753359 -0.56653368 0.048467651
0.020193223 -0.55777448 0.04823282
0.0042252014 -0.55338907 0.048352938
0.017397305 -0.5534339 0.048365925
-0.019892244 -0.55256975 0.048795536
-0.017520197 -0.54826623 0.048969693
-0.0204271 -0.54456919 0.048458617
-0.0081215538 -0.53656995 0.048486922
-0.00045593904 -0.53658974 0.04849137
-0.043513898 -0.53310287 0.048435282
-0.03028314 -0.53310561 0.048475701
-0.022101911 -0.5330953 0.048414748
-0.049030431 -0.52944219 0.048280399
-0.04387144 -0.52944195 0.048263058
-0.017627751 -0.52938962 0.048218887
-0.011895645 -0.52927917 0.048109226
-0.0038213558 -0.52874881 0.048946355
0.0038419731 -0.52876699 0.04894818
-0.031221855 -0.52579099 0.048222695
-0.02620469 -0.52579725 0.048252281
-0.012382382 -0.52522701 0.048999187
-0.053438336 -0.52214313 0.048249919
-0.044992834 -0.52217603 0.048235971
-0.039831772 -0.52217656 0.048217643
-0.0078549655 -0.52201456 0.048067
-0.048748907 -0.51859635 0.048365448
-0.027225001 -0.51857334 0.048356462
-0.0085583376 -0.51846951 0.04826206
-0.0034521928 -0.51840347 0.048180949
-0.022715943 -0.51500577 0.048568189
-0.055184741 -0.51498467 0.048542801
-0.023320151 -0.51145923 0.048838321
-0.01011779 -0.51145464 0.048802029
-0.032154892 -0.50834346 0.048265584
-0.018991333 -0.5083406 0.048310231
-0.013452168 -0.50833863 0.048289094
-0.015334596 -0.5017429 0.048358995
-0.024353741 -0.49865133 0.048001219
-0.018686727 -0.49864501 0.048020136
-0.020766055 -0.48302686 0.048321217
-0.037931129 -0.44561049 0.04817044
-0.03205011 -0.44565058 0.048243184
-0.027213315 -0.44560367 0.048181251
-0.013539563 -0.44559884 0.048146106
-0.033393476 -0.44287437 0.048087444
-0.028261457 -0.44285664 0.048073627
-0.028945791 -0.44008169 0.048017029
-0.010497097 -0.43997589 0.048917454
-0.010545881 -0.43446827 0.048964854
-0.0043268832 -0.42332608 0.048625931
-0.0051621515 -0.42054039 0.048911482
0.097192265 -0.73497075 0.049955301
0.090243809 -0.72374052 0.049356524
0.057597928 -0.70078081 0.049839959
0.094871603 -0.7007761 0.049818058
0.092543349 -0.68121308 0.049764819
0.084433541 -0.67186201 0.049944747
0.049130391 -0.6633153 0.049828313
0.080879897 -0.66335267 0.049830928
0.036447339 -0.64795434 0.049381372
0.0661254 -0.6472109 0.049919408
0.067565084 -0.64031464 0.04949034
0.036496211 -0.63347095 0.049251821
0.012872469 -0.63279909 0.049916763
0.021052146 -0.63272786 0.049826447
0.061058059 -0.63277292 0.049893752
0.019256383 -0.62666118 0.049213085
0.044032507 -0.61988878 0.049386147
0.0078793941 -0.61380619 0.049055401
0.043253686 -0.60718513 0.049644731
-0.0015850519 -0.60131413 0.049834508
0.019738097 -0.60123771 0.049768016
0.033024613 -0.60192508 0.049101565
0.043619763 -0.6012249 0.049739558
0.012053512 -0.59599286 0.049332563
-0.0085991723 -0.59020311 0.049984228
0.0045748679 -0.59022421 0.049855765
0.012648779 -0.59016967 0.049808588
0.017866142 -0.59077954 0.049059123
0.031724341 -0.5850051 0.049693663
0.039163709 -0.58566946 0.049011882
-0.0028723909 -0.57990927 0.049921423
-0.019006792 -0.57525003 0.049064469
0.023523999 -0.57536745 0.049159043
-0.031988166 -0.5651347 0.049777262
-0.005763601 -0.56590718 0.04929037
-0.00038776529 -0.56154591 0.049164854
-0.021631423 -0.56069028 0.049582779
-0.0056566442 -0.56088889 0.049824052
-0.00087165891 -0.55714053 0.049046427
0.0075732702 -0.55660945 0.049915407
-0.035392836 -0.55221212 0.049772076
-0.016808681 -0.55200934 0.04960103
0.014687259 -0.55287105 0.04920315
-0.0093095228 -0.54770553 0.049769495
-0.004650048 -0.54400909 0.049265899
0.0036534572 -0.54418272 0.049492948
-0.044625897 -0.54048717 0.049044922
-0.012871653 -0.53977007 0.049661584
-0.039728224 -0.53628683 0.049541041
-0.026508342 -0.53627378 0.049498193
-0.013404186 -0.53611523 0.049360141
-0.048392154 -0.5326128 0.049279064
-0.0087312991 -0.5324086 0.049093146
-0.00054364098 -0.53189933 0.049928535
-0.022401774 -0.52895099 0.049110889
-0.0091200816 -0.52831888 0.049837191
-0.00091919856 -0.5282352 0.049768534
-0.044326879 -0.52533031 0.049072325
-0.022962319 -0.52533352 0.049087498
-0.017848613 -0.52532649 0.049060907
-0.00449917 -0.52466428 0.049759809
-0.031602334 -0.52172285 0.049127214
-0.018377582 -0.52171236 0.049083523
-0.013427507 -0.52167791 0.049053457
-0.013867972 -0.51813483 0.049209267
-0.0094952099 -0.5145371 0.049376998
-0.022777272 -0.44278821 0.049028508
0.10941892 -0.72222662 0.050398778
0.061998151 -0.72140026 0.050826397
0.10484718 -0.71107244 0.050144561
0.08689303 -0.71030051 0.05062563
0.082463861 -0.68906975 0.050963789
0.092830926 -0.689794 0.050397165
0.06093077 -0.68898892 0.050858989
0.075551875 -0.65407407 0.050545279
0.045247287 -0.646487 0.050523955
0.038942792 -0.63886601 0.050670415
0.060010776 -0.63889402 0.050705846
0.053293053 -0.63203239 0.050440267
0.020398976 -0.61923748 0.05007511
0.028898403 -0.61847776 0.050640933
-0.0064140237 -0.60066605 0.050579876
-0.00062283233 -0.59478962 0.050838854
-0.016137086 -0.58436865 0.050510716
0.0051587662 -0.58444417 0.050496742
0.013357121 -0.5843823 0.050440203
0.026517116 -0.58434331 0.050398033
-0.015896397 -0.57920343 0.050496854
0.0054514497 -0.57932729 0.050585102
0.018647719 -0.57926172 0.050487466
0.029356245 -0.57922667 0.05045452
-0.010499979 -0.5741756 0.050769158
0.0055848258 -0.57425541 0.05084005
0.018997902 -0.57419002 0.050700605
0.026949909 -0.57415974 0.050658666
0.015782215 -0.56539899 0.050047021
-0.010449716 -0.56464225 0.050684817
-0.018658904 -0.56008929 0.050328381
-0.026872914 -0.55583316 0.050353907
-0.013839402 -0.55576235 0.05031395
-0.0055876067 -0.55592078 0.050483175
-0.030204667 -0.55162871 0.050549764
-0.022059903 -0.55150694 0.050435949
0.0075095831 -0.55174649 0.050785962
-0.00084271037 -0.54732674 0.05075188
0.0072612856 -0.5474667 0.050962236
-0.036336042 -0.54368418 0.050323088
-0.022689233 -0.54357421 0.050197437
-0.017584903 -0.54350907 0.050113436
-0.0093804253 -0.54342926 0.050044768
-0.030965807 -0.53946686 0.050699234
-0.0046721697 -0.53923482 0.05047961
0.0035732044 -0.53938991 0.050643653
-0.018314177 -0.53568202 0.050287895
-0.0048120888 -0.53503639 0.050980873
0.00285929 -0.53568506 0.050270129
-0.026839077 -0.53213096 0.050147463
-0.035445366 -0.52848935 0.050016679
-0.0043789092 -0.51054025 0.050549522
-0.018691791 -0.43995783 0.050991215
-0.019841412 -0.4371604 0.050906684
0.090592831 -0.73178202 0.051818285
0.079363316 -0.70951754 0.05112087
0.10305423 -0.70952302 0.051142685
0.095915914 -0.70873731 0.051642694
0.053145021 -0.69841057 0.051267494
0.098597214 -0.69848037 0.051404275
0.053826626 -0.68823999 0.051373374
0.091511391 -0.68752676 0.051989499
0.048340309 -0.6789192 0.051351212
0.056548268 -0.67887938 0.051320456
0.064399987 -0.67809755 0.051813893
0.077309206 -0.67895007 0.051397175
0.050689738 -0.67037493 0.051065069
0.045095842 -0.66115463 0.051622961
0.067704223 -0.6533761 0.05117856
0.060449529 -0.65269601 0.051835746
0.040235806 -0.64510942 0.051821005
0.054027606 -0.64507395 0.051799085
0.069552377 -0.64571285 0.051088072
0.03098681 -0.6382097 0.051371008
0.047133818 -0.63821292 0.051375084
0.063337848 -0.63742471 0.0518969
0.064173363 -0.63134569 0.051102359
0.040706925 -0.6306389 0.051750161
0.014730027 -0.62461108 0.051165402
0.022767188 -0.6245507 0.051087417
0.030538207 -0.6245333 0.051077098
0.038587533 -0.62458742 0.051154509
0.055060823 -0.62389523 0.051795512
0.047878161 -0.61782026 0.051337987
0.037621591 -0.61179107 0.05105222
0.045677163 -0.61184812 0.051129725
0.0013516368 -0.60586554 0.051050384
0.014511733 -0.60582644 0.051007167
0.0018955291 -0.59997338 0.051197924
0.023575613 -0.5992862 0.051851228
0.028418304 -0.59999073 0.051203463
0.03645435 -0.59993142 0.051132306
-0.013207773 -0.58892208 0.051393591
0.0080316411 -0.58892626 0.051270131
0.02155219 -0.58884555 0.051200461
0.021865066 -0.58309776 0.051854629
0.034977738 -0.58376408 0.051161453
0.022016261 -0.56856459 0.051813617
0.018850422 -0.56422216 0.051576868
-0.031729769 -0.55965871 0.051267713
-0.010556512 -0.55966175 0.051259093
0.010572834 -0.5598616 0.051563237
-0.011066648 -0.55523854 0.051134817
-0.026937906 -0.55102426 0.051326539
0.0022080003 -0.55115974 0.051518988
0.01042166 -0.55118889 0.05159314
-0.013627799 -0.55088168 0.051173069
0.006664705 -0.54318511 0.051213335
-0.015287762 -0.44264096 0.051045585
-0.014650238 -0.43712401 0.051911127
0.073296681 -0.74378169 0.052309357
0.10334318 -0.71906823 0.052284129
0.071618885 -0.71828151 0.052733649
0.087458946 -0.71825933 0.052751787
0.067184709 -0.69696665 0.052422959
0.075837553 -0.69617254 0.052945383
0.083897509 -0.69619203 0.052924857
0.092048861 -0.6961574 0.052916735
0.06988994 -0.68754172 0.052005004
0.08632376 -0.67741543 0.05249431
0.059017759 -0.66882551 0.052105404
0.067216448 -0.66879511 0.052057844
0.080257379 -0.66888738 0.052157171
0.053494357 -0.65962714 0.05269289
0.071798898 -0.65117979 0.05292847
0.033027072 -0.64433247 0.052375644
0.055606969 -0.63674545 0.052547447
0.024726324 -0.62991422 0.052340116
0.03318635 -0.62994736 0.052387856
0.048589554 -0.62998718 0.052417457
0.057125144 -0.6292119 0.052972976
0.040342055 -0.61714369 0.052002266
0.003260036 -0.61642325 0.052609384
0.024594761 -0.6164611 0.05265284
0.032204252 -0.61642724 0.052608125
0.017302349 -0.6104691 0.052422214
0.039775152 -0.59859037 0.052508369
0.024149586 -0.59275782 0.052865371
0.016395692 -0.58759511 0.052644245
-0.012676647 -0.583148 0.052023146
0.0003900374 -0.57808274 0.052146561
0.0088075604 -0.57747835 0.052770469
0.00072394841 -0.57300627 0.052367304
0.01389561 -0.5730285 0.052237656
0.022238784 -0.57237142 0.052946024
-0.028649403 -0.56772423 0.052331086
-0.023065427 -0.56768012 0.052291434
-0.015205196 -0.56782097 0.052441314
-0.015665822 -0.56335324 0.052087586
0.013987478 -0.56365371 0.052403118
-0.0025314596 -0.55485278 0.052158069
0.00085284974 -0.51972163 0.052438937
-0.017683808 -0.44257662 0.052024037
0.080548972 -0.71667892 0.053690873
0.096432552 -0.71667343 0.053673085
0.072596215 -0.70641929 0.053141639
0.063062102 -0.69463062 0.053923029
0.095290817 -0.69463956 0.053929441
0.079164356 -0.68522406 0.053529631
0.073529653 -0.67590654 0.053527363
0.032374833 -0.65896982 0.053361543
0.062035941 -0.65885371 0.053223014
0.025865469 -0.64290369 0.053585026
0.04270472 -0.63604081 0.053178694
0.024294233 -0.63530087 0.053745251
0.010566094 -0.62247545 0.053035423
0.034756396 -0.62176698 0.053643011
0.0116512 -0.61505854 0.053932771
0.017292541 -0.61509663 0.053958338
0.051552527 -0.61572433 0.053238068
0.025645418 -0.60914993 0.053804379
0.039167784 -0.60383338 0.053043749
0.031890914 -0.59800708 0.053282611
0.0058235079 -0.59731686 0.053943198
0.018983778 -0.59727806 0.05390045
-0.025390666 -0.575912 0.053937569
0.0090430146 -0.57243639 0.053041782
-0.020343721 -0.57153237 0.053476255
-0.0039265826 -0.57179171 0.053847078
0.0037025637 -0.57181883 0.053875469
-0.020410743 -0.56710273 0.053080883
0.0091145309 -0.56744164 0.053476684
0.0010015193 -0.56303096 0.053231653
0.095528439 -0.72702986 0.054619197
0.10332306 -0.72784394 0.054170843
0.072129406 -0.69308597 0.054978698
0.05834591 -0.68439931 0.054009721
0.066267766 -0.68446219 0.054110419
0.088112265 -0.68370336 0.054636512
0.053290009 -0.67434013 0.05457402
0.061255593 -0.67434126 0.054532297
0.039221965 -0.66589111 0.054400258
0.055668432 -0.6651296 0.054913823
0.0412881 -0.6574223 0.054426607
0.07071577 -0.65737796 0.054323416
0.04075304 -0.64907622 0.054810137
0.049814448 -0.64214808 0.05414322
0.027546907 -0.63460368 0.054364271
0.045088001 -0.62708092 0.054824349
0.034138128 -0.60839951 0.054385509
0.013662226 -0.6024732 0.054394636
-0.0093915975 -0.58636147 0.054257113
-0.0092311576 -0.58127046 0.054223508
0.012009752 -0.58127588 0.054100771
0.025530079 -0.58119488 0.054032616
-0.016860519 -0.57545763 0.05485297
0.068966031 -0.70327973 0.055061799
0.077169225 -0.70328742 0.055112351
0.085258901 -0.70249343 0.055589214
0.050892971 -0.68290043 0.055111744
0.06947013 -0.67281693 0.055628307
0.064597167 -0.6635921 0.055996839
0.049682215 -0.65669644 0.055003107
0.04657558 -0.67134953 0.05678352
0.07244809 -0.66282058 0.056504622
0.060599968 -0.646088 0.05706574
