# .PCD v0.7 - Point Cloud Data file format
VERSION 0.7
FIELDS x y z
SIZE 4 4 4
TYPE F F F
COUNT 1 1 1
WIDTH 1377
HEIGHT 1
VIEWPOINT 0 0 0 1 0 0 0
POINTS 1377
DATA ascii
0.31939399 1.6733619 1.9502453
0.29947409 1.6681623 1.8373882
0.28142709 1.6712046 1.735146
0.25673255 1.6864281 1.5952495
0.24144295 1.7026155 1.5086356
0.2245945 1.6953719 1.4131972
0.20168366 1.5975267 1.2834371
0.18317507 1.5380847 1.1786155
0.17005302 1.5485269 1.1042955
0.15620458 1.5418116 1.0258667
0.13732126 1.5594773 0.91892076
0.12417002 1.553334 0.84444487
0.11095868 1.5365236 0.76963389
0.098479353 1.5347277 0.69896513
0.08578641 1.5134662 0.6270954
0.07403338 1.5404553 0.56052917
0.061959658 1.5591112 0.492149
0.043556768 1.558033 0.38793626
0.0313114 1.5545719 0.31859386
0.018904643 1.5616086 0.24833062
0.0065378612 1.5591595 0.17829852
-0.0058908788 1.5561808 0.10791492
-0.018864913 1.5663736 0.034432437
-0.031522468 1.5611219 -0.037248448
-0.037153821 1.4015998 -0.069015577
0.018651379 -0.064270407 0.24847659
0.016475128 -0.073383972 0.23622027
0.0136384 -0.074932441 0.22021514
0.011041277 -0.079746708 0.20556991
0.0090111652 -0.090219215 0.19414212
0.0065757274 -0.096888147 0.18041402
0.0025657304 -0.10467533 0.15779696
-0.0036260053 -0.085527867 0.1227571
-0.0093047302 -0.07374683 0.090629064
-0.014942854 -0.07897988 0.058776874
-0.021386901 -0.095655538 0.022396967
-0.024108749 -0.10749458 0.0070440955
-0.031697616 -0.097816132 -0.035917383
-0.026704619 -0.14426717 -0.0075084693
-0.027468473 -0.17519134 -0.011713785
-0.027535301 -0.19642699 -0.012008697
-0.027439987 -0.21732761 -0.011384585
-0.027186684 -0.23785438 -0.0098649738
-0.027094558 -0.25712451 -0.009260172
-0.02718311 -0.27529311 -0.0096807256
-0.027307633 -0.29288065 -0.010305833
-0.027148832 -0.31060839 -0.0093244137
-0.027201608 -0.32747349 -0.0095435297
-0.026976023 -0.34442711 -0.0081842588
-0.027146511 -0.36044428 -0.0090719201
-0.027298735 -0.38422531 -0.0098171085
-0.027391372 -0.39987966 -0.010264247
-0.027387552 -0.41547102 -0.010164698
-0.027288144 -0.43097979 -0.0095233936
-0.027267648 -0.44635186 -0.0093300594
-0.027327482 -0.46167281 -0.0095927492
-0.027467895 -0.47702873 -0.01031289
-0.027514795 -0.49243563 -0.010503033
-0.027640387 -0.50797927 -0.01113994
-0.027477387 -0.5312866 -0.010102993
-0.027533386 -0.54715574 -0.010346216
-0.0276585 -0.56335133 -0.010981936
-0.028014876 -0.58021271 -0.012929916
-0.027677193 -0.60474855 -0.010905172
-0.027755193 -0.62208122 -0.011275386
-0.027875967 -0.63998663 -0.011888794
-0.027871517 -0.65812778 -0.011792443
-0.028363246 -0.67822951 -0.014511411
-0.028549232 -0.69828796 -0.015496682
-0.027948458 -0.72691888 -0.011985148
-0.028344875 -0.74978846 -0.014166117
-0.028412716 -0.77255297 -0.014483932
-0.028573399 -0.79688567 -0.01532944
-0.023944195 -0.80024785 0.011000191
-0.019109325 -0.81296587 0.03852978
-0.018948914 -0.83748251 0.039503966
-0.019174131 -0.86594141 0.038288713
-0.02794878 -0.96883982 -0.01141446
-0.20379399 -2.3230069 -1.0092957
-0.20511548 -2.4737515 -1.016804
-0.19905919 -2.6590421 -0.98245895
-0.20114456 -2.8566518 -0.9943307
-0.2013692 -3.0602221 -0.99565572
-0.20374264 -3.3156221 -1.0091996
-0.20535402 -3.6002731 -1.0184422
-0.1955846 -3.9451566 -0.96315193
-0.19508035 -4.3210444 -0.96045935
-0.19902058 -4.8556099 -0.9830727
-0.14886928 -9.7618723 -0.70149213
-0.069742955 -8.2937727 -0.2517837
-0.033499204 -9.570179 -0.047032148
0.01851091 -10.694103 0.24721974
0.08050663 -10.684084 0.59883845
0.17556149 -10.840266 1.1378453
0.27252299 -10.921029 1.6878796
0.33571783 -10.869817 2.0465932
0.54933804 -6.3737621 3.2627735
0.5436883 -5.8245211 3.2312052
0.55611652 -5.5251455 3.302032
0.56453246 -5.218195 3.3500969
0.56637728 -4.884409 3.3608952
0.55544454 -4.4815035 3.299242
0.5556041 -4.2013974 3.3004379
0.53299177 -3.6735511 3.1726472
0.57131696 -3.6926177 3.3901756
0.56155461 -3.4186213 3.335067
0.55638719 -3.1915424 3.3059952
0.55384153 -2.9938927 3.2917776
0.55143368 -2.8095009 3.278331
0.55186826 -2.6485033 3.2809942
0.52537572 -2.387012 3.1309505
0.55734134 -2.2950289 3.3125007
0.55231982 -2.1390109 3.2842004
0.54497528 -1.98401 3.2427185
0.54309988 -1.8529053 3.2322485
0.54025519 -1.7244343 3.2162766
0.53840309 -1.6033195 3.2059298
0.54034871 -1.4385494 3.217195
0.53896827 -1.3266487 3.2095141
0.53952426 -1.2206379 3.2128143
0.54159915 -1.1183791 3.2247272
0.50656575 -0.97538072 3.0261457
0.51400501 -0.88703287 3.06848
0.53574675 -0.80678231 3.1919444
0.53353935 -0.70643562 3.1795559
0.52881724 -0.55834186 3.1529639
0.52509463 -0.4615325 3.1319742
0.10391299 -0.42745683 0.74301624
0.10399754 -0.41584978 0.74359643
0.091889836 -0.4118396 0.67505956
0.089834109 -0.40067706 0.66354656
0.087721616 -0.38155228 0.65180999
0.087073423 -0.36911446 0.6482808
0.087257698 -0.36395949 0.64937556
0.08687076 -0.34542096 0.64737725
0.087795243 -0.33219823 0.65272021
0.087126561 -0.31803453 0.64907354
0.087222338 -0.30618706 0.64971471
0.087874211 -0.2975997 0.65346169
0.087533414 -0.28002262 0.65167433
0.090911657 -0.24251847 0.67098516
0.089540392 -0.23385508 0.66330248
0.087869577 -0.21850613 0.65396833
0.087748609 -0.20154239 0.65337807
0.088028029 -0.18050477 0.6550588
0.29980713 1.6972114 1.8567033
0.2809487 1.6949798 1.7497979
0.26251894 1.6887305 1.6453245
0.24559726 1.6901293 1.5494055
0.22900185 1.6882977 1.4553375
0.21408707 1.7007415 1.3708025
0.18610735 1.5225476 1.2121669
0.17333479 1.5389769 1.1397851
0.15394978 1.5552144 1.0299294
0.14061846 1.5532864 0.95437896
0.12798908 1.5621293 0.88280898
0.11460485 1.5457879 0.80696011
0.10168168 1.5325009 0.7337265
0.089405194 1.5353589 0.66415894
0.077054925 1.5287508 0.59417427
0.058995008 1.5491252 0.49183214
0.046792138 1.557349 0.42268026
0.034498397 1.5641122 0.35301289
0.022183098 1.5634 0.28322455
0.009825197 1.5621954 0.21319453
-0.0024997869 1.5565078 0.1433522
-0.01528256 1.5640892 0.070909351
-0.03428629 1.5591805 -0.036784273
-0.045102678 1.5117222 -0.09805683
0.019249044 -0.072237611 0.26778874
0.015283405 -0.075568132 0.2454329
0.01231644 -0.074958771 0.22869447
0.009388851 -0.075948574 0.21217994
0.0074151894 -0.087073945 0.20108084
0.0052471361 -0.095995873 0.18887831
0.0014459984 -0.10488008 0.16745816
-0.0020938988 -0.10390002 0.1474693
-0.011336802 -0.079020053 0.095163219
-0.016003834 -0.07623484 0.068778701
-0.020404074 -0.076992512 0.043909173
-0.023853432 -0.084513791 0.024437157
-0.02467249 -0.10607483 0.019893901
-0.028515883 -0.12489218 -0.0017609082
-0.030247502 -0.14131604 -0.011482885
-0.030289164 -0.16416825 -0.011613843
-0.03029668 -0.18610069 -0.011551082
-0.030284226 -0.20715855 -0.011375032
-0.030265184 -0.22739208 -0.011161585
-0.029940134 -0.24773306 -0.0092116073
-0.029781023 -0.26683116 -0.0082032988
-0.029967796 -0.28446895 -0.0091576986
-0.029871542 -0.30227634 -0.0085059442
-0.029818777 -0.31950971 -0.0081008831
-0.030195508 -0.34389466 -0.010079818
-0.030044675 -0.35230854 -0.0091709616
-0.029830415 -0.36872056 -0.0078491336
-0.030084316 -0.39219996 -0.0091302712
-0.030305106 -0.40766859 -0.010276387
-0.030085659 -0.42330801 -0.0089244591
-0.030117068 -0.43868089 -0.0089955702
-0.030228738 -0.45399463 -0.0095217545
-0.030222284 -0.47697687 -0.0093235075
-0.030275216 -0.49234867 -0.0095156264
-0.03040719 -0.50785726 -0.010155772
-0.03044373 -0.52344841 -0.010254098
-0.030554947 -0.53927612 -0.010775612
-0.030566817 -0.55521548 -0.010733088
-0.030983496 -0.57197148 -0.012986274
-0.030569198 -0.59614581 -0.010469656
-0.03071234 -0.61336941 -0.011169752
-0.031062936 -0.63152093 -0.013045751
-0.030965636 -0.64920533 -0.012380639
-0.03043467 -0.67557919 -0.0091980426
-0.030491956 -0.69498128 -0.0094076553
-0.031307742 -0.71765381 -0.013917496
-0.031644475 -0.73986125 -0.015709396
-0.031227779 -0.76026249 -0.013227804
-0.030797802 -0.7932533 -0.010609273
-0.027412551 -0.80211532 0.0087054688
-0.023490118 -0.80739582 0.031064976
-0.022516929 -0.82720369 0.036705013
-0.022492195 -0.85338956 0.036970142
-0.031426758 -0.95361423 -0.01347639
-0.20316577 -2.4308019 -0.98614168
-0.20443055 -2.5931096 -0.99304599
-0.20512168 -2.7683444 -0.99667996
-0.20597766 -2.9661982 -1.0012234
-0.20798992 -3.202322 -1.0122855
-0.20065467 -3.4950635 -0.97018892
-0.20194264 -3.8104477 -0.97705001
-0.20317902 -4.1819687 -0.98355466
-0.20234439 -4.5935659 -0.97826022
-0.18164501 -9.6919365 -0.85451025
-0.098998919 -8.2865467 -0.38695845
-0.051841389 -8.334425 -0.11917304
0.074322656 -10.744085 0.59981692
0.1367365 -10.751531 0.95414442
0.20123655 -10.87687 1.3204455
0.23022771 -10.719154 1.4848012
0.29863036 -10.938693 1.8731635
0.39347029 -10.847276 2.4111712
0.35998008 -4.9649911 2.2147191
0.53873569 -6.0562944 3.2302351
0.54789597 -5.6988878 3.2818615
0.57307935 -5.5343828 3.4246104
0.55708891 -4.6819372 3.3330657
0.56379074 -4.2929754 3.370753
0.53554469 -3.8345594 3.2100644
0.55058128 -3.7010353 3.2952926
0.55834168 -3.5282125 3.3391988
0.55141646 -3.2826743 3.2997103
0.54603797 -3.0639157 3.2690282
0.54649091 -2.888833 3.2714789
0.5468179 -2.7229919 3.2732267
0.55488902 -2.5208073 3.3189089
0.5395627 -2.3139846 3.2318084
0.55242085 -2.2200081 3.3047323
0.54456127 -2.0586307 3.2600448
0.5390963 -1.9135294 3.2289615
0.53878939 -1.7895344 3.2271659
0.53892064 -1.6124597 3.2278407
0.5377686 -1.495937 3.2212605
0.53515601 -1.3800668 3.2063963
0.53542018 -1.2725935 3.2078629
0.5371747 -1.1692902 3.2177906
0.53997648 -1.0683552 3.2336633
0.49361745 -0.91784054 2.9705706
0.53831977 -0.81094676 3.2242055
0.53201109 -0.70736104 3.188391
0.52765828 -0.60752928 3.1636775
0.5242579 -0.50990736 3.1443713
0.52078855 -0.4137795 3.124676
0.1025284 -0.42652532 0.75182825
0.10089327 -0.41599792 0.7426185
0.087609559 -0.40428314 0.66743326
0.086385019 -0.39694071 0.66055614
0.085125007 -0.3900142 0.65347821
0.08481811 -0.38155538 0.65180659
0.084563144 -0.3775081 0.65039504
0.083897687 -0.36036736 0.64675897
0.084365524 -0.35429969 0.64944679
0.084543519 -0.33864301 0.65055931
0.085221745 -0.33123076 0.65443975
0.084845982 -0.31591651 0.65241116
0.084728271 -0.2987484 0.65184546
0.084397882 -0.28771943 0.65003949
0.087534159 -0.25273803 0.66792202
0.087520629 -0.23748511 0.66791099
0.085529022 -0.22405568 0.6567176
0.085236773 -0.20859504 0.65512538
0.08514794 -0.19070254 0.65468568
0.28656417 1.6861787 1.7963628
0.26829383 1.6846917 1.6927943
0.25042641 1.6794149 1.5915146
0.23432134 1.6856729 1.5002254
0.21890886 1.6944543 1.412864
0.20002308 1.6509082 1.3058338
0.17108312 1.5445956 1.1418481
0.15771103 1.5488864 1.0660655
0.14439443 1.5493134 0.99060071
0.13163282 1.5565699 0.91827995
0.11832628 1.5455151 0.84287995
0.10510972 1.5266842 0.76799566
0.092892118 1.532758 0.69876218
0.074121542 1.5078367 0.59241456
0.062488735 1.5486022 0.52647644
0.05033176 1.5660532 0.45757997
0.038026113 1.5670542 0.38785079
0.025805311 1.5555959 0.31861088
0.013385084 1.5636292 0.24822718
0.00086617051 1.5681236 0.17728589
-0.017508788 1.5513152 0.073177353
-0.030582014 1.5621569 -0.00091265101
-0.043483853 1.5614376 -0.074023165
0.015624511 -0.059235603 0.26262197
0.013753604 -0.072462708 0.25209367
0.01094384 -0.073353611 0.23623163
0.0080273198 -0.074018247 0.21976374
0.0058597899 -0.083178751 0.20755
0.0026406494 -0.096809641 0.18941158
0.00034149335 -0.10448065 0.17645
-0.0026454511 -0.10703633 0.1595834
-0.010397034 -0.090097964 0.11571343
-0.016112065 -0.078909248 0.083361827
-0.026246568 -0.072618812 0.026017634
-0.026512729 -0.097620241 0.024598926
-0.029620621 -0.10745084 0.0070497179
-0.030958988 -0.13784993 -0.00041082859
-0.032747947 -0.15361547 -0.010474527
-0.032690544 -0.17623499 -0.010059741
-0.033049323 -0.19638102 -0.012007622
-0.032803196 -0.2177662 -0.010523203
-0.032857332 -0.23735395 -0.010743416
-0.032611545 -0.25707781 -0.0092621492
-0.032381464 -0.27602762 -0.0078705968
-0.032502323 -0.2935501 -0.0084709451
-0.032176271 -0.31153759 -0.0065357527
-0.032957789 -0.33538225 -0.01084343
-0.032680344 -0.35227528 -0.0091849836
-0.032801833 -0.36827144 -0.0097904578
-0.032822851 -0.38417649 -0.0098261265
-0.032744616 -0.3999697 -0.0092989346
-0.032741144 -0.41552615 -0.0091961641
-0.032815494 -0.43093014 -0.0095351776
-0.032838248 -0.4539611 -0.0095404293
-0.032852806 -0.46928412 -0.0095406752
-0.032947842 -0.48465011 -0.0099977171
-0.032949306 -0.50005776 -0.009924015
-0.033029065 -0.51561004 -0.010294646
-0.033184312 -0.53139144 -0.011093684
-0.033240687 -0.54729474 -0.011331916
-0.033052839 -0.57121181 -0.010144047
-0.033191163 -0.58786291 -0.010847426
-0.033219658 -0.60469568 -0.010927833
-0.03329942 -0.62202805 -0.011299158
-0.033422053 -0.63993311 -0.011913712
-0.033736754 -0.65888745 -0.013617867
-0.033716742 -0.68725312 -0.013382796
-0.033683751 -0.70693332 -0.013114659
-0.033950731 -0.72840917 -0.01454815
-0.033313625 -0.7585507 -0.010812715
-0.033589169 -0.78254974 -0.012294699
-0.031749036 -0.79838586 -0.0017758618
-0.027150193 -0.8010112 0.024390932
-0.025194269 -0.81558949 0.03556611
-0.025020506 -0.84020805 0.036632497
-0.034178961 -0.93846047 -0.015193092
-0.033876963 -0.97104669 -0.013398388
-0.20623948 -2.3663421 -0.99084115
-0.20750998 -2.5217633 -0.99795043
-0.2087927 -2.6941364 -1.0051274
-0.20961642 -2.8822355 -1.009699
-0.2113964 -3.1038206 -1.0196916
-0.203126 -3.3664975 -0.97262836
-0.20375572 -3.6516955 -0.97608948
-0.20706192 -4.0238342 -0.9947235
-0.20619078 -4.4017248 -0.98966098
-0.20756732 -4.8992229 -0.99733537
-0.16124977 -10.022796 -0.73359853
-0.076643907 -8.3116226 -0.25378487
-0.016749317 -10.238657 0.086297281
0.04250044 -10.735623 0.4225235
0.10534037 -10.829312 0.77906984
0.16713931 -10.730564 1.1296898
0.36231947 -10.912451 2.2372713
0.53059822 -6.2274833 3.1919959
0.53548139 -5.8035564 3.219727
0.55104494 -5.5366387 3.3080647
0.53226447 -4.9775848 3.2015398
0.56294775 -4.7442675 3.3756924
0.55587053 -4.3870354 3.3355818
0.55300307 -4.0941243 3.3193607
0.52617747 -3.6677477 3.1672139
0.55784279 -3.6460662 3.3469222
0.55042124 -3.3884683 3.3048711
0.54434681 -3.1583765 3.2704654
0.5519194 -2.9249239 3.3135164
0.54846513 -2.7397115 3.2939801
0.55043089 -2.5883749 3.3051949
0.52399492 -2.3333819 3.1552806
0.55357742 -2.3021848 3.3231735
0.54426026 -2.1312754 3.270381
0.54186422 -1.9281688 3.2568882
0.5400489 -1.7989463 3.2466574
0.53648996 -1.6703154 3.2265363
0.53442353 -1.5501498 3.2148829
0.53364795 -1.4365402 3.2105532
0.5321039 -1.3245807 3.2018645
0.53316414 -1.2196174 3.2079511
0.53575289 -1.1182064 3.2227092
0.49520501 -0.92195666 2.9927933
0.53930652 -0.86429685 3.243052
0.51484221 -0.74800104 3.1043425
0.5275324 -0.65733737 3.1764078
0.52285719 -0.55851769 3.1499612
0.51914501 -0.4618127 3.1289787
0.098555841 -0.42167383 0.74331754
0.098779351 -0.40986761 0.74466687
0.085976444 -0.41241354 0.67211986
0.084268257 -0.40091953 0.66255206
0.08356759 -0.39745462 0.65861815
0.082575649 -0.38562348 0.65311372
0.082075961 -0.37750474 0.65036094
0.081554547 -0.36474052 0.64752597
0.081882119 -0.35914448 0.64942521
0.081647918 -0.34496683 0.64821976
0.082015239 -0.32814294 0.65042681
0.082341507 -0.32155287 0.65231878
0.082143001 -0.30506951 0.65131629
0.082138561 -0.29294941 0.65137357
0.082147978 -0.27347738 0.65155101
0.085685864 -0.24186651 0.67170405
0.083607115 -0.22893503 0.66003603
0.08288081 -0.21635059 0.65599895
0.082865283 -0.19857244 0.65599436
0.083240561 -0.17667764 0.658207
0.29186776 1.6746633 1.8420639
0.27378806 1.6778679 1.7395926
0.25641447 1.6807979 1.641127
0.2399454 1.6864711 1.5477931
0.21661036 1.6998158 1.4155569
0.19335228 1.5974541 1.2837021
0.17560428 1.5492269 1.1831089
0.16202331 1.5532024 1.1061591
0.14800067 1.5436813 1.0267029
0.13523088 1.552273 0.95435566
0.12197964 1.5455278 0.87927604
0.10879303 1.5320182 0.80456239
0.090200305 1.5347254 0.69922984
0.077950217 1.5373418 0.62983149
0.065933757 1.5544375 0.56176078
0.053730227 1.5651332 0.49262851
0.041426953 1.5593768 0.42292842
0.029184207 1.5551558 0.35357228
0.016895711 1.556466 0.28395778
-0.0016426538 1.5562533 0.17893726
-0.014075773 1.554288 0.10850283
-0.026769098 1.5566509 0.03659353
-0.039714187 1.5602533 -0.036743201
-0.047751196 1.4529066 -0.082259245
0.012569949 -0.07222794 0.25996292
0.0098464703 -0.073699504 0.24459834
0.0057720984 -0.077513643 0.22161286
0.0032780701 -0.083140582 0.20754911
0.0013613745 -0.094387136 0.19675893
-0.00075697625 -0.10344584 0.18482539
-0.0034265644 -0.10804727 0.16976616
-0.0081298854 -0.11109069 0.1432139
-0.017073499 -0.075919412 0.092577375
-0.021758074 -0.073223002 0.066091314
-0.028623661 -0.087148257 0.02731533
-0.035094574 -0.14297879 -0.0091054393
-0.034977894 -0.16630417 -0.0083651608
-0.034968235 -0.18811925 -0.0082316613
-0.035089683 -0.20855699 -0.0088416003
-0.035057828 -0.22869864 -0.0085820751
-0.034876421 -0.24850786 -0.0074743577
-0.035451598 -0.27478555 -0.010617768
-0.035416596 -0.29276329 -0.010340238
-0.035258159 -0.31049064 -0.0093626855
-0.035477445 -0.32706261 -0.010527261
-0.035421766 -0.3437905 -0.010132453
-0.035426609 -0.36009976 -0.010080907
-0.035327576 -0.3762607 -0.0094402609
-0.035297964 -0.39209497 -0.0091933552
-0.035342228 -0.4076851 -0.009365472
-0.035463698 -0.4231151 -0.0099755218
-0.035383001 -0.44622928 -0.0093996832
-0.03544385 -0.46154961 -0.0096660955
-0.035585344 -0.47690478 -0.01039
-0.035633381 -0.49231109 -0.010583955
-0.035587493 -0.50774968 -0.010245311
-0.035619285 -0.5233404 -0.010347349
-0.035725676 -0.53916776 -0.010872654
-0.035782982 -0.56322414 -0.011080779
-0.035805441 -0.57956725 -0.011130458
-0.03588821 -0.59632856 -0.011522382
-0.036188338 -0.61391032 -0.01314738
-0.036367208 -0.63176852 -0.014084859
-0.035846509 -0.65759063 -0.01101622
-0.036030699 -0.67678314 -0.011984542
-0.03653362 -0.69768614 -0.014761173
-0.036723904 -0.71854126 -0.015764806
-0.036196791 -0.74856591 -0.012661907
-0.036131602 -0.77069837 -0.012217398
-0.035889562 -0.79314059 -0.010770153
-0.031014008 -0.79508507 0.01696167
-0.028308123 -0.80597878 0.032385595
-0.027843852 -0.82846302 0.035092726
-0.026849143 -0.86294001 0.040844623
-0.037633814 -0.96092927 -0.020269761
-0.21046288 -2.3108017 -1.0007257
-0.21095251 -2.4539473 -1.0034733
-0.21155147 -2.612689 -1.0068475
-0.21373683 -2.8036411 -1.0192308
-0.2076067 -3.0379665 -0.98443395
-0.20864004 -3.2760236 -0.99030399
-0.21007732 -3.5545595 -0.99848127
-0.20997885 -3.8579924 -0.99796021
-0.21139868 -4.2385926 -1.0060803
-0.19894767 -4.7030506 -0.93553609
-0.18112911 -9.5411196 -0.83604234
-0.079032011 -8.3234444 -0.25648111
-0.030742973 -8.2788067 0.017440382
0.0092114937 -10.774014 0.24306296
0.071385279 -10.665107 0.5957399
0.13418865 -10.761605 0.95190132
0.19884944 -10.887995 1.3185809
0.2643401 -10.963041 1.6900477
0.32221708 -10.708253 2.0185208
0.42895761 -8.8154306 2.625036
0.36570248 -4.8795233 2.2683027
0.52255881 -6.4202785 3.1574194
0.52136511 -5.9018025 3.1509597
0.54882991 -5.537148 3.3070283
0.56443429 -5.2952814 3.3957276
0.56278878 -4.9257898 3.3866386
0.54948145 -4.5008469 3.3114257
0.5477491 -4.2052813 3.3018105
0.51629567 -3.7316682 3.1236906
0.54800028 -3.7119989 3.3036132
0.55617702 -3.4356172 3.3502343
0.55138147 -3.2093151 3.3232114
0.54607284 -2.9965737 3.2932723
0.5442341 -2.8146133 3.2830007
0.54568177 -2.6576345 3.2913585
0.53846008 -2.4731619 3.2505541
0.54245996 -2.3422997 3.2733757
0.54310966 -2.2040637 3.2771969
0.54151028 -1.9987806 3.2683277
0.53692037 -1.8588436 3.2424285
0.53395945 -1.7295791 3.2257638
0.53133953 -1.6062315 3.21103
0.53110272 -1.4923456 3.2098088
0.52992815 -1.379649 3.2032671
0.52983141 -1.2717226 3.2028358
0.53378481 -1.1192595 3.2254298
0.51631403 -0.9958486 3.1264586
0.49283096 -0.87558389 2.9933856
0.53037488 -0.80925196 3.2064252
0.52628243 -0.70741791 3.1833231
0.52069438 -0.60738587 3.1517365
0.51727325 -0.51017708 3.1324379
0.096610859 -0.42707962 0.74685752
0.096008301 -0.41588959 0.74352306
0.084396429 -0.41599503 0.67774427
0.082375899 -0.4045243 0.66640753
0.08115077 -0.39721429 0.65954083
0.079491861 -0.3775208 0.65033638
0.079290539 -0.36397433 0.64931709
0.079107404 -0.34987187 0.64840072
0.079924926 -0.33724713 0.65311927
0.079884216 -0.32665676 0.65296972
0.079130031 -0.306759 0.64885408
0.079698518 -0.2923736 0.65215957
0.079865843 -0.28532398 0.65314907
0.083907008 -0.24568294 0.6761921
0.081862502 -0.23250556 0.66471583
0.080802567 -0.22194645 0.65878379
0.080613732 -0.20568135 0.65779251
0.080504812 -0.18769518 0.65725428
0.29969841 1.681025 1.9007328
0.27907187 1.6658524 1.7838054
0.26155001 1.6699389 1.684487
0.23794459 1.691698 1.5506938
0.22232752 1.7016028 1.4621775
0.20648243 1.7033248 1.3723679
0.17743668 1.5103717 1.2076957
0.16592669 1.545447 1.1424731
0.15228043 1.5450069 1.0651354
0.13908327 1.547328 0.99034417
0.11965785 1.5494107 0.88025731
0.1064167 1.534954 0.80521739
0.093912818 1.5344548 0.73435742
0.081624858 1.5373369 0.66472131
0.069566548 1.5506742 0.59638578
0.057407688 1.562595 0.52747947
0.045107704 1.5610768 0.45777407
0.026679136 1.564168 0.35333565
0.014473012 1.5544913 0.28416294
0.0020616748 1.5592948 0.21382307
-0.010220448 1.5526429 0.14421782
-0.023038393 1.5622299 0.071569309
-0.035923418 1.5661618 -0.001459212
-0.048846841 1.5654215 -0.074705146
0.011283668 -0.070310637 0.2670626
0.008704111 -0.073322996 0.25250757
0.0047240341 -0.077552348 0.23004657
0.001983434 -0.080239445 0.21457769
3.8636637e-05 -0.09127558 0.20362556
-0.0021010428 -0.10010292 0.19156732
-0.0043799672 -0.10769421 0.17871881
-0.0073473253 -0.11016562 0.16196333
-0.015851716 -0.087728046 0.11382715
-0.022277394 -0.072144203 0.077446289
-0.032288618 -0.0809884 0.020846905
-0.032470398 -0.10595947 0.019900857
-0.035405274 -0.11667345 0.0033315122
-0.03691005 -0.13415241 -0.005122235
-0.037298772 -0.15582336 -0.0072427248
-0.037518732 -0.17723794 -0.0084056072
-0.03742478 -0.19887033 -0.007787209
-0.037467066 -0.21913499 -0.0079419548
-0.038028069 -0.24673767 -0.010997517
-0.037871029 -0.26589945 -0.010021195
-0.037898537 -0.28397635 -0.01009205
-0.037801344 -0.30181667 -0.0094552906
-0.037747405 -0.31908342 -0.0090639144
-0.037745137 -0.33584973 -0.0089656329
-0.037633482 -0.3524338 -0.0082466323
-0.037754178 -0.36839616 -0.0088459104
-0.03800486 -0.39192724 -0.010139682
-0.038050942 -0.40755254 -0.010315247
-0.0378282 -0.42319244 -0.0089654215
-0.038029619 -0.4385131 -0.010022035
-0.037964597 -0.45387948 -0.0095667541
-0.037980121 -0.46920282 -0.0095682461
-0.038076185 -0.48456907 -0.010026505
-0.037958495 -0.50763857 -0.0092281904
-0.037992306 -0.52319533 -0.0093326056
-0.038100976 -0.53898877 -0.0098614413
-0.038280293 -0.55510187 -0.010790735
-0.038188059 -0.57113248 -0.010179162
-0.038327884 -0.58778375 -0.010883681
-0.038249128 -0.61293125 -0.010303114
-0.038273927 -0.63033348 -0.010354044
-0.038659215 -0.64909297 -0.012449355
-0.038593814 -0.66735727 -0.011987569
-0.039327543 -0.688537 -0.016058063
-0.039591927 -0.70927936 -0.017465547
-0.039173603 -0.7392199 -0.014953258
-0.038900297 -0.76015151 -0.013309137
-0.039168175 -0.78423655 -0.014733533
-0.03499306 -0.78969318 0.0090407608
-0.031513561 -0.79708344 0.028869513
-0.029537771 -0.82369101 0.040219143
-0.029652698 -0.85045862 0.039665587
-0.039829217 -0.9413107 -0.017937742
-0.038292609 -0.98398626 -0.0090679461
-0.21518959 -2.3941166 -1.011771
-0.21620679 -2.5494373 -1.0173531
-0.21009402 -2.7443695 -0.98240471
-0.21169187 -2.9477825 -0.99124432
-0.2132307 -3.1773701 -0.99972868
-0.21524441 -3.4454191 -1.0108784
-0.215497 -3.7328296 -1.0120183
-0.2088434 -4.1546731 -0.97382319
-0.20333843 -4.4855604 -0.94225264
-0.059168436 -8.3392963 -0.12048566
-0.025024034 -10.544409 0.075076252
0.19425352 -10.887869 1.3201638
0.22448832 -10.798775 1.4918323
0.28649977 -10.734795 1.8437254
0.35069689 -10.748113 2.2080805
0.34847683 -4.9076428 2.191318
0.53739959 -6.1260476 3.2644486
0.54326171 -5.7288833 3.2974792
0.54302275 -4.9546828 3.2956803
0.54904991 -4.6781044 3.3297451
0.5463168 -4.3584709 3.3140719
0.53491294 -4.0064836 3.249177
0.53556627 -3.6537294 3.252738
0.55315149 -3.5428667 3.352515
0.54555231 -3.2926629 3.3092906
0.54447472 -3.0956283 3.3031113
0.54111958 -2.9000218 3.2840109
0.54054612 -2.7294099 3.2807138
0.5419057 -2.5761938 3.2883987
0.52972144 -2.306071 3.2191937
0.5452013 -2.2218192 3.3070488
0.54037815 -2.0700448 3.2796571
0.53265297 -1.9174205 3.2358
0.53078842 -1.7889477 3.2252142
0.52894187 -1.6653775 3.2147348
0.52750731 -1.5470635 3.2065976
0.5300889 -1.3852707 3.2212613
0.52820736 -1.2736793 3.2105947
0.5296244 -1.1697923 3.2186496
0.53157336 -1.0677854 3.2297249
0.48845202 -0.92068094 2.9850495
0.53065372 -0.86177558 3.2245414
0.52500558 -0.75753456 3.1925128
0.51974392 -0.65647596 3.1626801
0.5144242 -0.50995153 3.1325333
0.51337993 -0.4139981 3.1266341
0.094770618 -0.42651936 0.7518146
0.093269221 -0.42166689 0.74334145
0.08017724 -0.40381935 0.66934174
0.078976758 -0.40090868 0.66257745
0.07789956 -0.3935481 0.65655839
0.077036299 -0.38154048 0.6517989
0.07677947 -0.3774932 0.65038788
0.076712161 -0.36835328 0.65009767
0.076415129 -0.35470799 0.64854997
0.076284908 -0.34003749 0.64794832
0.077269338 -0.33170241 0.65357709
0.076892585 -0.31643358 0.65157658
0.076632023 -0.29988301 0.6502347
0.076721132 -0.28710547 0.65083027
0.080511294 -0.24887204 0.67245722
0.079953872 -0.23613754 0.66938508
0.078420155 -0.22822848 0.66077697
0.078291729 -0.2120229 0.66013688
0.077082008 -0.19220196 0.6534093
0.07770469 -0.16787273 0.65702617
0.27889043 1.6877376 1.7976626
0.26123294 1.6922983 1.6975874
0.243062 1.6845661 1.5946066
0.22652668 1.6864773 1.5009004
0.2110316 1.6943772 1.413093
0.19112337 1.637036 1.3002847
0.16957536 1.5361619 1.1781973
0.15590304 1.5371354 1.1007357
0.13654879 1.550243 0.99108624
0.12360894 1.5536354 0.91778004
0.10984556 1.5298492 0.83981645
0.097204238 1.5266764 0.76820809
0.085055262 1.5357285 0.69938719
0.072049201 1.497575 0.62572813
0.060811631 1.5584421 0.56205285
0.04241313 1.5680783 0.45783308
0.030117223 1.5600883 0.38818941
0.017880466 1.5546378 0.31888047
0.0054766159 1.5616848 0.24861814
-0.0068876212 1.5592463 0.17858557
-0.019232791 1.5533152 0.10866331
-0.038573481 1.5632102 -0.00089629786
-0.051318694 1.5586097 -0.073087297
-0.054022241 1.3485115 -0.088220455
0.0060023051 -0.075158529 0.25333083
0.0032809186 -0.076902568 0.23799402
0.0003004238 -0.076619238 0.22118661
-0.00176852 -0.086594 0.20955457
-0.0047737872 -0.10179135 0.19266339
-0.0070469063 -0.1093441 0.17987216
-0.0095910504 -0.11496993 0.16554278
-0.013319779 -0.1126366 0.14449067
-0.024229754 -0.078104608 0.082740538
-0.029789954 -0.070961833 0.051298287
-0.034257691 -0.072551452 0.026056686
-0.034914624 -0.095545337 0.022440048
-0.037905987 -0.10609614 0.0055766804
-0.042769168 -0.10878015 -0.021907249
-0.041062135 -0.1523979 -0.012056779
-0.041015442 -0.17507556 -0.011682858
-0.040938333 -0.19682628 -0.01113693
-0.040996693 -0.21721187 -0.011360101
-0.040748347 -0.23773889 -0.0098436419
-0.040661134 -0.25700912 -0.0092418091
-0.040754572 -0.27517763 -0.0096651735
-0.040721934 -0.29312357 -0.0093736667
-0.040730178 -0.31049296 -0.009314348
-0.040621907 -0.32765055 -0.0085943555
-0.041088924 -0.35172403 -0.011085344
-0.040877596 -0.36820447 -0.0097813439
-0.04107365 -0.38393602 -0.0107884
-0.0408285 -0.39990336 -0.0092929918
-0.040829107 -0.41546008 -0.009191772
-0.040907573 -0.43086433 -0.0095323147
-0.040892322 -0.4462364 -0.0093414383
-0.040781572 -0.46920165 -0.008556921
-0.040929694 -0.47687832 -0.0093449932
-0.041060001 -0.49999318 -0.0099280151
-0.041143946 -0.51554567 -0.010300188
-0.041131914 -0.53117096 -0.010128077
-0.04102309 -0.54684943 -0.0094071031
-0.041324411 -0.56323552 -0.011012244
-0.041518927 -0.57983792 -0.012011681
-0.041357789 -0.60463274 -0.010942262
-0.04127866 -0.62162346 -0.010389838
-0.041729841 -0.64024514 -0.012844818
-0.041729305 -0.65841842 -0.012738032
-0.041255485 -0.68537569 -0.0098954234
-0.041542049 -0.70590234 -0.011416657
-0.041819595 -0.72731781 -0.01288665
-0.042220004 -0.7502166 -0.015053184
-0.042291693 -0.77300996 -0.015355562
-0.039543301 -0.78473485 0.00033321773
-0.035397999 -0.78943944 0.023942618
-0.03325288 -0.8148663 0.036261909
-0.033212706 -0.84015429 0.03659381
-0.042962041 -0.9255321 -0.018580448
-0.042085275 -0.9709878 -0.013450685
-0.2189898 -2.3313706 -1.0162802
-0.21463291 -2.5117621 -0.99138516
-0.21466091 -2.6721599 -0.9914124
-0.21616529 -2.8649201 -0.99980646
-0.21713503 -3.0765352 -1.0051657
-0.21937625 -3.3313525 -1.0177281
-0.21064599 -3.6323435 -0.96801454
-0.21037476 -3.9513476 -0.9663192
-0.2115653 -4.3536334 -0.97289926
-0.21513368 -4.8838367 -0.9929418
-0.16514648 -9.8033075 -0.70809782
-0.083665699 -8.2139149 -0.24622691
0.03395455 -10.656622 0.42138875
0.096565902 -10.789376 0.77654034
0.15935057 -10.7905 1.1326503
0.25541055 -10.849787 1.6774608
0.32419476 -11.016292 2.0675924
0.52477169 -6.2556386 3.2047617
0.52869672 -5.8188577 3.22702
0.54514712 -5.5594535 3.3203306
0.53745681 -5.1008444 3.2767231
0.54497063 -4.8235941 3.3193579
0.55099237 -4.4120831 3.3535485
0.54893625 -4.1231647 3.3419178
0.51784086 -3.6665018 3.1655979
0.55259097 -3.6638989 3.3627186
0.54466474 -3.4021761 3.3178079
0.53829354 -3.1695542 3.2817199
0.53538805 -2.9714439 3.2652898
0.5354411 -2.7999434 3.2656405
0.54377037 -2.5945094 3.3129544
0.5156377 -2.3325024 3.1534677
0.54669988 -2.3066754 3.3296766
0.53725827 -2.1350188 3.2761908
0.53113782 -1.9840405 3.2415409
0.52850181 -1.8507712 3.2266519
0.52423525 -1.718824 3.2025177
0.5273537 -1.5525237 3.2202959
0.52593654 -1.437411 3.2123227
0.52356821 -1.3239185 3.1989572
0.52580076 -1.2208656 3.2116826
0.52755302 -1.1181917 3.2216854
0.48519287 -0.96704704 2.9815412
0.52973568 -0.8632468 3.2342315
0.51199371 -0.75133127 3.1336918
0.51881653 -0.65725005 3.1724517
0.51292557 -0.55831939 3.1391168
0.51025492 -0.46199453 3.1240435
0.090205148 -0.42180911 0.74236137
0.090087794 -0.41034964 0.74177122
0.078142934 -0.4073855 0.67414975
0.076425791 -0.40044272 0.66448808
0.075347938 -0.39301428 0.65845156
0.073899306 -0.37750959 0.65038836
0.073673785 -0.36874381 0.6491853
0.07385914 -0.36357281 0.65027434
0.073320627 -0.34542406 0.64737254
0.074489221 -0.33676705 0.6540373
0.073586985 -0.31803736 0.64907342
0.073830917 -0.30563071 0.65053308
0.074393198 -0.29118815 0.65379816
0.073982894 -0.27347854 0.65158647
0.077916622 -0.23990035 0.67397094
0.075695477 -0.22754647 0.66149092
0.074840851 -0.21563131 0.65672183
0.07458964 -0.19931509 0.65537483
0.074635901 -0.17974074 0.65571505
0.28408745 1.6771065 1.8438141
0.26598638 1.6803735 1.7412558
0.24876505 1.6850947 1.6436862
0.23193784 1.6873257 1.5483515
0.21634023 1.6971469 1.4599903
0.19514635 1.6293663 1.339887
0.16718231 1.5445472 1.181433
0.15334283 1.543739 1.1030401
0.13988122 1.5436759 1.0267903
0.12706257 1.5513046 0.95418733
0.11350058 1.5367591 0.8773666
0.10062839 1.5310395 0.80445868
0.088141449 1.5305136 0.73373622
0.06997288 1.5463006 0.63084126
0.057837989 1.5584379 0.56211758
0.045588501 1.5661443 0.49274361
0.033275608 1.5573903 0.42300764
0.021023259 1.5561703 0.35361639
0.0085433768 1.5724432 0.28293824
-0.0036397872 1.5582938 0.2139374
-0.022161365 1.5513434 0.10903936
-0.035039213 1.5596151 0.036104031
-0.047966611 1.5622216 -0.037113089
-0.057680637 1.490599 -0.092124127
0.0046936334 -0.07589414 0.26155069
0.0021393788 -0.079121642 0.24714404
-0.0010409907 -0.07577505 0.22918867
-0.0045213406 -0.086588942 0.20956783
-0.0063246246 -0.098611794 0.19941732
-0.0083198994 -0.10840468 0.18817867
-0.010653062 -0.11531346 0.17502479
-0.01380814 -0.11642141 0.15721193
-0.022361118 -0.081605226 0.10880117
-0.029668482 -0.074671201 0.067485362
-0.037024777 -0.08577016 0.025926463
-0.041248266 -0.12785912 0.0021612702
-0.043520071 -0.14179052 -0.010646489
-0.043120891 -0.16629206 -0.0083126044
-0.043404438 -0.18704738 -0.0098489542
-0.043380339 -0.20804542 -0.0096411612
-0.04335 -0.22821797 -0.0093979044
-0.043325983 -0.24762011 -0.0091904271
-0.043002624 -0.26712525 -0.0072858515
-0.04318174 -0.28473079 -0.0082299085
-0.043077759 -0.3025057 -0.0075689703
-0.043017462 -0.3197062 -0.007155688
-0.043551352 -0.34378171 -0.010075445
-0.043554738 -0.36009133 -0.010023274
-0.043283705 -0.37644354 -0.0084153153
-0.043423109 -0.39208719 -0.0091343913
-0.043465901 -0.40767771 -0.0093057957
-0.043412887 -0.42319533 -0.0089340499
-0.043438438 -0.43856823 -0.0090078646
-0.043388598 -0.46154356 -0.0086188512
-0.043528721 -0.47686422 -0.0093425419
-0.043575548 -0.49223602 -0.009537369
-0.043701366 -0.50774455 -0.01018024
-0.043903597 -0.52347469 -0.011256541
-0.043836452 -0.53916335 -0.01080562
-0.044011686 -0.55531049 -0.011729246
-0.043912239 -0.57956368 -0.011060745
-0.043827318 -0.59603316 -0.010509738
-0.044127736 -0.61358213 -0.012144077
-0.044307061 -0.63140792 -0.013092057
-0.044522155 -0.64987361 -0.01424323
-0.044128351 -0.67678159 -0.011907831
-0.044476282 -0.69721568 -0.013813254
-0.044667773 -0.7180407 -0.014832011
-0.044993076 -0.74027783 -0.016610168
-0.044852469 -0.76182687 -0.01574658
-0.042590309 -0.7871238 -0.0028185809
-0.038154267 -0.79067981 0.022406021
-0.035997581 -0.80400962 0.034703121
-0.035543464 -0.82641619 0.037343174
-0.03674081 -0.8596471 0.030615149
-0.044432223 -0.95275849 -0.012921023
-0.21833333 -2.3092885 -0.99932909
-0.21821478 -2.44754 -0.99864697
-0.21816795 -2.6003201 -0.99837893
-0.22069915 -2.7935333 -1.0127467
-0.22056602 -2.9841332 -1.0120088
-0.21400769 -3.2458014 -0.97484219
-0.21650115 -3.5346935 -0.98904479
-0.21590358 -3.8295314 -0.98572707
-0.21792051 -4.2162628 -0.9972778
-0.21699193 -4.6320853 -0.992145
-0.19106199 -9.6273432 -0.84724176
-0.1092005 -8.2287025 -0.38238809
-0.038931068 -8.318758 0.016035164
0.0018563137 -10.645021 0.2461573
0.18962099 -10.786281 1.310735
0.22307266 -10.890301 1.5006011
0.31816983 -10.839461 2.0398433
0.37883487 -10.714964 2.3838859
0.42476833 -8.8896112 2.6453106
0.3603754 -4.9125028 2.2824967
0.51975435 -6.479877 3.1853085
0.51961994 -5.9684153 3.1848671
0.53178817 -5.6502514 3.2540741
0.54958051 -5.4190221 3.3551211
0.55804628 -4.9504433 3.4034491
0.54783505 -4.5483718 3.3458326
0.54830807 -4.2657571 3.3487251
0.51216358 -3.7559919 3.1441522
0.53659046 -3.688015 3.2827299
0.54193938 -3.5019596 3.3132169
0.54559207 -3.2193553 3.3341732
0.54112405 -3.0101671 3.3090224
0.53949761 -2.828279 3.2999671
0.53894347 -2.6616697 3.296983
0.53785938 -2.5016747 3.290992
0.5302242 -2.325242 3.2478728
0.53598446 -2.2059579 3.2806616
0.53424388 -2.0000291 3.2710114
0.53043687 -1.8621961 3.2495759
0.52780885 -1.7334969 3.2348194
0.52472436 -1.608708 3.2174745
0.52286655 -1.491176 3.2070794
0.52217752 -1.37951 3.2033076
0.52307916 -1.2732421 3.2085507
0.52636552 -1.1195791 3.227376
0.52082127 -1.0094749 3.1960824
0.48315436 -0.87374616 2.9827077
0.5263958 -0.81181771 3.2279434
0.51815677 -0.70712882 3.1813726
0.51290697 -0.60727602 3.1517453
0.50947899 -0.51007134 3.1324441
0.50841659 -0.41411877 3.1265531
0.089288309 -0.42662862 0.75081539
0.0878217 -0.41599557 0.74258727
0.076734826 -0.41087857 0.67986119
0.07452292 -0.40426913 0.66740602
0.073295191 -0.39692575 0.66053045
0.071886748 -0.38121387 0.65271521
0.071629405 -0.37715 0.6512987
0.07095404 -0.35994422 0.64764035
0.07092309 -0.3502821 0.64755064
0.071655385 -0.34313759 0.65174615
0.071282521 -0.32308358 0.64980495
0.071732707 -0.31590149 0.65240139
0.071752675 -0.29816008 0.65264589
0.071692944 -0.28589937 0.65239525
0.075725965 -0.23857352 0.67544806
0.074648261 -0.23613548 0.66938078
0.073007159 -0.22050747 0.66020894
0.072570607 -0.20565668 0.65782464
0.072231501 -0.18918002 0.65599406
0.27262154 1.6809602 1.7935283
0.2538304 1.6742371 1.687094
0.23676915 1.6766386 1.5904725
0.21412401 1.7016143 1.4622597
0.19847691 1.7060764 1.3736569
0.1777377 1.6318362 1.2561332
0.15763828 1.5445201 1.1422265
0.14419988 1.547873 1.0661434
0.1308772 1.5483032 0.99071455
0.11731171 1.5371287 0.91390103
0.10411381 1.5259298 0.83917153
0.085482232 1.529534 0.73369843
0.073274858 1.5353707 0.66459745
0.060597509 1.5078588 0.59280729
0.04909819 1.5656126 0.52776092
0.03677626 1.5670996 0.4580088
0.024481056 1.5591146 0.38840118
0.012235333 1.5546696 0.31907725
-0.0063514165 1.560321 0.21386546
-0.018652001 1.5536679 0.14422995
-0.031128375 1.5514338 0.07360208
-0.044289 1.5642464 -0.00089138706
-0.057215065 1.5635248 -0.074065782
0.0030584645 -0.02553346 0.26650956
0.00315536 -0.070279099 0.26710358
0.00071488944 -0.075117864 0.25334933
-0.0032526497 -0.079300754 0.2309816
-0.0047401353 -0.079224356 0.22259197
-0.0076513188 -0.095526367 0.20620134
-0.009576926 -0.10593793 0.19536069
-0.01182211 -0.11339165 0.18271132
-0.014548871 -0.11731579 0.16733561
-0.018373134 -0.11413857 0.14574593
-0.030444201 -0.072099835 0.077491984
-0.035680458 -0.067302816 0.047901932
-0.039294384 -0.073876813 0.027496783
-0.039548147 -0.098826729 0.02611929
-0.043580364 -0.1166224 0.0033749351
-0.043973371 -0.13891619 0.0012103465
-0.046039429 -0.15347552 -0.010429351
-0.045978155 -0.17609486 -0.010019878
-0.045738 -0.19830114 -0.0085963998
-0.045628008 -0.21908048 -0.0079095094
-0.045515656 -0.23902968 -0.0072086267
-0.045570895 -0.25778252 -0.0074566039
-0.045492664 -0.27627763 -0.0069480827
-0.046112087 -0.30141735 -0.010358584
-0.045891766 -0.31902578 -0.0090442915
-0.046053618 -0.33551571 -0.0098949512
-0.045940451 -0.35213301 -0.0091872541
-0.045889769 -0.36833692 -0.0088334177
-0.045736227 -0.38438132 -0.0078966152
-0.045997988 -0.39982668 -0.0093129287
-0.045819502 -0.41548762 -0.0082346238
-0.045891292 -0.43085653 -0.0085744988
-0.046084292 -0.45381713 -0.0095678745
-0.046096794 -0.4691399 -0.009571976
-0.046016358 -0.48445347 -0.0090494631
-0.046189297 -0.49991301 -0.0099630896
-0.046267085 -0.5154649 -0.010337666
-0.046248801 -0.53108972 -0.010167997
-0.046379436 -0.55503583 -0.010809864
-0.046283595 -0.5710659 -0.010201339
-0.046586905 -0.58799201 -0.011855704
-0.046611451 -0.60485786 -0.011930416
-0.04701357 -0.62290651 -0.014146024
-0.046577647 -0.64863318 -0.011579946
-0.046667773 -0.66728753 -0.012028417
-0.046778172 -0.68665111 -0.01259261
-0.04720119 -0.70775414 -0.014930161
-0.047310594 -0.72877502 -0.015490591
-0.046807896 -0.75952005 -0.012552135
-0.046651933 -0.78181303 -0.011610446
-0.04207417 -0.7853139 0.0144067
-0.039147224 -0.79508638 0.031062759
-0.038513858 -0.81611925 0.034710482
-0.038707156 -0.84284687 0.033667937
-0.047597874 -0.93977165 -0.016690703
-0.047851451 -0.97617751 -0.018085128
-0.22157605 -2.3827362 -1.0037789
-0.22212294 -2.5336719 -1.0069549
-0.22302076 -2.70382 -1.0121403
-0.21782076 -2.9319909 -0.98279566
-0.21800785 -3.1462624 -0.98400223
-0.21876886 -3.3975768 -0.98850107
-0.21986677 -3.6924243 -0.9949559
-0.22202073 -4.0531201 -1.0074658
-0.20990184 -4.4740062 -0.93913102
-0.20888895 -4.9625521 -0.93383747
-0.14486492 -10.085301 -0.57619399
-0.063811935 -8.2354488 -0.1148851
-0.030729249 -10.63128 0.070029348
0.15565883 -10.720707 1.126169
0.22144236 -10.890412 1.4990668
0.34892067 -10.839954 2.2217214
0.34619355 -4.9653864 2.2131257
0.51594698 -6.1939273 3.1739335
0.53884971 -5.744185 3.3043206
0.55557781 -5.4956708 3.3994598
0.53240317 -4.9148526 3.2688351
0.54739761 -4.7154136 3.3540947
0.54007912 -4.3589096 3.3130805
0.54049313 -4.0916409 3.3157878
0.51777458 -3.6932478 3.1875503
0.55333775 -3.582891 3.3893018
0.54577005 -3.3306296 3.3467603
0.53762263 -3.0947342 3.3009164
0.53393537 -2.897893 3.280304
0.53480726 -2.734165 3.2854896
0.53713816 -2.5848722 3.2989266
0.51262796 -2.3378758 3.1603742
0.53636485 -2.285305 3.2950015
0.53365922 -2.0709798 3.2800002
0.52805638 -1.9246778 3.2484751
0.52588183 -1.7948885 3.2363582
0.52211392 -1.6662116 3.2152107
0.52016389 -1.5467892 3.2043536
0.52066457 -1.4361449 3.207372
0.52112478 -1.2741263 3.2102466
0.52285713 -1.1707264 3.2202337
0.52495849 -1.068863 3.2323091
0.4824321 -0.92231047 2.9915745
0.52330959 -0.862091 3.2233052
0.50051576 -0.74750376 3.0943398
0.51355302 -0.65734303 3.1683595
0.51007468 -0.55904144 3.1488132
0.50643742 -0.41440746 3.128442
0.085576147 -0.42156875 0.74425894
0.072806694 -0.41241381 0.67208946
0.071064003 -0.39641744 0.6623978
0.069962166 -0.38912991 0.65624547
0.069152981 -0.38154706 0.65175134
0.068896092 -0.37749949 0.65034121
0.068532273 -0.36434394 0.64841646
0.068532333 -0.35471371 0.64850831
0.068975158 -0.34853718 0.6510638
0.069235802 -0.3321934 0.65267867
0.068863712 -0.31696913 0.65070778
0.068608202 -0.30046186 0.64939797
0.068978556 -0.28650942 0.65158987
0.072062664 -0.25900194 0.66916519
0.072202764 -0.23547743 0.67010039
0.070913866 -0.22615226 0.66288823
0.070409879 -0.21202977 0.66012591
0.069901317 -0.19708034 0.65733802
0.069383293 -0.17098656 0.65454519
0.27814624 1.6686143 1.8386068
0.25365621 1.6955202 1.6999853
0.23536247 1.6870029 1.596411
0.21989834 1.7014529 1.5088816
0.20326628 1.6969435 1.4147245
0.18054654 1.6019307 1.2860261
0.1616949 1.5379215 1.1792612
0.14850716 1.5474427 1.1046274
0.13465707 1.5407428 1.0262321
0.11518097 1.5448471 0.9160071
0.10178643 1.5298082 0.84018886
0.089465879 1.5374817 0.77046788
0.076876722 1.5317546 0.69921809
0.064958386 1.5522738 0.63178325
0.052874688 1.5724221 0.56341136
0.040458787 1.5681746 0.49314466
0.021987306 1.5591382 0.38860711
0.0097377133 1.554702 0.3192834
-0.0025715188 1.5547901 0.24962448
-0.01503109 1.558347 0.17911591
-0.027488915 1.5563864 0.10861475
-0.040306874 1.5616971 0.036077321
-0.053216778 1.563329 -0.036982495
-0.066511355 1.4351832 -0.1122454
-0.00058496633 -0.073977374 0.2608054
-0.0045507681 -0.077717073 0.23846312
-0.0074453168 -0.078297153 0.22214915
-0.0091546541 -0.091700092 0.21254383
-0.01102165 -0.10276479 0.2020466
-0.013091698 -0.11163112 0.19040021
-0.015510496 -0.11764786 0.17677954
-0.018655097 -0.1186891 0.15904945
-0.031084683 -0.071264468 0.088782862
-0.042936552 -0.06824892 0.021855401
-0.046362963 -0.10338546 0.0026007351
-0.058010112 -0.089473113 -0.063245989
-0.048162751 -0.14400989 -0.0074404404
-0.048039373 -0.16727832 -0.0066650873
-0.048318397 -0.18797459 -0.008168052
-0.048139386 -0.2094129 -0.0070763896
-0.048801783 -0.23713976 -0.010710263
-0.048712954 -0.256441 -0.010128113
-0.048644926 -0.27503189 -0.0096633472
-0.048770607 -0.29261872 -0.01029531
-0.048777107 -0.31002048 -0.0102519
-0.048666812 -0.3272109 -0.0095466189
-0.048442308 -0.34416458 -0.0081940824
-0.048445087 -0.36040622 -0.0081286244
-0.048685625 -0.37611678 -0.0094096009
-0.048863769 -0.39961466 -0.010295985
-0.048861783 -0.4152056 -0.01020266
-0.048764199 -0.43071416 -0.009567583
-0.048745725 -0.44608581 -0.0093804207
-0.049155489 -0.46140549 -0.011618788
-0.048776906 -0.4767268 -0.0093913861
-0.048999984 -0.49216771 -0.010571917
-0.049501594 -0.51575726 -0.013288366
-0.048797242 -0.53086156 -0.00921496
-0.048857134 -0.54669577 -0.0094705271
-0.049664199 -0.56375486 -0.013958461
-0.049180023 -0.57942426 -0.011131756
-0.04959704 -0.59676963 -0.0134099
-0.049402311 -0.61344194 -0.012222525
-0.049388543 -0.63971382 -0.012017834
-0.058282688 -0.68061322 -0.06231663
-0.049727902 -0.67751664 -0.013770835
-0.049200833 -0.7052595 -0.010657676
-0.049628351 -0.72715861 -0.012994369
-0.049881008 -0.74951214 -0.014340377
-0.049953848 -0.77227598 -0.014667607
-0.046092648 -0.77916372 0.0072909342
-0.042379461 -0.78551286 0.028411152
-0.041699264 -0.80584502 0.032350138
-0.040496867 -0.83722627 0.039290473
-0.050272383 -0.92249173 -0.015999723
-0.2256292 -2.1930454 -1.0091838
-0.22590838 -2.3230865 -1.0106757
-0.22674468 -2.4698036 -1.0153227
-0.22093928 -2.6566648 -0.98229945
-0.22280721 -2.8516598 -0.99278808
-0.22343619 -3.0586383 -0.99625719
-0.22531499 -3.3077784 -1.0068047
-0.22783695 -3.6022689 -1.0209935
-0.22815685 -3.915659 -1.0227064
-0.2155733 -4.2902775 -0.95127422
-0.22045223 -4.8358784 -0.97880411
-0.16903321 -9.6084318 -0.68683153
-0.092475034 -8.2704659 -0.25309679
-0.0048796567 -10.664935 0.2434064
0.056995008 -10.655073 0.59401131
0.15182571 -10.810567 1.1313589
0.2479265 -10.859967 1.6759627
0.3117263 -10.839838 2.0373297
0.52606928 -6.3569722 3.2514408
0.52180594 -5.8230462 3.2273436
0.53734767 -5.5540705 3.3154221
0.53551471 -5.1498656 3.3051014
0.54479092 -4.8839827 3.357702
0.5339129 -4.4810886 3.2961636
0.53572708 -4.2128491 3.3065107
0.51201946 -3.6762064 3.1723609
0.54781312 -3.6792283 3.3751507
0.5391075 -3.4120581 3.3259296
0.53494704 -3.1907003 3.3024514
0.53098083 -2.9859014 3.2800756
0.52976596 -2.807544 3.2732832
0.53035253 -2.6472867 3.2766941
0.5077337 -2.3303518 3.1487362
0.5386681 -2.304188 3.3240161
0.53265911 -2.1442053 3.2900801
0.52504581 -1.9880018 3.2470603
0.52226877 -1.854073 3.2314305
0.51959968 -1.7260015 3.2164133
0.51712179 -1.6033496 3.2024798
0.51892257 -1.438405 3.2128294
0.51904559 -1.329268 3.2136285
0.51912248 -1.2223128 3.2141678
0.52070981 -1.1193153 3.2232623
0.48376006 -0.97415799 3.014112
0.49498823 -0.88969147 3.0778072
0.51764619 -0.80976182 3.2062352
0.5133779 -0.70783776 3.1821725
0.50988245 -0.55982172 3.1625443
0.50425225 -0.46264914 3.1307714
0.082974985 -0.42146188 0.74522996
0.082507946 -0.41021064 0.74268317
0.070711523 -0.40696937 0.67601913
0.06881728 -0.40019748 0.66538864
0.067565829 -0.39300889 0.65839875
0.06653028 -0.38122466 0.65268099
0.065582484 -0.3647362 0.64750999
0.065426245 -0.35555983 0.64672399
0.065715067 -0.34985298 0.64840955
0.066138774 -0.33316386 0.65095884
0.066062972 -0.3225778 0.65062934
0.06619852 -0.31077322 0.65149742
0.066714339 -0.29059374 0.65457058
0.066456594 -0.27878705 0.65321183
0.070485622 -0.23793161 0.67619038
0.068829328 -0.23044629 0.66691011
0.068120681 -0.2176901 0.66299897
0.066747583 -0.1993084 0.65537602
0.066454679 -0.18203147 0.65382189
0.25999317 1.6953423 1.7511375
0.24143483 1.6882925 1.6461452
0.22464225 1.6914998 1.5511582
0.20777375 1.687047 1.4557378
0.19269185 1.6976875 1.3704431
0.16487584 1.522305 1.2129389
0.15207581 1.538767 1.1405692
0.13264917 1.5550542 1.0307281
0.11897478 1.5463995 0.95339465
0.10522541 1.5269614 0.87563074
0.092723474 1.5310051 0.80494422
0.080189012 1.5295113 0.73407072
0.068200089 1.546281 0.66629726
0.056074571 1.5606643 0.59774947
0.037592426 1.566197 0.49325499
0.025259348 1.5634626 0.42352262
0.013005368 1.5532639 0.35423389
0.00071740116 1.5536008 0.28475925
-0.011753011 1.5604142 0.21425578
-0.024335302 1.5646698 0.1431175
-0.043101091 1.5578334 0.037011839
-0.055998616 1.5595011 -0.035912473
-0.0025523682 0.059717022 0.2659713
-0.0032234667 -0.077616185 0.26237538
-0.0058470522 -0.079904579 0.24761553
-0.0090298625 -0.076537475 0.22969291
-0.011109139 -0.086235218 0.21801017
-0.012754028 -0.099718258 0.20878446
-0.015825249 -0.11323932 0.19153079
-0.018032767 -0.12083334 0.17912301
-0.020840287 -0.12415388 0.16332072
-0.02555993 -0.11515876 0.1366999
-0.038040109 -0.07303156 0.066208363
-0.04517556 -0.085581467 0.025990766
-0.048514977 -0.11963291 0.007251617
-0.051725585 -0.16441385 -0.010718519
-0.051874712 -0.18578659 -0.011482121
-0.051708981 -0.20734467 -0.01046328
-0.05153076 -0.22801742 -0.009373311
-0.0518222 -0.24654189 -0.010941332
-0.051506333 -0.2661106 -0.0090716239
-0.051370718 -0.28452986 -0.0082219094
-0.051432859 -0.30196232 -0.0084914295
-0.051377289 -0.31919569 -0.0080944905
-0.051750705 -0.34357944 -0.010084793
-0.051659044 -0.37605006 -0.0094010001
-0.051630702 -0.39188454 -0.0091581466
-0.051799275 -0.42290467 -0.0099481149
-0.051654365 -0.43836489 -0.0090455636
-0.051577773 -0.47662574 -0.0084076058
-0.051801153 -0.49203172 -0.0095912842
-0.051790502 -0.5229919 -0.0093694273
-0.051899042 -0.53878474 -0.0099039227
-0.051816635 -0.57884085 -0.0092387106
-0.052070018 -0.59582704 -0.010595447
-0.052392825 -0.63084263 -0.012269099
-0.05229269 -0.64849472 -0.011625548
-0.051913191 -0.67526013 -0.0093627097
-0.052425481 -0.69606918 -0.012190945
-0.053227425 -0.71883106 -0.016661672
-0.052811686 -0.73847955 -0.01423453
-0.050838355 -0.7752133 -0.0029129388
-0.045469202 -0.7860781 0.027617099
-0.043995433 -0.80250281 0.036037304
-0.043423552 -0.82417637 0.039344665
-0.045619305 -0.86298412 0.026961541
-0.052472048 -0.95106232 -0.011800413
-0.2243675 -2.4292388 -0.98653322
-0.22549009 -2.5906944 -0.9929949
-0.2269641 -2.7735198 -1.0014739
-0.22650445 -2.9593763 -0.99901062
