# .PCD v0.7 - Point Cloud Data file format
VERSION 0.7
FIELDS x y z
SIZE 4 4 4
TYPE F F F
COUNT 1 1 1
WIDTH 239
HEIGHT 1
VIEWPOINT 0 0 0 1 0 0 0
POINTS 239
DATA ascii
0.091899201 -0.12189002 0.0024109937
-0.10977821 -0.1092506 0.0024695699
-0.034455657 -0.10917156 0.0025336039
-0.026240759 -0.10919709 0.0024871202
0.00048948807 -0.10923009 0.0024589284
0.01928887 -0.10926956 0.0024691822
0.027386257 -0.1092603 0.0024948784
-0.042803362 -0.10896242 0.0026151028
0.051693741 -0.095816083 0.0020752759
0.062358376 -0.095848612 0.0020951629
0.070628628 -0.0958253 0.0021031296
-0.10698912 -0.068707414 0.0023012238
0.086452402 -0.068749376 0.0022821871
0.10265764 -0.06872566 0.0023059545
0.097523011 -0.054983672 0.002937932
-0.1175189 -0.13502347 0.0034989247
0.08142639 -0.13505074 0.0034749147
0.022355687 -0.12316354 0.0039760792
0.10292347 -0.12314338 0.0039725336
-0.10686055 -0.12249593 0.0031994467
-0.031485505 -0.12247149 0.0032389022
-0.023221981 -0.12249437 0.0032151919
-0.020710319 -0.12252235 0.0032109753
-0.0045603435 -0.12252381 0.0031821725
0.041199282 -0.12251749 0.0031742651
0.078818366 -0.12248359 0.0031919221
0.086573571 -0.12253807 0.0031848748
0.035738535 -0.11055247 0.0039816261
0.046540424 -0.11052946 0.0039817579
0.11375376 -0.11054908 0.0039843409
-0.047839902 -0.10954154 0.0034158719
0.025044817 -0.10990005 0.0032563587
-0.10147501 -0.097114809 0.003600915
-0.074664719 -0.097102657 0.0036032344
0.10286785 -0.097177088 0.0035778114
0.065221161 -0.08366368 0.0035029382
0.1055294 -0.083686553 0.0035075543
0.10282667 -0.040451411 0.0031867698
-0.018000504 -0.13565904 0.0042523271
0.035771433 -0.13564795 0.004240701
0.10563406 -0.13563091 0.0042644455
-0.095563859 -0.12373737 0.0047473689
-0.045141988 -0.12343521 0.004889742
0.030504394 -0.12377998 0.0047418079
-0.10378843 -0.11114068 0.0047628828
-0.098498471 -0.11112473 0.00477042
-0.017896229 -0.1112064 0.004746655
-0.095619403 -0.097797871 0.0043310788
-0.053016271 -0.097524047 0.0044498676
0.041414771 -0.097836547 0.0042878715
0.060245607 -0.097814232 0.0043267398
0.079025298 -0.09780331 0.0043078586
-0.079691306 -0.085049048 0.0049831476
0.057527173 -0.085001469 0.0049674092
-0.098568499 -0.084302112 0.0042502922
-0.085063122 -0.084386222 0.0042188428
0.097742699 -0.084352642 0.004240822
0.11381168 -0.084369108 0.0042160754
0.100438 -0.070730425 0.0044662356
0.081796035 -0.11185645 0.005499328
0.097957388 -0.11181875 0.005517093
0.10586896 -0.11182114 0.0055149011
-0.082338661 -0.098526321 0.005069626
-0.066269323 -0.098373629 0.005112133
-0.092969745 -0.085661322 0.005686536
0.054898538 -0.085657723 0.0056832749
0.07377588 -0.085660413 0.0057113292
-0.10117502 -0.071391515 0.0052127033
0.08982569 -0.057077073 0.0050034309
0.10887178 -0.043283649 0.0059829759
0.11127073 -0.042573635 0.005267364
0.11685602 -0.042583466 0.0052605383
-0.082140952 -0.12506829 0.006274885
-0.0012757207 -0.11308331 0.0069783619
0.017527375 -0.11315006 0.0069992905
0.049632616 -0.099764317 0.0065383352
-0.12784144 -0.086414553 0.0064314371
-0.10903069 -0.072813772 0.0066143121
0.076609194 -0.072772019 0.0066462019
0.092668153 -0.072822794 0.0065951315
0.10897326 -0.072821401 0.0066374871
0.025856581 -0.15042029 0.0079962891
-0.028101088 -0.11371057 0.0077811317
-0.009369622 -0.11378873 0.0077399593
0.076711506 -0.10041185 0.0073107737
-0.071119793 -0.087598994 0.0079020215
0.044567268 -0.087030001 0.0071231471
-0.090023965 -0.073470749 0.0073283394
0.11720403 -0.073510297 0.0073321457
-0.12207027 -0.059887964 0.0079231206
-0.11668788 -0.059857965 0.0079035722
-0.11960272 -0.044723399 0.0074142977
0.01771198 -0.13875295 0.0081217829
-0.12489383 -0.1011521 0.0080621801
-0.10586268 -0.10175144 0.0087740952
0.031101167 -0.10112062 0.008042126
0.10933867 -0.10177325 0.0087898085
0.082357623 -0.088405572 0.0086128889
-0.11383577 -0.074181877 0.0080620274
0.084749714 -0.074222006 0.0080609461
-0.11123782 -0.060543269 0.0085698245
-0.11369687 -0.046108574 0.0087518813
-0.12485606 -0.045439836 0.0080861337
0.092936665 -0.045406345 0.0080281422
0.10108567 -0.045360543 0.0080617238
-0.0090440717 -0.13997965 0.0096600633
0.090533763 -0.11504088 0.009229796
-0.094687648 -0.075510658 0.0095191272
-0.11098298 -0.15221713 0.01031532
-0.11338278 -0.11632556 0.010777398
-0.11634579 -0.11568598 0.010050831
-0.11096495 -0.10307584 0.010245754
0.085122325 -0.10312178 0.010261029
0.095913097 -0.1030915 0.010252014
0.1014471 -0.10303988 0.010265539
-0.11074857 -0.11696226 0.011516203
0.088098615 -0.10441741 0.01173072
0.091081351 -0.091721907 0.012231733
0.093949206 -0.1063668 0.013951976
-0.067266859 -0.09294489 0.013770727
-0.026957924 -0.14359671 0.014353874
-0.11844867 -0.10639133 0.014030145
0.0028767884 -0.095042489 0.015910573
0.021677177 -0.095081568 0.015920211
-0.12078881 -0.094430439 0.015244767
-0.045711681 -0.094047427 0.015387559
-0.0053548929 -0.094444938 0.015188578
-0.085747235 -0.081002198 0.015252054
-0.11515735 -0.095739 0.016689461
-0.048001826 -0.095388249 0.016844681
-0.053753559 -0.094819307 0.016031168
-0.056147691 -0.082176283 0.016797397
-0.058733117 -0.096937925 0.018212847
0.017115975 -0.084467232 0.018873896
0.054666363 -0.084364504 0.018857308
0.035729785 -0.083727084 0.018149925
0.046514496 -0.083723582 0.018121613
-0.066410042 -0.070161067 0.018542303
0.067964874 -0.041595504 0.018886838
0.0091908956 -0.11160854 0.019929321
0.025143597 -0.085113108 0.019595249
-0.063688755 -0.084980674 0.019641811
0.068134017 -0.071637571 0.019934513
0.030364443 -0.070974812 0.019226626
-0.0094957892 -0.11229438 0.020647539
-0.071699761 -0.085702963 0.020339303
-0.05017262 -0.085473411 0.020445893
0.033281133 -0.085782781 0.020317741
0.044251438 -0.085779041 0.020279033
0.049501639 -0.072347783 0.020622956
-0.098443404 -0.05806851 0.020623397
0.089777648 -0.028609185 0.020931564
-0.039377544 -0.10013633 0.021924032
-0.031032968 -0.10033903 0.021840194
-0.0228195 -0.10036424 0.021794124
0.030803887 -0.10042504 0.02180081
-0.009290236 -0.087167479 0.021726312
0.0066847662 -0.087137148 0.021745119
-0.042109225 -0.086811431 0.021923076
-0.020054011 -0.086438775 0.021042459
-0.0013896315 -0.08646743 0.021009622
0.065850049 -0.029302031 0.021636009
0.082108915 -0.029289857 0.02162054
-0.068477541 -0.074337676 0.022776987
-0.02263031 -0.074387468 0.022765014
0.020331167 -0.074479915 0.022745557
0.057921991 -0.074403539 0.022753673
0.060680125 -0.074415088 0.022769049
-0.073820703 -0.073716111 0.022081174
0.038948547 -0.07375966 0.022038268
0.068656325 -0.01472695 0.022719946
0.092859916 -0.014011224 0.022002026
-0.017025676 -0.10243498 0.023990244
-0.014490433 -0.10244983 0.023984762
0.012331 -0.10173228 0.02323663
-0.027806202 -0.08914499 0.023948422
-0.003883318 -0.075184286 0.023451572
0.063633054 -0.060939375 0.023388874
-0.076360822 -0.046675764 0.023689205
0.050050329 -0.046646446 0.023654249
0.063693248 -0.031493563 0.023651255
0.087524541 -0.03155138 0.023634776
0.076933526 -0.015458534 0.02339007
0.020663377 -0.10313375 0.024705758
-0.035910316 -0.089655891 0.024736354
-0.030468537 -0.076446593 0.024936082
-0.038942803 -0.075549945 0.024320595
0.0043461639 -0.075808235 0.024151035
0.01251164 -0.075806513 0.024159126
0.028763818 -0.075833797 0.024192041
0.045057241 -0.062375199 0.024740854
-0.092103429 -0.061630275 0.024089055
-0.06287875 -0.061552595 0.024131514
0.058216192 -0.047337946 0.024346376
0.085110813 -0.016268933 0.024016367
-0.033203039 -0.15212844 0.025272423
-0.0062376643 -0.1037991 0.025423909
-0.081280999 -0.077246033 0.02558486
-0.024926253 -0.077178806 0.025611147
-0.046533924 -0.076183431 0.025070636
-0.086811461 -0.063051254 0.025452156
0.07191503 -0.063049741 0.025483472
-0.10283922 -0.048796941 0.025712166
-0.089532919 -0.048059717 0.025031116
-0.081368037 -0.048120953 0.025024131
0.053047117 -0.033669818 0.02565195
0.012906617 -0.12979853 0.026606593
0.0022467065 -0.1050761 0.026881324
-0.024838559 -0.10439237 0.026197966
-0.011366522 -0.091261201 0.026065689
0.015546601 -0.091252528 0.026060782
0.042337496 -0.091240287 0.026053783
0.0022742318 -0.078583047 0.026978618
-0.032970458 -0.077786542 0.026383065
-0.014065509 -0.077938646 0.02629843
-0.0060748588 -0.077949822 0.026274044
-0.057171311 -0.064359188 0.026953803
-0.07065767 -0.063713834 0.026197843
0.034328397 -0.063793071 0.026173407
0.055967327 -0.063739695 0.026155027
0.085517086 -0.049564 0.0263942
-0.046116069 -0.15376425 0.027679306
-0.032746281 -0.10564339 0.027721893
-0.016351964 -0.079313137 0.027721003
-0.078345016 -0.065236442 0.027564397
0.023752259 -0.065216057 0.027545063
-0.048993755 -0.064193591 0.027006222
-0.043506596 -0.064857021 0.027757922
-0.067575961 -0.050869238 0.027790548
0.048120469 -0.050248004 0.027054485
0.010713252 -0.079997234 0.02842599
0.016069716 -0.066635683 0.028939616
0.072404422 -0.0045921593 0.028052274
0.053735569 -0.06728594 0.029639881
0.064937279 -0.0076223058 0.030630689
0.019394703 -0.069497474 0.031739935
0.038045205 -0.054567326 0.031187983
-0.040208858 -0.069827542 0.032613151
-0.043591287 -0.06502597 0.041642327
