# .PCD v0.7 - Point Cloud Data file format
VERSION 0.7
FIELDS x y z
SIZE 4 4 4
TYPE F F F
COUNT 1 1 1
WIDTH 1422
HEIGHT 1
VIEWPOINT 0 0 0 1 0 0 0
POINTS 1422
DATA ascii
0.80185091 -2.3465734 3.1749911
0.82798481 -2.3019419 3.3232872
0.81987244 -2.1350341 3.2773066
0.81452197 -1.9863793 3.2469957
0.8119024 -1.852927 3.2321784
0.81298625 -1.6751493 3.2383924
0.81160039 -1.5559952 3.2305756
0.81201196 -1.4441051 3.2329552
0.80868936 -1.3281317 3.214154
0.80927134 -1.2219533 3.2175014
0.81035572 -1.1181759 3.2236989
0.76886022 -0.96795589 2.9883761
0.81537306 -0.9166131 3.2522511
0.79204667 -0.74942034 3.1200137
0.80336511 -0.65763438 3.1842594
0.79990971 -0.55878025 3.1647084
0.79724377 -0.46155146 3.1496351
0.37384671 -0.43265346 0.74840647
0.35844994 -0.41887358 0.66127539
0.35730669 -0.40715334 0.65490776
0.35677037 -0.39921638 0.65194356
0.35652009 -0.39083806 0.65060139
0.35634828 -0.37307563 0.6497817
0.3568927 -0.36234701 0.65294623
0.35971537 -0.34495011 0.66903019
0.35912311 -0.33583766 0.66574824
0.35786554 -0.32875553 0.65869361
0.35717034 -0.31995818 0.65482801
0.35652643 -0.30502003 0.65129137
0.35638234 -0.2934877 0.65055066
0.35655716 -0.27997437 0.65161794
0.35601044 -0.26215294 0.64863181
0.35641518 -0.24540164 0.65100217
0.35666716 -0.21989729 0.6525436
0.61933005 1.6942183 2.1418672
0.58909702 1.7017245 1.9705136
0.56813604 1.6897643 1.8517144
0.54996294 1.6933005 1.7487226
0.53145164 1.6861522 1.6438162
0.51478612 1.6901515 1.5493755
0.49795762 1.6856259 1.4540133
0.48312634 1.6989411 1.3699733
0.45540318 1.5244325 1.2128745
0.43442869 1.5183196 1.0940406
0.42234522 1.5409052 1.0255833
0.40851232 1.5262778 0.94721586
0.39553553 1.5222192 0.87370098
0.38315284 1.5281594 0.80355275
0.37104014 1.5404449 0.73493427
0.35898742 1.5562465 0.66665542
0.34661251 1.5566902 0.59655428
0.32817662 1.5581679 0.49212015
0.31591469 1.5603989 0.42266011
0.30359834 1.5671619 0.35289073
0.29129642 1.5634533 0.28320646
0.27895182 1.5612557 0.21328032
0.26657969 1.5575546 0.1431988
0.25381601 1.5641475 0.070894219
0.23480444 1.5592413 -0.036797959
0.22214226 1.5513873 -0.10852146
0.21870868 1.3668525 -0.12785703
0.20343426 1.4171433 -0.21441101
0.239673 0.67923301 -0.0086020008
0.23231538 0.66969812 -0.050242331
0.22549452 0.65224999 -0.088835955
0.14588507 1.3775786 -0.54038537
0.22312945 0.49960485 -0.10203902
0.21868581 0.46756721 -0.12714693
0.23975812 0.21101125 -0.0074907597
0.24029262 0.15767629 -0.0043620728
0.23980862 0.11740813 -0.0070131468
0.23993555 0.076182306 -0.0061993613
0.23989603 0.039524429 -0.0063307704
0.23913927 0.010120384 -0.010531656
0.23987165 -0.026025018 -0.0062859929
0.23954807 -0.053767812 -0.0080308346
0.23959689 -0.081744678 -0.0076638698
0.23961943 -0.10792486 -0.0074464236
0.23986408 -0.13361375 -0.0059696534
0.23883498 -0.16411234 -0.011673433
0.2388303 -0.18604499 -0.011611506
0.23899601 -0.20760304 -0.010583416
0.23902096 -0.22780626 -0.010354076
0.23903976 -0.24723965 -0.010159639
0.23919943 -0.26636961 -0.0091666421
0.23917423 -0.28441429 -0.0092221266
0.23911045 -0.30187985 -0.0094965706
0.23932958 -0.31945547 -0.0081668459
0.23916671 -0.3359127 -0.0090034585
0.23927844 -0.35249659 -0.0082828486
0.23932758 -0.36866689 -0.0079173353
0.23890698 -0.39199013 -0.010172215
0.23886095 -0.40761536 -0.010346397
0.23891091 -0.42316785 -0.0099763097
0.23888251 -0.43857574 -0.010050563
0.23877408 -0.45392454 -0.010578674
0.23893237 -0.46926525 -0.0095943194
0.23883645 -0.48463151 -0.010051385
0.23878182 -0.50780535 -0.010230764
0.23874901 -0.52339661 -0.010329887
0.23864153 -0.53922457 -0.010852206
0.23846361 -0.555372 -0.011773812
0.23822057 -0.57192022 -0.013064518
0.23825276 -0.58839709 -0.012794564
0.23806149 -0.60560584 -0.013791481
0.23831762 -0.63111204 -0.012207698
0.23809718 -0.64954567 -0.013369445
0.23769341 -0.66910958 -0.015570184
0.23758981 -0.68859929 -0.016069032
0.2379307 -0.71760416 -0.014003324
0.23804064 -0.73822206 -0.013290859
0.2378764 -0.76077241 -0.014132346
0.23747244 -0.78547388 -0.016332127
0.23713988 -0.81129998 -0.018126717
0.23791058 -0.84671098 -0.013621456
0.23798907 -0.8742134 -0.01308477
0.23757279 -0.90637457 -0.015351555
0.23686381 -0.94283509 -0.019276379
0.061812803 -2.3934841 -1.0110184
0.059803654 -2.5569754 -1.0222651
0.066002883 -2.7521627 -0.9869169
0.064725846 -2.9531395 -0.99399841
0.063397609 -3.1810625 -1.0013601
0.062033374 -3.4419844 -1.0089135
0.061144006 -3.7375569 -1.0137614
0.057821989 -4.1183953 -1.0323702
0.1225772 -8.3055029 -0.66307253
0.17306815 -8.1840591 -0.37676603
0.21854898 -8.3224077 -0.11877005
0.37669802 -10.829306 0.77905738
0.4418444 -11.00489 1.1485568
0.53486848 -10.828794 1.6760828
0.59867793 -10.81856 2.0379455
0.70899653 -8.9521637 2.662976
0.63054991 -4.9714856 2.2169859
0.65874338 -4.9188557 2.3769009
0.80095327 -6.2103744 3.183784
0.80037719 -5.7284703 3.1804194
0.82540303 -5.5617146 3.3223345
0.80734009 -5.0072265 3.2197928
0.83502865 -4.7458572 3.3768115
0.8281821 -4.3901787 3.3379407
0.82829475 -4.1181622 3.3385596
0.79990989 -3.6797678 3.1775348
0.82976931 -3.6460044 3.3469071
0.82309186 -3.3926468 3.3090322
0.81565291 -3.1548994 3.2668452
0.81502342 -2.9691453 3.2632878
0.82179463 -2.7457924 3.3017182
0.82352358 -2.5929978 3.3115449
0.7972579 -2.338336 3.1626017
0.82585502 -2.3031578 3.3248165
0.8159458 -2.1301866 3.2686455
0.8117944 -1.9855907 3.2451324
0.80901545 -1.8517601 3.2294052
0.81217045 -1.6792036 3.2473483
0.80870199 -1.5550655 3.2277143
0.806647 -1.4383887 3.2160974
0.80727792 -1.3300281 3.2197127
0.80703378 -1.222353 3.2183659
0.80862981 -1.119216 3.2274551
0.76695997 -0.96865755 2.9912033
0.81169647 -0.86445081 3.2449417
0.79465556 -0.75258404 3.1483524
0.80097032 -0.65776747 3.1841991
0.79647464 -0.55870181 3.158747
0.79189903 -0.46168038 3.1328421
0.3711634 -0.43277514 0.7473976
0.35709628 -0.42220023 0.66778409
0.35547018 -0.4106831 0.658674
0.35479528 -0.4071832 0.65488404
0.35425976 -0.39924586 0.65192074
0.35378334 -0.386839 0.64932889
0.35436538 -0.38120586 0.65266502
0.35468706 -0.36647108 0.65459746
0.35721061 -0.34497881 0.66901195
0.35661918 -0.33586597 0.66573083
0.35536224 -0.3287833 0.65867704
0.35466787 -0.31998554 0.65481228
0.35402536 -0.30504686 0.65127695
0.35439217 -0.29757804 0.65339154
0.35405838 -0.28000066 0.65160537
0.35351327 -0.26217875 0.64862055
0.35404649 -0.24474524 0.65171206
0.35429421 -0.21920316 0.65321887
0.61729044 1.6964808 2.143754
0.58641827 1.699235 1.9688057
0.56498253 1.6830735 1.8473376
0.54611081 1.6796772 1.740402
0.52907056 1.686101 1.6438459
0.51215839 1.6874547 1.5480185
0.49557278 1.6855811 1.4540435
0.48081142 1.6998127 1.3704046
0.45346293 1.5308857 1.215485
0.43333328 1.5400331 1.1014431
0.41959172 1.5341798 1.0235962
0.40647399 1.5339763 0.94928342
0.39325386 1.5251158 0.87439412
0.38078704 1.5291167 0.80376941
0.36842358 1.5325211 0.73373067
0.35661113 1.5572186 0.66680455
0.33817285 1.5664297 0.56234902
0.3257924 1.5601511 0.49221793
0.31351948 1.566385 0.42268911
0.30123943 1.5611534 0.35312587
0.2888664 1.5664355 0.28302914
0.27654073 1.5622414 0.21320593
0.26389882 1.5694306 0.14158246
0.24512339 1.5625085 0.035219397
0.23233812 1.5611867 -0.037213262
0.21993458 1.5475215 -0.10747448
0.21616207 1.3697199 -0.12869568
0.20160854 1.4076883 -0.21117944
0.2371846 0.68016285 -0.008936977
0.22955146 0.67429775 -0.052148376
0.22299694 0.65315408 -0.089234374
0.22103688 0.49610433 -0.10011263
0.21607824 0.46927992 -0.12814482
0.23722188 0.21184628 -0.0080121886
0.23735186 0.16176851 -0.0071715424
0.23799127 0.11261265 -0.0034422635
0.23749085 0.076178774 -0.0061844592
0.23756459 0.038766213 -0.0056696637
0.23775901 0.0035347203 -0.0044717728
0.23742557 -0.026028443 -0.0062706377
0.2376096 -0.05649922 -0.0051342575
0.23741248 -0.083060153 -0.0061615328
0.23744273 -0.10918682 -0.0058996505
0.23642765 -0.14126316 -0.011525028
0.23638885 -0.16411552 -0.011656488
0.23653148 -0.18657805 -0.010759027
0.23670043 -0.20810616 -0.0097128563
0.23657523 -0.22780934 -0.010335976
0.23659427 -0.2472427 -0.010141119
0.23659556 -0.26596585 -0.01004737
0.23672925 -0.2844173 -0.0092027169
0.2366658 -0.3018828 -0.0094766971
0.23688519 -0.31945843 -0.0081464862
0.23672271 -0.3359156 -0.0089826109
0.23666632 -0.35225752 -0.0092170388
0.23660673 -0.37631461 -0.0094270501
0.23646434 -0.3919929 -0.010149554
0.23641871 -0.40761811 -0.010323189
0.23646906 -0.42317057 -0.0099525405
0.23661445 -0.43863076 -0.0090427604
0.23633303 -0.45392719 -0.010553756
0.23649168 -0.46926787 -0.0095687993
0.23629685 -0.49236885 -0.010545836
0.2363421 -0.50780785 -0.010203709
0.23613769 -0.52353829 -0.011277407
0.23620255 -0.53922701 -0.010823868
0.23602499 -0.55537444 -0.011744815
0.23578231 -0.5719226 -0.013034852
0.23620319 -0.59609723 -0.010518491
0.23606437 -0.61332101 -0.011218762
0.23588027 -0.6311143 -0.012175536
0.23581994 -0.64915723 -0.012430024
0.23557137 -0.66826659 -0.013751435
0.23515306 -0.68860143 -0.016034588
0.235494 -0.71760625 -0.013967647
0.23501471 -0.74034375 -0.016594999
0.23543966 -0.76077449 -0.014094957
0.23503564 -0.78547591 -0.016293846
0.2348398 -0.81068623 -0.017311446
0.2354731 -0.84671295 -0.013580783
0.23516996 -0.87626123 -0.015203754
0.23488864 -0.9077906 -0.016701514
0.23418771 -0.94429964 -0.020575806
0.058104821 -2.4030728 -1.0180763
0.063722447 -2.5822687 -0.985973
0.062519282 -2.7614968 -0.9925949
0.061985474 -2.9557438 -0.99540883
0.060009301 -3.1907816 -1.0063745
0.057548378 -3.4653602 -1.0200609
0.056503758 -3.7649708 -1.025695
0.064399436 -4.1735067 -0.98049974
0.066403538 -4.5651422 -0.96877229
0.12120687 -8.2470837 -0.65479708
0.17129101 -8.1273756 -0.37070429
0.21555422 -8.3343801 -0.11938987
0.3107934 -10.745614 0.42278823
0.37297094 -10.719365 0.77555799
0.4680205 -10.816073 1.314932
0.52981466 -10.738455 1.6654563
0.59439993 -10.778043 2.0319271
0.62653315 -4.9547768 2.2105148
0.79909635 -6.2238288 3.1904638
0.79927957 -5.7487512 3.1912465
0.83834118 -5.5146661 3.4127817
0.81659186 -4.9435186 3.2890868
0.83259434 -4.7499266 3.3798077
0.82506353 -4.388556 3.3369186
0.8253991 -4.1181374 3.3387167
0.79761839 -3.6835186 3.1809111
0.82583231 -3.6393983 3.3410084
0.81986725 -3.3905029 3.3070836
0.82256985 -3.1127627 3.3223493
0.81851417 -2.9126163 3.2992911
0.81951612 -2.7482345 3.3049471
0.81859851 -2.5841608 3.2997153
0.79489279 -2.3399951 3.1651654
0.82054555 -2.2941298 3.3107333
0.81179714 -2.1256688 3.2610803
0.80762684 -1.9813484 3.2374132
0.80973923 -1.8001018 3.2494025
0.80731678 -1.6741086 3.2356632
0.80495912 -1.5529004 3.2222948
0.8040455 -1.4387004 3.2171226
0.80169392 -1.3250443 3.2037942
0.80377239 -1.2215641 3.2156017
0.80587429 -1.1192039 3.2275426
0.7637139 -0.9680751 2.9883847
0.80722868 -0.86304832 3.2352715
0.80331188 -0.75947475 3.2130728
0.79563379 -0.65671188 3.1695399
0.79443443 -0.5588333 3.1627591
0.79159957 -0.4616732 3.1467023
0.36857125 -0.43278033 0.74744385
0.35436872 -0.41786861 0.66711378
0.35302848 -0.41487974 0.6595574
0.35236299 -0.41131335 0.655828
0.35128796 -0.39547536 0.64991027
0.35117719 -0.38684645 0.64937145
0.35149983 -0.37714985 0.65129024
0.35177228 -0.36238351 0.65296853
0.3545934 -0.34498712 0.66905308
0.35384437 -0.33632854 0.6648941
0.35258758 -0.32927698 0.65785599
0.35159895 -0.31590247 0.65238243
0.35153949 -0.30449727 0.65213263
0.35139012 -0.29293633 0.65137267
0.35099328 -0.27535218 0.64925265
0.35100442 -0.26153326 0.64940155
0.35085738 -0.24003558 0.64869541
0.35262913 -0.22192273 0.65877968
0.6074056 1.721915 2.1027942
0.58315581 1.6943702 1.9653636
0.5613625 1.6747719 1.8418609
0.54346395 1.6796653 1.7404315
0.52633768 1.6852226 1.6433823
0.50943148 1.6865588 1.5475842
0.49269906 1.6828717 1.4527757
0.47809595 1.6988856 1.3700306
0.44425064 1.5371499 1.1783215
0.43113786 1.5475824 1.1040338
0.4172475 1.5399027 1.0253491
0.40332779 1.5233359 0.94650447
0.39052361 1.5231514 0.8739754
0.37733588 1.5055419 0.79928344
0.36606944 1.5433695 0.73544884
0.34782398 1.5612215 0.63209206
0.33549112 1.5644178 0.56223416
0.32318276 1.5681294 0.49251503
0.31085896 1.568368 0.42271093
0.29858845 1.5591376 0.35321614
0.28633359 1.5554452 0.28380603
0.27367571 1.5731639 0.21209455
0.25504696 1.5651106 0.10658381
0.2426492 1.5566009 0.036367193
0.22970252 1.560195 -0.036971692
0.21739168 1.5446062 -0.10668992
0.21560295 1.3295373 -0.11658227
0.20016226 1.3868692 -0.20410576
0.23496497 0.67267579 -0.0060911216
0.22656095 0.67796147 -0.053665347
0.21778263 0.68395054 -0.10336311
0.21387459 0.46411812 -0.12507962
0.2350359 0.20679487 -0.0047714398
0.23419599 0.16502567 -0.0094085429
0.23512372 0.11339165 -0.004012621
0.2349413 0.074604623 -0.0049227769
0.23501955 0.037236702 -0.0043554665
0.23474495 0.0049771904 -0.0057932097
0.23513438 -0.02887737 -0.0034634967
0.23482306 -0.056519829 -0.0051127891
0.23462152 -0.08308094 -0.0061402763
0.23371819 -0.11747238 -0.011094435
0.23376627 -0.14187218 -0.010707639
0.23372664 -0.1646961 -0.010819589
0.2335739 -0.1860697 -0.011573994
0.23388575 -0.20812792 -0.0096929017
0.23360309 -0.22736178 -0.011185842
0.23392719 -0.24770319 -0.0092365416
0.23392686 -0.26639491 -0.0091285203
0.23389782 -0.28443977 -0.0091838306
0.23383026 -0.30190545 -0.009458093
0.23404551 -0.31948125 -0.008128169
0.23366788 -0.34386665 -0.010107886
0.23365843 -0.36017656 -0.010053392
0.23358244 -0.37614724 -0.010376513
0.23377791 -0.39217299 -0.0091599375
0.23355679 -0.40764192 -0.010306555
0.23360312 -0.42319456 -0.0099362293
0.23357113 -0.4386026 -0.010010242
0.23363273 -0.453969 -0.0095534669
0.23346561 -0.47698665 -0.010340187
0.23351431 -0.48465878 -0.010010302
0.23328164 -0.50793731 -0.011168689
0.23324598 -0.52356344 -0.011263347
0.2333069 -0.53925234 -0.010810178
0.23312542 -0.55539995 -0.011731505
0.23338309 -0.57939476 -0.010108294
0.23312776 -0.59641558 -0.011447906
0.23298691 -0.61367273 -0.012138006
0.23280096 -0.63149893 -0.013083448
0.23257913 -0.64996511 -0.014231991
0.23233157 -0.66913843 -0.015525902
0.23276104 -0.69683844 -0.012925731
0.2322585 -0.71863329 -0.015663911
0.23207618 -0.74037099 -0.016586024
0.23206525 -0.76247942 -0.016535785
0.2318083 -0.78667903 -0.017879345
0.23254481 -0.82034683 -0.013533344
0.23251727 -0.84674102 -0.013574212
0.23221028 -0.87628949 -0.015197794
0.23180223 -0.90852612 -0.017392587
0.23110175 -0.94505954 -0.021242805
0.054060418 -2.4110768 -1.0240126
0.059843 -2.5897479 -0.99094141
0.05886507 -2.7674515 -0.99626267
0.058276065 -2.9626899 -0.99936551
0.055847701 -3.2031608 -1.0128679
0.053762373 -3.4743657 -1.0244025
0.062221777 -3.8076448 -0.97603816
0.061365388 -4.1735253 -0.98053449
0.062572137 -4.5783978 -0.97330141
0.11671963 -8.3055325 -0.66297901
0.1681318 -8.1333704 -0.37141824
0.2125084 -8.3344116 -0.11949156
0.24600506 -10.650431 0.072253123
0.307753 -10.775652 0.42264712
0.40217564 -10.841423 0.95836204
0.46577045 -10.866932 1.3191575
0.53068912 -10.921139 1.6874076
0.59336448 -10.849214 2.0428932
0.62615573 -4.9919133 2.2252378
0.65305525 -4.9207106 2.3778415
0.7955389 -6.2166896 3.1869733
0.79584062 -5.7435021 3.1884432
0.8360191 -5.5207133 3.4163105
0.81108987 -4.9209185 3.27459
0.82765347 -4.7335849 3.3685002
0.82169253 -4.3854008 3.3345428
0.82168001 -4.1127348 3.3343773
0.79511452 -3.6865721 3.1834989
0.82240087 -3.6365056 3.3383284
0.82570225 -3.3389716 3.3569939
0.82050979 -3.1174738 3.327487
0.81448615 -2.9074988 3.2932732
0.81463534 -2.7396376 3.2941022
0.81703407 -2.5900588 3.3077044
0.79134631 -2.3377769 3.1619234
0.81830925 -2.2967954 3.314935
0.80957419 -2.1281824 3.265372
0.81072313 -1.935787 3.271908
0.80660236 -1.799687 3.2485411
0.80385578 -1.6729422 3.2329762
0.80197525 -1.5529041 3.2223284
0.80105942 -1.438702 3.2171571
0.80119544 -1.3294294 3.2179563
0.80078167 -1.2215611 3.2156382
0.80372655 -1.1203233 3.2323775
0.76286668 -0.92321956 3.0006139
0.80526 -0.86387247 3.2411616
0.79875565 -0.75852108 3.2042968
0.79401463 -0.65725547 3.177438
0.79142714 -0.55881673 3.1627979
0.78633296 -0.46165469 3.1339386
0.3656196 -0.4327997 0.74747443
0.35155663 -0.42222622 0.66785997
0.35022676 -0.4191038 0.6603564
0.34907603 -0.40310204 0.6539892
0.34854999 -0.39953047 0.65104544
0.34816402 -0.38253355 0.64901644
0.34856382 -0.37716752 0.65132409
0.34914026 -0.36649618 0.65467352
0.35166061 -0.34500319 0.66908795
0.35091338 -0.33634424 0.66492933
0.34965855 -0.32929239 0.65789163
0.34911498 -0.32000974 0.65488815
0.34847069 -0.30507091 0.65135264
0.34846681 -0.2929503 0.65140939
0.34807232 -0.27536553 0.64928979
0.34808487 -0.26154613 0.64943892
0.34861225 -0.24408641 0.65250713
0.34897181 -0.21778734 0.6546613
0.60434675 1.7219545 2.102793
0.57979798 1.6919791 1.9636252
0.55967754 1.6864117 1.8495675
0.54042381 1.679696 1.740427
0.5219124 1.6713943 1.6354982
0.50534064 1.6751063 1.5415666
0.48967385 1.6828948 1.4527671
0.47514543 1.6998199 1.3704207
0.44143465 1.5399654 1.1793722
0.42774323 1.5409763 1.1017802
0.41379708 1.531306 1.0227475
0.40038589 1.5243093 0.94674802
0.38758099 1.5241308 0.87418431
0.37455955 1.5114341 0.80039746
0.36309704 1.5433695 0.73543298
0.34484053 1.5602232 0.63197064
0.33253133 1.5644113 0.56221414
0.32016104 1.5571268 0.49211589
0.30791059 1.5683556 0.42268798
0.29560471 1.5661179 0.35295123
0.28326568 1.5663997 0.28302452
0.27096245 1.5612078 0.2133027
0.25218129 1.5631083 0.1068624
0.2396374 1.5595154 0.03577248
0.22679675 1.5601608 -0.037004322
0.21449372 1.5445683 -0.10672349
0.21292183 1.3256735 -0.11545536
0.19767907 1.3802072 -0.20189035
0.23192599 0.67544389 -0.0071452204
0.22351074 0.68068784 -0.054816127
0.21508807 0.68209988 -0.10252795
0.21132256 0.4615072 -0.12354553
0.23241186 0.20508513 -0.0036721148
0.23118927 0.16663118 -0.010509788
0.23232093 0.11335923 -0.0039812298
0.23225245 0.073795021 -0.0042694719
0.23222615 0.037204273 -0.0043198457
0.2321927 0.0034820416 -0.0044123339
0.23210448 -0.02749555 -0.004816832
0.23094855 -0.064865194 -0.011236776
0.23070282 -0.090771399 -0.012537797
0.23187545 -0.10924027 -0.0058339969
0.23072 -0.14072947 -0.012254373
0.23096508 -0.16472889 -0.010771204
0.23111062 -0.18716231 -0.009853675
0.23113202 -0.20816064 -0.0096413493
0.23115972 -0.22833346 -0.0093936967
0.23118117 -0.24773587 -0.0091819521
0.23134318 -0.26683426 -0.0081727467
0.23115946 -0.28447244 -0.0091262842
0.2314218 -0.30262211 -0.0075481907
0.23147967 -0.31982282 -0.0071309856
0.23131873 -0.33624685 -0.0079559861
0.23143202 -0.35279712 -0.0072247479
0.23103534 -0.37637073 -0.0093442295
0.23106414 -0.39220563 -0.0090929111
0.23084693 -0.40767464 -0.010238088
0.23089701 -0.42322725 -0.0098662693
0.23086882 -0.43863529 -0.0099387886
0.23076069 -0.45398426 -0.010465158
0.23077291 -0.47701934 -0.010264933
0.23072422 -0.49242637 -0.010454246
0.2305968 -0.50797009 -0.011090309
0.23056506 -0.52359617 -0.01118336
0.23045897 -0.53945875 -0.011698414
0.23028275 -0.5556407 -0.012611501
0.23038073 -0.57994515 -0.01192493
0.23007587 -0.58873385 -0.013611601
0.23049234 -0.6133799 -0.011117399
0.23014666 -0.63153183 -0.012992135
0.23008898 -0.6496073 -0.013232237
0.22968622 -0.66917151 -0.01543066
0.23012182 -0.69687134 -0.012827422
0.22992484 -0.71766633 -0.013857685
0.22944672 -0.74040419 -0.016483221
0.22972822 -0.76139414 -0.0147978
0.22946942 -0.78553671 -0.016178284
0.22993174 -0.82037973 -0.013421917
0.22964743 -0.84808618 -0.014946406
0.22960806 -0.87632257 -0.015080576
0.2289606 -0.90997374 -0.018664772
0.22986449 -0.95362979 -0.013400113
0.052570429 -2.2701554 -1.0192726
0.052276324 -2.4072142 -1.0208298
0.057069957 -2.5940218 -0.99345732
0.056139171 -2.7718213 -0.99861836
0.055339027 -2.9697487 -1.0030329
0.053552531 -3.2041759 -1.0130373
0.051276304 -3.4780955 -1.0258118
0.060682248 -3.7994905 -0.97222555
0.058758292 -4.1811256 -0.98297381
0.059940282 -4.5879846 -0.97608578
0.11598988 -8.2650337 -0.65658456
0.16846235 -8.0180759 -0.3587105
0.21058515 -8.3454285 -0.11943995
0.24453589 -10.631465 0.073932536
0.30613261 -10.755637 0.42370149
0.39967072 -10.751472 0.95480311
0.46326092 -10.816011 1.315883
0.52823055 -10.890215 1.6847992
0.59206825 -10.869763 2.0472364
0.62142909 -4.9592628 2.2128565
0.79284811 -6.2137012 3.1863251
0.79472053 -5.7582221 3.1969049
0.81859457 -5.577888 3.3324394
0.80869472 -4.9223046 3.2761815
0.8252427 -4.7349267 3.3701298
0.81947619 -4.3883047 3.3373792
0.81727827 -4.1000133 3.324899
0.79301178 -3.6900749 3.1871271
0.81970966 -3.6362236 3.3387203
0.81420118 -3.3902569 3.3074613
0.81662279 -3.1111784 3.3212407
0.81228018 -2.909802 3.2966118
0.81325388 -2.7455289 3.3021679
0.81413448 -2.5892081 3.3071978
0.79016697 -2.3436797 3.1711709
0.81420749 -2.291769 3.3076806
0.80709183 -2.1289318 3.2673244
0.80700153 -1.9328167 3.2668719
0.80443197 -1.8011355 3.2523279
0.8010512 -1.6727046 3.233181
0.79900354 -1.552312 3.2216029
0.80037719 -1.4427029 3.2294469
0.7958864 -1.3248169 3.2040038
0.79829174 -1.2218539 3.217706
0.79920483 -1.1178514 3.2229388
0.76004636 -0.92301762 3.0007524
0.80155754 -0.86296046 3.2364216
0.79504806 -0.75778782 3.1995277
0.7911678 -0.6570493 3.1775582
0.7878837 -0.55847502 3.1589735
0.78365499 -0.46145704 3.1350286
0.36279872 -0.43285087 0.74655831
0.34903562 -0.42654565 0.66856176
0.34744442 -0.41486967 0.6596486
0.34661466 -0.40718004 0.65501785
0.34609979 -0.40355712 0.65213519
0.34560052 -0.38683647 0.64945906
0.34592456 -0.37713951 0.65137678
0.34650058 -0.36646819 0.65472472
0.34886193 -0.34539747 0.66824442
0.34827226 -0.33631635 0.66497684
0.3467541 -0.32461825 0.65647954
0.34603235 -0.3158907 0.65246266
0.34597418 -0.30448532 0.65221173
0.34582609 -0.29292423 0.65145069
0.34599641 -0.27938277 0.65249664
0.34544328 -0.26152074 0.64947677
0.34529746 -0.24002279 0.64876878
0.34632775 -0.21776231 0.65469563
0.60092276 1.7180973 2.0997581
0.57610363 1.6855826 1.9589916
0.55709785 1.6889685 1.8512167
0.53608888 1.6661911 1.7320749
0.5200966 1.6818459 1.641404
0.50257003 1.6760435 1.5420268
0.48690185 1.6838439 1.4531968
0.4722999 1.6998664 1.3704188
0.43842593 1.5372034 1.1783143
0.42475477 1.5381755 1.1008197
0.41072842 1.526557 1.02131
0.39766407 1.5262711 0.94726026
0.38465464 1.5212351 0.873523
0.37178674 1.5124404 0.80058926
0.36039811 1.5473431 0.73605341
0.34201545 1.5592486 0.63187319
0.32971296 1.5634319 0.56215173
0.31742275 1.5681363 0.49250063
0.30510545 1.5643704 0.4226962
0.29279396 1.5671306 0.3529259
0.28049746 1.5634192 0.28324085
0.26808548 1.565197 0.21290199
0.24934882 1.5641057 0.10672121
0.23683164 1.5595242 0.035786618
0.22398975 1.560169 -0.036988929
0.21209145 1.5358831 -0.10441259
0.21084729 1.3122938 -0.11140728
0.20178336 1.2648634 -0.16275156
0.22883409 0.68105567 -0.009250016
0.22031538 0.6871416 -0.057496548
0.21317312 0.67214113 -0.097935557
0.18999611 0.68496329 -0.22921664
0.20862053 0.46151918 -0.1235337
0.23011714 0.20174351 -0.001518884
0.23011298 0.15353851 -0.0014646006
0.22976103 0.11257443 -0.00338288
0.22981024 0.072255023 -0.0030253106
0.22956876 0.037219018 -0.0043163579
0.22930154 0.0049598627 -0.0057532983
0.22945292 -0.027479935 -0.0048155524
0.22952083 -0.057218209 -0.0043511563
0.2294609 -0.084409051 -0.004611806
0.22950092 -0.11048191 -0.0043054442
0.22835886 -0.14188737 -0.010664699
0.2284691 -0.16527003 -0.009959803
0.22832544 -0.18661392 -0.010695191
0.22849585 -0.20814171 -0.0096489703
0.22852525 -0.2283141 -0.0094026104
0.22870436 -0.24815442 -0.0083070099
0.22871198 -0.26681405 -0.0081843212
0.22869059 -0.28482634 -0.0082260706
0.22863042 -0.30225903 -0.0084879054
0.22868772 -0.31949231 -0.0080833351
0.22869316 -0.33622485 -0.0079730721
0.22831336 -0.36018661 -0.010008515
0.22824243 -0.37615684 -0.010331648
0.22827145 -0.39202568 -0.010087762
0.22839913 -0.40777248 -0.0092843184
0.2284511 -0.42328992 -0.0089104157
0.22825117 -0.4386104 -0.0099655874
0.22831778 -0.45397636 -0.0095089041
0.2281303 -0.46931678 -0.010493682
0.22811073 -0.49239993 -0.010486788
0.22798449 -0.50794321 -0.011124564
0.22812589 -0.52342969 -0.010244156
0.22802006 -0.53925729 -0.010766363
0.22784388 -0.55540448 -0.011687861
0.22794174 -0.57965738 -0.011016159
0.22785959 -0.59641904 -0.011404729
0.2277243 -0.61367577 -0.01209503
0.22754404 -0.63150162 -0.013040678
0.22748783 -0.6495766 -0.013282917
0.2272438 -0.66871762 -0.014591018
0.22752464 -0.69683951 -0.012883751
0.22717898 -0.71813405 -0.014769278
0.22685285 -0.74037135 -0.016544506
0.22699241 -0.76192015 -0.015678084
0.22772719 -0.79383492 -0.011398272
0.22694044 -0.8222335 -0.01578879
0.22693211 -0.84870744 -0.015763562
0.22677235 -0.87765139 -0.016598234
0.22638142 -0.90993786 -0.018745465
0.22752216 -0.95210725 -0.012168128
0.04977921 -2.271621 -1.0206689
0.055133522 -2.4364569 -0.99023581
0.054043174 -2.5980759 -0.99639767
0.053704865 -2.7708805 -0.99829924
0.05309055 -2.967056 -1.0017761
0.050168198 -3.2137921 -1.0183641
0.049040243 -3.4753001 -1.0247818
0.057374388 -3.8113589 -0.97752512
0.055931963 -4.187561 -0.98577541
0.056178134 -4.6115217 -0.98446977
0.11350306 -8.2877226 -0.66045684
0.1666418 -8.0130348 -0.35891154
0.20979388 -8.2585878 -0.11422328
0.30463099 -10.735622 0.4226903
0.46301824 -10.887789 1.320989
0.52695525 -10.890295 1.6837031
0.59342223 -10.9637 2.0607727
0.62126273 -4.9834867 2.2219126
0.79093063 -6.2102928 3.1839316
0.79305828 -5.7584095 3.1962821
0.81727451 -5.5815487 3.3338022
0.81007051 -4.9501729 3.2933388
0.82478046 -4.7457728 3.3769469
0.81934917 -4.4012775 3.34637
0.81675678 -4.1095319 3.3318715
0.79145992 -3.6925218 3.1886427
0.82031417 -3.6517749 3.3524053
0.81388396 -3.3996394 3.3161187
0.81467986 -3.1113687 3.3208721
0.81111091 -2.9138467 3.3007896
0.81154293 -2.7469478 3.3033869
0.81297672 -2.5929224 3.3116601
0.78798109 -2.3432982 3.1700618
0.81335372 -2.2961943 3.3140719
0.80594087 -2.1321146 3.2721682
0.80163002 -1.9869283 3.2478502
0.80250138 -1.8017384 3.2529776
0.79974782 -1.6748366 3.2374833
0.79705024 -1.5528474 3.2223034
0.79578972 -1.4379965 3.2152705
0.79574078 -1.3285 3.2151072
0.79648149 -1.2225465 3.21942
0.79772758 -1.1189259 3.2265975
0.75622058 -0.9685992 2.991302
0.80144805 -0.86480469 3.2479672
0.79424429 -0.75879514 3.2072158
0.78776008 -0.65673006 3.170543
0.78481179 -0.55846781 3.1539233
0.78126776 -0.46162218 3.1339228
0.36055443 -0.43853283 0.74791932
0.34627044 -0.41786298 0.66714358
0.344946 -0.41047606 0.65971112
0.3439227 -0.40307727 0.65398687
0.34336221 -0.39519382 0.65088731
0.34308633 -0.38684034 0.64940202
0.34297946 -0.37346399 0.64891493
0.34398714 -0.36647245 0.65467018
0.34614044 -0.3406322 0.6670422
0.34576029 -0.33632129 0.66492558
0.34465742 -0.32878485 0.65874898
0.3439621 -0.31998724 0.65488398
0.34393877 -0.30857921 0.65483046
0.34317362 -0.29351622 0.6506083
0.34291962 -0.27534401 0.64928532
0.34293211 -0.26152489 0.64943445
0.34345928 -0.24406546 0.65250272
0.34381849 -0.21776682 0.65465713
0.59899056 1.7211599 2.1022341
0.57363111 1.6846929 1.9584637
0.55306965 1.6748006 1.841907
0.53489923 1.6771485 1.7389121
0.51796639 1.6843823 1.6429361
0.5011518 1.6865832 1.5476304
0.48533827 1.6936803 1.4580026
0.46989554 1.6998209 1.3704774
0.43606916 1.5381025 1.1787196
0.4223327 1.5381455 1.1008728
0.40835378 1.527488 1.0216511
0.39514628 1.524318 0.94680434
0.38234156 1.5241411 0.87424189
0.36995071 1.5300968 0.80402613
0.35799268 1.5483216 0.73626399
0.33959946 1.5602394 0.63203388
0.32720509 1.5574465 0.56179792
0.31498083 1.5671408 0.49252522
0.30266875 1.565378 0.4227553
0.29042321 1.5561488 0.35336339
0.27803555 1.5654294 0.28316307
0.26568386 1.5632263 0.21316782
0.24691081 1.5641298 0.10678142
0.23406252 1.5693682 0.033967715
0.22155194 1.5602002 -0.036928561
0.20974283 1.5339856 -0.10384338
0.20865388 1.3075469 -0.10991815
0.19922189 1.2667917 -0.16334526
0.22642449 0.68015122 -0.0088753393
0.2181157 0.68349087 -0.055935025
0.2119491 0.65676713 -0.090838231
0.18752764 0.68500268 -0.2291934
0.20605361 0.46241021 -0.12402713
0.22753473 0.20260978 -0.0020522445
0.2272255 0.15684256 -0.0037226805
0.22727063 0.11260177 -0.0033828095
0.22710027 0.073836535 -0.0042660222
0.22719023 0.03649139 -0.0036724536
0.22704507 0.0035240736 -0.004413066
0.22695887 -0.027453244 -0.0048194737
0.22689909 -0.056509707 -0.0050760428
0.22556096 -0.090728045 -0.012544462
0.22594526 -0.11807734 -0.01028173
0.22586215 -0.1418612 -0.010670985
0.2258279 -0.16468486 -0.010782942
0.22582765 -0.18658811 -0.010702177
0.22584717 -0.20761614 -0.010509116
0.22617966 -0.2287582 -0.0085405521
0.22604895 -0.24769087 -0.0091998614
0.22605348 -0.26638234 -0.0090918196
0.22602922 -0.28442693 -0.0091471048
0.2262926 -0.30257642 -0.0075705042
0.22618623 -0.3194679 -0.0080913771
0.22602426 -0.33592498 -0.0089277616
0.22630519 -0.35275072 -0.0072513167
0.22590934 -0.37632379 -0.0093728509
0.2257673 -0.39200199 -0.010095621
0.2258943 -0.407749 -0.0092920847
0.22577262 -0.42317948 -0.0098991413
0.22574489 -0.43858728 -0.0099730957
0.22581069 -0.45395342 -0.0095162578
0.22579592 -0.46927655 -0.0095162196
0.2256014 -0.4923774 -0.010493684
0.22564681 -0.50781631 -0.010151841
0.22544257 -0.52354664 -0.011225837
0.22550753 -0.53923529 -0.01077259
0.22533011 -0.55538261 -0.011693842
0.22559373 -0.57937706 -0.010070498
0.22534242 -0.59639764 -0.01141003
0.22504139 -0.61398005 -0.013031215
0.2250236 -0.63148052 -0.013045398
0.22496559 -0.64955568 -0.013287326
0.22535111 -0.6764158 -0.010969291
0.22515066 -0.69634962 -0.012017787
0.22464924 -0.71811366 -0.014772528
0.22417317 -0.74088103 -0.017382586
0.22431336 -0.76245928 -0.016497061
0.22504929 -0.79441714 -0.012186703
0.22480237 -0.82032597 -0.013494288
0.22464761 -0.84737599 -0.014278239
0.2243486 -0.87695014 -0.015878767
0.22394876 -0.90921164 -0.018049484
0.22496021 -0.95208859 -0.012167767
0.047140874 -2.270788 -1.020064
0.052765474 -2.433167 -0.98793459
0.051530614 -2.5955348 -0.99475956
0.050870776 -2.7708268 -0.99831307
0.04978751 -2.971333 -1.004252
0.04807223 -3.2049093 -1.0137542
0.046843361 -3.466259 -1.020478
0.054826763 -3.8048646 -0.97484326
0.053275894 -4.180975 -0.98331618
0.053403042 -4.6048527 -0.98223585
0.10858625 -8.3292761 -0.66621011
0.16167516 -8.0726795 -0.36507779
0.20521763 -8.3104429 -0.11777857
0.30016261 -10.725621 0.42272523
0.39284903 -10.652649 0.94870532
0.45781332 -10.846973 1.3175291
0.52235377 -10.890335 1.6837585
0.58823609 -10.943012 2.0575938
0.61615264 -4.9594359 2.2123573
0.78603905 -6.1959987 3.1770658
0.79248273 -5.7911649 3.2134285
0.80786622 -4.961164 3.3003483
0.8229776 -4.7589707 3.3860211
0.81414157 -4.3869915 3.335737
0.81326485 -4.1080666 3.3306665
0.78712869 -3.6850586 3.1822145
0.81594145 -3.6445501 3.345722
0.80853283 -3.3869984 3.303616
0.81158805 -3.1114557 3.3209033
0.80738968 -2.9107189 3.2970476
0.80769461 -2.7433398 3.2987609
0.81025535 -2.5941837 3.3132832
0.78286701 -2.334991 3.1578438
0.8117249 -2.3010492 3.3216176
0.80271465 -2.1311982 3.2704906
0.7976554 -1.9837246 3.2417915
0.79899824 -1.8001301 3.2494354
0.79673344 -1.6745275 3.2366045
0.79486191 -1.5543618 3.2260084
0.7942825 -1.4406815 3.2227471
0.79243779 -1.3277029 3.2123094
0.79285204 -1.221332 3.2146909
0.79528785 -1.1194556 3.2285442
0.75278896 -0.96790826 2.9874616
0.79715341 -0.86363137 3.2392182
0.79012948 -0.75803673 3.1994083
0.78694409 -0.65757436 3.1813779
0.78192866 -0.55850875 3.1529672
0.78082573 -0.46169752 3.1467538
0.35785118 -0.43277866 0.74748623
0.34382153 -0.41769171 0.66812569
0.34231049 -0.41487622 0.65959948
0.34129927 -0.40307903 0.65399873
0.3407369 -0.39519536 0.65089905
0.34052154 -0.39116234 0.64972258
0.34087515 -0.38153413 0.65181845
0.34105361 -0.36237806 0.6530109
0.34371638 -0.34540415 0.66820323
0.34273049 -0.33204976 0.66274637
0.34160289 -0.32462364 0.65644103
0.34087899 -0.31589565 0.65242535
0.34129712 -0.30857992 0.65484136
0.34052891 -0.29351667 0.65061903
0.34070146 -0.28000307 0.65168703
0.34028253 -0.26152501 0.64944512
0.34080791 -0.24406557 0.6525135
0.34190515 -0.22191398 0.65882391
0.59632331 1.7203331 2.1016726
0.57218874 1.6935568 1.9648751
0.55050021 1.6747692 1.8419505
0.53232622 1.6771199 1.7389554
0.51565045 1.6869545 1.6444565
0.49873441 1.688326 1.5485982
0.48176384 1.6819756 1.4524331
0.4605892 1.7144291 1.3324574
0.43334171 1.5362229 1.1780537
0.41972524 1.5381351 1.1009127
0.40574118 1.5274798 1.0216908
0.39252883 1.5243119 0.94684392
0.37964109 1.5221884 0.87383831
0.36739019 1.532058 0.80444157
0.35547045 1.5522721 0.73692036
0.33701584 1.5632257 0.63238305
0.32464677 1.5644341 0.56231916
0.31226519 1.5561541 0.49218741
0.30001467 1.5593864 0.42279568
0.28769776 1.5671521 0.35302606
0.2754072 1.5624489 0.2834098
0.26285097 1.5721914 0.21228227
0.24423251 1.5641466 0.10682232
0.23147802 1.5664421 0.034572508
0.21878433 1.5621693 -0.037330486
0.20713662 1.5320761 -0.10329298
0.20589581 1.3085257 -0.11016993
0.19645174 1.2677611 -0.16363052
0.22331937 0.68577284 -0.010969583
0.21490464 0.68995595 -0.058605257
0.20451465 0.71479398 -0.11745089
0.18520902 0.68069822 -0.22670822
0.20347439 0.46071914 -0.12299437
0.22382395 0.21101701 -0.007403105
0.22445549 0.15686302 -0.0037112115
0.22449639 0.11262227 -0.0033724322
0.22443122 0.073079944 -0.0036368978
0.22429417 0.03726669 -0.0043101013
0.22402236 0.0050075189 -0.0057487772
0.2240465 -0.026725339 -0.0055091078
0.22410588 -0.056488864 -0.0050701522
0.22416876 -0.084361836 -0.0046119704
0.22286993 -0.11682487 -0.011829695
0.22291666 -0.14125219 -0.011464323
0.22287573 -0.1641044 -0.011596738
0.22301623 -0.18656681 -0.01070023
0.22303267 -0.20759477 -0.010507853
0.22320886 -0.22826733 -0.0094095357
0.22322845 -0.24766943 -0.0091999434
0.22338867 -0.26676759 -0.0081929034
0.22336392 -0.28478 -0.0082353931
0.22330043 -0.30221277 -0.0084979245
0.22335444 -0.31944624 -0.0080940314
0.22318974 -0.33590323 -0.0089310398
0.22329959 -0.352487 -0.0082108108
0.2230683 -0.37630188 -0.0093777031
0.22309519 -0.39213648 -0.0091284392
0.22287597 -0.40760508 -0.01027564
0.22292416 -0.42315739 -0.009905898
0.22289406 -0.43856511 -0.009980497
0.22295755 -0.45393121 -0.0095243109
0.22279336 -0.47694835 -0.010311926
0.22274274 -0.49235502 -0.010503396
0.22278604 -0.5077939 -0.010162233
0.22257976 -0.52352417 -0.011236925
0.22247176 -0.53938633 -0.011754246
0.22246343 -0.55535996 -0.011706357
0.22238752 -0.57166612 -0.012041892
0.22263731 -0.59608251 -0.010482656
0.22233281 -0.61363167 -0.012115219
0.22182515 -0.63217419 -0.014900215
0.22208987 -0.64953268 -0.01330415
0.22184254 -0.66867375 -0.014612817
0.22196519 -0.69726533 -0.013775876
0.22176941 -0.71809042 -0.01479252
0.22143979 -0.74032778 -0.016568428
0.22143199 -0.76243585 -0.016519094
0.22131895 -0.7860474 -0.017066911
0.22191976 -0.82030249 -0.013519026
0.22163393 -0.84800839 -0.015047489
0.22172017 -0.87556255 -0.014465493
0.221067 -0.90918785 -0.018078253
0.22061291 -0.94428247 -0.020561907
0.050519351 -2.4290781 -0.98512465
0.048790339 -2.5954909 -0.99485081
0.048240565 -2.7699347 -0.99788952
0.047607329 -2.9660931 -1.001404
0.045967087 -3.1986845 -1.0106339
0.042750806 -3.4832916 -1.0288084
0.052627794 -3.7992985 -0.97267586
0.050278481 -4.1874666 -0.98594415
0.051796373 -4.5896816 -0.97728026
0.10699377 -8.3114147 -0.66407543
0.15863512 -8.127346 -0.37106773
0.20420091 -8.2296143 -0.112549
0.23668715 -10.660374 0.071545027
0.29851127 -10.695605 0.42228171
0.39294252 -10.841384 0.95799029
0.45531327 -10.786205 1.311836
0.5201273 -10.859571 1.6795887
0.58724582 -10.963766 2.0603721
0.61607879 -4.991909 2.2250502
0.78562117 -6.216712 3.1867173
0.79001981 -5.7885594 3.2117801
0.82279497 -5.4898911 3.3978131
0.80403596 -4.9477925 3.2915373
0.81804991 -4.7377219 3.3711126
0.81269842 -4.3942294 3.340862
0.81106746 -4.1096721 3.3317082
0.78431714 -3.6828437 3.1800964
0.81465858 -3.6519175 3.3522575
0.81569105 -3.3404193 3.3582454
0.80777264 -3.1048198 3.3134251
0.80497605 -2.911418 3.2976503
0.80649966 -2.7495539 3.306375
0.80669498 -2.5901277 3.3075659
0.78025728 -2.335047 3.1577146
0.80779558 -2.2963407 3.3139713
0.80099505 -2.1342595 3.2754848
0.80078715 -1.9372305 3.2744257
0.79666185 -1.8010385 3.2511098
0.79327226 -1.6726372 3.231966
0.79154158 -1.5529926 3.2222295
0.7929154 -1.4433519 3.230099
0.79008049 -1.328354 3.2140999
0.79065853 -1.222176 3.2174556
0.79207742 -1.1188493 3.22558
0.75477046 -0.92574525 3.0141227
0.79546654 -0.86453843 3.2449934
0.7879203 -0.75842208 3.2022748
0.78490281 -0.65792572 3.1852393
0.78074926 -0.55889565 3.161761
0.7765159 -0.46177021 3.1378305
0.35497841 -0.43278503 0.74744898
0.340949 -0.41769671 0.66808891
0.33960888 -0.41469041 0.66052938
0.33860779 -0.40719122 0.65493292
0.3378686 -0.395201 0.65086222
0.33782011 -0.39087579 0.65062755
0.33775336 -0.3774932 0.65037024
0.33819109 -0.36238506 0.65297413
0.34085581 -0.34541199 0.6681667
0.33987215 -0.33205801 0.66270989
0.33874601 -0.32463205 0.65640461
0.3380236 -0.31590432 0.65238893
0.33796528 -0.30449918 0.65213931
0.33729243 -0.2889117 0.64844549
0.33742172 -0.27535412 0.64926016
0.33804122 -0.26558313 0.65281409
0.33796045 -0.2440763 0.65247828
0.33905888 -0.2219253 0.65878934
0.59333295 1.7194816 2.1011066
0.56828147 1.6854079 1.9591264
0.54770803 1.6755428 1.8425421
0.52952582 1.6779156 1.7395191
0.5115391 1.6747811 1.6376054
0.49559137 1.6856304 1.5472555
0.47893906 1.6828305 1.4529101
0.45775104 1.7153094 1.3328905
0.43062738 1.5389882 1.1791538
0.41653934 1.5333747 1.0993514
0.40258256 1.5226681 1.0202935
0.38926262 1.5165569 0.9448477
0.3767325 1.5221628 0.87388235
0.36464471 1.5369428 0.80542696
0.35255608 1.5522509 0.73696762
0.33400676 1.5582353 0.63191718
0.32161704 1.5554409 0.56175047
0.30940306 1.5661352 0.49258256
0.29708931 1.5583761 0.42284748
0.28482991 1.5571504 0.35342222
0.27254894 1.5564581 0.28387552
0.26009798 1.5622432 0.21336651
0.24123938 1.566123 0.10657116
0.22876774 1.5595744 0.03594536
0.21583873 1.562176 -0.037271548
0.20445955 1.5262898 -0.10170574
0.20316787 1.3047098 -0.10897179
0.19329455 1.2715547 -0.16486724
0.22050232 0.68484408 -0.010604789
0.21236242 0.6853599 -0.056668818
0.20052706 0.72839808 -0.12367764
0.18258043 0.67811334 -0.2252164
0.20051958 0.46158507 -0.12350042
0.22164871 0.20514947 -0.00366365
0.22172314 0.15604687 -0.003164222
0.22156449 0.11342382 -0.0039854874
0.2216081 0.073082559 -0.0036597026
0.22147503 0.037269127 -0.0043350873
0.22120687 0.0050098165 -0.0057757455
0.22135761 -0.027430417 -0.0048417849
0.2212978 -0.056487009 -0.0051010139
0.22123308 -0.083704084 -0.0053877896
0.22140355 -0.11043343 -0.0043412927
0.21997866 -0.14066292 -0.012297335
0.22022538 -0.16466241 -0.010818228
0.22022499 -0.18656582 -0.010739655
0.22024441 -0.20759399 -0.010548733
0.22042364 -0.22826679 -0.0094518755
0.22044607 -0.24766912 -0.0092436587
0.22060917 -0.26676753 -0.0082379999
0.22058713 -0.28478014 -0.0082817925
0.22052625 -0.30221313 -0.0085455943
0.22058293 -0.31944677 -0.0081429798
0.2205877 -0.33617967 -0.0080346037
0.22070177 -0.35272998 -0.007306688
0.22013491 -0.37611219 -0.010397597
0.22033486 -0.39213791 -0.0091828527
0.22029032 -0.40772861 -0.0093538128
0.22016853 -0.42315918 -0.0099626863
0.22014078 -0.4385671 -0.010038478
0.22003296 -0.45391589 -0.010568121
0.22019197 -0.4692567 -0.0095853154
0.21974969 -0.48472744 -0.012010814
0.22004306 -0.50779676 -0.010225629
0.21983889 -0.5235272 -0.01130153
0.21990414 -0.53921604 -0.010850231
0.21972689 -0.55536342 -0.011773451
0.21931596 -0.57215339 -0.01402136
0.2197402 -0.5963788 -0.011494733
0.21960375 -0.61363578 -0.012186863
0.21974666 -0.63074529 -0.011295565
0.21968473 -0.64875585 -0.011565473
0.21896197 -0.66910088 -0.015581214
0.2195521 -0.6963315 -0.012114828
0.21920185 -0.71759564 -0.014019235
0.21872355 -0.74033296 -0.016649643
0.21900584 -0.76132303 -0.01496903
0.21818489 -0.78781611 -0.019541854
0.21948087 -0.81905013 -0.012075558
0.2189267 -0.84801465 -0.015136745
0.21888787 -0.87625092 -0.015277062
0.21824029 -0.90990132 -0.018868228
0.21926264 -0.95281506 -0.012954423
0.04092937 -2.4101667 -1.0236254
0.046443075 -2.5912962 -0.99226761
0.045959998 -2.764797 -0.99493939
0.045382321 -2.959981 -0.99815023
0.042888019 -3.201282 -1.0122291
0.040980097 -3.4706569 -1.0229884
0.039156087 -3.7813175 -1.0332776
0.048255999 -4.1752806 -0.98162562
0.050661679 -4.5612674 -0.96795475
0.10404652 -8.3173256 -0.66543692
0.15627679 -8.1054554 -0.36933762
0.20000286 -8.3513203 -0.12149467
0.23410295 -10.640403 0.071525015
0.39046183 -10.851442 0.95775336
0.45309985 -10.806225 1.3127903
0.51833695 -10.890459 1.6825383
0.5845629 -10.953041 2.0579078
0.61101282 -4.9530988 2.2091947
0.78433585 -6.2276759 3.1914601
0.78725046 -5.7825537 3.2081378
0.80442894 -5.5333624 3.3056264
0.78789163 -4.9955716 3.2120779
0.81865251 -4.7608285 3.3865933
0.80746919 -4.3712306 3.3233674
0.8090843 -4.1113858 3.3326573
0.78243309 -3.6852562 3.1817715
0.8123315 -3.6513376 3.3513267
0.80381632 -3.387198 3.3032041
0.8076129 -3.1156671 3.3249106
0.80354172 -2.9154108 3.3019657
0.80371475 -2.7472231 3.3030713
0.80571783 -2.5955465 3.3145466
0.7791447 -2.3396406 3.1640723
0.80686927 -2.3012309 3.3213167
0.79813069 -2.1323745 3.2719128
0.7939747 -1.9876524 3.2484784
0.7956425 -1.8045248 3.2581089
0.79114532 -1.6731285 3.232739
0.78908581 -1.5527306 3.2211833
0.79061681 -1.4434445 3.2299781
0.78594685 -1.3252255 3.2036262
0.78784353 -1.2214839 3.2144923
0.79043788 -1.1198304 3.2293136
0.74822974 -0.96861738 2.9901888
0.79451275 -0.86572397 3.2527015
0.78644431 -0.75901222 3.2070832
0.78047568 -0.65715098 3.1733665
0.77735204 -0.55874497 3.1557755
0.77675843 -0.46182629 3.1525259
0.35251391 -0.43857545 0.74785411
0.33839193 -0.41772592 0.66805255
0.33689517 -0.41051188 0.65965134
0.33603939 -0.40287063 0.65488368
0.33547652 -0.39495298 0.65177631
0.33503294 -0.38687474 0.6493454
0.33544987 -0.38156712 0.6517508
0.33547112 -0.36280146 0.65203893
0.33813867 -0.34585965 0.6672464
0.33731166 -0.3320823 0.66268378
0.33660126 -0.32881826 0.65869808
0.33575597 -0.32053518 0.65398985
0.33525926 -0.30508113 0.65129983
0.33511406 -0.29354829 0.65056086
0.33528772 -0.28003457 0.65162992
0.33487025 -0.26155624 0.64938956
0.33539665 -0.2440967 0.65245903
0.33649474 -0.22194505 0.65877062
0.59866327 1.6987482 2.1457124
0.56673872 1.6935138 1.9648517
0.54688704 1.6904799 1.8523914
0.527228 1.6804738 1.7410202
0.50982916 1.6834543 1.6424645
0.49300918 1.6856425 1.5471891
0.47658181 1.6855375 1.454138
0.46195546 1.7015982 1.3712999
0.43447936 1.530847 1.2155727
0.41400352 1.5343237 1.099606
0.40014109 1.5255386 1.0210905
0.38747647 1.5339428 0.94936842
0.37417567 1.5231346 0.87403476
0.36204803 1.5369383 0.80535603
0.34995887 1.5522443 0.73689473
0.33759734 1.5571887 0.66688657
0.31912917 1.5644057 0.5622924
0.30680093 1.5651197 0.49246955
0.29449418 1.5683569 0.42276791
0.28224251 1.5561289 0.35337511
0.2698479 1.5654104 0.2831744
0.25748995 1.5632081 0.21317846
0.24486288 1.5694027 0.14165694
0.22588591 1.5683699 0.034164693
0.21333671 1.5601836 -0.036920335
0.20296256 1.5030593 -0.095680699
0.20059682 1.3046609 -0.10905258
0.19055779 1.2743385 -0.16590957
0.17884144 1.2710921 -0.23227449
0.2102111 0.67978984 -0.054406881
0.19679727 0.7428475 -0.13038701
0.12830725 1.3360494 -0.51857311
0.1834285 0.69023848 -0.2060561
0.19806284 0.46067479 -0.1230278
0.2189129 0.20678163 -0.0047528865
0.21907896 0.15682057 -0.0037420916
0.21881287 0.11497526 -0.005180635
0.21906745 0.073036462 -0.0036664496
0.21893628 0.037222661 -0.004338949
0.21867003 0.0049629239 -0.0057769013
0.21869971 -0.026770452 -0.0055364594
0.21863745 -0.05585245 -0.0058169626
0.21870153 -0.083751909 -0.0053809066
0.21767749 -0.11748768 -0.011078203
0.2175923 -0.14129987 -0.011487973
0.21770012 -0.1647118 -0.010803036
0.21755414 -0.18608563 -0.011557207
0.21772248 -0.20764402 -0.010528707
0.21790327 -0.22831705 -0.0094294045
0.21792734 -0.24771968 -0.0092188139
0.21793337 -0.2664116 -0.0091104023
0.21807159 -0.28483126 -0.0082521942
0.21801238 -0.3022646 -0.008513663
0.21823581 -0.31980756 -0.0071720369
0.21736659 -0.34336668 -0.011990099
0.21769859 -0.36019441 -0.010032549
0.21762857 -0.3761653 -0.010355078
0.21765852 -0.3920348 -0.010110542
0.21778713 -0.40778226 -0.0093064066
0.21766706 -0.42321321 -0.0099128364
0.21764097 -0.43862146 -0.0099861389
0.21753487 -0.45397064 -0.010513269
0.21752185 -0.46932915 -0.010512524
0.21750358 -0.49241328 -0.010504236
0.21755081 -0.50785261 -0.010161621
0.21734849 -0.52358347 -0.011234809
0.21741539 -0.53927261 -0.010780728
0.21740983 -0.5552125 -0.010737801
0.21699961 -0.57196903 -0.012990555
0.21742369 -0.5961442 -0.010473245
0.21712315 -0.61369395 -0.012104007
0.2171057 -0.63116205 -0.012128913
0.21704793 -0.64920539 -0.01238266
0.21664479 -0.66873783 -0.014595829
0.21692663 -0.69686067 -0.012886291
0.21658161 -0.71815586 -0.014770212
0.2165505 -0.73933399 -0.014873429
0.21639623 -0.76194328 -0.015675599
0.21614338 -0.78611457 -0.017037291
0.21675017 -0.8203702 -0.013485548
0.2164686 -0.84807682 -0.015011053
0.21643209 -0.87631345 -0.015146262
0.21591036 -0.90925759 -0.018035306
0.21692866 -0.95213491 -0.012150735
0.038819999 -2.4095745 -1.022719
0.04413899 -2.5923297 -0.99247432
0.043395899 -2.7683959 -0.99665564
0.042677198 -2.9653859 -1.000703
0.040474694 -3.2041433 -1.0131772
0.038370997 -3.4762654 -1.0250978
0.03779735 -3.7714868 -1.0283426
0.046070136 -4.1764278 -0.98138344
0.046747234 -4.5917373 -0.97755629
0.10318097 -8.270956 -0.65772229
0.15471791 -8.0777349 -0.36519271
0.1986697 -8.2875624 -0.11577921
0.23199125 -10.650452 0.072880886
0.29373962 -10.775642 0.42329729
0.45218426 -10.897722 1.3225149
0.51661593 -10.921016 1.6880907
0.57509309 -10.697947 2.0199878
0.68651623 -8.9104595 2.6527348
0.60960519 -4.9713564 2.2174256
0.77799177 -6.1858969 3.1726604
0.78749055 -5.8156691 3.226696
0.80493355 -5.5666895 3.3257782
0.78160596 -4.9637651 3.1936238
0.81374526 -4.7439952 3.3761132
0.80925775 -4.4067292 3.3507934
0.80736518 -4.1194968 3.3401854
0.77929938 -3.683336 3.181119
0.81022775 -3.656024 3.3566628
0.80285108 -3.3980882 3.3149371
0.79504341 -3.1580985 3.2707629
0.80087191 -2.9162815 3.3039877
0.79940879 -2.7406554 3.2957962
0.8008104 -2.5869083 3.3038526
0.77507216 -2.3347816 3.1579587
0.8026002 -2.2960575 3.3142133
0.79414058 -2.1284802 3.2663286
0.79057992 -1.9858561 3.2462325
0.79144698 -1.8007594 3.2513022
0.78853178 -1.6735317 3.2348652
0.78664041 -1.5534319 3.224236
0.78555012 -1.4388412 3.2181506
0.78235382 -1.3236911 3.2001181
0.78457791 -1.2206031 3.2128341
0.78649086 -1.1181188 3.2237854
0.74464983 -0.96752548 2.9865243
0.78985906 -0.86397529 3.2431424
0.78403431 -0.75897694 3.2101986
0.77980387 -0.65771574 3.1863
0.77477872 -0.55847842 3.1578925
0.77071404 -0.46149442 3.1349339
0.35001624 -0.43268684 0.7484591
0.33607271 -0.42641595 0.66947681
0.33432263 -0.41048101 0.65971202
0.33364663 -0.40696436 0.6559177
0.33290488 -0.39492345 0.65183276
0.33222157 -0.38284039 0.64807945
0.33262193 -0.37749079 0.65039217
0.33289894 -0.3627727 0.65208793
0.33556417 -0.34582949 0.66729289
0.33497629 -0.33677968 0.66404057
0.33402747 -0.3287895 0.6587404
0.33318263 -0.32050714 0.6540302
0.33268583 -0.30505371 0.65133703
0.33254036 -0.29352117 0.65059584
0.33271345 -0.28000757 0.65166265
0.33290318 -0.26557741 0.65282404
0.33282098 -0.24407019 0.65248591
0.33404019 -0.221211 0.659491
0.594854 1.6919167 2.140023
0.56403404 1.6944667 1.9653174
0.54224908 1.67486 1.8418146
0.52435327 1.6797465 1.7403846
0.50714266 1.684431 1.6428423
0.49032632 1.6866269 1.5475361
0.47382608 1.6856296 1.4540224
0.45821863 1.6888926 1.3655756
0.43123373 1.5234996 1.2125158
0.41106087 1.5306011 1.0982175
0.39717731 1.5208093 1.0195453
0.38477072 1.5339891 0.94926232
0.37139782 1.5212258 0.87348652
0.35974807 1.5487521 0.80750459
0.34750915 1.5611621 0.73817432
0.33492866 1.5582045 0.66689986
0.3164683 1.566416 0.56232315
0.30407739 1.5581337 0.49212301
0.29181576 1.5613619 0.42266229
0.27951771 1.564124 0.3529954
0.26727173 1.5574251 0.28361973
0.25485483 1.56121 0.21328069
0.24214423 1.5713698 0.14127943
0.22358359 1.5575517 0.036129914
0.21067064 1.5601597 -0.037021235
0.20142673 1.4788846 -0.089405008
0.19769362 1.3094151 -0.11057865
0.18711837 1.2875457 -0.17048281
0.17563424 1.279461 -0.23553437
0.20773615 0.6779266 -0.053692058
0.19381508 0.7473529 -0.13252573
0.1113748 1.4905155 -0.5995701
