# .PCD v0.7 - Point Cloud Data file format
VERSION 0.7
FIELDS x y z
SIZE 4 4 4
TYPE F F F
COUNT 1 1 1
WIDTH 1402
HEIGHT 1
VIEWPOINT 0 0 0 1 0 0 0
POINTS 1402
DATA ascii
0.17656676 -6.0723858 3.2377143
0.1840346 -5.6963201 3.2798815
0.20780353 -5.5181599 3.414427
0.18535112 -4.9410639 3.2871268
0.19089538 -4.6615195 3.3184605
0.18667805 -4.3319154 3.294513
0.17244314 -3.9619899 3.2138393
0.18233603 -3.6728585 3.2698369
0.19547886 -3.5340354 3.3442616
0.18629426 -3.2757945 3.292237
0.18200068 -3.0633132 3.2679231
0.18043174 -2.8786156 3.2590477
0.18122648 -2.7156725 3.2635646
0.1846083 -2.5718873 3.2827373
0.171176 -2.297714 3.2067132
0.18618771 -2.2123566 3.2917531
0.17931135 -2.0548255 3.252851
0.17580874 -1.9158729 3.233057
0.17313471 -1.785382 3.2179589
0.16981459 -1.6585512 3.1992054
0.17299691 -1.4946457 3.217298
0.17134868 -1.3807621 3.2080176
0.17143594 -1.2729478 3.2085655
0.17200093 -1.1679186 3.2118204
0.17444691 -1.0667738 3.2257266
0.13070461 -0.91929883 2.9781258
0.17315608 -0.86076224 3.2185376
0.16864572 -0.70788103 3.1930947
0.16288345 -0.60745567 3.1605351
0.16085407 -0.51007861 3.149111
0.15893023 -0.41361973 3.1382856
0.15486082 -0.31845737 3.1153145
0.15420996 -0.22286035 3.1116984
-0.26415095 -0.39236009 0.74349988
-0.26454604 -0.3748908 0.74139535
-0.26445675 -0.36248165 0.74198902
0.14544657 0.78834122 3.0628092
0.14298615 0.89702976 3.0489552
0.13991974 1.0067245 3.0316713
0.13846573 1.1250678 3.0235152
0.13919072 1.2560254 3.0276945
0.13986996 1.3931786 3.0316145
0.13754924 1.5976192 3.0185895
0.12688735 1.6986439 2.9583097
0.0933173 1.6828111 2.7683535
0.061886132 1.6639144 2.5905068
0.036166109 1.6646383 2.4449906
-0.0013046806 1.5797037 2.2329593
-0.010327734 1.6671253 2.1819608
-0.034238908 1.7265579 2.046726
-0.057691917 1.7008675 1.9140475
-0.077154785 1.6978903 1.8039559
-0.094550483 1.7060968 1.7055662
-0.11030957 1.724876 1.6164408
-0.26210895 0.23495854 0.75734389
-0.26716781 0.23634374 0.72879523
-0.27132311 0.2486193 0.70536095
-0.20867398 1.5298796 1.0601001
-0.22161539 1.5358745 0.98692679
-0.23478626 1.5323359 0.91245508
-0.24685052 1.5514109 0.84424591
-0.25919232 1.5631531 0.77446604
-0.27175558 1.5654724 0.70343316
-0.29051349 1.5636657 0.59737605
-0.30284262 1.5686212 0.52766758
-0.31523418 1.5581051 0.45760679
-0.32751447 1.5581107 0.3881745
-0.33982363 1.5596499 0.31857851
-0.3522799 1.5666819 0.24814881
-0.37084663 1.5595751 0.143171
-0.38388649 1.5740416 0.069435693
-0.39658296 1.5700625 -0.002354552
-0.40955895 1.5692852 -0.075728208
-0.42275989 1.5686471 -0.15037574
-0.43713361 1.5841922 -0.23166506
-0.4508059 1.5804284 -0.30898222
-0.47066811 1.5580734 -0.42129901
-0.42289582 0.8466593 -0.15072942
-0.49870959 1.5370276 -0.57988173
-0.51420587 1.5361391 -0.66752905
-0.39638382 0.17514904 -0.0001298889
-0.39623305 0.12822127 0.00081618945
-0.39646488 0.088479355 -0.00040460337
-0.39664438 0.051697567 -0.0013294475
-0.39791706 0.0079773124 -0.0083991252
-0.39680192 -0.014842425 -0.0020394335
-0.39786422 -0.053717129 -0.0079186009
-0.39807829 -0.080381915 -0.0090403818
-0.39779374 -0.10787445 -0.0073389686
-0.39782697 -0.13235982 -0.0074373265
-0.39780051 -0.15583658 -0.0071976404
-0.39772984 -0.17834072 -0.0067079887
-0.39777893 -0.19939876 -0.0068965745
-0.39781886 -0.21963328 -0.0070334696
-0.39770746 -0.23955214 -0.0063135149
-0.39760619 -0.25869694 -0.0056511797
-0.39768672 -0.27673802 -0.0060183546
-0.39814508 -0.30217245 -0.0084808068
-0.39792415 -0.31971532 -0.0071415035
-0.39808601 -0.33613917 -0.0079695582
-0.397973 -0.35268956 -0.0072415322
-0.3979229 -0.36882597 -0.0068697906
-0.3979415 -0.38462859 -0.006887204
-0.39786133 -0.4003188 -0.0063454066
-0.39802963 -0.41566703 -0.0072108693
-0.39819318 -0.43863201 -0.0080057252
-0.39812779 -0.45392865 -0.0075482251
-0.39814347 -0.46918222 -0.0075499304
-0.39824024 -0.48447877 -0.0080108279
-0.39824364 -0.49981716 -0.0079433993
-0.39832592 -0.51530027 -0.0083227241
-0.39826959 -0.53865594 -0.0078741862
-0.3984513 -0.55470067 -0.0088169649
-0.39853004 -0.57090503 -0.0091768522
-0.39867121 -0.58752269 -0.0098907435
-0.39886796 -0.6046313 -0.010919459
-0.39911228 -0.62230593 -0.012217865
-0.39939517 -0.64061844 -0.013734969
-0.39878616 -0.66652691 -0.010158915
-0.39906034 -0.6862824 -0.011627587
-0.39933801 -0.70687073 -0.013116405
-0.39960623 -0.72834677 -0.014551988
-0.39911339 -0.75904822 -0.011636264
-0.39910519 -0.78190076 -0.011507413
-0.39973289 -0.80879062 -0.014980825
-0.399858 -0.8350172 -0.015608157
-0.39879185 -0.87075752 -0.0094484696
-0.39922774 -0.90279305 -0.011837943
-0.3997198 -0.93766952 -0.014546726
-0.40022025 -0.97551531 -0.017304089
-0.57483071 -2.3869605 -1.0063673
-0.57566786 -2.5404575 -1.0110747
-0.57654315 -2.7107632 -1.0160044
-0.57138795 -2.9400165 -0.98676413
-0.57318097 -3.1720994 -0.99691379
-0.57502985 -3.4382548 -1.0073925
-0.57527381 -3.7255466 -1.0087917
-0.57830524 -4.1015706 -1.026008
-0.56532496 -4.5158381 -0.9525286
-0.49765983 -10.049683 -0.57085735
-0.44163471 -10.265594 -0.25360474
-0.38405031 -10.611385 0.072430536
-0.32242396 -10.685612 0.42145598
-0.25989968 -10.759377 0.77556789
-0.19636026 -10.830377 1.1354312
-0.035807543 -10.870061 2.0448291
0.0026317702 -4.8710365 2.2652881
0.1594744 -6.4091058 3.152993
0.16452861 -5.9620991 3.1818664
0.14580454 -5.3239136 3.0761549
0.20256516 -5.2975049 3.3977318
0.18454449 -4.4786897 3.2961602
0.18674496 -4.2136388 3.3088088
0.15361312 -3.7283115 3.121448
0.18546313 -3.7094576 3.3019156
0.18345509 -3.4781036 3.2907195
0.18639234 -3.1939964 3.307595
0.1825579 -2.9897025 3.2860465
0.18026841 -2.8061223 3.2732399
0.18083282 -2.645889 3.2765875
0.17238902 -2.4573681 3.2289295
0.17965433 -2.3398132 3.2702117
0.17954281 -2.1991196 3.2697256
0.1771268 -1.9919 3.2562599
0.17436275 -1.8576626 3.2407498
0.17075241 -1.726836 3.2204454
0.16762605 -1.6025589 3.2028801
0.16589384 -1.4858873 3.1932082
0.16699231 -1.3781132 3.1995654
0.16925086 -1.2209927 3.2125607
0.15557627 -1.0978041 3.1352539
0.15843897 -1.0005211 3.1516013
0.12962118 -0.87452513 2.9885259
0.1689318 -0.80956227 3.2113001
0.16413745 -0.70720834 3.1842833
0.16096605 -0.60787892 3.1664579
0.15545027 -0.50993854 3.1353538
0.15415514 -0.36591524 3.1282244
0.15256557 -0.27036998 3.1193593
0.15039925 -0.17533624 3.1072278
-0.2671586 -0.38674226 0.74226278
-0.26833367 -0.37649897 0.73568994
-0.2669037 -0.36195236 0.74387532
0.14724874 0.68808883 3.0906305
0.14248084 0.7886982 3.0637741
0.13671879 0.94659042 3.0313675
0.13434047 1.0596784 3.0180562
0.13276397 1.1793406 3.0092916
0.13302116 1.3108238 3.0109224
0.13433471 1.4531876 3.0185452
0.13815914 1.6148095 3.0404041
0.11327226 1.6484668 2.8995483
0.078693822 1.6981 2.7038507
0.047627676 1.6758085 2.5279546
0.023744104 1.6832958 2.3927624
-0.02369904 1.525405 2.1240058
-0.016828453 1.7204791 2.1631451
-0.040523138 1.7025653 2.0290039
-0.062217865 1.6893654 1.9061937
-0.088162661 1.710134 1.7593759
-0.10463013 1.7250037 1.666194
-0.26756093 0.23439302 0.74242282
-0.27190143 0.24437739 0.71792227
-0.21206546 1.5231845 1.0579946
-0.23138167 1.5310414 0.94870895
-0.24374035 1.5435944 0.87879562
-0.25564179 1.5683497 0.81148118
-0.26872045 1.5552084 0.73746979
-0.28111231 1.5601691 0.66736192
-0.29336089 1.5715897 0.59807026
-0.30576697 1.5725684 0.52787817
-0.3243219 1.5673654 0.42289126
-0.33670235 1.5751274 0.35284868
-0.34888253 1.5564442 0.28391987
-0.36139968 1.5652111 0.2131028
-0.37383351 1.5624864 0.14274859
-0.38664249 1.5690552 0.070275865
-0.40579715 1.5660503 -0.038110673
-0.41905424 1.5697311 -0.11312492
-0.43209681 1.5638454 -0.18693203
-0.4463729 1.5750419 -0.26771387
-0.46022639 1.5726694 -0.34611285
-0.47419724 1.5671933 -0.42517954
-0.48804364 1.5558442 -0.5035466
-0.50839537 1.5276874 -0.61874026
-0.52479988 1.5337319 -0.711586
-0.39977178 0.15765719 -0.0042379997
-0.39961958 0.11259659 -0.0033362522
-0.39967424 0.073053576 -0.0036022721
-0.39957321 0.035730164 -0.0029847645
-0.39982703 0.0035170196 -0.0043734806
-0.39978492 -0.028168077 -0.0040854723
-0.39970815 -0.057882052 -0.0035998463
-0.40002239 -0.083735608 -0.0053260815
-0.39984685 -0.11046539 -0.0042786952
-0.3998588 -0.13484119 -0.0042916071
-0.39981186 -0.15820538 -0.0039703008
-0.39986748 -0.18004948 -0.0042288536
-0.40038452 -0.20962863 -0.0070707104
-0.40080327 -0.22830173 -0.0093841515
-0.40046403 -0.24858135 -0.0074047698
-0.40029147 -0.26761693 -0.0063690697
-0.40030473 -0.28556579 -0.0063849776
-0.40035728 -0.30293408 -0.0066231377
-0.4001272 -0.32041126 -0.0052604964
-0.40028027 -0.33676884 -0.0060675316
-0.40048173 -0.36085531 -0.0071186484
-0.40054572 -0.37672392 -0.0074209478
-0.40051025 -0.39249048 -0.0071598338
-0.40054917 -0.40801254 -0.0073200618
-0.40049264 -0.42346141 -0.0069395509
-0.40068874 -0.43871301 -0.0079903565
-0.40061837 -0.45401004 -0.0075317342
-0.40062907 -0.469264 -0.0075322925
-0.40064496 -0.49219146 -0.0075327149
-0.40059683 -0.5075267 -0.007200426
-0.40079916 -0.52315378 -0.008287508
-0.40090367 -0.53891325 -0.0088207386
-0.40107897 -0.55499268 -0.0097556114
-0.40098017 -0.57914501 -0.0091083925
-0.40106228 -0.59584039 -0.0095161311
-0.40119791 -0.61303151 -0.01022788
-0.40121669 -0.63043416 -0.010277792
-0.40143609 -0.64880365 -0.011465402
-0.40168154 -0.66788167 -0.012801642
-0.40140283 -0.69591117 -0.011140633
-0.40160024 -0.71664536 -0.012206777
-0.40178463 -0.73826379 -0.013200112
-0.40194198 -0.76081473 -0.014041646
-0.40233868 -0.78551674 -0.016241476
-0.40159601 -0.81910193 -0.011958928
-0.40201229 -0.84741122 -0.014274121
-0.40204829 -0.87562203 -0.014434718
-0.4028151 -0.90995532 -0.018742971
-0.40166563 -0.95212609 -0.012165941
-0.57496661 -2.4437432 -0.99546486
-0.57589334 -2.6047151 -1.0008259
-0.57708627 -2.7861538 -1.0077188
-0.57714647 -2.9783251 -1.0082072
-0.58029485 -3.2288146 -1.0262585
-0.57302254 -3.5276976 -0.98529172
-0.57425672 -3.8472767 -0.99257821
-0.57474798 -4.2137208 -0.99571019
-0.57496279 -4.649364 -0.99735546
-0.55266559 -9.8484192 -0.87661952
-0.50056511 -10.164221 -0.58173686
-0.44614881 -10.573971 -0.27384084
-0.3542226 -10.675103 0.24696238
-0.29190645 -10.784082 0.59996587
-0.2284857 -10.861378 0.95926583
-0.16608818 -10.796168 1.3129351
-0.13437253 -10.798702 1.4924778
-0.071343884 -10.774288 1.8498369
-0.0026739184 -10.922258 2.2389643
-0.023921866 -4.9680257 2.1261876
0.15083531 -6.0682979 3.1155953
0.17543301 -5.871439 3.2553341
0.1846527 -5.5365276 3.3080745
0.16351292 -4.9571238 3.1890283
0.1847946 -4.8082633 3.3099105
0.18942611 -4.3885102 3.3367805
0.18825075 -4.1079888 3.3305299
0.15876316 -3.6638551 3.1639993
0.1924454 -3.6547108 3.3549955
0.18255164 -3.3826795 3.2993147
0.17765881 -3.1596074 3.27192
0.17595802 -2.9684241 3.2625782
0.18088587 -2.7371075 3.2908883
0.18139915 -2.5800009 3.2940521
0.15555663 -2.3282108 3.1479447
0.18483494 -2.2962039 3.3139951
0.17543912 -2.1256244 3.2610073
0.17199041 -1.9836518 3.2416923
0.16807203 -1.8468783 3.2197077
0.16906418 -1.6697665 3.2256315
0.16713226 -1.5499897 3.2148826
0.16534793 -1.4344244 3.2049639
0.16393627 -1.3229542 3.1971509
0.16480187 -1.2178966 3.2022359
0.16736598 -1.116685 3.2169411
0.1247743 -0.96555638 2.9757814
0.16982964 -0.86244684 3.2313299
0.16553481 -0.75880325 3.2071588
0.16042186 -0.65729624 3.1783473
0.14183357 -0.55561477 3.0731661
0.1530392 -0.46163025 3.1368248
0.15098403 -0.36579663 3.1253312
0.14956591 -0.270289 3.1174455
-0.26850656 -0.39137161 0.74833757
-0.26965657 -0.38084373 0.74190187
-0.26902637 -0.36765313 0.74555689
0.14221743 0.62734741 3.0770876
0.14181249 0.73742533 3.0749309
0.13704444 0.83857411 3.048039
0.1365248 0.95429116 3.0452304
0.13455531 1.0693645 3.0342021
0.12973061 1.2425395 3.0070539
0.12976976 1.3761027 3.0074129
0.13206103 1.5261586 3.0205419
0.13145185 1.6717595 3.0172267
0.099473156 1.6685861 2.8360419
0.07027398 1.6668787 2.6706102
0.041880276 1.6575601 2.5097384
0.01197041 1.700912 2.3403265
-0.023020232 1.6189367 2.1420293
-0.028993819 1.7290297 2.1082792
-0.053190526 1.70248 1.9711827
-0.072416842 1.7054634 1.8622694
-0.090970755 1.706818 1.7571657
-0.10887752 1.7068863 1.6557285
-0.27242678 0.23539358 0.72837442
-0.2070972 1.5334028 1.0992677
-0.2207498 1.5284292 1.0219383
-0.2337904 1.5291322 0.94807917
-0.24596773 1.5455614 0.87911701
-0.26416439 1.5729722 0.77606612
-0.27686307 1.57138 0.70414174
-0.28950214 1.5651957 0.63255346
-0.30187237 1.5674053 0.56249064
-0.31421804 1.5681232 0.49256626
-0.32654139 1.5473608 0.42276275
-0.33886629 1.5681239 0.35295954
-0.35741025 1.5676104 0.24792546
-0.36989531 1.5691116 0.17720862
-0.38246295 1.5690498 0.1060228
-0.39528117 1.5722948 0.033416554
-0.40816686 1.5718739 -0.039573431
-0.42149016 1.5764675 -0.1150438
-0.43450975 1.5695562 -0.18879491
-0.45492348 1.5671622 -0.30443403
-0.46910754 1.5679719 -0.38478613
-0.48232433 1.5509079 -0.45965773
-0.49695373 1.5480716 -0.54253566
-0.40275803 0.1875032 -0.0084439619
-0.40257427 0.13946663 -0.0073380712
-0.40265459 0.097854994 -0.0077278577
-0.40243885 0.057745732 -0.0064386749
-0.40264753 0.023641516 -0.0075542629
-0.40241787 -0.010605725 -0.0061844243
-0.40236923 -0.041363128 -0.0058400398
-0.40243056 -0.069520593 -0.0061184843
-0.40224567 -0.097170301 -0.0050004814
-0.40250531 -0.12116978 -0.0064020064
-0.40242773 -0.14540181 -0.0058915168
-0.40243927 -0.1680537 -0.0058855666
-0.40271252 -0.18872124 -0.0073631871
-0.40252832 -0.21012934 -0.0062468369
-0.40248597 -0.23017956 -0.0059344131
-0.40229464 -0.24989548 -0.0047769938
-0.40285644 -0.27603099 -0.0078523057
-0.40297535 -0.29355341 -0.0084528141
-0.40281132 -0.31121519 -0.007449015
-0.40285948 -0.32801351 -0.0076479116
-0.40279749 -0.34464088 -0.0072220149
-0.40262747 -0.36107367 -0.0061833183
-0.40269271 -0.37690729 -0.0064781299
-0.40283039 -0.39248216 -0.0071833245
-0.40302968 -0.4156332 -0.0081994571
-0.4031024 -0.43100235 -0.0085355677
-0.40308163 -0.44633916 -0.0083413851
-0.40296787 -0.46162483 -0.0076196501
-0.40310887 -0.4769105 -0.0083419578
-0.40315691 -0.49224731 -0.0085366825
-0.40311143 -0.50761646 -0.008201112
-0.40312463 -0.53092396 -0.0081584593
-0.4031837 -0.54672396 -0.0084145749
-0.4033125 -0.56285083 -0.0090655647
-0.40350547 -0.57938522 -0.010079904
-0.40358984 -0.59611326 -0.010477958
-0.40342647 -0.62134522 -0.0094307242
-0.40355358 -0.63918501 -0.010069809
-0.40371466 -0.65766823 -0.010900958
-0.40405551 -0.6772995 -0.012750398
-0.40424973 -0.69729525 -0.013767899
-0.40351281 -0.72531968 -0.0094646644
-0.4039225 -0.74809998 -0.011701405
-0.40414646 -0.7713508 -0.012884717
-0.40445715 -0.79622835 -0.014558312
-0.40372795 -0.83057886 -0.010292584
-0.40404254 -0.85908204 -0.011985164
-0.40435162 -0.88952774 -0.013645011
-0.40498543 -0.92415327 -0.017143179
-0.58123052 -2.3307626 -1.0154177
-0.58151615 -2.4736259 -1.0168682
-0.57588142 -2.662272 -0.98467577
-0.5774554 -2.854811 -0.99339443
-0.57807612 -3.0618436 -0.99669576
-0.58081591 -3.3208385 -1.011976
-0.58209616 -3.601048 -1.0189617
-0.58420825 -3.938344 -1.0306226
-0.57204717 -4.3227949 -0.96126133
-0.57729161 -4.8783031 -0.99052221
-0.5315938 -9.9711838 -0.72712368
-0.47681001 -10.198411 -0.41615096
-0.42090711 -10.565744 -0.098722115
-0.3601968 -10.754047 0.24584249
-0.29794073 -10.714062 0.59900558
-0.20279026 -10.861238 1.1389302
-0.14055629 -10.788755 1.491698
-0.045257851 -10.778056 2.0318837
0.021914305 -10.857092 2.412708
0.064429156 -8.9106197 2.6522169
-0.017022025 -4.8973079 2.1875997
0.17016597 -6.09552 3.2496598
0.18131481 -5.7557611 3.3126552
0.19433983 -5.4701195 3.3863304
0.17798537 -4.9502549 3.2933061
0.18369129 -4.6713142 3.3255084
0.17997135 -4.3446584 3.304251
0.17567873 -4.0443363 3.2797706
0.17411084 -3.6735663 3.270725
0.18917833 -3.5462267 3.3561184
0.1798401 -3.2861784 3.3030779
0.17459151 -3.0679615 3.2732518
0.1731938 -2.8837223 3.2652814
0.17361486 -2.7187145 3.267637
0.17659554 -2.5730259 3.2845185
0.16116333 -2.2911432 3.1969767
0.18162788 -2.2251949 3.3130314
0.17226033 -2.0586672 3.2599089
0.16755232 -1.9158365 3.2332187
0.16614546 -1.7887272 3.2252553
0.16253389 -1.6608601 3.2047951
0.16204064 -1.5450535 3.2020235
0.15943593 -1.4283197 3.1872835
0.16236925 -1.2715324 3.2039702
0.16427575 -1.168607 3.2148213
0.16655405 -1.0671515 3.2277846
0.12390441 -0.92065912 2.9860003
0.16578741 -0.86141986 3.2235384
0.16012691 -0.75721687 3.1914985
0.15605776 -0.60783786 3.1685171
0.14396046 -0.50916803 3.0999894
0.15054771 -0.41360077 3.1374087
0.14769733 -0.31810778 3.1213191
0.14635104 -0.22265024 3.1137612
-0.27155116 -0.39220688 0.74446028
-0.27168253 -0.38036412 0.74378902
-0.27155492 -0.36793369 0.74458671
0.13736591 0.78880012 3.0637743
0.13195853 0.88889432 3.0332298
0.13167344 1.00676 3.0317373
0.12976527 1.1235582 3.0210459
0.13005053 1.2527937 3.0227993
0.12931406 1.3840379 3.0187645
0.13474356 1.5483291 3.0497067
0.12112269 1.7108903 2.9726923
0.08778391 1.6968888 2.7837639
0.054563265 1.6687961 2.5954995
0.028728301 1.6689676 2.4491231
-0.0011564214 1.6324704 2.2797687
-0.01786726 1.6709583 2.185143
-0.035389047 1.6998068 2.085916
-0.06513153 1.7057743 1.9174427
-0.084881507 1.7003942 1.8055668
-0.101019 1.7206519 1.7141871
-0.1160076 1.7484703 1.6293268
-0.27352622 0.2518166 0.73559016
-0.19633134 1.5259131 1.1741965
-0.21648706 1.5298363 1.0600765
-0.22946025 1.5348665 0.98662883
-0.24223047 1.5400482 0.91433251
-0.25414935 1.564074 0.84687668
-0.26694518 1.5630974 0.77443171
-0.27968526 1.5574915 0.70229936
-0.29190224 1.5701452 0.63314658
-0.31051439 1.5715503 0.52777946
-0.32288674 1.5680337 0.45773414
-0.33510172 1.5330414 0.38855511
-0.34752116 1.5645671 0.31827125
-0.35990188 1.5656064 0.24818224
-0.37257287 1.5760498 0.17645562
-0.39124405 1.5660756 0.070744842
-0.40402192 1.566059 -0.0015964963
-0.41695854 1.5653095 -0.074838579
-0.4303602 1.5695105 -0.15071264
-0.44402555 1.5726775 -0.22808243
-0.45814812 1.5775038 -0.30804288
-0.47168368 1.5679791 -0.38468918
-0.49142975 1.5404121 -0.49651307
-0.40380347 0.17588538 -0.00071966462
-0.40415791 0.13298276 -0.0026949719
-0.40419441 0.091538519 -0.0028674332
-0.40404767 0.052370392 -0.001999747
-0.40410349 0.017682679 -0.0022767151
-0.40407524 -0.014936033 -0.0020758177
-0.405379 -0.052447159 -0.0093949996
-0.40428728 -0.072212614 -0.0031903442
-0.4042154 -0.099114776 -0.0027381638
-0.40506342 -0.13245444 -0.0074722222
-0.40502933 -0.15593135 -0.0072322078
-0.40509701 -0.17789093 -0.0075681387
-0.40529093 -0.19846371 -0.0086187068
-0.40517765 -0.21924368 -0.0079284851
-0.40506199 -0.23919351 -0.0072243977
-0.40495637 -0.2583698 -0.0065769022
-0.40471235 -0.27722451 -0.0051448988
-0.40498269 -0.294292 -0.0066273278
-0.40481034 -0.31188884 -0.0056012301
-0.40524703 -0.33623558 -0.0080019804
-0.40512723 -0.35278609 -0.007273763
-0.40524024 -0.36871469 -0.0078651067
-0.40508196 -0.38472545 -0.0069191265
-0.40516695 -0.40027654 -0.007352395
-0.40515611 -0.41576421 -0.0072425464
-0.40539682 -0.43102938 -0.0085592987
-0.40519756 -0.44640175 -0.0073822546
-0.40541872 -0.46929741 -0.0085658822
-0.40516102 -0.48452446 -0.0070586526
-0.40550357 -0.50000238 -0.0089556156
-0.40557769 -0.51552039 -0.0093312776
-0.40533778 -0.53875452 -0.007905188
-0.40534168 -0.5545916 -0.0078846589
-0.40558231 -0.57100397 -0.0092078056
-0.40571529 -0.58762187 -0.0099216877
-0.40590355 -0.60473073 -0.010950413
-0.40597597 -0.62206358 -0.011323433
-0.40570229 -0.64803547 -0.0097163813
-0.405747 -0.68547463 -0.0099035092
-0.40632388 -0.70697111 -0.013147452
-0.40673044 -0.72896242 -0.015427301
-0.40681592 -0.75086129 -0.015887242
-0.40591541 -0.78141391 -0.010741818
-0.40612397 -0.80642939 -0.011907806
-0.40638512 -0.83319044 -0.01337625
-0.40860257 -0.87183589 -0.025960959
-0.40600044 -0.90218765 -0.011173183
-0.40636301 -0.93630886 -0.013235224
-0.57989174 -2.3783307 -0.99991882
-0.58102357 -2.5340598 -1.0066279
-0.58168703 -2.7025328 -1.0107142
-0.58344954 -2.9011025 -1.0211027
-0.57625705 -3.1413529 -0.98080534
-0.57766527 -3.4006631 -0.98933548
-0.57887828 -3.6982977 -0.99685329
-0.5812254 -4.0637145 -1.0109627
-0.5788846 -4.4252295 -0.9984982
-0.52784938 -9.9195957 -0.72215962
-0.44505388 -10.265711 -0.25372109
-0.38662267 -10.477567 0.076942623
-0.3257426 -10.745693 0.42134523
-0.26280236 -10.829394 0.77786982
-0.19882789 -10.902243 1.1402814
-0.10585064 -10.768372 1.6675594
-0.043572869 -10.717949 2.0210378
-0.0022261974 -4.8848343 2.2710392
0.15304323 -6.3981805 3.1479874
0.16165702 -5.9941273 3.1979499
0.1611757 -5.5442824 3.1964371
0.18434539 -5.3734446 3.3283651
0.19612879 -4.9395118 3.3964076
0.18131062 -4.5029144 3.3135328
0.18184042 -4.2246261 3.3173094
0.14618307 -3.722147 3.1163983
0.17456706 -3.6819191 3.2775562
0.17993364 -3.4967687 3.3085244
0.17216989 -3.2495356 3.2651739
0.17690544 -2.995573 3.2927604
0.17621377 -2.8193071 3.2893374
0.17610718 -2.6554887 3.2891994
0.17051785 -2.4779921 3.2579978
0.1666268 -2.3174546 3.2363837
0.17319582 -2.2016704 3.2739797
0.16741379 -2.0486515 3.2416184
0.16810837 -1.8602737 3.2460971
0.16447833 -1.7292597 3.2258806
0.16149452 -1.6051666 3.2093101
0.16268598 -1.4944265 3.2163823
0.15933962 -1.3774836 3.1977339
0.16036716 -1.2716892 3.2038591
0.14638291 -1.1460162 3.1249032
0.15461253 -1.0552443 3.1718276
0.12134986 -0.87374306 2.9837041
0.16129088 -0.80943817 3.210372
0.15751563 -0.70764446 3.1892383
0.15276638 -0.60767132 3.1625752
0.14966571 -0.51011801 3.1452515
0.14684491 -0.41388422 3.1295087
0.14447978 -0.27058762 3.1164668
0.14247236 -0.17555553 3.1053252
-0.27405778 -0.39245477 0.74347794
-0.27462193 -0.37524277 0.74042296
-0.27386844 -0.36169696 0.74479401
0.13954216 0.68806452 3.090703
0.13508241 0.78951728 3.0656328
0.13181905 0.89603162 3.0473502
0.13025594 1.0105135 3.0387161
0.12458093 1.1777195 3.0068674
0.12555532 1.3119088 3.0126395
0.12656781 1.4531529 3.0186331
0.12969142 1.6116953 3.0366161
0.11096543 1.6747813 2.9305708
0.078379333 1.6619898 2.7458298
0.041670542 1.6856683 2.5377834
0.016691949 1.686913 2.3961957
-0.032067556 1.5200843 2.119545
-0.024529018 1.7196625 2.1625941
-0.048081301 1.7025266 2.0290682
-0.069546461 1.6909655 1.9073843
-0.088437751 1.6919484 1.8003101
-0.10397834 1.7171688 1.7122645
-0.12371255 1.7871261 1.6005129
-0.19219506 1.521536 1.2120155
-0.20585363 1.5238667 1.1346145
-0.21910083 1.5279127 1.0595475
-0.23214675 1.5310042 0.98562056
-0.25041184 1.5581867 0.88214642
-0.26281321 1.5702918 0.81188232
-0.2756401 1.566054 0.73918813
-0.28807884 1.5710706 0.66870397
-0.30064464 1.564602 0.59748775
-0.3129712 1.5675635 0.527637
-0.32529855 1.5670453 0.45777836
-0.34371448 1.5591317 0.35340908
-0.35621971 1.5763931 0.2825577
-0.36847261 1.5652118 0.21311074
-0.38110596 1.5714028 0.14152189
-0.39388877 1.5759561 0.069083609
-0.40671372 1.5758767 -0.0035976977
-0.42608455 1.5707134 -0.11338075
-0.43946961 1.5715162 -0.18923794
-0.45269451 1.5646653 -0.26419321
-0.46708855 1.5717645 -0.34576741
-0.48028585 1.5561799 -0.42057285
-0.49404585 1.5450058 -0.49856561
-0.50895447 1.543213 -0.58306462
-0.53111094 1.5285864 -0.70865095
-0.40695807 0.15932085 -0.0054142023
-0.40692052 0.11501909 -0.0051624351
-0.40677097 0.073858462 -0.00427202
-0.40690312 0.038023353 -0.0049744444
-0.40681514 0.0035472421 -0.0044265878
-0.40677372 -0.028136615 -0.0041399859
-0.40707901 -0.055803165 -0.0058162278
-0.40714362 -0.08304543 -0.0061264285
-0.40710816 -0.10917141 -0.0058676191
-0.40698984 -0.13420279 -0.0051376307
-0.40694767 -0.15759401 -0.0048376797
-0.40800473 -0.18655987 -0.010736292
-0.40783188 -0.20808735 -0.0096927099
-0.40780032 -0.22825934 -0.0094487742
-0.40761909 -0.24809934 -0.0083555346
-0.40729228 -0.26757219 -0.0064357608
-0.40730724 -0.28551978 -0.0064526931
-0.40736151 -0.30288681 -0.0066918693
-0.40729877 -0.32005373 -0.0062668165
-0.40712148 -0.3369948 -0.0051916176
-0.4071694 -0.35320118 -0.0053924778
-0.40728357 -0.36906072 -0.0059684906
-0.40769735 -0.39227974 -0.0082066758
-0.40756711 -0.40795708 -0.0073952479
-0.40751314 -0.42340469 -0.0070157144
-0.40771168 -0.43865499 -0.0080675371
-0.40747049 -0.45396832 -0.0066252328
-0.40783131 -0.46922085 -0.0085960925
-0.40775228 -0.48449919 -0.0080722012
-0.40780586 -0.50756752 -0.0082615288
-0.40766665 -0.5229497 -0.0073950519
-0.40777552 -0.5386734 -0.0079347333
-0.40778562 -0.55450946 -0.0079139564
-0.40820131 -0.57116264 -0.010192411
-0.40833953 -0.5878132 -0.010897053
-0.4081195 -0.63000262 -0.0094483895
-0.4088254 -0.64951032 -0.013369749
-0.40843883 -0.67636967 -0.011054261
-0.40833205 -0.695364 -0.010365437
-0.40873161 -0.73765355 -0.012462091
-0.40846059 -0.79316407 -0.01070916
-0.40887693 -0.84601301 -0.012891742
-0.40931085 -0.87621647 -0.015260953
-0.41173548 -0.93632346 -0.0288676
-0.40847704 -0.94980639 -0.010299475
-0.4083913 -0.98476797 -0.0097165313
-0.5807361 -2.4306142 -0.98641121
-0.58227795 -2.5954077 -0.99498504
-0.58284646 -2.7698505 -0.99802947
-0.58332777 -2.9642763 -1.0005653
-0.58565819 -3.2038958 -1.013562
-0.57908815 -3.5066569 -0.9759835
-0.58014441 -3.8203835 -0.98169994
-0.58197713 -4.2023163 -0.99177629
-0.58211941 -4.6330872 -0.99222857
-0.58442283 -5.8677425 -1.0043391
-0.56354684 -9.8898058 -0.88297147
-0.51044363 -10.155098 -0.58141267
-0.4562856 -10.563852 -0.27377164
-0.36474416 -10.704011 0.24584763
-0.30258134 -10.744039 0.59866792
-0.23943324 -10.831408 0.957111
-0.17391382 -10.990457 1.3290571
-0.14626929 -10.73908 1.4856945
-0.077949397 -10.948669 1.8733455
-0.017973617 -10.778609 2.2134085
0.14861268 -6.1521182 3.1554208
0.16790837 -5.8902254 3.2647381
0.16296372 -5.0345359 3.2362566
0.17795934 -4.825922 3.3212285
0.16912322 -4.4430356 3.2709334
0.18048917 -4.1144547 3.3352807
0.15040722 -3.6648395 3.1644588
0.18419778 -3.6564231 3.3561571
0.17649485 -3.396359 3.3123765
0.17061654 -3.1666677 3.278965
0.16980612 -2.9791598 3.2743227
0.16627762 -2.7903447 3.254266
0.16844125 -2.6380231 3.2665148
0.14608905 -2.3228414 3.1396668
0.17944856 -2.305984 3.3289192
0.17001779 -2.1343596 3.2754054
0.16390638 -1.9834133 3.24073
0.16065368 -1.8484221 3.2222774
0.15844616 -1.7219228 3.2097585
0.15982151 -1.5512913 3.2175715
0.15807836 -1.435626 3.2076943
0.15653932 -1.3237623 3.1989777
0.15726981 -1.2183787 3.2031367
0.16003107 -1.117359 3.2188156
0.11802314 -0.96671009 2.9805732
0.15235998 -0.90455663 3.1753459
0.15560623 -0.80734813 3.1937792
0.15252921 -0.65737385 3.1763628
0.14786194 -0.55855024 3.1499181
0.14797811 -0.46184352 3.1506028
0.14351651 -0.36600688 3.1253273
0.14177558 -0.27063721 3.1154821
0.14066927 -0.17511727 3.1092362
-0.27668637 -0.38058099 0.74280596
0.13126588 0.61853367 3.0561385
0.13299949 0.7331599 3.0659931
0.13108885 0.84188467 3.0551846
0.12857479 0.95174932 3.0409539
0.12603982 1.064672 3.0266037
0.12549004 1.1883411 3.0235069
0.12744625 1.3270298 3.0346146
0.12289727 1.5169424 3.0088482
0.12452825 1.6721994 3.0181048
0.090461276 1.658574 2.8250024
0.064130425 1.6714953 2.6757588
0.035471458 1.6609534 2.5133245
0.012656644 1.6737831 2.384021
-0.026953788 1.5669091 2.1595283
-0.035446703 1.7328641 2.111413
-0.059561875 1.7072407 1.9747546
-0.079298131 1.7062089 1.8629172
-0.097483695 1.710984 1.7598711
-0.11306557 1.7345326 1.6715817
-0.17046718 1.7475318 1.3463552
-0.20129316 1.5193925 1.1717355
-0.21424212 1.5305487 1.0983834
-0.22767322 1.5293739 1.0223029
-0.24053827 1.5339562 0.94942981
-0.25235051 1.5601768 0.88251734
-0.26523194 1.5585538 0.80955446
-0.28385273 1.5704037 0.704081
-0.29637682 1.5701876 0.6331439
-0.30883786 1.5674304 0.56256568
-0.32118955 1.5671542 0.49260637
-0.33350837 1.5603964 0.42283642
-0.34583193 1.5681647 0.3530331
-0.3581776 1.5674528 0.28310814
-0.37692481 1.5721431 0.17692122
-0.38937545 1.5671333 0.10640284
-0.40228087 1.5733404 0.0333005
-0.41513401 1.5719432 -0.039502099
-0.42836747 1.5746105 -0.11446308
-0.44178227 1.5753739 -0.19045177
-0.4556593 1.5788798 -0.269063
-0.47497249 1.5523022 -0.37844646
-0.48922583 1.5500925 -0.45918941
-0.50278562 1.5346925 -0.53599364
-0.51870871 1.5418862 -0.62620991
-0.40821528 0.19762191 0.0011666748
-0.40819961 0.14951397 0.0013590192
-0.40821832 0.10625616 0.0013540053
-0.40824452 0.06688524 0.0013050287
-0.41006601 0.025186256 -0.0088828579
-0.41009185 -0.0076704887 -0.0089328792
-0.40981561 -0.039916668 -0.0072702481
-0.4100188 -0.067456573 -0.0083284909
-0.40985036 -0.095185913 -0.0072792759
-0.40985182 -0.12049867 -0.0071946206
-0.41006276 -0.14358349 -0.0082990713
-0.40994453 -0.166881 -0.0075366786
-0.40993339 -0.18866754 -0.0073821717
-0.40960234 -0.21057639 -0.0054136794
-0.40971363 -0.23012713 -0.005954768
-0.40952554 -0.2498437 -0.0047979718
-0.41009155 -0.27597988 -0.0078740716
-0.41005114 -0.29386124 -0.0075557083
-0.410052 -0.31116524 -0.0074718054
-0.41010278 -0.32796413 -0.0076711741
-0.41004336 -0.34459209 -0.0072457339
-0.41156772 -0.35877532 -0.015802978
-0.4099434 -0.37685972 -0.0065027098
-0.41008332 -0.3924351 -0.0072083152
-0.4100754 -0.4234055 -0.0069881524
-0.41027611 -0.43865678 -0.0080390731
-0.41037279 -0.47686657 -0.0083691329
-0.41024932 -0.49213427 -0.0075818258
-0.41041318 -0.52309591 -0.0083369641
-0.41045496 -0.54668266 -0.0084436098
-0.41061169 -0.57908618 -0.0091586141
-0.41086507 -0.59607351 -0.010508444
-0.41067058 -0.63877219 -0.0091884723
-0.41099364 -0.6576305 -0.01093338
-0.41102305 -0.67638558 -0.011013201
-0.41122347 -0.6963197 -0.012062637
-0.41187528 -0.71858394 -0.015671315
-0.41190615 -0.73979181 -0.01575914
-0.4128516 -0.77705133 -0.020988705
-0.41160086 -0.79559243 -0.01380936
-0.41237968 -0.82407355 -0.018137379
-0.41106683 -0.85771132 -0.010561557
-0.41113377 -0.88671714 -0.010852742
-0.41347319 -0.93131447 -0.02402786
-0.58680785 -2.3188591 -1.0064584
-0.58756548 -2.464644 -1.0106444
-0.58801407 -2.6228192 -1.0130759
-0.58379686 -2.847017 -0.98899549
-0.58377594 -3.0468967 -0.98875719
-0.58666611 -3.306504 -1.0050162
-0.58874601 -3.5955322 -1.0166757
-0.58950669 -3.9143338 -1.0208488
-0.5782463 -4.309566 -0.95680004
-0.5361293 -9.8778296 -0.71644294
-0.4828974 -10.171474 -0.41445088
-0.42779744 -10.613655 -0.10183969
-0.36640304 -10.684052 0.24639876
-0.3042016 -10.764064 0.59921509
-0.20904337 -10.871251 1.1389627
-0.14656772 -10.808698 1.4931111
-0.080762692 -10.897161 1.866443
0.060609166 -8.9735031 2.6683075
-0.021333657 -4.9372482 2.2032349
0.149405 -6.1862097 3.1719849
0.17213482 -5.7348795 3.3009553
0.19062792 -5.5036607 3.4058883
0.16895026 -4.9344239 3.2829242
0.18070255 -4.7066426 3.3496225
0.17382194 -4.3535442 3.3106165
0.17272468 -4.0755205 3.3044236
0.15159778 -3.6881669 3.1846063
0.18578258 -3.5700605 3.3785887
0.1735727 -3.2925205 3.3093626
0.17041123 -3.0847774 3.2914686
0.16657332 -2.8876634 3.2697389
0.16714241 -2.7231069 3.2730093
0.16929501 -2.573694 3.2852631
0.14579564 -2.3311546 3.1520061
0.17505796 -2.2283614 3.3180621
0.16616008 -2.063103 3.2676337
0.16193765 -1.9213536 3.243727
0.16087344 -1.7947108 3.2377348
0.15649489 -1.6644406 3.2129431
0.1552092 -1.5465484 3.2056947
0.15343255 -1.4313089 3.1956615
0.15622164 -1.2737938 3.2115469
0.15645567 -1.168177 3.2129173
0.15907116 -1.0672036 3.2277946
0.11694835 -0.92122376 2.9889214
0.15899664 -0.86202431 3.2274547
0.15230778 -0.75705224 3.1895573
0.14807774 -0.65651703 3.1656055
0.13042551 -0.50859219 3.0655475
0.14153068 -0.41379297 3.1285694
0.13972975 -0.31829768 3.1183922
0.13856521 -0.22285521 3.1118233
-0.27838796 -0.39155784 0.74735451
-0.27919587 -0.38057962 0.74283773
-0.27923205 -0.36845762 0.7426976
0.021596877 0.45426512 2.448808
0.12543306 0.89115828 3.0376348
0.12363411 1.0043324 3.0274458
0.12161297 1.1204668 3.0159936
0.12164892 1.2484375 3.0162015
0.12309811 1.3880554 3.0244181
0.12547903 1.5393069 3.0379117
0.12184449 1.6716703 3.0172949
0.082720242 1.7076075 2.7954667
0.049946725 1.682706 2.6096573
0.023679668 1.6812168 2.4607384
-0.0056882123 1.6488433 2.2942481
-0.02638917 1.6610274 2.1768911
-0.041370954 1.7077166 2.091953
-0.065323584 1.6814158 1.9561726
-0.089625552 1.7205579 1.8184047
-0.10721193 1.7284048 1.7187129
-0.12088097 1.770376 1.6412201
-0.13975206 1.7533941 1.5342546
-0.15653324 1.7515601 1.4391338
-0.17257422 1.7521751 1.3482096
-0.20348385 1.5231611 1.1730858
-0.21701516 1.5249076 1.0963962
-0.23624931 1.5378026 0.98738325
-0.24902369 1.5430127 0.91498399
-0.26097906 1.566085 0.84721893
-0.273835 1.5631533 0.77436119
-0.2865153 1.5595289 0.70249999
-0.298875 1.5642362 0.63245159
-0.31124404 1.5654485 0.56235242
-0.32972515 1.5660943 0.45761451
-0.34195033 1.5401013 0.38834801
-0.35434663 1.5666257 0.31807661
-0.3666963 1.5656685 0.24808732
-0.37922531 1.5701572 0.17707689
-0.39184618 1.5720686 0.10554697
-0.41098636 1.5719913 -0.0029314926
-0.42377773 1.567314 -0.075424939
-0.4369854 1.5676519 -0.15028332
-0.45051742 1.5689373 -0.22698236
-0.46430534 1.5691103 -0.30513248
-0.47725952 1.5522804 -0.37854165
-0.49136403 1.5482404 -0.45848507
-0.51266211 1.5351901 -0.57919729
-0.52777857 1.5308315 -0.66488081
-0.41128674 0.17927071 -0.002966566
-0.41146782 0.13467036 -0.003894781
-0.41141787 0.092396602 -0.0035138275
-0.41128618 0.053207051 -0.0026708632
-0.41112348 0.017010603 -0.0016541042
-0.41146103 -0.013425684 -0.0034786772
-0.41127434 -0.044779211 -0.0023287309
-0.4115763 -0.071470864 -0.0039537624
-0.41164875 -0.097756036 -0.0042770198
-0.41149706 -0.12357551 -0.0033289145
-0.41235444 -0.15528345 -0.0080657601
-0.41243184 -0.17727147 -0.0084195761
-0.41233742 -0.19890349 -0.0077988082
-0.41237918 -0.21916787 -0.0079513714
-0.41226968 -0.23911719 -0.0072459416
-0.41225168 -0.27636564 -0.0069768187
-0.41204584 -0.29457256 -0.0057255635
-0.41220552 -0.3114849 -0.0065486934
-0.41225326 -0.32825014 -0.0067369705
-0.41185576 -0.34536177 -0.0043989727
-0.41235933 -0.36079317 -0.0071735093
-0.41233817 -0.38464484 -0.0069295918
-0.41242886 -0.40019545 -0.0073615122
-0.41276908 -0.41547352 -0.0092091179
-0.41267022 -0.4309473 -0.0085656438
-0.41265059 -0.44628423 -0.0083713066
-0.41262934 -0.48449293 -0.0080431988
-0.41263187 -0.49983096 -0.0079741068
-0.41287053 -0.53102612 -0.0091601023
-0.41275901 -0.54666984 -0.0084432783
-0.41392574 -0.5723688 -0.014932964
-0.41305539 -0.58753479 -0.0099115344
-0.41308641 -0.60433418 -0.010001652
-0.41316906 -0.62163359 -0.010383743
-0.41345593 -0.63988066 -0.011923321
-0.4215129 -0.68893522 -0.057474729
-0.41328952 -0.68583882 -0.010758747
-0.41341844 -0.7059114 -0.011399859
-0.41384217 -0.72784179 -0.013711211
-0.41438255 -0.75131482 -0.016682435
-0.41349375 -0.78190964 -0.011503516
-0.41357514 -0.80633694 -0.01186938
-0.41398379 -0.83374029 -0.014088534
-0.41469491 -0.89364332 -0.017918324
-0.4135305 -0.93402022 -0.011163514
-0.58767408 -2.375077 -0.99731648
-0.58861601 -2.5282671 -1.0024195
-0.58837092 -2.6873786 -1.0007803
-0.59168458 -2.898473 -1.0192724
-0.59255797 -3.1116443 -1.0239165
-0.5857085 -3.3916161 -0.98463285
-0.58722353 -3.690017 -0.99281788
-0.58892399 -4.0423312 -1.0019925
-0.58830243 -4.4251709 -0.99795675
-0.58913702 -4.9143944 -1.0020597
-0.54361373 -10.057488 -0.73743796
-0.48659137 -10.171466 -0.41369662
-0.40028685 -10.534424 0.076515086
-0.33926809 -10.646568 0.42293334
-0.27706245 -10.729313 0.77605313
-0.21372172 -10.810305 1.1356125
-0.116426 -10.921038 1.6876858
-0.054025926 -10.839234 2.0416131
-0.011160017 -4.9002857 2.2782564
0.14288133 -6.4088259 3.1538832
0.15661156 -6.0589423 3.2314246
0.16108756 -5.6525111 3.2564058
0.17948137 -5.426362 3.3605475
0.16593368 -4.9342799 3.2831907
0.16450143 -4.5975513 3.2747407
0.17909925 -4.2756324 3.3572738
0.14829992 -3.8008456 3.1820786
0.16603883 -3.6869128 3.2826395
0.17191125 -3.5037563 3.3158073
0.16584076 -3.2646165 3.2811635
0.16048631 -3.0471928 3.250607
0.16084267 -2.8727715 3.252496
0.16947231 -2.6643248 3.3013132
0.17214392 -2.5191042 3.3163712
0.1562278 -2.31019 3.225914
0.16847233 -2.2143655 3.2953343
0.15921637 -2.0489585 3.2427094
0.15539774 -1.9094697 3.2209587
0.15916878 -1.7364122 3.2422612
0.15372553 -1.6057497 3.2113061
0.15465738 -1.4942633 3.216538
0.15253323 -1.3794875 3.2044306
0.15229678 -1.2712568 3.2030401
0.14276451 -1.1519134 3.1489034
0.15548752 -1.0657004 3.2210565
0.11218993 -0.91874915 2.9753418
0.15690818 -0.81161189 3.2290177
0.14991428 -0.70750505 3.1893008
0.1446985 -0.60737818 3.1596761
0.14286296 -0.51005536 3.1492312
0.13991797 -0.41370264 3.1324942
0.13795452 -0.31812412 3.1213269
0.13662705 -0.22266826 3.1137686
-0.28109184 -0.39215437 0.74443001
-0.28147954 -0.3746343 0.74231243
-0.28122011 -0.36189938 0.74383783
0.13371551 0.69089508 3.0969887
0.12833783 0.79003263 3.0664582
0.12449732 0.89475971 3.0446439
0.12253308 1.0076919 3.0334668
0.12273338 1.1317588 3.03456
0.11771003 1.3075153 3.0060093
0.11908398 1.4497031 3.0137467
0.12269745 1.6099219 3.0341737
0.10694041 1.6870641 2.944788
0.074672498 1.6767783 2.7618148
0.043842304 1.6604295 2.5870032
0.018440209 1.6624678 2.4429688
-0.031857405 1.4949785 2.1578522
-0.031901691 1.7135071 2.1575189
-0.053010087 1.7145654 2.0378442
-0.075146005 1.6983966 1.9123552
-0.094267622 1.6978767 1.8039528
-0.11063882 1.7155114 1.7111379
-0.12498484 1.749351 1.6297982
-0.14941482 1.7628376 1.491307
-0.16598532 1.760986 1.3973788
-0.19142586 1.6254327 1.2532433
-0.21238202 1.5239223 1.1345181
-0.22557271 1.5289192 1.0597569
-0.23838215 1.5368271 0.98715609
-0.2505179 1.556585 0.91836727
-0.2634972 1.5543387 0.84481144
-0.28209478 1.5680853 0.73940706
-0.29479906 1.5612017 0.6674152
-0.30715311 1.564659 0.5974018
-0.3194783 1.5676211 0.5275526
-0.33183083 1.5591048 0.45755762
-0.34411833 1.5691102 0.38791674
-0.36260319 1.5664781 0.28316525
-0.37508667 1.5712405 0.21241696
-0.38765788 1.5734464 0.14117283
-0.40042099 1.5770054 0.068839185
-0.41307181 1.5720303 -0.0028507882
-0.42594752 1.5692989 -0.07581833
-0.43926278 1.571547 -0.15128328
-0.45947984 1.5694661 -0.2658616
-0.47284436 1.5606363 -0.34159744
-0.48699337 1.5590191 -0.4217892
-0.50033289 1.542367 -0.49737766
-0.5132575 1.5183462 -0.57060695
-0.41225111 0.16936105 0.0036367197
-0.41435489 0.11907329 -0.0081596859
-0.41412976 0.077027574 -0.0067844051
-0.41417471 0.040347561 -0.0069456627
-0.41422608 0.0065322863 -0.0071455985
-0.41408613 -0.025956152 -0.0062613259
-0.41390201 -0.056426797 -0.0051282328
-0.41436055 -0.08167506 -0.0076448605
-0.4147422 -0.10596671 -0.0097259888
-0.41423133 -0.13294184 -0.0067424537
-0.41397953 -0.17940955 -0.0051486697
-0.4141694 -0.19989283 -0.0061453655
-0.41405293 -0.22058164 -0.0054042502
-0.41459975 -0.24804449 -0.0083883451
-0.41429824 -0.25825197 -0.0066379714
-0.41390008 -0.27749708 -0.0043001864
-0.41467422 -0.30214909 -0.0085764825
-0.41445187 -0.3196916 -0.0072376486
-0.41444463 -0.33639079 -0.0071196491
-0.41432831 -0.35290709 -0.0063832649
-0.41427493 -0.36900911 -0.0060043102
-0.41429031 -0.38477707 -0.0060157748
-0.41403538 -0.4005717 -0.0044939499
-0.41454512 -0.41564089 -0.0073105101
-0.41453192 -0.4386577 -0.0071229041
-0.41429082 -0.4539367 -0.0056801829
-0.41482511 -0.46917194 -0.0086365379
-0.41474608 -0.48445076 -0.0081135118
-0.41462675 -0.50741535 -0.0073248134
-0.41483188 -0.52304143 -0.0084139779
-0.4147684 -0.53862655 -0.0079794768
-0.41477805 -0.55446303 -0.007959798
-0.41536155 -0.57135826 -0.011195051
-0.41533065 -0.58776742 -0.010945347
-0.41494659 -0.62959987 -0.0085805533
-0.41549388 -0.64868474 -0.011609797
-0.41715968 -0.67156404 -0.02098237
-0.41585293 -0.68715698 -0.013496011
-0.41542009 -0.73655158 -0.010852511
-0.41544846 -0.75845468 -0.010937233
-0.41614547 -0.78421646 -0.014813482
-0.41515267 -0.8164596 -0.0090681333
-0.41545993 -0.84400481 -0.010732859
-0.41615835 -0.87549448 -0.014614705
-0.41668743 -0.90841216 -0.017535498
-0.41690782 -0.94201964 -0.018705072
-0.41524723 -0.98396379 -0.0091684004
-0.59288478 -2.399632 -1.0160937
-0.58758342 -2.5811961 -0.98584437
-0.58749771 -2.7485316 -0.98521984
-0.58914709 -2.952898 -0.99442208
-0.591133 -3.1878819 -1.0055208
-0.59367931 -3.4633079 -1.0197812
-0.59600013 -3.7793293 -1.0327456
-0.58752328 -4.1816568 -0.98439354
-0.58511835 -4.5677276 -0.97052348
-0.51590753 -10.085397 -0.57520288
-0.45945707 -10.274508 -0.25485921
-0.40226987 -10.67031 0.069749728
-0.34039146 -10.705601 0.42081699
-0.24696758 -10.731611 0.95084524
-0.18405572 -10.756453 1.3077699
-0.023687696 -10.80933 2.217587
-0.016926143 -4.8444786 2.2538784
0.13232 -6.296927 3.1011026
0.16458008 -5.9284782 3.284034
0.15767643 -5.4270639 3.2447331
0.17495592 -5.2086825 3.3427217
0.1833231 -4.9306774 3.3901336
0.16878296 -4.4950967 3.3075461
0.16780874 -4.2051954 3.3019676
0.13229865 -3.7032382 3.1004078
0.16859864 -3.714886 3.3063817
0.17218141 -3.4114847 3.3266819
0.1661343 -3.1798975 3.2923553
0.16225459 -2.9761462 3.2703342
0.16396356 -2.8120103 3.2800305
0.16250916 -2.6425006 3.2717814
0.14726456 -2.4266062 3.185293
0.16323569 -2.3438497 3.2759218
0.16566305 -2.1431217 3.2897158
0.15852788 -1.9883646 3.2492523
0.15576962 -1.8543746 3.2336245
0.15248434 -1.7246133 3.2150097
0.15033613 -1.6027759 3.2028482
0.14830126 -1.4854192 3.1913319
0.14978802 -1.3242979 3.1998115
0.15202804 -1.2212106 3.2125511
0.14144 -1.1020675 3.1525195
0.13394454 -0.99252141 3.1100342
0.1137187 -0.87581944 2.9953351
0.15178537 -0.80978012 3.2113144
0.14615215 -0.70698714 3.1793971
0.14213485 -0.60756767 3.1566479
0.14018564 -0.46206918 3.1456518
0.13676549 -0.36619514 3.1262929
0.13519676 -0.27071878 3.1174371
0.13374311 -0.17533605 3.1092348
-0.28376487 -0.38696101 0.74123359
-0.28392747 -0.37519863 0.74037743
0.12961288 0.68592894 3.0861988
0.12352294 0.83993161 3.0517297
0.11917798 0.94404227 3.0271347
0.11804137 1.0609778 3.0207372
0.11692116 1.18232 3.0144329
0.11890931 1.3206873 3.0257583
0.11920033 1.4594518 3.0274584
0.12136552 1.6139917 3.0397878
0.087177955 1.6767681 2.8459666
0.059470441 1.6836097 2.688875
0.030744277 1.6735334 2.5260081
0.0060804961 1.675842 2.386183
-0.03785792 1.5403813 2.1370468
-0.033242576 1.7203596 2.1632767
-0.058474075 1.6904805 2.020237
-0.078870751 1.6868134 1.9046183
-0.10392362 1.7151411 1.7626233
-0.11857228 1.7483128 1.6796054
-0.14377218 1.6652601 1.536752
-0.15321277 1.745687 1.483271
-0.16890463 1.7536112 1.3943399
-0.20138295 1.5169035 1.2102172
-0.21501391 1.5191779 1.1329762
-0.23427077 1.5341316 1.0238616
-0.24657628 1.5513245 0.95413828
-0.25911734 1.562113 0.88307965
-0.27200642 1.5605102 0.8100484
-0.28450456 1.5660937 0.73923427
-0.296987 1.5691301 0.66850972
-0.31566533 1.5674425 0.56268084
-0.32805583 1.5601759 0.49247897
-0.34032783 1.5594189 0.42294905
-0.35260585 1.5611967 0.35338509
-0.36511075 1.5774611 0.28253406
-0.37751943 1.5742372 0.21222986
-0.3900398 1.5734625 0.14129235
-0.40914702 1.5753542 0.033033628
-0.42181322 1.5690757 -0.038730282
-0.43507046 1.5727389 -0.11384656
-0.44857156 1.5754396 -0.19034564
-0.46233222 1.5770595 -0.26831648
-0.47524723 1.5606672 -0.34149072
-0.49494243 1.5364717 -0.45308182
-0.50910032 1.5293878 -0.53330493
-0.52400982 1.5260857 -0.61779112
-0.41558713 0.15530452 -0.0025949818
-0.41573986 0.112702 -0.0033904377
-0.41514412 0.068496153 5.8864272e-05
-0.41558969 0.035081849 -0.0023980269
-0.4157244 0.0021612882 -0.0030918217
-0.41698176 -0.037079711 -0.010118193
-0.41668144 -0.067398325 -0.0083451625
-0.41690809 -0.093198776 -0.0095608933
-0.41691715 -0.11859264 -0.0095429132
-0.41685441 -0.14293654 -0.0091177495
-0.416592 -0.16682169 -0.0075603509
-0.41657722 -0.18860798 -0.0074073449
-0.41650367 -0.22959751 -0.0068522249
-0.41647086 -0.24890649 -0.0065974565
-0.416298 -0.26791 -0.0055483934
-0.41647172 -0.28545144 -0.0064650453
-0.41629797 -0.32029593 -0.0053427424
-0.41665781 -0.34453022 -0.0072811861
-0.41655117 -0.37679735 -0.0065401671
-0.41668773 -0.39237243 -0.0072467267
-0.41667312 -0.42334229 -0.0070284256
-0.41669711 -0.43864566 -0.0070967935
-0.41678527 -0.47676754 -0.0074283243
-0.41700518 -0.4921394 -0.0086085219
-0.41698903 -0.52303088 -0.0083829537
-0.41726601 -0.53896326 -0.0098871337
-0.41700774 -0.5787614 -0.0082563823
-0.41725922 -0.59571481 -0.0096165463
-0.41757926 -0.63066572 -0.011300121
-0.41795799 -0.64945745 -0.013382708
-0.41725484 -0.67544138 -0.0092969034
-0.41761029 -0.69578236 -0.011248165
-0.41826102 -0.71801561 -0.014874636
-0.41744372 -0.74690706 -0.010142723
-0.41880855 -0.77468807 -0.017820805
-0.41770706 -0.79371792 -0.011509688
-0.41835764 -0.82148689 -0.015137263
-0.41823736 -0.84727848 -0.014393009
-0.41739106 -0.8852579 -0.0095002539
-0.4178035 -0.91829681 -0.01177922
-0.41802076 -0.95273465 -0.012951896
-0.5922026 -2.4507794 -1.0009518
-0.59320658 -2.6127591 -1.0066235
-0.59456062 -2.7960825 -1.0142874
-0.58874822 -3.0327928 -0.98129398
-0.58973122 -3.2698631 -0.98687148
-0.59186298 -3.5564508 -0.99897909
-0.59235966 -3.8681984 -1.0018235
-0.59396195 -4.2526798 -1.0109607
-0.58234072 -4.7345147 -0.94510907
-0.579409 -5.2446575 -0.9285773
-0.57284725 -9.9571056 -0.89260387
-0.48930004 -10.216213 -0.4188332
-0.43278372 -10.53668 -0.098396026
-0.37201864 -10.664989 0.24619405
-0.30955538 -10.863993 0.60038912
-0.24753924 -10.741505 0.95215172
-0.18438928 -10.776248 1.3102914
-0.15132192 -10.859392 1.4978225
-0.08793769 -10.835751 1.8574091
-0.023372564 -10.839644 2.2236845
0.13902953 -6.135025 3.1470397
0.15482908 -5.8372316 3.2368307
0.15981041 -5.4622812 3.2652893
0.14919569 -4.9844856 3.2053254
0.16657203 -4.800209 3.3040195
0.1705694 -4.3759718 3.3269506
0.17111379 -4.1082292 3.330205
0.14206029 -3.6663408 3.1656468
0.17561749 -3.6564171 3.3560526
0.16688871 -3.3906963 3.3067102
0.1603035 -3.1577961 3.2695138
0.15639453 -2.9555357 3.2474854
0.15822843 -2.793489 3.2580152
0.1654993 -2.5843546 3.2994332
0.13916245 -2.330111 3.1502171
0.16769962 -2.2953856 3.3121543
0.15953369 -2.1288607 3.2659671
0.15398026 -1.9801292 3.234591
0.15084389 -1.8457948 3.2169182
0.15201066 -1.6692179 3.2237
0.15025555 -1.5498635 3.213855
0.14783067 -1.4330275 3.2002099
0.14675899 -1.3223076 3.1942372
0.14897591 -1.2194231 3.2069125
0.15088308 -1.117144 3.2178304
0.10902566 -0.96671766 2.9805524
0.15192859 -0.91239482 3.2239604
0.14686076 -0.75778162 3.1953673
0.14297108 -0.65717798 3.1734049
0.1355143 -0.55789942 3.131211
0.13579051 -0.46185687 3.1328721
0.13374926 -0.36616188 3.1213894
0.13338453 -0.27037522 3.1194139
0.13166052 -0.12683788 3.1097741
-0.2854906 -0.38624433 0.74414188
0.12016011 0.61401552 3.0452135
0.12540159 0.73720109 3.0750272
0.12220743 0.84273535 3.0569961
0.11906539 0.95078409 3.0392597
0.1183317 1.0696439 3.0351822
0.11803515 1.194671 3.0335832
0.11385361 1.3776046 3.0099895
0.11628469 1.5283452 3.0238593
0.11594343 1.6753144 3.0220041
0.082387961 1.6644502 2.8317635
0.053230457 1.6626054 2.666466
0.025000835 1.6538613 2.5064304
-0.0042744004 1.7007669 2.3405015
-0.037465677 1.6310693 2.1523221
-0.045534242 1.7265462 2.1066334
-0.070930131 1.6902413 1.962667
-0.088420637 1.707029 1.8635375
-0.10651471 1.7126729 1.7609844
-0.1213226 1.7440532 1.6770693
-0.14991911 1.6238267 1.5149484
-0.16320705 1.7524225 1.439688
-0.17850931 1.7631822 1.3529675
-0.20996724 1.5268681 1.1746186
-0.22346702 1.5296122 1.0981215
-0.23663369 1.5332099 1.0235134
-0.24888825 1.5513552 0.95407796
-0.26142895 1.5621401 0.88301951
-0.28040114 1.5690591 0.77551746
-0.29307073 1.5674528 0.7037276
-0.30549929 1.5712038 0.6333046
-0.31808272 1.5584766 0.56200355
-0.330369 1.5591854 0.49238718
-0.34263381 1.5604249 0.42289227
-0.35497102 1.5711935 0.35298604
-0.37358052 1.5736704 0.24753891
-0.38599131 1.5701945 0.1772157
-0.39861456 1.572111 0.10568698
-0.41144571 1.5753455 0.032978546
-0.42426646 1.572962 -0.03967046
-0.43750066 1.5756234 -0.11466517
-0.45708129 1.5652003 -0.22562107
-0.47084868 1.5654247 -0.3036401
-0.48371601 1.5477238 -0.37655276
-0.49751231 1.5401034 -0.45473534
-0.51214671 1.5383518 -0.53767228
-0.52784157 1.5428365 -0.6266247
-0.5525257 1.5486193 -0.76653033
-0.41872409 0.18595085 -0.0073582134
-0.41873807 0.13957193 -0.0073583848
-0.41860771 0.096383773 -0.0065399795
-0.41849723 0.057084069 -0.0058343844
-0.41893607 0.024488857 -0.0082452781
-0.41867149 -0.040565275 -0.0065871445
-0.41848108 -0.070087135 -0.0054283566
-0.4185603 -0.096425183 -0.0057993843
-0.41868865 -0.12106783 -0.0064490242
-0.41861296 -0.14530031 -0.0059410338
-0.41833833 -0.16907117 -0.0043046805
-0.41942567 -0.19731396 -0.010355088
-0.41932404 -0.21815427 -0.009700018
