# .PCD v0.7 - Point Cloud Data file format
VERSION 0.7
FIELDS x y z
SIZE 4 4 4
TYPE F F F
COUNT 1 1 1
WIDTH 540
HEIGHT 1
VIEWPOINT 0 0 0 1 0 0 0
POINTS 540
DATA ascii
0.043187242 -0.64248097 0.0029379581
-0.037097566 -0.62534541 0.0025121327
-0.11785421 -0.60040253 0.0022175831
-0.045280442 -0.62487209 0.0034140062
0.054091286 -0.65075922 0.0043829251
0.035657838 -0.64131945 0.0056886482
-0.023407014 -0.62439179 0.0053627552
-0.055555526 -0.61553007 0.0052715959
0.065142833 -0.64993614 0.0061341575
-0.031389542 -0.62395012 0.0062167514
-0.12230292 -0.60709953 0.0064454423
0.067786157 -0.64955407 0.0070509911
-0.039322138 -0.62356722 0.0071620527
-0.089998275 -0.60688221 0.0074643991
-0.0014874866 -0.64020318 0.0084603559
0.063081615 -0.64015085 0.0084034782
-0.047266435 -0.61464697 0.0080769695
0.089720525 -0.65730089 0.0094811032
0.0091778534 -0.63985646 0.0094083063
-0.087158471 -0.61449987 0.0090473546
-0.11349895 -0.6062395 0.0093279509
-0.17254436 -0.59789836 0.0096857967
-0.14303581 -0.59792906 0.009679636
-0.1673491 -0.58996785 0.0092742397
0.079011559 -0.65688193 0.010357084
-0.19369949 -0.58974886 0.010378109
0.058043491 -0.64749169 0.011598374
0.028330764 -0.63902467 0.011135102
-0.017071337 -0.63026172 0.011832955
-0.0090051871 -0.6301775 0.011807824
-0.068164513 -0.6216833 0.011706017
-0.13454409 -0.60556549 0.011206654
0.020628387 -0.63826078 0.012970191
0.053034373 -0.63821626 0.012964642
-0.070564695 -0.61306196 0.012767402
-0.061886538 -0.61291975 0.01273318
-0.15861943 -0.5969739 0.012447841
-0.15613379 -0.59694779 0.012453279
-0.10481661 -0.61271107 0.013614706
0.071854316 -0.65481162 0.014875193
0.093602322 -0.65480047 0.014923135
0.042348314 -0.63742656 0.014769437
-0.024395568 -0.62912929 0.014608565
-0.12637928 -0.60419631 0.014829717
-0.16351809 -0.59632367 0.014325174
0.082909383 -0.65431714 0.015659217
0.034871038 -0.62863868 0.015430984
-0.083192661 -0.62031502 0.015376952
-0.075016081 -0.62031925 0.015436533
-0.19853084 -0.58828974 0.015078532
0.039986052 -0.64543277 0.016024983
0.048170436 -0.64543462 0.016025562
-0.032155775 -0.6282655 0.016318772
-0.05660418 -0.61974347 0.016306879
-0.093339115 -0.61182952 0.016509907
-0.18761997 -0.58799368 0.016043225
-0.048484769 -0.62767208 0.01720928
-0.010509315 -0.6196714 0.017253025
-0.18484852 -0.59545046 0.017335335
0.002898175 -0.63592339 0.018459924
-0.040077467 -0.62748015 0.018193815
-0.0022825242 -0.62758404 0.018223973
-0.1469914 -0.60289156 0.018573884
-0.13894503 -0.60293794 0.018621393
0.062033962 -0.65264672 0.019337222
0.032501765 -0.64384729 0.019695388
-0.10114818 -0.61067009 0.019155605
0.013943728 -0.64347798 0.020651678
-0.17617071 -0.59449685 0.020037081
0.051731758 -0.65135884 0.021969615
0.075822756 -0.65181977 0.021067305
-0.063129857 -0.61771685 0.021832466
-0.004249217 -0.63430589 0.022015557
-0.13023068 -0.60974914 0.022024941
-0.10862628 -0.60940951 0.02296938
0.065767303 -0.65049845 0.023717463
0.02546964 -0.64224607 0.02328473
0.028115829 -0.63354975 0.023828307
-0.08957237 -0.61724532 0.023758544
-0.14874281 -0.59320849 0.023690706
0.087069333 -0.65889651 0.0243924
-0.011869908 -0.63321394 0.024773845
-0.16731113 -0.60097516 0.024194563
-0.1886019 -0.59304118 0.024848418
-0.078905106 -0.61637503 0.025491288
-0.15910284 -0.60062659 0.025086123
-0.15099066 -0.60058993 0.025067016
0.098118499 -0.65801996 0.026197782
-0.070639007 -0.6241352 0.02645145
-0.068165392 -0.62412852 0.026441054
-0.051843885 -0.62386924 0.026344266
-0.12124872 -0.60795563 0.026579209
-0.17225383 -0.60029113 0.026074188
-0.14267431 -0.60031223 0.026045831
0.04454165 -0.64881825 0.027308764
0.0098809144 -0.64025414 0.027846385
-0.097230546 -0.61566043 0.02732913
0.05036277 -0.69259012 0.028644558
0.061022285 -0.69261235 0.028720343
0.0076088933 -0.63982195 0.028688183
0.018161394 -0.63976502 0.028659197
-0.059162803 -0.62324017 0.028230945
-0.13452123 -0.60734743 0.028535446
0.037253663 -0.64793962 0.029061342
0.05602254 -0.64755893 0.029993948
-0.03543622 -0.63116384 0.029299553
-0.027340099 -0.6311875 0.029273367
-0.019195015 -0.63126761 0.02934082
-0.086167544 -0.61505967 0.029257396
-0.17965561 -0.59144908 0.029476289
0.090685569 -0.65580928 0.030613845
0.090676889 -0.63894808 0.030475697
-0.043392483 -0.63061512 0.030134119
-0.1931935 -0.59115899 0.030431245
0.053427812 -0.70006639 0.031878766
0.15783972 -0.63037711 0.031061279
-0.10455047 -0.61389774 0.031957231
-0.12611987 -0.60631424 0.031244522
0.064344443 -0.69957179 0.032772586
0.069748096 -0.65494025 0.03233321
0.02965855 -0.64631277 0.032657154
0.11261369 -0.62157989 0.032816663
-0.11258236 -0.60598546 0.032229081
0.099518888 -0.70804214 0.03438722
0.10754427 -0.6803301 0.034376986
-0.058029238 -0.67079693 0.034862917
0.14783727 -0.67094314 0.034848407
0.048719067 -0.64541548 0.034402151
-0.0075637167 -0.6373415 0.034050807
0.00049688254 -0.63734406 0.03407006
0.021841371 -0.63692695 0.034942303
-0.074548937 -0.62077963 0.034619316
0.10473496 -0.71708345 0.035406865
0.10768397 -0.70756412 0.035326414
0.13723683 -0.7074942 0.035238437
0.03523314 -0.68863022 0.03554846
0.059636317 -0.65319592 0.035922077
0.080711983 -0.65365463 0.035048325
-0.015490382 -0.63656318 0.035848781
-0.03127826 -0.62841696 0.035592396
-0.074316762 -0.60453641 0.035864778
-0.16276918 -0.59705442 0.035354119
0.086608373 -0.6969772 0.036877092
0.11621305 -0.69697452 0.036908254
0.0060916794 -0.67885119 0.036894616
0.12679437 -0.67884684 0.036833778
0.083628267 -0.6613887 0.03662324
0.097427249 -0.66141891 0.036728427
0.073012568 -0.652771 0.036775768
0.0410235 -0.64457875 0.036219221
-0.023418814 -0.62811464 0.0365998
-0.047666851 -0.62776065 0.036440797
0.1106003 -0.70590919 0.03769413
0.13468193 -0.69648814 0.037800375
0.059835307 -0.68762803 0.037230536
0.10247834 -0.68763739 0.037283752
0.11053476 -0.68761647 0.037208844
0.14578158 -0.67828238 0.037654337
0.15651418 -0.64373237 0.03797166
0.08119411 -0.63573128 0.037680808
-0.039300118 -0.62752688 0.037386242
-0.082178064 -0.61970216 0.037381213
-0.15417807 -0.60390651 0.037708227
-0.17575061 -0.59642714 0.037320577
0.094804548 -0.71488386 0.038666923
0.10270714 -0.71489453 0.038725048
0.1190342 -0.70538151 0.038513966
0.1296352 -0.70542216 0.038556941
0.07600496 -0.69601566 0.038684603
0.083945163 -0.69597572 0.038625032
0.094813481 -0.69596934 0.038638912
0.091971211 -0.68711084 0.03808739
0.14027864 -0.68710977 0.038071446
0.043973658 -0.68658912 0.03887995
0.070876598 -0.6866188 0.038887005
0.1297155 -0.68665928 0.038942069
0.014274914 -0.67790639 0.038630418
0.02243953 -0.67784828 0.038542714
0.057502031 -0.67783231 0.038554728
0.086909913 -0.67783028 0.038499307
0.11651178 -0.6778273 0.038529184
-0.028319905 -0.66907465 0.038306579
-0.020243881 -0.6691851 0.038431577
0.062741712 -0.66911876 0.038412265
0.10269983 -0.6691438 0.038445279
0.12158873 -0.669177 0.038448632
0.13221632 -0.66915709 0.038452219
0.017057884 -0.6605134 0.038473986
0.025077714 -0.66049844 0.038384195
0.078862183 -0.6604889 0.038377829
0.094798662 -0.66047549 0.038394619
0.13783833 -0.66045952 0.038421609
0.065420948 -0.65187657 0.038615298
0.13226545 -0.65190363 0.038633734
0.14314221 -0.65186483 0.038600527
-0.030710081 -0.64330107 0.038883254
0.033056866 -0.6437816 0.038010251
0.13794942 -0.64333749 0.03896134
-0.012372606 -0.63536334 0.038569421
-0.004309806 -0.63528264 0.038544368
0.12423725 -0.63530344 0.038532857
0.15375957 -0.63522452 0.038483292
0.13786423 -0.62728161 0.038388036
-0.11668544 -0.61137187 0.038361881
-0.14612228 -0.60350734 0.038636617
-0.13793558 -0.60359168 0.038675357
0.11669786 -0.72386366 0.039769709
0.12432584 -0.71433872 0.039456632
0.13236827 -0.7143634 0.03955989
0.12722227 -0.70488495 0.039370168
0.073453031 -0.69546777 0.039452706
0.10548104 -0.69547528 0.039525896
0.1243406 -0.69545364 0.039446615
-0.0011798058 -0.68610317 0.039756697
0.017126752 -0.68666601 0.039019004
0.041608505 -0.68608528 0.039748874
0.049622037 -0.68607706 0.039712541
0.08975292 -0.68613005 0.039766237
0.11926477 -0.68611908 0.039752714
0.13806002 -0.68611175 0.039816286
0.0039334674 -0.67737883 0.039446805
0.13499112 -0.67737091 0.039437197
0.00138547 -0.66867095 0.039260391
0.028264342 -0.66869175 0.039273094
0.0359133 -0.6686666 0.039284661
0.044044647 -0.66862619 0.039208066
0.052234378 -0.6686278 0.039207984
0.073432781 -0.66867787 0.039231401
0.081440262 -0.66868496 0.039276019
0.092194848 -0.66864783 0.03926656
0.11369085 -0.66866046 0.039245214
0.0065371203 -0.66005027 0.039315764
0.10844498 -0.66007394 0.039380062
0.12723434 -0.66004598 0.039256189
0.041539937 -0.6599791 0.039233517
-0.028117342 -0.65138328 0.039378017
-0.020039491 -0.65149343 0.039499242
-0.012229715 -0.65150142 0.039462391
0.06294243 -0.65142715 0.039481081
0.12179274 -0.65148485 0.03951475
-0.12203384 -0.64290321 0.0397733
-0.068300299 -0.64286059 0.039834794
-0.0092290249 -0.64298576 0.039837725
0.025346112 -0.64295393 0.039817683
0.14872894 -0.64286268 0.039764091
-0.15912932 -0.63486427 0.039423734
-0.041764058 -0.63470119 0.039397731
0.13243949 -0.63492024 0.039524343
-0.10823682 -0.62696517 0.039302535
-0.08440733 -0.62695736 0.039301649
-0.055211805 -0.62667251 0.039216358
0.12725954 -0.62693149 0.039252628
-0.092496291 -0.61894673 0.039200827
-0.12958863 -0.6111024 0.039388716
-0.10821583 -0.61112517 0.039372053
-0.10030095 -0.61098158 0.039260302
-0.18354203 -0.59581667 0.039257735
0.11382964 -0.71379179 0.040304467
0.12188892 -0.71383911 0.040383559
0.11385029 -0.69493604 0.040311959
0.12190621 -0.69498312 0.040388484
0.13253236 -0.69496298 0.040391263
0.033481658 -0.685633 0.040607076
0.10063789 -0.6856299 0.040654305
-0.025447186 -0.67686522 0.040268272
-0.004056857 -0.67686182 0.040270053
0.076310955 -0.6769284 0.040337015
0.10564343 -0.67690384 0.04033627
0.12450013 -0.67688203 0.040257551
0.020145155 -0.66818255 0.040118173
0.12993896 -0.66822672 0.040138405
0.14065462 -0.66817743 0.040121973
-0.036108572 -0.66763008 0.040963877
-0.014612454 -0.66776401 0.040980622
0.11122063 -0.66771483 0.040980615
0.11949108 -0.66771752 0.040966444
-0.0091869319 -0.65962273 0.04016085
-0.0010904834 -0.6595434 0.040119186
0.014571942 -0.659621 0.040206183
0.031114906 -0.65911502 0.040996581
0.039339378 -0.65905154 0.040970638
0.057795599 -0.65954739 0.04013323
0.068796702 -0.6590755 0.04098222
0.087358713 -0.65909153 0.040956073
0.11680298 -0.65954214 0.040107235
0.12464583 -0.65911257 0.040990174
0.14622971 -0.65951264 0.040094953
-0.046903182 -0.65879709 0.040902153
0.028467007 -0.65103096 0.040356819
-0.036207207 -0.65090871 0.040311676
0.052436288 -0.65096736 0.04029401
0.1139011 -0.65099972 0.040329307
-0.16971405 -0.64248002 0.040738117
-0.13508314 -0.64252275 0.040732883
-0.08416114 -0.64255893 0.040753357
-0.00097296108 -0.64248437 0.040690448
0.10871788 -0.64256012 0.040824842
0.1275025 -0.64253277 0.040704001
-0.19146922 -0.63454151 0.040522482
-0.18587957 -0.63456684 0.040563464
-0.12454288 -0.6345033 0.040337235
-0.10557761 -0.63452047 0.040391199
-0.097445816 -0.63441509 0.040274408
-0.089149863 -0.63454378 0.040410105
-0.06572172 -0.63441461 0.040365871
-0.049395487 -0.63416034 0.040263999
0.11392386 -0.63448632 0.040351145
0.14072612 -0.63447315 0.040361229
-0.17526257 -0.62653035 0.040271558
-0.12195387 -0.62648839 0.040121917
-0.076338686 -0.62645048 0.040117569
-0.068223245 -0.62644595 0.040183868
-0.052415129 -0.62624377 0.040125426
0.11112382 -0.62650549 0.040155452
-0.15129632 -0.61856109 0.04009866
-0.13769002 -0.61861354 0.040134422
-0.07884267 -0.61852098 0.040082008
-0.14833447 -0.61065555 0.040198777
0.092633083 -0.7126894 0.041978132
0.089962676 -0.70380324 0.041033633
0.025600532 -0.6851505 0.041482702
0.028646311 -0.68515491 0.041505631
0.079388663 -0.68514091 0.041477796
0.031122573 -0.67639977 0.041125182
0.039349303 -0.67633617 0.041098375
0.046945598 -0.67637008 0.0411327
0.065847591 -0.67639458 0.041196808
-0.067963347 -0.66718602 0.041876063
-0.022529194 -0.66729116 0.041925833
-0.0062081739 -0.66726005 0.041850287
0.0097567625 -0.66776866 0.041016441
0.033711828 -0.6672616 0.041837446
0.050002579 -0.66720593 0.041797645
0.060516246 -0.66772604 0.041002329
0.09013398 -0.66725844 0.041848969
-0.025302777 -0.65909594 0.041001592
-0.017157532 -0.65917528 0.041075628
0.046938561 -0.65908515 0.041004058
0.10579195 -0.65913451 0.04106836
0.13529243 -0.65911639 0.041030116
-0.094712257 -0.65859509 0.041842598
-0.086392038 -0.65874392 0.041957695
-0.033248488 -0.6586194 0.041906033
-0.0037522214 -0.65863824 0.041879747
0.0043816878 -0.65867054 0.04191805
0.02304217 -0.65865541 0.041875638
0.055227656 -0.65863609 0.041897546
-0.081531927 -0.6505571 0.041212443
-0.073415697 -0.65051073 0.041185085
-0.065583758 -0.65048999 0.041227486
-0.05690036 -0.6503526 0.041185793
-0.049253959 -0.65023559 0.041118488
-0.044289973 -0.65029442 0.04111753
0.0017456671 -0.65057206 0.041230541
0.020358402 -0.65055317 0.041218102
0.04440514 -0.65052748 0.041179065
0.10321668 -0.65057528 0.041282948
0.13014559 -0.6505971 0.041238457
0.14086334 -0.65054804 0.041223198
-0.16428459 -0.6420905 0.041614544
-0.15624042 -0.64206767 0.041571707
-0.12921681 -0.64212096 0.041665893
-0.11614797 -0.64203209 0.041551407
-0.10288797 -0.64205092 0.041585568
-0.017038932 -0.64214712 0.041658428
0.014848623 -0.64213902 0.041667655
0.11707404 -0.64206034 0.041570883
0.11961791 -0.64207816 0.041579105
0.13541582 -0.64208835 0.04161514
0.14650556 -0.64203089 0.041559737
-0.062932976 -0.64195853 0.041556574
-0.046786107 -0.64176971 0.041496608
-0.14569743 -0.63402528 0.041222554
-0.11869239 -0.63402909 0.041194789
-0.092152484 -0.63406795 0.041241664
-0.081510812 -0.63407505 0.041249394
-0.073396496 -0.63402903 0.041224569
-0.027784612 -0.63402539 0.041187547
-0.019705016 -0.63413507 0.041305073
0.12212675 -0.63412595 0.041319109
0.14363188 -0.63406789 0.041292172
0.15157254 -0.63401175 0.041188139
-0.056880675 -0.6338709 0.041227076
-0.20190994 -0.62623566 0.041197598
-0.14820102 -0.62607253 0.041020449
-0.13500698 -0.62614 0.041095521
-0.11622869 -0.62607199 0.041022733
-0.094828859 -0.62606138 0.041023463
-0.086520188 -0.62620962 0.041132562
0.11953721 -0.62611836 0.041049071
-0.15615964 -0.62571692 0.041948579
-0.14290759 -0.62570387 0.041954655
-0.10280401 -0.62569964 0.041962042
-0.070344627 -0.62567252 0.041989837
-0.063006029 -0.62599814 0.041029327
0.11715346 -0.62570947 0.041947193
-0.1913313 -0.61826384 0.041201882
-0.18574464 -0.61828905 0.041241203
-0.17249076 -0.61820495 0.041104898
-0.15883861 -0.61818027 0.041008849
-0.12440898 -0.61822557 0.041020714
-0.089017659 -0.61826652 0.041093059
-0.14555855 -0.61778015 0.041921157
-0.11855841 -0.61778373 0.041893993
-0.10528593 -0.61786795 0.041987866
-0.19393532 -0.61040914 0.041323833
-0.18827319 -0.61040413 0.041331694
-0.18318512 -0.61040503 0.041347221
-0.12175858 -0.61032242 0.04112462
-0.18565911 -0.60261559 0.041639008
-0.15875573 -0.60250711 0.041414019
-0.19650152 -0.59515333 0.041082554
0.13543938 -0.72221482 0.042268828
-0.016947964 -0.68468952 0.042399731
0.069009542 -0.68458951 0.042299636
-0.011648685 -0.67548746 0.04288115
-0.0087205088 -0.67548406 0.042891171
0.05523061 -0.67589009 0.042010084
0.084559195 -0.675919 0.042001612
0.095422432 -0.6759131 0.042016942
0.14372511 -0.67589802 0.04204268
-0.044038188 -0.66651577 0.042618528
0.071560979 -0.66677821 0.042692844
-0.10269953 -0.65817124 0.042754266
-0.062747277 -0.65807885 0.042722344
-0.041198097 -0.65801001 0.042703025
0.01250302 -0.65827322 0.042858329
0.076763757 -0.65825033 0.042821985
-0.054620311 -0.65797269 0.042718187
-0.13990134 -0.65011966 0.042107053
-0.13217385 -0.65014625 0.042151842
-0.099848673 -0.650042 0.042033151
-0.022466339 -0.65016234 0.042169906
-0.014402295 -0.65016568 0.042095695
-0.0061555062 -0.65013099 0.042096585
0.11143729 -0.65011656 0.04209644
-0.11339757 -0.64966559 0.042990465
-0.091863029 -0.64967257 0.042973876
-0.075861245 -0.64962345 0.042940937
-0.059594885 -0.64997393 0.042070452
-0.052099444 -0.64985627 0.042057786
-0.15090711 -0.64163673 0.042463914
-0.14283684 -0.64163214 0.042470545
-0.11081222 -0.64168751 0.042534117
-0.09459202 -0.64159888 0.04244506
-0.086277932 -0.64174718 0.042557038
-0.078445755 -0.6415965 0.042445786
-0.070267014 -0.64160097 0.042504855
-0.054654803 -0.64142996 0.042447276
-0.033124883 -0.64162284 0.042507328
-0.025026884 -0.64164591 0.042480759
0.0045004585 -0.64167416 0.042518873
0.0071253031 -0.64169174 0.042547446
0.017799987 -0.64170021 0.042581655
-0.19890426 -0.63368523 0.042278994
-0.18049702 -0.63368934 0.042337537
-0.16686386 -0.63367242 0.042169843
-0.15341988 -0.63367629 0.042119578
-0.13987496 -0.63366991 0.042158138
-0.13214687 -0.63369638 0.042203184
-0.1135291 -0.63365424 0.042156886
-0.099824533 -0.63359207 0.042086553
-0.044110063 -0.633407 0.042061593
0.13032348 -0.63370866 0.04217479
-0.16947487 -0.62570667 0.042006709
-0.16404368 -0.62534881 0.042896681
-0.128976 -0.62537915 0.042946596
-0.11072498 -0.62536871 0.042923369
-0.059434544 -0.62519026 0.042854883
-0.20457412 -0.61791801 0.042088043
-0.19876157 -0.61747211 0.042986821
-0.18051536 -0.6178509 0.04213085
-0.16672292 -0.6174593 0.042880632
-0.15328498 -0.61746293 0.042831484
-0.13973245 -0.61745691 0.042868562
-0.1321646 -0.61785787 0.042000771
-0.096992128 -0.61738873 0.042786922
-0.16416962 -0.60999674 0.042098209
-0.15612604 -0.60997438 0.042057853
-0.15077974 -0.60960704 0.042976119
-0.14270596 -0.60960299 0.042983163
-0.11351839 -0.60996938 0.042086326
-0.19625731 -0.60224032 0.042510871
-0.19107966 -0.60224819 0.042526595
-0.1722395 -0.60218948 0.042432837
-0.16679494 -0.6021933 0.042383604
-0.19379522 -0.59484357 0.042027619
-0.18813519 -0.5948388 0.042035829
0.12786078 -0.72167659 0.043064743
0.098609 -0.70224673 0.04365484
0.08211749 -0.68414795 0.043214947
0.098560229 -0.68416315 0.043291289
0.012655659 -0.67501158 0.043819118
0.10117555 -0.66631961 0.043623414
-0.11062737 -0.65777576 0.043688964
-0.078255758 -0.65768516 0.043598451
-0.07007689 -0.65768969 0.0436574
-0.12657414 -0.64971524 0.043007411
-0.10743632 -0.64930862 0.043920953
-0.0381946 -0.64909041 0.043812126
0.010122075 -0.64973199 0.043017171
0.036593512 -0.64969027 0.043022588
-0.17721871 -0.64127231 0.043531284
-0.17210273 -0.64123237 0.043451868
-0.13713314 -0.64126635 0.043392155
-0.20693019 -0.63331449 0.043176308
-0.19362505 -0.63332891 0.043220371
-0.18795992 -0.63332355 0.043227691
-0.16145504 -0.63326174 0.043053873
-0.12654802 -0.63329685 0.043072101
-0.035551433 -0.63276953 0.043935057
-0.18289289 -0.62539846 0.043069053
-0.19602905 -0.62499523 0.043936122
-0.17713715 -0.62498498 0.043932077
-0.17461739 -0.61710304 0.043886136
-0.16131011 -0.61708045 0.043778103
-0.20155768 -0.60974264 0.043128733
-0.16927819 -0.60960573 0.043034595
-0.13465349 -0.60964817 0.043030556
-0.08351282 -0.66589874 0.044513378
-0.075614773 -0.66578245 0.044416215
-0.05170038 -0.66557819 0.044414382
-0.038110565 -0.6656875 0.044400413
-0.029750904 -0.6657961 0.044425521
-0.12382761 -0.65731055 0.044505868
-0.096727312 -0.65722245 0.044439092
-0.08843267 -0.65735 0.044579472
-0.147568 -0.64875978 0.044707276
-0.1262448 -0.61674106 0.04470817
-0.17710294 -0.60930681 0.044063274
-0.19850552 -0.60152203 0.044337753
-0.18009871 -0.60152578 0.04439332
-0.048522949 -0.67364639 0.045336999
-0.059039652 -0.66522616 0.045298643
-0.11797758 -0.65678918 0.045337886
-0.10470398 -0.65687382 0.045437343
-0.1743523 -0.57888192 0.045163497
-0.040585302 -0.6732949 0.046239987
0.1524884 -0.64786398 0.046460751
0.080623657 -0.69904447 0.048556499
