# .PCD v0.7 - Point Cloud Data file format
VERSION 0.7
FIELDS x y z
SIZE 4 4 4
TYPE F F F
COUNT 1 1 1
WIDTH 1378
HEIGHT 1
VIEWPOINT 0 0 0 1 0 0 0
POINTS 1378
DATA ascii
-0.14484204 -0.1218285 -0.0056270552
-0.14599782 -0.1525162 -0.01206868
-0.14505818 -0.16753833 -0.006702201
-0.14601052 -0.19642948 -0.011987963
-0.14485446 -0.21067399 -0.0053931479
-0.14566022 -0.23785691 -0.009845824
-0.1455676 -0.25712705 -0.0092417467
-0.14533615 -0.27607706 -0.0078499094
-0.14545603 -0.2935999 -0.0084499521
-0.14529312 -0.31126204 -0.0074456441
-0.14534235 -0.32806078 -0.007644054
-0.14563164 -0.35232612 -0.0091627622
-0.14511266 -0.36112168 -0.0061784307
-0.14560249 -0.38440156 -0.0088332063
-0.14552312 -0.40016055 -0.0083002402
-0.14569153 -0.41557816 -0.0091722235
-0.14559273 -0.43105218 -0.0085283443
-0.14557321 -0.44638938 -0.0083336011
-0.14563437 -0.46167547 -0.0085960738
-0.14560293 -0.47696152 -0.008333019
-0.1455553 -0.49993706 -0.0079349475
-0.14563693 -0.5154202 -0.0083121583
-0.14579457 -0.53113282 -0.0091200713
-0.14585383 -0.54696763 -0.0093695037
-0.14615177 -0.56335402 -0.01097226
-0.14598058 -0.58764249 -0.0098698996
-0.14601195 -0.60444218 -0.0099595347
-0.14625806 -0.6220839 -0.01126656
-0.14654298 -0.64036393 -0.012793253
-0.14653949 -0.65853721 -0.012683651
-0.14515951 -0.67340988 -0.0047667334
-0.14016674 -0.67716336 0.023639929
-0.13793166 -0.68817568 0.036406871
-0.13711464 -0.71329892 0.041177969
-0.1375564 -0.73469818 0.038765423
-0.14650178 -0.8064478 -0.01182133
-0.14690994 -0.83385152 -0.01403967
-0.14720547 -0.86248684 -0.015618118
-0.14736974 -0.89236593 -0.016450915
-0.14681002 -0.93632638 -0.013126472
-0.31846517 -2.3600633 -0.98596263
-0.32038352 -2.5202363 -0.99667299
-0.32074243 -2.6841846 -0.99853241
-0.32128361 -2.8686337 -1.0014125
-0.29469264 -2.7943144 -0.85050195
-0.27121514 -2.7337666 -0.71724677
-0.23013555 -2.740711 -0.48394832
-0.21518107 -2.7545407 -0.39900264
-0.077332526 -2.7233224 0.3839854
-0.063650668 -2.7213199 0.46170783
-0.043097667 -2.721143 0.57846534
-0.029276179 -2.7232003 0.65695494
-0.015658343 -2.7115443 0.73426491
-0.001590326 -2.7148929 0.81413823
0.32147083 -8.9037848 2.6509027
0.24136722 -4.9130197 2.1941428
0.41863728 -6.2444205 3.2006781
0.43679428 -5.7381577 3.3034418
0.45702145 -5.5231476 3.4181046
0.43153587 -4.9182749 3.2732196
0.44838199 -4.7334552 3.3687255
0.44074869 -4.3724976 3.3252637
0.43782017 -4.0799723 3.3085341
0.41538298 -3.6834402 3.1810796
0.45290786 -3.5856724 3.3939753
0.44505534 -3.3312156 3.3493421
0.43569142 -3.0885909 3.296144
0.43428293 -2.9028921 3.2881086
0.43481696 -2.7370703 3.2911046
0.43678159 -2.5858419 3.3022251
0.4123646 -2.3388009 3.1636419
0.44199574 -2.236408 3.331763
0.43087932 -2.0634 3.2686722
0.42867815 -1.9275253 3.256175
0.42576998 -1.7953743 3.2396703
0.41900665 -1.6591835 3.2012959
0.41915551 -1.5449395 3.2021434
0.41967368 -1.4343915 3.2050886
0.42182893 -1.2752759 3.2173276
0.42224494 -1.1697005 3.2196972
0.424364 -1.067866 3.2317297
0.38191441 -0.92142206 2.9909294
0.42568013 -0.86352843 3.2392211
0.41796821 -0.75751829 3.1954882
0.41132 -0.65580171 3.1577919
0.40668964 -0.50961274 3.1315529
0.40512335 -0.41374752 3.1226873
-0.01507353 -0.42216828 0.73944217
-0.014330359 -0.40417627 0.74376112
-0.026814427 -0.39827165 0.67309654
-0.028300026 -0.38651577 0.66477704
-0.029876094 -0.37546632 0.65594488
-0.030436035 -0.36725453 0.65284014
-0.030886771 -0.35875103 0.65035474
-0.031235244 -0.34987074 0.64844918
-0.031565093 -0.33560485 0.64668441
-0.032193705 -0.3162367 0.64326024
-0.031206742 -0.30675876 0.64889145
-0.030329831 -0.2847214 0.65396768
-0.022155654 -0.17951852 0.70058191
-0.025210854 -0.17788909 0.68332762
-0.026970925 -0.16882713 0.67341572
-0.028347563 -0.15701333 0.66567731
-0.029395849 -0.14220035 0.65979987
-0.029775243 -0.12088729 0.65771317
0.12043799 1.7035029 1.5091192
0.097201608 1.6174252 1.3774421
0.089312293 1.7153486 1.3327224
0.060935613 1.5203434 1.1719439
0.043479312 1.5707588 1.0730231
0.029020991 1.551232 0.99110281
0.016372062 1.5614157 0.91943091
0.0036134832 1.566048 0.84713995
-0.0092756376 1.5621272 0.77411288
-0.021831699 1.5634449 0.70297247
-0.034565177 1.5492691 0.63083339
-0.053174406 1.5286134 0.52540958
-0.065150119 1.5660354 0.45754373
-0.077419043 1.5540365 0.38803893
-0.08967942 1.5555748 0.3185761
-0.10210153 1.5636064 0.24819289
-0.11449577 1.5621437 0.17797245
-0.12718065 1.5680413 0.10610002
-0.14611058 1.5631067 -0.0011493822
-0.15902011 1.5623776 -0.074292667
-0.17182015 1.5550674 -0.14681168
-0.18436998 1.5403143 -0.21790797
-0.19804931 1.5417644 -0.29541823
-0.1027397 -0.058782339 0.24608067
-0.10342698 -0.085959859 0.24227168
-0.10439505 -0.10671071 0.23686701
-0.1055857 -0.1230396 0.23019774
-0.10707925 -0.13515691 0.22180842
-0.10866205 -0.14579196 0.2129122
-0.11046559 -0.15422872 0.20276298
-0.11355481 -0.16400811 0.18536018
-0.11614403 -0.16731818 0.1707522
-0.11969007 -0.16545658 0.15071483
-0.1483217 -0.050410017 -0.011581081
-0.14816195 -0.079172365 -0.010585365
-0.14815469 -0.10545923 -0.010455867
-0.14820193 -0.13005427 -0.010636252
-0.14790444 -0.15479068 -0.0088614654
-0.14827643 -0.1757184 -0.010885624
-0.14789408 -0.19846921 -0.0086305467
-0.14778712 -0.21924861 -0.0079383506
-0.14798699 -0.23828988 -0.0089873262
-0.14789276 -0.25752833 -0.0083681066
-0.14765979 -0.27644619 -0.0069622346
-0.14761601 -0.29429469 -0.0066299536
-0.14761372 -0.31156537 -0.0065332623
-0.14806129 -0.33596134 -0.0089471266
-0.14778039 -0.3527869 -0.0072706016
-0.14789899 -0.36871499 -0.0078603439
-0.14791749 -0.3845515 -0.0078825727
-0.14800911 -0.40013656 -0.0083196163
-0.14800474 -0.41565832 -0.0082123373
-0.14790526 -0.43109727 -0.0075656874
-0.1480587 -0.4463644 -0.008353617
-0.14811517 -0.46929419 -0.0085506495
-0.14803702 -0.48457298 -0.0080251973
-0.14821227 -0.49999812 -0.008937072
-0.14829268 -0.51551563 -0.0093110418
-0.14862032 -0.53141892 -0.011087273
-0.14850631 -0.54713136 -0.010358534
-0.14832047 -0.5709973 -0.0091813924
-0.14862742 -0.58789027 -0.010840062
-0.14865606 -0.60472298 -0.010920187
-0.14889915 -0.62239736 -0.012216607
-0.14863372 -0.64841706 -0.010587624
-0.14857152 -0.66661721 -0.010152406
-0.1474521 -0.6822865 -0.0037216092
-0.14259014 -0.68611395 0.023931971
-0.13971275 -0.69495922 0.040330991
-0.14001995 -0.71490389 0.038671441
-0.14916864 -0.78316462 -0.013080867
-0.14910389 -0.80703193 -0.012629702
-0.14977254 -0.83574802 -0.016336534
-0.14946401 -0.87561828 -0.014459562
-0.1490107 -0.90287971 -0.011803681
-0.14926605 -0.93629336 -0.013165179
-0.15000391 -0.97560179 -0.017261477
-0.32332557 -2.37836 -0.99968779
-0.32472643 -2.5357275 -1.0075073
-0.32488814 -2.6992071 -1.0082972
-0.32541811 -2.8848453 -1.0111693
-0.28774035 -2.7917333 -0.79739082
-0.23272952 -2.7434366 -0.48518026
-0.14952305 -2.7370529 -0.012858478
-0.072795197 -2.7276461 0.42271373
-0.059064437 -2.7282655 0.50066262
-0.045434561 -2.7171407 0.57803571
-0.024874281 -2.7117522 0.69479382
-0.011094485 -2.7076542 0.77304041
0.0031901486 -2.7154686 0.85415405
0.23930642 -4.9149413 2.194597
0.41504863 -5.9805918 3.191983
0.43001127 -5.690177 3.2768495
0.43131804 -4.9360099 3.2841973
0.44039482 -4.6860714 3.3356884
0.43684357 -4.3598452 3.3155267
0.43998155 -3.9839795 3.3333321
0.43220177 -3.6943872 3.2891955
0.4436363 -3.5440805 3.3540881
0.43726912 -3.3007786 3.3179772
0.43428847 -3.0934012 3.3010862
0.42983952 -2.8927338 3.2758682
0.4313978 -2.7322719 3.2847359
0.4400931 -2.5317523 3.3341117
0.41999638 -2.3064058 3.2201293
0.43696627 -2.2272673 3.3164365
0.42821562 -2.0625579 3.2668278
0.42290843 -1.9176644 3.2367566
0.42009261 -1.7866256 3.2208207
0.42114282 -1.612136 3.2268362
0.41964817 -1.4949627 3.2183971
0.4188318 -1.3825915 3.2138062
0.41759613 -1.2723711 3.2068372
0.41916975 -1.1688606 3.2158041
0.42161912 -1.0675789 3.2297378
0.38138121 -0.9234491 3.0015409
0.42017257 -0.86115283 3.2216129
0.4146404 -0.70759296 3.190294
0.41114464 -0.60795367 3.1705062
0.40426382 -0.50973839 3.1315191
0.40252104 -0.41389045 3.1216738
-0.017681306 -0.41656113 0.73869342
-0.017147252 -0.40452313 0.74180049
-0.027439773 -0.39560688 0.68358731
-0.029666794 -0.39409935 0.67099744
-0.030719832 -0.39108777 0.66506529
-0.03235938 -0.37546161 0.65592593
-0.033219986 -0.3631863 0.65116417
-0.033878781 -0.35030419 0.64754653
-0.03428496 -0.34146568 0.64532185
-0.034707505 -0.32722542 0.64304322
-0.034540027 -0.31568715 0.64407063
-0.034039401 -0.30219629 0.64698637
-0.032962706 -0.27879936 0.65320575
-0.024653001 -0.17951721 0.70057356
-0.028350843 -0.17182554 0.67972064
-0.029242879 -0.16731513 0.67470026
-0.031571191 -0.1511751 0.66161013
-0.032470584 -0.13480827 0.65658265
-0.033032335 -0.11428432 0.65346771
0.11766528 1.699894 1.5074202
0.08643049 1.6084132 1.3304328
0.075602695 1.6652813 1.2690635
0.052440029 1.5332946 1.1378456
0.041446105 1.578346 1.075541
0.026652593 1.5531378 0.99172795
0.013781287 1.5584923 0.91879892
0.00082292559 1.5572363 0.84538007
-0.017916305 1.5670564 0.7392053
-0.030639058 1.5591719 0.66712683
-0.043121852 1.5536531 0.59640801
-0.055374864 1.5575836 0.52698654
-0.067616418 1.5660491 0.45762721
-0.079888903 1.5550541 0.38810468
-0.092128605 1.5535991 0.31876215
-0.1107263 1.5612278 0.21339135
-0.12331303 1.5664431 0.14207628
-0.13582759 1.5631424 0.071176067
-0.14875823 1.568038 -0.0020894089
-0.16152994 1.5633925 -0.07444723
-0.17438404 1.5570389 -0.14727119
-0.18710686 1.5451226 -0.21934684
-0.10506533 -0.06149736 0.24728146
-0.10679296 -0.092752837 0.23762794
-0.10669244 -0.10933345 0.2382507
-0.10804254 -0.12387908 0.23068605
-0.10953268 -0.13597792 0.22232559
-0.11111211 -0.14659348 0.21345769
-0.1139478 -0.15814514 0.19750689
-0.11610585 -0.16397892 0.18535411
-0.11892413 -0.16577864 0.16945383
-0.12283535 -0.16176833 0.14735067
-0.15049171 -0.052414972 -0.0094204256
-0.15058435 -0.079787403 -0.0098436112
-0.15017122 -0.10793564 -0.0073973443
-0.15048324 -0.1312169 -0.0090673314
-0.15032335 -0.15532339 -0.0080600288
-0.15040328 -0.17731135 -0.0084142461
-0.15016259 -0.19945841 -0.0069498089
-0.15020382 -0.21969256 -0.0070855562
-0.15009397 -0.239611 -0.0063644196
-0.15060583 -0.26637828 -0.0091225617
-0.1506328 -0.2844227 -0.0091785928
-0.15069833 -0.30188796 -0.0094535621
-0.15048105 -0.3194634 -0.0081243562
-0.15047874 -0.33619601 -0.0080148326
-0.15036717 -0.35274598 -0.0072857654
-0.1503184 -0.368882 -0.0069130166
-0.15050921 -0.38451052 -0.0078992937
-0.15060331 -0.40009555 -0.0083370982
-0.1504288 -0.41572192 -0.0072511923
-0.15059409 -0.43868637 -0.0080446284
-0.1507038 -0.4539651 -0.0085707959
-0.15072088 -0.46925315 -0.008571486
-0.15081877 -0.48458424 -0.009030262
-0.1508233 -0.49995705 -0.0089593856
-0.15073407 -0.51535273 -0.0083566541
-0.15085135 -0.53888142 -0.0088763731
-0.15086357 -0.55475217 -0.0088482872
-0.15094407 -0.57095617 -0.0092070978
-0.151254 -0.58784902 -0.010866567
-0.15120389 -0.63039792 -0.010335456
-0.1512711 -0.64837581 -0.010616993
-0.1513696 -0.66699857 -0.011075197
-0.14715488 -0.67362112 0.012919787
-0.14326036 -0.67977321 0.03509843
-0.14265843 -0.69595128 0.038611095
-0.14247832 -0.72387022 0.039783984
-0.15182944 -0.7831232 -0.013116561
-0.15156765 -0.84474266 -0.01136501
-0.15226725 -0.87625867 -0.015219845
-0.15500958 -0.92192888 -0.030647714
-0.15266329 -0.94063973 -0.017238036
-0.1512472 -0.98404562 -0.0090391422
-0.32858127 -2.3966205 -1.0134311
-0.32303461 -2.5755739 -0.98167443
-0.32318354 -2.744473 -0.98227471
-0.31609315 -2.8612862 -0.94186175
-0.26818439 -2.7363977 -0.67006677
-0.25253519 -2.7509015 -0.58120364
-0.23557729 -2.7424362 -0.48493898
-0.075743489 -2.7256343 0.42258814
-0.062010806 -2.729259 0.50057137
-0.048341215 -2.7211301 0.57818538
-0.027663358 -2.7196996 0.6956293
-0.01391219 -2.7126055 0.77368653
-8.9182809e-05 -2.7056701 0.85215127
0.25146213 -4.9087505 2.2814147
0.41183841 -6.4942546 3.1925974
0.41262323 -5.9905663 3.1966252
0.42760208 -5.6991005 3.2813621
0.44868314 -5.4951754 3.4007933
0.43383321 -4.9865093 3.31615
0.44093499 -4.5619836 3.3561234
0.44177148 -4.2805867 3.3606679
0.41934332 -3.8631132 3.233139
0.43025771 -3.7012501 3.2949572
0.4359695 -3.5162013 3.3272479
0.42983937 -3.2759428 3.2923255
0.43482548 -3.0198591 3.320472
0.4306047 -2.8249812 3.2964242
0.43228853 -2.668138 3.3059011
0.43327186 -2.5158622 3.3114102
0.42125496 -2.3218217 3.2431502
0.42955005 -2.2114682 3.2901685
0.42284885 -2.0544806 3.2520928
0.419056 -1.9146489 3.2305286
0.41937652 -1.7321185 3.2322931
0.41615444 -1.6070509 3.2139812
0.41692576 -1.4951222 3.2183309
0.41381034 -1.3784225 3.2006328
0.41489762 -1.2725284 3.2067811
0.41665062 -1.1692598 3.2167082
0.42053378 -1.0177093 3.238713
0.37627497 -0.8743782 2.9876485
0.41503376 -0.80908626 3.2074909
0.40196621 -0.70268548 3.133363
0.4066042 -0.60752779 3.159663
0.40042406 -0.50976336 3.1246059
0.39973128 -0.41405436 3.1206729
-0.019021306 -0.42716545 0.74591297
-0.020481054 -0.41670614 0.73770463
-0.020115431 -0.40487626 0.73984784
-0.030203149 -0.40069222 0.682751
-0.032458514 -0.39435983 0.67003399
-0.033343244 -0.39108914 0.66505331
-0.034164239 -0.37375262 0.66054201
-0.03554048 -0.36725017 0.65281105
-0.035991371 -0.35874638 0.65032661
-0.036496099 -0.35030419 0.64753687
-0.037125755 -0.33705398 0.64407474
-0.037172873 -0.32671002 0.64387906
-0.037007276 -0.31514212 0.64488876
-0.036508609 -0.30162242 0.64778608
-0.035435066 -0.27818361 0.65397596
-0.027009144 -0.17810525 0.70196521
-0.029836964 -0.17496288 0.68600523
-0.032636907 -0.1621286 0.67023605
-0.033849385 -0.148811 0.66342968
-0.034762181 -0.13238084 0.65832061
-0.036221135 -0.1060536 0.65014696
0.12387662 1.7041349 1.5569724
0.10726496 1.7034681 1.4628471
0.091616213 1.707952 1.3741791
0.06271179 1.5178347 1.210477
0.05044122 1.5417284 1.1409535
0.035952192 1.5260196 1.0588775
0.023874154 1.5483164 0.9904474
0.0049813106 1.5640436 0.88341582
-0.020544419 1.5640911 0.73882115
-0.033038743 1.5661207 0.66804552
-0.045688402 1.5526617 0.59640002
-0.057928409 1.5575917 0.52706486
-0.07017532 1.5650606 0.45768881
-0.088624902 1.564145 0.35318422
-0.10080168 1.5514706 0.28422034
-0.11345273 1.5702018 0.2125448
-0.12592775 1.56845 0.14188202
-0.13881706 1.5769596 0.068862692
-0.15140179 1.5700272 -0.0024185905
-0.17014684 1.5523809 -0.10858657
-0.18292019 1.5438037 -0.18093637
-0.19570328 1.5325385 -0.25333959
-0.10857705 -0.068270765 0.24210325
-0.10914594 -0.09540423 0.23897572
-0.11018356 -0.1143832 0.23318434
-0.11147864 -0.12902547 0.22592986
-0.11301582 -0.14039463 0.21730019
-0.11465704 -0.15032662 0.20807943
-0.1165356 -0.15812175 0.19751126
-0.11970818 -0.16744022 0.17964549
-0.12162523 -0.16499928 0.16881208
-0.12681369 -0.16379037 0.13950698
-0.15257318 -0.055111237 -0.0065296926
-0.15278006 -0.081723824 -0.0076051792
-0.15235458 -0.10979199 -0.0050938139
-0.15265481 -0.13299081 -0.0067011733
-0.15248354 -0.15701267 -0.0056342487
-0.15340576 -0.18655293 -0.010725194
-0.15338847 -0.20758089 -0.010533755
-0.15321139 -0.22825351 -0.0094363661
-0.15303481 -0.2480941 -0.0083425213
-0.15302961 -0.26675385 -0.0082214447
-0.15305331 -0.28476626 -0.0082647242
-0.15311572 -0.30219901 -0.0085280165
-0.15289545 -0.31974158 -0.0071882685
-0.15326601 -0.34407613 -0.0091552874
-0.15294462 -0.35271522 -0.0072875414
-0.15317221 -0.37647894 -0.0084443307
-0.15331453 -0.39212263 -0.0091624353
-0.15267089 -0.40820098 -0.0054230397
-0.15313721 -0.423318 -0.0079791341
-0.15316524 -0.43865606 -0.0080495793
-0.15240559 -0.45402262 -0.0036530297
-0.15328948 -0.46922302 -0.0085775573
-0.15338604 -0.48455414 -0.009036893
-0.15292382 -0.50736219 -0.0062835445
-0.15347588 -0.52323198 -0.0093261143
-0.15341361 -0.53885162 -0.0088849915
-0.15367173 -0.57116836 -0.010172485
-0.1535912 -0.5957762 -0.0095836623
-0.15391921 -0.63072681 -0.01126691
-0.15446198 -0.64990908 -0.014255871
-0.15439127 -0.66823691 -0.013766253
-0.14939299 -0.67268503 0.014661205
-0.14469108 -0.68508202 0.041451406
-0.14478418 -0.70375496 0.041011877
-0.14516313 -0.72440213 0.038952049
-0.15492883 -0.78544515 -0.016321413
-0.1547379 -0.82154667 -0.015102718
-0.15475385 -0.84799403 -0.015101622
-0.15466766 -0.87554818 -0.0145209
-0.15770274 -0.93921477 -0.031584974
-0.15407702 -0.95056444 -0.010939452
-0.32645115 -2.4322357 -0.98756498
-0.32807726 -2.5978987 -0.99663574
-0.32862645 -2.7723994 -0.99959648
-0.30666423 -2.7434585 -0.87498683
-0.26292232 -2.7463093 -0.62673885
-0.24565001 -2.7370057 -0.52871746
-0.23002839 -2.7431977 -0.44005057
-0.078066275 -2.7266197 0.42248937
-0.057535969 -2.7195337 0.53902292
-0.043771494 -2.7210104 0.61715442
-0.029920708 -2.7216771 0.69576889
-0.016237218 -2.7116122 0.77343267
0.24434963 -4.8397393 2.2523677
0.40816993 -6.4716449 3.1819322
0.41507053 -6.0396233 3.2209704
0.43003207 -5.5333753 3.3057303
0.44914508 -5.323801 3.4141052
0.44606557 -4.9395709 3.3965862
0.43380582 -4.5215783 3.3270059
0.43148431 -4.2199526 3.3138213
0.39815509 -3.7321522 3.1247563
0.42941087 -3.7094696 3.302063
0.43858123 -3.4388511 3.354105
0.43128905 -3.198786 3.3127687
0.42738041 -2.9936557 3.290632
0.42540795 -2.8111751 3.2794836
0.42754477 -2.6573439 3.2916472
0.41791981 -2.463125 3.2371066
0.42405787 -2.3409245 3.2719724
0.42825246 -2.1464214 3.2958491
0.42112532 -1.9914551 3.2554905
0.41790736 -1.8559347 3.2373064
0.41477993 -1.7264564 3.2196391
0.41134509 -1.6014628 3.2002313
0.41043532 -1.486601 3.195147
0.41374588 -1.3284996 3.2140391
0.41398883 -1.2218022 3.2154982
0.41591227 -1.119217 3.2264898
0.39725101 -0.99444675 3.1207457
0.37736353 -0.87768978 3.00805
0.41302872 -0.80947828 3.2104011
0.39181322 -0.69887084 3.0901785
0.40249765 -0.5586412 3.1509135
0.39895496 -0.46189728 3.1309204
0.39639199 -0.36637545 3.1164851
-0.022166792 -0.42747813 0.74297237
-0.023265505 -0.41113016 0.73688263
-0.022769632 -0.39907351 0.73978937
-0.033549417 -0.39681795 0.67879611
-0.035270654 -0.39461797 0.66908169
-0.036384154 -0.38709685 0.66286135
-0.03747097 -0.3751201 0.65683991
-0.037909918 -0.3713423 0.65439802
-0.03897927 -0.35472825 0.64852387
-0.039161641 -0.35030437 0.64753741
-0.039645486 -0.3365697 0.64493704
-0.039699942 -0.32619566 0.64472455
-0.039396476 -0.31405377 0.64654243
-0.038767263 -0.29990289 0.65020841
-0.038128387 -0.27818483 0.65397882
-0.030604959 -0.17320122 0.69705576
-0.033212986 -0.16885616 0.68236238
-0.035032596 -0.15983285 0.67214179
-0.03637141 -0.14723749 0.66464931
-0.038118508 -0.12498154 0.65489316
-0.038877603 -0.10521776 0.65069169
0.11979335 1.6935387 1.551489
0.10407735 1.7025681 1.4624808
0.088285968 1.7052101 1.3730426
0.059754707 1.5196871 1.2112744
0.041411396 1.5569868 1.1074342
0.027256729 1.5455956 1.02727
0.014646492 1.5580693 0.95587534
0.0017815336 1.5620915 0.88303238
-0.011115963 1.5604836 0.81000221
-0.02373156 1.5621113 0.73857224
-0.036156554 1.5671084 0.66822487
-0.054937486 1.5564256 0.56188101
-0.067226969 1.5561298 0.49229935
-0.079482861 1.5553657 0.42290786
-0.091775708 1.5621382 0.35331094
-0.10412593 1.5644302 0.28338617
-0.11666439 1.5721812 0.21239698
-0.12908368 1.5674491 0.14207654
-0.14781712 1.559569 0.036002345
-0.16078714 1.5631459 -0.037436757
-0.173342 1.5523663 -0.10853038
-0.18571177 1.5361372 -0.17857805
-0.19646949 1.4918629 -0.23950201
-0.11097902 -0.073721372 0.24460779
-0.11174849 -0.098090328 0.24032381
-0.11285266 -0.11614586 0.23414554
-0.11422607 -0.12989648 0.22644298
-0.11566348 -0.14208625 0.21837837
-0.11739469 -0.15116051 0.20864949
-0.12029544 -0.16217399 0.19233413
-0.12254816 -0.16745616 0.17965016
-0.12548339 -0.16881701 0.16309835
-0.13026351 -0.16021067 0.13609152
-0.15642014 -0.064138591 -0.01198012
-0.15539126 -0.083056718 -0.006112067
-0.15628596 -0.117448 -0.011069845
-0.15609097 -0.14243577 -0.0098889302
-0.15597713 -0.16579047 -0.0091672046
-0.15597025 -0.18763551 -0.0090513742
-0.15609439 -0.20810398 -0.0096779093
-0.15560484 -0.22968554 -0.0068254587
-0.15572971 -0.24855635 -0.0074555548
-0.15571962 -0.26718491 -0.0073204688
-0.15573873 -0.28516558 -0.0073508229
-0.15573764 -0.31976706 -0.0071884301
-0.15593758 -0.34436116 -0.0082049267
-0.15583712 -0.37669677 -0.007479317
-0.1559765 -0.39230654 -0.0081918743
-0.15607819 -0.43098456 -0.0085749421
-0.15605778 -0.44632196 -0.0083821444
-0.15591183 -0.47685963 -0.0074013029
-0.15613335 -0.49223185 -0.0085816355
-0.15629217 -0.52326292 -0.0093316119
-0.15639861 -0.53905654 -0.0098607391
-0.15647905 -0.57937282 -0.010133046
-0.15639624 -0.59580904 -0.0095908772
-0.15704226 -0.63147712 -0.013113788
-0.15636425 -0.65684503 -0.0091622863
-0.15608372 -0.67466021 -0.0075019943
-0.15031566 -0.67616308 0.025298651
-0.14793397 -0.68661582 0.038883507
-0.14786689 -0.70484906 0.039331868
-0.14794724 -0.72443706 0.038942069
-0.15698631 -0.79441667 -0.012273444
-0.15763181 -0.82221359 -0.015880179
-0.15842308 -0.85262412 -0.020317448
-0.15665266 -0.88605034 -0.01018721
-0.15994971 -0.93637729 -0.028862709
-0.33164349 -2.3157327 -1.0041484
-0.33105633 -2.450917 -1.0009259
-0.33173993 -2.6104097 -1.004946
-0.33289152 -2.7919803 -1.0116532
-0.30162454 -2.763557 -0.83418888
-0.23187889 -2.73859 -0.43833417
-0.087105379 -2.732301 0.38341257
-0.073372357 -2.7263074 0.46137443
-0.059637073 -2.7265494 0.53933972
-0.046045177 -2.7140591 0.61651158
-0.039138902 -2.7152522 0.65570998
-0.025379393 -2.71156 0.73384511
-0.011189878 -2.7188556 0.81440216
0.41445392 -6.2950125 3.2238622
0.42501858 -5.9281721 3.2844391
0.42811495 -5.5280938 3.3027046
0.42766103 -5.1396785 3.300812
0.43551499 -4.8632088 3.3458691
0.42849365 -4.4931774 3.3066938
0.43568879 -4.1307554 3.3481829
0.40542322 -3.6799192 3.1772838
0.43988672 -3.6746881 3.3728511
0.43182588 -3.4118979 3.3276091
0.42519099 -3.1775637 3.2904103
0.42266896 -2.981112 3.2764814
0.42137823 -2.802917 3.2695074
0.42798454 -2.5902183 3.3074141
0.40091035 -2.3328969 3.1543138
0.43063411 -2.3022592 3.3230262
0.42352781 -2.1388469 3.2830393
0.41631481 -1.9843405 3.2424331
0.41286317 -1.8488495 3.2231309
0.40966094 -1.7198787 3.2052331
0.40998545 -1.5473392 3.2074375
0.40982178 -1.4352916 3.2067459
0.41006953 -1.3266786 3.2083817
0.4104448 -1.2204421 3.210736
0.41199854 -1.1175767 3.2197683
0.36875078 -0.96556306 2.9747713
0.40923351 -0.90924627 3.2045262
0.41067442 -0.75964618 3.2130158
0.39534086 -0.65380847 3.1262691
0.39930347 -0.55851209 3.148946
0.39487413 -0.4618389 3.1240282
-0.025002006 -0.42748919 0.7429691
-0.025928631 -0.41098481 0.73785216
-0.025433632 -0.39889359 0.740753
-0.036548007 -0.39707205 0.67783725
-0.038317308 -0.39027435 0.66788924
-0.039970711 -0.37444854 0.65868765
-0.040573128 -0.37099633 0.65531427
-0.041644637 -0.35431787 0.64941335
-0.042180151 -0.34589508 0.64646423
-0.041931707 -0.34006962 0.64791912
-0.042221509 -0.32517749 0.64640987
-0.042069148 -0.31352076 0.64736539
-0.041948374 -0.29531935 0.64818799
-0.034314185 -0.16839272 0.69205415
-0.035914108 -0.16812265 0.68301874
-0.038558129 -0.15391392 0.66815376
-0.039733924 -0.13981308 0.66157722
-0.040531456 -0.12171475 0.65715015
0.11652628 1.6908975 1.5501043
0.093150176 1.7043567 1.4176346
0.078546301 1.7198836 1.3348874
0.05118316 1.5398952 1.1795721
0.039295014 1.5711687 1.1122444
0.024356196 1.5465499 1.0275568
0.011524596 1.5542026 0.95485353
-0.0016576698 1.5494207 0.88014871
-0.020064645 1.570972 0.77586991
-0.03303358 1.5574909 0.70236617
-0.045420185 1.5602026 0.63218117
-0.057731185 1.5643975 0.56242633
-0.070118457 1.5541214 0.49222472
-0.08235462 1.5673555 0.42290279
-0.094655067 1.5651256 0.35320121
-0.11313364 1.5626366 0.24849138
-0.12549847 1.5601907 0.17842424
-0.13795251 1.5582025 0.10785165
-0.15103315 1.5713354 0.033738934
-0.16355507 1.5621574 -0.037225556
-0.17604865 1.5504198 -0.10803163
-0.19470128 1.5280148 -0.21374725
-0.19800808 1.3670479 -0.23258111
-0.11447731 -0.081439711 0.24011959
-0.11413075 -0.10166305 0.24210569
-0.11529365 -0.11877821 0.23557146
-0.11664736 -0.13247621 0.22795817
-0.11825485 -0.14293288 0.21890843
-0.12101828 -0.15500891 0.20333946
-0.12297221 -0.16218132 0.19232777
-0.12544471 -0.16593111 0.17837784
-0.12850173 -0.16659434 0.16111511
-0.13457824 -0.16109964 0.12676978
-0.15830196 -0.068160683 -0.0075972266
-0.15825582 -0.095220461 -0.0072810831
-0.1583879 -0.1199171 -0.0079736058
-0.15831566 -0.14420512 -0.0075065363
-0.15818827 -0.16747361 -0.0067255809
-0.15831578 -0.18870054 -0.007388521
-0.15903834 -0.21726443 -0.011393303
-0.15808602 -0.23015936 -0.0059631956
-0.15820543 -0.24899867 -0.0065776119
-0.15861267 -0.27562034 -0.0087913927
-0.15873243 -0.29317525 -0.0094062062
-0.15845183 -0.32799426 -0.0076847682
-0.15838857 -0.34462184 -0.0072602229
-0.15887463 -0.38416049 -0.0098501286
-0.15879378 -0.39995381 -0.0093243103
-0.15868655 -0.43098426 -0.0085807983
-0.15866454 -0.44632128 -0.0083878553
-0.15868922 -0.47689301 -0.0083909053
-0.15890908 -0.49229968 -0.0095692566
-0.15887165 -0.5310635 -0.0091845356
-0.15892817 -0.54689807 -0.0094359247
-0.15907623 -0.57936889 -0.010137245
-0.15932488 -0.59638935 -0.01147846
-0.15945902 -0.61364615 -0.01217018
-0.15927906 -0.63954389 -0.011045242
-0.16831639 -0.68083256 -0.062248182
-0.15649517 -0.66851801 0.0048877266
-0.15199077 -0.6733405 0.030513437
-0.15067863 -0.68710929 0.038028102
-0.15075596 -0.70590192 0.037659261
-0.14917357 -0.72889638 0.046742294
-0.15986389 -0.79561204 -0.013847524
-0.15940212 -0.83120763 -0.011125751
-0.15988442 -0.88951391 -0.013728973
-0.16051303 -0.92413944 -0.017230283
-0.33582351 -2.3259554 -1.0120114
-0.33591071 -2.4670749 -1.0124822
-0.33002326 -2.6529703 -0.97903746
-0.33215725 -2.8504481 -0.9911387
-0.30568203 -2.775779 -0.84084445
-0.228221 -2.7591193 -0.40105775
-0.090079576 -2.7362888 0.38338336
-0.07632415 -2.7312958 0.4615005
-0.062656075 -2.7215469 0.53912377
-0.04201762 -2.7212117 0.65637064
-0.028119473 -2.7214565 0.73525757
-0.014168609 -2.7188506 0.81444442
0.31069291 -8.9243021 2.6549883
0.22891748 -4.9113426 2.1927114
0.40655476 -6.2447128 3.1997924
0.40768334 -5.7789826 3.2064106
0.42181513 -4.9412193 3.2870035
0.43628174 -4.7354035 3.3691854
0.42839321 -4.3728013 3.3246462
0.42738739 -4.0942631 3.3191125
0.40257567 -3.681462 3.1786227
0.43089524 -3.638154 3.3393188
0.43428931 -3.3412457 3.3587906
0.4262341 -3.104949 3.3132734
0.42316136 -2.9102595 3.2959995
0.42206809 -2.7367504 3.2899456
0.42372346 -2.5843747 3.2994738
0.39853212 -2.3346074 3.156785
0.42576939 -2.2948742 3.3113563
0.4216477 -2.0748432 3.2881958
0.4145363 -1.9237278 3.2480116
0.41299731 -1.795661 3.2394228
0.40972593 -1.6680633 3.2210104
0.40666151 -1.545938 3.2037709
0.40716356 -1.4353242 3.2067554
0.40510243 -1.3226168 3.1952052
0.40952525 -1.1702241 3.220495
0.41196588 -1.0687723 3.2344766
0.36897546 -0.92167807 2.9908078
0.41187242 -0.86311442 3.2342312
0.40603462 -0.75842291 3.2012661
0.40075418 -0.65705192 3.1714621
0.39554432 -0.55829823 3.1420584
0.39347038 -0.413876 3.1305156
-0.02779394 -0.42193931 0.7413516
-0.028596723 -0.40540648 0.73692918
-0.028307404 -0.39347365 0.73865849
-0.039381683 -0.39755419 0.6759215
-0.041044015 -0.38593856 0.66662073
-0.042906266 -0.37063664 0.65622914
-0.043657739 -0.36280686 0.6520527
-0.044139132 -0.35431665 0.64940882
-0.044519722 -0.34544003 0.64733726
-0.045051541 -0.33166146 0.64445215
-0.04499517 -0.32070306 0.64486128
-0.044881254 -0.30900207 0.64559764
-0.044160791 -0.29414338 0.64977741
-0.036688231 -0.16766205 0.69272286
-0.038969699 -0.16129082 0.67987001
-0.040724013 -0.15158325 0.67001057
-0.041914627 -0.137418 0.66335297
-0.043779179 -0.11512553 0.65292221
0.10715108 1.7069734 1.5111661
0.083250821 1.6128136 1.375607
0.075970002 1.7189544 1.3345222
0.048918772 1.5436221 1.1810027
0.033958644 1.5238874 1.0962273
0.021782774 1.5455879 1.0272887
0.0028633766 1.5633203 0.92014694
-0.022845853 1.5630902 0.77452379
-0.035651919 1.5545173 0.70197803
-0.048115682 1.5522443 0.63138092
-0.060586616 1.539457 0.56073099
-0.078768395 1.5660431 0.45778483
-0.091070034 1.5640492 0.38810781
-0.10333022 1.5585911 0.31866178
-0.11574575 1.5646294 0.24834844
-0.12814936 1.5631697 0.17809376
-0.14081827 1.5680811 0.10634223
-0.15363154 1.5713377 0.033769947
-0.17199035 1.5469084 -0.070240758
-0.18465038 1.538788 -0.14195807
-0.19758587 1.5327741 -0.21523526
-0.20973407 1.5108292 -0.28406739
-0.11657558 -0.050535187 0.24248828
-0.11661881 -0.085934781 0.24227954
-0.1175002 -0.10756838 0.23733425
-0.11876881 -0.12301388 0.23020053
-0.12016761 -0.13597876 0.22233136
-0.12174316 -0.14659427 0.21346258
-0.12354019 -0.15501031 0.20334038
-0.12560141 -0.16139473 0.19172241
-0.12897708 -0.16955271 0.17268723
-0.13227397 -0.16908233 0.15406999
-0.16014723 -0.043426111 -0.0037234086
-0.16057961 -0.069499753 -0.0061298548
-0.16338021 -0.095973961 -0.021928325
-0.16037267 -0.12238108 -0.0048669581
-0.16180226 -0.15187871 -0.012895024
-0.16116536 -0.17676416 -0.0092371712
-0.16136619 -0.19739582 -0.010325133
-0.16110763 -0.21872093 -0.0088088568
-0.16099553 -0.23870134 -0.0081217494
-0.16065265 -0.27679518 -0.0060728397
-0.16092603 -0.29389474 -0.0075688497
-0.1619065 -0.30924466 -0.013072996
-0.16113207 -0.32770476 -0.0086288499
-0.16073295 -0.34488389 -0.0063118241
-0.16136555 -0.36825871 -0.0098165683
-0.1610397 -0.3845115 -0.0079144426
-0.1609548 -0.40023607 -0.0073784119
-0.16129057 -0.41551429 -0.0092278728
-0.16118702 -0.43098837 -0.0085863126
-0.16098914 -0.44636056 -0.0074097281
-0.16173978 -0.46161136 -0.011613165
-0.16118237 -0.47689769 -0.00839803
-0.16129985 -0.49996027 -0.0089846374
-0.16206466 -0.51596516 -0.01327066
-0.16135518 -0.5310688 -0.0091937073
-0.16157907 -0.54709429 -0.010412507
-0.16138555 -0.57096076 -0.0092386119
-0.16152018 -0.58757836 -0.0099528832
-0.16121496 -0.60376012 -0.0081720538
-0.16129509 -0.62099367 -0.0085789831
-0.16190115 -0.63992482 -0.011972096
-0.16962442 -0.68813181 -0.05574521
-0.15754604 -0.66458023 0.012839478
-0.15303738 -0.67784178 0.038502902
-0.15273625 -0.69492918 0.040256951
-0.1530365 -0.71487397 0.038594671
-0.16145977 -0.78019243 -0.009183065
-0.16222465 -0.80761427 -0.013495359
-0.16194938 -0.8318584 -0.011903027
-0.16275991 -0.86309081 -0.016482281
-0.16171481 -0.90143347 -0.010513503
-0.16208479 -0.93553013 -0.012600831
-0.16269894 -0.97406054 -0.01608197
-0.33406886 -2.3654759 -0.99051356
-0.33548808 -2.5225148 -0.99880004
-0.33595031 -2.6881986 -1.0016783
-0.33683231 -2.8770251 -1.0069849
-0.30483505 -2.7469246 -0.82520109
-0.22981872 -2.7544303 -0.3994936
-0.19898681 -2.7522821 -0.22450851
-0.091925226 -2.742301 0.38314924
-0.071276143 -2.7302759 0.50037253
-0.057585828 -2.7231433 0.57809013
-0.043830484 -2.721226 0.6562379
-0.023033284 -2.71855 0.77438152
-0.0088520935 -2.7213948 0.85492921
0.23126362 -4.9632835 2.2131329
0.41299826 -6.0823655 3.2421618
0.42025909 -5.705245 3.2842307
0.42011574 -4.9387236 3.2851796
0.42850754 -4.6838136 3.3334036
0.4244999 -4.3552508 3.3114266
0.42111689 -4.0616412 3.2929192
0.41277748 -3.647016 3.2465765
0.43522519 -3.5658598 3.3741784
0.4257659 -3.3044462 3.3211224
0.4200128 -3.082886 3.2890098
0.41822106 -2.8961372 3.2792988
0.41768196 -2.7263033 3.2766578
0.42035905 -2.5791044 3.2922151
0.40472174 -2.2962387 3.2041767
0.42279062 -2.2217886 3.3069017
0.4160746 -2.0641961 3.2691834
0.41165218 -1.9219316 3.2444444
0.40881261 -1.7906088 3.2286611
0.40468314 -1.6614394 3.205554
0.4036617 -1.5445241 3.200052
0.40516385 -1.3812211 3.2089839
0.40438169 -1.2719933 3.2048182
0.40642178 -1.169276 3.2166469
0.40968701 -1.0690002 3.2354176
0.36872512 -0.92395514 3.0033984
0.40852728 -0.86243796 3.2293406
0.40197787 -0.75750101 3.1924405
0.39595979 -0.60749024 3.1586611
0.39373249 -0.51016396 3.1462567
0.39022321 -0.41396457 3.1265764
-0.030521078 -0.4220646 0.74037337
-0.030129215 -0.40436819 0.74274826
-0.030528253 -0.39306089 0.74058527
-0.042319905 -0.39333719 0.67383057
-0.043543182 -0.39055026 0.66693836
-0.045635037 -0.37099612 0.65531075
-0.046225961 -0.36280775 0.65205395
-0.046708804 -0.35431728 0.64941031
-0.047303967 -0.34100759 0.64617729
-0.047474302 -0.33116153 0.64530712
-0.047422361 -0.32017294 0.64569873
-0.047169134 -0.30788329 0.64723313
-0.046982277 -0.28894028 0.64844
-0.039151955 -0.16692898 0.69339877
-0.04155178 -0.16128869 0.67987418
-0.043087829 -0.1500266 0.67125446
-0.045085732 -0.12996389 0.66006392
-0.045973029 -0.11180636 0.65512967
0.10397803 1.6998423 1.5076021
0.078882448 1.5901546 1.3652109
0.06951692 1.6655657 1.3122087
0.039877877 1.5501769 1.1440723
0.025937473 1.5450317 1.0650502
0.012932916 1.5511917 0.99134582
0.0001605677 1.5584723 0.91895908
-0.012828704 1.5562422 0.84533399
-0.025442867 1.5591562 0.77384043
-0.044074744 1.5671051 0.66824371
-0.056599654 1.561619 0.59724957
-0.06923829 1.5276247 0.52558994
-0.081207387 1.5660526 0.45777971
-0.093478814 1.5570608 0.38822079
-0.10582639 1.5665916 0.31824243
-0.11815933 1.5646418 0.24833906
-0.13688156 1.5664616 0.1422229
-0.14936009 1.5621794 0.071491972
-0.16228062 1.5670847 -0.0017406611
-0.17419864 1.5430443 -0.069303982
-0.18692337 1.5368835 -0.14143251
-0.20048399 1.5423045 -0.21829608
-0.21836188 1.5026916 -0.31964597
-0.11864337 -0.056915142 0.24529099
-0.11888116 -0.089514673 0.24400583
-0.1199068 -0.10931858 0.23825873
-0.12116673 -0.12472986 0.23118523
-0.12353996 -0.14123999 0.21783708
-0.12517409 -0.1511524 0.20864436
-0.12704606 -0.15892693 0.19810362
-0.1291977 -0.16473864 0.18597746
-0.1317825 -0.16802473 0.17139536
-0.13544324 -0.16540629 0.15071218
-0.16396026 -0.051025286 -0.01085002
-0.16392475 -0.079105683 -0.010578013
-0.16850325 -0.083993077 -0.036471225
-0.16382174 -0.13058944 -0.0098486636
-0.16344924 -0.17783049 -0.0075864024
-0.16364802 -0.19840266 -0.008637459
-0.16354001 -0.2191821 -0.0079476573
-0.16327497 -0.23958549 -0.0063664941
-0.16325083 -0.27677059 -0.0060714451
-0.16386934 -0.3018623 -0.0094594257
-0.16381456 -0.31912869 -0.0090677813
-0.16364469 -0.33617038 -0.0080226446
-0.1638677 -0.35223633 -0.0092055667
-0.16364962 -0.36864838 -0.0078858575
-0.16366848 -0.38448489 -0.0079096844
-0.16341671 -0.40034842 -0.0063978415
-0.16358408 -0.41569626 -0.0072631384
-0.16374657 -0.43866068 -0.0080576688
-0.16385451 -0.45393938 -0.0085845413
-0.1636963 -0.46921009 -0.0076012672
-0.16379271 -0.48450625 -0.008061857
-0.16414198 -0.50001836 -0.0099562202
-0.16405556 -0.5232361 -0.0093347616
-0.16382235 -0.5386821 -0.0079238275
-0.16400409 -0.55472642 -0.0088661946
-0.16391471 -0.57068855 -0.0082700336
-0.16439164 -0.58782321 -0.010885704
-0.16442192 -0.60465592 -0.010967221
-0.16450359 -0.62198824 -0.011339673
-0.16424434 -0.64795929 -0.0097316587
-0.16434398 -0.66655016 -0.010204407
-0.15904966 -0.66996473 0.019918254
-0.15533048 -0.67635566 0.041106593
-0.15564202 -0.69541186 0.03943336
-0.15580271 -0.71484143 0.038616464
-0.16481362 -0.78250951 -0.012345122
-0.16502905 -0.80758011 -0.013468604
-0.1646893 -0.84471673 -0.011392036
-0.16437097 -0.87077725 -0.0094853742
-0.1648103 -0.90281236 -0.011873592
-0.16566163 -0.93988228 -0.016596116
-0.16592512 -0.97628856 -0.017983025
-0.33999276 -2.3845892 -1.0046316
-0.34116754 -2.5404818 -1.011111
-0.33605808 -2.7435737 -0.98185426
-0.33626971 -2.9331126 -0.98284173
-0.30322009 -2.787179 -0.7953077
-0.26475587 -2.7408128 -0.57688934
-0.24838893 -2.7396169 -0.48392221
-0.088839591 -2.7446177 0.42252055
-0.0750705 -2.7362392 0.50074732
-0.061390594 -2.726104 0.57846677
-0.040711664 -2.7226658 0.69592869
-0.027002487 -2.7135835 0.77378094
-0.012750787 -2.7194049 0.85472226
0.22566788 -4.9530826 2.209388
0.39722314 -5.9647632 3.1835361
0.4164851 -5.7201319 3.292702
0.42839208 -5.4266386 3.3601105
0.41736299 -4.9571929 3.2972815
0.42161357 -4.6658101 3.3212636
0.43070856 -4.2963877 3.372714
0.41482773 -3.9229066 3.2824414
0.41541076 -3.6908822 3.2856679
0.42358023 -3.5212753 3.3319767
0.41697079 -3.2780643 3.2943974
0.41296715 -3.0668426 3.2716243
0.41249418 -2.8871546 3.2689037
0.41956708 -2.6705823 3.3090096
0.42055586 -2.5181935 3.3146031
0.40665311 -2.3169541 3.235688
0.41848007 -2.2192309 3.3028038
0.40954036 -2.0545154 3.2520704
0.40589464 -1.9151372 3.2313867
0.40196928 -1.7813256 3.2091219
0.40635976 -1.6153278 3.2340572
0.40244183 -1.4927607 3.2118442
0.40178156 -1.380928 3.2081194
0.40104032 -1.2717338 3.2039375
0.40311792 -1.1690502 3.2157516
0.40489101 -1.0669369 3.2258396
0.36141264 -0.91962445 2.9791982
0.40543488 -0.81180125 3.2290025
0.39808345 -0.70751494 3.1873305
0.39216197 -0.60724354 3.1537738
0.38979328 -0.51007396 3.1403739
0.38753137 -0.41396224 3.1275816
-0.032009792 -0.42694944 0.74787164
-0.033646308 -0.41655988 0.73867983
-0.033114463 -0.40452209 0.74178779
-0.045302313 -0.39357573 0.6728878
-0.046754181 -0.3865048 0.66474575
-0.048738323 -0.36686778 0.65372455
-0.048880026 -0.36239749 0.65296733
-0.04952246 -0.35429782 0.64941674
-0.050117195 -0.34098837 0.64618307
-0.050547808 -0.32670239 0.64388013
-0.050087132 -0.3196243 0.64653879
-0.049836226 -0.30730563 0.648054
-0.049653169 -0.28832033 0.64923018
-0.041706268 -0.16544981 0.69474173
-0.044934619 -0.15446235 0.67657137
-0.046518706 -0.14328891 0.66767895
-0.047571354 -0.12752067 0.66179913
-0.048569269 -0.11013222 0.65622908
-0.048801571 -0.069061436 0.6550408
0.095158041 1.720541 1.4710978
0.078343891 1.7116039 1.3758276
0.057308532 1.6337272 1.2566431
0.038203683 1.5624012 1.1484061
0.024179917 1.5574045 1.0689626
0.010374372 1.5492795 0.9907583
-0.002350562 1.557513 0.91867691
-0.021207763 1.570307 0.81186068
-0.034041669 1.5660708 0.7391668
-0.046719044 1.5601707 0.66736162
-0.059074085 1.5636255 0.59738106
-0.07167545 1.5366268 0.52601588
-0.083734214 1.5640678 0.4577063
-0.096038878 1.5670749 0.38801199
-0.11440744 1.5554694 0.28397885
-0.12684973 1.56126 0.21350308
-0.13944004 1.5664792 0.14218786
-0.15207818 1.5671215 0.070603326
-0.1647841 1.565147 -0.0013646414
-0.17674489 1.5420932 -0.06909778
-0.19577409 1.5304267 -0.17687805
-0.20932351 1.5334963 -0.25363246
-0.12208736 -0.068263344 0.24210532
-0.12257929 -0.096287973 0.23942426
-0.12361366 -0.11525065 0.23366283
-0.12490576 -0.12987557 0.22643776
-0.12644017 -0.14122625 0.21783695
-0.12797928 -0.15195806 0.20920922
-0.12985052 -0.1597122 0.19869642
-0.13211045 -0.16472532 0.18597777
-0.13492647 -0.16650197 0.17010371
-0.13986434 -0.16666114 0.14224251
-0.16645105 -0.081060141 -0.008348681
-0.17270437 -0.091558047 -0.043667946
-0.1661987 -0.13298357 -0.0067024422
-0.16724922 -0.18548606 -0.012397737
-0.16676477 -0.228247 -0.0094393585
-0.16690245 -0.24721085 -0.010116073
-0.16674605 -0.26634085 -0.0091247242
-0.16677438 -0.28438553 -0.0091817565
-0.16651502 -0.3025353 -0.0076069194
-0.1664602 -0.31973591 -0.0071928306
-0.16645743 -0.33643538 -0.007074187
-0.16600873 -0.35343596 -0.0044260779
-0.16646655 -0.36884618 -0.0069207787
-0.16648763 -0.38464868 -0.0069380617
-0.16659322 -0.40795228 -0.0073839664
-0.16671722 -0.42331338 -0.0079854084
-0.1667476 -0.43865162 -0.0080560977
-0.16668482 -0.45394814 -0.007598395
-0.16687655 -0.46921891 -0.0085845552
-0.16697544 -0.48455021 -0.0090441294
-0.16698092 -0.49992329 -0.0089740483
-0.16707109 -0.52322841 -0.0093339337
-0.16701116 -0.53884822 -0.0088930372
-0.16736378 -0.55513489 -0.010792372
-0.16744223 -0.57140714 -0.011136581
-0.16741575 -0.58781654 -0.010885742
-0.16717589 -0.61263847 -0.0093743699
-0.1673668 -0.63036609 -0.010356789
-0.1674343 -0.64834422 -0.01063924
-0.16611663 -0.6631645 -0.0030651013
-0.16099948 -0.66678244 0.026059238
-0.15882009 -0.67780524 0.038520459
-0.15811451 -0.70269388 0.042672306
-0.15807004 -0.72160536 0.043024324
-0.16729133 -0.7919715 -0.0091271941
-0.16795975 -0.81965798 -0.012818328
-0.16798894 -0.84602529 -0.012883881
-0.1684244 -0.87622947 -0.015253704
-0.16882956 -0.90846574 -0.017451692
-0.16759394 -0.94982123 -0.010293768
-0.33945423 -2.4281898 -0.98470819
-0.34051457 -2.5887792 -0.9906171
-0.34074327 -2.7596788 -0.99180901
-0.32355747 -2.7772312 -0.89423478
-0.3028788 -2.751858 -0.77685183
-0.24331476 -2.739465 -0.43867543
-0.19800007 -2.749835 -0.18136996
-0.091664128 -2.7256224 0.42246038
-0.077961676 -2.7242517 0.50027263
-0.05733864 -2.7240019 0.61738431
-0.04370648 -2.7137394 0.69478327
0.23747058 -4.9308748 2.2904267
0.39431649 -6.46802 3.1802366
0.40620771 -6.0930867 3.2477646
0.40870744 -5.6641645 3.2620184
0.42238873 -5.3923602 3.3397014
0.4318127 -4.934597 3.3932712
0.42297339 -4.5442333 3.3432035
0.41895533 -4.2286224 3.3204849
0.38577646 -3.7413466 3.132349
0.41498452 -3.7050114 3.2981093
0.41791427 -3.5032976 3.3148031
0.41779065 -3.2001512 3.3142138
0.41506258 -3.0008743 3.2988131
0.41366684 -2.8206174 3.2909701
0.41474515 -2.6615586 3.2971613
0.41139928 -2.492383 3.2782559
0.40489358 -2.320771 3.2414265
0.41108054 -2.2032652 3.2765961
0.40948865 -1.9980308 3.2676768
0.40443614 -1.8568132 3.2390902
0.40305847 -1.7317468 3.231349
0.39804533 -1.6025889 3.2029855
0.39844775 -1.490366 3.2053416
0.39809501 -1.3793823 3.2034137
0.398004 -1.2714572 3.2029703
0.40094993 -1.1176437 3.2197897
0.39268216 -1.0047578 3.1729636
0.36016968 -0.87456101 2.9886122
0.39977664 -0.8098464 3.2133503
0.38462478 -0.70218861 3.1274748
0.38907349 -0.60718703 3.1527808
0.3863515 -0.51001668 3.1374116
0.38368744 -0.36616889 3.1224062
-0.035476729 -0.42726737 0.74493194
-0.036592845 -0.41656449 0.73867857
-0.03622954 -0.40470019 0.74081689
-0.046348628 -0.39560634 0.68357438
-0.048407324 -0.39383927 0.67193586
-0.049688712 -0.38650963 0.66474527
-0.050019369 -0.37765238 0.6629473
-0.051378146 -0.37098113 0.65531766
-0.052119888 -0.35833669 0.6512267
-0.052979439 -0.34587976 0.64646745
-0.053262871 -0.33656633 0.64493716
-0.053313971 -0.32619217 0.64472455
-0.053298336 -0.31513932 0.64489043
-0.053085517 -0.30276665 0.64617455
-0.052421577 -0.28772315 0.65001726
-0.045282166 -0.15919179 0.6909287
-0.047491912 -0.15216854 0.67847151
-0.048980314 -0.14014131 0.67010528
-0.050151717 -0.12509799 0.66353673
-0.052720536 -0.1077287 0.64908016
-0.051592935 -0.068208508 0.65554875
0.090747774 1.703469 1.4628918
0.075032264 1.70704 1.3738221
0.046159074 1.516909 1.2101463
0.036331665 1.5793164 1.1544673
0.020706374 1.547895 1.0659148
0.0018228596 1.5696648 0.95890975
-0.024460038 1.5604891 0.80997485
-0.037229225 1.5561911 0.73761898
-0.049650636 1.5591745 0.6672346
-0.062146671 1.552663 0.59642839
-0.080486491 1.5631328 0.49250871
-0.09277536 1.5663736 0.42287597
-0.10508856 1.5671432 0.35310557
-0.1175197 1.5744145 0.28266504
-0.12974606 1.562245 0.21338937
-0.14212053 1.5585462 0.14327221
-0.1551874 1.5749885 0.069223762
-0.17347187 1.5495152 -0.034375973
-0.18562227 1.5320926 -0.1032198
-0.19892767 1.5361491 -0.17861915
-0.21233724 1.5363159 -0.25460872
-0.12427837 -0.075523749 0.24543345
-0.12503721 -0.099861927 0.24121173
-0.12621413 -0.11700988 0.2346171
-0.12758097 -0.13074283 0.22694452
-0.12901171 -0.14291395 0.21890926
-0.13083541 -0.15114927 0.2086442
-0.13362585 -0.16295053 0.19293521
-0.13496858 -0.16395907 0.18535796
-0.13879837 -0.16954824 0.163752
-0.14320683 -0.163076 0.13882208
-0.16879039 -0.083043203 -0.0061205854
-0.16848958 -0.11042875 -0.0043304763
-0.16949259 -0.14242184 -0.0098960539
-0.16923602 -0.16633564 -0.00835736
-0.16966841 -0.18656129 -0.010727561
-0.16947041 -0.22826238 -0.0094388332
-0.16913614 -0.24854167 -0.007459891
-0.16928536 -0.26676324 -0.0082239406
-0.16930752 -0.28477591 -0.0082672155
-0.1690422 -0.30289313 -0.0066797072
-0.16914678 -0.31975174 -0.007190695
-0.16951527 -0.34408671 -0.0091576483
-0.16934976 -0.36058775 -0.0081365202
-0.16941892 -0.37649003 -0.0084465304
-0.16938852 -0.39229053 -0.0081918277
-0.16943221 -0.40784672 -0.0083574113
-0.16920741 -0.42341712 -0.0069999252
-0.16958064 -0.4386158 -0.0090347659
-0.16953357 -0.46159148 -0.0086441077
-0.16950198 -0.47687763 -0.0083824703
-0.1693778 -0.49214515 -0.0075955922
-0.16967921 -0.50768888 -0.0092227384
-0.16971214 -0.52324557 -0.0093268249
-0.16964893 -0.53886551 -0.0088854646
-0.16982847 -0.55494446 -0.009821008
-0.16973649 -0.5790962 -0.0091747427
-0.16982317 -0.59579104 -0.0095831808
-0.16996348 -0.61298168 -0.010295666
-0.17031136 -0.63110048 -0.012185193
-0.17021143 -0.64875281 -0.011534734
-0.16749178 -0.66894364 0.0040163631
-0.16252561 -0.67238933 0.032266688
-0.16077009 -0.68459755 0.042307194
-0.16101274 -0.70377064 0.041015178
-0.1611028 -0.72329986 0.040588804
-0.17044349 -0.79439712 -0.012257148
-0.17068958 -0.82030606 -0.013566468
-0.17110559 -0.84866816 -0.015838809
-0.16962881 -0.88325185 -0.0073328642
-0.17017958 -0.91693622 -0.010367854
-0.17087562 -0.95429891 -0.014225709
-0.34494105 -2.311763 -1.0010444
-0.34380502 -2.4419882 -0.99447954
-0.34478429 -2.6029184 -0.99990374
-0.34612727 -2.785166 -1.0073842
-0.32261804 -2.74177 -0.87395918
-0.29806271 -2.7674618 -0.73453754
-0.27943119 -2.7508793 -0.62877297
-0.26234087 -2.7444057 -0.53174764
-0.24624348 -2.7441652 -0.4403528
-0.087388635 -2.7362871 0.46165878
-0.073670179 -2.7285287 0.53955704
-0.060007043 -2.7200191 0.61714131
-0.046183757 -2.7196944 0.6956026
-0.025259392 -2.7178557 0.81434554
0.40520042 -6.3633289 3.2569356
0.40921462 -5.9184647 3.279604
0.40318859 -5.4267693 3.2453303
0.41963857 -5.2007446 3.3385949
0.42193508 -4.8715038 3.3515742
0.41385782 -4.4915624 3.3057179
0.41285276 -4.2017474 3.2999961
0.39090544 -3.6776564 3.1754901
0.42335501 -3.6600618 3.3595624
0.41921601 -3.4203849 3.3360963
0.41359198 -3.1905229 3.304215
0.4088487 -2.9817681 3.2773368
0.40775087 -2.8041749 3.2711422
0.40984702 -2.6506464 3.2830687
0.39117968 -2.3485537 3.1772571
0.41644466 -2.300667 3.3206031
0.41102853 -2.1428444 3.2899377
0.40372795 -1.9876238 3.2485886
0.40064433 -1.8527914 3.2311609
0.39702344 -1.7223148 3.2106895
0.39789972 -1.5505598 3.2157636
0.39811108 -1.4388677 3.217036
0.39541695 -1.3246253 3.2018328
0.39731508 -1.2209532 3.2126784
0.39838767 -1.1173444 3.2188449
0.36301386 -0.97414458 3.0183032
0.37371412 -0.88904899 3.0790801
0.39782643 -0.75995106 3.2159781
0.38026407 -0.65310079 3.1164656
0.38719079 -0.55874699 3.155853
0.38347411 -0.4618293 3.1348758
0.38229772 -0.36588988 3.1283104
-0.038222667 -0.4216882 0.74331957
-0.039199032 -0.41097632 0.73786056
-0.038872134 -0.39907601 0.73979437
-0.048971891 -0.39585483 0.68262315
-0.051081225 -0.38943994 0.67073709
-0.052549973 -0.38254812 0.66248488
-0.053509682 -0.37027252 0.65716058
-0.054262348 -0.36241049 0.65297115
-0.054417673 -0.35793838 0.65213031
-0.05508481 -0.34987146 0.64842653
-0.05556896 -0.33609045 0.64580226
-0.055624008 -0.32568622 0.64557242
-0.05561265 -0.31460387 0.64572001
-0.055760488 -0.29766449 0.64500719
-0.055707484 -0.27852461 0.64543605
-0.029229745 -0.082658082 0.7959913
-0.048581038 -0.15373878 0.68633926
-0.050708726 -0.14613837 0.67435682
-0.05224527 -0.13421865 0.66573113
-0.053275887 -0.11761512 0.65997946
-0.054778297 -0.058956962 0.65171057
0.08777386 1.7016854 1.4620351
0.065252662 1.7189723 1.3344878
0.038568553 1.5492383 1.1830906
0.023853226 1.5343012 1.0997257
0.011560855 1.5551627 1.0301393
-0.0016445649 1.5561396 0.95535475
-0.014729809 1.554297 0.88124919
-0.027347289 1.5595001 0.8098045
-0.046080589 1.5673956 0.70373261
-0.058679417 1.5621928 0.63238323
-0.071142122 1.5554196 0.56180423
-0.083353721 1.5671126 0.49267098
-0.095675141 1.5673535 0.42290208
-0.10792773 1.5561279 0.35351008
-0.12024076 1.558429 0.28379184
-0.13899834 1.5671324 0.17758815
-0.1515578 1.5670842 0.10647058
-0.16396847 1.5585653 0.036186229
-0.17661801 1.5543524 -0.035447128
-0.18907271 1.542681 -0.10598513
-0.20250306 1.5475856 -0.18203406
-0.2155368 1.5400563 -0.25585011
-0.12599155 -0.085520513 0.25002161
-0.12715855 -0.10434442 0.24345745
-0.12855771 -0.11878686 0.2355824
-0.13100155 -0.13513875 0.22181967
-0.13151792 -0.14294238 0.21891974
-0.13417888 -0.15582821 0.20392983
-0.13612789 -0.16298009 0.19294578
-0.13837239 -0.16824064 0.18028867
-0.1415329 -0.16809258 0.16244514
-0.17184405 -0.066838294 -0.0090466198
-0.17166971 -0.094593942 -0.0080211861
-0.17180282 -0.11931807 -0.0087353121
-0.1718719 -0.14304648 -0.0090855574
-0.17160431 -0.16693176 -0.0075276564
-0.17187969 -0.18765832 -0.009044487
-0.17184751 -0.20862687 -0.0088181058
-0.17150244 -0.22970827 -0.0068184361
-0.17162164 -0.24857906 -0.0074484716
-0.17144711 -0.26761436 -0.0064137289
