# .PCD v0.7 - Point Cloud Data file format
VERSION 0.7
FIELDS x y z
SIZE 4 4 4
TYPE F F F
COUNT 1 1 1
WIDTH 475
HEIGHT 1
VIEWPOINT 0 0 0 1 0 0 0
POINTS 475
DATA ascii
0.056118362 -0.77138627 0.0028716421
0.088094331 -0.73882967 0.002330024
-0.028797276 -0.72821462 0.002692037
0.03550313 -0.7592755 0.0039655673
-0.012756636 -0.73827827 0.0030721067
-0.042011403 -0.7275629 0.0034394595
-0.089917451 -0.69773257 0.0032453386
-0.14303461 -0.66945565 0.0032032295
-0.076251283 -0.70656776 0.0048329141
-0.11629746 -0.68748242 0.0045404099
-0.1560626 -0.66893429 0.0040097577
-0.14836989 -0.66898686 0.0040307217
-0.17497672 -0.65982342 0.0041460223
-0.19366583 -0.65083462 0.0045863329
-0.18791631 -0.65079427 0.0045558368
-0.21762511 -0.64182514 0.0049194237
-0.20103621 -0.64183235 0.0049560703
0.027480112 -0.75817651 0.0056368024
0.067306928 -0.74741131 0.0055178665
-0.033899538 -0.7265135 0.0050690374
-0.068574786 -0.70597923 0.0056034224
-0.16137347 -0.66806412 0.0057612085
-0.16955255 -0.65939999 0.0050056735
-0.21169013 -0.63287991 0.0055345437
0.043611523 -0.76840156 0.0067465263
0.051617894 -0.76844352 0.006844996
0.019543758 -0.75763392 0.0065162415
-0.094671004 -0.69582629 0.006740978
-0.019931402 -0.73561609 0.0072782673
-0.08137203 -0.70508289 0.0073340186
0.00657243 -0.74575996 0.0080559198
0.078396112 -0.74514931 0.0088022416
-0.046789542 -0.72426611 0.0084069194
-0.13437618 -0.67595661 0.0086055771
0.075986162 -0.75531209 0.0096914088
-0.00086297054 -0.74401402 0.010419304
-0.038085766 -0.72282577 0.010962969
-0.059618823 -0.71271962 0.01069391
-0.12041043 -0.68409276 0.010519959
-0.17932037 -0.65688747 0.010478728
-0.051242035 -0.72204065 0.011671112
-0.15221569 -0.6654219 0.011087667
0.01561379 -0.7529934 0.012897717
-0.085526131 -0.70208508 0.012462985
-0.10680331 -0.69232196 0.012662394
-0.099028528 -0.69232881 0.012637876
-0.13892771 -0.67413038 0.012113038
0.039645169 -0.76314336 0.013963884
-0.0081268884 -0.74173033 0.013622593
-0.024304887 -0.73181802 0.013096847
-0.064141721 -0.71125793 0.013255963
0.061254214 -0.76256233 0.014822611
-0.07200107 -0.7103048 0.014962496
-0.12533373 -0.68175596 0.014839677
-0.11157029 -0.69099176 0.015344103
-0.16464669 -0.66323525 0.01550875
-0.18366878 -0.65479261 0.015009903
-0.21301697 -0.63709927 0.015805041
0.031870291 -0.76143336 0.016444335
-0.015717359 -0.73961282 0.016990542
0.074671559 -0.73957133 0.016962264
-0.090412095 -0.69964141 0.016777238
-0.14368911 -0.67184299 0.016483907
-0.19660071 -0.64552569 0.016229194
0.024188887 -0.76083875 0.017183032
-0.18864474 -0.65359074 0.017742494
-0.20478253 -0.64505976 0.017083725
0.048785422 -0.77092397 0.018378666
-0.076674469 -0.70830238 0.018361133
-0.12975426 -0.67994893 0.018385626
-0.15641461 -0.66195351 0.018152067
0.011092541 -0.74845004 0.019400101
-0.11629754 -0.68851286 0.019648509
-0.16966631 -0.661089 0.019998716
0.003364377 -0.74786079 0.020204186
-0.041938473 -0.72673249 0.020440198
-0.028169474 -0.7268548 0.020465868
-0.055442117 -0.71675676 0.020053033
-0.068842895 -0.7072168 0.020021403
-0.10292265 -0.69701642 0.02092951
0.11532013 -0.76854563 0.02155371
-0.046988737 -0.71572202 0.021701114
0.019834856 -0.75670749 0.022776583
0.028033525 -0.75668573 0.022723978
-0.0040231599 -0.74610114 0.022608986
-0.033461459 -0.72572184 0.022099642
0.044014655 -0.76672262 0.023930829
0.067845933 -0.74553084 0.023337226
-0.059844173 -0.71471494 0.023429731
-0.081086949 -0.7051785 0.023362016
-0.12089069 -0.68602467 0.023835842
-0.17390096 -0.65932411 0.023547238
-0.019809335 -0.73456001 0.02430634
-0.094053261 -0.69512665 0.024429381
0.036149647 -0.76551187 0.02548488
-0.011591491 -0.74386525 0.025823578
-0.14728315 -0.67614549 0.025312005
-0.13400602 -0.67623395 0.025398372
-0.19253489 -0.64972675 0.025726752
-0.0085761668 -0.78696251 0.026957814
-0.05443551 -0.77594215 0.026018269
0.023112437 -0.75379694 0.026804438
-0.00068884634 -0.74325389 0.026643751
-0.16024525 -0.66679198 0.026042162
0.0075830114 -0.75322574 0.027600383
-0.085628569 -0.70266885 0.027654145
-0.10659393 -0.6931138 0.027854696
-0.13883102 -0.67527711 0.027121423
-0.1789543 -0.6576283 0.027208133
-0.20029393 -0.64884526 0.027458096
-0.20775834 -0.64023936 0.027866125
-0.035038795 -0.78567743 0.028542828
0.053014938 -0.77437729 0.028505977
-0.024275208 -0.73175371 0.028438691
-0.05113069 -0.7211073 0.028621458
-0.12553839 -0.68366563 0.028210256
-0.15171729 -0.66542894 0.028696982
-0.18377377 -0.65716952 0.028130358
-0.2160618 -0.6398285 0.028753787
0.015586409 -0.75199288 0.029121257
-0.071936496 -0.71116203 0.02937589
-0.064412363 -0.71107739 0.029291745
-0.16523461 -0.66500354 0.029607723
-0.040295832 -0.78433573 0.030036431
-0.02943241 -0.78376836 0.03079024
0.04011216 -0.76189649 0.030181652
0.058467373 -0.80673915 0.031876173
0.0027655391 -0.79522794 0.031184329
0.015918249 -0.79523396 0.03116525
-0.004960414 -0.79453999 0.031872753
0.0083328839 -0.79464781 0.031996235
0.021424411 -0.79460275 0.03195034
0.064200304 -0.77191013 0.031623494
0.032083362 -0.76073897 0.031811897
-0.037055746 -0.72940087 0.031615287
0.048104331 -0.81822819 0.032552265
0.032180067 -0.80606735 0.032499447
-0.01298377 -0.79401416 0.032739446
0.0003410099 -0.79394943 0.032707993
0.013352553 -0.78261554 0.03243272
0.093336612 -0.78256285 0.032405861
0.021514973 -0.77131665 0.032385305
0.056107309 -0.77129716 0.032387905
0.072009273 -0.77134049 0.032372277
0.077361748 -0.77132976 0.032388151
-0.079501815 -0.76006651 0.032529075
-0.074200809 -0.76010066 0.032595795
0.080016434 -0.76013982 0.032620221
-0.0076362612 -0.73921478 0.032197714
-0.076919571 -0.70905715 0.032658409
-0.11144472 -0.69066465 0.032173391
-0.19613402 -0.64638358 0.032822911
0.088278301 -0.81759351 0.033372797
0.080105513 -0.80541432 0.033267293
0.085671321 -0.80535871 0.033184461
-0.015276236 -0.78135622 0.033928555
0.032441087 -0.78133136 0.033910606
0.075197019 -0.78137326 0.033968322
0.048370555 -0.77002823 0.033841971
0.091039576 -0.7700296 0.033886593
0.010990961 -0.74911481 0.033210825
0.082670681 -0.749066 0.033140175
-0.015395208 -0.73869932 0.03308076
0.075070702 -0.73871565 0.033118308
-0.055584189 -0.717915 0.033621311
-0.089945577 -0.69909531 0.033613741
-0.1432468 -0.67196172 0.033149783
0.058929231 -0.8292492 0.034614325
0.067123987 -0.82919157 0.034461778
0.024350997 -0.80478626 0.034064416
0.067180052 -0.80405736 0.034701675
0.07766927 -0.79268759 0.034217503
0.091077447 -0.79261863 0.034161214
0.04327837 -0.76944155 0.034664817
-0.050198838 -0.75861365 0.034038212
0.1017243 -0.75830168 0.03497773
0.0034061412 -0.74787283 0.034717329
-0.042283587 -0.72760886 0.034019928
-0.098040476 -0.69842678 0.034305472
0.069955096 -0.81557995 0.035499819
-0.020343523 -0.79142517 0.035750221
0.035241626 -0.79141259 0.035768565
-0.0099208234 -0.78010243 0.035462819
0.067319617 -0.78003079 0.0354155
0.016689129 -0.76884228 0.035459828
0.067387074 -0.75768775 0.035720062
-0.063310042 -0.72654462 0.035656665
-0.033737753 -0.72663569 0.035704833
-0.1534342 -0.71705568 0.035292674
-0.11602436 -0.68856561 0.035475787
-0.12970909 -0.67983598 0.03517266
-0.20404252 -0.64506853 0.035477649
-0.21214822 -0.63658994 0.035966109
0.051969789 -0.82714278 0.036582466
0.011498329 -0.8028385 0.036330082
0.030512944 -0.8021124 0.03693416
0.043655198 -0.80210567 0.036939133
0.046282422 -0.80209804 0.036942616
0.056898996 -0.80211365 0.036990896
0.048798602 -0.79068947 0.03637857
0.070122235 -0.79071748 0.036397059
0.083217829 -0.79074711 0.036485866
0.097066037 -0.7907173 0.036444288
0.019695584 -0.77942389 0.036207788
0.046162073 -0.77941 0.036190946
0.080640286 -0.77944607 0.036229718
0.05204127 -0.77876955 0.036908336
0.003667424 -0.76822072 0.036254834
0.070094816 -0.76820993 0.036187746
0.10470935 -0.76826859 0.036384102
-0.055031497 -0.76737571 0.036924131
-0.04179791 -0.76741689 0.036944009
-0.03613833 -0.76753157 0.036994617
-0.030864559 -0.76755732 0.036979787
-0.020184623 -0.75716627 0.036586523
0.01976704 -0.75710839 0.036532171
0.11538342 -0.75710154 0.036523886
-0.11874635 -0.74663538 0.036208626
-0.022893878 -0.74673879 0.036369629
0.091470435 -0.74665928 0.036271632
-0.02021889 -0.73641825 0.036345463
-0.057557236 -0.72591627 0.036456607
-0.1476949 -0.71592867 0.036961645
-0.059972145 -0.71581733 0.036955599
-0.081241369 -0.70640963 0.036847059
-0.14011827 -0.69701749 0.036979776
-0.16923267 -0.69698864 0.036971897
-0.11860661 -0.69693196 0.036856055
-0.1025463 -0.69692862 0.036881842
-0.094771452 -0.69693482 0.03685607
-0.14269142 -0.6881386 0.036349725
-0.13207206 -0.68818498 0.036425665
0.035456322 -0.81429476 0.03709456
0.054495014 -0.81425333 0.037046008
0.062086046 -0.81425631 0.037058834
0.083296292 -0.81427211 0.037056051
0.075856261 -0.81364113 0.037807263
0.065128118 -0.80211169 0.037003953
0.038254868 -0.80143517 0.037666332
0.041323375 -0.79005545 0.037142076
0.088970624 -0.79008019 0.037217483
0.059407584 -0.7788291 0.037088431
0.099613331 -0.77880281 0.037032619
0.06212528 -0.76760817 0.037055481
0.083476119 -0.76700753 0.03782513
-0.006754525 -0.75649369 0.037255753
0.10736082 -0.75654519 0.037418623
-0.10013496 -0.74600786 0.037007667
-0.089352891 -0.74615103 0.037150089
-0.052343797 -0.74524492 0.037769202
-0.0038724365 -0.74547726 0.037841063
0.072998799 -0.74556303 0.037901185
-0.11312233 -0.73521709 0.037953433
-0.07339593 -0.73577005 0.037097339
-0.028147819 -0.73515391 0.037850838
-0.05485386 -0.73498785 0.03782817
-0.081171103 -0.72552615 0.037331354
-0.076112121 -0.72552419 0.0373176
-0.046743307 -0.72527146 0.037207972
-0.067982279 -0.71534634 0.03780013
-0.12637836 -0.70593739 0.037708979
-0.12134218 -0.70586932 0.037637327
-0.1852783 -0.6970883 0.037199926
-0.17981638 -0.69702262 0.037137069
-0.12141278 -0.68757641 0.037153531
-0.15580107 -0.66957009 0.037458599
-0.1691024 -0.6609183 0.037537348
-0.18796839 -0.65282118 0.037011925
0.065441459 -0.82512236 0.038858216
0.073109835 -0.82516736 0.038830545
0.041538332 -0.81288451 0.03841798
0.073059998 -0.80084491 0.038462851
0.02796003 -0.78883529 0.038723581
-0.02252906 -0.77758151 0.03858405
0.0065621659 -0.77756411 0.03855183
0.025163623 -0.77758604 0.038578909
0.038418476 -0.77751541 0.038467702
0.086613841 -0.77750331 0.038446851
-0.003770387 -0.76632929 0.038518514
0.035766639 -0.7664144 0.038636699
0.097451746 -0.76636279 0.038563456
-0.014382648 -0.75534731 0.038907338
0.014381917 -0.7559495 0.038154807
0.076085962 -0.7553637 0.038945891
0.094364852 -0.75589716 0.038129549
0.099965282 -0.75531089 0.038950101
-0.046516933 -0.74464536 0.03853697
-0.10747478 -0.73469907 0.038761418
-0.078413866 -0.7345894 0.038645308
-0.049383257 -0.73434174 0.038589779
-0.086670287 -0.72502184 0.038198475
-0.14492126 -0.72441804 0.038956322
-0.12127507 -0.72495657 0.038101543
-0.09978497 -0.72434068 0.038898412
-0.18191743 -0.71491075 0.038857207
-0.15806198 -0.71484685 0.038594693
-0.11831515 -0.71481693 0.038569734
-0.11297382 -0.71487856 0.038695369
-0.089059867 -0.71491992 0.038707808
-0.078414403 -0.71482426 0.038583808
-0.086586893 -0.70540488 0.038567256
-0.1291077 -0.69601399 0.038687773
-0.10747431 -0.69601834 0.038668707
-0.15805724 -0.69593203 0.038568534
-0.18777806 -0.68719047 0.038300514
-0.18200794 -0.68715364 0.038265008
-0.16055551 -0.6865868 0.038880136
-0.13675585 -0.6866675 0.038968448
-0.20350717 -0.67787725 0.038690511
-0.14495903 -0.67782313 0.038534489
-0.13426867 -0.67788756 0.038614765
-0.17440125 -0.66048306 0.038501382
-0.19832091 -0.65187669 0.038702793
0.076145656 -0.83748865 0.039513893
0.04409261 -0.82443434 0.039512377
0.052423887 -0.80011845 0.039122533
-0.0011167192 -0.77689677 0.039301436
0.012053084 -0.77697694 0.039378636
-0.065476485 -0.76568455 0.03930461
-0.011794667 -0.76582909 0.039401822
0.089362077 -0.76575226 0.039355569
0.1106412 -0.76576799 0.03939759
-0.091408193 -0.75471008 0.039688494
0.086835481 -0.75466877 0.03962303
-0.017144309 -0.74439788 0.039505448
0.078632496 -0.7443763 0.039509252
-0.067693062 -0.73399347 0.039494231
-0.043881804 -0.73381627 0.039384458
-0.1397917 -0.72446549 0.039027419
-0.13422628 -0.72448272 0.039040547
-0.11026289 -0.72448456 0.039061904
-0.12353595 -0.72388518 0.039789967
-0.10451253 -0.7238763 0.039821584
-0.094285406 -0.72382379 0.039713021
-0.070108786 -0.72383267 0.039826121
-0.051989403 -0.72360688 0.039686374
-0.10733256 -0.71438885 0.039523266
-0.10211162 -0.71426928 0.039422695
-0.08355666 -0.71434402 0.039482333
-0.065427534 -0.71425933 0.03944568
-0.16629781 -0.70486355 0.039397646
-0.16049089 -0.70481974 0.039328866
-0.11535978 -0.70479864 0.03933591
-0.11017888 -0.70489699 0.039448053
-0.10457429 -0.7048474 0.039392754
-0.15269735 -0.69544739 0.039414525
-0.12356983 -0.69545054 0.039458949
-0.2142975 -0.68667585 0.039023507
-0.20897906 -0.68665719 0.039047975
-0.20095359 -0.6866197 0.039046533
-0.19489966 -0.68619817 0.039929934
-0.17104933 -0.68611938 0.039804257
-0.16620903 -0.68613058 0.039799761
-0.21668032 -0.67737913 0.039456114
-0.19012243 -0.67739803 0.039621793
-0.1742408 -0.6773755 0.039543469
-0.13965781 -0.67738551 0.039460197
-0.18755275 -0.66872728 0.039473709
-0.20889167 -0.66005129 0.039380509
-0.1949809 -0.66009194 0.039409827
-0.21152651 -0.65150762 0.039559346
-0.2087751 -0.64296079 0.039933339
0.057466615 -0.82375997 0.040284697
0.078717306 -0.82379305 0.040289413
0.055071969 -0.78751475 0.040249772
0.062670916 -0.78751785 0.040262602
-0.017067123 -0.77633351 0.04006239
0.031065166 -0.77627814 0.040009484
0.0097890394 -0.76520437 0.040190008
0.028220074 -0.76517719 0.040129445
-0.024604691 -0.7645213 0.040878866
-0.067536362 -0.75402683 0.040436804
-0.032922711 -0.75406092 0.040455654
-0.02771651 -0.75404006 0.04040762
0.0069255172 -0.75412756 0.040511455
-0.094071917 -0.74311125 0.040988702
-0.03027959 -0.74371064 0.040245157
-0.011615829 -0.74382901 0.040334579
-0.091280833 -0.73350173 0.040337179
-0.038453054 -0.73337233 0.040286552
-0.11515692 -0.72326773 0.040579226
-0.097017989 -0.71367812 0.040204126
-0.072819509 -0.71376836 0.040300336
-0.176672 -0.70437753 0.040369064
-0.17097937 -0.70432246 0.040235098
-0.14973602 -0.70429152 0.040173069
-0.15520789 -0.70376724 0.04098849
-0.19236645 -0.69498795 0.040490985
-0.17410605 -0.69494748 0.040441804
-0.16338864 -0.69492882 0.040317331
-0.14709912 -0.69489491 0.040275712
-0.17658651 -0.68567419 0.040785767
-0.18466993 -0.67696971 0.040534403
-0.16862771 -0.67687196 0.040314954
-0.15775567 -0.67684531 0.040225714
-0.15254296 -0.67687547 0.040227264
-0.147093 -0.67683816 0.040244292
-0.1816383 -0.66822052 0.040310152
-0.16032995 -0.66815442 0.040077865
-0.22226439 -0.65910673 0.040987067
-0.20321339 -0.65959162 0.040264782
-0.18997812 -0.65959764 0.040332645
-0.17922311 -0.65958983 0.040325131
-0.20554797 -0.65105689 0.040439691
-0.22230209 -0.64250183 0.040679324
-0.045999523 -0.76362395 0.041513991
-0.038307387 -0.75337732 0.041207943
-0.0088833207 -0.75354624 0.041270457
-0.062226884 -0.75276732 0.041977238
-0.069899827 -0.74312061 0.041105065
-0.065161191 -0.74309677 0.04103994
-0.035405517 -0.74309778 0.041057456
-0.059133239 -0.74243397 0.041822854
-0.041064885 -0.74298382 0.041010249
-0.12579675 -0.73294634 0.041148245
-0.10169064 -0.73228544 0.041885693
-0.096747905 -0.73223841 0.041840199
-0.13638641 -0.71329081 0.041180056
-0.1312449 -0.7133081 0.041195631
-0.091126561 -0.71325004 0.041138317
-0.18986367 -0.70383018 0.041252051
-0.14439613 -0.70324111 0.041851364
-0.13370317 -0.70330536 0.041933794
-0.19791943 -0.69441915 0.041306589
-0.11251488 -0.69441885 0.041198667
-0.15511587 -0.68509442 0.04142822
-0.14949408 -0.68508857 0.04144749
-0.12569515 -0.68514454 0.04148671
-0.23976836 -0.684367 0.04188177
-0.17906059 -0.67642015 0.041336134
-0.16322106 -0.67638707 0.041144542
-0.21954621 -0.66775918 0.041026764
-0.21376203 -0.66730416 0.041955389
-0.20057377 -0.6677174 0.041110028
-0.17651145 -0.66777194 0.041142289
-0.17067583 -0.66724795 0.041888379
-0.16582404 -0.6672591 0.041881662
-0.21638523 -0.65912485 0.041048963
-0.19217902 -0.65061307 0.041384604
0.0020781006 -0.76330256 0.04247788
-0.043308835 -0.75204509 0.042681009
-0.00061034976 -0.75288594 0.042069122
-0.14939323 -0.72217262 0.042214822
-0.12849607 -0.72225553 0.042314041
-0.099110328 -0.70263386 0.042629953
-0.20527017 -0.69396287 0.04211279
-0.22707072 -0.68453443 0.042137228
-0.23489833 -0.67517513 0.042429402
-0.22963989 -0.67536008 0.042586565
-0.21094154 -0.67549384 0.042980313
-0.20511171 -0.6754815 0.042973615
-0.19774741 -0.67590821 0.042148247
-0.23246375 -0.66655415 0.042328667
-0.20036164 -0.65011877 0.042223509
-0.22447246 -0.64963043 0.042894699
-0.21611051 -0.64167452 0.042526394
-0.056326583 -0.75149542 0.043530773
-0.080107331 -0.74137348 0.043450128
-0.075047456 -0.74137127 0.043435261
-0.024137788 -0.74140209 0.043450214
-0.141427 -0.7116282 0.043595109
-0.22190478 -0.6841203 0.043160699
-0.21917623 -0.68416113 0.043227501
-0.19190581 -0.67547601 0.043037176
-0.22683293 -0.66622436 0.043402482
-0.18421252 -0.6582908 0.043013699
-0.21917328 -0.64972198 0.043024745
-0.21354559 -0.64973688 0.043083541
-0.058634926 -0.7613008 0.044722311
-0.08559794 -0.75111526 0.044435453
-0.082450934 -0.73965442 0.045860868
-0.13054164 -0.73011851 0.045235828
-0.23179367 -0.68189526 0.046193231
0.10395648 -0.78107238 0.047781181
-0.22360374 -0.67246115 0.047938496
