# .PCD v0.7 - Point Cloud Data file format
VERSION 0.7
FIELDS x y z
SIZE 4 4 4
TYPE F F F
COUNT 1 1 1
WIDTH 520
HEIGHT 1
VIEWPOINT 0 0 0 1 0 0 0
POINTS 520
DATA ascii
-0.08065179 -0.66979867 0.0022814011
-0.29848868 -0.67765319 0.004957513
-0.21807109 -0.66903877 0.0041596359
-0.18295376 -0.66899925 0.0042047463
-0.39865968 -0.67722607 0.0058992771
-0.37989649 -0.67728096 0.0059107728
-0.37700891 -0.67725194 0.0059005255
-0.21519308 -0.67779875 0.0051813498
-0.17984247 -0.6772756 0.0060137548
-0.35780045 -0.67677295 0.00677532
-0.24447 -0.67651427 0.0063350284
-0.21200311 -0.67689979 0.0069499929
-0.082297161 -0.65850407 0.0067548817
-0.082315557 -0.64090955 0.0065876828
-0.29297546 -0.67625213 0.0075965803
-0.2687088 -0.67628372 0.0076099774
-0.17664057 -0.676332 0.0077065658
-0.26581445 -0.67573756 0.0083918041
-0.4334867 -0.6842097 0.010582518
-0.40977165 -0.68410265 0.010519478
-0.39241734 -0.6841085 0.010544421
-0.20607559 -0.67504382 0.010439327
-0.17363338 -0.67499036 0.01031444
-0.37348613 -0.6836623 0.01144989
-0.28914061 -0.68367857 0.011409607
-0.26244521 -0.674375 0.011025298
-0.14910054 -0.67453063 0.01116511
-0.23561868 -0.67381245 0.011656306
-0.32985622 -0.67410982 0.012130679
-0.208441 -0.67418456 0.012207566
-0.081190333 -0.68268561 0.013124065
-0.20275687 -0.67366439 0.013098725
-0.19995019 -0.6732623 0.013989382
-0.16729863 -0.67316258 0.013791996
-0.40691674 -0.68224972 0.014083928
-0.37024552 -0.68227118 0.014005026
-0.14578158 -0.67275733 0.014693433
-0.080870204 -0.70056462 0.015000637
-0.43098113 -0.68135291 0.015804412
-0.38892803 -0.68140227 0.015866434
-0.34520191 -0.68133408 0.015773803
-0.25916889 -0.68114877 0.015584027
-0.42897695 -0.68086982 0.016636841
-0.41737041 -0.68082374 0.016646009
-0.40416205 -0.6807642 0.01659902
-0.36684683 -0.68081546 0.016565461
-0.31281149 -0.68089634 0.016719433
-0.28579178 -0.68084949 0.016645363
-0.14297064 -0.67186213 0.016485477
-0.34205836 -0.6803906 0.017552681
-0.23210059 -0.68023503 0.017257292
-0.085817248 -0.63627249 0.017467415
-0.33937246 -0.67992032 0.018409176
-0.3096396 -0.67999148 0.018427014
-0.28296655 -0.67991656 0.018418686
-0.25611517 -0.67976588 0.018199805
-0.16401075 -0.67087191 0.018146882
-0.38533875 -0.67945457 0.019278318
-0.36393774 -0.67940754 0.019181123
-0.22868805 -0.67935205 0.019063048
-0.1963834 -0.6795423 0.019443173
-0.40064898 -0.67848557 0.020945491
-0.25262982 -0.67833966 0.020741198
-0.082738534 -0.63504672 0.020164218
-0.43777138 -0.67851585 0.021024868
-0.3063435 -0.67859679 0.021063367
-0.27938765 -0.67803252 0.021886414
-0.15506788 -0.67805678 0.021826174
-0.42614359 -0.68648708 0.022978945
-0.082429849 -0.68699872 0.022132069
-0.33620676 -0.6775139 0.022753727
-0.30348474 -0.6776371 0.022794144
-0.27655822 -0.67760056 0.022781687
-0.1928741 -0.67761844 0.022930816
-0.19008401 -0.67769802 0.022955377
-0.16059174 -0.67753696 0.022664344
-0.13888016 -0.67763209 0.022775564
-0.41396612 -0.68605769 0.02384213
-0.36059624 -0.67702091 0.023547217
-0.3332639 -0.67710274 0.023626009
-0.22550483 -0.67708111 0.023551254
-0.40973577 -0.68554848 0.024731375
-0.3007054 -0.67667985 0.024542483
-0.24944268 -0.67643797 0.02418277
-0.4216978 -0.68506253 0.025508868
-0.33010155 -0.67617369 0.025413526
-0.22264838 -0.67619449 0.025329722
-0.18717292 -0.67627227 0.025571933
-0.24656516 -0.67547065 0.025857167
-0.43555707 -0.68460292 0.026550731
-0.15707919 -0.67566508 0.026161343
-0.38144094 -0.68413126 0.027396103
-0.21972916 -0.67524254 0.02711609
-0.18433684 -0.67527783 0.027292445
-0.41128203 -0.68357676 0.028149391
-0.39710641 -0.68365568 0.02822398
-0.37861064 -0.68363482 0.028183352
-0.37597767 -0.68367839 0.028218774
-0.27292782 -0.6836611 0.028207783
-0.17872161 -0.68368834 0.028390149
-0.21643072 -0.6748324 0.028031435
-0.21386535 -0.67482561 0.028061986
-0.13547766 -0.67479658 0.028006848
-0.43357885 -0.68314844 0.029055966
-0.42329574 -0.68307126 0.029045586
-0.3563334 -0.68320572 0.029089432
-0.3537313 -0.68265659 0.029928137
-0.35112655 -0.68261802 0.029916827
-0.29689211 -0.68272173 0.029946662
-0.18108419 -0.67431456 0.029009864
-0.15141837 -0.67379016 0.02965826
-0.080893263 -0.71009541 0.030956008
-0.3265585 -0.68223083 0.030879481
-0.11845672 -0.70001793 0.031787936
-0.4313719 -0.68169105 0.031596527
-0.39413366 -0.68168646 0.031651787
-0.26948038 -0.68168026 0.031645231
-0.2936534 -0.68117595 0.032449335
-0.21035615 -0.68131286 0.032673188
-0.24255103 -0.68095064 0.032115147
-0.32345659 -0.68077499 0.033467717
-0.26662868 -0.68073851 0.03336763
-0.29086548 -0.68017149 0.034140546
-0.23948196 -0.67949963 0.034653883
-0.13166194 -0.67103398 0.034943517
-0.35280353 -0.71701992 0.035331916
-0.31995642 -0.71712834 0.035420697
-0.31748196 -0.71707034 0.035329796
-0.35021254 -0.71698111 0.035323281
-0.293183 -0.71699363 0.035268147
-0.21833163 -0.70751423 0.035238568
-0.11536835 -0.70744514 0.035171382
-0.37187359 -0.67977136 0.03509878
-0.2881524 -0.67968196 0.035039116
-0.2637305 -0.67922854 0.0359152
-0.23666754 -0.67898345 0.035464134
-0.12841938 -0.63655132 0.035889048
-0.20686059 -0.71659273 0.036343485
-0.20156285 -0.71655607 0.036321331
-0.16910578 -0.71650738 0.036186874
-0.42192632 -0.71585941 0.03696527
-0.26358119 -0.71589679 0.036943436
-0.21239561 -0.68818414 0.036482673
-0.42900723 -0.67935807 0.036002666
-0.3198351 -0.67937148 0.036043342
-0.17456077 -0.67930806 0.036074761
-0.31719598 -0.6788286 0.036814533
-0.20671572 -0.67889655 0.036993627
-0.43784961 -0.72549587 0.037350494
-0.10946651 -0.72560406 0.037428509
-0.25526068 -0.72482079 0.037970111
-0.12002848 -0.71537524 0.037750591
-0.11741342 -0.71535796 0.037740368
-0.085048415 -0.71544772 0.037858117
-0.42528272 -0.70592046 0.03769964
-0.41368088 -0.70587283 0.037708703
-0.43030182 -0.69644445 0.037709638
-0.37141839 -0.6964646 0.037767768
-0.28770122 -0.6963746 0.037706006
-0.28450617 -0.69647706 0.037767068
-0.26069215 -0.69631845 0.037622351
-0.19575134 -0.69655389 0.037965845
-0.14444128 -0.69646782 0.037766896
-0.42365095 -0.6875369 0.037140202
-0.39779794 -0.68759102 0.037171844
-0.24705566 -0.68692386 0.037782487
-0.34666297 -0.67824399 0.037629269
-0.26068825 -0.67817098 0.037541036
-0.11742307 -0.67826599 0.037616193
-0.13371585 -0.72503644 0.038231559
-0.41763479 -0.72438139 0.038908225
-0.40479973 -0.72439528 0.038945358
-0.38743189 -0.7244004 0.038965743
-0.37123004 -0.72442806 0.038969185
-0.36589026 -0.72444111 0.03895798
-0.36308524 -0.72495347 0.038088199
-0.3411535 -0.7244429 0.038984738
-0.31456038 -0.72495991 0.038128052
-0.23089762 -0.72417372 0.038557496
-0.40946662 -0.71479183 0.038578779
-0.39528704 -0.71487105 0.038654722
-0.37680236 -0.71484888 0.038615152
-0.32779112 -0.7148816 0.038734786
-0.32519466 -0.7148999 0.038727026
-0.32256702 -0.71489727 0.038733661
-0.29824224 -0.71491748 0.03873663
-0.29537416 -0.71490687 0.038655408
-0.29011184 -0.71478069 0.038537439
-0.27111891 -0.71487647 0.038639501
-0.26828149 -0.71483386 0.038631514
-0.26572084 -0.71486241 0.03863056
-0.24150045 -0.71459138 0.038228523
-0.23888186 -0.71459442 0.038180999
-0.23622856 -0.71456254 0.038126908
-0.21456614 -0.71494818 0.03874556
-0.21201766 -0.71494085 0.038779579
-0.20930982 -0.71495003 0.038805887
-0.19827583 -0.7149024 0.038829017
-0.17692494 -0.71490085 0.038831741
-0.17412534 -0.71488601 0.038759664
-0.17122047 -0.71485281 0.038691591
-0.14987823 -0.71484709 0.038627677
-0.14717165 -0.71484804 0.03861066
-0.1443034 -0.71486741 0.038638566
-0.42698863 -0.70540255 0.038571417
-0.41577092 -0.70531881 0.038472932
-0.40033561 -0.70528561 0.038493402
-0.3849417 -0.70545179 0.038634069
-0.33584046 -0.70538008 0.038565915
-0.33345097 -0.70531917 0.038563751
-0.30328038 -0.70546216 0.038615756
-0.12800546 -0.70541751 0.038574524
-0.10402738 -0.70536476 0.038524356
-0.20111305 -0.69600677 0.038767025
-0.34961528 -0.69588774 0.038598407
-0.34651417 -0.6958763 0.038556106
-0.31689242 -0.69597661 0.038605072
-0.23322995 -0.69513214 0.038977336
-0.23094457 -0.69569629 0.038213
-0.19826145 -0.69598788 0.038796052
-0.16611619 -0.69595349 0.038654737
-0.40493372 -0.68707514 0.038033921
-0.33351561 -0.68705666 0.038095247
-0.27386543 -0.68714273 0.03812414
-0.22040758 -0.68714565 0.03806144
-0.21780413 -0.68713194 0.038109746
-0.18241677 -0.68716526 0.038290344
-0.17946923 -0.68714184 0.038268559
-0.1255976 -0.68714553 0.038061526
-0.43755186 -0.68655723 0.038924012
-0.41762313 -0.68656057 0.038848151
-0.38985091 -0.68657589 0.038915601
-0.30064061 -0.68667924 0.038988926
-0.27104878 -0.68661886 0.038906973
-0.24433765 -0.68639636 0.038570054
-0.152069 -0.68663156 0.038889442
-0.12792277 -0.68665463 0.038958125
-0.10394251 -0.68660152 0.0389098
-0.28436139 -0.6778447 0.038544767
-0.23337881 -0.67752969 0.038074151
-0.23094559 -0.6775797 0.038153313
-0.19825429 -0.67787099 0.038723908
-0.17120792 -0.67782104 0.038595814
-0.16866313 -0.67784148 0.03857068
-0.14716308 -0.67781615 0.038519312
-0.14428848 -0.67783588 0.038544156
-0.11474419 -0.67778873 0.038536217
-0.084883586 -0.67787081 0.038585503
-0.12552886 -0.6691519 0.038371187
-0.082050212 -0.64334309 0.038889419
-0.098628759 -0.63519466 0.038486134
-0.40254968 -0.72442079 0.039037704
-0.36867344 -0.72442031 0.03901536
-0.34392521 -0.72440141 0.039037641
-0.33831835 -0.72443736 0.039027914
-0.1116841 -0.72445625 0.039023165
-0.10650894 -0.72448432 0.039027024
-0.41556016 -0.72381741 0.039734278
-0.40711898 -0.72382915 0.039752066
-0.39274687 -0.72384512 0.039781727
-0.38473481 -0.72395074 0.039899677
-0.37397391 -0.7238974 0.039797392
-0.3463299 -0.72379518 0.039726235
-0.27924392 -0.72387367 0.039842118
-0.25744981 -0.72372121 0.039638858
-0.16594863 -0.72387272 0.03983086
-0.43176389 -0.71430391 0.039452616
-0.20364216 -0.71442461 0.039640099
-0.14144342 -0.71436435 0.039483614
-0.12275719 -0.71433902 0.039461032
-0.092656098 -0.714333 0.039461464
-0.090167895 -0.71436828 0.039503302
-0.087657534 -0.71440077 0.03955517
-0.43748251 -0.70479006 0.039372742
-0.40471759 -0.70480788 0.03933518
-0.38735253 -0.70481354 0.039356999
-0.36286217 -0.7048068 0.039294489
-0.30596593 -0.70491868 0.039420038
-0.2763299 -0.70483845 0.039400585
-0.24941829 -0.70468163 0.039119337
-0.2468396 -0.70465726 0.039081179
-0.18717565 -0.70496798 0.039610106
-0.18472601 -0.7049523 0.039619189
-0.17925611 -0.70487446 0.039576605
-0.1576824 -0.70481515 0.039304577
-0.15479179 -0.70481956 0.039325505
-0.10909387 -0.70489788 0.039447535
-0.10642964 -0.70489621 0.03941429
-0.43175596 -0.69541848 0.039442532
-0.40931079 -0.69536227 0.039396342
-0.31922519 -0.69551939 0.039539725
-0.26312968 -0.69537717 0.03941115
-0.20363134 -0.69553912 0.039625637
-0.11972728 -0.69540083 0.039394639
-0.090159699 -0.69548333 0.039493408
-0.087644346 -0.69551528 0.0395432
-0.23591794 -0.69461846 0.039796397
-0.41554067 -0.6860562 0.039713297
-0.38173062 -0.68612015 0.039803248
-0.30304652 -0.68619907 0.039851055
-0.22265823 -0.68609327 0.039727535
-0.18724346 -0.68673515 0.039153501
-0.25747693 -0.67719954 0.039265219
-0.25500238 -0.67718202 0.039233185
-0.20362754 -0.67745185 0.039570991
-0.19544941 -0.67743653 0.039598648
-0.16595021 -0.67735147 0.03944676
-0.1627982 -0.6773451 0.039400358
-0.16028258 -0.67732501 0.039367005
-0.14143354 -0.67739218 0.039423823
-0.098542757 -0.6685552 0.039174825
-0.084742367 -0.66003948 0.039284561
-0.11147498 -0.64293963 0.039852697
-0.10895919 -0.64296836 0.039884198
-0.095739879 -0.63480896 0.039390504
-0.092623822 -0.63489115 0.039443646
-0.090126187 -0.63492686 0.03947968
-0.13576254 -0.72337735 0.040665742
-0.079214558 -0.7232666 0.040550914
-0.23290156 -0.72244865 0.040926166
-0.43313804 -0.71375847 0.040358685
-0.3543683 -0.71381664 0.04031013
-0.095682845 -0.71370482 0.040230148
-0.4023231 -0.70430255 0.040260155
-0.36566067 -0.70432311 0.040180799
-0.33808649 -0.70431983 0.040250383
-0.30868775 -0.70435268 0.040289909
-0.27915308 -0.70431513 0.040247563
-0.27350041 -0.7043457 0.04026375
-0.2200402 -0.70434874 0.040199686
-0.18205686 -0.70436782 0.040433925
-0.15184921 -0.70433491 0.040173046
-0.13334262 -0.70435953 0.040270407
-0.13076173 -0.70435268 0.040249925
-0.41726059 -0.70373392 0.040967684
-0.24398093 -0.7035706 0.040685505
-0.22245176 -0.70376599 0.040995687
-0.20899899 -0.69500488 0.040461365
-0.20611614 -0.69501323 0.040476069
-0.42132872 -0.69482583 0.040276848
-0.40700969 -0.69487995 0.040268496
-0.39262679 -0.69489586 0.040297743
-0.37917262 -0.69491524 0.040351249
-0.37649325 -0.69490439 0.040275231
-0.37386048 -0.6949479 0.040311214
-0.35436133 -0.69496065 0.040319454
-0.3519159 -0.69489658 0.040296916
-0.3274813 -0.69493681 0.040393129
-0.32489142 -0.69495487 0.040387142
-0.32225412 -0.69495279 0.040392436
-0.29507393 -0.69496143 0.040315907
-0.29229388 -0.69487059 0.040233672
-0.28980774 -0.69483584 0.040200733
-0.26541814 -0.69491732 0.04029119
-0.23842718 -0.69413537 0.040693313
-0.17381403 -0.69494075 0.040417019
-0.17091295 -0.69490814 0.040351719
-0.16836503 -0.69492877 0.040325787
-0.14686647 -0.69490343 0.04027316
-0.14128625 -0.69496411 0.040318072
-0.12259278 -0.69493842 0.040294375
-0.098382086 -0.69483066 0.040237855
-0.092501491 -0.69493294 0.040297132
-0.43575004 -0.68559027 0.040701699
-0.42660812 -0.68563968 0.040661123
-0.41315302 -0.68558019 0.040633686
-0.38455635 -0.68568832 0.040722769
-0.3683514 -0.68559998 0.040654529
-0.36557239 -0.68561977 0.040600989
-0.36262992 -0.68557411 0.040551931
-0.34360737 -0.68558121 0.040678162
-0.31408748 -0.68558025 0.040587448
-0.18973842 -0.68565649 0.040833879
-0.15455347 -0.68558711 0.040582683
-0.20080346 -0.67691946 0.040418498
-0.13878684 -0.67691946 0.040323082
-0.12769707 -0.66822201 0.040152982
-0.10064889 -0.66763228 0.040896896
-0.11429069 -0.65905023 0.040992659
-0.11143219 -0.65957606 0.04017479
-0.12254632 -0.65100169 0.040311649
-0.12515225 -0.63450837 0.040346302
-0.12252516 -0.63448805 0.040333476
-0.42967045 -0.72272938 0.041358385
-0.41303489 -0.72272295 0.041441452
-0.38942385 -0.72271955 0.041421566
-0.24907163 -0.72259241 0.041177198
-0.11428841 -0.72270596 0.041407332
-0.43422467 -0.71324474 0.04116584
-0.41094798 -0.71321684 0.041056145
-0.35755783 -0.71315652 0.041079588
-0.12507826 -0.71326882 0.041126199
-0.098256215 -0.71314174 0.041053705
-0.42282993 -0.71261632 0.041880585
-0.39697558 -0.71266979 0.0419112
-0.37890074 -0.71268165 0.041997746
-0.35996619 -0.71265453 0.041888345
-0.10050663 -0.71261334 0.041859385
-0.42812285 -0.7038517 0.041071821
-0.38948497 -0.70374936 0.041033391
-0.36814699 -0.70324284 0.041906413
-0.34340096 -0.70322406 0.04192942
-0.34077615 -0.70379537 0.041043881
-0.31388637 -0.70322341 0.041837607
-0.31105784 -0.70377189 0.041001849
-0.28136805 -0.70325041 0.041881073
-0.25706711 -0.70310318 0.041718859
-0.25459093 -0.70308524 0.041684773
-0.25200486 -0.7031092 0.041694291
-0.22782569 -0.70310849 0.04161761
-0.22470158 -0.70316356 0.041681647
-0.19257548 -0.7038753 0.041243941
-0.1896874 -0.70382893 0.041254397
-0.16238692 -0.70324838 0.041857112
-0.13853534 -0.70330697 0.041920871
-0.13567577 -0.70384806 0.041090854
-0.11130732 -0.70380884 0.041081306
-0.39483562 -0.69441104 0.04115979
-0.33018672 -0.69441259 0.041186932
-0.29778534 -0.69445729 0.041237734
-0.26782259 -0.69437432 0.041135933
-0.17646146 -0.69444042 0.04133008
-0.095511377 -0.69433481 0.041085046
-0.4107866 -0.69387543 0.041928597
-0.35738158 -0.69381642 0.041951515
-0.24089341 -0.69361782 0.041584097
-0.14927086 -0.69387239 0.041976821
-0.42460555 -0.68512708 0.041477252
-0.40208751 -0.68509895 0.041532863
-0.34068426 -0.68512219 0.041482806
-0.33784592 -0.68511689 0.041523129
-0.33530968 -0.68511677 0.041509647
-0.27594188 -0.6851058 0.041508775
-0.18434194 -0.68521827 0.041720305
-0.15729947 -0.68508244 0.041416235
-0.13558663 -0.68517488 0.041528739
-0.11121614 -0.68513596 0.04151931
-0.10604712 -0.6851629 0.041522175
-0.11942065 -0.67634434 0.041069012
-0.092347614 -0.6763916 0.041126747
-0.089854859 -0.67642695 0.041165806
-0.087334476 -0.67645824 0.041213542
-0.1086233 -0.66729343 0.041929513
-0.10596947 -0.6672911 0.04189837
-0.1034081 -0.66722977 0.041845642
-0.11667627 -0.65858853 0.04181388
-0.13052996 -0.65058774 0.041260622
-0.1274884 -0.65059239 0.041251611
-0.098176941 -0.65045655 0.041146614
-0.11416719 -0.64202291 0.041579675
-0.084311984 -0.64210355 0.041624285
-0.11937121 -0.63402975 0.041186713
-0.43539536 -0.73174411 0.042828541
-0.42626253 -0.73179406 0.042788938
-0.42440748 -0.73178297 0.042752564
-0.10037799 -0.73168951 0.042649642
-0.42791593 -0.72226262 0.042280473
-0.33519706 -0.72220165 0.042278871
-0.30834389 -0.72223306 0.042335588
-0.30547163 -0.72226936 0.042298499
-0.28373018 -0.72220385 0.042232342
-0.2813167 -0.72219104 0.042252861
-0.25195763 -0.72205007 0.042064168
-0.22464254 -0.72210389 0.042048905
-0.19498371 -0.72227913 0.042439714
-0.1923794 -0.72228622 0.042457074
-0.16233604 -0.72218919 0.042228967
-0.15981191 -0.72216898 0.042191438
-0.13848989 -0.72224754 0.042294443
-0.081499256 -0.72220296 0.042210806
-0.4186452 -0.72159249 0.042930573
-0.2867988 -0.72154158 0.042986479
-0.25978804 -0.72148705 0.042900857
-0.2276326 -0.72148997 0.042802744
-0.43538147 -0.71212381 0.042859778
-0.38122255 -0.71215433 0.042813499
-0.32991481 -0.71214932 0.042812284
-0.15971924 -0.70269841 0.042656582
-0.43406832 -0.69390351 0.042037603
-0.43282938 -0.69387281 0.042054091
-0.21381499 -0.69345754 0.042935085
-0.10033848 -0.69330192 0.042751551
-0.081382781 -0.69338566 0.04281076
-0.3996478 -0.68452364 0.04229157
-0.3868188 -0.68458176 0.042321619
-0.31081611 -0.68459916 0.042293783
-0.30829641 -0.68464965 0.042412918
-0.30543086 -0.68468571 0.042380676
-0.28127331 -0.68460727 0.042337537
-0.25190589 -0.68446606 0.042152636
-0.24887823 -0.68444926 0.042084645
-0.19233106 -0.68470144 0.042529162
-0.13295412 -0.68465644 0.042395975
-0.10855561 -0.68466485 0.042407177
-0.12212561 -0.6754269 0.042844433
-0.095189415 -0.67533946 0.042794146
-0.11912207 -0.65815163 0.042697232
-0.092052825 -0.65819907 0.042754389
-0.089557976 -0.65823448 0.042792127
-0.087032586 -0.65826511 0.042837899
-0.12485798 -0.65014493 0.042094883
-0.10334782 -0.65010041 0.042092055
-0.10044034 -0.65003395 0.042015906
-0.08706601 -0.64172238 0.042559717
-0.13019717 -0.73123056 0.043602448
-0.1031675 -0.73118383 0.043546829
-0.31071493 -0.72162324 0.043024857
-0.29982838 -0.71166849 0.043678664
-0.41855335 -0.70215112 0.043415334
-0.35964727 -0.6928277 0.043622322
-0.27860844 -0.68411195 0.043225415
-0.22742635 -0.68346602 0.043782875
-0.22431217 -0.68352115 0.043848194
-0.095031016 -0.65766299 0.043577503
-0.10575879 -0.64972347 0.043029025
-0.12699948 -0.73066187 0.04440606
-0.13006809 -0.68364972 0.044081736
-0.11624781 -0.64074707 0.044203278
-0.12409518 -0.7289322 0.046780087
-0.083441257 -0.7001096 0.046916749
