# .PCD v0.7 - Point Cloud Data file format
VERSION 0.7
FIELDS x y z
SIZE 4 4 4
TYPE F F F
COUNT 1 1 1
WIDTH 1425
HEIGHT 1
VIEWPOINT 0 0 0 1 0 0 0
POINTS 1425
DATA ascii
0.77259642 -11.007033 2.2533362
0.77970809 -4.9390445 2.2941306
0.9366256 -6.4751043 3.1838808
0.94816822 -6.0955882 3.2494011
0.94958627 -5.6552453 3.2575178
0.96438175 -5.3947544 3.3414817
0.96047288 -4.9914136 3.3193958
0.96765006 -4.5675149 3.3602042
0.96708202 -4.2757249 3.3570604
0.93193269 -3.7718203 3.1578441
0.95738566 -3.7092905 3.3022361
0.96323681 -3.5246968 3.3354878
0.95574135 -3.2765007 3.2930653
0.95221865 -3.0680065 3.2731678
0.95080125 -2.883765 3.2652068
0.95935094 -2.6740139 3.3137975
0.95778388 -2.5111287 3.3049879
0.9513855 -2.3385634 3.2687843
0.95514899 -2.2113214 3.290199
0.9488762 -2.0557885 3.2547069
0.94630623 -1.9194961 3.2402096
0.94380891 -1.7891749 3.2261245
0.94342381 -1.6110222 3.2240529
0.94354868 -1.497365 3.2248356
0.94257528 -1.3844514 3.2193909
0.94151145 -1.274304 3.2134326
0.94342834 -1.1710395 3.2243762
0.93926024 -1.0613397 3.2008157
0.90221906 -0.9215337 2.990855
0.94299412 -0.81075412 3.222172
0.92316991 -0.70043463 3.1098356
0.93402851 -0.60799515 3.1714804
0.92852998 -0.50988257 3.1403747
0.50727081 -0.43826032 0.75184137
0.50580132 -0.43312848 0.74354148
0.49277321 -0.42189142 0.6697979
0.49029666 -0.41131064 0.65585291
0.48995525 -0.40308005 0.65398228
0.48945415 -0.38622484 0.6512717
0.48999357 -0.37131631 0.65442848
0.49417669 -0.34611249 0.67824697
0.49281332 -0.33888149 0.67058122
0.49111131 -0.3329899 0.66099501
0.49059546 -0.32362497 0.65813512
0.49075338 -0.31165782 0.65909559
0.4903836 -0.30113649 0.65706378
0.48954472 -0.28589469 0.65240443
0.48965833 -0.27219921 0.65311354
0.48915461 -0.25352493 0.65035421
0.48935673 -0.23724985 0.65156496
0.48964992 -0.219207 0.65329218
0.7428984 1.7045827 2.0895298
0.71272951 1.7074609 1.9185441
0.69241184 1.6970874 1.8033905
0.6744284 1.6992708 1.7014726
0.6572262 1.7021638 1.6039842
0.63955885 1.6928114 1.5038583
0.62365884 1.6962787 1.413753
0.60252315 1.6223856 1.2939605
0.58138525 1.5259581 1.1741567
0.56033224 1.5137124 1.0548592
0.5486173 1.5416391 0.98848313
0.53590083 1.5488238 0.91642827
0.5226416 1.5377063 0.8412959
0.5101977 1.5424578 0.77078581
0.49795583 1.5515903 0.70142037
0.48562366 1.5552671 0.63154262
0.46715462 1.5556101 0.52689111
0.45491698 1.5610713 0.45754793
0.4426567 1.557073 0.38807634
0.4303889 1.5576104 0.3185612
0.41837931 1.537745 0.25051183
0.40608045 1.5393562 0.18081927
0.39375255 1.537465 0.11096151
0.37445393 1.5504345 0.0015967069
0.36111981 1.5614525 -0.073971026
0.3479937 1.5608811 -0.14835812
0.33498359 1.5536758 -0.22208755
0.32069242 1.5634249 -0.30308518
0.32838586 1.2527496 -0.25935677
0.31756526 1.2339271 -0.32066733
0.30454403 1.2398044 -0.39446294
0.25627333 1.5368953 -0.66819358
0.25437239 1.4001561 -0.67890245
0.37302536 0.1833736 -0.0056814197
0.37302923 0.1370547 -0.0055919364
0.37296328 0.095505528 -0.0058988566
0.37319297 0.055461645 -0.0045289807
0.37311453 0.020682383 -0.0049072597
0.37300035 -0.011312166 -0.0054886029
0.37305379 -0.042045489 -0.0051192832
0.37273929 -0.068839677 -0.0068374691
0.37265491 -0.095230684 -0.0072502401
0.37306893 -0.1223904 -0.0048358911
0.37192151 -0.1530361 -0.011246597
0.37183413 -0.17514034 -0.011676689
0.3719193 -0.19689116 -0.011128142
0.37202072 -0.21776174 -0.010487485
0.37243453 -0.23871191 -0.0080748638
0.37206283 -0.25665161 -0.010118155
0.37229428 -0.27563372 -0.0087401001
0.37233686 -0.29354742 -0.0084334249
0.37233829 -0.31088421 -0.0083600786
0.37229002 -0.32771626 -0.008568963
0.37200269 -0.35203227 -0.010101159
0.3723532 -0.36061996 -0.0080803214
0.37203538 -0.38417628 -0.0097855255
0.37194502 -0.39983079 -0.010232956
0.37212372 -0.41552684 -0.0091542881
0.37205258 -0.4309313 -0.0094926301
0.37190166 -0.44626862 -0.010283737
0.37201732 -0.46162465 -0.009562443
0.37187883 -0.47698069 -0.010282793
0.37193289 -0.50006098 -0.0098781707
0.37185621 -0.51561368 -0.010248003
0.37170395 -0.53139555 -0.011046213
0.37165058 -0.54729927 -0.011283593
0.37152821 -0.56352913 -0.011912365
0.37134239 -0.58016568 -0.012900895
0.37093377 -0.59757966 -0.015153213
0.3714419 -0.62237662 -0.012172038
0.37116334 -0.64068937 -0.01368636
0.3710148 -0.6593017 -0.014462904
0.37021941 -0.68037522 -0.018908778
0.37050763 -0.69918084 -0.017207492
0.37111804 -0.72790331 -0.013645286
0.37072819 -0.7508322 -0.015789965
0.3703827 -0.77480191 -0.017682837
0.37023604 -0.79924762 -0.018447604
0.37139776 -0.83187538 -0.011756484
0.37251481 -0.85307127 -0.0053524398
0.37254786 -0.88120377 -0.0050968309
0.3700588 -0.92632407 -0.019146921
0.37118071 -0.97030514 -0.012679388
0.19449502 -2.3300202 -1.014753
0.19371 -2.4769087 -1.0191212
0.19910982 -2.6681902 -0.98836178
0.19714615 -2.8651457 -0.99940735
0.19753698 -3.0627685 -0.99709427
0.19467372 -3.3235633 -1.0132318
0.19329366 -3.605633 -1.0209501
0.19239946 -3.9273529 -1.0259042
0.2070508 -4.2711654 -0.94262362
0.28023487 -8.3116941 -0.52623236
0.32796827 -8.334568 -0.25533041
0.47314674 -8.9363308 0.5687167
0.54219443 -10.882313 0.96093327
0.63895708 -10.962755 1.5100764
0.77173913 -11.060081 2.2635486
0.77662164 -4.9287891 2.2903559
0.9387747 -6.5320053 3.2106965
0.94452071 -6.0820246 3.2432549
0.94629198 -5.6463008 3.2532656
0.96103567 -5.3859792 3.3369095
0.97429806 -4.9615674 3.4121411
0.96400052 -4.5576062 3.3536868
0.96488124 -4.277101 3.3586767
0.9253155 -3.7425268 3.1341472
0.95430124 -3.7046387 3.2986362
0.95916623 -3.5144322 3.3262484
0.95262367 -3.2721431 3.2891312
0.95807016 -3.0188727 3.3200552
0.95517135 -2.8303173 3.3036215
0.95728552 -2.6750305 3.315635
0.95260632 -2.4994726 3.289104
0.95051861 -2.3438287 3.2772794
0.95417029 -2.2157755 3.2980216
0.9479357 -2.059974 3.2626705
0.9453997 -1.9234066 3.248307
0.94577897 -1.7399306 3.2504992
0.94339657 -1.6160953 3.2370105
0.94176394 -1.4982212 3.2277765
0.94162863 -1.3867552 3.2270391
0.93925077 -1.2741376 3.2135789
0.94100422 -1.1706318 3.2235587
0.93752199 -1.0618002 3.2038348
0.90068066 -0.92207915 2.9948499
0.94144797 -0.81108028 3.2261918
0.91835642 -0.69897443 3.0952191
0.93354225 -0.60836267 3.1814091
0.92926884 -0.51002634 3.1572001
0.50544643 -0.43817812 0.75286663
0.50387853 -0.42733115 0.74402392
0.49078768 -0.42188376 0.66983652
0.48914778 -0.41467929 0.66058594
0.48831528 -0.41130376 0.65588951
0.48797598 -0.40307331 0.65401757
0.48740393 -0.38185421 0.65090448
0.48802119 -0.37130958 0.65445924
0.49220547 -0.3461045 0.67827547
0.49084464 -0.33887395 0.67060852
0.48874438 -0.32878026 0.65877354
0.48863155 -0.32361808 0.65815991
0.48832583 -0.30748522 0.65650523
0.48792624 -0.29700166 0.65429157
0.48772642 -0.28528628 0.65321112
0.4877032 -0.27219263 0.65313232
0.48720238 -0.25351846 0.65037096
0.4875311 -0.23654869 0.65228868
0.48770109 -0.21920043 0.65330595
0.73989427 1.6975622 2.0840149
0.71050131 1.7058853 1.9173546
0.69048601 1.6979834 1.8038665
0.67259443 1.7010376 1.7024258
0.65412623 1.6908412 1.5977157
0.6383484 1.7017641 1.5082668
0.62144631 1.6935982 1.4124416
0.60006428 1.6159751 1.2912064
0.57878762 1.5166501 1.1705699
0.55852562 1.5165882 1.0557141
0.54660571 1.5406975 0.98815244
0.53389937 1.5478705 0.91613024
0.52104753 1.5475016 0.84328365
0.50824654 1.5424688 0.77072585
0.49615321 1.5575402 0.70218217
0.48358881 1.5502999 0.63096738
0.4652155 1.5556118 0.52683032
0.45299906 1.5670696 0.45758989
0.44069022 1.568068 0.38782614
0.4285312 1.5496157 0.31891277
0.41639131 1.5417222 0.25010818
0.40417656 1.5383538 0.1808791
0.39166677 1.5433793 0.10997696
0.3724618 1.5523759 0.0011268781
0.35928553 1.5594945 -0.073554851
0.34617284 1.5589392 -0.14787531
0.33306867 1.5536546 -0.22214727
0.31877869 1.5634017 -0.3031449
0.32654405 1.251801 -0.25903884
0.29179007 1.5426803 -0.45611256
0.29789504 1.2205826 -0.42139587
0.25419581 1.5386127 -0.66920596
0.25255588 1.3992677 -0.67844898
0.37143758 0.18087468 -0.0040536262
0.37156057 0.13380718 -0.0033001374
0.37140921 0.093130298 -0.0041030399
0.37109709 0.056982849 -0.0058177616
0.37124386 0.020671843 -0.004929672
0.37137285 -0.012761044 -0.0041425754
0.37118697 -0.042055395 -0.0051413588
0.37100333 -0.069518417 -0.0061276481
0.37132379 -0.097811088 -0.0042546201
0.37093404 -0.12116807 -0.0064100656
0.36992055 -0.15247115 -0.012075652
0.37026843 -0.17623788 -0.010047278
0.37021297 -0.19741414 -0.010306716
0.37016734 -0.21776935 -0.010510461
0.37027353 -0.23781122 -0.0098530892
0.37037033 -0.25708121 -0.0092491591
0.37060601 -0.27603105 -0.0078574931
0.3703284 -0.29319537 -0.0093771229
0.37065786 -0.3112157 -0.007453646
0.37061319 -0.32801425 -0.0076522999
0.37067866 -0.34464186 -0.0072261635
0.37051383 -0.36062497 -0.0081063984
0.37019861 -0.38418084 -0.0098123541
0.37028193 -0.39997417 -0.0092850653
0.37029046 -0.41553071 -0.0091821924
0.3700479 -0.43086511 -0.010503531
0.37024546 -0.44630677 -0.0093285851
0.37018943 -0.46162757 -0.0095920973
0.36987922 -0.47701821 -0.011297289
0.36993659 -0.50015026 -0.010890453
0.3698875 -0.5079335 -0.011141777
0.37005582 -0.53124058 -0.01010609
0.3696624 -0.54749125 -0.012283553
0.36971235 -0.56352997 -0.01194634
0.36969617 -0.57990736 -0.011984337
0.36970589 -0.60501087 -0.011848754
0.36963299 -0.62237638 -0.012208656
0.36935642 -0.64068884 -0.013723767
0.36920998 -0.6593008 -0.014501125
0.3688848 -0.67905885 -0.016292382
0.36943406 -0.70694029 -0.013097579
0.36917207 -0.72841626 -0.014530714
0.36893335 -0.75082988 -0.015832152
0.36887467 -0.77365208 -0.016112564
0.36830735 -0.79984647 -0.019278221
0.3700107 -0.82994348 -0.009539024
0.37073147 -0.8530674 -0.0053992351
0.37051752 -0.88258898 -0.006561561
0.36840171 -0.92560023 -0.018511817
0.36788249 -0.9625057 -0.021406539
0.19305424 -2.3276513 -1.0129874
0.19154845 -2.480139 -1.0214926
0.19689685 -2.6723766 -0.99110425
0.19532712 -2.8659954 -0.99997902
0.1959032 -3.0618854 -0.99668539
0.19312739 -3.3217719 -1.012411
0.19233926 -3.5965598 -1.016867
0.19093341 -3.9245803 -1.024835
0.20445848 -4.2861886 -0.94810736
0.27749747 -8.3761959 -0.53422099
0.32829329 -8.2249737 -0.24608764
0.36928466 -8.9190178 -0.013695884
0.47215575 -9.010314 0.56975204
0.54057717 -10.821393 0.95750046
0.6398868 -11.068178 1.5206752
0.69996786 -10.85644 1.8615212
0.77012908 -11.038425 2.2594678
0.77290189 -4.8965812 2.2767134
0.93178159 -6.4604259 3.1776023
0.94006461 -6.0455117 3.224721
0.94672358 -5.6638107 3.2626228
0.9614681 -5.4022837 3.3463616
0.96165931 -5.0348415 3.3475773
0.96471703 -4.5738034 3.3650999
0.96332222 -4.2755423 3.3573072
0.92448139 -3.746372 3.1371691
0.95291215 -3.7046542 3.2984941
0.95619583 -3.5050964 3.3172178
0.95295125 -3.2818825 3.2989182
0.94764948 -3.0638189 3.2689497
0.95439231 -2.8334775 3.3073294
0.9544335 -2.6690261 3.3076549
0.94998914 -2.4948971 3.2825401
0.94655144 -2.3345826 3.2631323
0.95237231 -2.2147574 3.2962308
0.9467262 -2.0609553 3.2642951
0.94263792 -1.9197859 3.2411926
0.94408268 -1.7395345 3.2495098
0.94152725 -1.6153561 3.2350976
0.93971807 -1.4972049 3.2249169
0.93824756 -1.3833654 3.2166557
0.93767762 -1.2741463 3.2135015
0.93942398 -1.1706401 3.2234838
0.9345746 -1.060145 3.1960559
0.89907497 -0.92208588 2.994782
0.93984276 -0.81108731 3.2261255
0.91622019 -0.6987192 3.0922132
0.93053496 -0.60795015 3.17348
0.92833585 -0.51010162 3.1610796
0.50362331 -0.44408241 0.75219446
0.50216085 -0.42732984 0.74398363
0.48918593 -0.42626679 0.670443
0.48752391 -0.42329052 0.66104364
0.48674506 -0.41544136 0.65668124
0.48608586 -0.40331411 0.65302539
0.48575675 -0.3862173 0.65126932
0.48657078 -0.37542835 0.65594214
0.49048263 -0.34610385 0.67824274
0.48912141 -0.33887336 0.67057651
0.48742163 -0.33298233 0.66098988
0.48690766 -0.32361767 0.65812951
0.48660159 -0.30748495 0.6564759
0.48620179 -0.29700145 0.65426302
0.48600176 -0.28528619 0.65318328
0.48539338 -0.26813909 0.64981449
0.48547724 -0.25351858 0.65034497
0.48580575 -0.2365489 0.6522634
0.48534849 -0.21442081 0.64975142
0.73847741 1.6999288 2.0858095
0.70876318 1.7058876 1.9173309
0.68846428 1.6954695 1.8022342
0.67085654 1.7010396 1.7024028
0.65247309 1.6917176 1.5981703
0.63661176 1.7017657 1.5082443
0.62000412 1.6972249 1.4140838
0.59778756 1.6086121 1.2881061
0.57705534 1.5166507 1.1705482
0.5566346 1.5137352 1.0547796
0.54487729 1.5406972 0.98813087
0.5321728 1.5478699 0.91610867
0.51932305 1.5475007 0.84326208
0.50655442 1.5434523 0.77087528
0.49431252 1.552587 0.70147526
0.48198041 1.5562651 0.63156307
0.46350238 1.555609 0.52680826
0.45127687 1.5630671 0.457499
0.43898943 1.5660648 0.3878381
0.42684573 1.5476142 0.31899333
0.41475162 1.5377325 0.25042886
0.40245888 1.5393409 0.18073602
0.38994706 1.5443608 0.10979948
0.37077561 1.5523686 0.001102836
0.35760388 1.5594865 -0.073579393
0.34449589 1.5589305 -0.14790031
0.3314501 1.552694 -0.22186838
0.31782421 1.5521151 -0.29912871
0.32357335 1.2703341 -0.26644042
0.31258196 1.2521641 -0.3287524
0.30052224 1.2451607 -0.39712721
0.28175229 1.2351098 -0.50355059
0.25180972 1.390681 -0.67340398
0.36955503 0.18252315 -0.0051627234
0.3696683 0.13541532 -0.0044644852
0.36972123 0.093120255 -0.0041086883
0.36952108 0.056206554 -0.0051894519
0.36978877 0.019175095 -0.0036154715
0.36968571 -0.012771732 -0.0041454309
0.36950019 -0.042066306 -0.0051433314
0.36944589 -0.070198715 -0.0053968281
0.36937159 -0.096536867 -0.0057636886
0.36938497 -0.12179527 -0.0056333304
0.3691884 -0.14482433 -0.0066942382
0.36960825 -0.16918275 -0.0042572957
0.36837965 -0.19691148 -0.011147227
0.36848307 -0.21778193 -0.010505931
0.36858949 -0.23782401 -0.0098476717
0.36884376 -0.25751677 -0.0083503164
0.36876252 -0.27565354 -0.0087568378
0.36864501 -0.29320878 -0.0093690641
0.36897454 -0.31122932 -0.0074446704
0.3687641 -0.32773575 -0.0085842684
0.36882809 -0.3443971 -0.0081667183
0.36883113 -0.36063924 -0.0080947652
0.36851627 -0.38419545 -0.0097993976
0.36859971 -0.39998898 -0.0092711896
0.36860836 -0.41554576 -0.0091673983
0.36853912 -0.43095011 -0.0095053855
0.36839008 -0.44628736 -0.010296152
0.36833403 -0.46164328 -0.010559312
0.36819753 -0.47703415 -0.011278772
0.36832777 -0.49240619 -0.010484545
0.36835292 -0.51563191 -0.010258934
0.36820254 -0.53141373 -0.011056835
0.36815095 -0.54731733 -0.011293905
0.3680304 -0.56354713 -0.011922368
0.36767876 -0.58044243 -0.01386183
0.3680234 -0.60502851 -0.011822143
0.36795026 -0.62239426 -0.012180957
0.36767349 -0.64070696 -0.013694964
0.36768529 -0.65891242 -0.013571531
0.36720121 -0.67907745 -0.016261287
0.36702305 -0.69919813 -0.01721511
0.36763576 -0.72792035 -0.013652408
0.36724767 -0.75084919 -0.015796721
0.3673304 -0.77309799 -0.015269081
0.36689743 -0.7986626 -0.017667113
0.36832148 -0.82996345 -0.0094987815
0.36904088 -0.85308754 -0.0053575244
0.36870083 -0.883304 -0.0072266613
0.36682954 -0.92490172 -0.017782703
0.36782601 -0.9695664 -0.012036523
0.19117334 -2.3292675 -1.0141302
0.18926106 -2.4850342 -1.0248905
0.19549026 -2.6699016 -0.98941201
0.19380455 -2.8643224 -0.99887455
0.1934313 -3.0697989 -1.0008848
0.19171295 -3.3182507 -1.0105162
0.18963774 -3.6083846 -1.0221605
0.20000985 -3.9451122 -0.96312052
0.2020008 -4.2965679 -0.95166785
0.27706942 -8.2948427 -0.52407604
0.32530731 -8.2768049 -0.25023726
0.36536583 -9.0977974 -0.022569384
0.46935186 -8.8693476 0.56769079
0.56862265 -10.750483 1.131803
0.63489854 -10.941864 1.5080757
0.6959998 -10.804929 1.854869
0.76380241 -10.922191 2.239773
0.76919502 -4.877223 2.2688837
0.93506181 -6.5319743 3.2108114
0.94026077 -6.0757556 3.2402332
0.94679272 -5.6899981 3.2772424
0.96215409 -5.4322309 3.3644009
0.95537573 -5.0004048 3.3258548
0.95979422 -4.5535259 3.350879
0.95584774 -4.2376661 3.3284409
0.92130798 -3.7401962 3.1323197
0.94945699 -3.6971722 3.2921193
0.95307261 -3.5000098 3.3126357
0.94819617 -3.2679391 3.2849467
0.9459272 -3.0664449 3.2720649
0.94504464 -2.8848286 3.2670581
0.95222455 -2.6689749 3.3078268
0.95035529 -2.5051703 3.2972257
0.94684827 -2.3437905 3.2773309
0.95005327 -2.2141917 3.2955387
0.94548213 -2.0638137 3.2696085
0.93987876 -1.9179204 3.2378213
0.94243115 -1.7407045 3.2523406
0.93941152 -1.6153065 3.2352235
0.93777573 -1.4974974 3.2259629
0.936647 -1.3842431 3.2195814
0.93475682 -1.2727193 3.2088792
0.93734407 -1.1705908 3.2235906
0.93250579 -1.0600961 3.1961577
0.89840317 -0.92342991 3.002634
0.93727273 -0.81067246 3.223285
0.91453367 -0.69884664 3.0942607
0.92936772 -0.60816336 3.1784804
0.92266661 -0.5096879 3.1404803
0.50176477 -0.43824282 0.75187701
0.50029707 -0.43311152 0.74357617
0.48722878 -0.42640319 0.66949868
0.48564148 -0.41467497 0.66057754
0.48464495 -0.40717584 0.6549803
0.48403153 -0.39056736 0.65161514
0.48422581 -0.36721221 0.65286225
0.48853388 -0.34650543 0.6773665
0.48733115 -0.33886802 0.67059904
0.48563141 -0.33297688 0.6610114
0.48468754 -0.31946146 0.65574199
0.48527586 -0.31164458 0.659109
0.48440987 -0.29699513 0.6542812
0.48420933 -0.28527957 0.65320057
0.48405045 -0.27281508 0.65235621
0.48368353 -0.25351134 0.65035981
0.48401147 -0.23654135 0.65227723
0.48430133 -0.21847351 0.65397829
0.73664743 1.6999598 2.0857959
0.70674443 1.7042781 1.9161848
0.68646187 1.693819 1.8011435
0.66770768 1.6882071 1.6947753
0.65168041 1.7022375 1.6038783
0.63465619 1.700007 1.5073276
0.61777025 1.6918086 1.4115629
0.59626877 1.6123142 1.2896211
0.5758279 1.5250717 1.1737006
0.55490506 1.5147038 1.0550587
0.54319263 1.5426365 0.98864686
0.53001672 1.539153 0.91393685
0.51718605 1.5377342 0.84118593
0.50481051 1.5444514 0.7710163
0.49256447 1.5535911 0.7015813
0.48020974 1.556278 0.63153106
0.46180654 1.56361 0.52718705
0.44951245 1.5640781 0.45748189
0.43725899 1.554077 0.38800982
0.42508873 1.5466256 0.31900939
0.41294068 1.5407305 0.25013509
0.4006727 1.5403421 0.18057908
0.38818255 1.544369 0.10976178
0.36890361 1.5553105 0.00044957892
0.35575649 1.561434 -0.074095696
0.34263685 1.5608594 -0.14848366
0.32957929 1.5546017 -0.22251792
0.31611982 1.5511806 -0.29883331
0.32167062 1.2721945 -0.26721546
0.31038487 1.2576509 -0.33119333
0.29115257 1.2579968 -0.4402369
0.27980849 1.2368635 -0.50454402
0.24994928 1.3915412 -0.673953
0.36764547 0.18336342 -0.005735063
0.36785313 0.13542698 -0.0044859
0.36779675 0.093920246 -0.0047363387
0.36770105 0.056218933 -0.0052107368
0.36761805 0.021417171 -0.0056137466
0.36749947 -0.010600717 -0.0062192068
0.36792308 -0.043442093 -0.0037479061
0.36761698 -0.070184909 -0.0054184478
0.36754063 -0.096522704 -0.0057854918
0.36666706 -0.13002589 -0.01064449
0.36654186 -0.15304165 -0.011289486
0.36689126 -0.17677926 -0.009241214
0.36668864 -0.19741078 -0.01032603
0.3666414 -0.21776585 -0.010529211
0.36674592 -0.23780756 -0.0098712677
0.36684108 -0.25707737 -0.0092667826
0.36691529 -0.27563637 -0.0087811174
0.36695802 -0.2935496 -0.0084743015
0.36695966 -0.31088591 -0.0084008574
0.36691159 -0.32771751 -0.0086096842
0.36663857 -0.34386092 -0.010095072
0.36667523 -0.3682709 -0.0097911758
0.36690959 -0.37652227 -0.0084294332
0.3667396 -0.39996913 -0.0092984932
0.36657402 -0.41542104 -0.010174552
0.36667576 -0.43092954 -0.0095335841
0.36669856 -0.44630128 -0.0093405936
0.36664104 -0.46162197 -0.0096036326
0.36632943 -0.47701249 -0.011308368
0.36655739 -0.5000571 -0.0099197375
0.36648101 -0.51560938 -0.010289742
0.36632913 -0.53139085 -0.011088136
0.36610574 -0.54748493 -0.012292409
0.36615407 -0.56352353 -0.011954674
0.36596867 -0.5801596 -0.012943408
0.3657265 -0.5972808 -0.014254157
0.36623219 -0.62202734 -0.011289695
0.36579099 -0.64068174 -0.013729616
0.36564291 -0.65929359 -0.014506374
0.36547211 -0.67861313 -0.015411866
0.36586255 -0.70693266 -0.01310123
0.36574763 -0.72789353 -0.013689524
0.36535838 -0.75082201 -0.015834391
0.36529785 -0.77364409 -0.016114049
0.36486739 -0.7992366 -0.018492388
0.36656156 -0.82929218 -0.0087841265
0.36650214 -0.85640448 -0.0090570413
0.36693105 -0.8825801 -0.0065592327
0.36818966 -0.90544927 0.00064612884
0.36558798 -0.97180057 -0.014017228
0.18928076 -2.3292422 -1.0141675
0.18808441 -2.4793451 -1.0208766
0.19369708 -2.6690361 -0.98891503
0.19120476 -2.8711531 -1.0029721
0.19205557 -3.0645235 -0.99806112
0.18975848 -3.3191135 -1.011005
0.18776838 -3.6083562 -1.0222033
0.18655635 -3.9347208 -1.0289829
0.19406486 -4.8650455 -0.98612434
0.27424049 -8.3474131 -0.53050107
0.32343182 -8.2887239 -0.25133711
0.36352071 -9.1187325 -0.023727242
0.46808869 -8.9902897 0.56969011
0.53554845 -10.721493 0.95269203
0.6333968 -10.941822 1.5079591
0.69449526 -10.804887 1.8547505
0.75667179 -10.737993 2.2076643
0.77165478 -4.934257 2.2926488
0.92760181 -6.4603415 3.177819
0.94030905 -6.0953221 3.2499628
0.93979228 -5.6348648 3.2470543
0.95704806 -5.3996267 3.3450196
0.96130323 -5.0683031 3.3692002
0.95906842 -4.5615854 3.356566
0.95804185 -4.2667928 3.350776
0.92064112 -3.747828 3.1385536
0.94930142 -3.7075484 3.3012476
0.95333332 -3.5122118 3.3241692
0.94864494 -3.2804174 3.2976029
0.94257331 -3.0583913 3.2631876
0.94968104 -2.8302572 3.3035867
0.95165169 -2.6743693 3.3148119
0.94753373 -2.5011351 3.2914853
0.94588906 -2.3470385 3.2821944
0.94836575 -2.2146881 3.2962911
0.94136328 -2.0565243 3.2565966
0.93772203 -1.9169958 3.2359762
0.94042033 -1.7402828 3.2513506
0.93803799 -1.616416 3.2378736
0.93656844 -1.498852 3.2295759
0.93511444 -1.3848488 3.2213659
0.93339169 -1.2735348 3.2116311
0.93463492 -1.1693711 3.218725
0.93029594 -1.0596712 3.194144
0.89481306 -0.9216845 2.9928501
0.93522763 -0.81054389 3.2222207
0.91248083 -0.69875312 3.0931935
0.92575747 -0.60763538 3.1685596
0.92113441 -0.50971854 3.142364
0.49976856 -0.43822804 0.7518115
0.49829963 -0.433097 0.74351072
0.48527724 -0.4218657 0.66976339
0.48377663 -0.41888306 0.66128361
0.48280102 -0.41128641 0.6558162
0.48229074 -0.40329832 0.65298861
0.48218548 -0.39026332 0.65249223
0.48249567 -0.37129393 0.65438533
0.48651797 -0.34649596 0.67730153
0.48531336 -0.33885908 0.67053413
0.48320955 -0.32876605 0.65869898
0.48309559 -0.32360408 0.65808523
0.4827866 -0.30747181 0.65643024
0.48238489 -0.29698861 0.65421641
0.48218304 -0.28527364 0.65313572
0.48157194 -0.26812699 0.64976549
0.48165417 -0.25350678 0.65029496
0.48198125 -0.23653737 0.65221232
0.48152173 -0.21440971 0.64969885
0.72765434 1.7250968 2.0453515
0.70516175 1.7067242 1.9178054
0.68466967 1.6946467 1.8016068
0.66715848 1.7010543 1.7023108
0.64852285 1.6891075 1.5966455
0.63283712 1.7008876 1.5077035
0.61594152 1.692705 1.4119087
0.59361005 1.6021793 1.2853193
0.5678041 1.5371288 1.1390342
0.55308545 1.5165973 1.0555992
0.54116887 1.5407056 0.98803645
0.52838033 1.5459369 0.91553718
0.51554161 1.5455517 0.84275705
0.50293481 1.5464134 0.77129209
0.49079609 1.5605156 0.70247471
0.47206926 1.5546829 0.59632242
0.45981658 1.5586101 0.52686495
0.44757521 1.5670713 0.4574692
0.43531486 1.5520715 0.38798055
0.42316255 1.5436242 0.31910086
0.4109695 1.5417215 0.24998638
0.39879808 1.5363674 0.18099691
0.38608611 1.5493033 0.1089293
0.36650732 1.5670446 -0.0020692521
0.35370597 1.5633714 -0.074633002
0.34076273 1.5589345 -0.14800094
0.32739222 1.5584043 -0.22379529
0.31479561 1.5408431 -0.29518715
0.31188172 1.3834535 -0.31155029
0.30810076 1.2613037 -0.3328549
0.2790716 1.3720441 -0.49752906
0.27846962 1.2298669 -0.50078213
0.2461586 1.4086866 -0.68415505
0.3657524 0.18169695 -0.0046948115
0.36555663 0.13703609 -0.0057049491
0.36580572 0.093122907 -0.0041912408
0.36559832 0.056209113 -0.0052719875
0.36585876 0.01917755 -0.0036980091
0.36574894 -0.012769372 -0.0042280471
0.36543211 -0.041369364 -0.005934563
0.36536726 -0.06952738 -0.006211645
0.36541566 -0.096534789 -0.0058467672
0.364259 -0.12883499 -0.012278794
0.36440694 -0.15305477 -0.011350733
0.3644613 -0.17570364 -0.010954387
0.36454582 -0.19742483 -0.010387288
0.36434299 -0.21729559 -0.011451835
0.36475006 -0.2382765 -0.0090550557
0.36452952 -0.25667021 -0.010220648
0.36475724 -0.27565226 -0.0088423882
0.36495826 -0.2939243 -0.0076161362
0.36479416 -0.31090271 -0.0084621264
0.36474234 -0.32773477 -0.0086709484
0.36496851 -0.34465501 -0.007302491
0.36479849 -0.36063847 -0.0081822509
0.36447549 -0.38419479 -0.0098875016
0.36455351 -0.39998844 -0.009359723
0.36438408 -0.4154408 -0.010235765
0.36448207 -0.43094975 -0.0095947906
0.36432755 -0.44628707 -0.010385997
0.36426604 -0.4616431 -0.010649607
0.36412403 -0.47703403 -0.011369518
0.36424881 -0.49240619 -0.010575759
0.36426568 -0.51563203 -0.010350852
0.36410967 -0.53141397 -0.011149217
0.36405244 -0.54731768 -0.011386761
0.36375698 -0.5637725 -0.012975238
0.36409956 -0.58788693 -0.010900467
0.36373961 -0.60533822 -0.012853308
0.36366251 -0.62273705 -0.013201396
0.36370382 -0.64033312 -0.012877392
0.36354852 -0.65891331 -0.013667534
0.36321408 -0.67864007 -0.015472618
0.36405292 -0.70550585 -0.010578018
0.36317915 -0.72895169 -0.015438415
0.36337328 -0.74976116 -0.014243082
0.36287335 -0.77424657 -0.016981218
0.36244014 -0.79986775 -0.01933926
0.36413226 -0.82996523 -0.0095988661
0.36368284 -0.85911173 -0.012044658
0.36462188 -0.88261133 -0.0066194292
0.36623693 -0.90332311 0.0026381474
0.36325818 -0.97183275 -0.014077039
0.18636367 -2.3316145 -1.0160334
0.18484637 -2.4842076 -1.0243959
0.19037291 -2.6749165 -0.99271506
0.18931092 -2.8634477 -0.99845219
0.18898143 -3.068032 -1.0000145
0.18649933 -3.3244693 -1.01373
0.18500176 -3.6074598 -1.0218284
0.19479011 -3.9515851 -0.96578765
0.2715393 -8.2997971 -0.5247646
0.31927255 -8.3176479 -0.25384906
0.35872421 -9.2186365 -0.028898366
0.46412802 -8.9493542 0.56895751
0.56363875 -10.810369 1.1358063
0.62882173 -10.921022 1.5057759
0.75565898 -10.839532 2.2252574
0.76854676 -4.9325156 2.2918277
0.92352319 -6.4495878 3.1727753
0.93631768 -6.0856438 3.2449939
0.93456888 -5.612246 3.2345881
0.97014064 -5.3582368 3.4361787
0.97284234 -5.0204844 3.4511797
0.95480937 -4.5503793 3.3484068
0.95825148 -4.2889748 3.3676984
0.91582865 -3.7333853 3.1264699
0.94685394 -3.7091496 3.30251
0.95044911 -3.5108874 3.3227451
0.95438236 -3.2284727 3.344837
0.94885039 -3.0130186 3.3132772
0.94675255 -2.8284788 3.301235
0.94776952 -2.6684601 3.3068912
0.94293404 -2.4926386 3.2793291
0.94155484 -2.3400638 3.2714016
0.94490427 -2.2111876 3.2903271
0.94033301 -2.0609901 3.2642949
0.93984133 -1.8674589 3.2613928
0.93712348 -1.737942 3.2458992
0.93538916 -1.6157651 3.2359943
0.93344373 -1.497239 3.2248962
0.93199664 -1.3833994 3.2166309
0.93111521 -1.2736288 3.2115793
0.93237346 -1.1694642 3.2186739
0.92889833 -1.060802 3.19891
0.89224136 -0.92142355 2.9908602
0.93422103 -0.81148595 3.2290137
0.90993595 -0.69866431 3.0911832
0.92513061 -0.60819203 3.1773624
0.91878593 -0.50978518 3.1413317
0.49765655 -0.44410232 0.75211972
0.49612269 -0.43313482 0.74346751
0.48315597 -0.4308027 0.66995913
0.48173308 -0.42315266 0.66193974
0.48046908 -0.40719703 0.65487444
0.48010504 -0.39900076 0.65286171
0.47930595 -0.37818155 0.64845997
0.48436663 -0.34652707 0.6772632
0.48316446 -0.33888948 0.67049628
0.48146495 -0.33299813 0.66090918
0.48052248 -0.31948256 0.65564054
0.48064661 -0.30749997 0.65639418
0.48074466 -0.30114433 0.65697497
0.48004833 -0.28530061 0.65310067
0.47944123 -0.26815304 0.64973116
0.47952631 -0.25353226 0.65026116
0.47985643 -0.2365623 0.652179
0.47940111 -0.21443374 0.64966631
0.72588748 1.7266546 2.0465052
0.7028845 1.7042297 1.9160795
0.68269002 1.694612 1.8015758
0.66482061 1.697593 1.7002515
0.64763767 1.700447 1.6028216
0.62983036 1.6892754 1.501862
0.61410725 1.6944903 1.4127117
0.59073925 1.5901877 1.2802886
0.56521773 1.5277095 1.1356381
0.55125457 1.5194296 1.0564842
0.53927439 1.5426086 0.9885518
0.52647483 1.5478594 0.91598636
0.51326233 1.5377094 0.84109241
0.50088555 1.5444281 0.7709235
0.48854142 1.549608 0.70094109
0.47014403 1.5586551 0.59663951
0.45786828 1.5625931 0.52704507
0.4455851 1.5650612 0.45740926
0.43330848 1.560061 0.38781726
0.42116207 1.5456132 0.31897247
0.40898818 1.5417142 0.24996129
0.39677599 1.5383462 0.18073182
0.37777945 1.5513108 0.073021017
0.36492863 1.5562812 0.00015868424
0.35185939 1.5604578 -0.073943019
0.33869725 1.5608549 -0.14856882
0.32526407 1.5612563 -0.22473331
0.31774434 1.4628488 -0.26725155
0.31075314 1.3714001 -0.3067781
0.30591366 1.2640448 -0.33408061
0.27789345 1.3631358 -0.49308228
0.27641633 1.2307434 -0.50128359
0.24500678 1.4009756 -0.67961502
0.36372957 0.1816978 -0.0047124703
0.36394152 0.13380139 -0.0034065053
0.3637833 0.093124621 -0.0042078849
0.36368799 0.055445228 -0.0046550804
0.36360559 0.020666387 -0.0050316872
0.36372876 -0.012766385 -0.0042432272
0.36391208 -0.044144541 -0.0031154461
0.3633495 -0.069523536 -0.0062258933
0.36366487 -0.097816087 -0.0043516131
0.36354446 -0.12240422 -0.004953851
0.36320683 -0.14481731 -0.0067906245
0.36274144 -0.17678711 -0.0093146674
0.36238807 -0.1969036 -0.011243215
0.36263919 -0.21825854 -0.0097403545
0.36274454 -0.23826945 -0.0090658767
0.36268324 -0.25708535 -0.0093384245
0.36275566 -0.27564436 -0.0088523058
0.36295864 -0.29391599 -0.0076255929
0.36279666 -0.31089398 -0.0084711472
0.36274704 -0.32772562 -0.0086795259
0.36280772 -0.34438664 -0.0082619265
0.36233732 -0.36807117 -0.010823212
0.36248818 -0.38418415 -0.0098945471
0.36239672 -0.39983818 -0.010341591
0.36240163 -0.41542929 -0.010241939
0.36232892 -0.43086809 -0.010582972
0.36235008 -0.44627473 -0.010391301
0.36246464 -0.46163031 -0.0096696727
0.36237714 -0.48465785 -0.010059421
0.36220488 -0.50015271 -0.010965721
0.36230007 -0.51561779 -0.010354212
0.36214691 -0.53139931 -0.011152158
0.36209255 -0.5473026 -0.011389278
0.3619692 -0.56353199 -0.012017798
0.36178243 -0.58016813 -0.013006082
0.36171621 -0.62272 -0.013202029
0.36159971 -0.64069033 -0.013790693
0.36145008 -0.65930223 -0.014566994
0.3612777 -0.67862177 -0.015472027
0.36154899 -0.72790223 -0.013748508
0.3617402 -0.7486521 -0.012589195
0.36095309 -0.77422643 -0.016978795
0.36093998 -0.7980417 -0.016977025
0.36248699 -0.82865834 -0.0080864774
0.36164698 -0.85975927 -0.01277262
0.36271867 -0.88258916 -0.006615031
0.36445752 -0.90258104 0.0033272128
0.35984048 -0.96399212 -0.02277454
0.18442798 -2.3331754 -1.0172576
0.18324175 -2.4833834 -1.0238287
0.18896727 -2.6723843 -0.99111688
0.18692379 -2.8702891 -1.0025206
0.1865712 -3.0758872 -1.0043223
0.18526568 -3.3199978 -1.0115058
0.18332635 -3.6083496 -1.0222561
0.18147103 -3.9429986 -1.0324975
0.26980448 -8.3235941 -0.52765113
0.31875145 -8.2707996 -0.24981906
0.46275994 -8.9023218 0.56816065
0.53339547 -11.069039 0.97064245
0.62583476 -10.818533 1.4951997
0.69042689 -10.856417 1.861895
0.75228482 -10.768561 2.212986
0.76492769 -4.9066787 2.2811046
0.92213207 -6.4531374 3.1745074
0.93286473 -6.0659657 3.2352254
0.93608439 -5.6462793 3.2532792
0.95342898 -5.4108148 3.3516324
0.95986193 -4.9250674 3.3879158
0.95315051 -4.5519204 3.3496361
0.95497715 -4.2786536 3.3598874
0.91503328 -3.7409718 3.1328683
0.94469249 -3.707587 3.3012624
0.9475373 -3.5050566 3.3173428
0.94183135 -3.2679503 3.2848651
0.93996012 -3.0684633 3.2741799
0.94474858 -2.8284032 3.3013051
0.94464332 -2.6635702 3.3006687
0.94076151 -2.4919899 3.2785919
0.93965763 -2.3405337 3.2722971
0.94433528 -2.2162628 3.2988384
0.93826711 -2.0609157 3.2643638
0.939318 -1.8717682 3.2703135
0.93772525 -1.7447823 3.2612627
0.93248355 -1.6138186 3.2314968
0.93198502 -1.4985336 3.2286656
0.93070167 -1.3848712 3.2213814
0.92965329 -1.2746586 3.2154334
0.93090796 -1.170359 3.2225633
0.92437637 -1.0578195 3.1854899
0.89044464 -0.92170185 2.9928632
0.93222177 -0.81153542 3.230058
0.90759498 -0.69850707 3.0902662
0.9217332 -0.60775453 3.1705434
0.9191978 -0.50997591 3.156167
0.49551794 -0.44412082 0.75115991
0.49432957 -0.43301412 0.74447197
0.48126295 -0.4262535 0.67038858
0.4797731 -0.42312086 0.66196144
0.47850737 -0.4071658 0.65489572
0.47775644 -0.38183984 0.65081197
0.47864485 -0.37541482 0.65588409
0.48203382 -0.34200227 0.67526668
0.48080814 -0.33448613 0.66836923
0.47949207 -0.3329685 0.6609295
0.47854808 -0.31945336 0.65566057
0.47867048 -0.30747098 0.65641403
0.47812793 -0.29756102 0.65339381
0.47752395 -0.28121519 0.65005416
0.47746015 -0.26812494 0.64975047
0.47754326 -0.25350437 0.6502803
0.47787106 -0.23653461 0.65219808
0.47816077 -0.218467 0.65389949
0.72337061 1.7251065 2.0453629
0.70198363 1.7157449 1.9240283
0.68021679 1.6929792 1.8005421
0.66263378 1.698493 1.7007959
0.64410669 1.6873688 1.5956959
0.62851673 1.7000071 1.5072607
0.61192775 1.6954346 1.4131602
0.5876258 1.5782562 1.2753166
0.56353837 1.5361992 1.1386966
0.54888654 1.5166075 1.0555973
0.53706998 1.5426384 0.98857659
0.52423316 1.5469173 0.91577172
0.51135826 1.5455618 0.84275246
0.49875715 1.5464234 0.77128661
0.48645389 1.5535935 0.70150912
0.46801159 1.5616655 0.59691513
0.45569474 1.5626138 0.52706218
0.44341296 1.5640808 0.45740807
0.43115062 1.5580794 0.38786653
0.41901344 1.5446312 0.31903771
0.40682042 1.5427258 0.24988794
0.39454386 1.54233 0.180263
0.38172039 1.5581995 0.10752775
0.36250255 1.5641166 -0.0014711292
0.34964195 1.5624069 -0.074412063
0.33652058 1.5618232 -0.14883393
0.32351491 1.5546042 -0.22259739
0.32630488 1.2937108 -0.20660941
0.30008101 1.4937901 -0.35547832
0.30276868 1.2777505 -0.34008682
0.27139795 1.4130311 -0.51812172
0.27434263 1.2307428 -0.50128323
0.24167675 1.4129717 -0.68671852
0.36153525 0.18336309 -0.0058091944
0.36153775 0.13704439 -0.0057175471
0.36157742 0.094707325 -0.0054161893
0.36158755 0.056217775 -0.0052839681
0.36173576 0.019929539 -0.0043686568
0.36162522 -0.012041017 -0.0049235453
0.36155736 -0.042054847 -0.005237144
0.3615002 -0.070187181 -0.0054904968
0.36155608 -0.097168051 -0.0051027457
0.36143386 -0.12178358 -0.0057267998
0.36151546 -0.14598806 -0.0051941406
0.36062661 -0.17623818 -0.010137961
0.36042035 -0.19689956 -0.011240718
0.36067301 -0.21825472 -0.0097379992
0.36077985 -0.23826587 -0.0090636704
0.36087716 -0.25750458 -0.0084438203
0.36079371 -0.27564129 -0.0088504087
0.36099797 -0.29391313 -0.0076238355
0.36083728 -0.31089136 -0.0084695518
0.36078885 -0.32772326 -0.0086780861
0.36068317 -0.34412575 -0.0092119025
0.3605518 -0.36827734 -0.009858856
0.3605341 -0.38418269 -0.0098936521
0.36044377 -0.39983699 -0.010340852
0.36044976 -0.41542834 -0.010241349
0.36055121 -0.43093711 -0.009600074
0.36074716 -0.44634399 -0.0084225209
0.36051604 -0.46163008 -0.0096695293
0.36037776 -0.47698596 -0.01038974
0.36050588 -0.49232307 -0.0095974775
0.36035544 -0.51561844 -0.010354606
0.3602035 -0.5314002 -0.011152714
0.36032063 -0.54711294 -0.010423268
0.3600283 -0.56353343 -0.012018668
0.36004108 -0.58814824 -0.011849682
0.35994306 -0.62238032 -0.012278027
0.35966507 -0.64069295 -0.013792286
0.35904166 -0.66052538 -0.017267792
0.35939127 -0.68817246 -0.01518717
0.35932449 -0.72893614 -0.015439128
0.3593784 -0.7502901 -0.015069457
0.35903043 -0.77423072 -0.016981488
0.35915807 -0.7974444 -0.016193377
0.36070165 -0.82802022 -0.0073351269
0.35986111 -0.85909516 -0.012043993
0.36080566 -0.88259435 -0.0066183945
0.36290723 -0.90042824 0.0053760642
0.36757067 -0.90231478 0.031914804
0.18306528 -2.3308365 -1.0154557
0.18694429 -2.675765 -0.99328017
0.1853921 -2.8694582 -1.0020319
0.18623611 -3.062794 -0.99717999
0.1841713 -3.3146787 -1.0088431
0.18157487 -3.6110959 -1.0235251
0.18147147 -3.922775 -1.0240539
0.18972059 -5.4189019 -0.97702491
0.27017954 -8.2600908 -0.51999986
0.31766349 -8.2767906 -0.25035867
0.46166006 -8.8553286 0.56733143
0.56165832 -10.800336 1.1351215
0.62732166 -10.941835 1.5079548
0.6906361 -10.896992 1.8675051
0.75364 -10.839436 2.2252951
0.7661441 -4.9443851 2.2968924
0.92400634 -6.4938693 3.1932535
0.9278422 -6.0258188 3.2151206
0.93513966 -5.652349 3.25664
0.95266277 -5.4184747 3.3562179
0.96792692 -5.0079141 3.4430137
0.94973648 -4.5381131 3.3398173
0.95304704 -4.2770228 3.3586986
0.90991765 -3.7179413 3.1138988
0.94325429 -3.7097631 3.3032646
0.94427764 -3.496371 3.3091588
0.93936521 -3.2644241 3.2813492
0.93719041 -3.0637267 3.2690837
0.94163501 -2.8226864 3.2944448
0.944938 -2.6731453 3.3132827
0.93782443 -2.4879224 3.2729738
0.93798679 -2.3415701 3.2739789
0.94161224 -2.2136347 3.2946482
0.93384248 -2.053107 3.2506123
0.9306401 -1.9151552 3.2325113
0.93315196 -1.7382228 3.2468991
0.92978728 -1.6122687 3.2278762
0.92845052 -1.4954041 3.2203691
0.92829001 -1.3842018 3.2195413
0.92689091 -1.2735047 3.2116799
0.92896694 -1.1705494 3.2235527
0.92225522 -1.0577686 3.1855237
0.88985574 -0.92321712 3.0016241
0.92834526 -0.81026554 3.2203181
0.90698957 -0.69924206 3.0991302
0.92007601 -0.60786092 3.1735296
0.91718322 -0.50994313 3.1571872
0.49357921 -0.43822828 0.75180095
0.49201062 -0.42741629 0.74296135
0.47893006 -0.42202282 0.66877919
0.47760224 -0.41888365 0.66127223
0.47646314 -0.4071632 0.65490472
0.47609681 -0.39896724 0.65289199
0.47554439 -0.3821629 0.64989024
0.47603688 -0.36720046 0.65278906
0.48033968 -0.3464936 0.67729425
0.47913617 -0.33885646 0.67052716
0.47743607 -0.33296564 0.66093987
0.47649035 -0.31945056 0.65567112
0.47661099 -0.30746815 0.65642476
0.47620922 -0.29698464 0.65421134
0.47600695 -0.28526929 0.65313119
0.47598103 -0.27217564 0.65305269
0.47610644 -0.25756666 0.65383393
0.47580221 -0.23653173 0.65220958
0.47608954 -0.21846408 0.65391123
0.72068894 1.7227393 2.0436132
0.69763577 1.6993878 1.9127581
0.67815191 1.6955199 1.8021766
0.65993524 1.6950868 1.6987914
0.64194196 1.6891385 1.5966738
0.62524486 1.6893336 1.5019177
0.60931456 1.6918263 1.4115163
0.58505654 1.5745887 1.2737967
0.56072086 1.5277543 1.1356832
0.54666424 1.5175694 1.0559185
0.53474897 1.5416867 0.98832119
0.52209079 1.5498364 0.91650152
0.50877178 1.536765 0.84092426
0.49677095 1.5552922 0.77283871
0.48388869 1.5407242 0.69974047
0.46573702 1.5596757 0.59675479
0.45343778 1.5606177 0.52696955
0.4411945 1.5690796 0.45750326
0.42895415 1.5480794 0.38804749
0.41679323 1.5446285 0.31904545
0.40459099 1.543718 0.24980894
0.39239895 1.5393474 0.18062918
0.37331647 1.5552548 0.072351031
0.36030746 1.5641083 -0.001467601
0.34753722 1.5604568 -0.073932946
0.33433834 1.5618122 -0.1488324
0.32150057 1.5517391 -0.22168377
0.3245087 1.2880608 -0.2045867
0.29759809 1.4984114 -0.35732439
0.30175859 1.2631198 -0.33367732
0.26902556 1.4156866 -0.5194664
0.27188554 1.2342241 -0.50319588
0.23982364 1.4103798 -0.68520236
0.35966137 0.181697 -0.0047002602
0.35977975 0.13460933 -0.0039731278
0.35983753 0.092335388 -0.0035892422
0.35964206 0.055443767 -0.0046428014
0.35979781 0.019178469 -0.0037013369
0.35957393 -0.012048948 -0.0049150456
0.35975808 -0.043451965 -0.003811507
0.35945371 -0.070195056 -0.0054816077
0.35828024 -0.10418286 -0.012057919
0.35850781 -0.13003673 -0.010706591
0.35852599 -0.15362628 -0.010544355
0.35873425 -0.17679057 -0.0093022976
0.35853285 -0.19742234 -0.010386663
0.35848665 -0.21777767 -0.010589367
0.35874659 -0.23827355 -0.0090534082
0.35868809 -0.25708967 -0.0093259308
0.35876313 -0.27564889 -0.0088397665
0.35880667 -0.29356235 -0.008532458
0.35880911 -0.3108989 -0.0084585287
0.35876185 -0.32773077 -0.0086668786
0.35882479 -0.34439197 -0.0082492307
0.358358 -0.36807695 -0.010810533
0.35851091 -0.38419011 -0.0098818038
0.35859331 -0.3999835 -0.0093535259
0.3584286 -0.4154357 -0.010229125
0.35853094 -0.43094441 -0.0095876474
0.35907426 -0.44642094 -0.0064413846
0.35832429 -0.46163738 -0.01064155
0.35836035 -0.47699317 -0.010376742
0.35876128 -0.4998987 -0.0080093797
0.35816824 -0.51574755 -0.01131862
0.35836059 -0.53125083 -0.010166296
0.35818499 -0.56331551 -0.01104495
0.35819688 -0.58787954 -0.010888589
0.35793418 -0.62238729 -0.012263204
0.35749665 -0.64107454 -0.014690412
0.35671869 -0.66134596 -0.019051993
0.35769522 -0.68727124 -0.013416624
0.35747042 -0.72842783 -0.014578938
0.35665011 -0.75302035 -0.019182915
0.3568885 -0.77481109 -0.017771689
0.35757458 -0.79564553 -0.013817023
0.35870364 -0.82802677 -0.0073178089
0.35773656 -0.85977095 -0.012758348
0.35856131 -0.88399023 -0.0080173146
0.3606711 -0.90187317 0.0040262239
0.36487666 -0.90677959 0.027980004
0.18105662 -2.3324366 -1.0166605
0.18450838 -2.6816592 -0.99702412
0.18398699 -2.8660526 -0.99999154
0.18373008 -3.0706892 -1.001464
0.18165205 -3.3236122 -1.0132997
0.17920369 -3.6192765 -1.0272551
0.18963727 -3.95718 -0.96801358
0.26809242 -8.2888899 -0.52342582
0.3155404 -8.3176451 -0.25381699
0.46044749 -8.9693069 0.56937546
0.56089008 -10.861173 1.1394171
0.6257906 -10.941816 1.5080508
0.6900717 -10.938559 1.8733622
0.74983716 -10.7685 2.2130787
0.76106691 -4.9029408 2.2796361
0.91772503 -6.4412727 3.1691883
0.92727846 -6.042717 3.223691
0.93162185 -5.6374516 3.2485945
0.96343488 -5.3470488 3.4295578
0.96306425 -4.9846735 3.42766
0.94950908 -4.5534587 3.3508806
0.95086527 -4.2769995 3.3587604
0.91040248 -3.7363055 3.129149
0.94150925 -3.7127154 3.3059576
0.94314009 -3.5028265 3.3153713
0.93925381 -3.2762158 3.2934463
0.94260412 -3.0122182 3.3126831
0.93991709 -2.8251903 3.2975557
0.94128686 -2.6671157 3.305465
0.93427378 -2.4827504 3.265759
0.93541652 -2.3404727 3.272372
0.938582 -2.2110527 3.2904711
0.93352282 -2.0594034 3.261853
0.92818964 -1.9146974 3.2316751
0.93068892 -1.7378145 3.2460394
0.92924714 -1.6163887 3.2379599
0.92695254 -1.4971155 3.2250342
0.92547858 -1.3832779 3.2167683
0.92440391 -1.2732337 3.2107694
0.92647409 -1.1703135 3.2226329
0.91551989 -1.0523716 3.1605115
0.88799953 -0.87667292 3.0043342
0.92669797 -0.81076407 3.2242618
0.90603977 -0.69995141 3.1070111
0.91756463 -0.60782278 3.1725783
0.91189665 -0.50966281 3.1404788
0.49102327 -0.43837771 0.74984282
0.4768897 -0.42187673 0.66975671
0.47538981 -0.41889417 0.6612767
0.47424737 -0.40717423 0.65490848
0.47312909 -0.39144406 0.648718
0.47372788 -0.38590413 0.65216041
0.47397101 -0.3668384 0.65370393
0.47795108 -0.34691346 0.67639625
0.47651866 -0.33449668 0.66838062
0.47520187 -0.33297929 0.66094059
0.4745338 -0.32411495 0.65722644
0.47437114 -0.30748263 0.65642446
0.4734557 -0.29292178 0.65134573
0.4737626 -0.28528443 0.65313017
0.47314787 -0.26813778 0.64976013
0.4732267 -0.25351751 0.65028983
0.47367451 -0.23585337 0.65291595
0.47320402 -0.213689 0.65036607
0.71827382 1.7219021 2.0430541
0.69523013 1.6985313 1.9122258
0.67547172 1.6921283 1.800063
0.65781432 1.6967651 1.6998371
0.63914138 1.6838558 1.5938399
0.62279356 1.6875174 1.5010538
0.60694963 1.6908867 1.4111301
0.57714766 1.4981542 1.2418867
0.5585531 1.5296037 1.1363827
0.5441649 1.5137361 1.0547266
0.53232139 1.5387748 0.98753256
0.51972342 1.5478688 0.91605073
0.50681299 1.5455425 0.84279215
0.49412754 1.5434494 0.77081233
0.48165452 1.5426807 0.70003963
0.4633342 1.5516839 0.59609377
0.45120063 1.5655899 0.52725261
0.43889394 1.5630612 0.45742595
0.42667702 1.5460613 0.38810715
0.41460946 1.5336268 0.31963792
0.40238196 1.5387216 0.25026354
0.38992274 1.5482665 0.17957404
0.37090865 1.5591829 0.071692772
0.35791072 1.5670331 -0.0020556231
0.34520522 1.5614196 -0.07414481
0.33204666 1.5618068 -0.14880569
0.31856358 1.5631481 -0.22530927
0.32226816 1.2871171 -0.20422937
0.30023792 1.4279467 -0.32925802
0.2792201 1.435245 -0.44851521
0.26813647 1.399654 -0.51139319
0.25788489 1.3557998 -0.56954581
0.23724298 1.4129621 -0.68669862
0.35771331 0.17837112 -0.0025058552
0.35774592 0.13217252 -0.0022465303
0.35738748 0.093113512 -0.0042070365
0.35751817 0.053901747 -0.0033893825
0.35733137 0.019911615 -0.0043743206
0.35734048 -0.012778282 -0.0042460547
0.3576501 -0.044851314 -0.0024109378
0.3572216 -0.070874207 -0.0047671003
0.35618353 -0.1054514 -0.010545932
0.35613802 -0.13004674 -0.01072648
0.35615265 -0.15363634 -0.010565267
0.35621193 -0.17625611 -0.010150206
0.35600379 -0.19691747 -0.01125375
0.35625437 -0.21827269 -0.00975182
0.35635909 -0.23828384 -0.0090782624
0.35629702 -0.25710002 -0.0093517266
0.35652813 -0.27605 -0.0079599395
0.35624659 -0.29321447 -0.0094795655
0.35657132 -0.31123495 -0.0075559565
0.35635647 -0.32774132 -0.0086964108
0.35611314 -0.3682954 -0.009879021
0.35609281 -0.38420075 -0.0099145537
0.35617557 -0.41555095 -0.0092843072
0.35610178 -0.43095523 -0.0096232034
0.35606098 -0.46164823 -0.0096941711
0.35597086 -0.48467618 -0.010085308
0.35589024 -0.51563662 -0.010381984
0.35590664 -0.53126192 -0.010208177
0.35538515 -0.56377655 -0.01300811
0.35572898 -0.58789074 -0.010934134
0.35545799 -0.6223985 -0.01231097
0.35517687 -0.64071107 -0.013826189
0.35470882 -0.6601367 -0.01640304
0.35520405 -0.68728256 -0.013468563
0.35497019 -0.72843921 -0.014633481
0.35501751 -0.74976361 -0.014283116
0.3543787 -0.77482241 -0.017829074
0.3563157 -0.82739592 -0.0066243694
0.3553389 -0.85911345 -0.01208921
0.35627961 -0.88261288 -0.0066648391
0.35861808 -0.89900851 0.0066968841
0.36874554 -0.91084021 0.064412877
0.18222471 -2.677422 -0.9944756
0.18067563 -2.8711517 -1.0031775
0.17958824 -3.0846388 -1.009256
0.17819989 -3.3306949 -1.0170414
0.17686504 -3.612886 -1.0245206
0.18681976 -3.9562092 -0.96784174
0.18243797 -4.8840656 -0.99249887
0.26359758 -8.3474302 -0.53092825
0.31257784 -8.2997112 -0.25270164
0.45722783 -8.9763556 0.56901199
0.55739504 -10.850286 1.1380694
0.62131262 -10.880267 1.5010735
0.68475723 -10.856501 1.8613909
0.74657923 -10.768655 2.2124925
0.76173097 -4.9491153 2.2985919
0.91649419 -6.4605055 3.1775651
0.92596573 -6.0589566 3.2313962
0.94139344 -5.555614 3.3190806
0.95968151 -5.3370805 3.4229889
0.96267462 -5.0039482 3.4400396
0.94324875 -4.5245337 3.3297763
0.94669682 -4.2653775 3.3494158
0.90819496 -3.7387872 3.1308265
0.93979645 -3.7181087 3.3103504
0.94987744 -3.4520016 3.3676937
0.9419018 -3.2073717 3.3224654
0.93843406 -3.0038745 3.3028378
0.9370575 -2.8234844 3.2950866
0.93925977 -2.6691017 3.3076601
0.93425721 -2.4926777 3.279319
0.93328685 -2.3417366 3.2738767
0.9369154 -2.2138014 3.2945516
0.93097025 -2.0590892 3.2608593
0.93042564 -1.865743 3.2578712
0.92767566 -1.7363522 3.2423248
0.92333782 -1.6083097 3.2177613
0.92475075 -1.4976172 3.2258563
0.9232856 -1.3837442 3.2176073
0.92255276 -1.2742157 3.2135172
0.92429823 -1.1707091 3.223501
0.9131794 -1.0525206 3.1604302
0.88703102 -0.87806392 3.0120444
0.92471957 -0.81115478 3.2261465
0.90458071 -0.70052731 3.1118524
0.91576999 -0.60812068 3.1754682
0.91357416 -0.51020175 3.1630712
0.48876771 -0.4383477 0.75079578
0.47429127 -0.4220686 0.66875786
0.47279254 -0.4191027 0.66028124
0.47214064 -0.41547069 0.65661377
0.47128993 -0.3992708 0.65192115
0.47123262 -0.38155612 0.65173429
0.47195578 -0.37545669 0.65587574
0.47533873 -0.34204423 0.67526096
0.4744963 -0.33890125 0.67051148
0.47279599 -0.3330099 0.66092467
0.47228014 -0.32364497 0.65806442
0.47197071 -0.30751193 0.65641117
0.47156888 -0.29702818 0.65419841
0.47136661 -0.28531268 0.65311897
0.47075516 -0.26816523 0.64975047
0.4709653 -0.25287536 0.65101314
0.47059134 -0.2318342 0.64899313
0.47157013 -0.21778758 0.65458661
0.71559715 1.7186487 2.0407066
0.69346303 1.7025722 1.9150736
0.67301476 1.6904002 1.7990141
0.65554357 1.6967179 1.6998615
0.63695127 1.6846865 1.594342
0.6216194 1.6999509 1.5073385
0.60467136 1.6908489 1.4111556
0.57479066 1.4972004 1.2415253
0.55614477 1.5276943 1.1357332
0.54198056 1.5156105 1.0553596
0.53012562 1.5406712 0.98810017
0.51743174 1.5478449 0.91607577
0.50419611 1.5367169 0.84097457
0.4918949 1.545399 0.77117956
0.4795303 1.549594 0.70102423
0.46113196 1.557645 0.59663409
0.44889921 1.5645767 0.52722663
0.43657154 1.5530496 0.45727974
0.42438775 1.5450495 0.38814968
0.41222659 1.5436025 0.3191475
0.40006047 1.5407045 0.25011694
0.38763264 1.5482582 0.17959912
0.36865053 1.5581912 0.071888693
0.35562393 1.5670271 -0.0020308623
0.34291962 1.5614145 -0.074120298
0.32971483 1.5627636 -0.14905287
0.3168171 1.5536338 -0.22224174
0.32021719 1.2833545 -0.20285925
0.29847538 1.4205261 -0.32628337
0.27708805 1.4334302 -0.44766024
0.26593804 1.3987609 -0.51092392
0.25426415 1.3697916 -0.57716382
0.2352397 1.4103891 -0.68515545
0.35511911 0.18085317 -0.0041361921
0.35534182 0.13297661 -0.0028030931
0.35519344 0.092320651 -0.0035778887
0.35521877 0.053896997 -0.003366061
0.35491747 0.020650096 -0.0050094719
0.35576692 -0.017098825 -0.00011665657
0.35498127 -0.042771913 -0.0045112339
0.35492882 -0.070878603 -0.0047414084
0.35472342 -0.096547507 -0.0058402889
0.35357317 -0.12884735 -0.01227225
0.35358265 -0.15249333 -0.012150758
0.35392797 -0.1762601 -0.010121481
0.35372192 -0.19692139 -0.011224304
0.35382292 -0.21779171 -0.010583038
0.35423586 -0.23874156 -0.0081697442
0.35417858 -0.25752625 -0.0084274365
