# .PCD v0.7 - Point Cloud Data file format
VERSION 0.7
FIELDS x y z
SIZE 4 4 4
TYPE F F F
COUNT 1 1 1
WIDTH 1379
HEIGHT 1
VIEWPOINT 0 0 0 1 0 0 0
POINTS 1379
DATA ascii
-0.035382997 -0.31569558 0.64408082
-0.034885336 -0.30220473 0.64699715
-0.033396315 -0.2835221 0.65553832
-0.025277402 -0.1781116 0.70198172
-0.029223107 -0.17183393 0.67973638
-0.03011626 -0.16732349 0.67471617
-0.032448344 -0.15118335 0.6616267
-0.033351179 -0.13481648 0.65659988
-0.033917058 -0.11429248 0.65348572
0.11553078 1.6891904 1.5021336
0.084973 1.6047482 1.3289065
0.074742146 1.6699066 1.2709863
0.051394399 1.535164 1.1385931
0.039040666 1.5564624 1.0686153
0.025292207 1.5492837 0.99071616
0.012526552 1.5565428 0.91839665
-0.00038449434 1.5562497 0.84524959
-0.013244806 1.5512818 0.77238852
-0.031707108 1.5641267 0.66780156
-0.044340514 1.550657 0.59622449
-0.056658126 1.5455928 0.52644157
-0.068805367 1.5620426 0.45763272
-0.081095695 1.5650458 0.38800755
-0.093378231 1.561582 0.3184244
-0.10574759 1.5636261 0.24835081
-0.12449377 1.5664372 0.14215077
-0.13728042 1.5720001 0.069711909
-0.14990482 1.5670542 -0.0018101236
-0.16258667 1.5604765 -0.073658317
-0.17532729 1.5522276 -0.14584006
-0.1795892 1.391044 -0.16998237
-0.20021509 1.5183251 -0.2868427
-0.10626185 -0.057849262 0.24570115
-0.10672467 -0.087737747 0.24315377
-0.1076813 -0.1084566 0.23780869
-0.10903501 -0.12301915 0.2302136
-0.11043701 -0.13598402 0.22234517
-0.11307166 -0.14953649 0.20752926
-0.11495488 -0.15735251 0.19693333
-0.11711752 -0.16320774 0.18475337
-0.11971308 -0.16653934 0.1701189
-0.123266 -0.16469985 0.1500563
-0.15154399 -0.051738538 -0.010117562
-0.15163693 -0.079136893 -0.010564513
-0.15162869 -0.10542376 -0.010437091
-0.15153648 -0.13062066 -0.0098329652
-0.15151922 -0.15418172 -0.009653219
-0.15160307 -0.1762276 -0.010046438
-0.15151481 -0.19791876 -0.0094631519
-0.15125884 -0.21921332 -0.0079284096
-0.15130407 -0.23870859 -0.0081013497
-0.1508925 -0.25876108 -0.0056834985
-0.15113185 -0.276411 -0.0069566155
-0.15159166 -0.30189365 -0.0094371736
-0.15170264 -0.31885096 -0.0099815717
-0.15170197 -0.33565032 -0.0098925373
-0.15159169 -0.35226771 -0.0091816857
-0.15154387 -0.36847177 -0.0088247554
-0.1515643 -0.38434255 -0.0088546854
-0.15165769 -0.39996207 -0.0092982082
-0.15148224 -0.41562307 -0.00821683
-0.15164587 -0.43863973 -0.0090148421
-0.15175423 -0.45395336 -0.0095425453
-0.1517736 -0.46161485 -0.0096089132
-0.15186587 -0.4846423 -0.010001419
-0.15169545 -0.49996287 -0.0089474283
-0.15177701 -0.51548034 -0.0093224579
-0.15193439 -0.53122717 -0.010127064
-0.15216357 -0.54728675 -0.011338801
-0.15180916 -0.57096201 -0.0091965636
-0.15211743 -0.58785492 -0.010856363
-0.15181708 -0.60406971 -0.009064354
-0.15239188 -0.6223619 -0.01223521
-0.15251395 -0.64029956 -0.012838362
-0.15915032 -0.68559688 -0.050339416
-0.15218766 -0.6858831 -0.01076416
-0.1527725 -0.7074098 -0.013990932
-0.15288948 -0.72840077 -0.014564076
-0.15196705 -0.75742418 -0.0091971792
-0.15267308 -0.78312916 -0.013110088
-0.15247306 -0.80638093 -0.011884443
-0.15155055 -0.82735682 -0.0065613766
-0.15239947 -0.90213734 -0.011144365
-0.15289767 -0.93698925 -0.013876138
-0.15351863 -0.97556609 -0.017303374
-0.32599124 -2.371871 -0.99508315
-0.32763106 -2.5307117 -1.0042657
-0.32735044 -2.6898808 -1.0025555
-0.33097938 -2.9044578 -1.0230081
-0.32297483 -3.1350992 -0.97742993
-0.3233963 -3.380816 -0.97968268
-0.32578439 -3.690001 -0.99307656
-0.32678509 -4.0330424 -0.99859399
-0.32735458 -4.4345503 -1.0016528
-0.31420609 -4.9427786 -0.92683744
-0.2786465 -9.9363928 -0.72365165
-0.19453661 -10.167884 -0.24639949
-0.13839136 -10.631413 0.0722422
-0.076749735 -10.705641 0.42197683
0.049968544 -10.902205 1.1409384
0.23999946 -10.809163 2.2187572
0.23474769 -4.8992891 2.1880093
0.41167521 -6.2276368 3.1917014
0.41795912 -5.8187194 3.2273147
0.43215275 -5.5367928 3.3078091
0.41411653 -4.9845161 3.2054889
0.44478154 -4.7501521 3.3794343
0.44119358 -4.4191289 3.3590937
0.43568379 -4.1051483 3.3278601
0.40903744 -3.6792023 3.1767497
0.4414947 -3.6615641 3.3608723
0.43269527 -3.3949668 3.3109984
0.435031 -3.1149926 3.3243046
0.43110564 -2.9154088 3.3020852
0.43047053 -2.74353 3.2985296
0.43133861 -2.5873213 3.3035023
0.40417144 -2.329581 3.1494794
0.43536243 -2.3044219 3.3264284
0.42365173 -2.1253874 3.2600698
0.41946751 -1.9810958 3.2363985
0.41999045 -1.7956702 3.239455
0.41753161 -1.6700268 3.2255731
0.41546407 -1.5498906 3.2139118
0.41419524 -1.4353342 3.2067819
0.41281071 -1.3237971 3.198997
0.41504171 -1.2207444 3.2117171
0.41645399 -1.1176205 3.2197955
0.37417895 -0.91977763 2.9801588
0.41983092 -0.863823 3.2391243
0.41262689 -0.75812161 3.1983435
0.4070099 -0.65671539 3.1665637
0.40111566 -0.55799627 3.133213
0.39861646 -0.46188226 3.1191165
-0.019678438 -0.42120624 0.74723911
-0.020486603 -0.41019952 0.74273372
-0.02067597 -0.3986994 0.74173766
-0.032129753 -0.39730915 0.67689973
-0.033680346 -0.39488426 0.66814518
-0.03581892 -0.37063298 0.65625137
-0.036729038 -0.36319369 0.65116823
-0.036881782 -0.3587535 0.65034115
-0.037583098 -0.3458899 0.64648157
-0.037714906 -0.3360917 0.64581263
-0.037620455 -0.32517236 0.64642698
-0.037320256 -0.31297114 0.64820838
-0.037060812 -0.29413894 0.64979839
-0.02939979 -0.17680328 0.69364822
-0.03175018 -0.17109093 0.68039852
-0.034255613 -0.15624082 0.66631025
-0.035415187 -0.14220434 0.65981501
-0.036095884 -0.1233484 0.65603626
-0.037996113 -0.11360887 0.64534044
0.12105484 1.6864668 1.5477972
0.098079875 1.7043434 1.4176414
0.083472751 1.7198721 1.3348954
0.0550799 1.5249505 1.1739339
0.042321622 1.5399612 1.1016717
0.029137542 1.544633 1.026993
0.016313536 1.552268 0.95435697
0.0035666497 1.5581888 0.88215792
-0.0096339025 1.5467362 0.80738276
-0.028293269 1.5525427 0.70169771
-0.040799674 1.5472788 0.63086009
-0.052940052 1.5594162 0.56210196
-0.065273441 1.5541296 0.49224547
-0.07751298 1.5623653 0.42292416
-0.089812987 1.5641376 0.35325855
-0.10812393 1.5506961 0.24954487
-0.12067625 1.5602065 0.17845014
-0.13308142 1.5562445 0.10818662
-0.14612079 1.5684102 0.034330599
-0.15878768 1.5631533 -0.037417665
-0.17115891 1.5485113 -0.10749164
-0.17649165 1.4003482 -0.13768645
-0.19365647 1.3736526 -0.2349062
-0.10876916 -0.077341311 0.24628738
-0.10967322 -0.099866562 0.24123295
-0.11189534 -0.12039975 0.22874358
-0.11221533 -0.13074695 0.22696519
-0.11383472 -0.14124033 0.21785718
-0.11556868 -0.1503336 0.20809981
-0.11847315 -0.16137743 0.19174302
-0.1208397 -0.16591488 0.17839941
-0.12389752 -0.16657764 0.16113687
-0.15408178 -0.066131696 -0.0097686313
-0.15405026 -0.093270466 -0.0095203528
-0.15405935 -0.11866418 -0.0095019992
-0.15413718 -0.14242004 -0.0098731881
-0.15387832 -0.1663336 -0.0083352504
-0.15386704 -0.18814901 -0.0082007768
-0.15383647 -0.20908721 -0.0079569565
-0.15380007 -0.22919865 -0.0076797879
-0.15377036 -0.24853858 -0.0074405577
-0.15360039 -0.26757354 -0.0064060227
-0.15430662 -0.29279497 -0.010304044
-0.15414654 -0.31052262 -0.0093254894
-0.15403208 -0.32767993 -0.0086056069
-0.15413918 -0.34408212 -0.0091420375
-0.1538025 -0.36080796 -0.0071620909
-0.15403898 -0.37648493 -0.008432338
-0.15400666 -0.39228514 -0.0081783552
-0.15427862 -0.43089226 -0.0095443232
-0.15408383 -0.44629911 -0.0083693527
-0.15428278 -0.47690555 -0.0093573937
-0.15415616 -0.49220771 -0.0085695414
-0.15431301 -0.52323794 -0.0093200263
-0.1541785 -0.54668492 -0.0084534204
-0.15466468 -0.57960504 -0.011073717
-0.15457951 -0.5960744 -0.010522431
-0.15553622 -0.61492532 -0.015881265
-0.15522057 -0.63180757 -0.01402361
-0.15453823 -0.65722334 -0.01005294
-0.15487891 -0.67682284 -0.011919254
-0.15522633 -0.69725698 -0.01382438
-0.15586837 -0.71958172 -0.0174016
-0.15518278 -0.74915135 -0.013416076
-0.15568066 -0.77360708 -0.016177433
-0.15500243 -0.79438549 -0.012267297
-0.15389529 -0.81400174 -0.0059241834
-0.15447672 -0.8427521 -0.0091626309
-0.154797 -0.88671231 -0.010891661
-0.15700889 -0.93058938 -0.023386128
-0.32973897 -2.3148687 -1.0035647
-0.33009163 -2.4573119 -1.0055834
-0.32978567 -2.6086738 -1.0038739
-0.33308601 -2.8097095 -1.0226485
-0.32578951 -3.0328505 -0.98131096
-0.32723168 -3.2752657 -0.98957831
-0.32953426 -3.5646632 -1.0027575
-0.32908216 -3.8645716 -1.0003244
-0.32981449 -4.2359304 -1.0046573
-0.32008752 -4.7488332 -0.94974244
-0.31579652 -5.2341371 -0.92567176
-0.27065647 -9.5075665 -0.67234844
-0.22618544 -10.2342 -0.42061526
-0.0466359 -10.70409 0.59738451
0.016974211 -10.86142 0.95803928
0.080255494 -10.857027 1.3169427
0.14229867 -10.778302 1.6687572
0.20633468 -10.788102 2.0319633
0.24791774 -4.8885579 2.2725737
0.40599349 -6.4417758 3.1679506
0.41642082 -6.0530305 3.227442
0.41685739 -5.6064782 3.2303193
0.43544471 -5.3864036 3.3359632
0.44126162 -4.8989911 3.3694217
0.43859366 -4.5604606 3.3546169
0.43912563 -4.2775292 3.3579183
0.39779055 -3.731431 3.1239884
0.42787263 -3.7013423 3.2946818
0.43027258 -3.49687 3.3085201
0.43246752 -3.207021 3.3212986
0.42739341 -2.9956744 3.2927582
0.42715818 -2.8212967 3.2916317
0.42905235 -2.6658225 3.3025677
0.42570856 -2.4964495 3.2838099
0.41861969 -2.3224561 3.2438178
0.42569578 -2.2079535 3.2841108
0.41892815 -2.0511758 3.2459283
0.41906866 -1.8608125 3.2469871
0.41595119 -1.7309866 3.2294855
0.41139778 -1.6030171 3.2038395
0.4112975 -1.4897362 3.2034364
0.41142094 -1.3797463 3.2042999
0.41114968 -1.2715127 3.2029243
0.41508999 -1.1190509 3.225507
0.41005117 -1.0095874 3.1970959
0.37307942 -0.87445807 2.9876113
0.41337413 -0.81027091 3.2162559
0.3966482 -0.70172244 3.1215668
0.40298903 -0.60750782 3.1576803
0.39782232 -0.50991744 3.1285367
0.39606091 -0.4141725 3.1187038
-0.022630768 -0.41574132 0.7445367
-0.023319243 -0.39889187 0.7407642
-0.033592064 -0.3958582 0.68262661
-0.035650726 -0.39410779 0.67099255
-0.037172657 -0.38255018 0.66248924
-0.038620241 -0.37134886 0.65440726
-0.039047524 -0.36280236 0.65207005
-0.039528817 -0.35431197 0.64942652
-0.040121697 -0.34100246 0.64619362
-0.040550616 -0.32671642 0.64389151
-0.040089741 -0.31963834 0.6465506
-0.040035088 -0.30220255 0.6469937
-0.039372571 -0.28065282 0.65088767
-0.030577218 -0.16889226 0.70117903
-0.033789877 -0.16811913 0.68303967
-0.035834998 -0.16060449 0.67152733
-0.037167259 -0.14803079 0.66406208
-0.038191237 -0.13238846 0.6583479
-0.038675085 -0.11097516 0.65570194
0.10357086 1.7061329 1.4643102
0.08106418 1.6220546 1.3366818
0.066825241 1.6318487 1.2560234
0.04626501 1.5370082 1.1394235
0.033307604 1.5478733 1.0660336
0.019896403 1.546376 0.99005932
0.0073135179 1.5574946 0.91879368
-0.011611462 1.5683274 0.81160289
-0.02448586 1.5621048 0.73866868
-0.036968924 1.5641267 0.66796112
-0.04943803 1.5616202 0.59732866
-0.061859325 1.5525934 0.52696145
-0.074092604 1.5550591 0.45767096
-0.086323507 1.5520681 0.38838896
-0.10473561 1.5554625 0.28410032
-0.11712344 1.5582707 0.21393378
-0.1295988 1.5595425 0.14326943
-0.14231549 1.564164 0.071239628
-0.15507478 1.5641675 -0.0010359343
-0.16786642 1.560529 -0.073498428
-0.17950399 1.5301753 -0.13944079
-0.18421023 1.3796897 -0.16618706
-0.11238837 -0.063737348 0.24005401
-0.11161332 -0.090405077 0.24446405
-0.11263218 -0.11019314 0.23874687
-0.11499503 -0.12816654 0.22544917
-0.11545391 -0.13680188 0.22287826
-0.1171222 -0.1465688 0.21348745
-0.11995413 -0.15811956 0.19753538
-0.1221102 -0.16395262 0.18538201
-0.12481362 -0.16650616 0.1701276
-0.12872122 -0.16247112 0.14805056
-0.15652806 -0.052375861 -0.0093786009
-0.15661262 -0.079748467 -0.0098049631
-0.15646115 -0.1066382 -0.0088924831
-0.15635726 -0.13178036 -0.0082481876
-0.15647112 -0.15471146 -0.0088367574
-0.1564019 -0.17727332 -0.0083868494
-0.15645215 -0.19839039 -0.0086130463
-0.15618913 -0.21965502 -0.0070630061
-0.1568962 -0.24677263 -0.01098062
-0.15596692 -0.25871837 -0.0056828302
-0.15659714 -0.28438574 -0.009163361
-0.15665688 -0.30185118 -0.0094402917
-0.1564337 -0.31942692 -0.008113062
-0.1565927 -0.33588398 -0.0089519983
-0.15647705 -0.35246789 -0.0082337232
-0.15642408 -0.36863819 -0.0078704758
-0.15643957 -0.38447487 -0.0078952322
-0.15636413 -0.40795219 -0.0073726475
-0.1565209 -0.41558206 -0.0082299411
-0.15667874 -0.43859896 -0.0090299761
-0.15643592 -0.4539479 -0.0075896946
-0.15679477 -0.46923593 -0.0095614139
-0.15671347 -0.48454985 -0.0090371585
-0.15671238 -0.49992287 -0.00896795
-0.15696219 -0.51556224 -0.010321828
-0.15689714 -0.53902125 -0.0098590255
-0.15690231 -0.55492651 -0.009826079
-0.15697545 -0.57116467 -0.010178933
-0.15711071 -0.58781588 -0.010884604
-0.15688264 -0.63000703 -0.0094386199
-0.15710522 -0.64834338 -0.010641512
-0.15829803 -0.66992378 -0.017349932
-0.15823673 -0.68902224 -0.016943786
-0.1579131 -0.7392509 -0.014965358
-0.15691401 -0.75738698 -0.0092402995
-0.15789422 -0.78426731 -0.014749135
-0.15674451 -0.82860571 -0.008119599
-0.15750933 -0.87350041 -0.012387282
-0.15976204 -0.91624141 -0.025129626
-0.15827113 -0.93987811 -0.016622012
-0.1584093 -0.97552991 -0.017365592
-0.33249345 -2.3861566 -1.0059375
-0.33391067 -2.5445473 -1.0140682
-0.3341704 -2.7099192 -1.0156431
-0.32830605 -2.9322178 -0.98251313
-0.33052114 -3.1685631 -0.99525458
-0.33235481 -3.4346552 -1.0058659
-0.33251318 -3.7209744 -1.0069995
-0.33448222 -4.0820951 -1.0184833
-0.32119477 -4.4884157 -0.94346285
-0.32053849 -4.9857302 -0.94020951
-0.25349164 -9.990016 -0.56508708
-0.19784193 -10.202755 -0.24967393
-0.14185864 -10.749311 0.06726291
-0.079482116 -10.74563 0.42105913
-0.016793013 -10.799374 0.77656454
0.079074554 -10.897882 1.3202022
0.10994207 -10.839605 1.4952198
0.23824452 -10.839768 2.2231503
0.23218985 -4.9206843 2.1961184
0.40671575 -6.2142634 3.1847591
0.41151488 -5.7914553 3.2125549
0.44309458 -5.4815774 3.3921692
0.4218249 -4.918685 3.2722588
0.43811807 -4.7297821 3.3649814
0.43182099 -4.3801007 3.3297527
0.43092933 -4.1021447 3.3251019
0.4052006 -3.683075 3.179734
0.43375424 -3.6411881 3.3418286
0.43238303 -3.3177319 3.3345518
0.42712793 -3.0976923 3.305083
0.42385343 -2.902648 3.2868192
0.42378765 -2.7343891 3.2867243
0.42597118 -2.5844758 3.2993658
0.4008958 -2.3352611 3.1575084
0.42739186 -2.2928536 3.3079255
0.42292225 -2.0720308 3.2829514
0.41732481 -1.9256387 3.2514527
0.41515246 -1.7957542 3.2393615
0.41058826 -1.6650281 3.2137046
0.40895244 -1.5463864 3.2046423
0.40895274 -1.4347618 3.2048512
0.40637872 -1.321242 3.1904604
0.41077569 -1.1691009 3.2156892
0.41286117 -1.0674026 3.22771
0.37053284 -0.92123395 2.9878819
0.41325298 -0.86264163 3.2303159
0.40705907 -0.75787735 3.19538
0.40090224 -0.65636361 3.1606498
0.39602962 -0.55806148 3.1331987
0.3943814 -0.46194631 3.1240315
-0.024767976 -0.42120835 0.74722695
-0.025751956 -0.41035777 0.74174941
-0.025603816 -0.39851055 0.74269331
-0.037400063 -0.3975513 0.67593294
-0.039232396 -0.38622749 0.66569072
-0.040933724 -0.37063277 0.6562413
-0.041687664 -0.36280274 0.65206504
-0.041843526 -0.35834649 0.65123129
-0.042709026 -0.34588945 0.64647239
-0.042692877 -0.33560652 0.64666522
-0.043182492 -0.32122806 0.64403915
-0.042923387 -0.30899712 0.64561093
-0.042588502 -0.28953788 0.64766425
-0.034974903 -0.16912007 0.69139427
-0.037362959 -0.16354977 0.67794627
-0.038995642 -0.15313207 0.66878557
-0.040177852 -0.13900951 0.66218215
-0.041932084 -0.11594848 0.65238607
0.10938466 1.7087437 1.5120887
0.092432149 1.7007126 1.4160146
0.078052141 1.7189472 1.3345472
0.050305381 1.5333494 1.1771415
0.037610032 1.5503592 1.1052284
0.023655122 1.5417626 1.0261556
0.010895438 1.5503352 0.95387191
-0.0078645926 1.5670011 0.84760016
-0.021151135 1.5502932 0.7723127
-0.033516239 1.5565046 0.70226437
-0.046061818 1.5502633 0.63118511
-0.058398888 1.5474466 0.5612902
-0.070542954 1.5611268 0.49249876
-0.088971794 1.5650615 0.38809526
-0.10120817 1.5566074 0.31876752
-0.11345579 1.5526899 0.24937822
-0.12595399 1.5592152 0.17857285
-0.13870402 1.5680979 0.10633996
-0.15144724 1.5693921 0.034141544
-0.16352989 1.5495117 -0.03432104
-0.18228883 1.5340016 -0.14060938
-0.18799488 1.4005938 -0.1729586
-0.19827649 1.3633138 -0.23121318
-0.11573369 -0.036816895 0.2364879
-0.11495199 -0.083223775 0.2409914
-0.1158544 -0.10490485 0.23595423
-0.11696916 -0.12213324 0.2297149
-0.11837683 -0.13511601 0.2218162
-0.11996082 -0.14575045 0.21291849
-0.12166376 -0.15499553 0.20334682
-0.12372771 -0.16137987 0.19172873
-0.12710728 -0.16953774 0.17269334
-0.13016883 -0.17053007 0.15541896
-0.15888277 -0.039936136 -0.0072627193
-0.15908368 -0.06747593 -0.0083225062
-0.15891309 -0.095205195 -0.0072748065
-0.1590496 -0.11990213 -0.0079675345
-0.15898177 -0.14419045 -0.0075006466
-0.15900266 -0.16689998 -0.0075362199
-0.15884311 -0.18921642 -0.0065478408
-0.15956701 -0.21773559 -0.01052661
-0.15977588 -0.23686962 -0.011626241
-0.15946516 -0.27521673 -0.0096927211
-0.15959106 -0.2928043 -0.010320449
-0.15932216 -0.32768989 -0.0086214952
-0.1594321 -0.34409243 -0.0091576539
-0.15933783 -0.37649587 -0.0084473202
-0.15951492 -0.3999432 -0.0093192179
-0.15941511 -0.43097422 -0.0085756015
-0.15957031 -0.44627655 -0.0093668196
-0.15960234 -0.4769187 -0.0093696965
-0.15965237 -0.49229082 -0.0095637105
-0.15962417 -0.53105539 -0.0091786617
-0.15968439 -0.54689026 -0.0094298963
-0.16000758 -0.57962036 -0.011082121
-0.16009231 -0.59638238 -0.011471873
-0.16009234 -0.62200677 -0.011335534
-0.16005598 -0.63953763 -0.011038071
-0.16925648 -0.68123317 -0.063140415
-0.16024423 -0.67684007 -0.011923031
-0.16018216 -0.70594418 -0.011433396
-0.16030851 -0.72684485 -0.012058225
-0.16056406 -0.74916977 -0.013415979
-0.16064021 -0.77190536 -0.01375572
-0.16067095 -0.79560804 -0.013837723
-0.15983132 -0.81653798 -0.00898181
-0.16013959 -0.85772669 -0.010591525
-0.16095673 -0.89090008 -0.015134203
-0.16134046 -0.92413676 -0.017217917
-0.33652142 -2.3243818 -1.0107664
-0.33673224 -2.4662688 -1.0118676
-0.33105829 -2.6538129 -0.97953397
-0.33293447 -2.8487387 -0.99007982
-0.3332366 -3.0521517 -0.99169427
-0.33593127 -3.3100755 -1.0068802
-0.33798358 -3.5991647 -1.0184193
-0.33783445 -3.9060569 -1.0174669
-0.32819411 -4.3255486 -0.96261203
-0.33014312 -4.8240285 -0.97355211
-0.32339969 -5.2688055 -0.9351756
-0.28077683 -9.6803246 -0.69267488
-0.23152712 -10.15455 -0.41311654
-0.17680003 -10.623653 -0.10247872
-0.11565511 -10.784052 0.24455692
0.039609876 -10.680734 1.1257553
0.13719 -10.859639 1.679325
0.19946656 -10.788033 2.0327013
0.23891523 -4.849813 2.2567439
0.39929035 -6.438024 3.1667368
0.41713464 -5.8963804 3.2680643
0.43506631 -5.2516198 3.3699241
0.4470621 -5.0016589 3.4380474
0.42770913 -4.5231066 3.3283134
0.42431289 -4.2135592 3.3091125
0.39127052 -3.72824 3.1217167
0.42260355 -3.7064092 3.2995546
0.43074805 -3.4302762 3.3458693
0.42606333 -3.2048373 3.3193634
0.42061201 -2.9916015 3.2885089
0.42024004 -2.8167548 3.2864723
0.41935399 -2.6494348 3.2815199
0.41181278 -2.4641893 3.2388105
0.41736907 -2.3397515 3.2704082
0.42229891 -2.1478381 3.2984898
0.41609931 -1.9955992 3.2633932
0.41150054 -1.855854 3.2373791
0.407738 -1.7247493 3.2161093
0.405581 -1.602883 3.2039483
0.4032113 -1.4848125 3.1905808
0.40216544 -1.3731208 3.1847236
0.40707609 -1.2209479 3.2126975
0.40899512 -1.1184644 3.2236612
0.39033771 -0.99380028 3.1178906
0.36891243 -0.87574184 2.9964178
0.4069691 -0.80964625 3.2123959
0.38905022 -0.70063072 3.1108158
0.3967835 -0.6072163 3.1547639
0.39343333 -0.46182555 3.1358721
0.39191523 -0.36592108 3.1273358
-0.026113277 -0.42010269 0.75602233
-0.028301148 -0.41003588 0.74369204
-0.028833034 -0.3988829 0.74075615
-0.039072465 -0.4006933 0.68274921
-0.041160874 -0.39410242 0.67098337
-0.04268156 -0.38254523 0.66247904
-0.042874623 -0.37341231 0.66146547
-0.044414945 -0.36725205 0.6528089
-0.044708688 -0.35834166 0.65122414
-0.045723964 -0.34633881 0.64558691
-0.045626603 -0.34099823 0.64617997
-0.046054162 -0.32671228 0.64387667
-0.045890518 -0.31514442 0.64488637
-0.045536336 -0.3021982 0.64697683
-0.045008473 -0.28126383 0.65009302
-0.035461422 -0.16528837 0.70457256
-0.038811691 -0.16514029 0.68564814
-0.040762123 -0.15676861 0.67466438
-0.042222902 -0.1448734 0.66645807
-0.043161862 -0.12833835 0.66121155
-0.045039617 -0.10521761 0.65067941
-0.043928705 -0.065641724 0.65705955
0.097113788 1.6918026 1.457226
0.082389235 1.7070549 1.373769
0.053195991 1.5122836 1.2082527
0.041377135 1.5426781 1.1412785
0.028016582 1.5469505 1.0655608
0.0085585695 1.5561457 0.95529026
-0.0042836885 1.5601496 0.88251269
-0.017125756 1.559507 0.80973673
-0.029779114 1.5591519 0.73803115
-0.04209039 1.5681033 0.66826499
-0.054775998 1.5526569 0.59637815
-0.067057192 1.5525917 0.52678353
-0.08540269 1.5523632 0.42282426
-0.097648069 1.556138 0.353432
-0.10992708 1.5564446 0.28384927
-0.12235143 1.5612348 0.21344127
-0.1347428 1.558529 0.14322118
-0.1475376 1.5661062 0.070710808
-0.16037539 1.5680485 -0.0020428763
-0.17877875 1.543661 -0.10632861
-0.19022542 1.5112602 -0.17118549
-0.19557655 1.3793302 -0.20144579
-0.11747767 -0.068287075 0.24209118
-0.11804403 -0.095420755 0.23896386
-0.11801539 -0.11109424 0.23916957
-0.12028386 -0.12989984 0.22642528
-0.12181454 -0.14125085 0.21782471
-0.12354902 -0.15034457 0.20806757
-0.12542644 -0.15814014 0.19749929
-0.12769234 -0.16319673 0.18472649
-0.13040023 -0.16577362 0.16944574
-0.13545999 -0.16524982 0.1408622
-0.16192727 -0.080437452 -0.0091079492
-0.16585529 -0.1014443 -0.031267755
-0.16167468 -0.13241504 -0.007503367
-0.16257712 -0.18551961 -0.012410589
-0.16151132 -0.22017278 -0.0062355101
-0.16206361 -0.24768266 -0.0092418138
-0.16205974 -0.26637423 -0.0091349641
-0.16208464 -0.28441891 -0.009191406
-0.16198501 -0.30222648 -0.0085413447
-0.16192883 -0.31946009 -0.0081379199
-0.16192451 -0.33619294 -0.0080287419
-0.16176027 -0.36887941 -0.0069275601
-0.16217861 -0.392151 -0.0091741979
-0.16217268 -0.42325941 -0.0089713186
-0.16220038 -0.43863246 -0.0090438761
-0.16214983 -0.46925214 -0.0085877394
-0.16224566 -0.48458344 -0.0090467418
-0.16155645 -0.49960813 -0.0050517591
-0.16216193 -0.52312255 -0.0083598392
-0.16227096 -0.53888142 -0.0088935634
-0.16160184 -0.55392104 -0.0050124256
-0.16269612 -0.5714404 -0.011135834
-0.1626668 -0.5878498 -0.010884334
-0.1626108 -0.63039929 -0.01035364
-0.16267551 -0.64837742 -0.010635345
-0.16324338 -0.66826808 -0.013771428
-0.1631972 -0.68724108 -0.013423697
-0.16392137 -0.71960753 -0.017403165
-0.16350418 -0.73928541 -0.014950288
-0.16322953 -0.76021683 -0.013305741
-0.16349576 -0.78430188 -0.014729581
-0.16331477 -0.82032049 -0.013572407
-0.16163425 -0.83818638 -0.0039518983
-0.16313167 -0.87353492 -0.012358746
-0.16391954 -0.90779203 -0.01674003
-0.16414496 -0.94137567 -0.017930241
-0.33350545 -2.4193654 -0.97826529
-0.33491156 -2.5822217 -0.98612887
-0.3359175 -2.7597537 -0.99171877
-0.33627382 -2.9522324 -0.9936195
-0.33939466 -3.1995628 -1.0111946
-0.34094295 -3.4644127 -1.0198435
-0.33241072 -3.7956135 -0.97124195
-0.33467662 -4.1818619 -0.98393703
-0.32999021 -4.5301123 -0.95719308
-0.26452091 -10.182028 -0.58401519
-0.20510995 -10.175872 -0.24683839
-0.14942066 -10.719361 0.069337316
0.0060436488 -10.721591 0.95164776
0.070549957 -10.856987 1.3177682
0.10189671 -10.839542 1.4963216
0.16538163 -10.825876 1.8565986
0.23016481 -10.83966 2.2242484
0.2275047 -4.9493251 2.2080173
0.4033964 -6.0101209 3.2064674
0.41693589 -5.7025499 3.2832804
0.44238135 -5.540555 3.4276843
0.4181084 -4.945363 3.2898819
0.4301255 -4.7189684 3.3580794
0.42238748 -4.3583755 3.3141556
0.43265009 -4.0316043 3.3724105
0.40901881 -3.6372859 3.2383046
0.42999381 -3.5478046 3.3573637
0.4221527 -3.2960405 3.3128855
0.4191446 -3.0888405 3.2958405
0.41653052 -2.8973553 3.2810352
0.41647458 -2.7293148 3.2807505
0.41697952 -2.572571 3.2836511
0.40255854 -2.2945395 3.2018743
0.4245109 -2.2335691 3.3264856
0.4141292 -2.0631607 3.2676163
0.40944463 -1.9200505 3.2410777
0.40601343 -1.787163 3.2216532
0.40382841 -1.6629392 3.2093015
0.40318179 -1.5466115 3.2056804
0.40393355 -1.3814673 3.2100194
0.40319088 -1.2722068 3.2058554
0.40493003 -1.1689718 3.2157738
0.40737766 -1.0676901 3.2297125
0.36715025 -0.92355001 3.0015202
0.40730423 -0.86237645 3.2293992
0.40061721 -0.75733596 3.1915114
0.39534014 -0.60758811 3.1616509
0.39071402 -0.50991231 3.135458
0.3893171 -0.41388902 3.1275864
-0.030454589 -0.42131877 0.74624401
-0.031433262 -0.41050306 0.7407704
-0.031316254 -0.39283842 0.74155217
-0.043106157 -0.39306521 0.67478484
-0.044328898 -0.39026165 0.66788775
-0.0467076 -0.36650062 0.65463156
-0.047987249 -0.35030386 0.64753097
-0.04839332 -0.34146523 0.64530677
-0.048557866 -0.33164987 0.64445257
-0.048499785 -0.32069138 0.64486116
-0.048717223 -0.30448985 0.64374632
-0.048181731 -0.29013273 0.64686269
-0.039811127 -0.16545536 0.69473147
-0.042332184 -0.1605234 0.68050927
-0.043870226 -0.14923915 0.6718626
-0.045176513 -0.13580796 0.66453028
-0.047050793 -0.11345465 0.65401447
0.1037277 1.7034286 1.5092926
0.080791734 1.6209882 1.3792714
0.072674505 1.716211 1.3332804
0.045237206 1.535237 1.177745
0.032083649 1.5447047 1.1032017
0.012473809 1.5540887 0.99207193
-0.00040141234 1.5594547 0.91910923
-0.013507937 1.554297 0.84483689
-0.026021807 1.5601505 0.77392453
-0.038782101 1.5525512 0.70161742
-0.051137906 1.5552422 0.63160294
-0.063855544 1.5235099 0.55954355
-0.081831574 1.5650568 0.45767814
-0.094104394 1.5570638 0.38813755
-0.10635432 1.5556085 0.31872565
-0.1186243 1.5536845 0.24920028
-0.13114662 1.5611976 0.17824146
-0.14376988 1.5651307 0.1067111
-0.15662526 1.5703686 0.033863831
-0.17472184 1.5401289 -0.068667397
-0.1874333 1.5339942 -0.14069532
-0.19470859 1.4281677 -0.18186171
-0.20391333 1.3708235 -0.23398456
-0.12015127 -0.048693467 0.24167125
-0.12013856 -0.085021257 0.24183352
-0.1209494 -0.10755353 0.23732087
-0.12222186 -0.12299888 0.23018782
-0.12353196 -0.13681172 0.22284102
-0.12520209 -0.14657897 0.21345088
-0.12689917 -0.15580395 0.20390782
-0.12906384 -0.16137914 0.19171126
-0.13244133 -0.1695369 0.17267635
-0.13573763 -0.16906637 0.15405895
-0.16357124 -0.043410063 -0.0037416394
-0.16401076 -0.069483511 -0.0061468272
-0.16529205 -0.090062097 -0.013328426
-0.16409233 -0.12113302 -0.0064333063
-0.16525666 -0.15186177 -0.012907973
-0.16388875 -0.16857658 -0.0051031467
-0.16498284 -0.19686337 -0.011179901
-0.16488557 -0.21773362 -0.010541072
-0.16478525 -0.23777549 -0.009885205
-0.16462427 -0.27560461 -0.0087989522
-0.16458572 -0.29351795 -0.0084939711
-0.16376764 -0.3124826 -0.0037665996
-0.16447455 -0.32797849 -0.0076910458
-0.16458248 -0.34434715 -0.0082173822
-0.16458529 -0.36058903 -0.0081474921
-0.16473803 -0.38431838 -0.00888527
-0.16465946 -0.40007719 -0.0083537698
-0.16482852 -0.41549447 -0.0092272144
-0.16473038 -0.43096834 -0.0085848197
-0.16488491 -0.44627038 -0.0093758041
-0.16477303 -0.46159118 -0.0086555602
-0.16474201 -0.47687706 -0.008394042
-0.16504076 -0.50002646 -0.0099604791
-0.16494904 -0.51545691 -0.0093546119
-0.16493453 -0.53104746 -0.0091867382
-0.16533475 -0.5472635 -0.011371371
-0.16512267 -0.56304318 -0.010082859
-0.16531532 -0.57961148 -0.011089968
-0.16531698 -0.60466468 -0.010970917
-0.16507144 -0.62131321 -0.0094924103
-0.16552143 -0.63990223 -0.011959021
-0.16551998 -0.65804315 -0.01186498
-0.16585889 -0.67770606 -0.013701345
-0.16578697 -0.70690256 -0.013164213
-0.16590631 -0.72786343 -0.013754861
-0.16615452 -0.75024718 -0.015076308
-0.1660807 -0.77246684 -0.014571033
-0.16522582 -0.80451208 -0.0095921997
-0.16431411 -0.82540679 -0.004334284
-0.16582157 -0.85972089 -0.012796829
-0.1665007 -0.89227587 -0.016561091
-0.16534665 -0.93257987 -0.0098838899
-0.16599366 -0.97101659 -0.013464952
-0.34304991 -2.3330202 -1.0174565
-0.33867276 -2.5134726 -0.99247074
-0.33821291 -2.6697159 -0.98975194
-0.34017453 -2.8667064 -1.000762
-0.34188619 -3.0862277 -1.0103502
-0.34303728 -3.329643 -1.0167549
-0.33509552 -3.640635 -0.97152811
-0.33567932 -3.9727414 -0.97470033
-0.33667338 -4.3743758 -0.98018807
-0.33957019 -4.8953195 -0.99644905
-0.28995684 -9.8529902 -0.71374226
-0.2387744 -10.270079 -0.42326805
-0.18236323 -10.632619 -0.10314483
-0.0898396 -10.637626 0.42179847
-0.028141249 -10.640456 0.77184963
0.035763584 -10.810424 1.1344432
0.13441133 -10.98373 1.6940767
0.19859922 -10.95301 2.0581701
0.40389061 -6.2914801 3.2222464
0.41193864 -5.89645 3.2678993
0.41848731 -5.1465297 3.3050692
0.42617434 -4.8674226 3.3486979
0.41806257 -4.4875813 3.3027101
0.42739066 -4.140151 3.3556781
0.39446288 -3.6701717 3.1689355
0.4314771 -3.6813419 3.3789442
0.42267174 -3.4133821 3.3290453
0.41788965 -3.1885459 3.3019719
0.41116485 -2.970027 3.2638824
0.41093755 -2.7973216 3.2626514
0.41243443 -2.6416893 3.271203
0.39167032 -2.3324046 3.1535203
0.42095748 -2.3002117 3.3197081
0.41553679 -2.1424193 3.2890289
0.40792578 -1.9862896 3.245928
0.40436488 -1.8502356 3.2258015
0.40231419 -1.7240173 3.2142427
0.40271741 -1.5509949 3.2166421
0.40473658 -1.4428533 3.2281716
0.40140134 -1.3270431 3.209332
0.40079775 -1.2192199 3.2059875
0.40304509 -1.1174247 3.2188153
0.36631191 -0.97269195 3.0105436
0.37786177 -0.88865691 3.0761385
0.40041769 -0.75877887 3.2042053
0.38025439 -0.65129542 3.0899231
0.38821599 -0.55809498 3.1351702
0.3872782 -0.46191201 3.12994
0.38489106 -0.36639127 3.1164901
-0.032499455 -0.42095685 0.74917024
-0.033481076 -0.41003731 0.7436828
-0.03384237 -0.39869359 0.74171424
-0.044620402 -0.39633521 0.68069834
-0.046509311 -0.39436007 0.67002398
-0.047621787 -0.38680524 0.66379422
-0.048707545 -0.37477872 0.65775657
-0.049434245 -0.36687598 0.65371531
-0.050215069 -0.35430601 0.64940786
-0.050749298 -0.34588319 0.64645875
-0.051033422 -0.33656979 0.64492863
-0.051085301 -0.32619566 0.64471626
-0.051383588 -0.3106685 0.64314741
-0.050574224 -0.30162328 0.6477803
-0.050325695 -0.2818782 0.64931464
-0.039680596 -0.15953554 0.71004993
-0.043415096 -0.16142547 0.6889475
-0.045500569 -0.15370485 0.67720151
-0.047859803 -0.1366087 0.66394615
-0.04897381 -0.12088545 0.65771341
-0.050227676 -0.10521698 0.65068752
-0.049119111 -0.065641418 0.65706998
0.092505969 1.6998563 1.4612186
0.077019967 1.7061096 1.3734769
0.049009316 1.5280205 1.2146255
0.029977234 1.555087 1.1068237
0.017057247 1.5666267 1.0336382
0.0032025534 1.5551661 0.95514208
-0.0097168665 1.5572159 0.88195628
-0.022512756 1.5575365 0.80947053
-0.035050444 1.5611233 0.73845088
-0.047611386 1.5591694 0.66729701
-0.066239238 1.5544344 0.56177688
-0.078456976 1.5631313 0.49257469
-0.090749361 1.5563735 0.42294222
-0.10306703 1.5671449 0.35317448
-0.11538105 1.5644423 0.28342134
-0.12773168 1.56225 0.21346085
-0.14040032 1.5704365 0.14170171
-0.1590862 1.5605705 0.035850927
-0.1714697 1.5495267 -0.034300167
-0.18407206 1.5417653 -0.10569101
-0.19484791 1.4969549 -0.16674109
-0.20055486 1.3727528 -0.19908281
-0.12223943 -0.073705658 0.24460562
-0.12300681 -0.098074213 0.24032108
-0.12402447 -0.11700398 0.23461972
-0.12539023 -0.13073659 0.22694662
-0.12691468 -0.14206864 0.21837464
-0.12854367 -0.15196154 0.20921032
-0.13061976 -0.15811802 0.19751219
-0.13277613 -0.16395113 0.18535893
-0.13660622 -0.16953944 0.16375291
-0.14125776 -0.16162743 0.13745549
-0.16648351 -0.08368472 -0.0053708018
-0.16631055 -0.11041394 -0.004325273
-0.16759101 -0.14123075 -0.011485759
-0.16733843 -0.16520157 -0.009987752
-0.16748042 -0.18654551 -0.010726299
-0.16727716 -0.22824621 -0.0094398847
-0.16725241 -0.24764839 -0.0092322854
-0.16708706 -0.26674667 -0.0082272179
-0.16694579 -0.28513384 -0.0073584928
-0.16716538 -0.30219194 -0.0085358955
-0.16694126 -0.31973457 -0.0071971943
-0.16693243 -0.33643395 -0.0070792763
-0.16720524 -0.37647206 -0.0084567098
-0.16734399 -0.3921158 -0.0091757812
-0.16704144 -0.40795031 -0.0073922644
-0.1673325 -0.423224 -0.0089754481
-0.1673574 -0.43859693 -0.0090492843
-0.16730659 -0.46157232 -0.0086603165
-0.1673011 -0.46921644 -0.0085957441
-0.16749209 -0.49226487 -0.009578946
-0.16744447 -0.50766903 -0.0092424685
-0.16747467 -0.52322555 -0.0093477834
-0.16775063 -0.53919232 -0.010847442
-0.16792497 -0.55533952 -0.011771177
-0.1676566 -0.57933408 -0.010151566
-0.16757247 -0.59577 -0.0096101072
-0.16787367 -0.61328584 -0.011255237
-0.16805395 -0.6310789 -0.012215132
-0.16795057 -0.64873105 -0.011566221
-0.16819738 -0.66780829 -0.01290499
-0.16822782 -0.69677567 -0.012986878
-0.16827048 -0.71707028 -0.013169535
-0.16889475 -0.74030727 -0.016653873
-0.16769455 -0.76900744 -0.0097571192
-0.16787551 -0.79317033 -0.010728714
-0.16812357 -0.81902403 -0.012082773
-0.16801752 -0.84470844 -0.011428557
-0.16857916 -0.87554246 -0.014566466
-0.16786207 -0.91691196 -0.010424268
-0.16808566 -0.95130205 -0.011649322
-0.34068123 -2.4378691 -0.99177104
-0.34155205 -2.5978694 -0.99680048
-0.34187362 -2.770674 -0.99872947
-0.34298924 -2.9720454 -1.0051928
-0.34544969 -3.2144661 -1.0193273
-0.33803406 -3.5093539 -0.97747499
-0.33911979 -3.8249643 -0.98389471
-0.33994612 -4.193893 -0.98890227
-0.3396205 -4.617938 -0.98743802
-0.34055457 -5.161675 -0.99324828
-0.31461635 -9.6511421 -0.85071665
-0.26672208 -10.129239 -0.57957685
-0.20085657 -9.5603237 -0.20538613
-0.12104595 -10.636052 0.24611749
-0.058932237 -10.774079 0.59825802
0.0030744043 -10.711632 0.95001042
0.06726712 -10.826158 1.3139648
0.098865286 -10.818723 1.4929888
0.16049457 -10.734859 1.8428355
0.29990345 -8.8558197 2.6362872
0.23435895 -4.881217 2.2693801
0.39559656 -5.9648504 3.1830626
0.41452554 -5.7175975 3.2908196
0.42274061 -5.3898683 3.3378828
0.41721454 -4.9732175 3.3070877
0.42007342 -4.6699944 3.3237309
0.42759222 -4.2893825 3.3669345
0.40485284 -3.8701286 3.2384791
0.41470212 -3.7013721 3.2946205
0.42034811 -3.5163238 3.3269324
0.41488683 -3.2802315 3.2962863
0.41083401 -3.0689316 3.2736015
0.40952292 -2.8853064 3.2664378
0.41596341 -2.6664493 3.3033195
0.41773918 -2.5176992 3.3136241
0.40086347 -2.3055913 3.2181888
0.41498062 -2.2167325 3.298435
0.40628555 -2.0531361 3.2493513
0.40290469 -1.9147574 3.2303846
0.39878526 -1.780553 3.2072225
0.40135747 -1.6105286 3.2220857
0.39950332 -1.4928316 3.2117512
0.39914751 -1.3816165 3.2099078
0.39805126 -1.2718029 3.2038608
0.40010673 -1.1691189 3.2156818
0.4020282 -1.0672128 3.2267399
0.35868427 -0.92003381 2.981086
0.40157083 -0.86182445 3.2244585
0.39584267 -0.70801568 3.1921961
0.39042392 -0.6077261 3.1616085
0.38769186 -0.51024115 3.1462548
0.38506567 -0.41395369 3.1314986
-0.035481896 -0.41545919 0.74647182
-0.03649525 -0.40470719 0.74080873
-0.036379706 -0.392845 0.74154896
-0.048339561 -0.39332694 0.67383099
-0.049625061 -0.38592988 0.6666218
-0.051485937 -0.37062719 0.65623081
-0.052076813 -0.36240646 0.65296125
-0.052717108 -0.35430658 0.64941108
-0.053308677 -0.34099686 0.64617813
-0.053884931 -0.32722557 0.64303172
-0.053421877 -0.32016236 0.64569968
-0.053644802 -0.30391699 0.64455748
-0.053113297 -0.28953168 0.64765459
-0.045100246 -0.15622318 0.6935665
-0.047774725 -0.15217182 0.67847323
-0.049477234 -0.14172019 0.66889453
-0.050741464 -0.12752756 0.66180241
-0.051737312 -0.11013889 0.65623283
0.09833625 1.7007216 1.5080541
0.073954687 1.6001155 1.3697947
0.063588195 1.6627978 1.3110578
0.034078497 1.5492349 1.1437385
0.020411434 1.5488354 1.0662708
0.0071451701 1.5502316 0.99107659
-0.0055363965 1.5594455 0.91919935
-0.018640161 1.5542907 0.8449257
-0.031211911 1.5581776 0.77367038
-0.049982015 1.5591733 0.667283
-0.062489688 1.5516671 0.59639007
-0.075044729 1.5206456 0.5252279
-0.086954571 1.5630655 0.45772687
-0.099214926 1.5560745 0.38823652
-0.11152811 1.5626121 0.31844634
-0.12388244 1.5636619 0.24842253
-0.14252302 1.5625181 0.14276783
-0.15515885 1.5641679 0.071146883
-0.16744152 1.5514541 0.0015299073
-0.1796876 1.5372434 -0.067879222
-0.19271268 1.5378666 -0.14170836
-0.19941582 1.4215386 -0.17966473
-0.12414248 -0.062382359 0.24769376
-0.12450214 -0.093095928 0.24573238
-0.12575181 -0.11018755 0.23872109
-0.12709393 -0.12471596 0.23118535
-0.12848441 -0.13764459 0.2233752
-0.13110164 -0.15113869 0.20864452
-0.13286899 -0.159712 0.19869637
-0.13501546 -0.16550225 0.18659729
-0.13759492 -0.16876596 0.17204152
-0.14101313 -0.16758695 0.15272696
-0.16974413 -0.05169227 -0.010130552
-0.16983756 -0.079090871 -0.010578584
-0.17320172 -0.089642905 -0.029584272
-0.1700152 -0.12937142 -0.011421843
-0.17057405 -0.15069458 -0.014509998
-0.1696595 -0.17672741 -0.0092381658
-0.169717 -0.19787414 -0.0094814682
-0.16976489 -0.21819927 -0.0096699484
-0.16935194 -0.23911867 -0.0072435122
-0.16925257 -0.25829473 -0.006596169
-0.16933453 -0.27636757 -0.0069772443
-0.16929109 -0.29421639 -0.0066467561
-0.16973996 -0.31911719 -0.0090666628
-0.16990437 -0.33560771 -0.009914618
-0.16962568 -0.35246745 -0.0082485769
-0.1695765 -0.3686378 -0.0078842165
-0.16976671 -0.38430083 -0.0088776946
-0.16968818 -0.40005985 -0.0083462661
-0.16968469 -0.41558191 -0.0082403133
-0.16975938 -0.43095133 -0.0085773794
-0.16978317 -0.45393035 -0.0085818181
-0.16979881 -0.4692187 -0.008582972
-0.16989526 -0.48455006 -0.0090421876
-0.16989841 -0.49992314 -0.0089717247
-0.1699802 -0.51544088 -0.0093468316
-0.16996633 -0.53103161 -0.0091788163
-0.17010407 -0.55492705 -0.009825197
-0.17001353 -0.57092351 -0.0092210295
-0.17032228 -0.5878166 -0.010880827
-0.17018768 -0.60434067 -0.010025411
-0.17043479 -0.62198222 -0.011334168
-0.1707208 -0.64026201 -0.012862661
-0.17087708 -0.65884191 -0.013654534
-0.17086111 -0.687208 -0.013420675
-0.17067912 -0.70640373 -0.012291992
-0.17095238 -0.72784948 -0.013743526
-0.17105716 -0.7496888 -0.01423847
-0.17074835 -0.78250581 -0.012336379
-0.17082767 -0.80696118 -0.012683241
-0.16963699 -0.82667917 -0.0058292844
-0.17018127 -0.87009257 -0.0087543866
-0.1706261 -0.90210295 -0.011165805
-0.17100939 -0.9362238 -0.013225469
-0.171525 -0.97402281 -0.016031617
-0.34437793 -2.3718147 -0.99510783
-0.34534258 -2.5249224 -1.0003339
-0.34606797 -2.692342 -1.0041853
-0.34774232 -2.8881183 -1.013388
-0.34074253 -3.1271009 -0.97328162
-0.34193698 -3.3807647 -0.97969234
-0.34309858 -3.6735072 -0.98587066
-0.3451665 -4.029284 -0.99711812
-0.34349963 -4.3940954 -0.9871605
-0.34641591 -4.9162292 -1.0030273
-0.29846457 -9.9452868 -0.72462821
-0.21646878 -10.348411 -0.25872108
-0.15783213 -10.573421 0.074379787
-0.096576221 -10.617617 0.422135
0.029412709 -10.850316 1.1375486
0.15593942 -10.815004 1.8550928
0.22673923 -11.02779 2.2568996
0.21556337 -4.8955736 2.186621
0.39760292 -6.2878566 3.2207456
0.39552972 -5.7825146 3.208477
0.41275495 -5.5333252 3.3059516
0.39313447 -4.9658532 3.1941094
0.42406264 -4.7354012 3.3693664
0.41699472 -4.3783889 3.3289621
0.41641834 -4.1020312 3.3254676
0.39039057 -3.6799479 3.1774728
0.42166623 -3.6549718 3.3549068
0.41360375 -3.3928344 3.3089826
0.41363958 -3.1009271 3.3090045
0.41244972 -2.9153953 3.3021493
0.41006076 -2.7355111 3.2885022
0.41216516 -2.584954 3.3003736
0.38559905 -2.3295643 3.1495306
0.41413692 -2.2948644 3.3114486
0.40494949 -2.1248686 3.2592652
0.39955479 -1.9768502 3.2286179
0.40147781 -1.7956488 3.2394962
0.39823467 -1.6680503 3.2210791
0.39665514 -1.5491505 3.2121089
0.39637887 -1.4366125 3.2105396
0.39418331 -1.3234794 3.198086
0.39558351 -1.2191646 3.2060387
0.39975154 -1.067716 3.2297063
0.35764456 -0.92166114 2.9908471
0.40003288 -0.862679 3.2313435
0.39455953 -0.75830007 3.2003205
0.38929892 -0.65696323 3.1705093
0.38549635 -0.55852371 3.1489735
0.38352668 -0.46185067 3.1378388
-0.037968617 -0.42119265 0.74723065
-0.038435668 -0.40987337 0.74467039
-0.038970049 -0.39868608 0.74172866
-0.050132055 -0.39202589 0.67859972
-0.051925771 -0.38533852 0.66851717
-0.05325149 -0.37830162 0.66108942
-0.053960316 -0.37026307 0.65716082
-0.054715205 -0.36240101 0.65297121
-0.055030208 -0.35833552 0.65123063
-0.055384822 -0.34942362 0.6493116
-0.056028109 -0.33608088 0.6458019
-0.056085017 -0.32567665 0.64557189
-0.056391235 -0.31010553 0.64397466
-0.056085296 -0.29706722 0.64580297
-0.055617742 -0.28248996 0.64854813
-0.045296934 -0.15155865 0.70750457
-0.048932407 -0.15297495 0.68698186
-0.051066734 -0.14535201 0.67497295
-0.052504886 -0.13261209 0.66691262
-0.053645525 -0.11678657 0.66053998
-0.056345407 -0.11360031 0.64532447
-0.055072594 -0.057215493 0.65268993
0.07966309 1.7034626 1.4171641
0.064990282 1.7180552 1.3340635
0.037847731 1.5417745 1.1802297
0.024644084 1.5513254 1.1054609
0.011285446 1.5542125 1.0298132
-0.0019153107 1.5551807 0.95506114
-0.014683867 1.5611249 0.88276124
-0.033932034 1.559166 0.77377027
-0.04638163 1.5644339 0.70328033
-0.058928322 1.5612079 0.63223886
-0.071411632 1.5524372 0.56155622
-0.083652698 1.5561303 0.49224958
-0.095908672 1.5573649 0.42285824
-0.1082072 1.5631354 0.35322666
-0.12672813 1.5636405 0.24836339
-0.13900323 1.5562276 0.17886244
-0.15176968 1.5661103 0.10657888
-0.16417699 1.5575978 0.036328029
-0.17678329 1.5524181 -0.035050746
-0.18922934 1.5407641 -0.10552236
-0.19736448 1.4462308 -0.15156876
-0.2170298 1.4516242 -0.26292169
-0.1265493 -0.085508183 0.25001419
-0.12772289 -0.10433208 0.24345043
-0.13017027 -0.12214321 0.22971128
-0.13048655 -0.1324729 0.22796285
-0.13209872 -0.14293 0.21891348
-0.13476671 -0.15581578 0.20392379
-0.13682708 -0.16217959 0.19233359
-0.13919199 -0.16669595 0.17901686
-0.14213207 -0.16808002 0.16243915
-0.1725595 -0.066155627 -0.0097879795
-0.17239754 -0.093937673 -0.008784431
-0.17240539 -0.11930474 -0.0087435497
-0.17262268 -0.14244537 -0.0098898942
-0.17236634 -0.16635932 -0.0083511062
-0.17250484 -0.18764517 -0.0090510137
-0.17232946 -0.20911382 -0.00797127
-0.17229548 -0.22922572 -0.0076933634
-0.17291005 -0.25622192 -0.011050241
-0.17225926 -0.26719469 -0.0073177894
-0.17264818 -0.29318219 -0.0093958843
-0.17281672 -0.3102262 -0.010267146
-0.17254031 -0.32770959 -0.0086154509
-0.17264961 -0.34411225 -0.0091512408
-0.17248431 -0.36061344 -0.0081301751
-0.17255372 -0.37651595 -0.0084402533
-0.172695 -0.39216012 -0.009158344
-0.17272598 -0.41552046 -0.0092099961
-0.17262721 -0.43099475 -0.0085676368
-0.17278109 -0.44629723 -0.0093586491
-0.1728421 -0.46161842 -0.0096232891
-0.17263661 -0.47690478 -0.0083769606
-0.17285849 -0.49231189 -0.0095550688
-0.17281307 -0.50771642 -0.0092175771
-0.17284542 -0.52327335 -0.0093218619
-0.17271321 -0.54672104 -0.0084542492
-0.17284185 -0.56284845 -0.0091063678
-0.17320205 -0.57964218 -0.011073142
-0.17311814 -0.59611201 -0.010521141
-0.17325512 -0.61333603 -0.011223255
-0.17324044 -0.63955992 -0.011029261
-0.17308046 -0.6572625 -0.010048991
-0.17310978 -0.67598593 -0.010144091
-0.17392288 -0.69776672 -0.014688343
-0.173961 -0.71812284 -0.014836264
-0.17343587 -0.74810362 -0.011756202
-0.173656 -0.77135497 -0.012941414
-0.17368503 -0.79502958 -0.013043977
-0.17419223 -0.8222248 -0.015863543
-0.17314865 -0.85708117 -0.0098534254
-0.17321366 -0.88606155 -0.010169256
-0.17386039 -0.92056417 -0.013792016
-0.1741776 -0.95581692 -0.015548039
-0.34734774 -2.3094592 -0.99925262
-0.34761375 -2.4509473 -1.0008787
-0.34878099 -2.6145849 -1.0076497
-0.35109964 -2.8072755 -1.0209948
-0.34471893 -3.0399561 -0.98503393
-0.34537542 -3.2744851 -0.98902392
-0.34676269 -3.5529935 -0.99722683
-0.34775788 -3.8720484 -1.0032719
-0.34801656 -4.2379112 -1.0052165
-0.33626845 -4.7166095 -0.93922436
-0.33390799 -5.2380929 -0.92656958
-0.29034987 -9.6247835 -0.68615675
-0.24261437 -10.189453 -0.41635272
-0.17732267 -9.508215 -0.045053054
-0.125157 -10.501116 0.24918252
-0.063519083 -10.734097 0.59831768
-0.00052873103 -10.801489 0.95538104
0.064113326 -10.907794 1.3217454
0.12507443 -10.768312 1.6680033
0.18987629 -10.808752 2.0356486
0.22870447 -4.872798 2.2662473
0.38843703 -6.4452248 3.1699071
0.39557546 -6.0198808 3.2111785
0.40495259 -5.4622154 3.265404
0.42604753 -5.2770066 3.3854525
0.42703184 -4.9319606 3.3916767
0.41622388 -4.5270967 3.3311019
0.41244131 -4.2150803 3.3102283
0.37848333 -3.724359 3.1184685
0.41095465 -3.7100699 3.3027658
0.42028457 -3.4408267 3.3562379
0.41369161 -3.2047813 3.3192935
0.40778628 -2.9895775 3.2862153
0.40829968 -2.8192163 3.2894738
0.40765998 -2.6529899 3.2861831
0.39880666 -2.4624133 3.2363398
0.4012593 -2.3266232 3.2505391
0.40461922 -2.199003 3.2698698
0.40308857 -1.9946034 3.2616146
0.40000817 -1.8593049 3.2444234
0.39543745 -1.7259136 3.2187748
0.39245021 -1.6020776 3.2020915
0.39249423 -1.4892032 3.2025828
0.39276719 -1.379555 3.2043662
0.39366859 -1.220114 3.2098207
0.39505109 -1.1170567 3.2178824
0.37618017 -0.99240905 3.1111052
0.35522783 -0.87506354 2.992512
0.39362168 -0.80934429 3.2104251
0.37791997 -0.70153415 3.1215942
0.38407812 -0.60726386 3.1567187
0.38098595 -0.50992 3.1393836
0.37932849 -0.3657594 3.1302798
-0.04137497 -0.4157365 0.74454433
-0.04187613 -0.40453315 0.7418009
-0.054286372 -0.3891674 0.6716941
-0.055594608 -0.38193324 0.66436851
-0.057341076 -0.3665089 0.65465194
-0.057800557 -0.35794091 0.65214086
-0.058129277 -0.35389099 0.65032363
-0.058728568 -0.34053466 0.64706701
-0.059313029 -0.32671806 0.64389449
-0.059297573 -0.31569466 0.64407843
-0.059084959 -0.30335078 0.64538157
-0.059097644 -0.28496286 0.645455
-0.050243773 -0.15325417 0.69621164
-0.05282731 -0.14834636 0.6816476
-0.054556288 -0.13778561 0.6719349
-0.055848047 -0.12348852 0.6647048
-0.059003547 -0.11109242 0.64694458
-0.057773761 -0.070788622 0.6540361
0.084627211 1.704404 1.4632849
0.068763584 1.7061574 1.3733826
0.039795201 1.5141498 1.209006
0.02807736 1.5464472 1.1426415
0.014423615 1.5460075 1.0652722
0.0012661612 1.5492898 0.99072033
-0.01782955 1.5601528 0.88252908
-0.030772327 1.5565635 0.80918944
-0.043247148 1.5621142 0.73851037
-0.055853013 1.5581754 0.66708124
-0.068327636 1.5526525 0.59639549
-0.080843896 1.5266212 0.52545947
-0.092831522 1.5580448 0.45756114
-0.11123696 1.5611237 0.35327858
-0.12356023 1.5624171 0.28345582
-0.13589552 1.5602254 0.21356276
-0.14830661 1.5585122 0.14324005
-0.16101368 1.5631329 0.071242787
-0.17325674 1.5494425 0.0018657873
-0.1858723 1.5439749 -0.069618523
-0.20491055 1.5322735 -0.17749843
-0.21535377 1.483312 -0.23668738
-0.12860152 -0.059377935 0.25459212
-0.12826753 -0.082517236 0.256515
-0.12949456 -0.10122183 0.2496291
-0.13102153 -0.11463943 0.24104531
-0.13361531 -0.12991343 0.22645226
-0.13505085 -0.14210331 0.2183883
-0.13668051 -0.15199693 0.20922478
-0.13854823 -0.1597517 0.19871241
-0.14080517 -0.16476561 0.18599409
-0.14350481 -0.16729799 0.17076629
-0.14752673 -0.16251011 0.1480428
-0.17494436 -0.054474816 -0.0072371163
-0.17515056 -0.08111354 -0.0083348574
-0.1751291 -0.10732032 -0.0081407884
-0.17502424 -0.13243487 -0.0074727037
-0.17485265 -0.15648501 -0.006425254
-0.17506737 -0.17787063 -0.0075671035
-0.17496824 -0.19947317 -0.0069287191
-0.17573446 -0.22736102 -0.011157382
-0.1755607 -0.24726383 -0.010094064
-0.17524092 -0.26680046 -0.0082020434
-0.17542344 -0.28443831 -0.0091577051
-0.1753228 -0.30224586 -0.0085072266
-0.17526576 -0.31947938 -0.008103379
-0.17542762 -0.33593649 -0.0089403931
-0.17548344 -0.35227835 -0.0091756945
-0.1750951 -0.36889845 -0.0068917144
-0.17545448 -0.38435352 -0.0088476678
-0.17555737 -0.40776062 -0.0093073249
-0.17550616 -0.4232783 -0.0089338357
-0.17536016 -0.43870366 -0.0080224508
-0.17546766 -0.45398259 -0.0085483659
-0.17565618 -0.46928826 -0.0095334807
-0.17557828 -0.48460212 -0.0090072658
-0.17575365 -0.50006223 -0.0099171568
-0.17549437 -0.52314103 -0.0083190333
-0.17560346 -0.5388999 -0.0088521885
-0.17578343 -0.55497873 -0.0097869998
-0.17569195 -0.57097507 -0.0091821123
-0.17599972 -0.58786815 -0.010841143
-0.17619434 -0.60501003 -0.011858214
-0.17594421 -0.63041741 -0.01030884
-0.17616905 -0.64878625 -0.011496412
-0.17610541 -0.66701847 -0.011047503
-0.17653167 -0.68725914 -0.013376681
-0.17695567 -0.70839387 -0.015692599
-0.17610341 -0.73665392 -0.010725318
-0.17656545 -0.76023471 -0.013255862
-0.17683226 -0.7843197 -0.014678746
-0.17717199 -0.81008989 -0.016514685
-0.1764133 -0.84542012 -0.012074837
-0.17608903 -0.87150663 -0.010143624
-0.17664479 -0.90427428 -0.013202395
-0.17760341 -0.94212461 -0.01854489
-0.17594551 -0.98406774 -0.0090010455
-0.35288158 -2.3950887 -1.0121797
-0.353881 -2.5504296 -1.0177236
-0.34820226 -2.7496266 -0.98532969
-0.34862271 -2.9418898 -0.9875772
-0.35140219 -3.184603 -1.0031922
-0.35182658 -3.4348035 -1.0054444
-0.35247272 -3.7266037 -1.008942
-0.34689611 -4.1641736 -0.97705382
-0.34294277 -4.5225964 -0.95443827
-0.2768392 -10.120403 -0.57724082
-0.22363254 -10.592876 -0.27517366
-0.16260998 -10.679399 0.071120851
-0.10068358 -10.676639 0.42251688
