# .PCD v0.7 - Point Cloud Data file format
VERSION 0.7
FIELDS x y z
SIZE 4 4 4
TYPE F F F
COUNT 1 1 1
WIDTH 1358
HEIGHT 1
VIEWPOINT 0 0 0 1 0 0 0
POINTS 1358
DATA ascii
-0.14842267 -0.29582703 0.28766626
-0.14598554 -0.29576686 0.28763914
-0.14349696 -0.29583225 0.28767812
-0.13603349 -0.29580486 0.28766885
-0.13143888 -0.29581419 0.28767732
-0.13074745 -0.29579109 0.28765166
-0.12616274 -0.29581401 0.28768066
-0.14799549 -0.29002652 0.287058
-0.13811685 -0.29001549 0.28705919
-0.12958705 -0.29004866 0.28708765
-0.12390778 -0.29007605 0.28711644
-0.11930151 -0.29006711 0.28708637
-0.11080985 -0.29003724 0.28708065
-0.10833239 -0.2900548 0.28709611
-0.10582 -0.29006851 0.28708261
-0.10159908 -0.29006013 0.28708875
-0.14834476 -0.28919548 0.28741083
-0.14509542 -0.28922844 0.28742847
-0.14262679 -0.28916737 0.28739452
-0.14012688 -0.28924984 0.28744435
-0.13343012 -0.2892046 0.28742135
-0.13022043 -0.28923458 0.28743067
-0.12420603 -0.28923619 0.28744599
-0.12026977 -0.28923571 0.28741786
-0.11959022 -0.28924733 0.28742498
-0.11357982 -0.28924608 0.28744766
-0.11105334 -0.28920707 0.28741583
-0.10863006 -0.28922674 0.2874403
-0.10610833 -0.28922236 0.28742191
-0.1036066 -0.28922135 0.28742519
-0.099346444 -0.28922635 0.2874305
-0.097583674 -0.28919211 0.28741491
-0.095135316 -0.2892648 0.28743935
-0.092641965 -0.28918529 0.28738618
-0.15104516 -0.28838852 0.28775924
-0.14857002 -0.28839412 0.28777805
-0.13543436 -0.2884137 0.28777546
-0.13045563 -0.28840688 0.28776988
-0.12443875 -0.28840694 0.28777796
-0.1205731 -0.28835762 0.28773755
-0.10637817 -0.28839275 0.28777137
-0.10392819 -0.28838342 0.28776309
-0.10142838 -0.28838134 0.28777364
-0.099638477 -0.28840986 0.28777564
-0.09787932 -0.28835088 0.28774649
-0.095380053 -0.28839874 0.28777221
-0.092966639 -0.28837439 0.28774565
-0.088316165 -0.28839135 0.2877689
-0.087533049 -0.28838298 0.28777379
-0.083616942 -0.28839618 0.28778347
-0.12036867 -0.28178734 0.2872754
-0.11644743 -0.28176379 0.28724518
-0.11113632 -0.28175858 0.28724185
-0.11041922 -0.28176624 0.28726
-0.10546076 -0.28176054 0.2872673
-0.1030424 -0.28176621 0.28726763
-0.10050838 -0.28176817 0.28725976
-0.092716657 -0.28175446 0.28726399
-0.090226814 -0.28180099 0.28727475
-0.087047681 -0.28175288 0.28725767
-0.0823377 -0.28172055 0.2872414
-0.08166115 -0.28173921 0.28724554
-0.079177551 -0.28177345 0.28727582
-0.076646589 -0.28177235 0.28723881
-0.072404213 -0.28178498 0.28727141
-0.068197876 -0.28176084 0.28725809
-0.064276107 -0.28176802 0.28725967
-0.061088566 -0.28175631 0.28726175
-0.12060671 -0.28094453 0.28758886
-0.11673574 -0.28088656 0.28755042
-0.11170508 -0.28006747 0.28787774
-0.11098372 -0.28004652 0.28787562
-0.10754267 -0.2809211 0.28759483
-0.098330215 -0.28091517 0.28758851
-0.096559271 -0.28092971 0.28758809
-0.087369993 -0.28089777 0.28756303
-0.082646623 -0.28090578 0.28757653
-0.076532058 -0.28009307 0.28789988
-0.073612399 -0.28064677 0.28771025
-0.068586767 -0.28049016 0.28773916
-0.065550126 -0.28010288 0.28789663
-0.064701214 -0.28050292 0.28773868
-0.061497264 -0.28050393 0.28773808
-0.059149321 -0.28007621 0.28790578
-0.058881536 -0.28094533 0.28759804
-0.05666757 -0.28011355 0.28791937
-0.054928437 -0.28005594 0.28789198
-0.052396916 -0.28013781 0.28791949
-0.049224306 -0.2800611 0.28790247
-0.085927576 -0.27348641 0.28713718
-0.083490483 -0.27340436 0.28709108
-0.053987529 -0.27346978 0.28713998
-0.049721502 -0.27343872 0.28711414
-0.042577323 -0.27342916 0.28710431
-0.04154392 -0.2734229 0.28711042
-0.040502109 -0.27343583 0.28712848
-0.032547172 -0.27343684 0.28711277
-0.028313298 -0.27343512 0.28711626
-0.025698729 -0.27347231 0.28712994
-0.046790536 -0.27262142 0.2874516
-0.043550346 -0.27258778 0.28739861
-0.042901132 -0.27258992 0.28740498
-0.033517692 -0.2726106 0.28742978
-0.028551316 -0.272596 0.2874279
-0.026017016 -0.27261245 0.28742591
-0.036324982 -0.27171898 0.28770167
-0.035571005 -0.27173778 0.28771225
-0.03450793 -0.27176434 0.28772646
-0.028864717 -0.27175906 0.28773177
-0.22754893 -0.30562004 0.28897843
-0.22575158 -0.30567762 0.28899604
-0.22082126 -0.30564743 0.28898251
-0.21655436 -0.30563655 0.28897569
-0.21412094 -0.30563793 0.28897405
-0.21160457 -0.305648 0.28897938
-0.20912415 -0.30561757 0.28896901
-0.20666404 -0.3056716 0.28898707
-0.18282355 -0.30565056 0.28896967
-0.17580713 -0.30562901 0.28897193
-0.19325039 -0.3015894 0.28804722
-0.18794371 -0.30157045 0.28804743
-0.18476632 -0.30154803 0.28804183
-0.18015631 -0.30154261 0.28802016
-0.17700291 -0.30155572 0.28803766
-0.21091342 -0.30075043 0.28840858
-0.20349233 -0.30074027 0.28842276
-0.1981519 -0.30071393 0.28837842
-0.19358541 -0.30071446 0.28839338
-0.18504576 -0.30075541 0.28842315
-0.18036246 -0.30076137 0.28841591
-0.15726352 -0.30072916 0.28841776
-0.1544691 -0.30070609 0.28838816
-0.15091836 -0.3007485 0.2884132
-0.1484025 -0.30071491 0.28839758
-0.1459631 -0.30074593 0.28841725
-0.20872971 -0.29991329 0.28878763
-0.20629676 -0.29987159 0.28877085
-0.19920127 -0.2999227 0.28880411
-0.19844013 -0.2999174 0.28877729
-0.19457337 -0.2999289 0.28879055
-0.19386096 -0.29989517 0.28877541
-0.18782499 -0.29990554 0.28877643
-0.18144965 -0.2999154 0.28878051
-0.18073833 -0.29994237 0.28878134
-0.17684425 -0.29990101 0.28877544
-0.1736234 -0.29987961 0.28875515
-0.16867509 -0.29989776 0.28876761
-0.15756938 -0.29991043 0.28877509
-0.15509316 -0.29991651 0.28879467
-0.15118673 -0.29991561 0.28878585
-0.14621843 -0.29993674 0.28880212
-0.14377673 -0.29986718 0.28875533
-0.14127348 -0.29992104 0.28879237
-0.13879383 -0.29988554 0.28877875
-0.13419633 -0.29990697 0.28879797
-0.13349083 -0.29989383 0.28878269
-0.13878299 -0.29500467 0.28803349
-0.12640321 -0.29500943 0.28805727
-0.12112521 -0.29500419 0.28803492
-0.17716119 -0.29419753 0.28838736
-0.17679024 -0.29499617 0.28801954
-0.17381781 -0.29456139 0.28819269
-0.17047109 -0.29495549 0.28800291
-0.16800737 -0.29497463 0.28803664
-0.16553742 -0.2949768 0.28801841
-0.1633108 -0.29414642 0.28837651
-0.16080227 -0.29416811 0.28836405
-0.15864909 -0.29497913 0.28803644
-0.15645041 -0.29413694 0.28837577
-0.15465768 -0.29416096 0.28837043
-0.15216917 -0.29416928 0.2883898
-0.15195443 -0.29497597 0.28802413
-0.14832625 -0.29416102 0.28838164
-0.14580467 -0.29410324 0.28834814
-0.14332467 -0.29419336 0.28840813
-0.14131092 -0.29495117 0.28800383
-0.13908397 -0.29418311 0.28839028
-0.13310197 -0.29499391 0.28802454
-0.13243428 -0.29497185 0.28802392
-0.13175642 -0.2949813 0.28803596
-0.12713398 -0.29499778 0.28804994
-0.12241466 -0.29417807 0.28838092
-0.12137831 -0.2941663 0.28838214
-0.12037568 -0.29499233 0.28801325
-0.1164104 -0.29417554 0.28839689
-0.11355612 -0.29413459 0.28836811
-0.11110141 -0.29415956 0.28839627
-0.10611578 -0.29414758 0.28838426
-0.17032255 -0.2932986 0.28871191
-0.16532792 -0.29331687 0.28872147
-0.15850474 -0.29332194 0.28874025
-0.15247972 -0.29332381 0.28874376
-0.14855795 -0.29334864 0.28873622
-0.14614832 -0.29331106 0.28872302
-0.1411294 -0.29331693 0.28873515
-0.1276332 -0.29334208 0.28873989
-0.12695754 -0.29334593 0.28875071
-0.12303872 -0.29332113 0.28871989
-0.11383826 -0.29331395 0.28873515
-0.11137404 -0.29332906 0.28875336
-0.10852578 -0.29332957 0.28873393
-0.10638352 -0.29332271 0.28873408
-0.10392293 -0.2933237 0.28873986
-0.10215993 -0.29334578 0.28874686
-0.099639766 -0.29330498 0.2887314
-0.14246851 -0.28751191 0.28807938
-0.13998023 -0.28759271 0.28812632
-0.13749994 -0.28753099 0.28809348
-0.13324574 -0.28755128 0.28811485
-0.13078335 -0.28754976 0.2881124
-0.12472609 -0.2875652 0.28810662
-0.11408415 -0.28754771 0.28809118
-0.093202665 -0.28757894 0.28811482
-0.089279227 -0.28756574 0.28810161
-0.088577293 -0.28755131 0.28810585
-0.083883606 -0.28755251 0.28811496
-0.081397988 -0.28756392 0.28811878
-0.078964859 -0.28752181 0.28809986
-0.13529594 -0.2867209 0.28845665
-0.099466115 -0.28673145 0.28845569
-0.09525314 -0.28670514 0.2884528
-0.090295903 -0.28669125 0.28843683
-0.089570083 -0.28672415 0.28844276
-0.084517002 -0.28668642 0.28842986
-0.081711061 -0.28672323 0.28846061
-0.079171777 -0.28670627 0.28842521
-0.073532224 -0.28669894 0.28843826
-0.069964446 -0.28674927 0.28843924
-0.090586573 -0.28584123 0.28875291
-0.081959672 -0.28589007 0.28880006
-0.079500489 -0.28589246 0.28877184
-0.075572081 -0.28588936 0.28880095
-0.07450483 -0.2858988 0.2887958
-0.070638515 -0.28587845 0.28878188
-0.066383459 -0.28587404 0.28877202
-0.068986975 -0.27921894 0.28822392
-0.065778889 -0.27928153 0.28822604
-0.061935473 -0.27922431 0.28819922
-0.056947108 -0.27928403 0.28825235
-0.052721642 -0.27925938 0.28822955
-0.049506851 -0.27924097 0.28824314
-0.059006013 -0.27839884 0.28855643
-0.057228398 -0.27842972 0.28856793
-0.054744747 -0.27836755 0.28852952
-0.052975133 -0.27839571 0.28854465
-0.049789883 -0.27842641 0.2885749
-0.042197578 -0.2784268 0.28854969
-0.041536216 -0.27838853 0.28852201
-0.050067931 -0.27759239 0.28889704
-0.046122562 -0.27756166 0.28885081
-0.045409448 -0.27755573 0.28885898
-0.044350706 -0.27755004 0.28886181
-0.043305915 -0.27755046 0.28887993
-0.042562604 -0.27757707 0.28889018
-0.035050135 -0.27755967 0.28887302
-0.029241551 -0.27047858 0.28818202
-0.23203468 -0.30400065 0.28974608
-0.2292012 -0.30400646 0.2897661
-0.22353239 -0.30479425 0.28934726
-0.22068276 -0.30401951 0.28975546
-0.21861191 -0.30479756 0.28934926
-0.21647584 -0.3040027 0.28976074
-0.2114699 -0.30400854 0.28975675
-0.20942655 -0.30478489 0.28933606
-0.20649594 -0.30402935 0.2897571
-0.20319337 -0.30441529 0.28957266
-0.20233063 -0.30482441 0.28938136
-0.20164078 -0.3048358 0.2893768
-0.19804126 -0.3040086 0.28975138
-0.19630307 -0.3047972 0.28934819
-0.18320511 -0.3048611 0.28936991
-0.1793025 -0.30480918 0.28935218
-0.17608511 -0.30478993 0.28933984
-0.17115217 -0.30481076 0.28935549
-0.16866405 -0.30481184 0.28936294
-0.16625908 -0.30441993 0.28954405
-0.16180991 -0.30479512 0.28934941
-0.15318999 -0.30401009 0.28974965
-0.14826435 -0.30401519 0.28976172
-0.2440618 -0.30399385 0.28973719
-0.22740397 -0.30398065 0.28974348
-0.2139394 -0.30397969 0.28973904
-0.179571 -0.303992 0.28974077
-0.17637438 -0.30397335 0.28972471
-0.17320272 -0.30398834 0.28976294
-0.17137937 -0.30399159 0.2897338
-0.16893367 -0.30399108 0.28974617
-0.16384456 -0.30399266 0.28976306
-0.15958025 -0.30399638 0.28974992
-0.15714967 -0.30398968 0.28975078
-0.15640955 -0.3039619 0.2897211
-0.20336215 -0.29911435 0.28916448
-0.19946137 -0.2990911 0.28917539
-0.19485125 -0.29910058 0.28916341
-0.18814039 -0.29905936 0.28914115
-0.18492436 -0.29910478 0.28916675
-0.1817228 -0.29907733 0.28915119
-0.17714193 -0.29907325 0.28914812
-0.17395598 -0.29907146 0.28913733
-0.17075261 -0.29908553 0.28916523
-0.16651419 -0.29907811 0.28915188
-0.16397473 -0.29908115 0.28914118
-0.14900088 -0.29904389 0.28912804
-0.14829388 -0.2990292 0.28912315
-0.14153604 -0.29910946 0.28916451
-0.13909744 -0.29906631 0.28915057
-0.1351496 -0.29907995 0.28915608
-0.13449655 -0.29906937 0.28915742
-0.12847227 -0.29909694 0.28918302
-0.12313475 -0.29910347 0.2891601
-0.20862545 -0.29827344 0.28953457
-0.19516456 -0.29826942 0.2895273
-0.18912457 -0.29827714 0.28953347
-0.18840657 -0.29824907 0.28951862
-0.18515937 -0.29829198 0.28953773
-0.18199277 -0.29824945 0.28951564
-0.17739226 -0.29824558 0.2895138
-0.17420982 -0.29828587 0.28953537
-0.16853411 -0.29824603 0.28951851
-0.16166894 -0.29825389 0.28952891
-0.14609066 -0.2982977 0.28954828
-0.14360788 -0.29823744 0.2895149
-0.13935392 -0.29825768 0.28953677
-0.13613427 -0.29827654 0.28953114
-0.13546593 -0.29826966 0.28953224
-0.12945077 -0.2982716 0.28954807
-0.12872039 -0.29827628 0.28955895
-0.1244746 -0.29827487 0.28952825
-0.12343744 -0.2982659 0.28953099
-0.11809639 -0.29827297 0.28953996
-0.11562383 -0.29823676 0.28952223
-0.20395266 -0.29743713 0.28990746
-0.18940502 -0.29744896 0.28990871
-0.17061098 -0.29742557 0.28989723
-0.14141311 -0.2974363 0.28991088
-0.13646834 -0.2974301 0.28990677
-0.13041236 -0.29744494 0.28990033
-0.12969244 -0.29745165 0.28991219
-0.12545952 -0.29742351 0.28988177
-0.11904693 -0.29743797 0.28990698
-0.11840059 -0.29745576 0.28992307
-0.1158741 -0.29741725 0.28989011
-0.11345091 -0.29743659 0.28991508
-0.1109297 -0.29743198 0.2898967
-0.17379983 -0.29248458 0.28908858
-0.16744149 -0.29249489 0.28909692
-0.15635929 -0.29248905 0.28910172
-0.14318787 -0.29252392 0.28910908
-0.1233322 -0.29245475 0.2890574
-0.11729925 -0.29248556 0.28907284
-0.11658139 -0.29249361 0.28909162
-0.11413945 -0.29248899 0.28910321
-0.1116226 -0.2924881 0.28909883
-0.1092033 -0.29249421 0.28909984
-0.1042205 -0.29248768 0.28909856
-0.099965692 -0.29245248 0.28907242
-0.09745574 -0.29252887 0.28910276
-0.095002346 -0.29246745 0.28905937
-0.16274564 -0.29165989 0.28944901
-0.10624278 -0.29166493 0.28944778
-0.10449941 -0.29165223 0.28945309
-0.10196124 -0.2916877 0.2894589
-0.10018493 -0.29164061 0.28943434
-0.097748108 -0.2916531 0.28945673
-0.095297135 -0.29167709 0.28944999
-0.090673804 -0.2916604 0.28945065
-0.089902543 -0.29167154 0.28946203
-0.085990451 -0.29166892 0.28946751
-0.083475687 -0.29166973 0.28945225
-0.098021716 -0.29082143 0.28980848
-0.095532238 -0.29086754 0.28982034
-0.092353314 -0.29081947 0.28980252
-0.091651715 -0.29085523 0.2898055
-0.090914875 -0.29083833 0.28980595
-0.086214811 -0.2908248 0.28980491
-0.083778866 -0.2908479 0.28982484
-0.081285819 -0.29081026 0.28979048
-0.085449107 -0.28503004 0.2891255
-0.079754472 -0.28505138 0.28912878
-0.07656163 -0.28504506 0.28914216
-0.075884275 -0.28504702 0.28914949
-0.071229972 -0.28503254 0.28912011
-0.067378469 -0.28503844 0.28912032
-0.066636279 -0.28504464 0.28912354
-0.063442081 -0.28503776 0.28912657
-0.07685148 -0.28419665 0.289473
-0.068339422 -0.28423744 0.28945976
-0.067627981 -0.28421521 0.2894564
-0.06372799 -0.28420997 0.28945863
-0.061239257 -0.28421366 0.28947258
-0.056997228 -0.28418362 0.28945225
-0.071782894 -0.2833575 0.28980154
-0.068600602 -0.28339875 0.28980181
-0.063996069 -0.28336459 0.28977907
-0.061553597 -0.28336304 0.28980017
-0.059042759 -0.28341395 0.28982881
-0.057301693 -0.28333303 0.28978631
-0.054780133 -0.2834135 0.2898159
-0.051603161 -0.28335699 0.28981331
-0.046407335 -0.27669963 0.28916693
-0.037423078 -0.27673396 0.2891936
-0.036687385 -0.27675682 0.28920066
-0.035629421 -0.27673137 0.28920126
-0.03140768 -0.27672306 0.28919864
-0.039135851 -0.27584848 0.28948671
-0.038420212 -0.27585974 0.28949752
-0.037706655 -0.27587613 0.28950742
-0.03265518 -0.27503362 0.28983065
-0.031804748 -0.27546489 0.28967607
-0.027823869 -0.27548119 0.28968853
-0.25489464 -0.30725628 0.29096615
-0.24956468 -0.30726498 0.29097337
-0.24390654 -0.30728576 0.29099134
-0.23506106 -0.30727634 0.29098308
-0.23324655 -0.3072677 0.29096803
-0.22117594 -0.30726835 0.29097483
-0.21697114 -0.30727383 0.29097569
-0.21444464 -0.30729726 0.29097509
-0.2095446 -0.30727726 0.29098484
-0.20701005 -0.30725759 0.2909787
-0.19571701 -0.30730003 0.29099351
-0.19499737 -0.30728897 0.29098767
-0.18716013 -0.30726433 0.29096627
-0.18256029 -0.3072603 0.29096326
-0.17938036 -0.30729949 0.29098457
-0.17870206 -0.30725992 0.29095879
-0.1754979 -0.30727449 0.2909869
-0.17125863 -0.30726743 0.29097351
-0.16872036 -0.30726984 0.29096246
-0.16613939 -0.30727005 0.29098421
-0.16367905 -0.30724373 0.29096806
-0.16189161 -0.30727336 0.29096922
-0.15941466 -0.30727965 0.29098928
-0.15875845 -0.30724546 0.29096189
-0.15797618 -0.30724165 0.29094845
-0.15230179 -0.30725181 0.29096439
-0.22090995 -0.30318716 0.29014212
-0.21843785 -0.30315936 0.29013181
-0.21174756 -0.30320615 0.29014012
-0.20924944 -0.30317584 0.2901265
-0.206829 -0.30320123 0.29015324
-0.20362987 -0.30316129 0.29014021
-0.19830762 -0.30318066 0.29014066
-0.19301456 -0.30319735 0.29014832
-0.19226854 -0.30320302 0.29014525
-0.19158894 -0.30318367 0.29013866
-0.18832535 -0.30321559 0.29014891
-0.18513584 -0.30316606 0.29012451
-0.17985927 -0.30316961 0.29013476
-0.17350076 -0.30317998 0.29014227
-0.16923246 -0.30317578 0.29013801
-0.16413626 -0.30317643 0.29014233
-0.16165476 -0.30316067 0.29013434
-0.15986282 -0.30318412 0.29012856
-0.15737282 -0.30319321 0.2901485
-0.15353034 -0.30318463 0.29014084
-0.1510084 -0.30312732 0.29010633
-0.15033422 -0.30312937 0.29011023
-0.14608698 -0.30314445 0.29011872
-0.14535016 -0.3031407 0.29012421
-0.14356054 -0.30319706 0.29014862
-0.1357874 -0.3031767 0.29014894
-0.21629505 -0.30236959 0.29054016
-0.21380495 -0.30236107 0.29052153
-0.20709734 -0.30234465 0.29052797
-0.2038734 -0.30234161 0.29052204
-0.19856156 -0.30234241 0.29051542
-0.19327301 -0.30237943 0.29054379
-0.16632421 -0.30234796 0.29052034
-0.16442442 -0.30235887 0.2905286
-0.16199991 -0.30235338 0.2905364
-0.16014966 -0.30235511 0.29051521
-0.15769243 -0.3023577 0.29053468
-0.15451491 -0.30237502 0.29051608
-0.15377231 -0.30238158 0.29052734
-0.15136148 -0.3023448 0.29051426
-0.14847046 -0.3023915 0.29055002
-0.14386983 -0.30238569 0.29053774
-0.14139515 -0.30235189 0.29053041
-0.14071482 -0.30233407 0.29051802
-0.13818888 -0.30237499 0.29052931
-0.1374598 -0.30236647 0.29052818
-0.13645269 -0.30234906 0.29053366
-0.13076024 -0.30238184 0.29056159
-0.20917796 -0.30154246 0.2909213
-0.14592357 -0.30153015 0.29091504
-0.14414817 -0.30151939 0.29091677
-0.14170249 -0.30154008 0.29092076
-0.13920321 -0.30152944 0.29092082
-0.13846768 -0.30154845 0.29092205
-0.13242832 -0.30155477 0.29091915
-0.13141197 -0.30155426 0.29093659
-0.12714246 -0.30156395 0.29091606
-0.12642038 -0.30155644 0.29091883
-0.12540372 -0.3015523 0.29092354
-0.12431373 -0.30154446 0.29090601
-0.13069327 -0.29658133 0.29025295
-0.12609243 -0.29656598 0.29024589
-0.12006477 -0.29657704 0.2902447
-0.11934708 -0.2966018 0.29025745
-0.11619964 -0.29659852 0.29027539
-0.11369442 -0.29660487 0.2902863
-0.11120799 -0.29661211 0.29027879
-0.10838126 -0.29660392 0.29027116
-0.10625823 -0.29660049 0.29028109
-0.10198168 -0.29657617 0.29026178
-0.12038535 -0.29573867 0.29060468
-0.11647572 -0.29578033 0.29066044
-0.11397068 -0.29576564 0.29064658
-0.11153173 -0.29577723 0.29065368
-0.10899243 -0.29578668 0.29063946
-0.10658459 -0.29576835 0.2906481
-0.10404614 -0.29580259 0.29065529
-0.10228536 -0.2957446 0.29062578
-0.09978731 -0.29579163 0.29065195
-0.096615724 -0.29574409 0.29060581
-0.096949369 -0.29494241 0.29099816
-0.084055148 -0.2900095 0.29017738
-0.08152689 -0.29000756 0.29013941
-0.076580361 -0.29001692 0.29016817
-0.072331458 -0.2900258 0.29015732
-0.092683338 -0.28997377 0.29014027
-0.087587647 -0.28996941 0.2901479
-0.086540185 -0.28997481 0.29014584
-0.081854768 -0.28917751 0.29050991
-0.079317532 -0.28916967 0.29053196
-0.078682795 -0.28916734 0.2905404
-0.077576414 -0.28918105 0.29053336
-0.075512528 -0.2899853 0.29015723
-0.073311508 -0.28916273 0.29051611
-0.07264743 -0.28916678 0.29051527
-0.068044625 -0.28914997 0.29048553
-0.073642053 -0.28831723 0.29086196
-0.069377437 -0.28833717 0.29086745
-0.068298005 -0.28834274 0.29087418
-0.065110676 -0.28833115 0.29087576
-0.06431096 -0.28251749 0.29011378
-0.059356362 -0.28256512 0.29016295
-0.055090394 -0.28253397 0.29013738
-0.051911436 -0.28254917 0.2901637
-0.057128478 -0.28167707 0.29046342
-0.055345003 -0.28168687 0.29047585
-0.052167218 -0.28172523 0.29050827
-0.04647997 -0.28168347 0.2904734
-0.04543842 -0.28169608 0.29049191
-0.044601597 -0.28172901 0.29049134
-0.043888368 -0.28170824 0.29046816
-0.052463204 -0.28090474 0.29084331
-0.049239125 -0.2808319 0.29078922
-0.048496518 -0.2808561 0.29079375
-0.047464319 -0.28085637 0.29080376
-0.02829857 -0.2741999 0.2901676
-0.02361499 -0.27418777 0.29016608
-0.022556627 -0.27419019 0.29015636
-0.025340926 -0.27337101 0.29049507
-0.024587762 -0.27336287 0.29049519
-0.023921847 -0.27336043 0.29050237
-0.23047146 -0.30729377 0.29100224
-0.22618298 -0.30730429 0.29100096
-0.25551337 -0.306467 0.29139662
-0.24983642 -0.30643547 0.29136857
-0.24594252 -0.30643094 0.29136527
-0.24169025 -0.30643165 0.29137194
-0.2399321 -0.30648825 0.29139677
-0.23640776 -0.30645666 0.29138497
-0.23178414 -0.30647993 0.29138774
-0.22389656 -0.30643037 0.29135695
-0.21901442 -0.30646542 0.29138973
-0.19067526 -0.30649015 0.29139683
-0.18749128 -0.30643877 0.29137868
-0.18286398 -0.30642635 0.29135734
-0.17966406 -0.30647615 0.2913956
-0.17578827 -0.30645099 0.29137811
-0.17328966 -0.30644509 0.29137164
-0.17152938 -0.30644694 0.2913816
-0.16909243 -0.30644885 0.29138142
-0.16642283 -0.30645356 0.2913827
-0.16397454 -0.30645314 0.29138246
-0.16214913 -0.30645883 0.29137018
-0.15968123 -0.30646574 0.29139096
-0.15545225 -0.30646652 0.29138398
-0.15262389 -0.3064034 0.29134923
-0.15012573 -0.30648449 0.29140207
-0.14768438 -0.3064152 0.29135409
-0.14518116 -0.30646867 0.29139164
-0.23774895 -0.30562675 0.29177374
-0.17361222 -0.30562782 0.29179549
-0.16428408 -0.30563635 0.29179609
-0.15998968 -0.30563915 0.29179293
-0.15608959 -0.30566698 0.29178569
-0.15366125 -0.30565053 0.29178783
-0.15291758 -0.30560264 0.29175913
-0.15043186 -0.30568105 0.29180714
-0.14794724 -0.30562195 0.29177344
-0.14545363 -0.30566743 0.29179567
-0.14301333 -0.30562514 0.29178175
-0.14228734 -0.30561814 0.29178247
-0.13906571 -0.30563864 0.29178706
-0.13841306 -0.30562782 0.2917884
-0.13768928 -0.30563983 0.29180196
-0.13344626 -0.3006843 0.29127929
-0.13274543 -0.30071118 0.29130071
-0.12813441 -0.30067846 0.29126859
-0.12741533 -0.30071288 0.29128787
-0.12035726 -0.30073732 0.29132226
-0.11750379 -0.3006964 0.29129258
-0.11504866 -0.30072153 0.29132137
-0.1284388 -0.29987165 0.29168227
-0.12312175 -0.29987818 0.29166171
-0.12240168 -0.29985639 0.29165915
-0.12168431 -0.29988754 0.29167292
-0.12096588 -0.29989579 0.29169208
-0.11852298 -0.29989168 0.29170412
-0.11779425 -0.29988617 0.29169217
-0.1160069 -0.29989034 0.29169929
-0.11532996 -0.29990092 0.29171067
-0.11248209 -0.29990125 0.29169118
-0.11034022 -0.29989457 0.29169104
-0.10787893 -0.2998955 0.29169732
-0.10431372 -0.2949695 0.2910279
-0.10253059 -0.29494363 0.29101667
-0.10009919 -0.29494399 0.29102463
-0.097749501 -0.29457587 0.29121664
-0.094719149 -0.29410413 0.29138148
-0.09384492 -0.29455227 0.29120028
-0.0926456 -0.2949568 0.29101962
-0.091515653 -0.29495081 0.29102671
-0.088569857 -0.29411384 0.29137808
-0.087874994 -0.29412985 0.29139951
-0.085389525 -0.2941412 0.29140401
-0.095017791 -0.29326379 0.29172975
-0.089563243 -0.29326817 0.29174715
-0.088889264 -0.2932581 0.29174206
-0.085710451 -0.29331025 0.29177827
-0.08317256 -0.29329285 0.29174194
-0.08253292 -0.29327336 0.29175714
-0.070017345 -0.28752607 0.29121965
-0.06608887 -0.28750601 0.29121256
-0.065404721 -0.28750837 0.29123238
-0.06361568 -0.28749985 0.29122916
-0.062911928 -0.28752896 0.29124516
-0.06113486 -0.28753689 0.2912423
-0.060439039 -0.28748342 0.29120779
-0.058654845 -0.28749335 0.29122084
-0.066410109 -0.28665724 0.29155427
-0.063916519 -0.28667134 0.29158828
-0.061423004 -0.2867161 0.29160801
-0.058967143 -0.28664887 0.29157138
-0.056437388 -0.28672943 0.29159927
-0.055778354 -0.28671521 0.29160497
-0.061711662 -0.28587115 0.29195648
-0.059228219 -0.28580922 0.29191723
-0.056768995 -0.28586087 0.29194194
-0.053553909 -0.28584304 0.29195559
-0.040523618 -0.28001502 0.29114136
-0.039461363 -0.28004116 0.29115552
-0.038388539 -0.28005138 0.2911675
-0.037673093 -0.28003627 0.29116461
-0.036976654 -0.28003135 0.29116437
-0.041400276 -0.27957672 0.29129592
-0.034043316 -0.27919415 0.29149213
-0.033385992 -0.27920085 0.29150051
-0.030098952 -0.27921 0.29150206
-0.035029896 -0.27835378 0.29182065
-0.034370333 -0.2783429 0.29182762
-0.031180257 -0.27835271 0.29183602
-0.030391101 -0.27835914 0.29184151
-0.025740512 -0.2783334 0.29183137
-0.15638816 -0.30482319 0.29216924
-0.15069087 -0.3048372 0.29219502
-0.14826837 -0.30482656 0.29219919
-0.14576206 -0.30483082 0.29220158
-0.14401016 -0.30483615 0.29219922
-0.14327921 -0.30482683 0.29220021
-0.14043909 -0.30483481 0.2921958
-0.13939202 -0.30483836 0.29219523
-0.13434766 -0.3040241 0.29259527
-0.13350177 -0.30443573 0.29240936
-0.13264583 -0.30484527 0.29222256
-0.12902807 -0.30402324 0.29258743
-0.12834661 -0.30403602 0.29259557
-0.12749329 -0.30442804 0.29239622
-0.12233466 -0.30403522 0.29261902
-0.14108926 -0.3039988 0.29259682
-0.13542703 -0.30398619 0.29257718
-0.13044974 -0.30397186 0.29256794
-0.12976117 -0.30398208 0.29256591
-0.1243805 -0.30316085 0.29296511
-0.12329152 -0.30319157 0.29298434
-0.11939389 -0.30318195 0.29298988
-0.11444982 -0.30319619 0.29299679
-0.113511 -0.29907519 0.29209149
-0.11063608 -0.29907712 0.29208049
-0.1081853 -0.29906973 0.29208812
-0.10635509 -0.29909948 0.29209179
-0.10569758 -0.29909664 0.29209277
-0.10393092 -0.29903445 0.29206142
-0.10142161 -0.29911003 0.29209223
-0.11092554 -0.29826605 0.29246825
-0.10847282 -0.2982443 0.29247478
-0.10670175 -0.29825875 0.2924749
-0.10415843 -0.29823294 0.29245576
-0.10172165 -0.29824522 0.29247838
-0.099270366 -0.29826918 0.29247209
-0.098548159 -0.29822916 0.29243737
-0.10446375 -0.29743958 0.29286498
-0.10200369 -0.29742375 0.29286215
-0.10025226 -0.29747725 0.2928741
-0.099514298 -0.29746953 0.29287484
-0.09633562 -0.29742149 0.29285648
-0.095635079 -0.2974568 0.29285908
-0.094563097 -0.29743603 0.29286021
-0.09345755 -0.29744273 0.29287276
-0.089889079 -0.29246199 0.29213542
-0.085968092 -0.29248646 0.29214993
-0.083510265 -0.29248822 0.29212132
-0.081001304 -0.29247692 0.29215196
-0.080324426 -0.29247877 0.2921595
-0.079580002 -0.29248586 0.29215109
-0.078513987 -0.29249465 0.29214573
-0.077470027 -0.29247165 0.29212916
-0.074299954 -0.2924822 0.29212832
-0.081300579 -0.2916379 0.29251504
-0.076001018 -0.29161879 0.2924965
-0.07524696 -0.29163885 0.29250205
-0.074570119 -0.29164237 0.29250684
-0.070653103 -0.29165071 0.29250604
-0.069967948 -0.29164508 0.29249457
-0.0723655 -0.29085264 0.2928744
-0.071653731 -0.29083073 0.29287118
-0.070971631 -0.29081872 0.29287547
-0.067395203 -0.29082164 0.29287708
-0.06281364 -0.29082456 0.29286984
-0.059519168 -0.28501752 0.29229018
-0.057030521 -0.28500652 0.29228967
-0.05456005 -0.28504246 0.29231876
-0.053845081 -0.28503722 0.29232025
-0.047054533 -0.28502753 0.29231131
-0.046254601 -0.28503701 0.29229432
-0.054816563 -0.28423336 0.29267466
-0.051642492 -0.28415188 0.29263011
-0.050547332 -0.28417027 0.29262379
-0.049474161 -0.28417563 0.29263601
-0.048414215 -0.28417039 0.29263911
-0.047369078 -0.28417057 0.29265758
-0.043643449 -0.28331736 0.2929731
-0.042571127 -0.2833367 0.29298913
-0.031426072 -0.2775214 0.29218075
-0.028155295 -0.2775428 0.29218933
-0.027445722 -0.27752143 0.29218554
-0.026391201 -0.27751908 0.29218644
-0.024628287 -0.27750674 0.29216617
-0.020356946 -0.27754268 0.2921963
-0.018510539 -0.27671587 0.29253891
-0.021256911 -0.27584463 0.29285812
-0.15552346 -0.30813307 0.29335493
-0.15232199 -0.3081468 0.29336706
-0.14983341 -0.3081114 0.29334974
-0.14736106 -0.30814588 0.29336101
-0.14454538 -0.30810377 0.29334748
-0.14168066 -0.30813506 0.29335222
-0.14061654 -0.3081162 0.29335088
-0.15015867 -0.30732113 0.29377961
-0.14764795 -0.307291 0.29377174
-0.14520223 -0.30731189 0.29377589
-0.1427031 -0.30730107 0.29377586
-0.14196876 -0.30731964 0.29377696
-0.13559029 -0.30732846 0.29377961
-0.13457245 -0.30732101 0.29379809
-0.12924372 -0.30732039 0.29377446
-0.13080414 -0.30319294 0.29301351
-0.1225673 -0.30320209 0.29300708
-0.12014306 -0.30318868 0.29300267
-0.1169707 -0.30320096 0.29301518
-0.12042786 -0.3023811 0.2934202
-0.11757416 -0.30237266 0.29341191
-0.11473726 -0.30238706 0.29341102
-0.11228771 -0.30237719 0.29340187
-0.11153316 -0.30238035 0.29340422
-0.10978738 -0.30237526 0.29341334
-0.11506967 -0.30156273 0.29381782
-0.11253159 -0.30157173 0.29380327
-0.11012238 -0.30155393 0.29381216
-0.10758538 -0.30158734 0.29381925
-0.10545999 -0.30153307 0.2937938
-0.10332622 -0.30157652 0.293816
-0.096673965 -0.29658619 0.29322624
-0.091578454 -0.29658186 0.29323375
-0.090532303 -0.2965866 0.29323122
-0.089778744 -0.29660612 0.29324701
-0.087341875 -0.29662943 0.29326776
-0.088327572 -0.29580358 0.29365519
-0.087627053 -0.29580104 0.29365245
-0.085100919 -0.29579863 0.29361385
-0.084430508 -0.29577118 0.29362148
-0.081221446 -0.29580605 0.29364818
-0.079816706 -0.29579872 0.2936382
-0.064840727 -0.29000345 0.29326028
-0.063077681 -0.29003847 0.29327595
-0.068031132 -0.28998956 0.29322553
-0.065587051 -0.28998852 0.29324737
-0.063398823 -0.28919965 0.29364258
-0.060755692 -0.28955308 0.29342276
-0.058391824 -0.28921205 0.29363596
-0.057692923 -0.28921884 0.29364386
-0.055213388 -0.2891565 0.29363325
-0.054517474 -0.28913829 0.29359865
-0.058709435 -0.28834271 0.29398984
-0.041495625 -0.28336257 0.29300395
-0.040410519 -0.28337508 0.29301184
-0.039342653 -0.28335559 0.29301026
-0.04392831 -0.28249151 0.29332122
-0.036463816 -0.28251523 0.29335454
-0.03574352 -0.28252971 0.2933588
-0.037442122 -0.28168464 0.29370829
-0.036743633 -0.2816807 0.29370612
-0.032443937 -0.28169137 0.29371944
-0.02225952 -0.27501941 0.29319704
-0.021543324 -0.27500975 0.29319677
-0.020109877 -0.27501085 0.29319724
-0.13770045 -0.30648556 0.29419231
-0.13660555 -0.30648047 0.29417631
-0.13310573 -0.30651385 0.29422039
-0.13236743 -0.30647528 0.29418004
-0.13164327 -0.30646169 0.29415488
-0.13057956 -0.3065103 0.29418302
-0.12951072 -0.3065185 0.2941947
-0.12420453 -0.30651522 0.29420945
-0.12735824 -0.30571112 0.29461822
-0.12664014 -0.30567241 0.29458007
-0.12556222 -0.30566555 0.29458416
-0.12448499 -0.30568922 0.2946105
-0.12204134 -0.30568552 0.2946229
-0.12131282 -0.30568016 0.29461071
-0.11884842 -0.30569461 0.29462942
-0.11036915 -0.3007423 0.29421809
-0.10786165 -0.30076519 0.29422405
-0.10607756 -0.30073979 0.2942127
-0.10364591 -0.30074036 0.29422054
-0.10116378 -0.30077803 0.29422429
-0.1004964 -0.30073866 0.2941944
-0.10390637 -0.29991534 0.29461321
-0.10143883 -0.29997581 0.29463407
-0.098636091 -0.29990369 0.29459721
-0.097550943 -0.29994249 0.29461521
-0.096477352 -0.29994211 0.29461604
-0.095431805 -0.29993993 0.29462218
-0.091431253 -0.29993641 0.29462731
-0.085436009 -0.29497898 0.29401696
-0.082581058 -0.2949701 0.29404342
-0.081512213 -0.29497975 0.2940447
-0.080071278 -0.29499662 0.29403666
-0.077569574 -0.29412669 0.29440337
-0.076350465 -0.29455647 0.2942169
-0.072619729 -0.29414934 0.29440689
-0.071887277 -0.29415435 0.29441392
-0.074282505 -0.29336503 0.2947965
-0.073616244 -0.29334763 0.29479125
-0.072895028 -0.29332787 0.29479584
-0.069346011 -0.29332864 0.29479364
-0.066510215 -0.29335055 0.29481703
-0.056218091 -0.28836921 0.29402098
-0.055530209 -0.28835803 0.29401636
-0.053299025 -0.28748596 0.29433316
-0.052557148 -0.28750962 0.29433766
-0.051523976 -0.28751016 0.29434791
-0.050464466 -0.28750628 0.2943539
-0.049407363 -0.28750646 0.29436952
-0.046812769 -0.28748736 0.29432216
-0.053584531 -0.28667149 0.29473805
-0.047806866 -0.28672141 0.29474854
-0.03347674 -0.28085947 0.29407775
-0.030097859 -0.28006175 0.29444611
-0.029497216 -0.2808626 0.29407984
-0.028453989 -0.28085649 0.29408696
-0.027711965 -0.28084406 0.29407418
-0.025067521 -0.27920228 0.29478276
-0.024421472 -0.27919555 0.29478574
-0.020152254 -0.27922958 0.29481158
-0.13958509 -0.3090013 0.29571581
-0.1374394 -0.30901644 0.29570544
-0.1343098 -0.3090007 0.29571939
-0.13211986 -0.30901527 0.29569778
-0.13143772 -0.30902845 0.29570627
-0.1307148 -0.30901369 0.29570848
-0.14033037 -0.30899876 0.2957179
-0.13851804 -0.308979 0.29568729
-0.13354038 -0.30896506 0.29567799
-0.13285223 -0.30897477 0.29567593
-0.12233319 -0.30489695 0.29504588
-0.11948921 -0.30486721 0.29503268
-0.11683381 -0.30447525 0.29525226
-0.11592798 -0.30488464 0.29503337
-0.11446438 -0.30408111 0.29545024
-0.11360222 -0.30447543 0.29524058
-0.11200979 -0.30406013 0.29545698
-0.1113035 -0.30406502 0.29545912
-0.11023861 -0.30407456 0.29545727
-0.10947412 -0.30409408 0.29546261
-0.10737247 -0.30403942 0.29543489
-0.10801102 -0.30326635 0.29587901
-0.10554975 -0.30325082 0.29587588
-0.10484909 -0.30325156 0.29588106
-0.1030604 -0.3032963 0.29588935
-0.10239738 -0.30327556 0.29587513
-0.093503058 -0.29909539 0.29501504
-0.09245488 -0.29907528 0.29500154
-0.091712922 -0.29910508 0.29501018
-0.089275263 -0.29912749 0.29503864
-0.088531494 -0.29913253 0.29503703
-0.090283774 -0.29830986 0.29544586
-0.089542367 -0.29831409 0.29544213
-0.087085746 -0.29831529 0.29541317
-0.086324081 -0.29829466 0.29540619
-0.083153836 -0.29831356 0.29544353
-0.082460955 -0.29832065 0.2954405
-0.087354377 -0.29749557 0.29583558
-0.084522396 -0.29748273 0.29584396
-0.083484225 -0.29749113 0.29585654
-0.08130233 -0.29750773 0.29584017
-0.078153007 -0.29748091 0.29583076
-0.070017159 -0.29248944 0.29515758
-0.067523494 -0.29250336 0.29519203
-0.066794977 -0.29250109 0.29518965
-0.065031186 -0.29254752 0.29521179
-0.064314954 -0.29253793 0.29520255
-0.062574305 -0.29248077 0.29517514
-0.065327793 -0.29171285 0.29559273
-0.06284456 -0.29165122 0.29555282
-0.060385238 -0.29170227 0.29557821
-0.059626911 -0.29173958 0.29559207
-0.056450896 -0.29166582 0.29557452
-0.060655333 -0.2908583 0.29595819
-0.058185469 -0.29089382 0.29598761
-0.057469726 -0.29088894 0.29598907
-0.056750987 -0.29086441 0.29598063
-0.046345636 -0.28585213 0.29508257
-0.045599595 -0.28583014 0.29507053
-0.044544742 -0.28584331 0.29508579
-0.043490436 -0.28586 0.2951
-0.042377919 -0.28589267 0.29511395
-0.041317463 -0.28587389 0.29511446
-0.038455516 -0.28502536 0.29546943
-0.037368167 -0.28504461 0.29547819
-0.039447453 -0.28421175 0.29585546
-0.038691461 -0.28421044 0.29583538
-0.034447037 -0.28421304 0.29585308
-0.023226444 -0.27835986 0.29514188
-0.022549225 -0.27836129 0.29514322
-0.021471009 -0.27837384 0.29515573
-0.02039855 -0.27841136 0.29517141
-0.016078422 -0.27753747 0.29548568
-0.015311317 -0.27754784 0.29549542
-0.017441114 -0.27669239 0.29583228
-0.016342759 -0.27668294 0.2958253
-0.011687739 -0.27673548 0.29587781
-0.1345717 -0.30822304 0.29617628
-0.1292935 -0.30821756 0.29615435
-0.12854399 -0.30820686 0.29613191
-0.12748116 -0.30816519 0.2961067
-0.12639284 -0.30819556 0.29612595
-0.12534429 -0.30821502 0.2961576
-0.12324356 -0.30819294 0.29614463
-0.12249423 -0.30818647 0.2961317
-0.12426334 -0.30742088 0.29659605
-0.12353761 -0.30739689 0.29659402
-0.1210358 -0.30738115 0.29657885
-0.12033411 -0.30739507 0.29659176
-0.11784758 -0.30740279 0.29658473
-0.10338954 -0.30249402 0.29630876
-0.10056129 -0.30242088 0.29626316
-0.099472247 -0.3024388 0.29629099
-0.09840396 -0.3024655 0.29629347
-0.097364686 -0.30244938 0.29629532
-0.095451877 -0.30163127 0.29671514
-0.094352104 -0.30159807 0.29669341
-0.093679145 -0.30161479 0.29669681
-0.092925273 -0.30163443 0.29671276
-0.090487577 -0.30165786 0.29673424
-0.079501569 -0.29664969 0.29622847
-0.078416064 -0.29666215 0.29623052
-0.074563704 -0.29666749 0.29623187
-0.073821872 -0.2966738 0.296235
-0.076238737 -0.29588208 0.29663646
-0.075543858 -0.29588601 0.29663515
-0.074831896 -0.29586431 0.29663205
-0.071633518 -0.29584882 0.29661301
-0.070573747 -0.29585516 0.29663759
-0.054542128 -0.29002091 0.29631984
-0.05346486 -0.29004043 0.296332
-0.052379321 -0.2900342 0.29633674
-0.051359214 -0.29003191 0.29635027
-0.050260939 -0.29005867 0.29636842
-0.049461726 -0.29006779 0.29635119
-0.035457462 -0.28338844 0.29622859
-0.031471334 -0.28339791 0.29623467
-0.030405313 -0.28338745 0.29623318
-0.029716775 -0.28338361 0.29623389
-0.02897883 -0.28336444 0.29621851
-0.032097284 -0.28259221 0.29661229
-0.027429596 -0.28172302 0.29696113
-0.026379518 -0.28173935 0.296969
-0.025663193 -0.28173012 0.29696879
-0.02458648 -0.28173089 0.29696953
-0.023528568 -0.28174099 0.29698196
-0.022472333 -0.28177494 0.29699719
-0.01013949 -0.27509052 0.29659367
-0.12134439 -0.30657178 0.29700151
-0.11853908 -0.30659342 0.29702693
-0.11640466 -0.30659744 0.29700887
-0.11565217 -0.30659866 0.29700813
-0.11499315 -0.30658919 0.29701149
-0.11324172 -0.30658132 0.29701722
-0.11249266 -0.30658719 0.29702321
-0.110706 -0.30661401 0.29702425
-0.11349835 -0.30578113 0.29745466
-0.11173311 -0.30578753 0.29745448
-0.11099155 -0.30580372 0.29746073
-0.10938659 -0.305392 0.29767323
-0.10853781 -0.30575407 0.29743046
-0.10640815 -0.30578959 0.2974571
-0.10529082 -0.30501831 0.29789659
-0.10457814 -0.30502579 0.29790258
-0.1038876 -0.30501318 0.29789749
-0.10704498 -0.30496579 0.29788113
-0.10069014 -0.30499247 0.29788321
-0.099616706 -0.30499232 0.29788393
-0.09148328 -0.300843 0.2971532
-0.090782143 -0.30084047 0.29715061
-0.089010596 -0.30083886 0.2971262
-0.088257931 -0.3008377 0.29711148
-0.086063392 -0.30002183 0.29756895
-0.08542788 -0.30001938 0.29757771
-0.084676981 -0.30003017 0.29757476
-0.08360216 -0.30004114 0.29756677
-0.086852759 -0.29999441 0.2975494
-0.081442393 -0.29919755 0.29796827
-0.080406256 -0.29919052 0.29796219
-0.079646342 -0.29920599 0.29797322
-0.071963131 -0.29502311 0.29701304
-0.069457144 -0.29503417 0.2970469
-0.068400398 -0.29504025 0.29704678
-0.066265434 -0.29508215 0.29706869
-0.063785747 -0.29501814 0.29703254
-0.066594809 -0.29425427 0.29746735
-0.064454362 -0.2941947 0.29742849
-0.062328912 -0.29422301 0.2974422
-0.061588924 -0.29426602 0.29746097
-0.062600121 -0.29339656 0.29784507
-0.059423044 -0.2934342 0.2978783
-0.058735024 -0.29342324 0.2978735
-0.057994775 -0.29339612 0.29786283
-0.048284188 -0.28841236 0.29711676
-0.046508975 -0.28837448 0.29710022
-0.045437064 -0.28839636 0.29711595
-0.04471954 -0.28841358 0.29712564
-0.043634586 -0.2884261 0.29713345
-0.042566117 -0.288407 0.29713193
-0.039696727 -0.28757653 0.29750809
-0.038976092 -0.28759101 0.29751229
-0.041396629 -0.28676546 0.29791027
-0.040682744 -0.28675646 0.29789463
-0.039984558 -0.28675222 0.29789206
-0.036063869 -0.28675923 0.29790461
-0.035306163 -0.2867671 0.29790586
-0.020198498 -0.28008986 0.29771075
-0.019512001 -0.28007159 0.29768795
-0.018417872 -0.28006616 0.29768556
-0.017345227 -0.28009671 0.29770809
-0.016610788 -0.28009215 0.29771748
-0.13042021 -0.3099395 0.29804626
-0.12933967 -0.30990714 0.29800844
-0.12862055 -0.3098847 0.29800546
-0.12790437 -0.30991471 0.29801914
-0.12544233 -0.30994079 0.29805431
-0.12437679 -0.30991715 0.29804534
-0.12239923 -0.3095119 0.29826632
-0.12154809 -0.30992869 0.29805803
-0.12045579 -0.30912888 0.2985059
-0.11922096 -0.30952781 0.29827082
-0.11687441 -0.30912763 0.29849029
-0.11442275 -0.3091208 0.29849854
-0.11754249 -0.30833441 0.2989412
-0.11539758 -0.30832955 0.29894379
-0.11472896 -0.30831844 0.29894802
-0.11257592 -0.30834228 0.29895103
-0.11041482 -0.30830768 0.29892874
-0.10243057 -0.30415583 0.29828915
-0.10136962 -0.3041507 0.2983014
-0.094862416 -0.30416676 0.29830918
-0.097354613 -0.30338544 0.29877239
-0.096620463 -0.30336347 0.29875919
-0.095535479 -0.303339 0.29873973
-0.09235923 -0.30338663 0.298774
-0.078223839 -0.29841027 0.29838866
-0.07746654 -0.29843718 0.29838967
-0.076438859 -0.2984103 0.29838699
-0.075383581 -0.2984015 0.29838908
-0.074650981 -0.29840639 0.29839623
-0.072186999 -0.29840252 0.2983968
-0.073557034 -0.29758149 0.29879287
-0.072462738 -0.29759014 0.29879689
-0.070715681 -0.29758725 0.29881707
-0.069987245 -0.29758486 0.29881495
-0.059738085 -0.29263282 0.29827785
-0.056513462 -0.29256213 0.29822153
-0.05544626 -0.29258686 0.29822934
-0.054355882 -0.29258394 0.2982401
-0.053677894 -0.29258245 0.29824251
-0.052962691 -0.29257452 0.29825103
-0.051447958 -0.29179132 0.29866987
-0.037065726 -0.28594336 0.29829812
-0.03638659 -0.2859394 0.29829362
-0.034114666 -0.28513744 0.29868487
-0.033240959 -0.28555015 0.2984975
-0.03237009 -0.28594017 0.29829842
-0.03170336 -0.28593817 0.29830533
-0.030962033 -0.28592581 0.29829234
-0.012979962 -0.2792961 0.29811507
-0.0094640665 -0.27922785 0.29806632
-0.0062843007 -0.27926326 0.29810026
-0.01543555 -0.27843761 0.29846823
-0.014345735 -0.27843648 0.29848117
-0.013279451 -0.27845576 0.29848343
-0.010102365 -0.27840865 0.29845542
-0.11074088 -0.30753657 0.29940134
-0.10862746 -0.30751204 0.29939124
-0.10757818 -0.30752194 0.29940337
-0.10512601 -0.30754596 0.29939777
-0.10612883 -0.30677584 0.2998625
-0.10538914 -0.30676901 0.29986373
-0.10438956 -0.30672359 0.29982853
-0.10363174 -0.30670029 0.29980797
-0.10258931 -0.30671406 0.29983491
-0.1015121 -0.30675578 0.29984662
-0.10077476 -0.30673948 0.29984698
-0.093036637 -0.30257958 0.29921314
-0.090521537 -0.30258057 0.29919848
-0.08945857 -0.30257452 0.29917672
-0.088051811 -0.30256093 0.29920173
-0.087327398 -0.30257446 0.29921162
-0.086651482 -0.30257601 0.29921952
-0.085560299 -0.30258662 0.29920959
-0.084470361 -0.30259222 0.29920286
-0.088355727 -0.30174825 0.29961529
-0.081593134 -0.30175892 0.29962447
-0.080915175 -0.30176252 0.29962945
-0.068529606 -0.2968075 0.29924971
-0.067456514 -0.29681665 0.29925272
-0.066046581 -0.29674613 0.29920924
-0.065357029 -0.29675496 0.29922065
-0.062420022 -0.29602385 0.29966962
-0.0663554 -0.29597566 0.29964662
-0.063521877 -0.29597554 0.29965132
-0.049578045 -0.29094914 0.2990354
-0.048492439 -0.2909292 0.29902828
-0.047399733 -0.29094958 0.29904428
-0.046722036 -0.290957 0.29905319
-0.04561086 -0.2909891 0.29906684
-0.044549413 -0.29097086 0.29906747
-0.043852277 -0.29096612 0.2990672
-0.042697035 -0.2893301 0.29987261
-0.041611943 -0.28932315 0.29985562
-0.040524181 -0.28933361 0.29986334
-0.039866284 -0.28934026 0.29987177
-0.029088592 -0.28428453 0.29905733
-0.028335607 -0.28430343 0.2990655
-0.027689161 -0.2842969 0.29906866
-0.026582625 -0.28429303 0.29906893
-0.025505923 -0.28429806 0.2990739
-0.024460696 -0.28432867 0.2990936
-0.022218507 -0.28267705 0.29986003
-0.021495646 -0.28265253 0.29983014
-0.020432729 -0.28263676 0.29981619
-0.019363761 -0.28265876 0.299833
-0.018597104 -0.28266931 0.2998426
-0.0099696247 -0.2767747 0.29921415
-0.0071187397 -0.27679768 0.29919174
-0.0057065729 -0.27679244 0.29921153
-0.0059607029 -0.27598503 0.29957962
-0.12406665 -0.31086147 0.30034202
-0.12161112 -0.31088644 0.30037183
-0.12091095 -0.31087968 0.30036393
-0.11912711 -0.31088674 0.30034968
-0.11837496 -0.31088802 0.30034882
-0.11771531 -0.31087872 0.30035225
-0.11657922 -0.31008616 0.30082291
-0.11556864 -0.31007996 0.30082524
-0.11446509 -0.31008959 0.30082655
-0.11372425 -0.31010562 0.30083263
-0.11193845 -0.31008106 0.30082116
-0.09933991 -0.30594209 0.30030328
-0.098555855 -0.30593383 0.30030942
-0.097472616 -0.30590534 0.30028442
-0.096428551 -0.30590904 0.30028114
-0.095674396 -0.30592871 0.30029717
-0.094590843 -0.3051452 0.30076456
-0.09354037 -0.30514687 0.30076689
-0.091017909 -0.30514383 0.30072731
-0.083337188 -0.30097193 0.30006859
-0.082605354 -0.30095059 0.30006218
-0.081942268 -0.30093479 0.30005527
-0.079594135 -0.30057475 0.30028072
-0.078172155 -0.30058134 0.30027741
-0.077335395 -0.30096042 0.30006245
-0.075158753 -0.3001433 0.30047011
-0.0744159 -0.30015332 0.30047444
-0.073715568 -0.30016267 0.30049485
-0.072248004 -0.29935029 0.30094028
-0.071564265 -0.29934931 0.30093366
-0.070817828 -0.29936346 0.30094707
-0.069428757 -0.29939154 0.30095911
-0.061673008 -0.29521003 0.30009645
-0.060629107 -0.29518732 0.30009782
-0.059552386 -0.29516077 0.30008996
-0.058085993 -0.2943221 0.30047116
-0.057353247 -0.29432827 0.30046028
-0.0566319 -0.29435065 0.30046824
-0.055555277 -0.29434332 0.30047709
-0.054526478 -0.294339 0.30048308
-0.053442359 -0.29435289 0.30050433
-0.052273482 -0.29437467 0.30049196
-0.050105035 -0.29350817 0.30087855
-0.039078947 -0.2885175 0.30027831
-0.038354572 -0.28851712 0.30027643
-0.037676875 -0.28851336 0.30027169
-0.036888447 -0.28851932 0.3002772
-0.035367444 -0.28773031 0.30069321
-0.034671955 -0.28772119 0.30069023
-0.033605702 -0.28770086 0.30068666
-0.017152404 -0.28184149 0.30025005
-0.015654474 -0.28102654 0.30064738
-0.014981207 -0.28186679 0.30025804
-0.0057584601 -0.28186288 0.30024707
-0.010292698 -0.28016752 0.300989
-0.0095496075 -0.28018597 0.30098715
-0.11230911 -0.30931959 0.30130002
-0.11054217 -0.30925852 0.30126798
-0.1094493 -0.30928573 0.30128986
-0.1073207 -0.30934015 0.30130574
-0.10662916 -0.3093279 0.30130073
-0.10763852 -0.30854139 0.3017666
-0.10518263 -0.30848339 0.30172291
-0.10448157 -0.30847117 0.30172262
-0.10339943 -0.30850056 0.30175036
-0.10231785 -0.30852234 0.30175132
-0.092054352 -0.30435479 0.3012172
-0.091369256 -0.30434775 0.3011941
-0.089621082 -0.30431286 0.30119658
-0.088513866 -0.30433905 0.30122083
-0.087445393 -0.30434853 0.30122238
-0.08673507 -0.30435431 0.30121455
-0.08458215 -0.30353951 0.30164784
-0.083521724 -0.30351886 0.30164313
-0.082423918 -0.30353677 0.30165172
-0.070072256 -0.29857442 0.30139011
-0.067601286 -0.29853004 0.30135128
-0.066909455 -0.29851472 0.301355
-0.065409929 -0.29773569 0.30180165
-0.064724669 -0.29774672 0.30180347
-0.063985616 -0.29778922 0.30182222
-0.062233139 -0.29777303 0.30183518
-0.061544985 -0.29776227 0.30183029
-0.05111406 -0.29274148 0.30132115
-0.05040979 -0.29270327 0.30129039
-0.048623238 -0.29271764 0.30131549
-0.047549218 -0.29274267 0.30133018
-0.046464399 -0.29275519 0.30133793
-0.045395404 -0.29273644 0.30133647
-0.043590963 -0.29191554 0.30174097
-0.042535897 -0.29191685 0.3017441
-0.041814908 -0.29193139 0.30174825
-0.031078298 -0.28686064 0.30107081
-0.03033684 -0.28688437 0.30107719
-0.029657463 -0.28688857 0.30108199
-0.02852672 -0.28606448 0.30148649
-0.027449407 -0.28606561 0.30148709
-0.026391281 -0.28607583 0.30149937
-0.02569657 -0.2861079 0.30151227
-0.024231873 -0.28528655 0.3019183
-0.022433335 -0.28523898 0.30186194
-0.013069447 -0.2802316 0.30104405
-0.012397354 -0.2802031 0.30103603
-0.011717256 -0.28017989 0.30101275
-0.010979743 -0.28016135 0.30100009
-0.0088444669 -0.28022856 0.3010076
-0.0073602782 -0.27938706 0.30140513
-0.11740668 -0.31187034 0.3026498
-0.11564821 -0.31187469 0.30265486
-0.11453831 -0.31189767 0.30265749
-0.11348507 -0.31188032 0.30265355
-0.11275838 -0.31185427 0.30263257
-0.10050173 -0.30772001 0.30223116
-0.099382259 -0.30770341 0.30222422
-0.098634787 -0.30768454 0.30220708
-0.097590849 -0.30768818 0.3022055
-0.095438063 -0.30693394 0.30270714
-0.094204694 -0.30693805 0.30270886
-0.093293503 -0.30693284 0.30269444
-0.092612587 -0.30693656 0.30267593
-0.091850296 -0.30691653 0.30266854
-0.081011727 -0.30275303 0.30209821
-0.080255061 -0.30277932 0.30209944
-0.079587772 -0.3027626 0.30209452
-0.078518301 -0.30274355 0.30209929
-0.077387765 -0.30194935 0.30255628
-0.076354295 -0.30193645 0.30253389
-0.075261138 -0.30194449 0.30253756
-0.074575074 -0.30194756 0.30255827
-0.062558241 -0.2969828 0.30226627
-0.060041331 -0.29692435 0.30224237
-0.059333514 -0.29691312 0.30220914
-0.058592714 -0.29693595 0.30221355
-0.0573554 -0.29653519 0.30244228
-0.056092136 -0.29612976 0.30266652
-0.055377044 -0.29612184 0.30267525
-0.05469365 -0.29613736 0.30269024
-0.053861428 -0.29616931 0.30268866
-0.039652802 -0.29111198 0.30217272
-0.038532943 -0.29111496 0.30217302
-0.03992274 -0.29030615 0.30259779
-0.035604283 -0.29030645 0.30259824
-0.034560125 -0.29030085 0.30260518
-0.023079166 -0.28444564 0.30229276
-0.020589577 -0.28443801 0.30228031
-0.018375076 -0.28362951 0.302715
-0.017316667 -0.28362748 0.30272409
-0.016593397 -0.28364724 0.30272514
-0.11382022 -0.31111225 0.30314049
-0.11205555 -0.31105694 0.30311027
-0.11133048 -0.31106219 0.30311888
-0.11063223 -0.31108072 0.30313241
-0.10956044 -0.31110162 0.30313739
-0.10851272 -0.31112897 0.30314627
-0.10675333 -0.31029624 0.30359405
-0.10566328 -0.31027639 0.30358183
-0.10457496 -0.31029341 0.30360997
-0.10387673 -0.31032789 0.30361176
-0.091138162 -0.30611309 0.3031418
-0.090429485 -0.30612198 0.30316466
-0.089366525 -0.30613631 0.3031787
-0.088283397 -0.30614439 0.30317435
-0.086467765 -0.30535761 0.30363142
-0.085397817 -0.3053281 0.30361983
-0.084734619 -0.30531216 0.30361286
-0.083980799 -0.30533281 0.30361825
-0.073454276 -0.30114496 0.30300999
-0.072384782 -0.30114207 0.30300799
-0.071337037 -0.30117404 0.30302224
-0.070622936 -0.30118766 0.30302972
-0.069172733 -0.30035457 0.30345008
-0.068454318 -0.3003155 0.30343306
-0.066683471 -0.30034256 0.30345079
-0.066980943 -0.29953176 0.30389956
-0.065594785 -0.29956794 0.30391124
-0.06450098 -0.2995998 0.30393168
-0.063456222 -0.29957771 0.30393314
-0.062379386 -0.29955161 0.30392516
