# .PCD v0.7 - Point Cloud Data file format
VERSION 0.7
FIELDS x y z
SIZE 4 4 4
TYPE F F F
COUNT 1 1 1
WIDTH 520
HEIGHT 1
VIEWPOINT 0 0 0 1 0 0 0
POINTS 520
DATA ascii
0.12193999 -0.50295168 0.005262142
-0.074509636 -0.59743285 0.0068803369
-0.0042737722 -0.55732435 0.0066302167
0.027890369 -0.54322946 0.0068119271
-0.16646487 -0.63717216 0.0074468991
-0.14924923 -0.62971056 0.0075292927
-0.14661491 -0.62852764 0.0075309933
0.0018779188 -0.56422323 0.0074215485
0.034068108 -0.549613 0.0084044598
-0.12919852 -0.62042183 0.0084927632
-0.02545546 -0.57479912 0.008497145
0.0044543892 -0.56216997 0.0092265606
0.11594434 -0.49338472 0.0100384
0.10888284 -0.47727171 0.010355438
-0.069998741 -0.59401286 0.0095782243
-0.047749341 -0.58432657 0.0096843997
0.036637083 -0.54751211 0.010134945
-0.045309901 -0.58268839 0.010492126
-0.19554776 -0.65763795 0.011801716
-0.17385989 -0.64804339 0.01183317
-0.1579548 -0.64110136 0.011924918
0.0091691613 -0.55819017 0.012788504
0.038875133 -0.54514897 0.012790343
-0.14077914 -0.63313735 0.012915383
-0.063483208 -0.59938192 0.013200183
-0.042748258 -0.58016187 0.013175107
0.061178014 -0.5349285 0.013748019
-0.018386349 -0.568923 0.013924886
-0.10461792 -0.60693783 0.014027195
0.0066709071 -0.55839747 0.01457058
0.12668651 -0.51526147 0.015743861
0.011677966 -0.55566919 0.015497647
0.014095545 -0.55420101 0.016409861
0.043974295 -0.54103166 0.016341308
-0.17195889 -0.6452986 0.015458262
-0.13834737 -0.63063413 0.015520327
0.063535869 -0.53206992 0.017336592
0.13415119 -0.53156006 0.01712887
-0.19435631 -0.65415782 0.017109888
-0.15580091 -0.63736796 0.017332824
-0.11576062 -0.6197964 0.017410858
-0.037000239 -0.58517671 0.01755829
-0.19270696 -0.65293521 0.017963026
-0.18208972 -0.64824635 0.018018251
-0.17001048 -0.64290237 0.018023895
-0.13579656 -0.62800854 0.018132953
-0.086247981 -0.6064527 0.018493177
-0.061507866 -0.59558994 0.018524705
0.065766722 -0.53017247 0.019163433
-0.11324443 -0.61772132 0.019227151
-0.012549579 -0.57354724 0.019360524
0.1038992 -0.47471747 0.021345075
-0.11096506 -0.61623812 0.020106625
-0.083690852 -0.60439962 0.020237247
-0.059279203 -0.59365177 0.020333923
-0.034735993 -0.58275735 0.020222902
0.046102747 -0.53773373 0.020770246
-0.15326607 -0.63423818 0.020810848
-0.13367489 -0.62562424 0.02079758
-0.009762466 -0.57142049 0.021203054
0.01991877 -0.55867118 0.021702468
-0.16767095 -0.63952494 0.022444962
-0.032094106 -0.5801236 0.022816017
0.10624985 -0.47243428 0.024086455
-0.20167521 -0.65441751 0.022380203
-0.081209064 -0.6018731 0.022923684
-0.056727916 -0.59058595 0.023865975
0.057201251 -0.54083282 0.024284886
-0.18781447 -0.6571157 0.024159014
0.12734473 -0.5199495 0.024624895
-0.10899501 -0.61288273 0.024527945
-0.078960717 -0.59989578 0.024691241
-0.054301426 -0.58908147 0.024783712
0.02239047 -0.55559731 0.025255255
0.024979189 -0.55455381 0.025288388
0.051937655 -0.54259068 0.025115721
0.071871892 -0.53398818 0.025308074
-0.17682114 -0.65187013 0.025080681
-0.13153562 -0.62221724 0.025240568
-0.10645641 -0.61135125 0.025422562
-0.0077210367 -0.56818604 0.025764313
-0.17314184 -0.64973372 0.025999924
-0.076783985 -0.59795296 0.026475977
-0.029909134 -0.57719785 0.026320901
-0.18429191 -0.65409869 0.026744327
-0.10391714 -0.60928202 0.027247163
-0.0054451525 -0.56627792 0.027577521
0.027095601 -0.5521524 0.027954407
-0.027647018 -0.57520455 0.028032381
-0.19716802 -0.65925443 0.027744945
0.054433182 -0.53956336 0.028676445
-0.1477614 -0.63717866 0.028811827
-0.0031378418 -0.56428504 0.029400662
0.029309198 -0.55015206 0.029712569
-0.17532249 -0.64863825 0.029464917
-0.16230056 -0.64303708 0.029592013
-0.14536071 -0.63561177 0.029623359
-0.14293027 -0.63459849 0.029667731
-0.048507988 -0.59332436 0.030054921
0.037829787 -0.555637 0.030600045
-0.00027266145 -0.56261325 0.030339669
0.0020755827 -0.56158078 0.030380297
0.073893808 -0.53016871 0.030628508
-0.1959188 -0.65719718 0.030296881
-0.18652688 -0.65300918 0.030328318
-0.12511204 -0.62632394 0.030626874
-0.1229412 -0.62480158 0.031490412
-0.12056985 -0.62372309 0.031490218
-0.070830584 -0.60210508 0.031726494
0.031917006 -0.54801345 0.031468391
0.05889608 -0.53567326 0.032245461
0.1380648 -0.54072618 0.032815676
-0.098204821 -0.61355788 0.032557972
0.099615708 -0.54655707 0.03377967
-0.19446084 -0.6550467 0.032885086
-0.16033918 -0.64013493 0.033084169
-0.046116158 -0.59022176 0.033558868
-0.068462878 -0.59945947 0.034283251
0.007922709 -0.56624126 0.034824714
-0.021728128 -0.57878441 0.034152608
-0.095925808 -0.6110518 0.035197251
-0.043867126 -0.58826351 0.035317522
-0.06629765 -0.5974685 0.03601221
-0.019477651 -0.57629454 0.036742143
0.075936034 -0.52538031 0.037680775
-0.10829434 -0.65605026 0.035949923
-0.078150943 -0.64300102 0.036162455
-0.075907379 -0.64195478 0.036082737
-0.10593569 -0.65497714 0.035952356
-0.053672284 -0.63215435 0.036116995
0.01112248 -0.59350252 0.036637202
0.10544431 -0.55221421 0.036969312
-0.14068207 -0.62956083 0.03666845
-0.064000726 -0.59595799 0.036934379
-0.041796789 -0.58578831 0.03791685
-0.017099246 -0.57471663 0.037577152
0.065110378 -0.49252254 0.039587505
0.025276467 -0.59725511 0.037536103
0.030116215 -0.59509981 0.037535407
0.05983758 -0.58205682 0.03752761
-0.17208706 -0.68270564 0.037347812
-0.026973322 -0.6193428 0.037936069
0.0088330656 -0.57345361 0.038435746
-0.19319496 -0.65208089 0.037362862
-0.093149841 -0.60838521 0.037824489
0.039946556 -0.5501647 0.038418304
-0.090943053 -0.60685194 0.038620505
0.010323644 -0.56268615 0.039224043
-0.18281779 -0.69791776 0.037406225
0.11813866 -0.56654465 0.038748566
-0.015768737 -0.6242131 0.038748849
0.10436787 -0.56141269 0.039311282
0.10675718 -0.56034958 0.03931164
0.13645154 -0.54747701 0.039551776
-0.17913595 -0.67496532 0.038342491
-0.16852361 -0.67027694 0.038397636
-0.18752849 -0.66829544 0.038593918
-0.13356242 -0.64474034 0.038878724
-0.056885019 -0.61113852 0.039142556
-0.053915739 -0.60995483 0.039213106
-0.032158449 -0.60027128 0.039164715
0.027446643 -0.57449585 0.039752226
0.074428469 -0.55386877 0.039753746
-0.18500412 -0.65745836 0.038295526
-0.1612919 -0.64715809 0.038425446
-0.023422331 -0.58621085 0.039635979
-0.11817291 -0.61813593 0.039337296
-0.039420217 -0.58364511 0.039582912
0.091898844 -0.52637523 0.040208332
0.095696636 -0.57575482 0.039473344
-0.16472852 -0.68884522 0.03907204
-0.15296131 -0.68372017 0.039158307
-0.13704413 -0.67677188 0.039245576
-0.12218654 -0.67031056 0.039310779
-0.11728832 -0.6681844 0.039319828
-0.11451937 -0.66750735 0.038447108
-0.094619974 -0.65828294 0.039441995
-0.07005094 -0.64808649 0.038674042
0.0063015968 -0.61388195 0.039447844
-0.16108496 -0.67678243 0.03903817
-0.14805925 -0.67117995 0.039166626
-0.13113007 -0.66375798 0.039199021
-0.086204857 -0.64416856 0.039506856
-0.083818316 -0.64314556 0.039508622
-0.081411496 -0.64209127 0.039525468
-0.059113473 -0.63237101 0.039621755
-0.056490153 -0.63121086 0.039551925
-0.051719457 -0.62898523 0.039457783
-0.034276262 -0.62147152 0.039630469
-0.03169331 -0.62029624 0.039634611
-0.029335439 -0.61929715 0.039642755
-0.0072526932 -0.60934108 0.039341804
-0.00485228 -0.60829419 0.039304323
-0.0024341196 -0.60720122 0.039261371
0.01757516 -0.59889805 0.039952774
0.019907758 -0.5978719 0.039996814
0.022392929 -0.59679687 0.040033311
0.032485008 -0.59233624 0.040100325
0.052049205 -0.58378667 0.040185489
0.054608136 -0.58265024 0.040124655
0.057256222 -0.58145499 0.040068731
0.076810315 -0.57290328 0.040087365
0.079290733 -0.57182008 0.040080778
0.081927001 -0.57069021 0.040119208
-0.18089992 -0.6751973 0.039221603
-0.17065489 -0.67062676 0.039168753
-0.15652394 -0.66441703 0.039249703
-0.14235021 -0.65840983 0.039445147
-0.097385734 -0.63868374 0.039568491
-0.095220506 -0.63767111 0.039577231
-0.067516178 -0.6257242 0.039741717
0.093078122 -0.55550754 0.040378176
0.11502884 -0.54585779 0.040422019
0.022320434 -0.57616282 0.040547464
-0.1138079 -0.6355049 0.039809063
-0.11097112 -0.63425171 0.039779063
-0.083786815 -0.62248528 0.039939567
-0.0074583292 -0.5882259 0.040657815
-0.005144015 -0.58780718 0.039887067
0.024926126 -0.57500464 0.040588006
0.054367498 -0.56209934 0.040571749
-0.1680308 -0.64956558 0.039273847
-0.10259405 -0.62095672 0.039611284
-0.047899172 -0.59715426 0.039868012
0.0010874122 -0.57575244 0.040011566
0.0034679472 -0.57469881 0.040070277
0.035909712 -0.56056619 0.040386461
0.038601145 -0.55936402 0.040376704
0.087966137 -0.53779334 0.040377561
-0.19812101 -0.66217428 0.040051963
-0.17985862 -0.6541965 0.040052954
-0.154403 -0.64309323 0.040227138
-0.072613582 -0.60747278 0.040641885
-0.045522019 -0.5955677 0.040675826
-0.02113694 -0.58466053 0.040448248
0.063509598 -0.54794306 0.041117139
0.085645653 -0.53829861 0.041278347
0.10759824 -0.52864772 0.041324053
-0.061236113 -0.5928511 0.040503871
-0.01464805 -0.57213819 0.040238861
-0.012397781 -0.57121187 0.04032601
0.017679647 -0.5584054 0.041014537
0.042442515 -0.54752767 0.040992245
0.04478243 -0.54652691 0.040976383
0.064473405 -0.53789437 0.041008703
0.06711562 -0.53676218 0.04104409
0.094169453 -0.52489018 0.041151475
0.12156533 -0.5130114 0.041313723
0.080828272 -0.52129257 0.041182593
0.11034191 -0.48025906 0.042578746
0.091885246 -0.47942218 0.042335898
-0.15088856 -0.68284512 0.039258603
-0.11984661 -0.66928113 0.03936702
-0.097176045 -0.65935606 0.039485324
-0.092023894 -0.65714389 0.03949625
0.11565901 -0.56642377 0.04036564
0.12041251 -0.56437767 0.0403887
-0.16304699 -0.68752015 0.039921299
-0.15530714 -0.68415177 0.039971337
-0.14213067 -0.67841309 0.040056009
-0.13474572 -0.67530525 0.040201932
-0.12490712 -0.67094529 0.040142685
-0.099617094 -0.65978187 0.040181056
-0.038110822 -0.63299787 0.040553644
-0.018202424 -0.62412703 0.040438764
0.065706387 -0.58763677 0.040979661
-0.18170574 -0.68528605 0.039839048
0.027382404 -0.59406883 0.040903535
0.084352672 -0.56910706 0.040988814
0.1014654 -0.56160182 0.041039053
0.12904601 -0.54954481 0.041155823
0.1313405 -0.54858196 0.041206274
0.13365428 -0.54760808 0.041266918
-0.19075516 -0.67885917 0.039998978
-0.1607243 -0.66575646 0.040087391
-0.14480945 -0.65880978 0.04017606
-0.12237102 -0.64899677 0.040208276
-0.070188612 -0.6263231 0.040550284
-0.043063998 -0.6143837 0.040647417
-0.018468574 -0.60345805 0.04047446
-0.016115606 -0.60240227 0.040446937
0.03868553 -0.57881343 0.041197371
0.040924057 -0.57781851 0.04121634
0.045904875 -0.5755561 0.041197021
0.065648109 -0.56685704 0.041009989
0.068298817 -0.56570435 0.041041948
0.1102062 -0.54748333 0.041338138
0.11264662 -0.54641426 0.041315239
-0.18925874 -0.66798425 0.040348772
-0.16871405 -0.6589452 0.040390767
-0.086100489 -0.62302548 0.040877447
-0.034755483 -0.60043287 0.040969327
0.019832015 -0.57676572 0.041408896
0.096660063 -0.54304028 0.041505605
0.12378798 -0.53128052 0.041716177
0.12610608 -0.53030407 0.04177478
-0.010120988 -0.58885354 0.041480321
-0.17814578 -0.65292394 0.040939681
-0.14713782 -0.6394484 0.041158322
-0.075004011 -0.60801929 0.041507609
-0.0013837963 -0.57573414 0.041697294
0.031321064 -0.56212771 0.041242499
-0.036853522 -0.58151579 0.041345559
-0.034593225 -0.58050811 0.041323565
0.012594447 -0.56019545 0.041852091
0.020082504 -0.55690789 0.041911718
0.047078803 -0.54501534 0.041876078
0.049964234 -0.54374623 0.041842036
0.052261099 -0.54271984 0.041818954
0.069560692 -0.5352363 0.041946653
0.10532402 -0.50996315 0.042106491
0.11456178 -0.49664077 0.042503819
0.083224319 -0.49169603 0.043439195
0.085541397 -0.49071595 0.043479607
0.094384834 -0.47793645 0.043261684
0.097273521 -0.47676557 0.043324564
0.099576764 -0.47579926 0.043369249
0.09317524 -0.57511979 0.041944351
0.14494756 -0.55237526 0.042050857
0.0037924498 -0.61316752 0.04185535
-0.18317653 -0.68536091 0.040754475
-0.1109733 -0.65387595 0.041008338
0.12602673 -0.55020183 0.041929819
-0.15872547 -0.66435957 0.04103516
-0.12512237 -0.6496979 0.041096758
-0.099855691 -0.63865685 0.041272826
-0.072902828 -0.62691766 0.041424893
-0.045854181 -0.61505735 0.041497581
-0.04066202 -0.61282265 0.041534733
0.0083267838 -0.59141994 0.041676931
0.043142036 -0.57623631 0.042057149
0.070807576 -0.56410497 0.041913856
0.087776579 -0.55672073 0.042081926
0.090138666 -0.55568057 0.0420716
-0.17263572 -0.66983825 0.041700415
-0.0139191 -0.60030532 0.042091586
0.0058896095 -0.59187299 0.042479355
0.014705762 -0.57844782 0.042238288
0.017350912 -0.57730156 0.04226388
-0.17993477 -0.66328901 0.041239314
-0.16679198 -0.65760547 0.04128474
-0.15360573 -0.65186238 0.041369047
-0.14126885 -0.64649487 0.041473921
-0.13881855 -0.64541018 0.041408572
-0.13638833 -0.6443969 0.041453503
-0.11851516 -0.63660198 0.041536648
-0.11630014 -0.63556367 0.041525319
-0.093892753 -0.62582022 0.041714683
-0.091512352 -0.62479961 0.041718204
-0.089096487 -0.62374198 0.041733727
-0.064187139 -0.61286575 0.04176189
-0.061676621 -0.61166734 0.041692916
-0.059412628 -0.61063921 0.041670538
-0.037030011 -0.60095143 0.04185285
-0.012606978 -0.58943969 0.042380501
0.046921358 -0.56430089 0.042331513
0.049566209 -0.56310773 0.042278331
0.051909029 -0.56210583 0.042261675
0.071598634 -0.55347389 0.04229274
0.076736659 -0.55129647 0.042357501
0.09385591 -0.54378814 0.042406663
0.11599772 -0.53399462 0.042446569
0.12142775 -0.53173548 0.042525701
-0.19684365 -0.66061479 0.041862532
-0.18844701 -0.65699881 0.041855894
-0.17614155 -0.65155661 0.041882031
-0.14989313 -0.64020878 0.042078473
-0.13507968 -0.63363808 0.042075228
-0.13252561 -0.63254213 0.042031888
-0.12984794 -0.63132095 0.041995462
-0.1124129 -0.6237148 0.042194862
-0.085363537 -0.6118927 0.042218138
0.028615579 -0.56218362 0.042942286
0.060827509 -0.54802638 0.04282888
0.014975488 -0.55859983 0.042724822
0.071803465 -0.53376776 0.042868786
0.078482516 -0.52135658 0.042980924
0.10303751 -0.51000714 0.043845166
0.08710207 -0.50761056 0.044124443
0.089925818 -0.50692588 0.043303452
0.076309964 -0.5035255 0.043633353
0.067319736 -0.48946249 0.04411187
0.069718815 -0.48839173 0.044109751
-0.17640032 -0.6922164 0.041520268
-0.16115834 -0.68555236 0.041667681
-0.13952397 -0.6760956 0.04173902
-0.010965511 -0.61977988 0.04203992
0.11258973 -0.56592715 0.042787012
-0.18437189 -0.68534696 0.041571267
-0.16305435 -0.67599928 0.041552208
-0.1141545 -0.65456885 0.041783363
0.098922551 -0.56159538 0.042724077
0.12344941 -0.55073833 0.042758625
-0.17417654 -0.68022835 0.042347003
-0.15046342 -0.66992694 0.04247592
-0.13389519 -0.66270351 0.042631861
-0.11655629 -0.65509492 0.042596322
0.12118175 -0.55117691 0.043569852
-0.18254137 -0.67429781 0.041759353
-0.14717698 -0.65873367 0.041872874
-0.12782022 -0.64974999 0.042841841
-0.10515168 -0.63982588 0.04296086
-0.10252434 -0.63927454 0.042070072
-0.078107029 -0.6280061 0.042983014
-0.075301796 -0.62735361 0.042143397
-0.048297882 -0.61501265 0.043151218
-0.026089951 -0.60514414 0.043086901
-0.023828343 -0.60413539 0.043062873
-0.02144894 -0.60312223 0.043081716
0.00070668757 -0.59343898 0.043098398
0.0035919845 -0.59224027 0.043172952
0.033312231 -0.58001822 0.04283981
0.03594023 -0.57881975 0.042862687
0.060729027 -0.56737381 0.043586504
0.082609266 -0.55787981 0.043740682
0.085440002 -0.5572083 0.042907126
0.10775416 -0.54741573 0.042992707
-0.15581736 -0.65232569 0.042235579
-0.096575782 -0.62644446 0.042512178
-0.066866666 -0.61351424 0.042686772
-0.039444357 -0.60143936 0.042702928
0.044301957 -0.56492698 0.043247778
0.11843612 -0.53241384 0.04331816
-0.17064264 -0.65824193 0.042957272
-0.12172861 -0.63680679 0.043187909
-0.015067428 -0.58997685 0.043275677
0.068995401 -0.55353773 0.044014841
-0.18681107 -0.65574944 0.04269354
-0.16618763 -0.64670956 0.042836819
-0.10991207 -0.62214553 0.043023113
-0.10731298 -0.62100542 0.043074522
-0.10498904 -0.61998951 0.043070827
-0.05059202 -0.59621048 0.043299384
0.033391848 -0.55964535 0.043861255
0.058115423 -0.54868591 0.043665402
0.078049764 -0.54008037 0.043859117
0.10036591 -0.53028733 0.043944821
0.10511333 -0.52824253 0.043966893
0.089324959 -0.52550727 0.043704994
0.11415255 -0.51471293 0.043865886
0.11645122 -0.51374835 0.043913588
0.11877366 -0.51276922 0.043970171
0.095602252 -0.5129171 0.044855937
0.098032914 -0.51185167 0.044835113
0.10035507 -0.51076853 0.044793982
0.084737353 -0.50816476 0.04494885
0.068835586 -0.50636816 0.044562545
0.071624488 -0.50515437 0.044565145
0.098428786 -0.49329177 0.044577047
0.080403291 -0.49198046 0.045180347
0.10779361 -0.48010248 0.045337938
0.072431855 -0.48673201 0.044987444
-0.17802656 -0.70280492 0.042719658
-0.16963801 -0.69919312 0.042713944
-0.16794285 -0.69843924 0.042685047
0.12894207 -0.56861961 0.043835275
-0.17497253 -0.69111097 0.042461619
-0.090034395 -0.65393341 0.042819526
-0.065414578 -0.6432125 0.042978995
-0.06276834 -0.64209479 0.042952009
-0.042872369 -0.63332844 0.042971589
-0.040665776 -0.63235098 0.043001756
-0.013820544 -0.62046236 0.042930327
0.011230946 -0.60957515 0.043019004
0.038481787 -0.59787166 0.043519311
0.040871188 -0.59683597 0.04354652
0.068360761 -0.58471251 0.043437116
0.070665389 -0.58368242 0.043409903
0.090235963 -0.57522047 0.043592997
0.14244062 -0.55236006 0.043730557
-0.16674073 -0.68680286 0.043165684
-0.045943782 -0.63397062 0.043731812
-0.021215051 -0.6231041 0.043751977
0.0082509071 -0.61023009 0.043777913
-0.18586794 -0.6848287 0.043290932
-0.13622779 -0.66317195 0.043452848
-0.089214146 -0.64262527 0.043649781
0.062959373 -0.56582344 0.044411097
-0.19196472 -0.66759187 0.042975605
-0.19084159 -0.66706812 0.042997714
0.0096917301 -0.57902479 0.044735055
0.11361182 -0.53344494 0.044993822
0.13101575 -0.52593398 0.045123857
-0.16417664 -0.64522612 0.043620475
-0.15239732 -0.64014381 0.04369843
-0.082745805 -0.60972995 0.04396344
-0.0804158 -0.60877061 0.044090867
-0.077775776 -0.60765547 0.044068702
-0.055670813 -0.59791046 0.044120971
-0.028817996 -0.58601844 0.044053365
-0.026050866 -0.58478904 0.043997549
0.025870219 -0.56239223 0.044653192
0.080261 -0.53857476 0.044750452
0.10262194 -0.52881432 0.044855572
0.086492285 -0.52579749 0.045494549
0.11113978 -0.51493156 0.045550633
0.082327865 -0.50876743 0.045834448
0.10715209 -0.49797472 0.045994744
0.10945269 -0.49700937 0.046041127
0.11177943 -0.49602753 0.046095785
0.073862061 -0.50371397 0.045430563
0.093554974 -0.49506116 0.045511972
0.096192054 -0.4938342 0.045448903
0.10512437 -0.48088098 0.04627287
0.10144077 -0.58016342 0.044685259
0.1261902 -0.56929731 0.044735268
-0.067826241 -0.64362174 0.043675631
-0.06183055 -0.63016236 0.044645172
-0.17443568 -0.66897154 0.044185694
-0.1241881 -0.63685298 0.044876546
-0.053420529 -0.59641367 0.045032419
-0.0067744106 -0.57534522 0.045804974
-0.0038981736 -0.57415068 0.045880772
0.1042146 -0.49869812 0.046820801
0.091201805 -0.4957062 0.046449654
0.10414935 -0.5783838 0.045516551
0.082515232 -0.5365423 0.046474408
0.078005612 -0.49171507 0.047830019
0.10613603 -0.57570022 0.04794848
0.13185194 -0.53302687 0.049035259
