# .PCD v0.7 - Point Cloud Data file format
VERSION 0.7
FIELDS x y z
SIZE 4 4 4
TYPE F F F
COUNT 1 1 1
WIDTH 1417
HEIGHT 1
VIEWPOINT 0 0 0 1 0 0 0
POINTS 1417
DATA ascii
0.38508454 1.5237461 0.76752424
0.37295452 1.5327735 0.69880295
0.35498431 1.5606487 0.5970031
0.34261644 1.5566036 0.52692741
0.33035889 1.5580655 0.45748016
0.31809992 1.559065 0.38802502
0.30575404 1.5665892 0.31807965
0.29343134 1.5636362 0.24826191
0.28097358 1.5651512 0.17767976
0.2632603 1.527683 0.077313431
0.24931358 1.566071 -0.0017003493
0.23655458 1.5614374 -0.073992863
0.22735478 1.4820414 -0.12612231
0.2197585 1.3881747 -0.16915973
0.21359263 1.287137 -0.20408429
0.23943548 0.74556255 -0.057586767
0.23675099 0.66842443 -0.072749518
0.22940901 0.65646797 -0.11430975
0.21566339 0.71268797 -0.1921728
0.24851505 0.18335834 -0.0057073901
0.24841446 0.13784835 -0.0061971685
0.24876857 0.093125999 -0.0041067046
0.24856286 0.056212109 -0.0051891697
0.24859267 0.020666694 -0.0049348255
0.24859548 -0.012047286 -0.004832448
0.24839956 -0.041366715 -0.0058561023
0.24820587 -0.068855718 -0.0068662339
0.2449248 -0.079820059 -0.025385262
0.24825346 -0.12117535 -0.0064175273
0.2476252 -0.14246911 -0.0098904716
0.24728084 -0.17515691 -0.011707261
0.24803607 -0.18872879 -0.007378099
0.24745803 -0.21777853 -0.010518864
0.24755764 -0.23782082 -0.0098616127
0.24787673 -0.27604154 -0.0078661656
0.24775445 -0.29356462 -0.0084664347
0.24775083 -0.31090152 -0.0083935
0.24769741 -0.3277337 -0.0086027998
0.24775432 -0.34439525 -0.0081861075
0.24775027 -0.36063761 -0.0081149917
0.24733834 -0.3761586 -0.010357264
0.24787912 -0.39249733 -0.0071952799
0.24766198 -0.40789735 -0.0083323754
0.24742593 -0.43094942 -0.0095292144
0.24744315 -0.44632176 -0.0093365489
0.24737999 -0.46164301 -0.0095998961
0.24740964 -0.47696424 -0.0093364837
0.24735892 -0.49233657 -0.00952903
0.2468839 -0.50805473 -0.012128443
0.24721396 -0.53125799 -0.010112973
0.24732457 -0.54693657 -0.0093900468
0.246856 -0.56354821 -0.011952744
0.24683252 -0.57992601 -0.011990475
0.24691492 -0.59642947 -0.011427401
0.24661234 -0.61401236 -0.013048467
0.24711093 -0.63921052 -0.010076512
0.23743272 -0.6820994 -0.064887464
0.24660489 -0.67732632 -0.012756295
0.2462555 -0.69779235 -0.014642959
0.24606262 -0.71864849 -0.01564171
0.24644002 -0.7492184 -0.013357528
0.24664809 -0.77080703 -0.012081778
0.24661011 -0.79445344 -0.01220208
0.24555355 -0.8241387 -0.018101335
0.24581508 -0.84938139 -0.016522625
0.24654673 -0.88817126 -0.012229497
0.24626678 -0.92059016 -0.013723349
0.24594136 -0.95584309 -0.015475594
0.072984777 -2.3064034 -0.99662125
0.072769336 -2.4469986 -0.99776274
0.072025687 -2.6063917 -1.0019031
0.074119732 -2.757338 -0.98994416
0.1043044 -2.6449192 -0.81859559
0.23726073 -2.6004004 -0.063501231
0.28415808 -2.5859523 0.20288792
0.3100096 -2.5853562 0.34973618
0.32286683 -2.5786495 0.4227719
0.33563927 -2.571362 0.49532643
0.34849334 -2.5754845 0.56834233
0.36112463 -2.56108 0.64008498
0.37417048 -2.5669522 0.71416575
0.38700175 -2.5592811 0.78703123
0.71595633 -8.9105453 2.6524248
0.80424613 -6.4087667 3.1539757
0.81213874 -5.9938331 3.1988814
0.82033849 -5.6323233 3.245523
0.84876049 -5.3107047 3.4069126
0.84381711 -4.911839 3.3790038
0.83513111 -4.5244493 3.3298633
0.83172989 -4.2148614 3.3106909
0.79922915 -3.7333462 3.1264708
0.83059633 -3.7113369 3.3044887
0.83186698 -3.4993355 3.3118055
0.82558906 -3.2596478 3.2763062
0.82919973 -2.9985425 3.2969439
0.82940221 -2.825918 3.2981963
0.82953507 -2.6623981 3.2990522
0.82519197 -2.4891534 3.274519
0.82419384 -2.3383861 3.2689579
0.82780129 -2.2106278 3.2895191
0.82000309 -2.0502803 3.2453845
0.81786114 -1.9156904 3.2333324
0.81942475 -1.7362701 3.2423468
0.81829655 -1.6157198 3.236043
0.81648666 -1.4975355 3.2258723
0.81485009 -1.3833537 3.2166839
0.81377637 -1.2733074 3.2106876
0.81534612 -1.1696597 3.219686
0.81252646 -1.0617951 3.2037849
0.77224928 -0.91860306 2.9754043
0.81625468 -0.81095093 3.2251663
0.80992526 -0.70733118 3.1893547
0.80624616 -0.607674 3.168577
0.80057102 -0.50965118 3.1364756
0.37824562 -0.42766327 0.74104798
0.3666451 -0.42559138 0.67532128
0.36467573 -0.41839907 0.66422981
0.36352462 -0.41090712 0.65777999
0.36281794 -0.39874449 0.65389162
0.36192873 -0.38252437 0.64900756
0.36209977 -0.36836016 0.65009815
0.36388132 -0.35926521 0.66024488
0.36505693 -0.34064585 0.66703457
0.3642835 -0.33206216 0.66272712
0.36285719 -0.32563648 0.65471584
0.36243579 -0.31590864 0.6524055
0.36217263 -0.29931417 0.65103292
0.36212096 -0.28710982 0.65082008
0.36165574 -0.26944259 0.6483013
0.3623704 -0.25891361 0.65239578
0.36232486 -0.23656635 0.65225798
0.36357525 -0.21274368 0.65943217
0.61366111 1.6904808 2.0784996
0.59063542 1.6701783 1.9479553
0.57064992 1.6640666 1.8346583
0.54525268 1.6813272 1.6907011
0.52866882 1.6890951 1.5967014
0.51195222 1.6892915 1.5019479
0.49607661 1.6926918 1.4119653
0.47992027 1.6859323 1.320389
0.45448372 1.5315827 1.1761584
0.44106972 1.5362662 1.1001397
0.42745799 1.5322778 1.0229983
0.40779105 1.5294248 0.91154486
0.39504853 1.5289053 0.83933431
0.38196614 1.5109417 0.76519465
0.37020621 1.5317786 0.69855887
0.35841215 1.5582398 0.63172942
0.34611449 1.5624205 0.56204176
0.33376881 1.5571295 0.49208122
0.32151702 1.5683569 0.42265368
0.3031354 1.5565823 0.31848842
0.29076955 1.5606242 0.24841294
0.27841723 1.5581772 0.17841378
0.26708978 1.515695 0.11422707
0.25290984 1.5693258 0.033861153
0.24024321 1.5640512 -0.037921857
0.22913052 1.5223442 -0.10089071
0.21732889 1.3833791 -0.16773325
0.20952676 1.3087081 -0.21192195
0.24069829 0.74918944 -0.035060033
0.23428024 0.72026211 -0.071394362
0.22767539 0.64474744 -0.10875136
0.21702224 0.66850185 -0.16911091
0.24661888 0.20088693 -0.001021615
0.24681923 0.15106292 0.00019162011
0.24648234 0.1101601 -0.0016425932
0.24494042 0.062311031 -0.010274488
0.24481925 0.027325856 -0.010884638
0.24502529 -0.007040659 -0.0096383989
0.24505126 -0.037921831 -0.0094135487
0.24509718 -0.066876411 -0.0090755029
0.24460004 -0.091417976 -0.01181818
0.24498923 -0.11874009 -0.0095324768
0.2447703 -0.14190844 -0.010696673
0.24502489 -0.16585054 -0.0091745248
0.24488495 -0.18716545 -0.0098904725
0.24505888 -0.20866361 -0.0088257119
0.24509163 -0.22880572 -0.0085618999
0.24544302 -0.26765016 -0.0064121773
0.24526581 -0.28522393 -0.007339356
0.24484284 -0.32746521 -0.0095433909
0.24473332 -0.34390122 -0.010086481
0.24456014 -0.35998607 -0.010990664
0.24482907 -0.37637225 -0.0093865581
0.24485946 -0.392207 -0.0091358069
0.24464369 -0.40767586 -0.010281543
0.24469529 -0.42322832 -0.0099103078
0.24484192 -0.43868849 -0.0089999363
0.24369407 -0.45389804 -0.015433718
0.24472173 -0.46932566 -0.0095248176
0.24470206 -0.49235693 -0.0095185386
0.2442302 -0.50807488 -0.012117092
0.24437246 -0.52359629 -0.011231334
0.24460958 -0.53911126 -0.0098073119
0.24426256 -0.5554325 -0.011697473
0.24402142 -0.57198083 -0.012986846
0.2444443 -0.59615529 -0.010469471
0.24414299 -0.6137048 -0.012100179
0.24396266 -0.63153094 -0.013044446
0.24406609 -0.64921546 -0.012378758
0.2436621 -0.6687476 -0.01459187
0.2440958 -0.69640034 -0.012012793
0.24374689 -0.71766472 -0.01391334
0.24341726 -0.73987246 -0.015704492
0.24326524 -0.76251072 -0.01648788
0.24329561 -0.78553462 -0.016236382
0.24416491 -0.81848931 -0.011185394
0.24373938 -0.84677148 -0.01352034
0.24343958 -0.87631994 -0.015141852
0.24291639 -0.90926379 -0.018030709
0.24246529 -0.94435883 -0.02051048
0.067351274 -2.3976202 -1.01379
0.072840907 -2.5774302 -0.98252052
0.071722344 -2.7556968 -0.98878336
0.12109905 -2.6222823 -0.70847642
0.23465045 -2.6013854 -0.063608095
0.26185152 -2.590127 0.090887532
0.32030129 -2.5736361 0.42288855
0.33312902 -2.5803397 0.49575356
0.34596527 -2.5784569 0.56866658
0.37152922 -2.5639553 0.71386611
0.38430887 -2.5553126 0.78645742
0.39740726 -2.553864 0.86085689
0.63472301 -4.9472337 2.2078724
0.81135738 -6.0159898 3.2103179
0.82685143 -5.7284098 3.2982881
0.8300876 -4.9860778 3.316756
0.83098835 -4.665339 3.3219206
0.82719427 -4.3388281 3.3004467
0.82577664 -3.9339333 3.2924857
0.82419133 -3.6874468 3.2835462
0.83412945 -3.528717 3.3399918
0.8281616 -3.2887149 3.3061862
0.82523066 -3.0824413 3.2896125
0.82177359 -2.8873389 3.2700539
0.82534564 -2.7363272 3.2903779
0.82602763 -2.5798364 3.2943041
0.81471747 -2.3126915 3.2302175
0.82948738 -2.2254641 3.314075
0.82360703 -2.0700598 3.2807679
0.81710315 -1.9210438 3.2439234
0.81650633 -1.7956712 3.2405939
0.81245095 -1.6660913 3.2176414
0.81198263 -1.5498315 3.2150407
0.81622624 -1.3906817 3.2392004
0.81353265 -1.2770802 3.223974
0.8127721 -1.1695755 3.2197142
0.81488293 -1.0677406 3.2317443
0.77533418 -0.92425597 3.0074275
0.81429255 -0.86187249 3.2285032
0.80708373 -0.7565583 3.1876597
0.80371517 -0.6564455 3.1686032
0.80198866 -0.55849797 3.1588616
0.37619206 -0.4331136 0.74353892
0.36251923 -0.41803205 0.66616106
0.36119685 -0.41067973 0.6587342
0.36051267 -0.40283126 0.65492767
0.35978448 -0.39518985 0.65087157
0.35950932 -0.38683638 0.64938527
0.35983428 -0.37713939 0.65130311
0.36073333 -0.36571875 0.65647727
0.36240989 -0.34106538 0.66613549
0.36218616 -0.33631614 0.66490346
0.36051825 -0.32511795 0.65555352
0.35994747 -0.31589025 0.65238971
0.3600342 -0.3039256 0.65295529
0.35921928 -0.28889725 0.64844322
0.36005148 -0.27876645 0.65319991
0.35949397 -0.26086396 0.65014738
0.36001784 -0.24337834 0.65319115
0.36025125 -0.2177615 0.65462309
0.61460465 1.7149392 2.0972378
0.58999985 1.6839594 1.9577397
0.56925088 1.6723828 1.8401102
0.55155754 1.6789085 1.73981
0.53444219 1.6844411 1.6427895
0.51754719 1.6857538 1.5470209
0.50090271 1.6829433 1.4526745
0.4795908 1.7135675 1.3318795
0.45217174 1.532535 1.1764622
0.43931809 1.5466852 1.1036174
0.42584595 1.54664 1.0272685
0.41162243 1.5243399 0.94666404
0.39862213 1.5192872 0.87299389
0.38556427 1.5045887 0.79900062
0.37389734 1.5275909 0.73288745
0.36207438 1.5502745 0.66588956
0.34375235 1.563434 0.56206644
0.3313874 1.556146 0.49200374
0.31914112 1.5593728 0.42261162
0.30688849 1.5571394 0.35318542
0.29451782 1.5644196 0.2830877
0.28200775 1.5711666 0.21219984
0.26883119 1.5981185 0.13752621
0.25059348 1.5673802 0.034199245
0.23789769 1.563095 -0.03773718
0.22544006 1.5503746 -0.10831966
0.22333418 1.3409854 -0.12012753
0.20838837 1.3887275 -0.20483966
0.23523764 0.67425752 -0.052183673
0.22883135 0.65129924 -0.088436551
0.24349727 0.20677793 -0.0048071737
0.24336092 0.15927495 -0.005488201
0.24349481 0.11417412 -0.0046370495
0.24320476 0.076143064 -0.0061924658
0.24339382 0.037976068 -0.0050301654
0.24347566 0.0034995419 -0.0044771652
0.24351148 -0.02818476 -0.0041858633
0.24332829 -0.056534003 -0.0051377309
0.24286997 -0.081782721 -0.0076507982
0.2430281 -0.10859191 -0.0066669914
0.24313848 -0.13365121 -0.0059545445
0.24317323 -0.1570711 -0.0056714537
0.24296053 -0.17842774 -0.0067923758
0.24229833 -0.22784278 -0.010335336
0.24247378 -0.24771424 -0.0092549752
0.24231935 -0.26599884 -0.010046096
0.24245334 -0.28445002 -0.0092011709
0.24260975 -0.31949064 -0.0081445128
0.24261434 -0.33622324 -0.0080338381
0.24260934 -0.36870131 -0.0078930659
0.24259058 -0.38453782 -0.0079149837
0.24215476 -0.39984462 -0.010302183
0.24236748 -0.42328858 -0.0089688161
0.24233998 -0.43866143 -0.0090400632
0.24240586 -0.45399252 -0.0085817147
0.24221735 -0.46929809 -0.0095660444
0.24212188 -0.48466411 -0.010022488
0.241947 -0.50015897 -0.010929234
0.24203973 -0.51562399 -0.010318209
0.24209951 -0.53908265 -0.0098512284
0.24192086 -0.55519563 -0.010778715
0.2420139 -0.57122576 -0.0101654
0.24187483 -0.58787686 -0.010868091
0.2416804 -0.60501862 -0.011884387
0.24127536 -0.62306809 -0.0140946
0.24170634 -0.64879441 -0.011520665
0.24145544 -0.66787171 -0.012856019
0.24118942 -0.68772113 -0.014276674
0.2406165 -0.70937145 -0.017436804
0.24088939 -0.73984092 -0.015756607
0.24174336 -0.75856447 -0.01082603
0.24132577 -0.78315139 -0.013103572
0.24111572 -0.80825007 -0.014203765
0.24085273 -0.83509207 -0.015603191
0.24056588 -0.86377984 -0.017137023
0.24135588 -0.90357357 -0.012518962
0.24086651 -0.93847436 -0.015197848
0.24048252 -0.97558874 -0.017277943
0.068146676 -2.3703947 -0.9937194
0.066192806 -2.5316527 -1.0046347
0.066094823 -2.6941962 -1.0050244
0.089427248 -2.6508565 -0.87264752
0.11115816 -2.6088393 -0.74935257
0.23890938 -2.596925 -0.024211841
0.27234051 -2.5886505 0.16556285
0.28541225 -2.5855093 0.23976685
0.32403645 -2.571296 0.45902127
0.33680534 -2.5687242 0.53150612
0.34962645 -2.5685661 0.60428774
0.36251304 -2.5677955 0.67743236
0.37534493 -2.5614364 0.75028253
0.38851795 -2.5632732 0.82507265
0.62986565 -4.9166956 2.1954923
0.66442496 -4.9516487 2.391597
0.79970473 -6.1590095 3.1595247
0.79964072 -5.6868367 3.1590149
0.8447566 -5.5179749 3.4149415
0.82309335 -4.9475961 3.2918844
0.83403844 -4.7121248 3.3539343
0.82939762 -4.3756566 3.3275378
0.82931691 -4.1032486 3.3270366
0.80358803 -3.6834009 3.180995
0.83097494 -3.6341529 3.3363907
0.82558101 -3.3889623 3.3057683
0.82825893 -3.1112955 3.3209567
0.82259047 -2.9034884 3.2887952
0.82517308 -2.7468722 3.303457
0.82620686 -2.5910814 3.309334
0.80080307 -2.3398676 3.165216
0.82704514 -2.2961137 3.3141241
0.81935352 -2.1310337 3.2705076
0.81413621 -1.9830908 3.2409329
0.81547087 -1.7995411 3.2485464
0.81272113 -1.6727977 3.2329767
0.81116194 -1.5534776 3.2241628
0.81041217 -1.4395363 3.2199421
0.80872577 -1.3269491 3.2104094
0.80930305 -1.2209028 3.2137187
0.8115676 -1.1188333 3.2265992
0.7695685 -0.96794045 2.9883959
0.81548935 -0.86484671 3.2489324
0.79310375 -0.74960685 3.1219909
0.8033855 -0.6573298 3.180347
0.79906327 -0.5584392 3.1558664
0.79570395 -0.46152297 3.1368473
0.37431353 -0.43858853 0.7469039
0.36050805 -0.42203298 0.66879821
0.35917762 -0.41889372 0.66129172
0.35785633 -0.40306628 0.65395415
0.357463 -0.39490718 0.65180129
0.35702047 -0.38682938 0.64936936
0.357182 -0.37747446 0.65036285
0.35776114 -0.36683577 0.65372413
0.36048007 -0.35016474 0.66921872
0.35969689 -0.33630931 0.6648919
0.35859424 -0.32877308 0.65871531
0.35775036 -0.32049063 0.65400606
0.35725573 -0.30503711 0.6513142
0.35711202 -0.29350454 0.65057385
0.35715041 -0.2806066 0.65086544
0.35721323 -0.26684636 0.65129483
0.35767329 -0.25016558 0.65397525
0.35788706 -0.22543707 0.65529406
0.35890588 -0.20197988 0.66113865
0.59758615 1.6827878 2.0139172
0.57604313 1.6690609 1.8917997
0.54996341 1.685698 1.743961
0.53245836 1.6879113 1.6447347
0.51594979 1.6937071 1.551157
0.49887493 1.6865456 1.4543762
0.48425537 1.7026132 1.3715045
0.45578718 1.5179541 1.21023
0.44131982 1.5070689 1.1282417
0.42979074 1.5394329 1.0628861
0.41547757 1.518605 0.98177892
0.39647382 1.5241671 0.87407577
0.38388506 1.5242292 0.80273163
0.37180218 1.5364875 0.73424643
0.35982257 1.5542517 0.66634125
0.34755686 1.5606622 0.59682155
0.33521953 1.5596094 0.52690089
0.32297024 1.5680704 0.45747051
0.31068972 1.5570686 0.38787887
0.29216 1.5674155 0.28284812
0.27986988 1.561224 0.21319556
0.26709622 1.5743536 0.14078119
0.25516888 1.5503206 0.073200993
0.24181794 1.5689884 -0.0024957201
0.22908771 1.5633569 -0.074649952
0.22640003 1.3522496 -0.08963871
0.21154673 1.4024147 -0.17389041
0.23195976 0.74461621 -0.05732232
0.22997339 0.65835583 -0.068439685
0.2050873 0.69633675 -0.20949799
0.24227256 0.22187904 0.0020558576
0.2419419 0.1742238 0.00030122398
0.24168609 0.13055211 -0.001032004
0.24186432 0.087595046 9.7358854e-05
0.24186127 0.014706925 0.00030458363
0.23994213 -0.021829432 -0.010433888
0.2394646 -0.049041208 -0.013039529
0.24000636 -0.079823874 -0.0098574208
0.23583724 -0.086576968 -0.033431217
0.23983103 -0.13005064 -0.010647069
0.24018869 -0.17734942 -0.0084141875
0.23968627 -0.19692181 -0.011167483
0.24008544 -0.21876183 -0.0088019157
0.24018998 -0.23874229 -0.008109997
0.24028485 -0.2579498 -0.0074736821
0.24035847 -0.27644542 -0.0069583822
0.2404003 -0.29429433 -0.0066241217
0.24056469 -0.31189096 -0.0055942838
0.23978378 -0.33568662 -0.0098832268
0.23972431 -0.35206252 -0.010124798
0.23993921 -0.36850882 -0.0088091101
0.23974675 -0.38420647 -0.0098058535
0.23965137 -0.39986092 -0.010251674
0.23982485 -0.41555688 -0.0091713686
0.23974869 -0.43096131 -0.0095081199
0.23976614 -0.4463335 -0.009313425
0.23970324 -0.4616546 -0.0095747504
0.23973313 -0.47697568 -0.0093093039
0.23968264 -0.49234787 -0.0094998144
0.23969643 -0.51552159 -0.0092772376
0.2393668 -0.53142542 -0.011051303
0.23947854 -0.54713827 -0.01032034
0.23934963 -0.56333399 -0.010954544
0.23951855 -0.58762258 -0.0098494478
0.2393207 -0.6047315 -0.010873822
0.23923831 -0.62206429 -0.01124238
0.23879106 -0.64071923 -0.013680228
0.23879541 -0.65892476 -0.013555246
0.23845978 -0.67865151 -0.015358211
0.23842449 -0.69827169 -0.015456459
0.23857033 -0.72844803 -0.014474404
0.23846862 -0.75031722 -0.014946767
0.23853992 -0.77253717 -0.014436503
0.23837233 -0.79686999 -0.015279707
0.23843707 -0.83447611 -0.014748452
0.23865966 -0.86046124 -0.013374552
0.23823094 -0.89165336 -0.015691655
0.23784837 -0.92491502 -0.017744211
0.23894478 -0.9688248 -0.011348248
0.062231671 -2.3277495 -1.0127872
0.060793541 -2.4794295 -1.0206968
0.067691959 -2.6573787 -0.98121107
0.088721938 -2.6329346 -0.86177784
0.10341582 -2.6622667 -0.77824879
0.15759885 -2.599112 -0.47048688
0.23599306 -2.601851 -0.024970328
0.26285118 -2.5956795 0.12767488
0.2761153 -2.5869389 0.20305568
0.28902581 -2.590441 0.27644494
0.30838636 -2.5883057 0.3864921
0.32123816 -2.5843 0.4595415
0.33397186 -2.5707228 0.53190958
0.3468928 -2.5775285 0.60536665
0.35971606 -2.5717573 0.6782167
0.37253195 -2.5643864 0.75104725
0.38534686 -2.5554023 0.82386953
0.80719823 -6.2909713 3.223623
0.81212789 -5.8614993 3.251157
0.81872702 -5.4999251 3.2882514
0.81543577 -5.0857987 3.2691433
0.82812423 -4.8536286 3.340961
0.81887555 -4.4652185 3.2880726
0.82859784 -4.1225252 3.3429623
0.7998696 -3.6809955 3.1794462
0.83384746 -3.6727645 3.3723783
0.82663375 -3.4142728 3.3312039
0.81961513 -3.1771169 3.2911637
0.81744146 -2.9819803 3.2786756
0.81744838 -2.809397 3.2785923
0.81862628 -2.6514077 3.2851744
0.79096669 -2.3846178 3.1279464
0.82645673 -2.3055217 3.3294227
0.81959587 -2.1424067 3.2903743
0.81308806 -1.9895406 3.2533431
0.81097448 -1.8571863 3.2412789
0.80756152 -1.7267728 3.2218423
0.80447376 -1.6024692 3.2042603
0.80587178 -1.4922668 3.212157
0.80676681 -1.3288862 3.2171831
0.8066954 -1.221572 3.2167451
0.80795819 -1.1180531 3.2238853
0.76565808 -0.966892 2.9837117
0.78592122 -0.89178318 3.0987315
0.78824061 -0.79669464 3.1118822
0.80035275 -0.70642322 3.1806223
0.7972095 -0.60723865 3.162765
0.79162627 -0.46143448 3.1310558
0.37139061 -0.43864587 0.74598414
0.37068424 -0.42751965 0.7420584
0.35814142 -0.4171465 0.67104638
0.35662955 -0.41428033 0.66251004
0.3556233 -0.41107872 0.65684301
0.35510823 -0.40305626 0.65400696
0.35433128 -0.39113989 0.64972866
0.35476425 -0.38589209 0.65222877
0.35508099 -0.37609601 0.65411252
0.35708684 -0.35178122 0.66566521
0.35716015 -0.34104791 0.66616702
0.356235 -0.33296499 0.66100442
0.35483685 -0.32099512 0.6532017
0.35452724 -0.31073549 0.65153104
0.35406134 -0.29466948 0.64901656
0.35410482 -0.28182721 0.64934808
0.354173 -0.26812118 0.64981937
0.3545095 -0.25216213 0.65181172
0.35461566 -0.22825457 0.65253866
0.35588595 -0.20343146 0.65982407
0.59720612 1.7019804 2.0281649
0.57465386 1.6813709 1.9002959
0.55573392 1.6812661 1.793026
0.53687012 1.6736602 1.6860816
0.52033627 1.6812695 1.5923495
0.5037483 1.6822076 1.4983163
0.4815934 1.7053688 1.3727285
0.45715284 1.578236 1.2342275
0.4385123 1.5080216 1.1286004
0.4271366 1.5432496 1.0641254
0.41284764 1.5234238 0.98315817
0.39973828 1.5187881 0.90887499
0.38731283 1.5250288 0.83846605
0.3750371 1.5326436 0.76890683
0.36302504 1.5486486 0.70083898
0.34471768 1.5636635 0.5971036
0.33231273 1.5576254 0.52682328
0.32007763 1.5680841 0.45749658
0.30778453 1.5600824 0.38785377
0.29544273 1.5666039 0.31792602
0.28301415 1.5706216 0.2475082
0.27072465 1.5621833 0.17788839
0.25291118 1.5286739 0.07699497
0.23903659 1.5650964 -0.0016447612
0.22653355 1.5546465 -0.072472565
0.21726517 1.477235 -0.12490596
0.20930657 1.3900758 -0.16990218
0.20370436 1.2796184 -0.20151508
0.18963122 1.3074318 -0.28127298
0.22586066 0.67391109 -0.075235531
0.14282028 1.470058 -0.54669207
0.20406325 0.72505164 -0.19873092
0.201083 0.66073877 -0.21549891
0.2382576 0.18088315 -0.0041051097
0.23765467 0.13947892 -0.0074021877
0.23799185 0.094715379 -0.0053639845
0.23777077 0.057758287 -0.0064978306
0.23790185 0.021424754 -0.0056344159
0.23801558 -0.012031519 -0.0048713475
0.23769028 -0.040655565 -0.0066019907
0.23774612 -0.069507562 -0.0061705029
0.2360625 -0.088158451 -0.015613296
0.23765688 -0.12115653 -0.0064514028
0.23730625 -0.14362513 -0.008330035
0.23756531 -0.16748099 -0.0067492486
0.23772398 -0.18976744 -0.0057390914
0.23654401 -0.21678677 -0.012272066
0.23694444 -0.23779783 -0.0098915407
0.23703197 -0.25706744 -0.0092872009
0.23725842 -0.27601695 -0.0078951502
0.23713392 -0.29353926 -0.0084950775
0.23729222 -0.31120089 -0.0074906815
0.23723862 -0.32799911 -0.0076890751
0.23695987 -0.34410876 -0.009165247
0.23729071 -0.36083406 -0.0071831485
0.2370487 -0.37651095 -0.0084514553
0.2370754 -0.39231086 -0.0081955055
0.23686767 -0.41551369 -0.0092179663
0.23696283 -0.43098721 -0.0085743451
0.23680535 -0.44628903 -0.0093641412
0.23674069 -0.46160948 -0.0096275713
0.23676892 -0.47692996 -0.0093642725
0.23671681 -0.49230149 -0.0095569612
0.23672828 -0.51547426 -0.0093377335
0.23656854 -0.53122097 -0.010141383
0.23667789 -0.54689884 -0.009418699
0.23637721 -0.5632847 -0.011022047
0.23635103 -0.57962787 -0.011068407
0.23609853 -0.59668177 -0.01239871
0.23596075 -0.61397153 -0.013078306
0.23613574 -0.63991773 -0.011933105
0.23597603 -0.65846509 -0.012737409
0.23594928 -0.67728275 -0.012787523
0.23544538 -0.69821745 -0.01554412
0.23540463 -0.71860337 -0.01567384
0.23592605 -0.74862742 -0.012564525
0.23598742 -0.77075994 -0.012115265
0.23539357 -0.79681283 -0.015382116
0.23516005 -0.82283139 -0.016605303
0.23607038 -0.85839522 -0.01129085
0.23588064 -0.88812059 -0.012265842
0.23584053 -0.91910005 -0.012392189
0.23538852 -0.95504773 -0.01485444
0.062223185 -2.306345 -0.99665123
0.06189933 -2.4477475 -0.99837309
0.060959324 -2.6088171 -1.0035886
0.06352286 -2.755579 -0.98893589
0.097876601 -2.6015546 -0.79401487
0.2265317 -2.6003361 -0.063565023
0.27326521 -2.5958347 0.20178445
0.29926613 -2.5922906 0.34941542
0.31217125 -2.5865889 0.42268878
0.32502195 -2.5832951 0.49565282
0.33784503 -2.5784187 0.56845921
0.35070997 -2.575942 0.64153486
0.36362919 -2.5728402 0.714894
0.37634653 -2.5602138 0.78710842
0.7041083 -8.8892851 2.6466134
0.79163325 -6.3861122 3.14341
0.80712634 -6.0588799 3.2313666
0.82291073 -5.5590014 3.3210156
0.84022313 -5.3310671 3.4192967
0.83628631 -4.9392061 3.3970437
0.82369244 -4.5187945 3.3256853
0.82122731 -4.216445 3.3117831
0.78763169 -3.727222 3.1212952
0.81931216 -3.7076294 3.3010831
0.81972176 -3.4907122 3.3034894
0.82303715 -3.2072966 3.3224211
0.81838286 -2.997895 3.2961037
0.81683159 -2.8171167 3.2873881
0.8196891 -2.6660185 3.3036814
0.81508678 -2.4914567 3.2776594
0.81337756 -2.3378508 3.2680483
0.81445485 -2.2013671 3.2742438
0.81009799 -2.0527134 3.249614
0.80658084 -1.9138836 3.2297478
0.80971879 -1.7387201 3.2476742
0.80715853 -1.6146058 3.2332354
0.80501837 -1.4958351 3.2211795
0.80453008 -1.3839815 3.2184937
0.80379599 -1.2744198 3.2144132
0.80436355 -1.1691864 3.2177165
0.80137354 -1.0611818 3.2008388
0.76006895 -0.91704583 2.9666224
0.80441046 -0.81010926 3.2182729
0.79911643 -0.70725489 3.1883249
0.79543906 -0.60763228 3.167547
0.79236954 -0.50990546 3.1502166
0.36752871 -0.43335468 0.74056327
0.35599861 -0.42554837 0.67528296
0.35388413 -0.41408309 0.66341233
0.35217026 -0.39870191 0.65385526
0.35163248 -0.39516646 0.65084594
0.35111627 -0.38280779 0.64804119
0.35157278 -0.37272012 0.65071273
0.35307294 -0.35961455 0.65930438
0.35425219 -0.34104338 0.6661163
0.35363454 -0.33202147 0.66269457
0.3522079 -0.32559589 0.65468383
0.35178629 -0.31586826 0.65237403
0.35152295 -0.29927412 0.65100235
0.35147122 -0.28707004 0.65079015
0.35158932 -0.27342972 0.65154111
0.35109314 -0.2548354 0.648848
0.35180014 -0.23583284 0.65293866
0.35304675 -0.2119859 0.66008937
0.60309219 1.6904874 2.078501
0.57975936 1.6677604 1.9462203
0.55378449 1.6904538 1.7989826
0.53486216 1.6830559 1.691718
0.5177632 1.6856127 1.5947945
0.5015412 1.6910911 1.5028452
0.48565516 1.6945237 1.412801
0.46914846 1.683192 1.3192383
0.44390881 1.5316069 1.1761602
0.43038231 1.5344008 1.0995008
0.41591895 1.5141349 1.0175304
0.39688128 1.5216912 0.90964168
0.38433102 1.5250229 0.8385182
0.37078932 1.4912772 0.76177782
0.36009428 1.5506266 0.70116574
0.3478789 1.5602632 0.63193911
0.33557016 1.5644509 0.56218314
0.32325566 1.5661606 0.49239445
0.30479392 1.5680845 0.38776749
0.29256976 1.556622 0.31849295
0.28032592 1.5526958 0.24910453
0.26779056 1.5611973 0.17805837
0.25617281 1.5285782 0.11222824
0.24268049 1.5595542 0.035745692
0.22968416 1.5640973 -0.037916768
0.22023129 1.4866525 -0.091453962
0.20644128 1.3891336 -0.16955619
0.20032224 1.2871442 -0.20417172
0.18295863 1.3612169 -0.30263388
0.22537097 0.69729519 -0.061777215
0.20291521 0.70651507 -0.188997
0.23607871 0.20009093 -0.00049308164
0.2316779 0.16455786 -0.02533415
0.23379365 0.10495849 -0.013232979
0.23590356 0.069946796 -0.00121139
0.23429015 0.026624424 -0.010233918
0.23498054 -0.010595892 -0.0062259561
0.23440181 -0.037880693 -0.0094218468
0.23444578 -0.066835545 -0.0090837572
0.23447874 -0.093948342 -0.0088086221
0.23433432 -0.11869974 -0.0095405718
0.23425421 -0.1424561 -0.0099078622
0.23436667 -0.16581073 -0.0091823936
0.23437238 -0.18765578 -0.0090630297
0.23454785 -0.20912431 -0.0079804016
0.23427559 -0.22829728 -0.0094389189
0.23460956 -0.24857649 -0.0074571585
0.23477723 -0.26761174 -0.0064192559
0.2345987 -0.28518575 -0.0073462478
0.23453972 -0.30258638 -0.0075947801
0.23417248 -0.32742763 -0.0095497919
0.23477104 -0.33676255 -0.006109857
0.23422539 -0.36039886 -0.0090774428
0.2343251 -0.37652627 -0.008425599
0.23418382 -0.39217049 -0.0091413483
0.23413906 -0.40776145 -0.009309411
0.23418999 -0.42327946 -0.0089343106
0.23398909 -0.43860048 -0.0099882772
0.23420908 -0.46162871 -0.0086107692
0.2338935 -0.47698483 -0.010315338
0.23411743 -0.48460463 -0.009001418
0.23389007 -0.50783122 -0.010162061
0.23402949 -0.52328354 -0.0092844507
0.23375058 -0.53925097 -0.01078052
0.23357314 -0.55539876 -0.011700599
0.23383655 -0.57939363 -0.010075456
0.2337513 -0.59612221 -0.010472006
0.23328444 -0.61399752 -0.013033667
0.23342876 -0.63113993 -0.012127144
0.23320884 -0.64957392 -0.01328715
0.23312037 -0.66829288 -0.013701015
0.23339425 -0.69636869 -0.012014127
0.23304364 -0.71763331 -0.013914494
0.23271222 -0.73984122 -0.01570547
0.23270223 -0.76192051 -0.015672257
0.23258676 -0.78550392 -0.016236993
0.23291343 -0.82097656 -0.014246977
0.23315629 -0.84608543 -0.012777272
0.23285012 -0.87560821 -0.014421673
0.2325657 -0.90711284 -0.015941631
0.23198046 -0.94286674 -0.01916711
0.056160878 -2.4007652 -1.0161812
0.061471682 -2.582356 -0.98584604
0.061107442 -2.7539525 -0.98776257
0.1957116 -2.6075966 -0.22324917
0.26409969 -2.5916369 0.16532092
0.29651263 -2.5953245 0.34950826
0.30942646 -2.5886221 0.42288926
0.32229137 -2.5873232 0.49599561
0.33503234 -2.5744562 0.56839395
0.34790581 -2.5739768 0.6415419
0.36066175 -2.5649385 0.71400905
0.37359598 -2.5612161 0.78748989
0.38669175 -2.5587513 0.86188716
0.63652718 -4.906661 2.2812252
0.80217159 -6.039206 3.2219312
0.81681436 -5.7407074 3.3049626
0.82980531 -5.4562149 3.3786256
0.81666124 -4.9660048 3.3038769
0.81716645 -4.6432781 3.3066657
0.82731932 -4.2841463 3.3642223
0.80923194 -3.896455 3.2614686
0.81335998 -3.6889899 3.2848697
0.82271373 -3.5266182 3.3379467
0.81662643 -3.2859948 3.3033614
0.81369406 -3.079824 3.2866957
0.81076688 -2.8873982 3.2700665
0.81188756 -2.725306 3.2764225
0.82208747 -2.5315561 3.3343227
0.80273223 -2.3089397 3.2244539
0.81792772 -2.2234674 3.3107181
0.81068081 -2.0638208 3.2695913
0.80616051 -1.9211066 3.2439461
0.80509967 -1.7944669 3.2379403
0.80200386 -1.6673268 3.220387
0.79992926 -1.5473871 3.2086318
0.80069369 -1.3820957 3.2130044
0.80146003 -1.2752167 3.2173781
0.80237806 -1.1703675 3.2226138
0.80466723 -1.0686394 3.2356322
0.76086873 -0.92067224 2.9870951
0.80323595 -0.86180186 3.227566
0.79655093 -0.75683546 3.1896582
0.79336178 -0.65672296 3.1715915
0.78908175 -0.50983775 3.147352
0.3654502 -0.43312001 0.74356276
0.35191357 -0.42235759 0.666897
0.35061416 -0.41487488 0.65959775
0.34958488 -0.39873073 0.65390545
0.34853369 -0.38283691 0.64808935
0.34882927 -0.3731077 0.64984053
0.34969348 -0.36159754 0.654818
0.35203844 -0.3454046 0.66819638
0.35144958 -0.33632359 0.66492921
0.35019591 -0.32927233 0.6578905
0.34921142 -0.31589806 0.65241599
0.34915426 -0.30449292 0.65216553
0.34900719 -0.292932 0.65140492
0.34874874 -0.27471864 0.65004927
0.34875801 -0.26087296 0.65017539
0.34940869 -0.24270572 0.65393996
0.34975615 -0.21633264 0.6560207
0.60296243 1.708581 2.0924838
0.57850266 1.678246 1.9537829
0.55856842 1.673165 1.8407553
0.54087257 1.6797121 1.7404263
0.52349395 1.6826671 1.6418991
0.50669342 1.6848315 1.5466529
0.48338211 1.6981142 1.4145042
0.46821234 1.7052493 1.3285118
0.44171989 1.5371736 1.1783159
0.42810395 1.5390935 1.1011422
0.41401911 1.5265322 1.021312
0.40086356 1.5243167 0.94675303
0.38802075 1.5231636 0.87396878
0.37523884 1.5173309 0.80153161
0.36368531 1.5473273 0.73605764
0.34533802 1.5612249 0.63208413
0.33301052 1.5644189 0.562226
0.32068914 1.5651299 0.49240369
0.3083888 1.5603645 0.42270264
0.29608265 1.5661274 0.35296708
0.28376687 1.5644151 0.28317922
0.27125743 1.5711643 0.21229176
0.25820196 1.5931671 0.13830462
0.2397787 1.5693465 0.033915594
0.22726688 1.5601772 -0.036980297
0.21487257 1.5465184 -0.10720813
0.21005298 1.3888081 -0.13444
0.20414057 1.2800035 -0.16787983
0.22192267 0.70924127 -0.066744804
0.21831363 0.64858615 -0.087127045
0.23247983 0.20929617 -0.0063709891
0.23292628 0.15681949 -0.0037498921
0.23265754 0.11497456 -0.0051876074
0.23258163 0.07536757 -0.0055319513
0.23266192 0.037977491 -0.0049907588
0.23250739 0.0049634371 -0.0057822959
0.23265764 -0.027476631 -0.0048452374
0.23259759 -0.056533158 -0.0051017008
0.23213968 -0.081781976 -0.0076156841
0.2324331 -0.10922072 -0.0058675064
0.23240893 -0.13365091 -0.0059213266
0.23258626 -0.1576446 -0.0048323632
0.23123072 -0.18555214 -0.012398361
0.23154464 -0.20764002 -0.01053503
0.23214597 -0.21972004 -0.0070826444
0.2324134 -0.24009265 -0.0054833959
0.23175099 -0.26640642 -0.0091182282
0.23188777 -0.28482565 -0.0082606263
0.23182718 -0.30225855 -0.0085227555
0.23188409 -0.3194921 -0.0081184749
0.23172227 -0.33594927 -0.0089551285
0.23200345 -0.35277504 -0.007278969
0.23188512 -0.36870334 -0.007869076
0.23169589 -0.38436639 -0.0088615185
0.23142123 -0.40765169 -0.010298301
0.23147224 -0.42320409 -0.0099282768
0.2316183 -0.43866429 -0.0090191383
0.23151119 -0.45397812 -0.009546156
0.23149696 -0.46930131 -0.0095465211
0.2314022 -0.48466751 -0.010003684
0.23140103 -0.50007534 -0.0099301133
0.23148966 -0.52329332 -0.0093072075
0.23116653 -0.53140938 -0.011100054
0.23120475 -0.55519986 -0.010763324
0.2311302 -0.57147211 -0.01110636
0.23099366 -0.58815706 -0.011801013
0.23080206 -0.60533237 -0.012808157
0.23056331 -0.62307298 -0.014082687
0.23099588 -0.64879966 -0.011510096
0.23090366 -0.66745454 -0.011953893
0.23063636 -0.68727267 -0.013390729
0.23021406 -0.70840746 -0.015706843
0.22950996 -0.73151922 -0.019621398
0.23089671 -0.75912994 -0.011637872
0.23034403 -0.78433341 -0.014693907
0.2302801 -0.80887228 -0.014978031
0.22975706 -0.83702713 -0.017866248
0.23096815 -0.87220228 -0.010880237
0.23091039 -0.90216678 -0.011129978
0.23017848 -0.93848175 -0.015203661
0.22979771 -0.97559625 -0.017285952
0.057596475 -2.3703611 -0.99381053
0.055557705 -2.532438 -1.0053006
0.05500678 -2.6991942 -1.0083536
0.080243267 -2.6379712 -0.86514741
0.10079655 -2.6070673 -0.74850374
0.18649551 -2.6015108 -0.26206499
0.28776923 -2.5897262 0.31281647
0.3006897 -2.5843248 0.38616011
0.31351808 -2.5753286 0.45898131
0.3263298 -2.5747526 0.53170639
0.35206699 -2.5718093 0.67780322
0.3650305 -2.5693851 0.751405
0.378218 -2.5701952 0.82627678
0.62040788 -4.9288678 2.200016
0.79561442 -6.231081 3.1937008
0.79381895 -5.7346849 3.1836495
0.83299899 -5.5035858 3.4059961
0.81053358 -4.9276452 3.2787247
0.82352978 -4.7106686 3.3525302
0.81864053 -4.3726444 3.3249133
0.81851763 -4.1003242 3.3243203
0.79307371 -3.6828237 3.1801381
0.82010031 -3.6314142 3.3334951
0.8156507 -3.3919771 3.3083591
0.8083179 -3.1549373 3.266871
0.81252968 -2.9056053 3.2908928
0.81305969 -2.7396746 3.2939885
0.81417876 -2.5848079 3.3004234
0.79130566 -2.3439674 3.1708007
0.81698316 -2.2978985 3.3165004
0.80793452 -2.1282272 3.2652717
0.80376184 -1.9837537 3.241693
0.80493116 -1.7997366 3.2484481
0.80217266 -1.6729935 3.2328863
0.80028129 -1.5529573 3.2222414
0.79886323 -1.4377803 3.2142797
0.7969923 -1.3251005 3.2037487
0.79872572 -1.2211024 3.2136569
0.80030769 -1.118135 3.2227056
0.75862759 -0.96774721 2.9864185
0.80403215 -0.86435664 3.2440171
0.78698599 -0.75252473 3.1474249
0.79156137 -0.65704554 3.1734455
0.788966 -0.55874783 3.1588008
0.78525352 -0.46172687 3.1378207
0.3635267 -0.43290266 0.74646223
0.34980452 -0.42208436 0.66880196
0.34817576 -0.41051596 0.65968239
0.34749994 -0.40699911 0.65588874
0.34712994 -0.39876926 0.65386832
0.34631687 -0.38688028 0.64937395
0.34647846 -0.3775256 0.65036774
0.34675741 -0.36280784 0.65206546
0.34977666 -0.35021749 0.66922486
0.3488386 -0.33681601 0.66402102
0.34789056 -0.32882556 0.65872216
0.34704658 -0.32054296 0.65401322
0.34655172 -0.30508953 0.65132207
0.34677562 -0.29819435 0.65262991
0.34644586 -0.28065932 0.6508745
0.34590515 -0.26287803 0.64792252
0.34696785 -0.25021887 0.6539861
0.34730357 -0.22478364 0.65600282
0.34843555 -0.20057146 0.66249597
0.58605826 1.6770443 2.0099344
0.56524301 1.6689159 1.8919662
0.54657948 1.6702046 1.7861983
0.52173287 1.6886487 1.6453986
0.50480628 1.6900535 1.5494807
0.4890438 1.6981145 1.4601626
0.47328737 1.7006768 1.37088
0.44516328 1.5206379 1.2114986
0.43132934 1.5201325 1.1331195
0.41794151 1.5212756 1.0572697
0.40498132 1.5252525 0.98384464
0.38559628 1.5231192 0.87402195
0.37337402 1.5339773 0.80477989
0.36119881 1.5453136 0.7358045
0.34905303 1.5581642 0.6669957
0.33669716 1.5606097 0.5969978
0.32433674 1.5575652 0.52697527
0.31206602 1.5570306 0.45746088
0.29363135 1.5661048 0.35302493
0.28144515 1.553422 0.2839928
0.2689448 1.5631908 0.21317379
0.25600705 1.5822595 0.13987181
0.24435943 1.5473557 0.073900022
0.23094574 1.5680064 -0.0021014514
0.21838318 1.5585076 -0.073268205
0.21674728 1.3272599 -0.082411252
0.19533645 1.3858984 -0.20373723
0.22755916 0.65282482 -0.020692119
0.21568255 0.65039122 -0.087930083
0.13499813 1.4682841 -0.54564351
0.1939037 0.69984967 -0.21130008
0.23149161 0.22187537 0.002110837
0.23184475 0.16841699 0.0042059938
0.22901843 0.12374855 -0.011693122
0.22921704 0.081573576 -0.010477046
0.22925955 0.044003859 -0.010147258
0.22930518 0.0093400851 -0.0098004788
0.22930595 -0.022538524 -0.0097086672
0.22959676 -0.053816993 -0.0079720626
0.22925308 -0.079825707 -0.0098350933
0.22939941 -0.1067155 -0.0089188619
0.22922117 -0.13065405 -0.0098440601
0.22938019 -0.15478903 -0.0088563655
0.22944503 -0.177351 -0.0084032556
0.22924182 -0.19795316 -0.0094705997
0.22934575 -0.21876319 -0.0087959729
0.22945233 -0.23874362 -0.0081065148
0.22954914 -0.25795108 -0.0074725887
0.22962463 -0.27644667 -0.0069596129
0.22950613 -0.29393712 -0.0075469892
0.22905439 -0.31888759 -0.0099820355
0.22922225 -0.33596295 -0.0089453273
0.22916593 -0.352305 -0.0091801211
0.2292141 -0.36850941 -0.0088221906
0.22919406 -0.38438052 -0.0088511286
0.22927304 -0.40013957 -0.0083184596
0.22910427 -0.41555715 -0.0091907335
0.22902955 -0.43096143 -0.0095295673
0.22904852 -0.44633353 -0.0093369763
0.22899117 -0.46931621 -0.0095345741
0.22884491 -0.4770104 -0.010321271
0.22889353 -0.50009048 -0.009917465
0.22881311 -0.51564306 -0.010287852
0.22882865 -0.53126842 -0.01011394
0.22877046 -0.54713762 -0.010357904
0.22878672 -0.57124597 -0.010136338
0.22864746 -0.58789736 -0.010839422
0.22845282 -0.60503942 -0.011856128
0.22837397 -0.62240511 -0.012215933
0.22825237 -0.64034307 -0.012817867
0.22809739 -0.65892315 -0.013608578
0.22791944 -0.67821127 -0.014529135
0.22845106 -0.70600027 -0.011381855
0.2278786 -0.72844595 -0.014537603
0.22777882 -0.75031501 -0.015013056
0.22770993 -0.77310848 -0.015312684
0.22713174 -0.79927468 -0.01849862
0.22788808 -0.83383083 -0.014072265
0.22798017 -0.86045879 -0.013456502
0.22730389 -0.89303976 -0.017194714
0.22705323 -0.92563117 -0.018519098
0.22816136 -0.9695769 -0.012091555
0.05129429 -2.3292134 -1.0142365
0.056623507 -2.5013177 -0.98379546
0.056431718 -2.6623008 -0.98471057
0.078315996 -2.630266 -0.86053914
0.1770228 -2.5937946 -0.30029041
0.22506475 -2.6126051 -0.027539179
0.29792866 -2.5903475 0.38612241
0.31080407 -2.5853505 0.45922005
0.32368317 -2.5857613 0.5323419
0.33653027 -2.580585 0.60527867
0.34931946 -2.5718329 0.67787588
0.36220202 -2.5664451 0.75101513
0.37504107 -2.5574567 0.82390594
0.79665667 -6.2805362 3.2175765
0.80588341 -5.8989348 3.2697663
0.81432503 -5.5531077 3.3175273
0.81305486 -5.1539931 3.3101878
0.82196653 -4.8846588 3.3606627
0.81183529 -4.4874091 3.3030803
0.81113183 -4.2000628 3.2990246
0.78918302 -3.676043 3.1744096
0.82434088 -3.6753075 3.3738782
0.81649357 -3.4132006 3.3293309
0.81019735 -3.1801808 3.293597
0.80644524 -2.9770641 3.2723081
0.80802119 -2.8122447 3.2812555
0.80878186 -2.6523387 3.2855835
0.78135836 -2.3866498 3.1300268
0.81629431 -2.30532 3.3282549
0.80940646 -2.1422288 3.2892113
0.80547893 -1.9973687 3.2669659
0.80105197 -1.8579378 3.2418916
0.79730648 -1.7266752 3.2206876
0.79564822 -1.6057715 3.2113261
0.79525727 -1.4915446 3.209156
0.79408908 -1.3788834 3.20258
0.7968744 -1.2223889 3.218457
0.79829794 -1.1190259 3.2265861
0.76668817 -0.97976047 3.0473607
0.76713407 -0.88424265 3.0499504
0.77853584 -0.79734182 3.1146784
0.79082161 -0.70705765 3.1844196
0.7861051 -0.60725898 3.157733
0.78425151 -0.51000232 3.147285
0.36008701 -0.42758113 0.74202591
0.34784055 -0.42145151 0.6727168
0.34616446 -0.41858995 0.66325915
0.34484378 -0.40699065 0.6559121
0.34447065 -0.39876014 0.65389138
0.34409851 -0.39494863 0.65182859
0.34398317 -0.38625216 0.65126973
0.34419024 -0.37205958 0.65258676
0.34583366 -0.353459 0.66204894
0.34615996 -0.33680281 0.66404194
0.34536058 -0.32832694 0.65960407
0.34421253 -0.32104355 0.6531893
0.3434644 -0.31241724 0.64904237
0.3434332 -0.29471651 0.64900815
0.34388369 -0.28651914 0.65161014
0.34354186 -0.26816744 0.64981437
0.34387687 -0.25220811 0.65180868
0.34398052 -0.22829998 0.65253848
0.34536767 -0.20274563 0.66049808
0.58604461 1.6978438 2.0253432
0.56420064 1.6828763 1.9015676
0.54506862 1.6811421 1.7931693
0.5259245 1.6709734 1.6847041
0.50931078 1.6776634 1.5905856
0.49336439 1.6856716 1.5002518
0.47080761 1.7043653 1.3724781
0.44845036 1.6068985 1.2458057
0.4278461 1.5088893 1.1290743
0.41591832 1.5346231 1.0615269
0.40239334 1.5291303 0.98492652
0.38898966 1.5187325 0.90901482
0.37666538 1.5279129 0.83922124
0.36436474 1.5355525 0.76956177
0.35261774 1.5634621 0.70303851
0.33386141 1.5586492 0.59681952
0.32160887 1.5665842 0.5274322
0.30927917 1.5660603 0.45760825
0.29698429 1.5610625 0.38798228
0.28465781 1.5645914 0.31817546
0.27231136 1.5636373 0.24825582
0.25974277 1.5701169 0.17707472
0.24855098 1.519679 0.11371048
0.22828379 1.5631437 -0.0010883637
0.21562101 1.5565947 -0.072802812
0.20706108 1.464749 -0.12123644
0.19832362 1.3929418 -0.17068051
0.19419488 1.2589594 -0.19397819
0.21643908 0.6565612 -0.067540459
0.13481018 1.4380134 -0.53045642
0.19051933 0.75508595 -0.21436158
0.22724473 0.18337412 -0.0057051033
0.22714025 0.13786492 -0.0061948248
0.22717008 0.095507383 -0.0059232544
0.2269472 0.058528345 -0.0070858696
0.2269605 0.022914983 -0.0069093425
0.2269475 -0.0098696016 -0.0068824161
0.22698629 -0.040651605 -0.0065621636
0.22704452 -0.06950362 -0.0061320947
0.22695811 -0.095867604 -0.006522784
0.22682275 -0.12053688 -0.0071914326
0.2268917 -0.14479668 -0.0067014485
0.22715977 -0.16859545 -0.0050822562
0.22673801 -0.18870369 -0.0073762001
0.22600648 -0.21726739 -0.011378442
0.22594754 -0.23688571 -0.011614938
0.22634616 -0.25706339 -0.0092562735
0.22641447 -0.27562219 -0.0087713441
0.22628921 -0.29317686 -0.0093846107
0.22628285 -0.31054574 -0.0093235904
0.22639298 -0.32770273 -0.0086019095
0.22628166 -0.34410471 -0.00913662
0.22644484 -0.36060512 -0.0081144553
0.22637334 -0.37650689 -0.0084234765
0.22619453 -0.3999534 -0.0092933811
0.22635546 -0.40786251 -0.0083324285
0.22611904 -0.43091342 -0.0095295897
0.22613607 -0.44628495 -0.0093371542
0.22607276 -0.46160543 -0.0096007399
0.22592881 -0.47696078 -0.010321778
0.22605152 -0.49229744 -0.0095303841
0.22574912 -0.50791031 -0.011150628
0.22590658 -0.53121692 -0.010115028
0.22584684 -0.54708558 -0.010359165
0.2258871 -0.56305563 -0.010036264
0.22552544 -0.57988262 -0.011993484
0.22544202 -0.5966776 -0.012372561
0.22577073 -0.62166673 -0.010367136
0.22512452 -0.6318258 -0.01398601
0.22564173 -0.65764749 -0.010911955
0.22514327 -0.67771697 -0.013646589
0.22495028 -0.69774383 -0.014648565
0.22475785 -0.7185992 -0.015647804
0.22457904 -0.7403363 -0.01657008
0.22520244 -0.77132946 -0.012895901
0.22502999 -0.79560506 -0.013783081
0.22438623 -0.82345653 -0.017344682
0.22451359 -0.8493278 -0.016531944
0.22524644 -0.88811654 -0.012239833
0.22520852 -0.91909599 -0.012366244
0.22475903 -0.95504361 -0.014828657
0.052226085 -2.3023858 -0.99362957
0.052092128 -2.4420662 -0.99433303
0.050643407 -2.6071417 -1.0025015
0.051275488 -2.7716751 -0.99886775
0.18780696 -2.6084945 -0.22369377
0.21620068 -2.5954599 -0.062448341
0.26263911 -2.6008046 0.2012872
0.27588612 -2.5844035 0.27652615
0.28870603 -2.5952861 0.34933481
0.30162558 -2.589586 0.42271391
0.31446624 -2.582293 0.49564618
0.32734001 -2.582406 0.56876433
0.34015808 -2.575938 0.64156741
0.35297561 -2.5688751 0.71437865
0.3658751 -2.5631645 0.78765482
0.69450653 -8.9037724 2.6504104
0.78565049 -6.4413991 3.1688018
0.78520793 -5.9296875 3.1665456
0.81351918 -5.5702639 3.3274302
0.82913172 -5.3259835 3.4161818
0.82999754 -4.9756894 3.4212949
0.81413054 -4.5268903 3.3314984
0.81789732 -4.2700357 3.35304
0.77868754 -3.7387185 3.1308224
0.80868405 -3.7076366 3.301116
0.8105287 -3.499352 3.3117342
0.81314212 -3.2113974 3.326781
0.8096813 -3.0077455 3.3072932
0.80790931 -2.8253078 3.29738
0.80928147 -2.6672323 3.3052983
0.8082338 -2.506954 3.2994866
0.79889196 -2.3237014 3.2466214
0.8053847 -2.2070448 3.2835782
0.79984033 -2.0541804 3.2522483
0.79555267 -1.9129887 3.2280447
0.79867411 -1.7379206 3.2459285
0.79674804 -1.6153694 3.2351167
0.7944445 -1.4961922 3.2221613
0.79213768 -1.3809069 3.2091851
0.79405141 -1.2760898 3.2201521
0.79428732 -1.1701707 3.2215986
0.7957139 -1.0674361 3.2297988
0.75102812 -0.91879827 2.9763823
0.79571509 -0.81159037 3.2300668
0.78904289 -0.70762253 3.1923141
0.78519142 -0.60780871 3.1705635
0.78142595 -0.5099079 3.1492991
0.35701257 -0.4332684 0.74159759
0.34548333 -0.42540964 0.67631102
0.34351274 -0.41818291 0.66521472
0.34219027 -0.41086474 0.65779555
0.34148288 -0.39870253 0.65390807
0.34083363 -0.3865048 0.65035027
0.34141326 -0.38085511 0.65368098
0.34206468 -0.36039707 0.65754437
0.34356278 -0.34104466 0.66616958
0.34294501 -0.33202282 0.66274786
0.34166878 -0.32509723 0.65559
0.34109673 -0.31586969 0.65242738
0.34097525 -0.29870212 0.65186256
0.34064248 -0.2876735 0.6500572
0.34089893 -0.27343148 0.65159482
0.34040254 -0.25483727 0.64890188
0.34110913 -0.23583487 0.65299278
0.34235513 -0.21198811 0.66014379
0.59361011 1.6999229 2.0858686
0.56930673 1.670168 1.9480475
0.54952002 1.6657178 1.8358517
0.52393562 1.6813246 1.6907933
0.50685132 1.6838478 1.5939289
0.49056524 1.6884035 1.5015929
0.47499293 1.6954165 1.4133059
0.45957026 1.698828 1.3258678
0.43343332 1.5353304 1.1776567
0.41915256 1.5258813 1.0966996
0.40555704 1.5208201 1.0196297
0.39221427 1.5137181 0.94399381
0.37372988 1.5279508 0.8392157
0.35993254 1.4863477 0.76100516
0.34948739 1.5545831 0.70179707
0.33717826 1.5602595 0.63202208
0.32486033 1.5634508 0.56219727
0.31256092 1.566159 0.49247706
0.30025831 1.5563942 0.42274067
0.28191853 1.5526289 0.31878099
0.26950553 1.5616636 0.24841346
0.25715107 1.5592155 0.17837991
0.24359593 1.5977209 0.10152371
0.23167361 1.5693766 0.033947371
0.21908891 1.5621555 -0.037392814
0.21000914 1.4770015 -0.088825583
0.20145251 1.3984005 -0.13729081
0.19627501 1.2762504 -0.16656913
0.18035229 1.2462586 -0.25680923
0.21544661 0.6871776 -0.057478711
0.19955647 0.72569323 -0.14754717
0.19224948 0.70652539 -0.1889317
0.22465125 0.20680703 -0.0047274027
0.22550976 0.15111211 0.00023940552
0.22527473 0.10941049 -0.001002987
0.22501317 0.071507961 -0.0023966059
0.22500204 0.034984451 -0.0023691473
0.22498316 0.00133218 -0.0023861178
0.22515433 -0.030986914 -0.0013246557
0.22486079 -0.058554221 -0.0029015345
0.22367272 -0.093298413 -0.00951197
0.22366092 -0.11869255 -0.0094900141
0.22358049 -0.14244886 -0.0098577961
0.22383645 -0.16636266 -0.0083163632
0.22369799 -0.18764852 -0.0090139071
0.22387306 -0.20911705 -0.0079317316
0.22375369 -0.22875941 -0.0085210828
0.22377807 -0.24813083 -0.0082945144
0.22378424 -0.26679099 -0.0081712464
0.22392234 -0.28517839 -0.0072992397
0.22338517 -0.31022933 -0.010215788
0.22392078 -0.31977984 -0.007131685
0.22355141 -0.34411523 -0.0090957275
0.22354704 -0.36039135 -0.0090321554
0.22364624 -0.37651879 -0.0083806869
0.22367586 -0.39231938 -0.0081240628
0.22345918 -0.40775388 -0.0092652394
0.22350956 -0.42327186 -0.0088905077
0.22348142 -0.43864518 -0.0089613637
0.22337306 -0.45395935 -0.0094872881
0.22321104 -0.47697714 -0.01027284
0.22316177 -0.49238423 -0.010462909
0.22337891 -0.50771892 -0.0091408994
0.22334506 -0.52327579 -0.0092430906
0.22323637 -0.53906947 -0.0097696893
0.22305706 -0.55518293 -0.01069672
0.22281243 -0.57169741 -0.011994051
0.22267576 -0.58841646 -0.012678461
0.22308812 -0.61301279 -0.010201086
0.22273926 -0.63113195 -0.012088486
0.22251843 -0.64956588 -0.013248957
0.22242899 -0.66828477 -0.013663294
0.22270137 -0.69636065 -0.011977112
0.22265032 -0.71662509 -0.012172244
0.2218699 -0.740363 -0.016504738
0.22214982 -0.76135308 -0.014820456
0.22188918 -0.78549564 -0.016202215
0.22261858 -0.81908035 -0.011917088
0.22245528 -0.8460772 -0.012744011
0.22227447 -0.87491786 -0.013668942
0.22173861 -0.90781152 -0.016606238
0.22115579 -0.94358957 -0.019807881
0.046236835 -2.3943381 -1.0114431
0.044725791 -2.553755 -1.0198301
0.051431876 -2.7437382 -0.98151165
0.074847512 -2.6977172 -0.84854746
0.099595457 -2.6213279 -0.70804065
0.26631197 -2.5924895 0.23927937
0.27930039 -2.5887096 0.3130939
0.29861718 -2.5896273 0.42288008
0.31148636 -2.5883303 0.49602067
0.32431611 -2.5824471 0.56893462
0.3498733 -2.5659435 0.71413928
0.3628732 -2.5641873 0.78799796
0.37598625 -2.5617046 0.86249822
0.61011428 -4.9111552 2.193439
0.78995961 -6.025918 3.2151794
0.80352795 -5.7171702 3.2920351
0.82844096 -5.5488658 3.4333823
0.80483282 -4.9585304 3.2990332
0.8100813 -4.6752963 3.3286889
0.80628294 -4.3477383 3.3069661
0.79601139 -4.0045867 3.2484934
0.80209559 -3.6868253 3.282907
0.81421262 -3.5410683 3.3516483
0.80747443 -3.2957807 3.3133032
0.80422306 -3.0872426 3.294775
0.8020128 -2.8977389 3.2821698
0.80224478 -2.7309012 3.283443
0.80557668 -2.5858281 3.3023264
0.78577822 -2.3566782 3.1898704
0.80945373 -2.2317557 3.324271
0.80120093 -2.068229 3.2773921
0.79702175 -1.9261432 3.2536495
0.79426587 -1.7945075 3.237993
0.79117548 -1.6673653 3.2204413
0.79007739 -1.5495737 3.2142048
0.78931099 -1.4359936 3.2098541
0.78761059 -1.3237717 3.2002034
0.79190427 -1.170881 3.2245858
0.79301149 -1.0676278 3.2308779
0.75109941 -0.92173761 2.9929764
0.79398227 -0.86307812 3.236407
0.78661841 -0.75737953 3.1946197
0.78257042 -0.65674251 3.1716561
0.77669114 -0.55785179 3.1383007
0.7761116 -0.46156347 3.1350274
0.3549135 -0.43303367 0.74459654
0.34124535 -0.41786322 0.6672073
