# .PCD v0.7 - Point Cloud Data file format
VERSION 0.7
FIELDS x y z
SIZE 4 4 4
TYPE F F F
COUNT 1 1 1
WIDTH 1395
HEIGHT 1
VIEWPOINT 0 0 0 1 0 0 0
POINTS 1395
DATA ascii
-0.063176326 -0.56620026 -0.0011510005
-0.055937394 -0.55387014 -0.0049281884
-0.050632097 -0.54418355 -0.0040168595
-0.045749221 -0.5354901 -0.0044358494
-0.041076146 -0.52726382 -0.0053680744
-0.036360152 -0.51873088 -0.0050016339
-0.027453901 -0.50291044 -0.0059771477
-0.025155943 -0.49849311 -0.0043318952
-0.020881841 -0.49086681 -0.0046090949
-0.014614858 -0.47992611 -0.0063823652
-0.0083869826 -0.46893623 -0.0074870107
-0.0023100965 -0.4575735 -0.004947905
0.0057899444 -0.44318056 -0.0058206655
0.0099799745 -0.43600884 -0.0078181066
0.016128145 -0.42504793 -0.0082759932
0.018251562 -0.42135254 -0.0089437244
0.022388656 -0.41394332 -0.0090618217
0.026669351 -0.40639737 -0.0098640453
0.030970979 -0.39875826 -0.010352043
0.037449472 -0.38714653 -0.010483195
0.039810933 -0.38305494 -0.011326772
0.048265059 -0.36747065 -0.0090606092
0.058430512 -0.34972078 -0.011914443
0.065522581 -0.33676794 -0.010690566
0.071040295 -0.32704356 -0.011728755
0.076316625 -0.31751287 -0.011413313
0.082264505 -0.30699325 -0.012320269
0.090803087 -0.29150054 -0.011413989
0.097588576 -0.27951527 -0.012533389
0.1146979 -0.24869817 -0.01198228
0.12327117 -0.23358464 -0.013554658
0.13449587 -0.21299954 -0.011112459
0.14491954 -0.19463219 -0.013063214
0.15674251 -0.17387649 -0.015708242
0.17001015 -0.15060258 -0.018773586
0.18595958 -0.12132055 -0.015100069
0.20309065 -0.091200076 -0.018656092
0.22838008 -0.045912668 -0.019256743
0.24814065 -0.010526497 -0.019721877
0.27270234 0.033178218 -0.021868911
0.97031051 1.2134157 -0.42714223
1.0095352 1.2985026 -0.34414041
1.0046304 1.3028779 -0.2696985
0.99351567 1.296369 -0.1937841
0.98998588 1.3026738 -0.12238289
0.986215 1.3084515 -0.051515386
0.97336268 1.2981915 0.020820996
0.96818626 1.301235 0.090490401
0.93870187 1.2668633 0.19522773
0.95305073 1.3046998 0.26350206
0.94622266 1.3046435 0.33240542
0.93823642 1.3024745 0.40111491
0.93242168 1.3043029 0.47039247
0.92399538 1.3013837 0.53932601
0.9167667 1.3072566 0.64578772
0.90578234 1.2997844 0.71493518
0.90302402 1.3080359 0.78951627
0.89615452 1.3087581 0.86324394
0.89004701 1.3112347 0.9391582
0.88244647 1.3111564 1.0157773
0.87665206 1.3149966 1.0962247
0.90479952 1.395177 1.2638638
0.9369927 1.4775956 1.4031334
0.92108005 1.4644502 1.4902145
0.91005713 1.4618194 1.5871284
0.90293533 1.4680783 1.6947206
0.89701086 1.4779607 1.810652
0.86723346 1.450609 1.9580693
0.87485671 1.4931011 2.1209064
0.79867071 1.3536196 2.1052923
0.83592051 1.4655966 2.3603711
0.82502913 1.4737257 2.5167918
0.81745964 1.4923265 2.6987126
0.78354836 1.4732891 2.9350986
0.38765645 0.53546244 1.6498364
0.33884564 0.45132753 1.6693685
0.30491349 0.39062276 1.6704212
0.27703562 0.34502092 1.6954324
0.2412433 0.27702108 1.6741182
0.21881692 0.24612102 1.7269381
0.20711969 0.25036952 1.8696159
0.18212959 0.21738207 1.9366519
0.14200716 0.16444816 2.0444491
0.12142199 0.16347668 2.2478092
0.11200706 0.25012481 2.833226
0.072816223 0.22609654 3.0950313
0.022007925 0.13351677 3.0871353
-0.05291089 0.0011270239 3.0988076
-0.10189375 -0.089468397 3.0836146
-0.15100046 -0.17688237 3.0876694
-0.19811431 -0.26591849 3.0623319
-0.2488302 -0.35181794 3.0912859
-0.29883802 -0.43953323 3.1027906
-0.37342837 -0.57249576 3.1079199
-0.42487994 -0.66281527 3.1193593
-0.47946 -0.7562899 3.1447108
-0.53657717 -0.85331231 3.1757531
-0.57114708 -0.93183827 3.0825646
-0.65998465 -1.0610703 3.2534051
-0.67211497 -1.1163281 3.0640583
-0.6866225 -1.170037 2.9075949
-0.69828975 -1.2332363 2.6686401
-0.91848797 -1.5288693 3.2317576
-0.93324566 -1.581894 3.0817094
-0.94134325 -1.6241882 2.9247451
-0.92710948 -1.6348785 2.719841
-1.0129138 -1.7767899 2.7882442
-1.0936221 -1.9280708 2.7519569
-0.89098942 -1.6690071 2.1602771
-0.97083747 -1.803056 2.2126958
-0.88725781 -1.7021557 1.9349632
-0.94702375 -1.8076599 1.9449722
-0.99305189 -1.8940539 1.9236146
-1.075178 -2.0357013 1.9562043
-5.8299813 -10.765182 0.85753417
-2.1064909 -4.2453723 -0.070115805
-1.3888365 -2.9753399 -0.17309615
-1.1660228 -2.5795622 -0.19680938
-1.8696706 -3.9145882 -0.60333198
-1.8226625 -3.8656573 -0.80374604
-1.2109177 -2.71468 -0.50508344
-1.5456407 -3.3871562 -0.90992111
-1.2505672 -2.8386128 -0.80334902
-1.2519193 -2.8619843 -0.92175609
-0.65876925 -1.7111542 -0.43530285
-0.17897403 -0.77245623 0.0021833081
-0.12692267 -0.67036229 0.051057395
-0.1185531 -0.65560955 0.049486354
-0.11002859 -0.64030176 0.049480185
-0.10725597 -0.63706899 0.039583486
-0.10647031 -0.63821518 0.025096083
-0.087679915 -0.60891318 -8.7044849e-05
-0.078828983 -0.59348476 -0.0027439103
-0.072830983 -0.58276123 -0.0030283721
-0.067377731 -0.57321137 -0.0044195121
-0.063807383 -0.56621784 -0.0011356816
-0.056400694 -0.55342597 -0.0040423861
-0.051113792 -0.54376447 -0.0031152258
-0.048378363 -0.53857863 -0.0015777902
-0.039573263 -0.5237298 -0.0070676743
-0.034779489 -0.51485711 -0.0055961823
-0.028028861 -0.50262523 -0.0050124684
-0.021621319 -0.4913809 -0.0065307645
-0.015266345 -0.47993416 -0.0063715167
-0.0090475623 -0.46877968 -0.0064901756
-0.0070171435 -0.46487799 -0.0050601177
-0.0029355977 -0.45769745 -0.0059308661
0.0010876992 -0.45039457 -0.0055189044
0.0031102968 -0.44679224 -0.0057014721
0.0093168598 -0.43601224 -0.0078100935
0.013448589 -0.42871338 -0.0085206674
0.015570628 -0.42503151 -0.0092626708
0.019715372 -0.4176307 -0.0095288167
0.027988629 -0.40269905 -0.0091606015
0.030298756 -0.39875811 -0.010346533
0.038739115 -0.38342384 -0.0093972124
0.043263357 -0.37537932 -0.00987502
0.047814917 -0.36722332 -0.0099993665
0.051872797 -0.3611646 -0.016950238
0.057488829 -0.35001877 -0.010994717
0.064837173 -0.33676255 -0.010689018
0.070352972 -0.32703742 -0.011727813
0.078119025 -0.31289548 -0.010653418
0.082215756 -0.30613154 -0.014011124
0.090449527 -0.29102537 -0.012231735
0.096892655 -0.27950564 -0.012535335
0.11475906 -0.24758025 -0.013467766
0.12335117 -0.23241907 -0.014993647
0.13285457 -0.21570322 -0.016978325
0.14587513 -0.19209068 -0.015686763
0.15773064 -0.17125072 -0.018226502
0.17226756 -0.1445287 -0.014743658
0.18924642 -0.11499535 -0.020130502
0.20712139 -0.082040213 -0.015284774
0.22857349 -0.044400517 -0.020239417
0.25208086 -0.0029077544 -0.024268547
0.27763262 0.044418707 -0.01608232
0.31470594 0.10965115 -0.023574948
0.96457982 1.2116416 -0.38894209
1.0047139 1.2919894 -0.34203041
0.99881828 1.2946159 -0.26737347
0.99113774 1.2939438 -0.19325171
0.98711777 1.2993741 -0.12177896
0.97891957 1.2973946 -0.049794536
0.97298378 1.3052943 0.055066679
0.96280473 1.2994508 0.12530787
0.94905126 1.2870454 0.19472563
0.95120728 1.3030642 0.26338068
0.94439006 1.3030071 0.33221507
0.93785131 1.3034613 0.40111428
0.92726249 1.3027869 0.50472015
0.92292178 1.3074819 0.57528591
0.91499722 1.305644 0.64528942
0.91038966 1.3101927 0.71773517
0.90218437 1.3081506 0.78943193
0.89971757 1.3173125 0.86623228
0.88964754 1.3121861 0.93941468
0.87306768 1.3020542 1.0503463
0.86944008 1.3103093 1.1337976
0.93516088 1.457512 1.2990105
0.93733627 1.4800805 1.4044909
0.92101818 1.466123 1.4911511
0.91549116 1.4747989 1.5962553
0.88920116 1.452168 1.7350574
0.88219953 1.4601616 1.8512655
0.80957776 1.3288766 1.8460027
0.87437224 1.4939225 2.121485
0.78535843 1.3261278 2.076165
0.81802619 1.4431412 2.4061043
0.80481458 1.4467624 2.5606043
0.80123252 1.4757456 2.7607601
0.78744525 1.4846423 2.9509206
0.37210229 0.51121682 1.6627123
0.33731589 0.44936171 1.6659929
0.30363786 0.3892408 1.6678287
0.27444568 0.34003046 1.6858214
0.23976277 0.27492163 1.6696552
0.21949235 0.25026926 1.7359403
0.19115064 0.22466831 1.8787389
0.16801213 0.1988409 1.9674803
0.14226253 0.16825177 2.0557971
0.12372324 0.17707671 2.2937505
0.095128492 0.25524241 3.0256724
0.046805337 0.18189514 3.1013248
-0.0037035155 0.090560958 3.0974772
-0.053376772 -0.00098298409 3.0839639
-0.10292947 -0.088051446 3.0945237
-0.15148777 -0.17712007 3.0836859
-0.19985417 -0.26488462 3.0782704
-0.27389723 -0.39552024 3.0910127
-0.32322976 -0.48339033 3.0947981
-0.37473494 -0.57262933 3.1128874
-0.42655298 -0.66325992 3.1262829
-0.4818804 -0.75738573 3.1555254
-0.53969926 -0.85515946 3.1894236
-0.56936097 -0.92951304 3.0700228
-0.69098282 -1.1135495 3.2636189
-0.69520241 -1.1596569 3.0457458
-0.66897917 -1.1669154 2.7386012
-0.86595047 -1.4281387 3.2603908
-0.92547637 -1.5363517 3.2525837
-0.93423909 -1.5821316 3.0826507
-0.96077305 -1.6634114 2.8923228
-0.94919932 -1.6767627 2.699367
-1.0621756 -1.8562677 2.8308609
-1.0881138 -1.9193274 2.7375062
-0.90462017 -1.6870745 2.1886108
-0.94418806 -1.763809 2.156244
-0.89218372 -1.7081531 1.9431678
-0.95089763 -1.8121811 1.9507684
-1.0249122 -1.9496012 1.9248171
-1.094636 -2.0732741 1.9330673
-5.8470631 -10.575749 2.085494
-2.1281452 -4.2828274 -0.072941609
-1.4819393 -3.1258962 -0.089174956
-1.3751252 -2.9482524 -0.1687298
-1.1603754 -2.567344 -0.19432114
-1.8713815 -3.9290223 -0.67823714
-1.2167712 -2.715085 -0.45745021
-1.2122024 -2.7243884 -0.55644739
-1.3765788 -3.0595739 -0.78357476
-1.2557675 -2.8468516 -0.80683088
-1.2465637 -2.8496082 -0.91584396
-0.6546818 -1.7014092 -0.43021238
-0.18047793 -0.77399611 0.0011734696
-0.12729847 -0.6696164 0.05162587
-0.11824003 -0.65341753 0.051252935
-0.11110216 -0.64101976 0.048878226
-0.10605483 -0.63429016 0.035651602
-0.10545067 -0.63588321 0.020476695
-0.10589216 -0.64002949 0.0014775534
-0.099394076 -0.6288482 -0.0012820527
-0.085690781 -0.60434473 -0.0018727987
-0.079563476 -0.59349328 -0.0027347144
-0.073346615 -0.58223474 -0.0022037881
-0.067908242 -0.57271004 -0.0035758098
-0.062183883 -0.56228614 -0.0027660418
-0.054796036 -0.54948068 -0.0053899284
-0.051999152 -0.54421079 -0.0039950269
-0.044969149 -0.53198993 -0.0062924689
-0.0401893 -0.52337706 -0.0061372048
-0.030852363 -0.50617701 -0.003711741
-0.024440758 -0.49496815 -0.0054552057
-0.022256883 -0.4908925 -0.0045916643
-0.01597189 -0.47974339 -0.0053879679
-0.011831001 -0.47239038 -0.0058652861
-0.0016190982 -0.45411313 -0.0062535475
0.00036695632 -0.45041421 -0.0055141603
0.0044748737 -0.44326243 -0.0068037128
0.010617285 -0.43238604 -0.007699749
0.01474425 -0.42507187 -0.0082644792
0.016867133 -0.42137644 -0.0089325272
0.022998391 -0.41028589 -0.0085048825
0.027272902 -0.40272236 -0.0091567403
0.033716802 -0.3912144 -0.0095407963
0.038025312 -0.38344851 -0.0093936455
0.04903201 -0.36352164 -0.0085187675
0.052651707 -0.3578999 -0.013481495
0.058955006 -0.34597474 -0.010081355
0.066589907 -0.33231398 -0.010377875
0.069939248 -0.32669342 -0.012604933
0.077726915 -0.31251147 -0.011505022
0.084031768 -0.30145058 -0.012983179
0.090085365 -0.29059014 -0.013045722
0.096894443 -0.27855384 -0.014125099
0.11482144 -0.24650829 -0.01494728
0.12520503 -0.2273827 -0.012236163
0.1351274 -0.20997182 -0.014516258
0.14898579 -0.18498473 -0.013920894
0.16173463 -0.16266696 -0.017136263
0.17332943 -0.14184259 -0.017086709
0.19107476 -0.10956455 -0.01470781
0.20826231 -0.079177693 -0.017338352
0.23020591 -0.040731214 -0.022656396
0.25476298 0.0043024058 -0.01727437
0.28029081 0.049830362 -0.018922616
0.95678312 1.1992253 -0.38432008
1.0061693 1.2951471 -0.34313762
0.99831575 1.2944649 -0.26737905
0.99148035 1.3014678 -0.15853475
0.98585963 1.3040966 -0.086710885
0.97311431 1.2941093 -0.013928381
0.96853292 1.2982262 0.055763293
0.96326089 1.3010585 0.12519914
0.95730656 1.3026245 0.1943977
0.95116115 1.3038119 0.26339525
0.93976921 1.301628 0.36652902
0.93455297 1.3045225 0.43574896
0.92718846 1.303542 0.5048576
0.91957355 1.302163 0.57425183
0.9172073 1.3107132 0.6465286
0.91028631 1.3109428 0.71797627
0.90251696 1.3097486 0.78998107
0.89101231 1.3086482 0.90037656
0.88631535 1.3140285 0.97837484
0.87416494 1.3052423 1.0519037
0.87131554 1.3150746 1.1363233
0.94978237 1.4877224 1.3161787
0.93753833 1.4815557 1.4054595
0.91387171 1.4624897 1.5376638
0.90251642 1.4595482 1.6361566
0.89735079 1.470376 1.7496889
0.88530844 1.4679415 1.8580123
0.81902969 1.3503938 1.8658448
0.86502451 1.47488 2.102839
0.76022661 1.2853518 2.0945115
0.82182676 1.4531068 2.4177616
0.81127089 1.4630406 2.5809009
0.80306298 1.4815173 2.7685053
0.7937842 1.5013776 2.9747856
0.36964408 0.50690371 1.6561921
0.33598694 0.44780409 1.6634928
0.30216199 0.38727546 1.6644194
0.27012435 0.33034158 1.6675342
0.2239854 0.24826048 1.6715202
0.20637153 0.23196341 1.7580001
0.18880673 0.21952987 1.8658141
0.17013609 0.20899382 1.9955639
0.14252044 0.17228369 2.0681159
0.12630969 0.19228117 2.3454599
0.097665213 0.27689475 3.1139994
0.044491351 0.16608594 3.0270057
-0.0045384467 0.090405554 3.0964925
-0.054366209 0.00052884984 3.0938499
-0.10320663 -0.090150863 3.0766566
-0.17645587 -0.22118516 3.0789213
-0.22564699 -0.30807418 3.0867035
-0.27478129 -0.39547703 3.0910056
-0.32574928 -0.48362359 3.109699
-0.37601334 -0.57272637 3.1158502
-0.42732397 -0.66312617 3.1252847
-0.50683659 -0.80228943 3.1451225
-0.5647819 -0.90061533 3.1770458
-0.61905575 -0.99722767 3.1814201
-0.68937999 -1.1108979 3.2521625
-0.69753319 -1.1610522 3.0513785
-0.67895585 -1.1769693 2.7730052
-0.86616373 -1.4271479 3.257611
-0.93315142 -1.5623361 3.1728988
-0.95280117 -1.620615 3.0427835
-0.91740638 -1.6057189 2.7679944
-0.9521125 -1.6792433 2.7044065
-1.0832288 -1.8833778 2.8804049
-1.0856555 -1.9144461 2.7294033
-0.92458493 -1.7137362 2.2302115
-0.9037028 -1.7044863 2.0706813
-0.91022569 -1.742005 1.9247444
-0.96301734 -1.8376771 1.9193995
-1.0327998 -1.959896 1.9363377
-1.1051919 -2.087719 1.94807
-5.9530811 -10.720281 2.3257432
-2.1368349 -4.2966933 -0.074163966
-1.4480937 -3.0620749 -0.081704579
-1.3331125 -2.8689265 -0.1562501
-1.1542921 -2.5622282 -0.23652077
-1.869576 -3.923753 -0.67700869
-1.2167478 -2.713311 -0.45700756
-1.2175121 -2.732801 -0.55942661
-1.2867684 -2.8848414 -0.71632195
-1.2570586 -2.8476148 -0.80726492
-1.2131881 -2.7928534 -0.94273055
-0.65181237 -1.6940929 -0.42646682
-0.19138092 -0.79272223 -0.0020847176
-0.18088916 -0.77322471 0.0016795404
-0.12736234 -0.66812319 0.0527362
-0.11681823 -0.65010446 0.047570344
-0.11121321 -0.63959426 0.050102133
-0.10942785 -0.63846928 0.038312729
-0.10684604 -0.63722205 0.019117067
-0.10696808 -0.64068025 0.00077172829
-0.099900655 -0.62822497 -0.00055520906
-0.086225681 -0.6037662 -0.0010993576
-0.077894501 -0.58948809 -0.0049623577
-0.071715139 -0.57825446 -0.0041874633
-0.066101007 -0.56822836 -0.0045045968
-0.062779449 -0.56180495 -0.0019111515
-0.057572953 -0.55252147 -0.0022907497
-0.050329737 -0.53985947 -0.0042537167
-0.047761414 -0.53511512 -0.0035097417
-0.04310609 -0.52691609 -0.0044280994
-0.03628964 -0.5148775 -0.0055862418
-0.031792972 -0.50680351 -0.005602811
-0.023083929 -0.49115124 -0.0055539007
-0.018877039 -0.48376074 -0.0064937221
-0.014696122 -0.47636321 -0.0071305647
-0.010550709 -0.46880463 -0.006479505
-0.0023977838 -0.45411998 -0.0062474227
0.0016697249 -0.44689193 -0.0066860644
0.0057205227 -0.43964273 -0.0068359911
0.009841281 -0.43239313 -0.0076927366
0.015975682 -0.42141753 -0.0079325028
0.02236671 -0.41021359 -0.0094837165
0.028479114 -0.39903933 -0.0083781434
0.033127904 -0.39106667 -0.010503122
0.037453126 -0.38327092 -0.010347273
0.041994687 -0.37519738 -0.010815311
0.053576909 -0.35440829 -0.010880733
0.056788493 -0.34914681 -0.013733533
0.065824889 -0.33232206 -0.010367119
0.069174819 -0.32670152 -0.012593959
0.07696376 -0.31251973 -0.011493557
0.083597377 -0.30101874 -0.013807225
0.0915047 -0.28629294 -0.010833578
0.098675415 -0.27370235 -0.012436462
0.1081676 -0.25762892 -0.017897684
0.11661722 -0.24150199 -0.012506053
0.12563969 -0.22562878 -0.01433662
0.13600002 -0.20754139 -0.01722105
0.14865303 -0.18435247 -0.014545896
0.16313031 -0.15936562 -0.020189084
0.17432927 -0.1391256 -0.019413885
0.19571277 -0.10106108 -0.021207454
0.20933738 -0.076280914 -0.019373562
0.23330395 -0.032841448 -0.016987659
0.2582514 0.011189084 -0.021187961
0.28620008 0.060748238 -0.024580199
0.98089385 1.2282465 -0.47158408
0.95365888 1.1951115 -0.38270882
1.0046514 1.3000935 -0.30661801
0.99811107 1.3015618 -0.23205012
0.98881215 1.2980412 -0.15770172
0.98121721 1.297218 -0.08538945
0.97634768 1.3009738 -0.014836743
0.96733409 1.2973291 0.055918414
0.96255124 1.3010272 0.12526613
0.95415354 1.304324 0.22897898
0.94693714 1.3035791 0.29789725
0.94001275 1.3033432 0.36673117
0.93431002 1.3053615 0.4359163
0.93118411 1.3122162 0.50630081
0.9230485 1.3099359 0.57586551
0.91066563 1.3063407 0.68104362
0.90448481 1.3080322 0.75323009
0.89652216 1.3065523 0.82556379
0.89202452 1.3119687 0.90173095
0.88301528 1.3090054 0.97629523
0.87552416 1.3093054 1.0539051
0.87098795 1.3158435 1.1368015
0.93762165 1.4739134 1.354267
0.92614698 1.4694561 1.4453872
0.91462141 1.4654958 1.5398329
0.90394199 1.4639877 1.6395547
0.89905292 1.4754483 1.7538428
0.89300025 1.4857516 1.8733916
0.87392485 1.48243 2.047977
0.83993906 1.4353884 2.1267323
0.76063555 1.2878922 2.0973775
0.82661426 1.465585 2.4323792
0.81629425 1.4762937 2.5974867
0.77469116 1.436408 2.7938914
0.76112235 1.4468483 2.990423
0.36801603 0.50472641 1.6529555
0.32017341 0.42239785 1.6728098
0.28620613 0.36107072 1.6706603
0.25406826 0.30341548 1.6707094
0.22308311 0.24780832 1.6706432
0.20756161 0.23784113 1.771666
0.18850081 0.2209627 1.8695247
0.15511821 0.18848576 2.024442
0.12719195 0.15246233 2.1040156
0.11018942 0.17758167 2.4183064
0.096703894 0.2756567 3.1091616
0.043284096 0.16145752 3.0055048
-0.0053249276 0.089644626 3.0925667
-0.079926625 -0.043674689 3.0956283
-0.1287331 -0.133205 3.084583
-0.17734641 -0.22108303 3.080915
-0.22679527 -0.3079052 3.0916851
-0.2754643 -0.39553088 3.0900078
-0.32652369 -0.48366499 3.109695
-0.40134338 -0.61731249 3.1131122
-0.45278952 -0.70810395 3.1217055
-0.51109934 -0.8049553 3.165652
-0.56828874 -0.90298218 3.1915963
-0.62973386 -1.0065236 3.2295313
-0.66322309 -1.0838612 3.1320708
-0.69692749 -1.1596211 3.0457065
-0.70882732 -1.2265848 2.7879391
-0.88933861 -1.4723933 3.2292778
-0.90642977 -1.5285749 3.0850878
-0.94119912 -1.6049939 3.0057967
-0.89906633 -1.580943 2.7144527
-0.96058202 -1.6895171 2.7246661
-1.0763049 -1.8729788 2.8613682
-0.8805694 -1.6405019 2.1902421
-0.94275069 -1.7489223 2.2080715
-0.87852895 -1.6767849 1.9644636
-0.91792637 -1.752187 1.937843
-0.95939088 -1.8312285 1.9116182
-1.0376102 -1.9660109 1.9431086
-1.1075981 -2.0902598 1.9506559
-2.2353206 -3.8916085 3.2067411
-5.9809499 -10.76717 2.3351438
-2.1317351 -4.2998881 -0.15140769
-1.4178238 -3.0145938 -0.12767236
-1.2858787 -2.7890148 -0.1909526
-1.1526796 -2.5578883 -0.23559928
-1.8583944 -3.9013538 -0.67123967
-1.2124934 -2.7038939 -0.45420468
-1.6645596 -3.5981393 -0.92344892
-1.2673855 -2.8561087 -0.75782627
-1.2481364 -2.839112 -0.85700858
-1.2039485 -2.773267 -0.93304491
-0.64293557 -1.6808535 -0.44882265
-0.19168355 -0.79194134 -0.0015911302
-0.12545907 -0.66408104 0.04930184
-0.11681399 -0.64865589 0.048765946
-0.10971199 -0.63626641 0.046723157
-0.10847805 -0.63635218 0.033688191
-0.10874836 -0.63989007 0.016398611
-0.10735793 -0.64002955 0.0014732897
-0.097777739 -0.6235851 -0.0028043645
-0.084435195 -0.59976202 -0.0035561628
-0.078347094 -0.5889371 -0.0041588782
-0.072392821 -0.57825106 -0.0041895537
-0.066778034 -0.56822497 -0.0045066397
-0.061286788 -0.55833077 -0.0043163691
-0.056091134 -0.54903501 -0.0045107398
-0.051004827 -0.53985596 -0.0042556534
-0.046165757 -0.53120404 -0.0044720629
-0.041531693 -0.5230127 -0.0052127019
-0.039081551 -0.51840705 -0.004050835
-0.032386106 -0.50648957 -0.0046573486
-0.025947968 -0.49523756 -0.0064151329
-0.023755262 -0.4911474 -0.0055557876
-0.017463252 -0.48016241 -0.0073407646
-0.015355228 -0.47616583 -0.0061514121
-0.01328443 -0.47257152 -0.0068458081
-0.0071005682 -0.46158096 -0.0075040632
-0.0051065302 -0.45771933 -0.0059218905
-0.0010816846 -0.4504171 -0.0055097737
0.0050500277 -0.43963867 -0.0068378565
0.0091706952 -0.43238905 -0.0076945871
0.011384058 -0.42873436 -0.0095060142
0.01553857 -0.42134559 -0.0099194739
0.021695884 -0.41020948 -0.0094855167
0.027974386 -0.39891016 -0.0093580354
0.030297244 -0.39493361 -0.010460786
0.03480899 -0.38700297 -0.011434685
0.041537315 -0.37497839 -0.011770011
0.053157281 -0.35411632 -0.011806374
0.058049839 -0.3453455 -0.011893595
0.065441154 -0.33195925 -0.011256731
0.070993595 -0.32212955 -0.012051707
0.078469463 -0.30830091 -0.0097718975
0.084783085 -0.29718357 -0.011009024
0.091526464 -0.28533077 -0.012447827
0.098362625 -0.2731941 -0.01322334
0.10894344 -0.2542426 -0.013479249
0.11710577 -0.23980406 -0.014694586
0.12751479 -0.22053649 -0.011422042
0.13789025 -0.20234883 -0.013892674
0.14924468 -0.18242326 -0.016469641
0.16288882 -0.15869993 -0.020803891
0.177073 -0.13232969 -0.015674874
0.19593993 -0.099638902 -0.022294443
0.21526362 -0.064119816 -0.017581291
0.23588805 -0.027579125 -0.020266199
0.26468015 0.024634173 -0.01722623
0.29358834 0.076018885 -0.020027019
0.97626203 1.2279629 -0.43301159
0.98825485 1.2607597 -0.36931691
1.003009 1.2984279 -0.3060953
0.99106413 1.2906201 -0.22912236
0.98667526 1.2954907 -0.1571234
0.98105073 1.2980705 -0.085539743
0.97452867 1.3050448 0.019963915
0.96345282 1.297702 0.090752602
0.95906478 1.3020687 0.15989588
0.95301384 1.3034421 0.22898655
0.94725353 1.3053185 0.29797253
0.93936253 1.3033326 0.36673838
0.93270832 1.3036036 0.43571666
0.92169261 1.3022038 0.53946543
0.91765469 1.3075398 0.61053669
0.91459697 1.3149316 0.68328631
0.90429258 1.3088704 0.75349534
0.89543647 1.3056871 0.8252812
0.89269209 1.3144692 0.90271056
0.87713027 1.3061626 1.0135281
0.8660022 1.2994702 1.0885233
0.85425985 1.2918584 1.1645525
0.94449204 1.4889188 1.3631531
0.92897594 1.4764276 1.4498757
0.92071277 1.4792049 1.5493366
0.89588487 1.4591726 1.6878557
0.889072 1.4670889 1.8016522
0.8810944 1.473819 1.9205564
0.88031054 1.4975091 2.0623574
0.83443671 1.4246693 2.1158793
0.8142271 1.4083099 2.2283385
0.80871624 1.4429208 2.4797807
0.80007887 1.4584706 2.65522
0.77600777 1.440933 2.8001812
0.75667614 1.4374909 2.9767392
0.35135043 0.47723946 1.6602464
0.31836414 0.41938257 1.6677469
0.28645784 0.36341581 1.6749771
0.25309971 0.30249906 1.6689546
0.22463383 0.25410193 1.6840745
0.20012739 0.23745196 1.8384444
0.1758054 0.20576282 1.9059666
0.15315795 0.18359512 2.0103183
0.12974389 0.16575208 2.1468854
0.11332563 0.19624172 2.4856641
0.070548698 0.23128006 3.1174395
0.019215208 0.13589513 3.0989056
-0.030921917 0.044922411 3.0931747
-0.080281027 -0.045309149 3.0837421
-0.12835725 -0.13581657 3.0597398
-0.17717864 -0.22213346 3.0669773
-0.22556981 -0.30899405 3.0667787
-0.30252665 -0.43946978 3.1097524
-0.35188156 -0.52802545 3.1097457
-0.40225825 -0.61746782 3.1150894
-0.45583791 -0.70964634 3.1374505
-0.51391178 -0.80660611 3.1783657
-0.57040131 -0.90424746 3.1993608
-0.65688133 -1.0549376 3.2246611
-0.67253208 -1.1134442 3.0526783
-0.74105209 -1.2261037 3.1107976
-0.69716752 -1.2124897 2.7426572
-0.89373523 -1.476841 3.2420173
-0.90878576 -1.5306571 3.0904548
-0.93215764 -1.5927064 2.9767487
-0.90066952 -1.5821514 2.7170339
-0.98526508 -1.7352412 2.7096531
-1.085026 -1.8979986 2.8014505
-0.87561506 -1.6326336 2.1774955
-0.95109332 -1.7597744 2.2243295
-0.87245691 -1.6670431 1.950911
-0.92480642 -1.7612194 1.9494977
-0.97041076 -1.8465035 1.9299356
-1.0594124 -2.0069778 1.9254981
-2.2308097 -3.8834033 3.1996815
-5.9888077 -10.778959 2.3374922
-2.1410942 -4.2878389 0.003088105
-1.3991463 -2.9787865 -0.12274489
-1.2519145 -2.7246358 -0.17948925
-1.8984585 -3.9617474 -0.61475641
-1.8447174 -3.8872511 -0.73876941
-1.2047641 -2.6966016 -0.49937156
-1.6270716 -3.524658 -0.89674747
-1.260375 -2.8410187 -0.75172764
-1.2472084 -2.8357532 -0.85554206
-0.64325649 -1.6800183 -0.44840059
-0.19160882 -0.79037476 -0.00060234283
-0.12472469 -0.66111326 0.051580228
-0.11647151 -0.64647835 0.050557945
-0.11006954 -0.63555276 0.047344536
-0.10980415 -0.63771784 0.032376729
-0.107598 -0.63740259 0.011726098
-0.10521405 -0.63538086 -0.0010632172
-0.098467059 -0.6235767 -0.0028094882
-0.084642045 -0.59861171 -0.001991716
-0.078583941 -0.58783388 -0.0025524439
-0.072660223 -0.57719636 -0.0025431057
-0.067271225 -0.56771874 -0.0036668065
-0.061795622 -0.55785006 -0.0034584948
-0.056615859 -0.54858047 -0.0036359525
-0.051545635 -0.53942806 -0.0033649709
-0.048985068 -0.53469723 -0.0026134076
-0.035435222 -0.51098371 -0.0061160293
-0.033072375 -0.50648326 -0.0046615922
-0.028732006 -0.49879673 -0.0052734702
-0.022352757 -0.48756653 -0.0065530683
-0.018148823 -0.4801566 -0.0073448084
-0.011900646 -0.46895865 -0.0074717957
-0.0078092949 -0.46144232 -0.0065169754
-0.0058235549 -0.45759588 -0.0049330657
-0.0017172013 -0.45050019 -0.0065082223
0.0023429838 -0.44326064 -0.0068024388
0.0065502264 -0.43605855 -0.0088001201
0.010700896 -0.42872995 -0.0095092291
0.020872097 -0.41028506 -0.0085017709
0.027292836 -0.39890626 -0.0093608676
0.031775713 -0.39105877 -0.010507617
0.038265321 -0.37934104 -0.010150544
0.042813793 -0.3712253 -0.010447187
0.054401699 -0.35034856 -0.010068051
0.05955473 -0.34123966 -0.010883751
0.065049313 -0.331597 -0.012146929
0.070615709 -0.32173967 -0.012925567
0.076557547 -0.31127158 -0.014060178
0.084772423 -0.29627338 -0.012663716
0.09302102 -0.28101426 -0.010135283
0.10022071 -0.26831564 -0.0114217
0.10826461 -0.25423881 -0.013481058
0.11819456 -0.2359135 -0.010677344
0.12884599 -0.21753776 -0.014886581
0.13762273 -0.20172365 -0.014561519
0.15238354 -0.17520471 -0.014445865
0.16476725 -0.15331507 -0.016366301
0.17860058 -0.12886815 -0.018536469
0.19732116 -0.09481588 -0.016007986
0.22192442 -0.052348588 -0.025562463
0.23995735 -0.018141603 -0.015189146
0.26541391 0.026963489 -0.018492892
0.97069961 1.2198683 -0.42976457
1.003619 1.2879454 -0.3789534
1.0008183 1.2959596 -0.30532333
0.98935807 1.2889678 -0.22867669
0.98599726 1.3017889 -0.12223324
0.97779197 1.2998313 -0.050146341
0.96937001 1.2973009 0.02090208
0.96321094 1.2986062 0.090677172
0.94218892 1.2733463 0.16105933
0.9527638 1.3043537 0.22897999
0.94271219 1.3046294 0.33238199
0.93472373 1.3024632 0.40109164
0.92843264 1.303422 0.47024849
0.92188555 1.3039857 0.53976852
0.91737092 1.3084499 0.61071855
0.9129324 1.3132564 0.68283141
0.90534514 1.3123362 0.75451607
0.89482629 1.3129835 0.86475736
0.88478887 1.3079021 0.93777466
0.87764329 1.3086907 1.0146366
0.86938721 1.3076741 1.0925601
0.85147607 1.2878929 1.1623619
0.94332516 1.4881874 1.3626748
0.91601628 1.4613963 1.4881384
0.9050349 1.4588284 1.5849344
0.8972441 1.4636747 1.6912693
0.89104438 1.4729384 1.8064325
0.88660932 1.4872894 1.932447
0.88907969 1.518188 2.0819385
0.81210417 1.3911622 2.1446908
0.82409227 1.4471743 2.3395743
0.81414789 1.457158 2.4967861
0.80543011 1.4727963 2.6735132
0.7877475 1.4707053 2.8409712
0.75769585 1.4419452 2.98317
0.34978524 0.47518143 1.656937
0.31725475 0.41841936 1.6660514
0.28788659 0.36912954 1.6853211
0.25173727 0.30073941 1.6654315
0.21083578 0.2331154 1.6980491
0.20160806 0.2443253 1.8549428
0.17834979 0.21671949 1.9347889
0.15122661 0.17907886 1.9971287
0.13252199 0.18027571 2.1935582
0.10164975 0.21258654 2.6892023
0.069289722 0.22684561 3.0979476
0.018495928 0.13533662 3.0959594
-0.03152534 0.042977486 3.0813348
-0.080856092 -0.045830403 3.079778
-0.15333728 -0.17909239 3.0618002
-0.20337938 -0.26440188 3.0872355
-0.25236017 -0.35176754 3.0902905
-0.30295184 -0.43947294 3.1077671
-0.35261309 -0.5280748 3.1107442
-0.40406278 -0.61806875 3.1239977
-0.45807865 -0.71071661 3.1482849
-0.53932345 -0.85253346 3.1708858
-0.58598161 -0.94180804 3.1396174
-0.66154587 -1.0589901 3.243834
-0.67285055 -1.1132696 3.0517466
-0.7434687 -1.2282391 3.1183074
-0.68159711 -1.1941215 2.683538
-0.9215613 -1.5281314 3.2299633
-0.93542278 -1.5800285 3.0772824
-0.94675964 -1.626441 2.9299889
-0.92473209 -1.6269605 2.7036226
-0.9939068 -1.7463517 2.7305794
-1.0776224 -1.8873901 2.782702
-0.87572801 -1.6322386 2.1767254
-0.95554596 -1.7655677 2.2328804
-0.88739955 -1.6971445 1.9283116
-0.94158459 -1.7943702 1.9284945
-0.99019158 -1.884438 1.9125508
-1.0651656 -2.0151806 1.9342062
-2.2522869 -3.9343665 3.1303637
-5.9551034 -10.760257 2.118845
-2.1097109 -4.2313795 0.0065323124
-1.3904296 -2.9718895 -0.17252222
-1.2044789 -2.6446693 -0.20971523
-1.8731267 -3.9146357 -0.60330617
-1.8538095 -3.904772 -0.74348485
-1.2045432 -2.6959906 -0.49903554
-1.5998729 -3.4726667 -0.87761462
-1.2933881 -2.9047668 -0.77751046
-1.2507581 -2.8530095 -0.91745967
-0.67052197 -1.7217653 -0.41104054
-0.18966605 -0.78712082 -0.0075432337
-0.12310122 -0.65782595 0.047742721
-0.11453977 -0.6424666 0.047653105
-0.10880485 -0.63291216 0.043434393
-0.10872059 -0.63552707 0.027772237
-0.10849989 -0.63808566 0.011044664
-0.10270772 -0.63011801 -0.0027373203
-0.089196146 -0.60610753 -0.0041925274
-0.085011408 -0.59806192 -0.001197643
-0.079196021 -0.58785415 -0.0025433397
-0.073063917 -0.57669181 -0.0017086322
-0.067497671 -0.56673908 -0.0019690192
-0.062055651 -0.55692011 -0.0017250914
-0.05707239 -0.54814887 -0.0027483637
-0.052020159 -0.53902197 -0.0024617889
-0.047345221 -0.53081721 -0.0035588352
-0.038082074 -0.5142023 -0.0037130639
-0.031594962 -0.50294334 -0.0059539517
-0.027209217 -0.49497426 -0.005450218
-0.022983398 -0.48757538 -0.0065463698
-0.018761346 -0.4799563 -0.0063604335
-0.012542662 -0.46880153 -0.0064792181
-0.010498021 -0.46504822 -0.0060379934
-0.0064321575 -0.457719 -0.0059200213
-0.0023607698 -0.45050395 -0.0065030446
0.001762535 -0.44332099 -0.0077937166
0.0078362823 -0.43238589 -0.0076934956
0.014083605 -0.42137519 -0.0089261392
0.01821797 -0.41396508 -0.0090447739
0.02480117 -0.40249935 -0.01111272
0.031290915 -0.39089975 -0.011475911
0.039543014 -0.37561393 -0.0089116143
0.044307325 -0.36724284 -0.0099889636
0.047418691 -0.36222008 -0.013193958
0.053979445 -0.35003796 -0.010984296
0.061326411 -0.33678147 -0.010678571
0.066841349 -0.3270562 -0.011717326
0.072114982 -0.31752461 -0.01140243
0.078060038 -0.30700406 -0.012309972
0.084409148 -0.29580653 -0.01349061
0.093377024 -0.27952373 -0.012524565
0.10830767 -0.25313938 -0.014987486
0.11904901 -0.23358938 -0.013548122
0.12853126 -0.21691862 -0.015581742
0.14027299 -0.19526546 -0.012404336
0.15293351 -0.17322455 -0.01633198
0.16533816 -0.15127341 -0.01817069
0.18171583 -0.12131704 -0.015098531
0.19884196 -0.091194533 -0.018655812
0.22504784 -0.04441699 -0.02022553
0.24247667 -0.01279285 -0.018366113
0.27221566 0.039382797 -0.025246933
0.96491927 1.2118783 -0.42654371
1.0017029 1.2864342 -0.37839925
0.99627876 1.296273 -0.26781821
0.98908877 1.296463 -0.19383618
0.98359096 1.2993568 -0.12173977
0.98129785 1.3076879 -0.051427066
0.96648151 1.2939647 0.021295233
0.96229345 1.2987249 0.090651743
0.93965501 1.2765563 0.19498233
0.94620723 1.3004247 0.26337114
0.94180739 1.3047392 0.33235887
0.93477964 1.304318 0.40124157
0.92753553 1.3035263 0.47022671
0.92099214 1.3040873 0.53974742
0.91740787 1.3102802 0.61107701
0.90773463 1.3118894 0.71825832
0.89772344 1.3064287 0.7889266
0.89087009 1.307166 0.86258847
0.8865068 1.3130008 0.939798
0.8788904 1.3129034 1.0164828
0.8755644 1.3216141 1.0994226
0.89839268 1.3912897 1.2615647
0.93257827 1.4777015 1.4030915
0.91628903 1.4637848 1.4896612
0.90932149 1.4694815 1.5925093
0.89994788 1.4711435 1.696965
0.89259958 1.4780675 1.8106132
0.87354636 1.4736959 1.9791492
0.87106842 1.4945651 2.122201
0.79874498 1.3635875 2.1156335
0.83264846 1.4682548 2.3632004
0.82061815 1.4738365 2.5167568
0.81355757 1.4936277 2.7002032
0.77960122 1.4745231 2.9366555
0.38332069 0.53551418 1.6498245
0.33491942 0.45239776 1.6710291
0.30058545 0.39066753 1.6704129
0.27287996 0.34552437 1.6962962
0.23722936 0.27792922 1.6758873
0.21338946 0.2428996 1.7197114
0.2034006 0.25231254 1.874195
0.17895482 0.22130181 1.9468762
0.13720214 0.16262837 2.0387611
0.11789978 0.16718119 2.2602527
0.11214487 0.27517331 2.9289083
0.068374231 0.225492 3.0921013
-0.0073674535 0.090681382 3.0984724
-0.057221234 0.00074042671 3.0958378
-0.1067583 -0.087518893 3.0994916
-0.15501101 -0.17744343 3.0807033
-0.20379043 -0.26471403 3.0822542
-0.2530193 -0.35181981 3.0892932
-0.3034949 -0.43949193 3.1057758
-0.37853864 -0.57274038 3.1138666
-0.42910057 -0.66268516 3.1183739
-0.48398373 -0.75634909 3.1456938
-0.54146951 -0.85368139 3.178679
-0.56182545 -0.91953063 3.0129514
-0.66724718 -1.0638173 3.2668176
-0.67405814 -1.1137511 3.0536349
-0.69549632 -1.1749096 2.9253895
-0.70240849 -1.2328897 2.6677246
-0.92480552 -1.5311251 3.2380807
-0.93966323 -1.5843478 3.0879257
-0.94273686 -1.6202672 2.9160275
-0.92868233 -1.6311026 2.7121511
-1.0281439 -1.7912601 2.8158283
-1.0907729 -1.9179454 2.7350187
-0.90077168 -1.6765268 2.1720576
-0.97377342 -1.8008878 2.2096379
-0.89585894 -1.7081933 1.9431093
-0.94948226 -1.8047284 1.9413819
-1.0039096 -1.9035844 1.9346901
-1.0820867 -2.0393674 1.9602
-2.1030335 -4.2303133 -0.069009326
-1.3910698 -2.9708555 -0.17245008
-1.1691786 -2.5768504 -0.19633006
-1.8923289 -3.9480648 -0.61145025
-1.8399811 -3.8893983 -0.81101447
-1.2128105 -2.7094491 -0.50348306
-1.5577031 -3.401264 -0.91548371
-1.2602965 -2.8484454 -0.80767494
-1.2540069 -2.8569212 -0.91947412
-0.66325217 -1.7110869 -0.43532905
-0.13166422 -0.67110878 0.050496392
-0.12293245 -0.65560895 0.049482118
-0.1147452 -0.64101648 0.048863236
-0.11254908 -0.6376729 0.045459475
-0.11022763 -0.63686031 0.026424097
-0.10720573 -0.63484287 0.0070944782
-0.091806315 -0.60832083 0.0006715192
-0.083211005 -0.59348726 -0.0027479618
-0.079404943 -0.58619153 -0.00014166121
-0.071759529 -0.57321525 -0.0044232877
-0.06818895 -0.56622225 -0.0011393322
-0.06276276 -0.55642933 -0.00087731372
-0.055649757 -0.54420471 -0.0040059695
-0.048620697 -0.53198373 -0.0063028424
-0.043841492 -0.52337086 -0.0061471667
-0.036859501 -0.51065719 -0.0051808283
-0.03450587 -0.50617087 -0.0037208663
-0.028095229 -0.49496192 -0.0054637892
-0.021779053 -0.48397103 -0.0074808337
-0.015486966 -0.47238421 -0.0058726124
-0.01139452 -0.46489048 -0.0050618802
-0.0073112543 -0.45771059 -0.0059323106
-0.0012052644 -0.44687921 -0.0066981278
0.0049462598 -0.43602744 -0.0078105805
0.0090796594 -0.42872921 -0.0085208314
0.011202549 -0.4250477 -0.0092626708
0.017354401 -0.41396171 -0.0090548173
0.023625415 -0.40271717 -0.0091596246
0.029888386 -0.3913646 -0.0085720895
0.03437997 -0.38344359 -0.0093953926
0.036742035 -0.3793363 -0.010156773
0.043688163 -0.36700004 -0.010939086
0.048520718 -0.35844213 -0.01162104
0.053395368 -0.34973896 -0.011908794
0.060767848 -0.33644119 -0.011580943
0.066005036 -0.32706171 -0.011723535
0.07345897 -0.31333447 -0.0097941719
0.078193009 -0.30573049 -0.014851192
0.08610817 -0.29105243 -0.012225905
0.092905909 -0.27904174 -0.013325087
0.10966282 -0.24871662 -0.011978415
0.11901991 -0.23245054 -0.014985313
0.12852611 -0.21573594 -0.016969278
0.14279953 -0.19023071 -0.017639117
0.15509832 -0.1672996 -0.012829383
0.16795017 -0.14456666 -0.014731625
0.18315241 -0.11783748 -0.017886542
0.20281337 -0.082082741 -0.015270135
0.22473317 -0.043702397 -0.020706786
0.24544656 -0.0067515159 -0.021986151
0.27381799 0.045147687 -0.016468279
0.31090504 0.1103885 -0.023926184
0.96047038 1.2114999 -0.38887343
1.0015897 1.2934984 -0.34250915
0.99863601 1.3011677 -0.26923504
0.98702782 1.2937981 -0.19318031
0.98300427 1.2992287 -0.12170754
0.97443312 1.3027223 -0.015074172
0.96542025 1.2990848 0.055750187
0.95965672 1.3010479 0.12527299
0.95321423 1.3017385 0.19448899
0.94658601 1.302048 0.26343441
0.9412148 1.3046147 0.33238834
0.93418604 1.3041941 0.40127057
0.92216945 1.3009049 0.50451392
0.91643625 1.3030035 0.57449389
0.9076153 1.2994618 0.64391339
0.90532029 1.3083372 0.7173239
0.89801949 1.3080114 0.78950119
0.89510977 1.316329 0.86599451
0.8872028 1.3153882 0.94084436
0.87391561 1.3117633 1.0550791
0.86361867 1.3069324 1.1321843
0.93938613 1.4741107 1.308571
0.93394083 1.4814987 1.4055305
0.92062604 1.4736786 1.4963508
0.89638811 1.4542487 1.632329
0.8864072 1.4549446 1.7374704
0.87968975 1.463583 1.8544029
0.80048937 1.3182896 1.8364713
0.86548859 1.483606 2.1115658
0.78143263 1.3266428 2.0769236
0.8138023 1.4429882 2.4061751
0.80190021 1.4496328 2.5644324
0.79525989 1.4715089 2.7554142
0.78997296 1.5007068 2.9740553
0.36801848 0.51166558 1.6635633
0.33320981 0.44978988 1.6668608
0.29969633 0.39013365 1.6695664
0.27114937 0.3427166 1.6910763
0.23605394 0.27658585 1.6732306
0.19967432 0.22244692 1.7361815
0.18692563 0.2249617 1.8796858
0.1617413 0.19199707 1.9487823
0.13711922 0.16507699 2.0463443
0.12055518 0.18234742 2.3119643
0.090944186 0.25633788 3.0305469
0.042448137 0.18201232 3.1023209
-0.0080929594 0.090117343 3.0955243
-0.057960175 0.00086479506 3.0968294
-0.10745626 -0.087656915 3.0985017
-0.15491278 -0.17895466 3.063792
-0.227621 -0.30907232 3.0657856
-0.27758712 -0.39568093 3.0830421
-0.32798374 -0.48350924 3.0977719
-0.37929544 -0.57273841 3.1138668
-0.43000323 -0.6627593 3.1193604
-0.48585501 -0.75710988 3.1525624
-0.544155 -0.8552109 3.1894
-0.60831106 -0.98400837 3.1121066
-0.69353276 -1.1116599 3.2550082
-0.70058805 -1.1606739 3.0494795
-0.67685735 -1.1707786 2.7515914
-0.86526263 -1.4221275 3.2419965
-0.92286432 -1.5277835 3.2290483
-0.93671876 -1.5796481 3.0763819
-0.94431674 -1.6362288 2.8335724
-0.95561051 -1.6793449 2.7043834
-1.0900577 -1.888021 2.8886421
-1.0881046 -1.913113 2.7269571
-0.92055821 -1.7032286 2.2136927
-0.9171989 -1.7188501 2.0912769
-0.89930904 -1.7120328 1.9482991
-0.9537915 -1.8098823 1.9478407
-1.0301912 -1.9508244 1.9261124
-1.0999385 -2.074538 1.934306
-2.125865 -4.2705231 -0.072135389
-1.4653866 -3.0874345 -0.084730648
-1.38188 -2.9525666 -0.16952139
-1.1596267 -2.5577664 -0.19251084
-1.9009515 -3.9762914 -0.69067025
-1.2184408 -2.7099159 -0.45599806
-1.2103611 -2.7124774 -0.55246967
-1.3639472 -3.0267725 -0.77105409
-1.2840838 -2.8933194 -0.82688731
-1.2408682 -2.8298619 -0.90661192
-0.65984303 -1.7030053 -0.43110225
-0.13162559 -0.66961986 0.051619552
-0.12291631 -0.65415275 0.050662227
-0.1147524 -0.63959467 0.050098911
-0.11199195 -0.63638026 0.040229313
-0.11121926 -0.63754547 0.025768138
-0.10934074 -0.638089 0.0035847647
-0.10371636 -0.62885052 -0.0012864202
-0.09001188 -0.60434723 -0.0018760849
-0.083884008 -0.59349579 -0.0027375179
-0.077884734 -0.58277303 -0.0030218533
-0.072227754 -0.5727126 -0.0035776866
-0.064325809 -0.55880499 -0.0051794639
-0.059114385 -0.54948318 -0.0053907605
-0.056162793 -0.54377902 -0.003108213
-0.049156837 -0.53159839 -0.005382624
-0.044506434 -0.52337945 -0.0061368584
-0.037522934 -0.51066571 -0.0051705609
-0.030970864 -0.49908417 -0.0062274206
-0.028756695 -0.49497032 -0.0054535698
-0.026572675 -0.49089468 -0.004589844
-0.018229641 -0.47635862 -0.0071331062
-0.01202436 -0.46519533 -0.0070296666
-0.0079709357 -0.45771828 -0.0059227278
-0.0038972723 -0.45050392 -0.0065055932
-0.0018654582 -0.4468866 -0.0066888817
0.0042855912 -0.43603456 -0.0078016608
0.0084186951 -0.42873618 -0.0085121244
0.014562462 -0.41770348 -0.0085291751
0.016826291 -0.41390392 -0.010035483
0.023121577 -0.40261361 -0.010132927
0.025440585 -0.39865783 -0.011315613
0.033915669 -0.38326451 -0.010350415
0.038457014 -0.37519085 -0.01081848
0.04107039 -0.37076709 -0.012341655
0.049787238 -0.35468954 -0.0099599147
0.05491659 -0.34565932 -0.010984752
0.060385115 -0.33610192 -0.012470211
0.067824945 -0.32251298 -0.011181726
0.073110275 -0.31292629 -0.01064249
0.079730615 -0.30145183 -0.012974593
0.087965652 -0.28628582 -0.010836843
0.094419144 -0.27470398 -0.010868728
0.11014292 -0.24706288 -0.014195923
0.12130604 -0.22679687 -0.012929901
0.13123934 -0.20936379 -0.015184376
0.14469233 -0.18498695 -0.013908143
0.1540058 -0.16796739 -0.01221141
0.16903821 -0.14184518 -0.017072359
0.18409172 -0.11382477 -0.011433161
0.20442994 -0.078454129 -0.017835379
0.22697456 -0.037342191 -0.014180537
0.25282994 0.0081305727 -0.019441269
0.27743348 0.052167576 -0.020118535
0.95106995 1.1967669 -0.38332739
1.0009409 1.2934823 -0.3425163
0.99308527 1.2927783 -0.26682514
0.98624897 1.2997516 -0.15808263
0.97865927 1.2989395 -0.085701346
0.9693628 1.2949475 -0.013980521
0.96379948 1.297333 0.055920698
0.95804065 1.2992884 0.12537459
0.9535563 1.3034638 0.19444938
0.94341677 1.3035742 0.29790151
0.93553543 1.3015871 0.36659831
0.9298448 1.3036054 0.43571466
0.92248666 1.302624 0.50478858
0.91487885 1.3012452 0.5741483
0.91528469 1.3149756 0.64763004
0.9069708 1.3126014 0.71852583
0.89036834 1.3014424 0.82382798
0.88635707 1.3077441 0.90012109
0.88252598 1.3147911 0.97879958
0.87413937 1.3133771 1.0558585
0.86423469 1.3093331 1.1334482
0.94517779 1.4868398 1.3158015
0.91884309 1.4616354 1.4404244
0.9051916 1.4532374 1.5314081
0.89650887 1.4557112 1.6334465
0.89420539 1.4724681 1.7515174
0.88145298 1.4685491 1.8586982
0.87950504 1.4888608 1.993257
0.85802937 1.4686662 2.096916
0.75545037 1.2839438 2.093169
0.81847572 1.4548587 2.420018
0.80682731 1.462301 2.5802214
0.79789209 1.479045 2.7654827
0.78937697 1.5006683 2.9740636
0.36520627 0.50628781 1.6554118
0.33217111 0.44874755 1.6651965
0.29793951 0.38719782 1.6644503
0.26812038 0.33625168 1.6788869
0.21990579 0.24860698 1.6724408
0.20019849 0.22597718 1.7443763
0.18503493 0.22091547 1.8695323
0.16109318 0.19198294 1.9487876
0.13813739 0.17157768 2.0662434
0.10420029 0.16497628 2.3730917
0.093452059 0.27677178 3.1140258
0.039959017 0.16263765 3.0113819
-0.0087790163 0.088861383 3.08864
-0.058414195 -0.0013661941 3.0820003
-0.10810591 -0.087776221 3.0975108
-0.18103662 -0.22085363 3.084903
-0.22973709 -0.30826122 3.0847151
-0.28021562 -0.39542252 3.103951
-0.32988915 -0.48370135 3.1087027
-0.38014132 -0.57277036 3.1148539
-0.43172371 -0.66329569 3.1262627
-0.51276428 -0.80362529 3.1548901
-0.56887156 -0.90054178 3.1760576
-0.62848425 -1.0021199 3.206425
-0.68768054 -1.1049562 3.2254543
-0.70113444 -1.1603855 3.0485249
-0.68959427 -1.1841366 2.7971673
-0.86580873 -1.4217672 3.2410624
-0.93045419 -1.5537667 3.1504636
-0.95388228 -1.6165602 3.0330603
-0.91094393 -1.5917528 2.7377412
-0.96061563 -1.6848242 2.7153494
-1.08356 -1.877964 2.8704362
-0.87131357 -1.6121184 2.220504
-0.93035024 -1.7157658 2.2333069
-0.87138957 -1.6521204 1.9950354
-0.9157207 -1.7436988 1.9268841
-0.96180141 -1.8294439 1.9094791
-1.0395949 -1.9635442 1.9403621
-1.1112214 -2.0902269 1.9506269
-2.233813 -3.8833399 3.1996474
-5.9986491 -10.789737 2.3396242
-2.1270311 -4.270246 -0.072233848
-1.4535359 -3.063669 -0.082004987
-1.3234215 -2.8514774 -0.20218407
-1.1522429 -2.5499811 -0.23394433
-1.8929292 -3.9588139 -0.68629509
-1.2180537 -2.707181 -0.45528838
-1.2166533 -2.7224762 -0.5560205
-1.2890742 -2.880476 -0.71479046
-1.2523388 -2.8397884 -0.85744059
-1.2155976 -2.7886069 -0.94079167
-0.65494108 -1.6915742 -0.42525229
-0.64887905 -1.6911503 -0.48438683
-0.19640453 -0.79425353 -0.0030961803
-0.12936983 -0.66480833 0.0487216
-0.12291437 -0.65267485 0.051824119
-0.11511089 -0.63886654 0.050703783
-0.11301273 -0.63706291 0.039581344
-0.11046988 -0.6358723 0.020463806
-0.10893066 -0.63728923 -0.0032155942
-0.10413311 -0.62821037 -0.00056631846
-0.088225022 -0.60032332 -0.0043489584
-0.0818948 -0.58892798 -0.0041667093
-0.075939365 -0.5782426 -0.0041971393
-0.072508775 -0.57168096 -0.0019140615
-0.067187645 -0.56228036 -0.0027740456
-0.061792653 -0.55251122 -0.0022997016
-0.054693434 -0.54027092 -0.0051575429
-0.049836852 -0.53159255 -0.0053884853
-0.045185149 -0.52337426 -0.006142518
-0.038111717 -0.51033729 -0.00423407
-0.03374796 -0.50263953 -0.0050099855
-0.027336968 -0.49139717 -0.0065278015
-0.020998161 -0.48016059 -0.0073459311
-0.018889623 -0.47616431 -0.006156472
-0.014748208 -0.46896303 -0.0074729011
-0.012693144 -0.46519539 -0.0070337262
-0.010679686 -0.46131358 -0.0055272318
-0.0065994896 -0.45411587 -0.0062538455
-0.0004366397 -0.44332352 -0.0077993628
0.0056423726 -0.4323903 -0.0076984996
0.009771158 -0.42507663 -0.0082627088
0.013901774 -0.41770741 -0.008531481
0.020164425 -0.40652186 -0.0088668568
0.024450585 -0.39891341 -0.0093609495
0.028751869 -0.39122149 -0.0095366128
0.035218801 -0.37954915 -0.0091923568
0.039752509 -0.37146339 -0.0094989473
0.042601552 -0.36676922 -0.011874584
0.049135938 -0.35469797 -0.0099598533
0.056444313 -0.34158036 -0.0099793291
0.06163815 -0.33232507 -0.010369452
0.067177989 -0.32252347 -0.011180433
0.073094085 -0.31211025 -0.012349482
0.079086408 -0.30146363 -0.012972483
0.085823059 -0.2896713 -0.014667201
0.094853982 -0.27320424 -0.013222046
0.10731587 -0.25154832 -0.017238939
0.11282745 -0.24094535 -0.013233935
0.12106787 -0.22622542 -0.013629822
0.13356566 -0.20360418 -0.012554565
0.14448285 -0.18436375 -0.01454236
0.16197053 -0.15474264 -0.024481703
0.17225426 -0.13442075 -0.013952484
0.19155161 -0.10107693 -0.021200441
0.21019304 -0.068302535 -0.025015878
0.2300801 -0.031358678 -0.017914284
0.2559838 0.014232769 -0.022925394
0.28534165 0.068115905 -0.016113978
0.97639138 1.2273598 -0.47118041
0.96422094 1.2195588 -0.3919014
1.00015 1.2991714 -0.30629304
0.99409932 1.3014702 -0.2319831
0.9852922 1.298797 -0.1578251
0.98163843 1.304827 -0.086729959
0.96741152 1.292258 -0.013548008
0.96282977 1.2963625 0.056074534
0.95619577 1.3028439 0.15992329
0.94916725 1.3024713 0.22905032
0.94340849 1.3043455 0.29800195
0.93599975 1.3032329 0.36680213
0.92982054 1.3043758 0.4358843
0.92198175 1.3025215 0.5048545
0.91856879 1.3089505 0.57576567
0.90619421 1.305359 0.68089318
0.89911789 1.3053445 0.75253195
0.89561462 1.3123596 0.82767266
0.8880105 1.3118392 0.90180564
0.88456255 1.3196712 0.9810043
0.87444276 1.3149143 1.0567017
0.85047436 1.290939 1.1641829
0.93362337 1.4737574 1.3543515
0.92176372 1.4685191 1.4449743
0.8985545 1.4825909 1.7597805
0.87241447 1.4623865 1.9106083
0.86992627 1.4822448 2.0480649
0.83532506 1.4338671 2.1254604
0.7662369 1.3090841 2.1206908
0.82566619 1.4722769 2.440479
0.81150568 1.4742696 2.5953219
0.77068806 1.4361922 2.7939801
0.75395912 1.4389559 2.9792333
0.36391646 0.5046103 1.6529969
0.31567612 0.42128754 1.6711581
0.28191334 0.36048761 1.6698323
0.24994853 0.30330852 1.6707412
0.21881153 0.24728315 1.669777
0.20018943 0.22788458 1.7489467
0.18369454 0.21865153 1.8640116
0.14474456 0.16533661 1.9575984
0.12305927 0.15234137 2.1040404
0.1073008 0.1835836 2.4404635
0.092551053 0.27524301 3.1082232
0.03966736 0.16670464 3.0309563
-0.0094582103 0.089477427 3.0925894
-0.083745196 -0.045703787 3.0817728
-0.13337252 -0.13212501 3.0965199
-0.18168044 -0.22101866 3.0839078
-0.23051611 -0.30831003 3.0857081
-0.2811977 -0.39547783 3.1069314
-0.32897255 -0.48351046 3.0937834
-0.40553835 -0.61745274 3.1130962
-0.45759153 -0.70862061 3.1256208
-0.51530945 -0.8050912 3.1656256
-0.57414705 -0.90451324 3.2003024
-0.63475227 -1.0073962 3.2333434
-0.66745567 -1.0839854 3.1320281
-0.72285753 -1.2023772 3.0245998
-0.70753741 -1.2203515 2.7675598
-0.89493167 -1.4740918 3.2337644
-0.90901333 -1.5266122 3.079644
-0.93958193 -1.5976397 2.9881232
-0.90179783 -1.5790288 2.7100642
-0.96678984 -1.6921624 2.7296579
-1.0927184 -1.9036707 2.8111665
-0.87920505 -1.6326907 2.1774275
-0.94922251 -1.7520791 2.212635
-0.87792456 -1.6697968 1.9546026
-0.92143881 -1.7511002 1.9362992
-0.96646148 -1.8353813 1.9164619
-1.0443523 -1.9697065 1.947089
-1.1110735 -2.0890288 1.9492407
-2.2353704 -3.884825 3.2006631
-5.958714 -10.720023 2.3249288
-2.2927978 -4.5562329 -0.012961916
-2.1256385 -4.2805133 -0.14977255
-1.4169607 -3.0048952 -0.1265216
-1.2827095 -2.7750044 -0.1886324
-1.1500477 -2.5448098 -0.23290582
-1.882931 -3.9390538 -0.68131477
-1.2141179 -2.6986525 -0.45282114
-1.6676199 -3.5954373 -0.92274797
-1.2661061 -2.8451142 -0.75357556
-1.2655985 -2.8645673 -0.86873257
-1.2095215 -2.7755682 -0.93442643
-0.64760828 -1.6815777 -0.44935238
-0.64618844 -1.6905409 -0.51446295
-0.19551712 -0.79114002 -0.0011267519
-0.1289577 -0.6625849 0.050419126
-0.12067982 -0.64791667 0.049341403
-0.11358958 -0.63554502 0.047326826
-0.11173153 -0.63427442 0.035624783
-0.11173669 -0.63720143 0.019091528
-0.10901763 -0.63600755 -0.0017973222
-0.10198573 -0.62356621 -0.0028266627
-0.0884009 -0.59917259 -0.0027921516
-0.084531173 -0.59179789 -0.0003712097
-0.078576751 -0.58114696 -0.0005934693
-0.070788242 -0.56770855 -0.0036807118
-0.065312378 -0.55783993 -0.003471815
