# .PCD v0.7 - Point Cloud Data file format
VERSION 0.7
FIELDS x y z
SIZE 4 4 4
TYPE F F F
COUNT 1 1 1
WIDTH 476
HEIGHT 1
VIEWPOINT 0 0 0 1 0 0 0
POINTS 476
DATA ascii
0.20945591 -0.67677647 0.00676241
0.1715879 -0.55928832 0.0063545923
0.14484185 -0.47627521 0.0073645753
0.22619392 -0.73394018 0.0097646629
0.20430507 -0.6662811 0.0093431603
0.23395203 -0.76611978 0.010036606
0.22329997 -0.72343266 0.010173746
0.15886565 -0.52045918 0.010178905
0.16990669 -0.55018651 0.012368956
0.15674192 -0.51263696 0.013106557
0.20269926 -0.65470886 0.014811689
0.22158055 -0.7202577 0.015153781
0.216115 -0.70015323 0.015893158
0.14359847 -0.46878004 0.015053975
0.21928057 -0.70941478 0.016754942
0.18689352 -0.60361212 0.016736101
0.15445839 -0.5049625 0.016257672
0.18436529 -0.59543318 0.017138999
0.18147165 -0.58734626 0.017704483
0.14161214 -0.46157849 0.017963674
0.23272964 -0.7602511 0.01806505
0.20042795 -0.65303785 0.018439632
0.19792436 -0.64423627 0.018848673
0.16857207 -0.54870588 0.01910761
0.16638251 -0.54097486 0.020579111
0.23071079 -0.7472648 0.021015368
0.2120046 -0.68750674 0.02130211
0.1957147 -0.63468826 0.021130636
0.19328465 -0.62606305 0.021841459
0.1527918 -0.49722534 0.021414677
0.21469298 -0.69612384 0.02269352
0.20937553 -0.67755604 0.022798331
0.17968549 -0.58589983 0.022439262
0.16376111 -0.53333938 0.022238554
0.13994192 -0.46162656 0.022936493
0.1506706 -0.48991469 0.023884121
0.22901085 -0.74382067 0.025829265
0.17788143 -0.57714534 0.026086148
0.17505418 -0.56958562 0.026137115
0.20741498 -0.67517257 0.027063977
0.19137628 -0.62385058 0.027317008
0.16181593 -0.53243756 0.027000314
0.14842141 -0.48959112 0.027770473
0.13782172 -0.45461437 0.027895281
0.20513701 -0.66541588 0.02871675
0.18891831 -0.61540395 0.0282984
0.17282742 -0.56128818 0.029040443
0.22182834 -0.71983957 0.031299859
0.21891089 -0.70965523 0.031854086
0.20272595 -0.65535247 0.031528536
0.15999556 -0.52446204 0.031645697
0.22461693 -0.72895163 0.032454047
0.18700109 -0.60596049 0.032164332
0.19228408 -0.78197163 0.033128653
0.18423212 -0.59771454 0.033445086
0.1711473 -0.56005406 0.033814345
0.1361689 -0.44784635 0.033992887
0.15767032 -0.5169751 0.034575026
0.14696419 -0.48222926 0.034235921
0.20073305 -0.78004819 0.035546258
0.20881684 -0.77999836 0.03542554
0.20092863 -0.65317953 0.035994306
0.1255765 -0.57436883 0.035492297
0.21717194 -0.70644677 0.036843006
0.16908923 -0.55225396 0.036026958
0.21489029 -0.69644338 0.037752606
0.19852138 -0.64416546 0.037141904
0.18237951 -0.58864802 0.037748199
0.096369512 -0.48896372 0.037615355
0.093591996 -0.48209533 0.037154909
0.22571476 -0.73468 0.038720708
0.16659512 -0.54457885 0.038435142
0.15579543 -0.50947505 0.038521845
0.13456824 -0.44803923 0.038903531
0.23399441 -0.75470728 0.03972891
0.21229836 -0.69542629 0.039544191
0.14545563 -0.47515634 0.039862435
0.10206141 -0.44120485 0.039181374
0.20422982 -0.66816038 0.040165551
0.13460869 -0.59545904 0.040049382
0.15363091 -0.50236088 0.040771499
0.13190852 -0.44128925 0.040157076
0.17228559 -0.71321476 0.041140713
0.20731162 -0.67634642 0.041129503
0.18059134 -0.58742332 0.041536774
0.17495769 -0.57269835 0.041225348
0.11317805 -0.52987975 0.041591063
0.14326411 -0.47513309 0.041880965
0.094403043 -0.45482644 0.04161131
0.12941581 -0.44814664 0.041812968
0.12937744 -0.43458718 0.04152704
0.21273088 -0.77437174 0.042418048
0.22900048 -0.74202579 0.042707503
0.17784329 -0.70277023 0.04282555
0.18320611 -0.67544359 0.042846523
0.18585451 -0.62534392 0.042834014
0.18887006 -0.61746371 0.042841397
0.18589319 -0.60963345 0.042955667
0.17512752 -0.60218626 0.042380508
0.13756002 -0.59446567 0.042852573
0.15389565 -0.59442747 0.042831618
0.13501032 -0.5724566 0.042195715
0.15894029 -0.57239103 0.042156667
0.14327902 -0.55791372 0.042461008
0.12141547 -0.55071563 0.042695187
0.12948512 -0.55073369 0.042710584
0.14838567 -0.55063879 0.042709421
0.16448008 -0.5437144 0.042198136
0.16193718 -0.53656435 0.042744774
0.12140307 -0.52970523 0.042504903
0.15390374 -0.51587248 0.042405292
0.11341612 -0.50219262 0.042726383
0.12952226 -0.50220996 0.042688027
0.13764752 -0.50218946 0.042745844
0.1510333 -0.50210702 0.04268517
0.10540733 -0.47509679 0.04282802
0.11347257 -0.4751063 0.042832334
0.11638958 -0.47508243 0.042809542
0.094563656 -0.468317 0.04259428
0.097278699 -0.46835625 0.042643599
0.10264266 -0.46835265 0.042651419
0.1163665 -0.46834794 0.042636055
0.11893057 -0.46836576 0.042657521
0.12693326 -0.46837112 0.04260182
0.14040774 -0.4683491 0.042665005
0.097276285 -0.46161968 0.042586304
0.10015104 -0.46163192 0.042624068
0.12148186 -0.46163556 0.042551424
0.089009732 -0.45488694 0.042632539
0.11080112 -0.45489764 0.042649489
0.086394176 -0.44814828 0.042791173
0.09200494 -0.44812423 0.042788573
0.10020503 -0.44816062 0.042855538
0.10544027 -0.44815487 0.042828277
0.108294 -0.44817945 0.042834371
0.11350988 -0.44816345 0.042830382
0.12153691 -0.44816443 0.042783476
0.097218156 -0.44136584 0.042125583
0.11638407 -0.43461585 0.042522665
0.2321348 -0.75169635 0.043635093
0.18593572 -0.72109354 0.043832175
0.20222335 -0.70219493 0.043638881
0.20774683 -0.69282836 0.043676715
0.19411303 -0.68414658 0.043161016
0.18599808 -0.68362784 0.043989681
0.16739038 -0.67493933 0.0438115
0.17528953 -0.67493099 0.0437361
0.19158399 -0.6749801 0.043736335
0.16739379 -0.65774685 0.043729186
0.16454162 -0.63323051 0.043029081
0.17269745 -0.63323492 0.043063618
0.18082005 -0.63329643 0.0430777
0.15663168 -0.63281667 0.043888308
0.18904822 -0.63286316 0.043930616
0.14043801 -0.61707187 0.043801967
0.14850536 -0.61702085 0.043758638
0.15661392 -0.6170423 0.043714758
0.14349604 -0.60927749 0.043981828
0.16205558 -0.60922402 0.043866161
0.14600971 -0.59408796 0.043731879
0.16203862 -0.59408265 0.043679297
0.1704071 -0.59410536 0.043752581
0.17813547 -0.59416306 0.043832924
0.14040139 -0.58676243 0.043412507
0.16742738 -0.58677417 0.043464303
0.12954181 -0.57947898 0.043162704
0.13764256 -0.57945943 0.043226637
0.14592695 -0.57940733 0.043176651
0.15397692 -0.57942134 0.043206591
0.16195665 -0.57940221 0.04312424
0.16739498 -0.57215273 0.04317943
0.17277019 -0.57212299 0.043115195
0.15670188 -0.5718357 0.043993942
0.12955098 -0.56492192 0.043149658
0.13765655 -0.56490219 0.043212425
0.15398973 -0.56486428 0.043193247
0.12697102 -0.55767649 0.043320753
0.1323279 -0.55769056 0.043367315
0.13523737 -0.55769324 0.043396056
0.15659319 -0.55762374 0.043304019
0.1377645 -0.55048883 0.043731749
0.14604668 -0.55043703 0.04368538
0.15409651 -0.55045104 0.043713443
0.16473182 -0.55044484 0.043666963
0.11893701 -0.5435462 0.043204613
0.1269532 -0.54355085 0.043141421
0.13522086 -0.54356742 0.043215245
0.14343008 -0.54354572 0.043236185
0.15106715 -0.54346609 0.043156613
0.15915354 -0.54350197 0.043178532
0.11648995 -0.53640783 0.043760099
0.12423375 -0.53643936 0.043769263
0.12967964 -0.53645015 0.043747593
0.13779429 -0.53643006 0.04380811
0.14858289 -0.53635526 0.043746993
0.12702444 -0.52953029 0.043467287
0.13529341 -0.52954656 0.043539666
0.15922751 -0.52948117 0.04350407
0.11643538 -0.52262026 0.043366004
0.1323725 -0.5226571 0.043376181
0.14852788 -0.52256733 0.043353286
0.11085696 -0.51577222 0.043365419
0.11351196 -0.51577407 0.043377608
0.12156144 -0.51577359 0.043323167
0.1352818 -0.51578844 0.043386709
0.14047642 -0.51575005 0.04337924
0.14348952 -0.51576626 0.043408547
0.10833424 -0.5089367 0.043481208
0.11646606 -0.50889623 0.043455545
0.12421296 -0.50892735 0.043462444
0.13240544 -0.50893301 0.043465294
0.146052 -0.50886631 0.043459903
0.14855804 -0.508843 0.043443229
0.10552819 -0.50207764 0.043699242
0.11907435 -0.50208157 0.043704618
0.12163369 -0.50208783 0.043652948
0.1270833 -0.50208664 0.043645564
0.14356199 -0.50208014 0.043737415
0.10827784 -0.49538049 0.043068189
0.11082605 -0.49536327 0.043057136
0.12415666 -0.49537119 0.043048691
0.14044668 -0.4953413 0.043071665
0.14849968 -0.49528679 0.043030974
0.10551335 -0.48855135 0.043522339
0.11357628 -0.4885613 0.043527778
0.12161668 -0.48856139 0.043476436
0.12706584 -0.48856029 0.043469097
0.12967573 -0.48857886 0.043490719
0.13533902 -0.48857597 0.04353727
0.1435453 -0.48855329 0.043560013
0.10270896 -0.48181772 0.043114133
0.10830405 -0.48185274 0.0431237
0.11085147 -0.48183575 0.04311261
0.11899604 -0.48183078 0.043121371
0.12418295 -0.48184347 0.04310349
0.13237691 -0.48184946 0.043107647
0.14047287 -0.48181391 0.043127622
0.1003521 -0.47506836 0.043839999
0.12168199 -0.47507179 0.04376673
0.12973885 -0.4750891 0.043780789
0.13540532 -0.47508621 0.043826237
0.13787188 -0.47506824 0.04383656
0.10841245 -0.46837011 0.043645315
0.11095909 -0.46835336 0.04363418
0.1242914 -0.46836087 0.043624416
0.13248618 -0.46836701 0.043629181
0.092122428 -0.46159568 0.043541085
0.10555658 -0.46162584 0.043581396
0.113624 -0.46163484 0.043584608
0.12971017 -0.46165276 0.043550104
0.13784701 -0.46163172 0.043604862
0.10283156 -0.45489687 0.043636449
0.11912016 -0.45490995 0.043641463
0.12712058 -0.45491549 0.043587029
0.13250349 -0.45492867 0.043629117
0.1353976 -0.45493063 0.043651793
0.11659315 -0.44817519 0.043794543
0.12434669 -0.4482052 0.043796681
0.11089844 -0.44143265 0.043112524
0.11904433 -0.44142747 0.043119118
0.12704217 -0.44143313 0.043065991
0.12431211 -0.43471542 0.043506227
0.18099901 -0.71109855 0.044462763
0.18907155 -0.71107042 0.044415716
0.21604864 -0.71103084 0.044406593
0.19431017 -0.70170015 0.044357821
0.21043827 -0.70161742 0.044368427
0.1705323 -0.68309951 0.044910636
0.20247768 -0.68311143 0.044981617
0.19980289 -0.67442554 0.044592779
0.17047155 -0.66581959 0.04448441
0.17818673 -0.66587692 0.04457397
0.15926632 -0.65725517 0.044522107
0.17544736 -0.65728498 0.044533774
0.18351173 -0.65731233 0.044504419
0.19173852 -0.65733367 0.044532139
0.17825559 -0.6488412 0.044864617
0.19441827 -0.64883059 0.044733468
0.15923935 -0.64077538 0.044275507
0.18348138 -0.64083248 0.044257499
0.14616883 -0.63241148 0.044849057
0.14361769 -0.62456506 0.044755053
0.15124294 -0.62448186 0.044661842
0.1593295 -0.62452006 0.044693351
0.16761361 -0.6245575 0.044774666
0.16484439 -0.61667508 0.044667412
0.17300197 -0.61667937 0.044701066
0.18112297 -0.61674064 0.044714235
0.15128534 -0.60883659 0.04481066
0.15937193 -0.60887438 0.044840328
0.17058782 -0.60888845 0.04485986
0.17831326 -0.60894597 0.044942129
0.14053163 -0.60149658 0.044242766
0.14859766 -0.6014452 0.044199765
0.15670484 -0.60146695 0.044157319
0.17293467 -0.60147858 0.044228699
0.14364137 -0.59381026 0.04472449
0.15935744 -0.59376574 0.044664342
0.13246384 -0.58649039 0.044332951
0.14863098 -0.58640164 0.044306435
0.15673681 -0.58642364 0.044265386
0.16480844 -0.58643138 0.044303153
0.1754894 -0.58645922 0.044338141
0.17048939 -0.57913244 0.044138357
0.13243276 -0.57190251 0.044059351
0.14053437 -0.57186574 0.044076025
0.14876421 -0.57153797 0.044980366
0.16494147 -0.57156813 0.044977576
0.14610745 -0.56459153 0.044115528
0.16213812 -0.56458646 0.044063251
0.17050305 -0.56460893 0.044134643
0.14059703 -0.55741209 0.04434007
0.15125057 -0.55734968 0.044290245
0.16224734 -0.55020726 0.044592876
0.13248324 -0.5433569 0.044150665
0.14058296 -0.54332054 0.044168357
0.14624582 -0.53618765 0.044730209
0.15429555 -0.53620166 0.044757366
0.11918155 -0.52935183 0.044498954
0.14065774 -0.52933425 0.044500731
0.14367267 -0.529351 0.04453095
0.1513121 -0.52927214 0.044453681
0.12435217 -0.52249509 0.044346694
0.12979339 -0.52250594 0.044326041
0.1379123 -0.52248573 0.044385482
0.14619252 -0.52243423 0.044342563
0.15679969 -0.522434 0.044290759
0.11917195 -0.51562822 0.044351391
0.12718344 -0.51563317 0.04429096
0.13552772 -0.50199795 0.044694521
0.10285676 -0.49525821 0.044039339
0.11658116 -0.49525318 0.04402395
0.13252288 -0.49528986 0.044033255
0.13788868 -0.49527436 0.044068415
0.100461 -0.48848841 0.044532746
0.14625621 -0.48843718 0.044491127
0.18364099 -0.7199899 0.045497615
0.20255262 -0.71995878 0.045608167
0.19733086 -0.71051258 0.045238443
0.18360153 -0.70116615 0.045199826
0.18117981 -0.69187582 0.045405272
0.1892515 -0.69184804 0.045358241
0.19736594 -0.69183439 0.045356076
0.20512924 -0.69181526 0.045427661
0.17824446 -0.68315673 0.045002408
0.1622477 -0.66532719 0.045275904
0.18624419 -0.66537851 0.045286532
0.19450584 -0.66539699 0.045310136
0.19996233 -0.65681022 0.04540607
0.15434274 -0.64834237 0.045673173
0.16231856 -0.6483227 0.045585439
0.1706934 -0.64834547 0.045662381
0.18631597 -0.6483739 0.045595534
0.15131013 -0.64031416 0.045134701
0.16767964 -0.64039028 0.045250997
0.17557847 -0.64038289 0.045180466
0.1918664 -0.64043123 0.045177031
0.15437731 -0.6320188 0.045782223
0.17072695 -0.63202196 0.045771588
0.16235417 -0.63199925 0.04569573
0.17567174 -0.62415981 0.045612976
0.18372817 -0.62418646 0.04558152
0.15436636 -0.61630851 0.045633163
0.16781892 -0.60855329 0.045839518
0.1837696 -0.60857308 0.045741085
0.16493849 -0.60113245 0.045121394
0.18121703 -0.60119772 0.045166496
0.15143496 -0.59340286 0.045567643
0.17313431 -0.58612633 0.045271683
0.14372562 -0.57887036 0.045120254
0.15135731 -0.57878917 0.045034721
0.15946147 -0.56433612 0.045066632
0.1244747 -0.5572015 0.045278154
0.16779386 -0.55718106 0.045344017
0.15691455 -0.54308236 0.045052789
0.15147485 -0.51540983 0.045284048
0.19745657 -0.78236413 0.046236295
0.18642983 -0.77062464 0.046877403
0.18139878 -0.72894055 0.046813115
0.19471335 -0.72893363 0.046761353
0.19200823 -0.7194519 0.0463445
0.21076825 -0.71935183 0.046315346
0.21882474 -0.71941209 0.046308946
0.20523529 -0.70994878 0.046136729
0.17086969 -0.70006329 0.046907358
0.17567338 -0.70060802 0.046061579
0.19212045 -0.70012754 0.046899732
0.20018432 -0.70005763 0.046892852
0.1731993 -0.69129896 0.046232346
0.18135837 -0.67351556 0.046335563
0.18942936 -0.67348808 0.046288565
0.19754449 -0.67347407 0.046287406
0.20272635 -0.66489249 0.046293244
0.17860641 -0.6316725 0.046756506
0.14647734 -0.61592001 0.046513878
0.18961228 -0.78109014 0.047752302
0.20533159 -0.78170192 0.047066063
0.17867674 -0.72836959 0.047709767
0.18961455 -0.72833842 0.047572631
0.17599271 -0.71828371 0.047972441
0.20021401 -0.71882254 0.04715259
0.20833509 -0.71880561 0.047131311
0.18662518 -0.70889425 0.047690105
0.21373731 -0.70886511 0.047815561
0.16523187 -0.6729641 0.047143817
0.17338271 -0.6729691 0.047180839
0.15717654 -0.6558888 0.047087226
0.16524319 -0.65589529 0.047129054
0.1733961 -0.65590018 0.0471651
0.18152179 -0.65596163 0.047180276
0.18959217 -0.65593445 0.047133327
0.1491558 -0.63116878 0.047532558
0.17871818 -0.57831287 0.047042165
0.22484045 -0.72781909 0.04847974
0.19786263 -0.65546614 0.048010606
0.17616571 -0.73728526 0.049053829
0.1980118 -0.72717875 0.049181968
0.22194271 -0.72721857 0.049204785
0.19275159 -0.77855837 0.050804801
0.20619269 -0.72543889 0.051675286
0.2010733 -0.77720213 0.052300733
0.21454607 -0.72487062 0.052510265
0.20946623 -0.77590126 0.053783692
0.18495362 -0.73437524 0.053013142
0.21778126 -0.77526623 0.054529373
0.19345631 -0.73322058 0.054637708
0.218155 -0.72199023 0.056436744
0.23459262 -0.76180768 0.057662304
0.23168039 -0.75101298 0.058007989
0.20221841 -0.73021162 0.058611803
0.21062236 -0.72902089 0.060183413
0.22977269 -0.74794072 0.061854605
0.18911386 -0.7798177 0.062184818
0.18652831 -0.76889557 0.0620878
0.22155583 -0.76887661 0.062082805
0.22730903 -0.73731005 0.062575385
0.18142211 -0.73668474 0.063399062
0.20565759 -0.73664093 0.06337484
0.19778964 -0.77786779 0.064442784
0.2141798 -0.7764731 0.065929912
0.20609292 -0.77651995 0.066052005
0.18499449 -0.76440716 0.067414083
0.1984386 -0.73306549 0.067974195
0.18512465 -0.7330727 0.068026476
0.22527716 -0.72321707 0.068166859
0.19376892 -0.78280622 0.071401626
0.21779038 -0.7719149 0.071239077
0.23412047 -0.76054817 0.071947843
0.20213608 -0.7814588 0.072858661
0.19417004 -0.72883004 0.073483989
0.18893306 -0.7788111 0.075794898
0.20269758 -0.72701454 0.075839914
0.1972788 -0.77816206 0.07656011
0.18378192 -0.74610698 0.07689926
0.22967635 -0.74676007 0.076096393
0.21064781 -0.77742469 0.077326111
0.22680639 -0.76671958 0.077100307
0.23259646 -0.75541246 0.077948637
0.20571968 -0.77608496 0.078742154
0.18127865 -0.73496866 0.078156978
0.20578496 -0.73433191 0.078929909
0.21397717 -0.77540362 0.079448812
0.18421431 -0.76475322 0.079456389
0.22730747 -0.74358791 0.079837181
0.18162408 -0.75344038 0.080216609
0.22481464 -0.73313147 0.080455899
0.21127921 -0.72338456 0.080633052
0.18749799 -0.77346915 0.081695586
0.22254615 -0.77340186 0.081635639
0.17689438 -0.74227738 0.081390753
0.23077026 -0.76215267 0.082391374
0.17946289 -0.74164176 0.082144558
0.19074017 -0.72884017 0.085892953
0.19895896 -0.7288599 0.08592432
0.21541484 -0.72754782 0.087445311
0.22359826 -0.72755349 0.087432928
