# .PCD v0.7 - Point Cloud Data file format
VERSION 0.7
FIELDS x y z
SIZE 4 4 4
TYPE F F F
COUNT 1 1 1
WIDTH 1396
HEIGHT 1
VIEWPOINT 0 0 0 1 0 0 0
POINTS 1396
DATA ascii
0.21737994 -4.9642353 3.1926363
0.24842905 -4.7354846 3.3689613
0.24125689 -4.3784695 3.3285921
0.23907147 -4.0912294 3.3164499
0.21274257 -3.6686985 3.1674809
0.24513762 -3.6513925 3.3512502
0.23624533 -3.3851302 3.3010497
0.23600993 -3.0929697 3.2999768
0.23632437 -2.915467 3.3019202
0.23457721 -2.7386599 3.2921696
0.23722917 -2.5903144 3.3073444
0.2104847 -2.3341014 3.1558859
0.23993823 -2.3023522 3.3229668
0.22925262 -2.1269333 3.2625182
0.22552688 -1.9839561 3.2415147
0.22590593 -1.7978234 3.2438285
0.2220134 -1.6685004 3.2218659
0.22139044 -1.5517176 3.2184341
0.22078429 -1.4382975 3.2150936
0.21825008 -1.3244117 3.2008183
0.21947566 -1.2197366 3.2078557
0.20632575 -1.0973908 3.1333859
0.17850289 -0.9658106 2.9757183
0.21925673 -0.8592478 3.2069025
0.22100937 -0.76012778 3.2169161
0.21557553 -0.65812784 3.1861801
0.19805855 -0.55636281 3.0869281
0.20701903 -0.46189409 3.1378036
0.20532911 -0.3659527 3.1282876
0.20444758 -0.2701287 3.1233532
-0.21644896 -0.39960617 0.73689234
-0.21652701 -0.38805974 0.73649013
-0.21634239 -0.37594944 0.7375772
0.19551533 0.73637831 3.0732391
0.19170851 0.84009832 3.0516953
0.19027658 0.95312572 3.0436168
0.18803158 1.0671414 3.0309258
0.18746375 1.1909615 3.0277431
0.18796064 1.3242066 3.030596
0.18399014 1.5163151 3.0081296
0.18521675 1.6696582 3.0151148
0.15379544 1.6690494 2.8369653
0.12715279 1.6810255 2.6859128
0.097952619 1.6680106 2.5203569
0.074509658 1.6774292 2.3874466
0.029992597 1.5382267 2.1350377
0.03473622 1.7189161 2.1619551
0.009935108 1.6921798 2.0213428
-0.017220849 1.712842 1.867386
-0.036450244 1.7084433 1.7583667
-0.055135038 1.7007647 1.6524355
-0.2157962 0.23262084 0.74157679
-0.22269131 0.20760016 0.7025128
-0.22858879 0.19003575 0.66910559
-0.23409793 0.17284282 0.63790053
-0.23908988 0.15904458 0.60962814
-0.24373206 0.14693876 0.5833391
-0.24810815 0.13569689 0.55855912
-0.25403145 0.1273265 0.52502191
-0.25614858 0.1171981 0.51303482
-0.26160362 0.11225494 0.48215273
-0.26517907 0.10702933 0.46191251
-0.26867217 0.10207619 0.442139
-0.2720966 0.1014217 0.42275438
-0.30923408 1.5762161 0.21194546
-0.3216874 1.5724573 0.14135025
-0.33450165 1.5779901 0.068706267
-0.35335115 1.5661266 -0.038145896
-0.36622486 1.5620831 -0.11112435
-0.37940153 1.5601032 -0.18582128
-0.39379758 1.5741831 -0.2674368
-0.40874124 1.5886312 -0.35215774
-0.37991491 0.75648004 -0.18837811
-0.38471422 0.70784265 -0.21554862
-0.34740591 0.1569183 -0.0037173321
-0.34777302 0.11587209 -0.0057511427
-0.34773836 0.075466342 -0.0055061001
-0.34753805 0.037321363 -0.0043218695
-0.34780028 0.0050620339 -0.0057619782
-0.34764382 -0.027378209 -0.0048273727
-0.34782466 -0.055752724 -0.0058061811
-0.34788737 -0.082995765 -0.0061153048
-0.34784976 -0.10912251 -0.0058554336
-0.34772906 -0.13415468 -0.0051243994
-0.34782639 -0.156973 -0.0056301341
-0.34788692 -0.17887451 -0.0059272572
-0.34856012 -0.208042 -0.0096761473
-0.34852511 -0.22821474 -0.0094312523
-0.34783238 -0.23999506 -0.0054791546
-0.34816852 -0.26712233 -0.0073159379
-0.3481819 -0.28510281 -0.0073453826
-0.34807113 -0.30284527 -0.0066705709
-0.34816939 -0.31970388 -0.0071811453
-0.34798968 -0.3366791 -0.0061151022
-0.3482033 -0.35267797 -0.0072794463
-0.34797603 -0.36902231 -0.0059434818
-0.34815717 -0.38461688 -0.0069232471
-0.34789789 -0.40044621 -0.0054052514
-0.34805802 -0.41575974 -0.0062655103
-0.3483834 -0.43862006 -0.0080382507
-0.34813744 -0.45393413 -0.0065949662
-0.34831983 -0.46917012 -0.0075801904
-0.34840959 -0.48446661 -0.0080399187
-0.34840626 -0.49980491 -0.0079712551
-0.34831172 -0.52291906 -0.0073601566
-0.34863332 -0.53100055 -0.0091580739
-0.34842086 -0.55448037 -0.0078768572
-0.34849456 -0.57065064 -0.0082430094
-0.34863102 -0.58723456 -0.0089642601
-0.34882334 -0.6043098 -0.010001446
-0.34906355 -0.6219514 -0.011309393
-0.34879404 -0.64792293 -0.00969972
-0.3490445 -0.66693664 -0.011063796
-0.34931061 -0.68672347 -0.012515372
-0.3494283 -0.70685786 -0.013124635
-0.348876 -0.73604268 -0.009906075
-0.34904835 -0.75847602 -0.010822306
-0.34932077 -0.78247529 -0.012304063
-0.34952998 -0.80754632 -0.013425783
-0.34979254 -0.83436137 -0.014847882
-0.35007936 -0.86302292 -0.016405297
-0.34928927 -0.90277958 -0.011824014
-0.35001692 -0.93911874 -0.01587218
-0.35027942 -0.97550201 -0.017281996
-0.52422392 -2.3814144 -1.0020981
-0.52502292 -2.5339496 -1.0064178
-0.52559102 -2.7007458 -1.0094106
-0.5272966 -2.8975651 -1.0188189
-0.49184418 -2.8304548 -0.81777126
-0.47233438 -2.8136561 -0.70710188
-0.45542446 -2.8193781 -0.61115056
-0.4374508 -2.8035889 -0.50919074
-0.42084759 -2.7985427 -0.41499019
-0.40483105 -2.7954245 -0.3241142
-0.29444703 -2.795357 0.30225351
-0.28029937 -2.798207 0.38253939
-0.25903085 -2.8031404 0.50323564
-0.24485615 -2.7988634 0.58366638
-0.23033388 -2.8126242 0.66606134
-0.20892149 -2.8004255 0.78751707
-0.19491974 -2.7821496 0.86692637
0.041526597 -4.9547744 2.2104478
0.22965394 -6.1534386 3.2786989
0.23546511 -5.7531409 3.3112047
0.25287151 -5.5095549 3.4096458
0.2296308 -4.925097 3.2772017
0.2396871 -4.6836047 3.3339694
0.23471813 -4.3462582 3.3054261
0.23461474 -4.0754251 3.3045518
0.21480726 -3.696377 3.1918221
0.24898502 -3.577163 3.3855281
0.23699374 -3.3000743 3.3172405
0.23288751 -3.0866995 3.2937386
0.22923346 -2.8901517 3.2728209
0.23039916 -2.7279513 3.2792733
0.23219202 -2.5765543 3.2892947
0.21148431 -2.3445008 3.1716383
0.23321256 -2.2840977 3.294805
0.23164931 -2.0732133 3.2857444
0.22504075 -1.9235548 3.2481308
0.22197132 -1.7912626 3.2306054
0.22047547 -1.6682838 3.2220135
0.21615799 -1.5432602 3.1974204
0.21619242 -1.4318999 3.1975195
0.2163105 -1.3233273 3.198096
0.21806298 -1.2195314 3.2079453
0.21478894 -1.0588322 3.1892443
0.17930673 -0.92099994 2.9879293
0.22378723 -0.86378539 3.2401056
0.21712831 -0.75836509 3.2022595
0.21223225 -0.65710074 3.1744142
0.20862244 -0.55855882 3.1538651
0.20684597 -0.46171314 3.1437132
0.20274031 -0.3181558 3.120317
0.20297855 -0.22194889 3.1215892
-0.21679319 -0.40445808 0.74178416
-0.2174888 -0.3993845 0.73785353
-0.21739642 -0.38757959 0.73840231
-0.21781828 -0.37035275 0.73604846
0.20186006 0.6426183 3.1145182
0.085823797 0.45794547 2.4568529
0.19266242 0.84550196 3.0621953
0.1907604 0.95749134 3.051312
0.18745837 1.0682789 3.0324917
0.18329054 1.2435437 3.0087023
0.18436627 1.3811787 3.0146708
0.18639813 1.5302838 3.0260468
0.18527192 1.6735595 3.0195231
0.15408514 1.6744133 2.84273
0.12359294 1.6661292 2.6698868
0.094969951 1.6553807 2.5076451
0.072077565 1.6672807 2.3778682
0.031467881 1.6257938 2.1477187
0.024526631 1.7289944 2.1082728
0.00074379309 1.7056884 1.9734905
-0.01946394 1.7004683 1.8589569
-0.038345668 1.6983229 1.7519381
-0.056451764 1.6956193 1.6493179
-0.21755463 0.22448051 0.73777473
-0.22406602 0.20393254 0.70091957
-0.2320382 0.1886773 0.65579486
-0.23730323 0.17371748 0.62599969
-0.24228744 0.15842712 0.59779721
-0.24687259 0.14581992 0.57185429
-0.25108486 0.13704245 0.54802066
-0.25515828 0.12733245 0.52497566
-0.25901353 0.11970603 0.50316501
-0.26273581 0.11225902 0.48210803
-0.26636285 0.10304229 0.46159354
-0.2697899 0.10507674 0.44219869
-0.27323323 0.10742333 0.4227114
-0.29757556 1.5684752 0.28295368
-0.31634244 1.5741514 0.17659619
-0.32877237 1.5681436 0.10616454
-0.34157777 1.5713989 0.033592388
-0.35449055 1.5719639 -0.03958527
-0.36767256 1.5736647 -0.11429085
-0.38102457 1.5734804 -0.18995796
-0.39493969 1.577953 -0.26882383
-0.4289031 1.5546777 -0.46127087
-0.38497809 0.74898684 -0.21113321
-0.3887938 0.69114703 -0.23265712
-0.34786227 0.15117662 0.00019699488
-0.34809792 0.10947534 -0.0010477311
-0.34825027 0.070795983 -0.0018238145
-0.34836993 0.035049919 -0.002418264
-0.3477962 -0.0022590973 0.00092073361
-0.34809223 -0.031628229 -0.00068156689
-0.34946403 -0.067430675 -0.0083558671
-0.34969068 -0.093231209 -0.0095693218
-0.34942624 -0.11985651 -0.0079971356
-0.34935591 -0.14414465 -0.0075285626
-0.34951776 -0.16629478 -0.0083790133
-0.34935838 -0.18864031 -0.0074078515
-0.34932357 -0.20954876 -0.0071448614
-0.34943613 -0.22916028 -0.0077191205
-0.34924895 -0.2489388 -0.0065934411
-0.34891629 -0.26834908 -0.0046433713
-0.3490862 -0.28585842 -0.0055454252
-0.34913683 -0.3031936 -0.0057712095
-0.34923559 -0.3200191 -0.0062705474
-0.34942791 -0.34456262 -0.0072708866
-0.3494246 -0.36077076 -0.0071922657
-0.34948844 -0.37663883 -0.0074946815
-0.34945288 -0.39240482 -0.0072336979
-0.34931922 -0.4080483 -0.0064166468
-0.34943491 -0.42337468 -0.0070137712
-0.3494572 -0.43867809 -0.0070813722
-0.34956017 -0.45392218 -0.0076064398
-0.349397 -0.4691582 -0.0066226125
-0.34975967 -0.49217191 -0.00859058
-0.349711 -0.50754136 -0.0082555991
-0.34974048 -0.52306336 -0.0083636697
-0.34984508 -0.53882229 -0.0088973017
-0.34985068 -0.55469328 -0.0088693304
-0.34992456 -0.57089752 -0.0092282519
-0.34983897 -0.59545511 -0.0086525027
-0.34981295 -0.61228698 -0.0084442133
-0.35016134 -0.6303401 -0.010357004
-0.35022199 -0.64831823 -0.010638653
-0.35047147 -0.66736376 -0.011989494
-0.35058153 -0.68672788 -0.01254933
-0.35025167 -0.71554881 -0.010583083
-0.35059246 -0.73763663 -0.012447747
-0.35090044 -0.76071674 -0.014125241
-0.35003519 -0.7919454 -0.0091201598
-0.35002351 -0.8164857 -0.008983138
-0.35046089 -0.84468722 -0.011387702
-0.35064608 -0.87347573 -0.01236154
-0.35094151 -0.90490448 -0.01395704
-0.35031343 -0.94979507 -0.01027928
-0.35022527 -0.98475736 -0.0096954564
-0.52229905 -2.4265664 -0.98344189
-0.5230034 -2.5837996 -0.98719561
-0.5240258 -2.761369 -0.99272674
-0.52387846 -2.9486876 -0.99161279
-0.49330029 -2.8313088 -0.81834388
-0.45650682 -2.8157022 -0.6096642
-0.43138257 -2.8150644 -0.46715033
-0.41470757 -2.8064027 -0.37257394
-0.39894283 -2.8054276 -0.28314894
-0.28872207 -2.8011556 0.342098
-0.26039705 -2.7941749 0.50277191
-0.246154 -2.7998948 0.58357739
-0.22451958 -2.8079951 0.70627296
-0.21040863 -2.7935555 0.78628165
-0.19621363 -2.7821972 0.8667708
0.040370189 -4.9567399 2.2109313
0.22421339 -6.1063733 3.2546983
0.22538239 -5.6614609 3.2607913
0.23395763 -4.9747357 3.3085995
0.22940122 -4.6092138 3.2823389
0.24284765 -4.2774005 3.358201
0.22454545 -3.8883595 3.2539864
0.22959524 -3.6870935 3.2823966
0.24078441 -3.5355885 3.3456759
0.23366398 -3.2884102 3.3050349
0.22678295 -3.0614138 3.2657771
0.22789836 -2.8896501 3.2719233
0.22742219 -2.7200868 3.2690504
0.23648487 -2.5221307 3.3202417
0.22000541 -2.3108847 3.2265909
0.23405358 -2.2212117 3.3061643
0.22575247 -2.058315 3.2589412
0.22137615 -1.9164197 3.2339962
0.21873675 -1.7858953 3.2189133
0.21672991 -1.6621568 3.2074258
0.21883357 -1.4954158 3.2192132
0.21771283 -1.3823913 3.2127652
0.21683225 -1.2727538 3.2076838
0.21826188 -1.1689665 3.2157083
0.22073375 -1.0676841 3.2296462
0.1811931 -0.92423469 3.0053372
0.22036135 -0.86208987 3.2273812
0.21472746 -0.75774479 3.1953616
0.2112167 -0.60831046 3.1753511
0.20713271 -0.51019764 3.1521287
0.20575556 -0.41357991 3.1442566
0.20223384 -0.31804922 3.124227
0.20194896 -0.22196278 3.122551
-0.21817289 -0.40465707 0.74079162
-0.21889612 -0.39383402 0.73671442
-0.21782753 -0.38056979 0.74279439
-0.2188582 -0.37010142 0.73697472
0.20030285 0.64178127 3.1127057
0.083640575 0.45543668 2.4514632
0.18816175 0.8942669 3.0437367
0.18635608 1.0076566 3.0334377
0.1838797 1.1224575 3.019336
0.18333371 1.2483679 3.0161707
0.1843705 1.3862644 3.0219707
0.18649977 1.5362267 3.0339561
0.18262504 1.6671941 3.0119183
0.14405258 1.7055359 2.7932568
0.1124071 1.6868151 2.6138961
0.085745856 1.6833208 2.4627819
0.061474394 1.6837201 2.3252144
0.035078228 1.6594505 2.1756208
0.021497754 1.7163417 2.0986218
-0.0032308449 1.6846138 1.9584893
-0.020685732 1.7012589 1.8595573
-0.047684334 1.7078029 1.7065465
-0.064685866 1.7134994 1.6101943
-0.21457097 0.24394122 0.76161337
-0.22129588 0.22446361 0.72353804
-0.22777429 0.20225765 0.68686223
-0.23343988 0.18584482 0.6547901
-0.23879412 0.16894951 0.62448347
-0.24360399 0.15649256 0.59725976
-0.24813411 0.14483823 0.57162136
-0.25244835 0.13311906 0.54720682
-0.25640607 0.12633742 0.52480996
-0.2602545 0.11870605 0.50303334
-0.26391506 0.1142388 0.4823195
-0.26927498 0.10563463 0.45199224
-0.27271667 0.10832778 0.43251422
-0.30524531 1.5766432 0.24718574
-0.31752792 1.566206 0.17760098
-0.33018178 1.5701144 0.10590146
-0.34306765 1.5753217 0.03288592
-0.35588953 1.5729352 -0.039761819
-0.36912459 1.5755937 -0.11475551
-0.38860071 1.5632638 -0.2251005
-0.40259519 1.5672666 -0.30440041
-0.41703543 1.5717906 -0.38622779
-0.43041471 1.5565039 -0.4620274
-0.37785795 0.75902194 -0.16350475
-0.38634393 0.7498672 -0.21157013
-0.3897256 0.68768018 -0.23066358
-0.34868106 0.14789632 0.0024683548
-0.35049936 0.097935542 -0.0077550462
-0.35028291 0.057825871 -0.0064672702
-0.35060599 0.024464605 -0.0082429089
-0.35001719 -0.011964989 -0.0048472001
-0.35033214 -0.040589284 -0.0065802834
-0.35039473 -0.068772592 -0.0068830797
-0.35021073 -0.096448995 -0.0057885447
-0.35047051 -0.12047584 -0.0072123967
-0.35039288 -0.14473611 -0.0067232656
-0.3502599 -0.16797619 -0.005921307
-0.3502343 -0.18970387 -0.0057292599
-0.35034022 -0.21005243 -0.0062837512
-0.35013992 -0.23057254 -0.0051023769
-0.3508887 -0.25700507 -0.0092817834
-0.35007322 -0.26835275 -0.0046351613
-0.35023999 -0.28586209 -0.0055371788
-0.35059556 -0.31114 -0.0074885669
-0.35047215 -0.32823107 -0.0067461636
-0.35040289 -0.34482524 -0.0063111959
-0.35039493 -0.36099952 -0.0062241103
-0.35045433 -0.37683347 -0.0065193078
-0.35058606 -0.39240858 -0.0072248816
-0.35044917 -0.40805206 -0.0064077009
-0.35038862 -0.4234657 -0.0060236235
-0.35058069 -0.4386819 -0.0070721279
-0.35052186 -0.46155277 -0.0066781091
-0.35048288 -0.476769 -0.0064172084
-0.35069823 -0.49210608 -0.0075983093
-0.35081941 -0.50754523 -0.0082455641
-0.3508454 -0.52306724 -0.0083534392
-0.3507041 -0.54646283 -0.0074933604
-0.35065794 -0.56233096 -0.007192417
-0.35084677 -0.57879788 -0.0082238559
-0.35109341 -0.5957514 -0.0095831053
-0.35089737 -0.61229092 -0.0084328149
-0.35140377 -0.63070238 -0.011264831
-0.35088235 -0.65637982 -0.0082508167
-0.35137939 -0.67635465 -0.011029679
-0.35141796 -0.69581908 -0.011209551
-0.35161293 -0.71655273 -0.012276168
-0.35194242 -0.73870045 -0.014105191
-0.35131973 -0.7695635 -0.010517521
-0.35149392 -0.79375476 -0.011466162
-0.35160038 -0.81900686 -0.012030796
-0.35188472 -0.84665942 -0.013603515
-0.35078767 -0.88321084 -0.0073268646
-0.3538647 -0.93200034 -0.02472809
-0.35178491 -0.95277166 -0.012900413
-0.52529562 -2.4443917 -0.99616975
-0.52595598 -2.602895 -0.99985504
-0.52820677 -2.7936227 -1.012552
-0.51425034 -2.9454155 -0.9333638
-0.48666489 -2.8520761 -0.77696991
-0.46595287 -2.8179133 -0.65953159
-0.44761801 -2.8014431 -0.55556655
-0.43140185 -2.8057456 -0.46360949
-0.39952525 -2.8044834 -0.28284824
-0.30366945 -2.8118305 0.26072586
-0.28942004 -2.8181381 0.34153152
-0.2394233 -2.8116145 0.62504917
-0.22517958 -2.8040049 0.70581305
-0.21093062 -2.7955086 0.7866081
0.049364854 -4.8635468 2.262516
0.20979805 -6.4497252 3.1721404
0.21757963 -6.0296531 3.2162299
0.22758016 -5.4751787 3.272898
0.25223809 -5.3210835 3.4126844
0.24252732 -4.8805351 3.35762
0.23643348 -4.515748 3.3230674
0.23578274 -4.2268796 3.3193789
0.20023975 -3.7235694 3.1178784
0.23204328 -3.7048485 3.2981906
0.2323297 -3.4873087 3.299825
0.2365256 -3.2088575 3.3236327
0.23215312 -3.000716 3.2988605
0.23062998 -2.8198311 3.2902441
0.23185217 -2.6614029 3.2971931
0.23150036 -2.5042756 3.2952204
0.21997082 -2.3129942 3.2298815
0.23014431 -2.2098103 3.2875814
0.22204711 -2.0485506 3.241704
0.22298346 -1.8606126 3.2470546
0.22100008 -1.7336359 3.2358403
0.21680781 -1.6061928 3.212105
0.21544312 -1.4898826 3.2044008
0.21492924 -1.3786241 3.2015212
0.21534163 -1.271594 3.2038937
0.21741888 -1.1689109 3.2157059
0.22180013 -1.0179844 3.2406003
0.17665276 -0.87380761 2.984689
0.21921411 -0.81129801 3.2260189
0.21271951 -0.70755422 3.1892407
0.20991617 -0.60815835 3.1733904
0.2058122 -0.51011699 3.1501672
0.20424238 -0.41358796 3.1413124
0.20122269 -0.31800678 3.1242387
-0.21936995 -0.40482256 0.73983693
-0.22009343 -0.39403409 0.73576635
-0.21919374 -0.38104594 0.74089861
-0.21984506 -0.36395374 0.73725343
0.19440192 0.68618929 3.0861151
0.19092518 0.79001713 3.0664675
0.1873762 0.8956542 3.0464122
0.18675484 1.0130129 3.0429592
0.18362674 1.1260849 3.0252953
0.18434426 1.2571023 3.0294402
0.17875074 1.4379448 2.9978428
0.18378025 1.6037642 3.026449
0.1733623 1.7063462 2.9674609
0.1395424 1.6894921 2.7757626
0.10762351 1.6680731 2.5948398
0.082163103 1.6703839 2.4505401
0.046815202 1.5990162 2.2501597
0.035343613 1.6709477 2.1851912
0.010288769 1.7217596 2.0432301
-0.012095776 1.7041377 1.9163618
-0.031732079 1.6995617 1.8050789
-0.049374267 1.7052341 1.7051052
-0.067540102 1.6986336 1.6021582
-0.21631429 0.23675168 0.75819129
-0.22299092 0.21715578 0.72036457
-0.22922473 0.19762196 0.68504816
-0.23485824 0.18114634 0.65313601
-0.24001905 0.16704719 0.62390465
-0.24481431 0.15456957 0.59674621
-0.25116941 0.14543611 0.56076211
-0.25533342 0.13621634 0.53718358
-0.25932819 0.12706934 0.51456434
-0.26310253 0.12103331 0.49319616
-0.26675349 0.11620323 0.47252795
-0.27033055 0.11062662 0.45227838
-0.27379951 0.11432568 0.43264604
-0.29415318 1.5696352 0.31805247
-0.30666056 1.5776391 0.24719155
-0.31892592 1.5662061 0.17769291
-0.33163521 1.5720906 0.10568644
-0.35070786 1.5700619 -0.0023781934
-0.36348981 1.5654032 -0.074802026
-0.3766894 1.5657629 -0.14959089
-0.39026767 1.5680232 -0.22652525
-0.40423235 1.5710306 -0.30564991
-0.41843578 1.5717967 -0.38612926
-0.377774 0.85853595 -0.15597619
-0.37901148 0.75812691 -0.16301247
-0.38806137 0.75516981 -0.214283
-0.39180928 0.69634581 -0.2355288
-0.35005745 0.17349231 0.00092554541
-0.35100541 0.13550456 -0.0044391728
-0.35094476 0.093209639 -0.0040890304
-0.35102615 0.055530146 -0.0045418106
-0.35074633 0.01852157 -0.0029469801
-0.35095885 -0.0126818 -0.0041401889
-0.35076275 -0.044060223 -0.0030171848
-0.35079804 -0.072115816 -0.0032042728
-0.35085389 -0.098374791 -0.003507158
-0.35109648 -0.12232014 -0.0048675076
-0.35086146 -0.14708458 -0.0035211267
-0.35099709 -0.1690917 -0.0042743911
-0.35191992 -0.19784956 -0.009480169
-0.35090372 -0.21154958 -0.0037137179
-0.35168561 -0.23863979 -0.0081201764
-0.35157701 -0.25784713 -0.0074882195
-0.35132983 -0.2767334 -0.0060706642
-0.35127231 -0.29454976 -0.0057276879
-0.35125655 -0.31178781 -0.0056213592
-0.35112503 -0.32881245 -0.0048589003
-0.35138384 -0.34482166 -0.0063085947
-0.35137168 -0.36099589 -0.0062226728
-0.35125643 -0.37702066 -0.0055523338
-0.35138306 -0.39256135 -0.0062531228
-0.35156602 -0.4156608 -0.0072648381
-0.3514547 -0.43106523 -0.006617079
-0.35142303 -0.4463326 -0.0064208927
-0.3516461 -0.46154863 -0.0076691094
-0.35160306 -0.4767997 -0.0074088336
-0.35164082 -0.49210188 -0.0076069473
-0.35160848 -0.51517105 -0.0074003069
-0.35141182 -0.53053617 -0.0062700007
-0.35163251 -0.54645842 -0.0075064669
-0.35192069 -0.56277621 -0.0091259973
-0.35210237 -0.57931077 -0.010142206
-0.35217527 -0.596039 -0.010542176
-0.35166809 -0.62058759 -0.0076469821
-0.35210967 -0.63911146 -0.010139054
-0.35209996 -0.65718824 -0.010072703
-0.35227481 -0.67634964 -0.011053844
-0.35261515 -0.69675279 -0.012974568
-0.35201263 -0.72524732 -0.00954434
-0.35255432 -0.74857229 -0.012609867
-0.35276109 -0.7718522 -0.013776897
-0.35263792 -0.79495293 -0.013073741
-0.35189885 -0.82922226 -0.0088766348
-0.35207686 -0.85700381 -0.0098860171
-0.35238218 -0.88737291 -0.011620101
-0.35494062 -0.93343282 -0.026142718
-0.52809107 -2.3219397 -1.0090303
-0.52766776 -2.4589093 -1.0067494
-0.5285936 -2.6210883 -1.012144
-0.52414978 -2.8435154 -0.98715395
-0.50232077 -2.8168106 -0.86336434
-0.48278162 -2.8030362 -0.7525689
-0.46618423 -2.8151617 -0.65847689
-0.4476639 -2.7958913 -0.55345154
-0.43160275 -2.8019862 -0.46239373
-0.39265692 -2.8127692 -0.24158767
-0.33282134 -2.8075032 0.097678281
-0.30411273 -2.812834 0.26044723
-0.25428778 -2.7983985 0.54296541
-0.23999928 -2.8016756 0.62397575
-0.21839453 -2.8036113 0.74649888
-0.20433246 -2.7877517 0.82628256
0.21730953 -6.2734919 3.2133062
0.22941996 -5.9246931 3.2824013
0.22435896 -5.4432712 3.2542825
0.23855406 -5.1957059 3.3350797
0.24453969 -4.8989143 3.3693831
0.23193976 -4.4819026 3.2984407
0.23102808 -4.1939158 3.2936234
0.1987713 -3.7160337 3.1112931
0.2414252 -3.6535299 3.3532465
0.23830515 -3.420435 3.3358417
0.23072846 -3.180341 3.2931747
0.22890225 -2.9870653 3.2830589
0.22780423 -2.8092582 3.2770534
0.22837853 -2.6488893 3.2805092
0.21582146 -2.4435921 3.2095616
0.22620222 -2.3387177 3.268554
0.2308045 -2.1458941 3.2948885
0.22334427 -1.9900194 3.2527807
0.22010042 -1.8545923 3.2345548
0.21790215 -1.72765 3.2222469
0.2146212 -1.6029352 3.2037969
0.21419901 -1.4889694 3.2015421
0.21399324 -1.378427 3.2005095
0.21692637 -1.2222944 3.2173271
0.21749277 -1.1178414 3.2206626
0.20597172 -1.0012939 3.1554813
0.17632756 -0.87437642 2.9875648
0.21733314 -0.81067342 3.2201159
0.21151459 -0.70748448 3.1872466
0.19967812 -0.60542971 3.1202583
0.20197864 -0.50991982 3.1334076
0.20086737 -0.36596853 3.1272662
0.20101891 -0.26976287 3.1282294
-0.22063144 -0.39941269 0.73783505
-0.22083159 -0.39383698 0.73671865
-0.22052638 -0.37568814 0.73850465
-0.22092129 -0.36425582 0.7363022
0.19391038 0.68727452 3.0888712
0.19026423 0.79077727 3.0682931
0.18732463 0.89829421 3.0517218
0.18137333 1.0596427 3.0181201
0.18069442 1.1824827 3.0143707
0.18051293 1.3124628 3.0134442
0.18056461 1.4496216 3.0138419
0.18373828 1.607996 3.0319502
0.16757366 1.6831344 2.940371
0.13467631 1.6693532 2.7538738
0.097412996 1.6906281 2.5426533
0.072168574 1.6905845 2.3995502
0.023932071 1.5276543 2.126003
0.03025445 1.7189078 2.1619723
0.0083777606 1.7145315 2.0379584
-0.01415641 1.6950909 1.9102086
-0.033543292 1.6919816 1.8003107
-0.051134445 1.6974908 1.700598
-0.067733191 1.706479 1.6065133
-0.21972702 0.23805836 0.74406677
-0.22644921 0.21588461 0.70596892
-0.23251943 0.1965711 0.67156875
-0.23795325 0.18135303 0.64077908
-0.24299508 0.16765216 0.61221248
-0.2477327 0.15466739 0.58537114
-0.25211495 0.14446774 0.56054598
-0.25627157 0.1352416 0.53700054
-0.26023188 0.12707713 0.51456881
-0.26400483 0.12104195 0.49320021
-0.26763937 0.11720885 0.47261754
-0.27119401 0.11463138 0.45248818
-0.2950685 1.5746427 0.3178274
-0.31368509 1.5732404 0.21230328
-0.3259272 1.5615737 0.14290731
-0.33891895 1.5750467 0.069271319
-0.35155445 1.5700845 -0.0023522018
-0.36449966 1.569309 -0.075729996
-0.37762168 1.5677115 -0.15011039
-0.39131367 1.5718554 -0.2277202
-0.41145021 1.5615779 -0.34186509
-0.42607841 1.5663903 -0.42478237
-0.37777272 0.84759969 -0.15116207
-0.38409516 0.75382602 -0.18700938
-0.39165264 0.73410302 -0.22984238
-0.39686427 0.69139135 -0.25938302
-0.35053807 0.17020038 0.0031260767
-0.35116041 0.12986569 -0.00039038845
-0.35138783 0.090082139 -0.0016673093
-0.35300022 0.044886053 -0.01078447
-0.35150316 0.017803516 -0.0022922859
-0.35281569 -0.02241048 -0.0097066099
-0.35251296 -0.053688757 -0.0079731867
-0.35258317 -0.081009299 -0.0083525022
-0.35268766 -0.10658653 -0.0089253858
-0.35257739 -0.13172849 -0.0082801385
-0.3525424 -0.15523313 -0.0080611557
-0.35246328 -0.17776582 -0.0075911772
-0.35235479 -0.19936824 -0.0069542639
-0.35223106 -0.22008729 -0.0062302263
-0.35241485 -0.23906684 -0.0072492361
-0.35246229 -0.25781995 -0.0074946866
-0.35221642 -0.27670607 -0.0060771229
-0.35216019 -0.29452226 -0.0057341149
-0.35214573 -0.31176016 -0.0056277323
-0.3525759 -0.33610594 -0.0080289012
-0.35210797 -0.34505257 -0.0053635458
-0.35239092 -0.36879203 -0.0069292309
-0.35239854 -0.38459429 -0.0069466722
-0.35230762 -0.40028414 -0.0064048581
-0.35246494 -0.41563201 -0.0072703278
-0.35235536 -0.43103626 -0.0066223517
-0.35249907 -0.44626847 -0.0074101416
-0.3523677 -0.46912858 -0.0066244761
-0.35245407 -0.4843899 -0.0070864959
-0.35262051 -0.49978015 -0.0080023371
-0.3525199 -0.51514113 -0.0074040019
-0.35249704 -0.53066248 -0.007246004
-0.35271904 -0.54661894 -0.0084761484
-0.3528392 -0.56274581 -0.0091285277
-0.35265759 -0.5869326 -0.0080551654
-0.3526825 -0.60366523 -0.0081670526
-0.35292262 -0.62124044 -0.0094987275
-0.35320199 -0.63945484 -0.011052476
-0.35526645 -0.67240167 -0.022711085
-0.35286239 -0.68487972 -0.0090508265
-0.35329089 -0.70585996 -0.011449008
-0.35325781 -0.72624528 -0.011230056
-0.35379758 -0.74962926 -0.014258354
-0.35290864 -0.78009504 -0.0091703674
-0.3531273 -0.80505419 -0.010377018
-0.35339969 -0.83176041 -0.011887866
-0.35318032 -0.85763997 -0.010610283
-0.35361296 -0.8887291 -0.013028216
-0.35306942 -0.93250597 -0.0098937871
-0.52502614 -2.3573716 -0.98449272
-0.52594912 -2.5092902 -0.98965973
-0.52588558 -2.6687908 -0.98923051
-0.52695161 -2.8571918 -0.99519795
-0.50293392 -2.8089025 -0.85899276
-0.48407829 -2.8021085 -0.75204641
-0.46668759 -2.8042502 -0.65340388
-0.44227907 -2.8174329 -0.51494867
-0.42576542 -2.8153985 -0.42127904
-0.40921175 -2.8048813 -0.3273842
-0.39450333 -2.821384 -0.24394508
-0.29834932 -2.8053262 0.30149788
-0.26989397 -2.815201 0.4629218
-0.25573757 -2.8013568 0.54322428
-0.24149896 -2.8006411 0.62399668
-0.23432274 -2.8016906 0.66468
-0.21994935 -2.8006029 0.74619234
-0.20556736 -2.7955928 0.82775223
0.11639401 -8.9242706 2.6549206
0.034077354 -4.8973947 2.1871293
0.20302543 -6.1314449 3.1453407
0.22203067 -5.8681526 3.2530315
0.23445432 -5.5644946 3.3233991
0.2148504 -4.9955273 3.2121198
0.22951427 -4.7869611 3.295217
0.23794727 -4.3975539 3.342952
0.23417877 -4.0973654 3.3215277
0.20726836 -3.6701312 3.1688721
0.2389773 -3.6483896 3.3486576
0.23391716 -3.4041505 3.3199291
0.22680749 -3.1673632 3.2795839
0.22298333 -2.9647393 3.2578754
0.22206379 -2.7891011 3.2526419
0.23214282 -2.592016 3.3097708
0.20285125 -2.3256545 3.1436663
0.23447797 -2.302295 3.3229885
0.2278782 -2.1403821 3.2855587
0.2213396 -1.9876612 3.2484784
0.21748677 -1.850637 3.2266293
0.21386452 -1.7203189 3.2060897
0.21587777 -1.5513167 3.217505
0.21577813 -1.4389091 3.2169418
0.21259849 -1.3237896 3.1989169
0.21467386 -1.2204787 3.2106879
0.20289588 -1.0998344 3.1439159
0.17902033 -0.97227263 3.0085578
0.19315962 -0.89065546 3.0887296
0.21409236 -0.80908889 3.2074163
0.20877852 -0.65747809 3.1773026
0.19161426 -0.55609918 3.0800011
0.20127991 -0.4618777 3.1348097
0.20168275 -0.36562598 3.1371045
0.19872795 -0.27032641 3.1203642
-0.22154334 -0.39939749 0.73782867
-0.22178978 -0.38804233 0.73645943
-0.22160298 -0.3759326 0.73754638
0.19346681 0.68803966 3.0906641
0.18736269 0.8422749 3.056082
0.18392751 0.94935375 3.036623
0.18261272 1.0661223 3.0291843
0.18190803 1.1893505 3.0252042
0.18141089 1.3185918 3.0224006
0.18340793 1.4642916 3.0337358
0.18582404 1.620284 3.047446
0.15104666 1.6808283 2.8503258
0.12305368 1.6864529 2.6916592
0.094794795 1.679296 2.5314865
0.069735259 1.6795969 2.3894513
0.023138808 1.5268844 2.1253359
0.029813977 1.7204454 2.1631908
0.0057276674 1.6993434 2.0266759
-0.015722517 1.6877048 1.905105
-0.0413372 1.7109662 1.7599381
-0.060043793 1.7033429 1.6539211
-0.22123691 0.22990409 0.74030912
-0.22777721 0.20944358 0.70326388
-0.23368697 0.19190577 0.66979313
-0.23903865 0.17757353 0.6394859
-0.24400933 0.16478582 0.61133832
-0.2486871 0.15273812 0.58485126
-0.25302079 0.14349595 0.56031471
-0.25717369 0.13426256 0.53680307
-0.26110286 0.1270797 0.51455951
-0.26487765 0.12104449 0.49319106
-0.27024823 0.12000329 0.46279103
-0.27379596 0.11907177 0.44270954
-0.2896187 1.5721973 0.35297659
-0.30195889 1.5694858 0.28305256
-0.31448063 1.5752354 0.21209899
-0.32700527 1.5744545 0.14112942
-0.33983666 1.5799787 0.068420328
-0.35243413 1.5730283 -0.0029616936
-0.37142184 1.5601779 -0.11055351
-0.3847442 1.5610894 -0.18604536
-0.3984735 1.5638155 -0.26384428
-0.41304931 1.5737307 -0.34644252
-0.42727941 1.5719311 -0.42708036
-0.38088563 0.8163957 -0.16400351
-0.38502839 0.75472862 -0.18745434
-0.38998508 0.70787489 -0.21552019
-0.35294354 0.15939799 -0.0054138917
-0.35321856 0.1174916 -0.0069405879
-0.35308161 0.076265618 -0.00613211
-0.3532252 0.040362556 -0.006914217
-0.35302934 0.0050840667 -0.0057720961
-0.35299316 -0.026649045 -0.0055355667
-0.3530488 -0.055730715 -0.0058197356
-0.35310909 -0.082973748 -0.0061304662
-0.35306901 -0.10910053 -0.0058721914
-0.3532232 -0.13292892 -0.0067155515
-0.35304067 -0.15695105 -0.0056499494
-0.35309875 -0.17885256 -0.0059485352
-0.35298541 -0.20039606 -0.0052756392
-0.35373086 -0.2281926 -0.0094559863
-0.35303655 -0.23997317 -0.0055047842
-0.35352761 -0.26669344 -0.0082432469
-0.35337967 -0.28508082 -0.0073744906
-0.35342941 -0.3024812 -0.0076264986
-0.35336176 -0.31968194 -0.0072131134
-0.35317925 -0.33665723 -0.0061485386
-0.3532216 -0.35289809 -0.0063587967
-0.3533299 -0.36879241 -0.0069430978
-0.3533383 -0.38459498 -0.0069610481
-0.35324803 -0.40028512 -0.0064197592
-0.35323322 -0.41573793 -0.0063063414
-0.3535541 -0.43859816 -0.0080813924
-0.35330495 -0.45391232 -0.0066397134
-0.3533105 -0.46913093 -0.0066419011
-0.35339722 -0.48439252 -0.0071045277
-0.35339093 -0.49969602 -0.007039919
-0.35363609 -0.51526606 -0.008400809
-0.35356474 -0.53862166 -0.0079529602
-0.35356626 -0.5544585 -0.0079329535
-0.35363623 -0.57062882 -0.0083010569
-0.35393584 -0.58748817 -0.0099710235
-0.35395718 -0.6042878 -0.010063639
-0.35419324 -0.62192935 -0.011373798
-0.35375744 -0.64751041 -0.0088609289
-0.36140561 -0.68634927 -0.052193038
-0.35426992 -0.68624747 -0.011710701
-0.35453749 -0.70683569 -0.013200131
-0.35464674 -0.72779673 -0.013792122
-0.35414466 -0.75845402 -0.010904865
-0.35413024 -0.78127789 -0.010796312
-0.3543407 -0.80629307 -0.011962876
-0.35473752 -0.83369642 -0.014186404
-0.35468653 -0.87481356 -0.013858392
-0.35398182 -0.90063655 -0.0098373936
-0.35424033 -0.93397766 -0.01127791
-0.52842265 -2.3765094 -0.9988237
-0.52872062 -2.5248251 -1.0005066
-0.52987617 -2.6964371 -1.0070553
-0.52433079 -2.9200304 -0.97561175
-0.49606743 -2.825058 -0.81534833
-0.47696385 -2.8126681 -0.70702326
-0.46026069 -2.8211246 -0.61230952
-0.44285473 -2.8137164 -0.51360923
-0.42665595 -2.816334 -0.42175421
-0.40966275 -2.7982242 -0.32539237
-0.34262791 -2.8181586 0.054734264
-0.29922095 -2.8143423 0.30088106
-0.26355281 -2.8121686 0.50314361
-0.24941227 -2.7999039 0.58333218
-0.23493588 -2.8106863 0.66545278
-0.22055826 -2.8075821 0.74700165
-0.19951768 -2.781239 0.86634749
0.1100205 -8.7949476 2.6203442
0.039026733 -4.9772277 2.2186236
0.20222463 -6.1288648 3.143784
0.21882695 -5.8400126 3.2379973
0.23270713 -5.5533509 3.3167751
0.22435741 -4.9144793 3.269588
0.23758639 -4.7002773 3.3446586
0.2349436 -4.3800864 3.3297567
0.23170477 -4.0850301 3.3114703
0.20879441 -3.6853204 3.1816676
0.23786521 -3.6462891 3.346524
0.2290909 -3.3809028 3.296845
0.23349594 -3.1130612 3.3219008
0.2280938 -2.9064806 3.2913296
0.22658502 -2.7312839 3.2828267
0.23075515 -2.5897386 3.3065152
0.20229849 -2.3268416 3.1452394
0.23172013 -2.2954726 3.3120759
0.22251338 -2.125443 3.2599242
0.21695188 -1.9769213 3.228436
0.21902041 -1.7961403 3.2402205
0.21544965 -1.6677257 3.2200139
0.21369824 -1.5484976 3.21012
0.21324839 -1.4356976 3.2076037
0.21104166 -1.3226616 3.1951261
0.21327396 -1.2197406 3.207813
0.20233296 -1.1003199 3.1458163
0.17360295 -0.92031747 2.9829824
0.22031206 -0.86509919 3.2478149
0.21260306 -0.75876808 3.2041371
0.2075166 -0.65735918 3.1753261
0.19312641 -0.55660719 3.0937691
0.20227055 -0.4618935 3.1456323
0.19867745 -0.36605483 3.1252842
0.19749619 -0.22238067 3.1186182
-0.22126627 -0.40984246 0.74462962
-0.22247177 -0.39941746 0.73782164
-0.22271785 -0.38806176 0.73645264
-0.22263402 -0.37010872 0.73696661
0.19498739 0.63835615 3.1045163
0.19120322 0.7408613 3.0830715
0.18612432 0.84142375 3.0542853
0.18376972 0.95172876 3.040941
0.18214095 1.0676531 3.0317097
0.1821655 1.1936232 3.0318484
0.17673251 1.371312 3.0010457
0.17991261 1.5247537 3.0190656
0.18014877 1.6740777 3.0203943
0.14659709 1.6631598 2.8301988
0.1202413 1.6762656 2.6807938
0.090573944 1.6602458 2.51262
0.068360746 1.6767101 2.3866994
0.026343735 1.5540847 2.1485343
0.019903863 1.7336589 2.1120095
-0.0022690559 1.7234286 1.986322
-0.024333244 1.7037325 1.861253
-0.042588856 1.7076037 1.7577705
-0.06040255 1.7085662 1.656794
-0.22235878 0.22718115 0.73903447
-0.22874567 0.2085181 0.70285356
-0.23483573 0.18816569 0.66835594
-0.24016361 0.173785 0.63817805
-0.24505937 0.16190973 0.61044943
-0.25149438 0.15454 0.57400495
-0.25582859 0.14387773 0.54945964
-0.25990969 0.13519986 0.52634889
-0.26376095 0.12959822 0.50454038
-0.26748532 0.12517782 0.48345071
-0.27110186 0.12298415 0.46297184
-0.27465418 0.12405623 0.44285589
-0.29045457 1.5731797 0.35282823
-0.30286968 1.5764484 0.28245583
-0.31519479 1.5692439 0.21259728
-0.32777616 1.5724454 0.14128211
-0.34689939 1.5753187 0.032885645
-0.35959944 1.5700086 -0.039099589
-0.37276739 1.5717255 -0.11374024
-0.3862066 1.5734729 -0.18991897
-0.40000692 1.5760537 -0.2681455
-0.41403067 1.5764719 -0.34763816
-0.42840943 1.5764682 -0.42914328
-0.38039571 0.80003279 -0.15659724
-0.38609582 0.75735098 -0.18887654
-0.38980666 0.69732606 -0.20987014
-0.35320574 0.15444329 -0.0020620991
-0.35345247 0.11265969 -0.0034189364
-0.35339737 0.072339684 -0.003064615
-0.35329092 0.035039008 -0.0024201856
-0.35353819 0.0028494673 -0.0037828833
-0.35336706 -0.029518252 -0.0027733019
-0.35340667 -0.05849975 -0.0029595888
-0.35358253 -0.08498314 -0.0039192168
-0.35393631 -0.10914183 -0.0058883303
-0.35465726 -0.14239411 -0.0099219345
-0.35362491 -0.15814002 -0.0040484043
-0.35437465 -0.1881239 -0.008246134
-0.35433775 -0.20906255 -0.0080006793
-0.35429493 -0.22917444 -0.0077218898
-0.35425878 -0.2485148 -0.0074810493
-0.35424098 -0.2671434 -0.0073445188
-0.35393032 -0.28587338 -0.0055472925
-0.35413951 -0.30286682 -0.0066981022
-0.35407054 -0.32003471 -0.0062716049
-0.35405388 -0.33670107 -0.006141609
-0.35424852 -0.36078715 -0.0071920939
-0.35430801 -0.37665552 -0.0074939514
-0.35409662 -0.39257827 -0.0062597222
-0.35413024 -0.40806553 -0.0064146891
-0.35424173 -0.42339227 -0.007011144
-0.35425985 -0.43869597 -0.007078039
-0.35418501 -0.45395786 -0.0066177011
-0.35436508 -0.46919408 -0.0076024118
-0.35445249 -0.48449081 -0.0080616223
-0.35444677 -0.49982935 -0.0079924362
-0.3543486 -0.52294379 -0.0073805442
-0.35445008 -0.53866857 -0.0079185897
-0.35462266 -0.55471349 -0.0088594221
-0.35469249 -0.57091802 -0.0092172772
-0.35482481 -0.58753592 -0.0099290619
-0.35424215 -0.61165714 -0.0065680826
-0.35475266 -0.63000339 -0.0094225053
-0.35497135 -0.64834023 -0.010622211
-0.35584646 -0.6690765 -0.015541798
-0.35532236 -0.68675059 -0.012530017
-0.35502774 -0.73660022 -0.010754125
-0.35504967 -0.75850391 -0.010834417
-0.35560012 -0.78367901 -0.013908761
-0.35525095 -0.8063435 -0.011884153
-0.35503915 -0.84405601 -0.010612469
-0.35560474 -0.87486482 -0.013767706
-0.35625526 -0.90846556 -0.017401949
-0.35611427 -0.93987972 -0.016549656
-0.35479969 -0.98401731 -0.0090187239
-0.53118658 -2.3894675 -1.0079863
-0.53282326 -2.5495808 -1.0171067
-0.52706075 -2.7479022 -0.98422438
-0.52793401 -2.9444604 -0.98898369
-0.49690217 -2.8216875 -0.81309485
-0.4777469 -2.808322 -0.70445877
-0.44318062 -2.8017857 -0.50839978
-0.41931814 -2.8083532 -0.3730382
-0.40354091 -2.8073926 -0.28354457
-0.34374878 -2.8152413 0.055635363
-0.32910955 -2.8109372 0.13867475
-0.29330495 -2.8161454 0.34178799
-0.26479718 -2.8091495 0.50349921
-0.2292197 -2.798033 0.70529115
-0.21471037 -2.8004253 0.78757763
-0.20077127 -2.7801821 0.8666113
0.033838861 -4.9250364 2.1987832
0.22083633 -6.1158953 3.2601078
0.22791353 -5.7320256 3.2999208
0.24437828 -5.4811382 3.3930755
0.22867827 -4.9660664 3.3036332
0.23260057 -4.6711888 3.3256378
0.22774731 -4.3357477 3.2978516
0.2367461 -4.0022235 3.348618
0.22156258 -3.6637776 3.2622595
0.23814794 -3.5460949 3.3562174
0.23094949 -3.2978561 3.3152118
0.2279799 -3.09058 3.2982192
0.22354135 -2.8900175 3.2729039
0.22428854 -2.7259686 3.2770228
0.22676505 -2.5775921 3.2909608
0.21038191 -2.2915528 3.1978605
0.23145436 -2.2276304 3.3173089
0.22409403 -2.0672545 3.2754636
0.21914487 -1.9229604 3.2473032
0.21590859 -1.7902769 3.2288651
0.21408199 -1.6665798 3.2184277
0.21218054 -1.5470613 3.2075698
0.21091895 -1.4327345 3.2003446
0.21291439 -1.2735921 3.2115614
0.21468236 -1.1701534 3.2215238
0.21613871 -1.0674187 3.2297201
0.17351432 -0.92086506 2.987941
0.21661752 -0.86252141 3.2323136
0.2101198 -0.7574839 3.1954091
0.20573451 -0.65667272 3.1704857
0.2003825 -0.55792147 3.1400831
0.20183076 -0.41325545 3.1482134
0.19726467 -0.31790158 3.1222703
0.19697785 -0.22188535 3.1205907
-0.22243062 -0.41011569 0.74270898
-0.22348909 -0.3938036 0.73672748
-0.22336565 -0.38779888 0.73743361
-0.22344804 -0.37007135 0.73698545
0.19437024 0.63903153 3.105329
0.0790122 0.45562294 2.451406
0.18583375 0.84302974 3.0568161
0.18186046 1.0083801 3.0341957
0.17893311 1.1216642 3.0175343
0.17810069 1.2464253 3.0127428
0.17815301 1.3801912 3.0129611
0.18087476 1.5322508 3.0283017
0.18067208 1.6800152 3.0270641
0.14735015 1.670628 2.8381581
0.1163772 1.6594493 2.6625721
0.080988489 1.6827847 2.4619343
0.059518009 1.7009832 2.3402057
0.028776532 1.6481164 2.1659634
0.017838433 1.7235831 2.1039107
-0.0060078995 1.6993124 1.9687425
-0.026172867 1.6939245 1.8544338
-0.044273932 1.6984044 1.75182
-0.062464084 1.6948282 1.648707
-0.22570391 0.22631481 0.7242949
-0.23218997 0.20413262 0.6875574
-0.23774451 0.18962115 0.6560958
-0.24295701 0.17562163 0.62657332
-0.2478523 0.16227219 0.59884882
-0.25233015 0.1526102 0.57348841
-0.25661609 0.14290786 0.54921615
-0.26066062 0.13520582 0.52631122
-0.26451135 0.12960199 0.50450349
-0.26821691 0.12617409 0.48351738
-0.27181429 0.12597649 0.46314204
-0.29112878 1.5741687 0.35262108
-0.30957845 1.5646682 0.2480505
-0.32201502 1.5651865 0.17755583
-0.33465776 1.5690935 0.10588949
-0.34753245 1.5743001 0.032906894
-0.36030424 1.5709403 -0.03948598
-0.37352228 1.5736091 -0.11441377
-0.38697246 1.5753313 -0.19065735
-0.40700978 1.5662572 -0.30423227
-0.42091921 1.5633688 -0.38307691
-0.43487757 1.5564201 -0.46219629
-0.38338876 0.77154714 -0.16964757
-0.39113191 0.75333685 -0.21351774
-0.39409775 0.68675029 -0.23026416
-0.3535381 0.15112898 0.0001633083
-0.35376629 0.10942747 -0.0010786466
-0.35347465 0.067639351 0.0006270138
-0.35517254 0.025162484 -0.0089373365
-0.35332516 -0.0030385454 0.0015690916
-0.35502788 -0.03924536 -0.0080272425
-0.35509652 -0.067479879 -0.0083746212
-0.35531726 -0.093280651 -0.0095862309
-0.35504684 -0.11990595 -0.0080121215
-0.35497072 -0.14419417 -0.007541771
-0.35469526 -0.16802207 -0.0059411763
-0.35510924 -0.18816018 -0.008252928
-0.35507214 -0.20909864 -0.0080060437
-0.35487574 -0.22967979 -0.0068563758
-0.35483649 -0.24898888 -0.006598704
-0.35465711 -0.26799238 -0.0055468068
-0.35450229 -0.28628325 -0.0046346686
-0.35501584 -0.31118691 -0.0074972063
-0.3546373 -0.32037866 -0.0053334832
-0.35498714 -0.34461346 -0.0072684437
-0.3549788 -0.36082172 -0.007188471
-0.35486713 -0.37688074 -0.0065228511
-0.35499701 -0.39245605 -0.0072272257
-0.35503072 -0.40797773 -0.0073862933
-0.35496902 -0.42342615 -0.0070046303
-0.35504684 -0.4463495 -0.0073982915
-0.35473695 -0.45400882 -0.0056253225
-0.35505781 -0.47685194 -0.0073972442
-0.35492462 -0.49208456 -0.0066105481
-0.35504466 -0.50748914 -0.0072596013
-0.35524178 -0.52311581 -0.0083456626
-0.35517016 -0.53870124 -0.007908049
-0.35505044 -0.56237972 -0.0071815602
-0.35523775 -0.57884681 -0.008211704
-0.3551507 -0.5952158 -0.007686072
-0.35562834 -0.63039356 -0.010329138
-0.35584342 -0.64876264 -0.011515643
-0.35560679 -0.67596608 -0.010124578
-0.35549355 -0.69493008 -0.0094490014
-0.35602796 -0.73769104 -0.012409887
-0.35658336 -0.78488529 -0.015486975
-0.35626137 -0.84671038 -0.013569496
-0.35630029 -0.87489486 -0.013751468
-0.35908562 -0.93708795 -0.029475372
-0.3558116 -0.95059341 -0.010880549
-0.52848524 -2.4348147 -0.98905241
-0.52960157 -2.5963945 -0.99526405
-0.53033638 -2.7725539 -0.9993034
-0.52818072 -2.9410536 -0.98695761
-0.49619529 -2.8076115 -0.80564618
-0.47727844 -2.7957861 -0.69836575
-0.45301649 -2.8144259 -0.56074744
-0.43635085 -2.8133032 -0.46622595
-0.40413406 -2.8074267 -0.28350434
-0.30819374 -2.8158526 0.26066256
-0.29390502 -2.8191628 0.34170958
-0.26534617 -2.8141632 0.50369155
-0.25114718 -2.805871 0.58422303
-0.229671 -2.8040023 0.70602649
-0.21550526 -2.7925363 0.78635985
0.045951955 -4.880908 2.2702515
0.21834511 -6.0927072 3.2485187
0.21786143 -5.6322985 3.2455225
0.23737779 -5.4185429 3.3560789
0.22534184 -4.9408855 3.28757
0.22670938 -4.6269345 3.2951603
0.23888355 -4.2841849 3.3640225
0.21064812 -3.8267817 3.2036726
0.22575846 -3.694227 3.2892983
0.23456027 -3.5280921 3.3391337
0.22761716 -3.2825549 3.2996445
0.22183719 -3.0617898 3.2667656
0.22040914 -2.8777874 3.2585857
0.22189599 -2.717948 3.2669492
0.23063344 -2.5189669 3.3164177
0.21440564 -2.3089657 3.224304
0.22872968 -2.2204039 3.3055036
0.21995237 -2.0560889 3.2556648
0.21771494 -1.920676 3.2429273
0.2131996 -1.7847692 3.2172735
0.21069494 -1.6599241 3.2030277
0.2117845 -1.4913747 3.2091537
0.212942 -1.3830409 3.2156856
0.21138757 -1.272202 3.2068384
0.21314143 -1.1689323 3.2167561
0.21509419 -1.0669916 3.2278035
0.17468725 -0.92276663 2.9986186
0.21538442 -0.86209339 3.2293985
0.20887884 -0.75716054 3.1924813
0.20569843 -0.6079908 3.174413
0.20108429 -0.50986373 3.1482267
0.20021893 -0.41333485 3.1433008
0.19668886 -0.31784189 3.1232648
0.19604923 -0.22196558 3.1196208
-0.22328842 -0.41028818 0.74173707
-0.2241759 -0.39381978 0.73672825
-0.22361222 -0.38128099 0.7399404
-0.22430292 -0.3703633 0.73603976
0.19339307 0.63866055 3.1044314
0.078383319 0.45602745 2.4523177
0.1820623 0.89269298 3.0401504
0.1811697 1.0088665 3.0350747
0.17912422 1.1252708 3.0234618
0.17855096 1.251328 3.0201957
0.17927358 1.388222 3.0242755
0.18276531 1.5442876 3.0440536
0.17135251 1.7168438 2.9793208
0.13799499 1.7030708 2.7901886
0.10537741 1.6786726 2.6052556
0.079137944 1.6770246 2.4564846
0.050845604 1.6511852 2.2960794
0.030021312 1.6626636 2.1780131
0.015565934 1.7133305 2.0960522
-0.0088257687 1.6839315 1.9577677
-0.035134744 1.7055404 1.80861
-0.053342115 1.70619 1.705387
-0.070411503 1.7109674 1.6086161
-0.22008501 0.24125503 0.76028019
-0.22685811 0.22081576 0.72189903
-0.23311268 0.20133305 0.68645787
-0.23858885 0.18772359 0.6554293
-0.24384171 0.17275009 0.62566733
-0.24866989 0.16033119 0.59831285
-0.25309256 0.15162124 0.57325703
-0.25737116 0.14191091 0.5490182
-0.26137832 0.13518688 0.52631795
-0.26522803 0.12958293 0.50451022
-0.27068731 0.12913567 0.47358456
-0.27426779 0.13157773 0.45330176
-0.28578237 1.5700811 0.38773113
-0.29813305 1.5715991 0.31771892
-0.31049457 1.5696292 0.2476459
-0.32277027 1.5611962 0.17806084
-0.33552414 1.5700606 0.10576056
-0.34833813 1.5732977 0.033120185
-0.36125892 1.5738423 -0.040125113
-0.38051561 1.5637602 -0.14928542
-0.39348546 1.5555714 -0.22280771
-0.40790293 1.5671755 -0.30454296
-0.42201179 1.5670561 -0.38452634
-0.38316217 0.75984204 -0.16401885
-0.39164779 0.75066727 -0.21211451
-0.39519888 0.69019359 -0.23221855
-0.35548058 0.13867345 -0.0068215318
-0.35554919 0.097082347 -0.0071824188
-0.35532176 0.056994777 -0.0058651236
-0.3550536 0.01994046 -0.0043176427
-0.35515612 -0.01203011 -0.004873245
-0.35559073 -0.039960001 -0.0073128198
-0.35539421 -0.069507144 -0.0061734151
-0.35533425 -0.096514404 -0.0058088698
-0.35558927 -0.12054144 -0.0072311331
-0.35550693 -0.14480174 -0.0067403908
-0.35536936 -0.16804181 -0.0059368978
-0.35533932 -0.18976955 -0.0057434342
-0.35544088 -0.21011823 -0.0062966184
-0.35508299 -0.23110777 -0.0042443522
-0.35582146 -0.25749388 -0.0083991801
-0.35573727 -0.2760213 -0.007899669
-0.35552266 -0.29426086 -0.0066607376
-0.35550937 -0.31153184 -0.0065638926
-0.35554627 -0.32829735 -0.0067516398
-0.35547313 -0.34489155 -0.0063156625
-0.35546133 -0.36106592 -0.0062276036
-0.35551691 -0.37689993 -0.0065218597
-0.35564485 -0.39247522 -0.0072265179
-0.35584894 -0.40787497 -0.0083633643
-0.35561296 -0.42344519 -0.0070044994
-0.35568783 -0.44636849 -0.0073986067
-0.35552132 -0.47683591 -0.0064139511
-0.35573295 -0.49217317 -0.0075941891
-0.35570079 -0.52299535 -0.0073723695
-0.355726 -0.54653019 -0.0074861818
-0.35586131 -0.57886541 -0.0082148788
-0.3561042 -0.59581906 -0.0095731942
-0.35588437 -0.63843501 -0.0082795871
-0.35603887 -0.65685439 -0.0091371955
-0.3560611 -0.67554599 -0.0092450306
-0.35656133 -0.69635677 -0.012063636
-0.35735095 -0.71912116 -0.016523886
-0.35607436 -0.74646741 -0.0092573827
-0.35632759 -0.79322147 -0.010658811
-0.3576481 -0.82411009 -0.018131142
-0.35697955 -0.84738433 -0.01432289
-0.35587066 -0.88397396 -0.00800939
-0.36014301 -0.93998307 -0.032224566
-0.35650089 -0.95135432 -0.011552673
-0.53079951 -2.4501979 -1.0001075
-0.53131521 -2.6080124 -1.0030357
-0.53444022 -2.8073356 -1.020767
-0.52206677 -2.8769786 -0.9505927
-0.49001151 -2.8361638 -0.76878315
-0.47065157 -2.8171244 -0.65897781
-0.45327672 -2.8135192 -0.56043184
-0.43636829 -2.8086493 -0.46453068
-0.40471742 -2.8122234 -0.28501353
-0.35175702 -2.807435 0.015370638
-0.33728111 -2.8115284 0.097475812
-0.29419714 -2.8131864 0.34184402
-0.25865787 -2.8004081 0.54342252
-0.24430199 -2.8076556 0.62484699
-0.22993736 -2.8070028 0.70631456
-0.21567619 -2.7984862 0.78721261
0.04456133 -4.8634572 2.2628036
0.2040711 -6.437789 3.1671247
0.21569674 -6.0624619 3.2331431
0.20486426 -5.4976563 3.1718357
0.24480389 -5.2971659 3.3984041
0.24133982 -4.91187 3.3788519
0.23316984 -4.5285254 3.3326123
0.22883764 -4.2117414 3.3081253
0.20156422 -3.7663159 3.1535611
0.22547549 -3.6942797 3.2892001
0.22761855 -3.4885821 3.301415
0.23231913 -3.2127824 3.3281596
0.22665115 -2.997926 3.2960801
0.22469907 -2.8152609 3.2850683
0.2260257 -2.6576262 3.2926459
0.22365345 -2.4926381 3.2792487
0.2171493 -2.3210022 3.2424204
0.22393897 -2.2055242 3.2809725
0.21809183 -2.0517817 3.2478673
0.21780078 -1.8600109 3.2462919
0.21485861 -1.730626 3.2296572
0.21112946 -1.6045332 3.208559
0.21154743 -1.4921157 3.2109773
0.21071339 -1.3800082 3.2062957
0.21046327 -1.2717085 3.2049251
0.21203275 -1.1682647 3.2138731
0.21589293 -1.016866 3.2358358
0.17178018 -0.8738181 2.9857185
0.21156929 -0.80930632 3.2114122
0.20783281 -0.70748019 3.1902702
0.20346792 -0.60757953 3.1655641
0.19831994 -0.50971407 3.1364167
0.19917962 -0.41342971 3.1413405
0.19546577 -0.31805894 3.1203268
-0.22428781 -0.40483975 0.73984027
-0.22505645 -0.38828889 0.73551953
-0.22419725 -0.3751775 0.74041867
-0.22475979 -0.36397108 0.73725414
0.18997234 0.68790835 3.0896924
0.18711644 0.79355305 3.0735517
0.18277405 0.89716977 3.0489802
0.18062606 1.0097729 3.0368569
0.18019952 1.1319028 3.0344999
0.17457214 1.3054239 3.002676
0.1748134 1.4427978 3.004112
0.17721328 1.5971451 3.017796
0.16737428 1.7019955 2.962055
0.13411258 1.6876196 2.7734406
0.10221983 1.6661104 2.5925875
0.076542452 1.6668981 2.4469907
0.03739889 1.5708725 2.2249925
0.03079357 1.6741033 2.1875911
0.0053047547 1.7218403 2.0430918
-0.017567078 1.7001131 1.9133989
-0.037168726 1.6954316 1.8022573
-0.054508265 1.7035755 1.7039491
-0.071476609 1.709177 1.6077452
-0.22135644 0.23493873 0.75728554
-0.22794758 0.2162241 0.71992278
-0.23410708 0.19760112 0.68500805
-0.23961842 0.18300252 0.65377039
-0.24473375 0.16987491 0.62477905
-0.24944758 0.15934844 0.59806561
-0.25576419 0.15222654 0.56227529
-0.25993368 0.14403737 0.53864974
-0.26391912 0.13691257 0.51606828
-0.26772955 0.13191599 0.49447995
-0.27138373 0.13110934 0.4737792
-0.28666076 1.5750635 0.38772357
-0.29899502 1.5715839 0.31779727
-0.3114768 1.577585 0.24703765
-0.32371396 1.5651541 0.17765881
-0.34289572 1.5759429 0.068916395
-0.3556073 1.5729231 -0.0031496636
-0.36869416 1.5750275 -0.077342331
-0.38189688 1.5743296 -0.15219304
-0.39508983 1.5688837 -0.22699015
-0.40899292 1.5709339 -0.305812
-0.42377436 1.5800381 -0.38961262
-0.38241163 0.85662347 -0.15527877
-0.38417086 0.76253504 -0.16526683
-0.39291608 0.75596279 -0.21484165
-0.40025198 0.68612546 -0.25643572
-0.35533804 0.17756419 -0.0018748324
