# .PCD v0.7 - Point Cloud Data file format
VERSION 0.7
FIELDS x y z
SIZE 4 4 4
TYPE F F F
COUNT 1 1 1
WIDTH 1423
HEIGHT 1
VIEWPOINT 0 0 0 1 0 0 0
POINTS 1423
DATA ascii
0.41234252 -0.24266663 0.65397996
0.41234171 -0.21845141 0.6540131
0.66436875 1.703633 2.089402
0.64074749 1.6788596 1.9548981
0.62059957 1.6713325 1.840176
0.60271227 1.675316 1.7383283
0.58577794 1.681663 1.6419083
0.56270289 1.7051988 1.5105275
0.54599535 1.6989241 1.4153993
0.53034413 1.6987253 1.326287
0.50381154 1.5277849 1.1752074
0.48924142 1.5116355 1.0922529
0.47740808 1.537026 1.0248841
0.46469465 1.5445889 0.95250332
0.44579133 1.5533625 0.84488267
0.43306971 1.5503527 0.77245575
0.42037892 1.5407244 0.70020473
0.40798843 1.5344193 0.62966388
0.39590308 1.5395389 0.56086057
0.3837395 1.5322216 0.4916122
0.37169474 1.5494481 0.42304
0.35329702 1.5676811 0.31829932
0.34087574 1.5746996 0.24758309
0.32870537 1.5622911 0.17829619
0.31607968 1.5682014 0.10641599
0.30336386 1.5704823 0.034022544
0.29090324 1.5613184 -0.036917042
0.27811256 1.5573236 -0.10973667
0.27512613 1.3641275 -0.12671457
0.25979137 1.3155156 -0.21400918
0.24407849 1.3641973 -0.30347228
0.27855322 0.74715942 -0.10709209
0.20257525 1.542924 -0.53979337
0.26922107 0.65194517 -0.1601866
0.20593886 1.1979152 -0.52057713
0.29744858 0.19855458 0.0006491454
0.29512548 0.14690404 -0.012541385
0.29479495 0.10667948 -0.014397288
0.29574195 0.060965195 -0.0089772251
0.2957536 0.025282852 -0.0088841766
0.29597974 -0.0090123778 -0.0075697862
0.29590183 -0.03912466 -0.007987068
0.2958352 -0.067358866 -0.0083402693
0.29376242 -0.084158264 -0.020118834
0.29575145 -0.1191687 -0.0087645352
0.29582492 -0.14348462 -0.0083198529
0.29581034 -0.16622248 -0.008376644
0.29597574 -0.18856798 -0.00740834
0.29571733 -0.20847604 -0.0088538779
0.29591095 -0.2290877 -0.0077250595
0.29596704 -0.26705587 -0.0073532616
0.29543334 -0.29268396 -0.010353698
0.29560041 -0.31041169 -0.0093761478
0.29555669 -0.32727656 -0.0095991092
0.29545605 -0.3437123 -0.010146149
0.29546052 -0.36002195 -0.010094619
0.29573822 -0.37637424 -0.0084871016
0.29543644 -0.39186129 -0.010179672
0.29557249 -0.40760842 -0.0093789892
0.29563308 -0.4231261 -0.0090078451
0.29538226 -0.44611841 -0.010397243
0.2955038 -0.46147424 -0.009679216
0.29537213 -0.47682977 -0.010403028
0.29533353 -0.49223644 -0.010596798
0.2952165 -0.50777972 -0.011237422
0.2951948 -0.52340549 -0.011335024
0.29509899 -0.53926766 -0.011854755
0.29493326 -0.55544907 -0.012772663
0.29504573 -0.57975328 -0.012093172
0.29497406 -0.5965485 -0.012475302
0.29501316 -0.61351305 -0.012226777
0.29504305 -0.63978535 -0.012017461
0.29505467 -0.65792632 -0.011925383
0.29472727 -0.677589 -0.013764094
0.29439339 -0.69808525 -0.015639516
0.29421562 -0.71897125 -0.016626006
0.29475859 -0.74904108 -0.013494826
0.29469392 -0.77177638 -0.013837256
0.29439819 -0.79668206 -0.01549546
0.29417798 -0.82270068 -0.016723586
0.2939198 -0.85051334 -0.018167952
0.29505098 -0.88729697 -0.011686887
0.2941778 -0.92328656 -0.016633639
0.29399765 -0.95789081 -0.017633636
0.12124188 -2.3115323 -1.0014302
0.12137037 -2.4498465 -1.0006714
0.1196851 -2.6176071 -1.010242
0.11799546 -2.804435 -1.0198373
0.12436003 -3.0361648 -0.98355001
0.12292233 -3.278645 -0.99171019
0.1209875 -3.5635717 -1.0027014
0.12200998 -3.8551822 -0.99685049
0.12180468 -4.2170739 -0.99799138
0.18075235 -8.2874317 -0.66208971
0.23162991 -8.1271744 -0.37231529
0.30037063 -8.2497864 0.019204564
0.3401604 -10.635969 0.2458473
0.46502694 -10.8514 0.95701754
0.52875793 -10.897866 1.3199922
0.59295321 -10.921254 1.6856071
0.65426999 -10.808895 2.0348287
0.6879499 -4.9976983 2.2267721
0.86773938 -6.0995216 3.2507026
0.86885756 -5.6556177 3.2570915
0.8929556 -5.4851551 3.394346
0.87973255 -4.9918003 3.3190658
0.88603562 -4.7151866 3.3549824
0.87975878 -4.3658738 3.3192594
0.8738482 -4.0525517 3.2856233
0.86356246 -3.7383213 3.2270725
0.89110041 -3.5761828 3.3839259
0.88358182 -3.3241458 3.3411338
0.87612748 -3.0918293 3.2987077
0.87420595 -2.9034522 3.2877891
0.87568891 -2.7419424 3.2962577
0.87697011 -2.5875821 3.3035772
0.85766232 -2.3600297 3.1936526
0.88084459 -2.2333741 3.3257008
0.87443513 -2.0755985 3.2892265
0.86814916 -1.9267191 3.2534559
0.86571401 -1.7959273 3.2396138
0.86391091 -1.6718466 3.2293708
0.86186993 -1.5515803 3.2177737
0.8625862 -1.4408017 3.2218776
0.86345488 -1.2785846 3.2268622
0.86388677 -1.1726731 3.2293468
0.86482936 -1.0690451 3.2347398
0.82134956 -0.92122483 2.9871774
0.86426711 -0.86297119 3.2315891
0.84333497 -0.74916333 3.1124215
0.85375094 -0.65732074 3.1717594
0.84858376 -0.55856425 3.1423624
0.4272925 -0.43311816 0.74353677
0.41535392 -0.42093033 0.67562145
0.41334781 -0.41836238 0.66421461
0.41220948 -0.41086888 0.65776557
0.4117102 -0.40716055 0.65493906
0.41098696 -0.3951692 0.65087003
0.410943 -0.39084378 0.65063614
0.41094974 -0.37272245 0.65074015
0.41229448 -0.35503438 0.65844673
0.41410822 -0.33973449 0.66880715
0.41303521 -0.33202618 0.6627304
0.41192219 -0.32459891 0.65642571
0.41179618 -0.31944823 0.6557247
0.41144893 -0.30334666 0.65379691
0.4113031 -0.29172811 0.65299976
0.41077718 -0.27468923 0.65005475
0.4109247 -0.26018742 0.65092796
0.41078046 -0.238612 0.65015656
0.41132742 -0.21918051 0.6533044
0.66438794 1.7098294 2.0943484
0.64011091 1.6803799 1.9561501
0.61994702 1.6729004 1.8413721
0.60186058 1.6752329 1.7384239
0.57740849 1.6923716 1.5992486
0.56160229 1.7024585 1.5092854
0.5449785 1.6970505 1.4146669
0.53041476 1.7115562 1.3317792
0.50311315 1.5305409 1.1763581
0.488408 1.5125424 1.0926648
0.47651365 1.5369921 1.0249778
0.46379524 1.54456 0.95259839
0.44488439 1.5533412 0.8449797
0.43215764 1.5503365 0.7725535
0.41950986 1.5426937 0.70057732
0.40702975 1.5324246 0.629556
0.39486656 1.5305599 0.56033993
0.38280055 1.5312262 0.49167776
0.37075686 1.5604573 0.42314491
0.3524318 1.55871 0.31886625
0.34007418 1.5647594 0.24854578
0.32772669 1.5633107 0.17828311
0.31511623 1.5682337 0.10652418
0.30246043 1.5685568 0.034507316
0.28977245 1.5652591 -0.037692577
0.27717596 1.5564063 -0.10937139
0.27515352 1.34505 -0.12086275
0.26010096 1.2948972 -0.20650817
0.2430795 1.3642607 -0.30337256
0.28136817 0.75456965 -0.085412107
0.20314924 1.5241283 -0.53061491
0.26790282 0.65553117 -0.16198863
0.16946399 1.5531155 -0.72230953
0.29200131 0.16394031 -0.024686474
0.29401711 0.10514742 -0.013179599
0.29475001 0.06100928 -0.0089753456
0.29452869 0.026813788 -0.010202629
0.29474458 -0.007528964 -0.0089410441
0.29490545 -0.039079972 -0.0079925572
0.29483727 -0.067313924 -0.0083478438
0.29368973 -0.088613056 -0.014847158
0.29461414 -0.11850742 -0.0095519321
0.29482242 -0.14343901 -0.0083331056
0.29466289 -0.16561726 -0.0092079826
0.29467687 -0.1874617 -0.0090953037
0.29471025 -0.20842969 -0.0088720312
0.29490241 -0.22904122 -0.007744798
0.29495549 -0.26700896 -0.0073759179
0.29441926 -0.29263648 -0.010378298
0.29442129 -0.31003827 -0.010333332
0.2945396 -0.3272287 -0.0096264156
0.29460454 -0.34392324 -0.0092234388
0.29460895 -0.3601988 -0.0091648512
0.29471666 -0.37632579 -0.0085182944
0.29475501 -0.39212584 -0.0082665533
0.2945478 -0.40755945 -0.0094126631
0.29449937 -0.43073228 -0.0096382508
0.29435372 -0.44606879 -0.010434007
0.29447377 -0.46142444 -0.0097172381
0.29434055 -0.4767797 -0.010442292
0.29430044 -0.49218613 -0.010637322
0.29418182 -0.50772911 -0.011279215
0.29415861 -0.52335471 -0.011378106
0.29406124 -0.53921658 -0.011899144
0.29406318 -0.55519003 -0.011854946
0.2940042 -0.57970154 -0.012140935
0.29393104 -0.59649658 -0.01252447
0.29364142 -0.61411154 -0.014140076
0.29399636 -0.63973284 -0.012070284
0.29384843 -0.65828007 -0.01287961
0.2939885 -0.6766597 -0.01204938
0.29364753 -0.69709331 -0.013957702
0.29316264 -0.71891755 -0.016685491
0.29285026 -0.7412141 -0.018431373
0.29377928 -0.77114892 -0.013094374
0.29334024 -0.79662764 -0.015561637
0.29311851 -0.8226459 -0.016791983
0.2929894 -0.84980237 -0.017495222
0.29386395 -0.88793653 -0.012469674
0.29335392 -0.92179263 -0.015341953
0.2933951 -0.95486307 -0.015076786
0.12040976 -2.3090312 -0.99978769
0.1210314 -2.443238 -0.99622744
0.11891766 -2.6141527 -1.0082412
0.11674749 -2.8051429 -1.0205785
0.12337368 -3.0342784 -0.98283422
0.12294574 -3.2651432 -0.98526013
0.12122108 -3.5462139 -0.99507302
0.1211248 -3.8513606 -0.99562049
0.12052538 -4.2188005 -0.99903947
0.17892528 -8.3170242 -0.66691196
0.23214701 -8.0395679 -0.36392596
0.29880574 -8.3076487 0.015484719
0.52725416 -10.857076 1.3155096
0.58823055 -10.738705 1.6625867
0.65713745 -10.943342 2.0547671
0.68640405 -4.9876261 2.2222528
0.86175805 -6.0400276 3.2201908
0.87123883 -5.6881943 3.274219
0.89483011 -5.5102386 3.4085331
0.87335759 -4.9416857 3.2864225
0.88253713 -4.6924629 3.3387232
0.87861592 -4.3628912 3.316473
0.87616462 -4.0745258 3.3025839
0.8690514 -3.6652949 3.2621903
0.89097464 -3.5799959 3.3869989
0.88384432 -3.3299153 3.3464756
0.87590241 -3.094713 3.3013313
0.87240332 -2.8985131 3.2814679
0.87453699 -2.7402992 3.2936575
0.87566662 -2.5854342 3.300132
0.85719287 -2.3613431 3.1950479
0.88143474 -2.2382154 3.3330696
0.87307984 -2.0738583 3.285567
0.8690905 -1.9319122 3.262907
0.86558408 -1.7978134 3.2429948
0.86315143 -1.6720395 3.2291925
0.86126971 -1.5521302 3.2185254
0.86002386 -1.4374081 3.2114763
0.86302388 -1.2793262 3.2286108
0.86312217 -1.1728622 3.2292109
0.86440271 -1.0696501 3.2365389
0.8212415 -0.92208982 2.9909456
0.86298525 -0.8627395 3.2285531
0.83894074 -0.74713933 3.091753
0.85297555 -0.65750134 3.1716669
0.85022587 -0.5592345 3.1560583
0.42629489 -0.43311992 0.7435019
0.41234457 -0.41835833 0.66418308
0.41120628 -0.41086432 0.65773499
0.41053396 -0.40304855 0.65393907
0.40960965 -0.39142284 0.64872408
0.40971839 -0.38681009 0.64935833
0.40994856 -0.37271726 0.6507141
0.41145355 -0.35961416 0.65931016
0.41326556 -0.33929238 0.66966933
0.41203707 -0.33202168 0.66270822
0.41092411 -0.32459396 0.6564045
0.41006672 -0.31639463 0.65155548
0.41045171 -0.30334151 0.65377784
0.41030639 -0.29172286 0.65298188
0.40978104 -0.27468371 0.65003854
0.40992916 -0.26018193 0.65091306
0.40966111 -0.23930088 0.64943492
0.41033334 -0.21917512 0.65329301
0.66402704 1.7136807 2.0974784
0.63930798 1.6811103 1.956826
0.61922675 1.6744876 1.8425719
0.60103023 1.6760173 1.7390453
0.5840776 1.6823953 1.6425987
0.55987608 1.6935015 1.5049151
0.5441041 1.6979146 1.4151878
0.52959603 1.7133602 1.3326558
0.50202501 1.5286472 1.1757483
0.48738152 1.5115755 1.0924404
0.4753865 1.5341064 1.0242118
0.46285945 1.5455135 0.9529537
0.4500123 1.546518 0.87987226
0.43143481 1.559198 0.7741977
0.41848734 1.5417067 0.70054257
0.40609896 1.5364099 0.63007164
0.39395535 1.5385518 0.56099516
0.38179401 1.5322411 0.4918164
0.36973917 1.551477 0.42324868
0.35744876 1.5712585 0.3533406
0.33893964 1.5717624 0.24805531
0.32654554 1.5702922 0.17755386
0.31407791 1.5682712 0.10663406
0.30141753 1.5685983 0.034617875
0.28872499 1.5653045 -0.037581552
0.27607936 1.5574213 -0.10951487
0.27283964 1.3690094 -0.12795593
0.26414666 1.3096133 -0.17740536
0.24169476 1.3689563 -0.30511433
0.28026357 0.75553745 -0.085732847
0.20101015 1.5367843 -0.53654265
0.26662001 0.6582312 -0.16331586
0.16872087 1.5497315 -0.72022426
0.29288533 0.17181391 -0.013836323
0.29472566 0.1128253 -0.003345039
0.29532683 0.06861905 9.7590586e-05
0.29500347 0.034450401 -0.0017189645
0.29376933 -0.038344335 -0.0086809434
0.29382685 -0.067273349 -0.0083292024
0.29281262 -0.089215361 -0.014075044
0.29360607 -0.11846714 -0.0095355362
0.29353565 -0.14222293 -0.009911038
0.29380074 -0.16613677 -0.0083772363
0.29381916 -0.18795219 -0.0082466481
0.29370695 -0.20839018 -0.0088593317
0.29374754 -0.2285322 -0.0086023817
0.29411384 -0.26737705 -0.0064657833
0.29394519 -0.28495029 -0.0073990822
0.29358777 -0.31032553 -0.0093930624
0.29370913 -0.32748297 -0.0086760949
0.29360968 -0.34388503 -0.0092154257
0.29378384 -0.36038601 -0.0081977667
0.29355419 -0.37609687 -0.0094779897
0.2935926 -0.3919315 -0.0092327343
0.29372916 -0.40764412 -0.0084289555
0.29351059 -0.43069506 -0.0096326778
0.29359955 -0.43841249 -0.0091131208
0.29348722 -0.46138757 -0.00971244
0.29352802 -0.47670835 -0.0094535556
0.29331604 -0.49214956 -0.010633253
0.29337063 -0.50758851 -0.01029597
0.29317641 -0.52331847 -0.011374752
0.29308015 -0.53918052 -0.011896144
0.29337534 -0.56283933 -0.010176632
0.2931931 -0.57940739 -0.011187387
0.29295385 -0.59646112 -0.012522719
0.29282898 -0.61375087 -0.013207345
0.2926594 -0.63160932 -0.014146366
0.29245433 -0.6501072 -0.015287652
0.29286101 -0.67706317 -0.012934715
0.29267672 -0.6970588 -0.013958111
0.29219291 -0.7188831 -0.016686382
0.29188165 -0.74117976 -0.018432761
0.29189155 -0.76334643 -0.018351706
0.29251313 -0.79599226 -0.014777522
0.29201987 -0.82324129 -0.017560828
0.29202655 -0.84976894 -0.017499097
0.29175586 -0.87944633 -0.019016702
0.29239455 -0.92175967 -0.015347556
0.29232132 -0.95557326 -0.015742494
0.12006104 -2.3042364 -0.99619681
0.1193345 -2.4488325 -1.0003347
0.11842023 -2.6099412 -1.0055448
0.11687041 -2.7949011 -1.0143772
0.11700778 -2.9855366 -1.0136107
0.12213716 -3.2632966 -0.98444498
0.12091887 -3.5379937 -0.99141306
0.12084652 -3.8420928 -0.99186796
0.12057014 -4.2038012 -0.99349803
0.11965192 -4.648777 -0.99880069
0.17835517 -8.3050909 -0.66550738
0.230901 -8.0614071 -0.36643201
0.27451047 -8.2812519 -0.1183193
0.3385359 -10.586918 0.2454596
0.46309504 -10.821465 0.95419419
0.52653551 -10.857086 1.3151857
0.58923626 -10.819125 1.6719625
0.65445274 -10.870281 2.0430596
0.81928724 -7.6077361 2.9819157
0.68563288 -4.9876609 2.2221186
0.71608406 -4.9640822 2.3954136
0.84526551 -6.1022916 3.1301756
0.86465544 -5.6270227 3.240654
0.89465934 -5.5154467 3.4114203
0.87621963 -4.9736218 3.3066604
0.88608485 -4.7277546 3.3628747
0.8778888 -4.3629518 3.3163548
0.87891835 -4.0994601 3.3223009
0.85821998 -3.7129147 3.2046525
0.8904807 -3.5814946 3.3882718
0.88310444 -3.3299735 3.3463883
0.87489969 -3.0934308 3.2997875
0.87417376 -2.9107859 3.2957251
0.87405944 -2.7415862 3.2951393
0.87645513 -2.5919573 3.3088291
0.8544234 -2.3535628 3.1835601
0.87979025 -2.235178 3.3279486
0.87262392 -2.0748811 3.2872379
0.86863738 -1.9328722 3.2646141
0.8651337 -1.7987096 3.2447355
0.86111039 -1.668961 3.2219
0.861148 -1.5536137 3.2221651
0.85909045 -1.4371305 3.21051
0.85992396 -1.2755108 3.2153258
0.86251897 -1.1731516 3.2301373
0.86413896 -1.0703214 3.2394018
0.821136 -0.92282695 2.9948039
0.8630684 -0.8634823 3.2334068
0.84177321 -0.74938303 3.1123033
0.85426873 -0.65838534 3.1834383
0.84858006 -0.55910093 3.1511209
0.42554072 -0.43303058 0.74449468
0.41381559 -0.42978927 0.67782056
0.41141194 -0.41835469 0.6641956
0.41027278 -0.41086069 0.65774763
0.40959972 -0.40304494 0.65395182
0.40904942 -0.39516053 0.65085423
0.4087829 -0.38680664 0.64937121
0.40901241 -0.37271398 0.65072703
0.41035801 -0.36000156 0.65841645
0.41232923 -0.33928964 0.66968238
0.41109985 -0.33201897 0.6627214
0.41024494 -0.32923862 0.65787417
0.4091278 -0.31639194 0.65156883
0.40951243 -0.30333897 0.65379125
0.40884444 -0.28766495 0.65004164
0.40940163 -0.27873904 0.653229
0.40898791 -0.26017976 0.65092671
0.40938726 -0.24335116 0.65323383
0.40939087 -0.21917322 0.65330684
0.66305774 1.7128776 2.0968938
0.63874155 1.6835233 1.958586
0.61815387 1.6728178 1.841493
0.60032749 1.6777025 1.7401133
0.58344454 1.6849834 1.6441011
0.56031024 1.7086385 1.5125459
0.54319561 1.6979078 1.4152132
0.52847868 1.7105931 1.3315262
0.50110108 1.5286428 1.1757733
0.48628268 1.5087359 1.0915027
0.47450233 1.5350598 1.0245256
0.46205384 1.5484087 0.95374525
0.4494175 1.5552847 0.88189512
0.43015057 1.5483646 0.77233982
0.41735983 1.5347747 0.69960785
0.40508059 1.5334263 0.62978899
0.39298603 1.5385523 0.56102252
0.38081941 1.5322419 0.49184403
0.36875924 1.561478 0.42327976
0.35648119 1.5682619 0.35347128
0.33817187 1.5568211 0.24936733
0.32575688 1.5603683 0.17878042
0.31318098 1.5643226 0.10727872
0.30073676 1.5587837 0.036524132
0.28794175 1.5594603 -0.036223698
0.27510142 1.556458 -0.10922966
0.27303082 1.3460582 -0.12102274
0.25825432 1.2911943 -0.20503627
0.24111035 1.3624675 -0.30250344
0.27917776 0.75645918 -0.086093411
0.20420177 1.486447 -0.51234668
0.21292667 1.2304726 -0.46274281
0.20114739 1.2145241 -0.52971309
0.29367739 0.20534882 -0.0035777837
0.29157475 0.17427117 -0.015511516
0.29219985 0.10361161 -0.011922016
0.29272124 0.061049167 -0.0089326408
0.2923848 0.027596634 -0.010820643
0.29275492 -0.038346604 -0.0086637381
0.29268333 -0.066606551 -0.0090439171
0.29219472 -0.091147237 -0.011795282
0.29259017 -0.11847024 -0.009518859
0.29265928 -0.14281434 -0.0090978788
0.29278395 -0.16614044 -0.0083608609
0.29265502 -0.18742591 -0.0090655154
0.29268909 -0.20839439 -0.0088431826
0.29288206 -0.22900641 -0.0077168695
0.29309458 -0.26738209 -0.0064499364
0.2929253 -0.28495559 -0.0073832907
0.2925669 -0.31033126 -0.0093773296
0.29252216 -0.32719633 -0.0096021872
0.2925877 -0.34389135 -0.0091997813
0.29259267 -0.36016735 -0.0091417152
0.29253104 -0.37610373 -0.0094623938
0.29273993 -0.39209536 -0.0082443971
0.2925331 -0.40752935 -0.0093909027
0.29259279 -0.4230473 -0.0090214321
0.29240119 -0.43836781 -0.010081067
0.29246083 -0.46139595 -0.0096968142
0.29232803 -0.47675163 -0.010422192
0.29228839 -0.4921585 -0.010617542
0.29234242 -0.50759768 -0.010280214
0.29214749 -0.52332795 -0.01135892
0.29205057 -0.53919029 -0.011880234
0.29205301 -0.55516422 -0.011836313
0.29216209 -0.57941788 -0.011171275
0.29192209 -0.59647185 -0.012506478
0.29179651 -0.61376196 -0.013190974
0.29162624 -0.63162065 -0.014129847
0.29142043 -0.65011883 -0.015270967
0.29167074 -0.67751324 -0.013803187
0.29148844 -0.69754034 -0.014810832
0.29115662 -0.71889567 -0.016669044
0.29084459 -0.74119264 -0.018415168
0.29177526 -0.77112836 -0.013078576
0.29161307 -0.79540426 -0.013972621
0.29138437 -0.82136792 -0.015245566
0.29111731 -0.84912723 -0.016736763
0.29071507 -0.87946075 -0.018997466
0.29159373 -0.92033625 -0.013959086
0.29151091 -0.95410246 -0.014403787
0.11934853 -2.3011119 -0.99371791
0.11890643 -2.443198 -0.99622589
0.11747142 -2.6083112 -1.0043855
0.11517499 -2.8000169 -1.0174496
0.11542868 -2.9898953 -1.0160108
0.12091313 -3.2642171 -0.9848246
0.12043 -3.5298681 -0.98759228
0.11976473 -3.841203 -0.99140555
0.11991523 -4.1963649 -0.9905889
0.1173698 -4.6677175 -1.0051285
0.17820737 -8.2645216 -0.65972716
0.23117056 -7.9858508 -0.35844442
0.27398267 -8.2353868 -0.11500287
0.33721322 -10.674921 0.24409868
0.52760565 -10.990579 1.32682
0.58896494 -10.849887 1.6758469
0.65215528 -10.818905 2.0352325
0.6843887 -4.9820776 2.2199726
0.713696 -4.9439588 2.3866704
0.85162914 -6.1867518 3.1708107
0.87346566 -5.7267041 3.2951241
0.89543128 -5.5299764 3.4201016
0.87131655 -4.9366698 3.2831225
0.88633072 -4.7359033 3.3685703
0.87943041 -4.3804803 3.3294322
0.87729615 -4.0931959 3.3173823
0.85439157 -3.6924889 3.1872449
0.88129407 -3.6401069 3.3402631
0.88111144 -3.3229768 3.3393295
0.87762332 -3.1114554 3.3195641
0.87315679 -2.9094515 3.2942326
0.87371731 -2.7433851 3.2974801
0.87472409 -2.5877917 3.3032625
0.85193866 -2.3468022 3.1737709
0.87536949 -2.292701 3.3070436
0.86722255 -2.1263456 3.2607763
0.86664885 -1.9291869 3.257592
0.86453491 -1.7990811 3.2456229
0.86258453 -1.6743835 3.2345827
0.86119872 -1.5553548 3.2267516
0.86111569 -1.4426173 3.2263267
0.85911894 -1.3292098 3.2150199
0.85937256 -1.222479 3.2165082
0.86321378 -1.0700583 3.2384169
0.8203575 -0.92277765 2.9947824
0.86265546 -0.86370528 3.2353308
0.83773309 -0.74733841 3.0936658
0.85160774 -0.65755922 3.1726005
0.84972101 -0.55943239 3.1619151
0.42455074 -0.43303913 0.74449831
0.41071215 -0.42249569 0.66587824
0.40956116 -0.41923234 0.6593504
0.40876585 -0.41149461 0.65486199
0.40808007 -0.39948377 0.6510132
0.40778315 -0.3868179 0.64937544
0.4080126 -0.37272525 0.65073091
0.40919942 -0.36040309 0.65751314
0.41153991 -0.34411833 0.6708557
0.4104889 -0.33630326 0.66491336
0.40924549 -0.32924971 0.65787673
0.40812764 -0.31640324 0.65157115
0.40851244 -0.30335021 0.65379316
0.40836641 -0.29173172 0.6529969
0.40783978 -0.2746928 0.6500532
0.40785673 -0.260847 0.65018386
0.40759382 -0.24000475 0.64874005
0.40827039 -0.21990372 0.65262175
0.66402483 1.7263066 2.1071146
0.63798434 1.6843638 1.959077
0.61873734 1.6852789 1.849671
0.59972411 1.680271 1.7415942
0.58273047 1.6867368 1.6450018
0.56578332 1.6872489 1.5486735
0.54258096 1.7015471 1.4167966
0.52769935 1.7124459 1.3322141
0.50029421 1.5305164 1.1764061
0.48562598 1.5134667 1.0930353
0.47371009 1.53793 1.025318
0.4611485 1.5493735 0.95392835
0.44850016 1.5562558 0.88204533
0.43555218 1.5506908 0.80845749
0.41633925 1.5327842 0.69926405
0.40413859 1.5354028 0.62992698
0.39186877 1.5275642 0.56019592
0.37982944 1.5322243 0.49177688
0.3677637 1.551458 0.4232094
0.35549223 1.5662403 0.35347214
0.34318694 1.5665424 0.28354123
0.3246991 1.562324 0.17847534
0.31215957 1.56429 0.10721362
0.29941219 1.5675834 0.034770861
0.28679168 1.5623453 -0.036951255
0.27401739 1.5573826 -0.10954723
0.26889941 1.4043556 -0.13862705
0.26246506 1.3029522 -0.17518599
0.24011725 1.3614908 -0.3021881
0.27846545 0.75181508 -0.084201396
0.20168673 1.5034679 -0.52060193
0.18388633 1.5341915 -0.62176782
0.20076159 1.2075355 -0.52582073
0.29051971 0.17423193 -0.015519262
0.29061067 0.10751313 -0.014957573
0.29133067 0.063308395 -0.010834315
0.29259333 0.036674336 -0.0036410992
0.29157177 -0.037691645 -0.0093707321
0.29149544 -0.065977246 -0.009773165
0.29140019 -0.092473485 -0.010283074
0.29152989 -0.11851063 -0.009514017
0.29145837 -0.14226687 -0.009888581
0.2915791 -0.1656217 -0.0091702044
0.29159325 -0.18746677 -0.0090575255
0.29162684 -0.20843539 -0.0088342158
0.29166648 -0.22857784 -0.0085764229
0.29185534 -0.24838792 -0.0074702855
0.29171464 -0.26660952 -0.0082374606
0.29101276 -0.29192778 -0.012178531
0.29117459 -0.30972159 -0.011225716
0.29129133 -0.32694581 -0.010529215
0.29152215 -0.34393358 -0.0091842031
0.29152668 -0.36020976 -0.0091253081
0.29146463 -0.37614632 -0.0094451597
0.29150209 -0.39198136 -0.0091990996
0.29163778 -0.40769437 -0.0083945217
0.29135254 -0.42300296 -0.0099828541
0.29150602 -0.43846366 -0.0090770107
0.2914069 -0.4537777 -0.0096073607
0.29143187 -0.47676066 -0.0094152829
0.29121867 -0.49220237 -0.010594051
0.29109997 -0.50774598 -0.011235366
0.29107681 -0.52337217 -0.01133367
0.29097939 -0.5392347 -0.011854077
0.29098135 -0.55520874 -0.011809242
0.29125708 -0.57920408 -0.010191447
0.29084915 -0.59651685 -0.012477004
0.29088682 -0.61348182 -0.012229171
0.29055211 -0.63166606 -0.014098288
0.29050514 -0.64977396 -0.014331593
0.2909067 -0.67668277 -0.011998262
0.29041228 -0.69758636 -0.014775325
0.29007968 -0.71894199 -0.016632229
0.2900607 -0.74017978 -0.016706292
0.2900627 -0.76228833 -0.016661033
0.29067236 -0.7948494 -0.013144482
0.29016969 -0.82204401 -0.015968047
0.29016715 -0.84851855 -0.015948495
0.29001325 -0.8774628 -0.016789462
0.29063118 -0.91966456 -0.013225577
0.29031098 -0.95489305 -0.015011695
0.11241961 -2.2773883 -1.026222
0.1177129 -2.4432983 -0.99607575
0.11636969 -2.6075835 -1.0036741
0.11516413 -2.7890961 -1.0104899
0.11456531 -2.9865341 -1.0138562
0.11264724 -3.2239451 -1.0247215
0.11884049 -3.5345011 -0.98945743
0.12069996 -3.8118525 -0.97884792
0.11873512 -4.1955342 -0.98997724
0.11887904 -4.6214952 -0.98911828
0.17742604 -8.2418327 -0.65605932
0.22917132 -8.0237122 -0.36187404
0.27260891 -8.2414284 -0.11491086
0.3049902 -10.670249 0.069227137
0.4620012 -10.954285 0.96185511
0.52553338 -10.938749 1.3230391
0.58619171 -10.778376 1.6678834
0.65149522 -10.839579 2.0391183
0.81241947 -8.3777933 2.9539418
0.67990249 -4.9328523 2.2007108
0.71230865 -4.9393005 2.3849444
0.8520605 -6.2036958 3.1793537
0.85672438 -5.7793145 3.2058878
0.89329684 -5.5186815 3.4138081
0.87525266 -4.9801455 3.3112679
0.88487613 -4.7316585 3.3659949
0.87681073 -4.3675547 3.3201776
0.87547863 -4.086833 3.312633
0.85571915 -3.7074487 3.2003481
0.88059741 -3.6414237 3.3417845
0.8741523 -3.3896418 3.3051796
0.87837434 -3.1200106 3.3292212
0.87276751 -2.9118793 3.2973821
0.87334687 -2.7457042 3.3007054
0.87381101 -2.5876467 3.3033736
0.85130805 -2.3477838 3.1755013
0.87519681 -2.2952061 3.3113112
0.86916548 -2.1357064 3.2770617
0.86759645 -1.9344944 3.2681906
0.86363107 -1.7989389 3.2456841
0.86120319 -1.6730689 3.2319167
0.85964984 -1.5537791 3.2231197
0.85906833 -1.4401954 3.2198472
0.85788745 -1.3284836 3.2131679
0.85830641 -1.2220787 3.2155817
0.86197907 -1.0694994 3.2365048
0.81910354 -0.92230141 2.9928515
0.86210424 -0.86384124 3.2372825
0.84044778 -0.74940348 3.1142304
0.85070992 -0.65741986 3.1725895
0.84813011 -0.55915302 3.1579611
0.84512866 -0.46216267 3.1409364
0.42346349 -0.43304175 0.7445057
0.40948766 -0.41819909 0.6651774
0.40767422 -0.40717065 0.65493268
0.40661433 -0.39573014 0.64897066
0.40667915 -0.38682541 0.64938033
0.40690657 -0.37273252 0.65073472
0.40793294 -0.36080039 0.6566093
0.41006717 -0.33974445 0.66880095
0.40953413 -0.33585557 0.66579205
0.40772411 -0.32510865 0.65556741
0.40745011 -0.32048789 0.65403086
0.40739712 -0.30335662 0.65379184
0.40672612 -0.2876828 0.65004075
0.4067204 -0.27469915 0.65004992
0.40673587 -0.26085326 0.65017956
0.40701145 -0.24473216 0.65178752
0.40702555 -0.22062877 0.65193039
0.66270155 1.7240232 2.1051507
0.63727242 1.6868618 1.9606743
0.61673921 1.6770551 1.8440236
0.5987761 1.6811777 1.7419797
0.58142036 1.6841925 1.6433884
0.56504852 1.690828 1.5503895
0.54143304 1.7006811 1.4162469
0.52681851 1.7152427 1.3332366
0.49938121 1.5333432 1.177346
0.48440444 1.511597 1.0922762
0.47259346 1.5379475 1.0252002
0.45984396 1.5455236 0.95279044
0.44721067 1.5523677 0.88104141
0.43421158 1.5448062 0.80721331
0.41520858 1.5337734 0.69928855
0.40292102 1.5324143 0.62950563
0.39085475 1.5405231 0.56098127
0.3786557 1.5332106 0.49170181
0.36657551 1.5534409 0.42310008
0.35430145 1.5652199 0.35339677
0.34209016 1.557539 0.28404927
0.32326987 1.5722185 0.17717049
0.31090546 1.5652422 0.10695418
0.29820931 1.5665623 0.03485392
0.28546897 1.5642506 -0.037497211
0.27271885 1.5583007 -0.10990375
0.26845235 1.3890042 -0.13411544
0.26137191 1.3000637 -0.17431067
0.23896903 1.3595773 -0.30153805
0.22407639 1.3839669 -0.38611451
0.20706701 1.4242944 -0.48271701
0.19867514 1.2152586 -0.53032595
0.29118434 0.20694697 -0.0046854252
0.28956446 0.17173272 -0.013849159
0.29161346 0.11114734 -0.0021678414
0.29178628 0.070093103 -0.0011457299
0.29122332 0.037388735 -0.0043037762
0.29136363 -0.028725494 -0.0034250875
0.28997597 -0.064679101 -0.011247764
0.29000407 -0.091870897 -0.011047036
0.29012859 -0.11793498 -0.010298297
0.29019222 -0.14230698 -0.0098956181
0.2901679 -0.1651023 -0.0099924216
0.29032433 -0.18750665 -0.0090622203
0.29020643 -0.20797496 -0.0096906796
0.29039478 -0.22861749 -0.008579012
0.29058233 -0.24842741 -0.0074718818
0.29044017 -0.26664895 -0.0082381247
0.29042485 -0.28466168 -0.0082835285
0.29037082 -0.30209476 -0.0085488725
0.29059896 -0.31963778 -0.0072110808
0.29007384 -0.34371361 -0.010132261
0.29024443 -0.36024868 -0.0091213072
0.29001081 -0.37599418 -0.010407118
0.29004589 -0.3918635 -0.010166233
0.29035151 -0.40773299 -0.0083882222
0.29006475 -0.42304155 -0.0099757882
0.29021701 -0.43850213 -0.0090692174
0.29011649 -0.45381609 -0.0095988233
0.28996629 -0.47683361 -0.010389904
0.2900978 -0.49217102 -0.0096011637
0.28997725 -0.50767982 -0.010244744
0.28978041 -0.52341026 -0.011321779
0.28968167 -0.53927267 -0.011841422
0.28968245 -0.55524665 -0.011795827
0.28944752 -0.57179481 -0.013089352
0.28971294 -0.59626234 -0.011519705
0.28958368 -0.61351937 -0.012212974
0.28924766 -0.63170367 -0.014081184
0.28961882 -0.65793341 -0.011911206
0.28896406 -0.66898453 -0.015611039
0.28925708 -0.69715428 -0.013885321
0.28907052 -0.71797961 -0.014904872
0.28860331 -0.74074674 -0.01751921
0.28860769 -0.76288444 -0.017454159
0.28850716 -0.78652477 -0.01798548
0.28885639 -0.82208085 -0.015941687
0.28872231 -0.84921116 -0.016664263
0.2888253 -0.87681764 -0.016039951
0.28919545 -0.92042005 -0.013878731
0.28911114 -0.95418644 -0.014319636
0.11190993 -2.2712688 -1.0211394
0.11694861 -2.4385395 -0.9924702
0.11567612 -2.6018763 -0.99967784
0.11352056 -2.7917354 -1.0119063
0.11415622 -2.9771044 -1.0082773
0.11210458 -3.2152126 -1.0199231
0.11844974 -3.5228143 -0.98385549
0.11835074 -3.825752 -0.98441917
0.11840797 -4.1806917 -0.98410362
0.11920969 -4.5941701 -0.97956824
0.17559254 -8.2706232 -0.65960807
0.22826216 -8.0128279 -0.36032608
0.27168229 -8.2294989 -0.11366469
0.30474362 -10.553349 0.073814116
0.4591397 -10.731564 0.95094085
0.52473682 -10.938703 1.323571
0.58782583 -10.890469 1.6819322
0.64745414 -10.718001 2.02069
0.68229419 -4.9800458 2.2197058
0.71331471 -4.963861 2.3959394
0.84986401 -6.1864634 3.1713858
0.85017902 -5.716465 3.1732805
0.89191997 -5.5125141 3.4104497
0.87267315 -4.9640484 3.301245
0.88359016 -4.7273993 3.3633227
0.87881958 -4.3889604 3.3363106
0.87771326 -4.1084366 3.3301032
0.85293657 -3.6944637 3.1894689
0.89098829 -3.5991199 3.4056661
0.88070983 -3.330313 3.3473594
0.87674415 -3.1158357 3.3249011
0.8711015 -2.9078646 3.2929165
0.87219828 -2.7443154 3.2992055
0.87349075 -2.5898411 3.3066046
0.85054624 -2.3481934 3.1763525
0.87445152 -2.295579 3.312176
0.86631089 -2.1290498 3.2659979
0.86560321 -1.9311615 3.2620614
0.86349696 -1.8009001 3.2501533
0.8599574 -1.6721357 3.2301047
0.85839361 -1.5529114 3.2212768
0.85763896 -1.439068 3.2170439
0.8566128 -1.327749 3.2112694
0.85769409 -1.2224473 3.217464
0.86136669 -1.0697653 3.238404
0.8189733 -0.92303413 2.9976707
0.86062866 -0.8632735 3.2343197
0.8355031 -0.74685287 3.0916631
0.84921455 -0.65706444 3.1695969
0.84749418 -0.55907857 3.1598799
0.845007 -0.46202016 3.1458075
0.42222545 -0.43303123 0.74449533
0.40824336 -0.41819298 0.66516805
0.40659159 -0.41128883 0.65582275
0.40537044 -0.39572495 0.64896083
0.40543595 -0.3868202 0.64937019
0.40618405 -0.38086212 0.65363848
0.40699375 -0.36495525 0.65829444
0.40935028 -0.34369543 0.67173779
0.40829474 -0.33584955 0.66577971
0.40689474 -0.32925057 0.65786493
0.40635949 -0.31996763 0.65486252
0.40615851 -0.30335128 0.65377867
0.405871 -0.29232046 0.65218431
0.40604523 -0.27875128 0.65321308
0.4061029 -0.26490977 0.65358019
0.40577415 -0.244727 0.65177226
0.40578845 -0.22062363 0.65191424
0.66096389 1.7201658 2.1019943
0.63707548 1.6950253 1.9663448
0.61677289 1.6878994 1.8510683
0.59900934 1.6948078 1.7502177
0.58026093 1.6851157 1.6437684
0.56346774 1.6873488 1.5484287
0.54668617 1.6827924 1.4531528
0.53210932 1.6988182 1.3704065
0.49803841 1.532442 1.1768965
0.48311728 1.5116251 1.0921825
0.47129866 1.5379719 1.0251069
0.4585422 1.5455441 0.95269841
0.44613591 1.5582305 0.88228095
0.43306214 1.5497273 0.80806494
0.41986588 1.5266018 0.73314816
0.4016276 1.5344068 0.62962747
0.38950664 1.5395259 0.56082922
0.37732011 1.5342065 0.49165499
0.36522663 1.5544339 0.42301959
0.3529276 1.5682075 0.35321456
0.34048638 1.5774765 0.28260073
0.32826355 1.5653021 0.21321897
0.30950168 1.5662071 0.10672601
0.29682648 1.5665358 0.034781139
0.28415832 1.5622715 -0.037125569
0.27141425 1.5563352 -0.10946363
0.26579896 1.4128782 -0.14137223
0.25959453 1.3066459 -0.17661175
0.24291968 1.3748933 -0.27124223
0.27594438 0.75081635 -0.08391013
0.2011634 1.4772754 -0.50823683
0.18406683 1.5022665 -0.60527813
0.16500019 1.5373942 -0.71350294
0.28980395 0.20775779 -0.0052389442
0.2882812 0.17170441 -0.013864839
0.29023212 0.11191832 -0.002773867
0.29062256 0.069288269 -0.0005379041
0.29006732 0.036606293 -0.0036682114
0.29022342 -0.029460255 -0.0027365903
0.28884554 -0.0653762 -0.01052215
0.28874782 -0.091898702 -0.011052102
0.28873873 -0.11734692 -0.011078293
0.2886613 -0.1411588 -0.01149201
0.28877664 -0.16457058 -0.010810951
0.28907973 -0.18753415 -0.0090634711
0.28896442 -0.20800245 -0.0096910968
0.28915554 -0.22864486 -0.0085786246
0.28918993 -0.24801618 -0.0083558373
0.28920612 -0.26667622 -0.0082362294
0.2891933 -0.28468892 -0.0082809189
0.28897876 -0.30177978 -0.0094709825
0.28920755 -0.3193557 -0.0081437388
0.2892215 -0.33608866 -0.0080361087
0.28934458 -0.35263905 -0.0073088757
0.28896275 -0.37621218 -0.0094341738
0.28900132 -0.39204708 -0.0091867438
0.28879395 -0.40751582 -0.010335765
0.2890265 -0.42315575 -0.0089866985
0.28883526 -0.43847644 -0.010044147
0.2889103 -0.45384285 -0.0095896814
0.28873149 -0.4691835 -0.010576697
0.28889769 -0.49219763 -0.0095906081
0.28877953 -0.5077064 -0.010233616
0.28875679 -0.52329785 -0.010334798
0.28848878 -0.53929925 -0.011829138
0.28878486 -0.56295824 -0.010106295
0.28843501 -0.57978547 -0.012065907
0.28852895 -0.59628874 -0.011505431
0.28823832 -0.61387122 -0.013129349
0.28823072 -0.63137186 -0.013146195
0.28802344 -0.64983779 -0.014297488
0.28794777 -0.66858846 -0.014701609
0.28738895 -0.68940842 -0.017850775
0.28790432 -0.71800584 -0.014886494
0.28758708 -0.74024326 -0.01666479
0.28759128 -0.76235163 -0.016617756
0.28834331 -0.79431033 -0.012312064
0.28797394 -0.82084841 -0.014389041
0.28770471 -0.84858125 -0.015898336
0.28742692 -0.87820739 -0.017457325
0.28704923 -0.910519 -0.019585175
0.28797621 -0.95421219 -0.014293973
0.1113484 -2.2674539 -1.0179602
0.11647197 -2.4337547 -0.98891228
0.11508767 -2.5978005 -0.99683499
0.11310717 -2.7858691 -1.0081581
0.11355097 -2.9728439 -1.0057154
0.11271425 -3.1976244 -1.0105673
0.1103625 -3.4723284 -1.0240526
0.11847604 -3.8110924 -0.97813785
0.11661331 -4.1938286 -0.98891473
0.11657378 -4.6235476 -0.98936915
0.17619094 -8.2241344 -0.65292096
0.22773446 -8.012867 -0.36010033
0.26993424 -8.3342714 -0.12066658
0.30407107 -10.621329 0.07175415
0.45914948 -10.751519 0.95224559
0.52336752 -10.856982 1.3168209
0.58426046 -10.728633 1.6626712
0.64846748 -10.758434 2.0272753
0.67810106 -4.9289722 2.1995521
0.71002179 -4.9290605 2.3808532
0.85084873 -6.2034211 3.1797497
0.85358518 -5.758728 3.1956196
0.87778091 -5.581883 3.3331726
0.87257242 -4.968112 3.3040602
0.88349372 -4.7313614 3.3662748
0.87933999 -4.3976121 3.3429489
0.87574613 -4.0989752 3.3227799
0.85246152 -3.6958449 3.1908634
0.87965131 -3.6447833 3.3453405
0.88022506 -3.3315637 3.3488698
0.87431079 -3.1069977 3.3154764
0.87165105 -2.9141555 3.3005433
0.87167543 -2.7454078 3.3008368
0.87197679 -2.5867615 3.3026965
0.84812254 -2.3419068 3.1674414
0.87331438 -2.2943764 3.3105731
0.86559922 -2.1294088 3.2669137
0.86487478 -1.9314733 3.2629969
0.86275697 -1.8011802 3.2511003
0.85888624 -1.6716026 3.229249
0.85763109 -1.5531271 3.2222435
0.85719424 -1.4399016 3.2198818
0.85549819 -1.3273125 3.2103686
0.85623175 -1.221525 3.214648
0.85797805 -1.1187478 3.2246768
0.81797469 -0.92289895 2.9977002
0.8611775 -0.86437744 3.2431235
0.83759391 -0.74859411 3.1093166
0.84957802 -0.65747571 3.1774762
0.84663665 -0.55896556 3.1608808
0.84223145 -0.461871 3.135972
0.42126939 -0.4329375 0.7455042
0.40710899 -0.41819119 0.66519696
0.40511858 -0.40305704 0.6539821
0.40473187 -0.3948977 0.65183055
0.40487951 -0.38118675 0.65273684
0.40538889 -0.36118457 0.65572107
0.40804833 -0.34411615 0.67087436
0.40714857 -0.33584818 0.66580904
0.40533656 -0.32510257 0.65558451
0.40477192 -0.31587452 0.65242302
0.40500751 -0.3033509 0.65380806
0.40471861 -0.29232022 0.65221363
0.40489131 -0.27875105 0.65324217
0.40434217 -0.26084819 0.65019375
0.40461645 -0.24472699 0.65180069
0.40462834 -0.22062369 0.65194201
0.66024113 1.724205 2.1049385
0.63602209 1.696734 1.9674165
0.61435151 1.6780348 1.8443726
0.59618783 1.6804682 1.7412575
0.5779599 1.6747934 1.6377721
0.56236762 1.6891774 1.5492673
0.54549861 1.6837474 1.4534985
0.52413982 1.7134901 1.332271
0.49684295 1.5334127 1.1771721
0.48169136 1.5088198 1.091144
0.4701415 1.5399107 1.0256047
0.45728338 1.5455652 0.95261937
0.44475976 1.5553234 0.88153583
0.43186942 1.5517012 0.80836093
0.4186357 1.5275943 0.73322338
0.40037078 1.5344039 0.62954742
0.38813013 1.5295421 0.56006044
0.37606478 1.5341932 0.49157405
0.36397129 1.5544152 0.4229368
0.35166046 1.570182 0.35306174
0.33932981 1.5694661 0.28306413
0.32699326 1.5662612 0.21303093
0.30819747 1.5681386 0.10633187
0.29591018 1.5566694 0.036572598
0.2828342 1.5641646 -0.037655704
0.27008069 1.5582051 -0.11006074
0.26649246 1.3764731 -0.13051143
0.25847745 1.3046868 -0.17604125
0.24193832 1.3710829 -0.26990712
0.21946763 1.4094142 -0.39746317
0.20275202 1.4439225 -0.49235147
0.26422122 0.66735882 -0.14364308
0.24378097 0.73877233 -0.25964704
0.28842854 0.20937884 -0.0063010338
0.28709656 0.17164695 -0.013851387
0.28894517 0.11266016 -0.0033482395
0.28900489 0.072340019 -0.00299502
0.2891154 0.035039201 -0.0023515811
0.28816214 0.0072379485 -0.0077448445
0.28880101 -0.028104028 -0.0040990845
0.28875604 -0.05713588 -0.0043339026
0.28857499 -0.083671287 -0.0053402553
0.28756505 -0.11740679 -0.011040202
0.28776908 -0.14239471 -0.0098582506
0.28760451 -0.16463104 -0.010768415
0.28776118 -0.18706481 -0.0098538594
0.2876434 -0.20756339 -0.010497197
0.28798532 -0.22870606 -0.0085297991
0.28786436 -0.24763924 -0.009190199
0.28803691 -0.26673803 -0.0081835082
0.28786382 -0.28437635 -0.0091394167
0.28813642 -0.30252644 -0.0075636907
0.28761852 -0.32707533 -0.010463362
0.28788733 -0.33587599 -0.0089226151
0.28768802 -0.36011431 -0.010012507
0.2877962 -0.37627611 -0.0093695363
0.28766382 -0.39195478 -0.010092996
0.28762802 -0.40758044 -0.010267542
0.28768808 -0.42313334 -0.0098977573
0.28766987 -0.43854165 -0.0099723004
0.28773093 -0.46157017 -0.0095821116
0.28759885 -0.47692636 -0.010303476
0.28756011 -0.49233362 -0.010494803
0.28761509 -0.50777304 -0.01015345
0.28759256 -0.52336478 -0.010252726
0.28749552 -0.53919309 -0.010775209
0.28715867 -0.55554879 -0.012660331
0.28709599 -0.57188952 -0.012987892
0.28753123 -0.59606493 -0.010472542
0.28723899 -0.61361462 -0.01210488
0.28706759 -0.63144112 -0.013050773
0.28670096 -0.65029818 -0.015106405
0.28678501 -0.66865849 -0.014601583
0.28692532 -0.69725096 -0.01376402
0.28659171 -0.71857661 -0.015633266
0.28642479 -0.74031454 -0.016555903
0.28671643 -0.76130491 -0.014873117
0.28704247 -0.79498386 -0.012982962
0.28681177 -0.82092065 -0.01427013
0.28680429 -0.84734184 -0.014289444
0.28639188 -0.87759852 -0.016611196
0.28701484 -0.9197998 -0.01303883
0.28704625 -0.9527995 -0.012840779
0.10962767 -2.2722943 -1.0214247
0.11540506 -2.4339302 -0.9886387
0.11402319 -2.5979776 -0.99654359
0.11186193 -2.7877443 -1.0088902
0.11257744 -2.9721572 -1.0048904
0.11116856 -3.2031026 -1.0129848
0.10801746 -3.4877906 -1.031006
0.11701384 -3.8167942 -0.98002136
0.11692537 -4.173471 -0.98068172
0.11653785 -4.606709 -0.98308218
0.1728625 -8.3173676 -0.66488767
0.22594838 -8.0507765 -0.36310649
0.26964882 -8.264533 -0.11490422
0.3026399 -10.67037 0.071275815
0.45691231 -10.642642 0.94788241
0.52176732 -10.835994 1.3162934
0.58487159 -10.818851 1.6748416
0.65018255 -10.869901 2.0459342
0.67853481 -4.9547796 2.2104747
0.70960695 -4.941678 2.3870528
0.84937292 -6.2031679 3.1804819
0.85259855 -5.763773 3.199075
0.89053798 -5.5181084 3.4147999
0.87033731 -4.9611435 3.3003595
0.88539493 -4.7589502 3.3860431
0.87535769 -4.3781862 3.3292496
0.87743992 -4.1212592 3.3412437
0.85111761 -3.6963601 3.1919544
0.87818408 -3.644531 3.3457789
0.87013179 -3.3834441 3.3001974
0.86655718 -3.1671662 3.2800307
0.86993426 -2.9126289 3.2993894
0.87036473 -2.7457845 3.3019483
0.87137496 -2.5900512 3.3077946
0.84755534 -2.3450396 3.1726301
0.87364292 -2.3005021 3.3208797
0.86401993 -2.1286812 3.2663267
0.85908914 -1.9818298 3.2384164
0.86165363 -1.8018044 3.2531142
0.86018777 -1.6780281 3.244875
0.85590011 -1.5521957 3.2206061
0.85497183 -1.4380612 3.2154148
0.85476387 -1.3282723 3.2143123
0.85450345 -1.2207993 3.2129107
0.85726458 -1.1194408 3.2286694
0.8171165 -0.92323506 3.000742
0.85928416 -0.86375636 3.240325
0.83588219 -0.74819452 3.1074719
0.84994256 -0.65797937 3.1874063
0.84475744 -0.55866998 3.1580236
0.41992494 -0.43873695 0.7450285
0.40598699 -0.42250663 0.6659652
0.40454441 -0.41088483 0.65783608
0.40404293 -0.40717712 0.65500903
0.40298149 -0.39573804 0.64904469
0.40280947 -0.38282809 0.64813262
0.4044399 -0.36534223 0.65746015
0.4067978 -0.34412891 0.67092073
0.4055073 -0.33157319 0.66365534
0.40449703 -0.32926372 0.65793788
0.40396053 -0.31998134 0.65493393
0.40375766 -0.30336547 0.6538474
0.40346894 -0.29233503 0.6522513
0.40364185 -0.27876592 0.65327805
0.40356547 -0.2655673 0.65288854
0.4033677 -0.24474229 0.65183204
0.40338016 -0.22063918 0.65197045
0.65937263 1.7266424 2.1066535
0.63391906 1.6895169 1.9621038
0.61452478 1.6896964 1.8519819
0.595007 1.6805166 1.7411562
0.57799459 1.6869587 1.6445658
0.56127322 1.6900959 1.5496281
0.54417259 1.6819792 1.4525338
0.52290177 1.7125911 1.3317837
0.49566638 1.5334249 1.1770812
0.48090968 1.5154452 1.0932996
0.46896708 1.5399135 1.0255139
0.45624438 1.5484616 0.95329332
0.44354817 1.5543436 0.8812232
0.43036643 1.5418751 0.80639094
0.41765177 1.5344943 0.73421359
0.39921543 1.5353793 0.62956214
0.38694406 1.5285219 0.55990422
0.37494451 1.5431617 0.49179649
0.36279684 1.5623857 0.4228493
0.35049829 1.5681506 0.35304233
0.33815432 1.5694304 0.28297675
0.32583445 1.5652279 0.21304731
0.30712694 1.5641445 0.10686244
0.29466239 1.5585865 0.036112662
0.28165093 1.5641155 -0.037739422
0.26893979 1.5571873 -0.10988843
0.26478916 1.3859839 -0.13346325
0.25727612 1.3046331 -0.17610979
0.24073683 1.3710259 -0.26997805
0.2199565 1.3874273 -0.3879216
0.20260963 1.431275 -0.48637977
0.25958031 0.65709817 -0.16299799
0.24245647 0.73958415 -0.26017913
0.28563666 0.17324106 -0.014997087
0.2876806 0.11261664 -0.0033621136
0.28773719 0.072296843 -0.0030075733
0.28761709 0.0365059 -0.0036551855
0.28632125 -0.005540933 -0.010959335
0.28752476 -0.028146226 -0.0041088182
0.28735027 -0.056495715 -0.0050631985
0.2862905 -0.091999806 -0.011024761
0.28627977 -0.117448 -0.011048173
0.28648135 -0.14243554 -0.0098658381
0.28631437 -0.16467156 -0.010775737
0.28632161 -0.186575 -0.010696107
0.28649879 -0.20810324 -0.0096512726
0.28653505 -0.228276 -0.0094062081
0.28672087 -0.24811676 -0.0083118388
0.28689376 -0.26718354 -0.0072906069
0.28672075 -0.28478941 -0.0082331616
0.28666741 -0.30222243 -0.0084960489
0.28673139 -0.31945613 -0.0080924835
0.2863718 -0.34384134 -0.01007362
0.28637409 -0.3601512 -0.010020025
0.28648013 -0.37631264 -0.0093772905
0.28651679 -0.39214748 -0.0091283144
0.28630748 -0.40761632 -0.010275832
0.2863653 -0.42316887 -0.009906359
0.2865181 -0.43862921 -0.0089977356
0.2864179 -0.45394316 -0.0095252935
0.28623703 -0.46928391 -0.01051084
0.28622708 -0.4923676 -0.010505034
0.2862798 -0.50780672 -0.010164101
0.28608313 -0.52353722 -0.011239056
0.28598464 -0.53939962 -0.011756619
0.28581598 -0.55558139 -0.012672268
0.28558254 -0.5721637 -0.013955883
0.28601676 -0.596389 -0.011427522
0.28588763 -0.61364603 -0.012118544
0.28571352 -0.63147217 -0.013064933
0.28534397 -0.65032893 -0.015121042
0.28542534 -0.66868889 -0.014616773
0.2855615 -0.69728082 -0.013780065
0.28522474 -0.71860617 -0.015649827
0.28505465 -0.74034375 -0.016573014
0.28519964 -0.76189297 -0.015707344
0.28580347 -0.79441035 -0.012215081
0.28543061 -0.8209486 -0.014289406
0.28528866 -0.8480255 -0.015052635
0.28500301 -0.87762582 -0.016631648
0.2858617 -0.91838789 -0.011692042
0.28564793 -0.95282596 -0.012862969
0.10810817 -2.2715399 -1.0207924
0.11396495 -2.4323339 -0.98746997
0.11236047 -2.5979979 -0.99653244
0.11118874 -2.7784352 -1.0031377
0.11087359 -2.9721754 -1.0048795
0.10862504 -3.2119489 -1.0175977
0.10754971 -3.4725268 -1.0236546
0.11563062 -3.811286 -0.97770339
0.11435287 -4.1846871 -0.9849087
0.11540163 -4.5944304 -0.97890508
0.17249729 -8.2421179 -0.65447575
0.22371714 -8.0557642 -0.36364272
0.26660851 -8.3393679 -0.12009213
0.30018398 -10.689379 0.070580468
0.45621625 -10.811447 0.9565047
0.52190959 -10.990448 1.3294928
0.58271837 -10.8189 1.6747448
0.64666682 -10.818596 2.037822
0.67831486 -4.9733777 2.2177606
0.70853376 -4.9472156 2.3893616
0.84930575 -6.2203131 3.1885746
0.85169798 -5.770021 3.202203
0.87112719 -5.5444465 3.3125508
0.86923152 -4.963726 3.301862
0.88114709 -4.735261 3.3695555
0.8740201 -4.3782506 3.3291447
0.8744868 -4.1096649 3.3318436
0.84947771 -3.6941569 3.1899164
0.8772611 -3.6467869 3.347692
0.86948204 -3.3870401 3.3035798
0.86302412 -3.1549489 3.2669675
0.86976802 -2.9178295 3.3053274
0.86996734 -2.7495358 3.3065083
0.8694666 -2.5871687 3.303715
0.84692627 -2.3473303 3.1758032
0.87245619 -2.3005567 3.3207855
0.86419034 -2.1332345 3.2739098
0.86320925 -1.9340248 3.2684138
0.85986078 -1.8001643 3.2494538
0.85759258 -1.6745609 3.2366264
0.85458446 -1.5518856 3.2195978
0.85628384 -1.4429924 3.2292943
0.85163009 -1.3248099 3.2029233
0.85370064 -1.2213625 3.2147262
0.85647106 -1.1199355 3.2305019
0.81494647 -0.92223448 2.9948409
0.8578217 -0.8635205 3.2382889
0.8318221 -0.74645758 3.0907385
0.8479619 -0.6576708 3.18241
0.84381652 -0.55874413 3.1589243
0.84011263 -0.46172231 3.1379442
0.41866139 -0.43296438 0.74552816
0.40462208 -0.42252716 0.66592848
0.40332872 -0.41507807 0.65863615
0.40283769 -0.41132075 0.6558736
0.40199438 -0.40381584 0.65113592
0.40206483 -0.39058876 0.65161073
0.40200362 -0.37715602 0.65133768
0.40322831 -0.36498669 0.6583398
0.40542561 -0.34414762 0.67088771
0.40452445 -0.33587992 0.66582143
0.40312135 -0.32928196 0.65790606
0.40214419 -0.31590691 0.65243304
0.40237927 -0.30338314 0.6538167
0.40208951 -0.29235247 0.65222102
0.40226179 -0.27878314 0.65324807
0.40171149 -0.26088035 0.6501978
0.40198568 -0.24475895 0.65180302
0.4019973 -0.22065552 0.6519419
0.65642244 1.7132314 2.0962732
0.6322577 1.6854573 1.9591399
0.61258554 1.68305 1.8475082
0.59383178 1.6805028 1.7410903
0.57576847 1.6765535 1.638592
0.55983406 1.687434 1.5481777
0.54304338 1.6828651 1.452904
0.5216859 1.7125787 1.3317235
0.49442434 1.5334125 1.1770257
0.47937551 1.5107052 1.0916423
0.46755791 1.5370325 1.0245966
0.45498079 1.5484495 0.95324081
0.44204363 1.5484854 0.87984222
0.42902195 1.5399001 0.80596465
0.41633907 1.5334947 0.7340101
0.3979021 1.5343727 0.6294111
0.38577554 1.5394828 0.56061298
0.37363756 1.5431492 0.49174991
0.3614853 1.5653729 0.42280322
0.34923545 1.5591432 0.353306
0.33697644 1.5574464 0.28375611
0.32448775 1.5662088 0.21290043
0.30576295 1.565118 0.1066655
0.29302222 1.5674068 0.034379464
0.2802645 1.5650749 -0.038002543
0.26745224 1.5600698 -0.11069391
0.26499352 1.3563228 -0.12457507
0.25448912 1.3282554 -0.18416046
0.2392977 1.3719428 -0.27036682
0.21779774 1.3974589 -0.39236301
0.26172119 0.66551065 -0.14280832
0.24164006 0.73350519 -0.25675496
0.28591043 0.20764285 -0.0052585686
0.28438237 0.17158844 -0.01387915
0.28632706 0.11180385 -0.0027796626
0.28627554 0.072282761 -0.0030165794
0.28626576 0.035737079 -0.0030169429
0.28601182 0.0035244143 -0.0044041262
0.28462306 -0.035096195 -0.012208221
0.28465623 -0.064152956 -0.011965724
0.28454614 -0.090728097 -0.012536909
0.28479844 -0.11746188 -0.011050482
0.2849974 -0.14244936 -0.0098671829
0.28497168 -0.16524458 -0.0099596893
0.28512686 -0.18764862 -0.0090252906
0.28515771 -0.20861697 -0.0087969489
0.28519461 -0.22875912 -0.0085343244
0.28506911 -0.24769194 -0.0091938125
0.28507879 -0.26638356 -0.0090859178
0.28522053 -0.28480288 -0.0082282238
0.28532806 -0.30257791 -0.0075648278
0.285227 -0.31946951 -0.0080858236
0.28469679 -0.34359586 -0.011016968
0.28535631 -0.35275263 -0.007245935
0.2849687 -0.37632588 -0.0093676401
0.28500339 -0.39216068 -0.0091178063
0.28496429 -0.40775138 -0.0092870034
0.28502086 -0.42326918 -0.0089130281
0.2846525 -0.43853757 -0.010951628
0.28472343 -0.45393872 -0.010495999
0.2847141 -0.4692969 -0.010495994
0.28470138 -0.49238053 -0.010488857
0.28457972 -0.50792408 -0.011126465
0.28455371 -0.52355009 -0.01122107
0.28445333 -0.5394125 -0.01173771
0.2844525 -0.5553863 -0.011689108
0.28438413 -0.57169265 -0.012023918
0.28447896 -0.59640169 -0.011405291
0.28418392 -0.61398423 -0.013026518
0.28384805 -0.63220149 -0.01487955
0.28396013 -0.64995086 -0.014189167
0.28340825 -0.66996926 -0.017268162
0.28347075 -0.68906772 -0.016858922
0.28382468 -0.71811867 -0.014767794
0.28335521 -0.74088609 -0.017377906
0.28350148 -0.76246452 -0.016492326
0.28311467 -0.78725177 -0.018632574
0.28373626 -0.82159019 -0.015020161
0.28372693 -0.84803772 -0.015016597
0.28343898 -0.87763804 -0.016594131
