# .PCD v0.7 - Point Cloud Data file format
VERSION 0.7
FIELDS x y z
SIZE 4 4 4
TYPE F F F
COUNT 1 1 1
WIDTH 1423
HEIGHT 1
VIEWPOINT 0 0 0 1 0 0 0
POINTS 1423
DATA ascii
0.44184589 -0.25354508 0.65034491
0.44216987 -0.23657526 0.65226334
0.44269681 -0.2170689 0.65533364
0.68700421 1.7202641 2.041893
0.66393942 1.6968544 1.9111245
0.64397562 1.6887375 1.7979499
0.6251533 1.6821592 1.6912506
0.60797507 1.6838238 1.5938793
0.59152693 1.6865962 1.5006495
0.57566756 1.6899519 1.4107596
0.55362964 1.6030663 1.2858019
0.52728206 1.5295787 1.1364367
0.51400125 1.5336847 1.0611737
0.50116014 1.5416356 0.9884057
0.4885706 1.5517279 0.91706473
0.47403377 1.5063949 0.83466625
0.46286508 1.5463831 0.77139086
0.4505516 1.5535537 0.70161474
0.43204901 1.5586379 0.59676522
0.41955972 1.5396062 0.52598596
0.40741357 1.5430453 0.45715752
0.39526954 1.5370438 0.38833886
0.38305065 1.5455914 0.31909788
0.37056938 1.5616151 0.24836949
0.35812652 1.5631356 0.17785603
0.33919707 1.5660568 0.070581093
0.32643166 1.566035 -0.0017632883
0.31384382 1.557518 -0.073102191
0.30169952 1.5377542 -0.14192717
0.2975789 1.3757702 -0.16525841
0.28020078 1.453419 -0.26375866
0.26735884 1.446467 -0.33654013
0.24695905 1.443377 -0.45216131
0.23778616 1.3853724 -0.5041374
0.20942496 1.5306935 -0.66493738
0.32718611 0.17006035 0.0030970215
0.32614699 0.13296083 -0.0027290804
0.3262122 0.090728737 -0.0022909218
0.32613522 0.05311488 -0.0026585467
0.32595402 0.019147553 -0.0036168054
0.32596883 -0.013518577 -0.0034626641
0.32615945 -0.044872355 -0.0023109561
0.32468402 -0.079185523 -0.010574012
0.32442456 -0.10421417 -0.011974671
0.32465014 -0.13006818 -0.010623681
0.32466605 -0.15365784 -0.010461695
0.32487229 -0.17682227 -0.0092199082
0.32496604 -0.19848417 -0.008616047
0.3249236 -0.21877915 -0.0087845242
0.32503256 -0.23875956 -0.0080940006
0.32497439 -0.25754443 -0.0083516371
0.32504973 -0.27607188 -0.0078515867
0.32493126 -0.29359478 -0.0084509356
0.32509559 -0.31125697 -0.0074459268
0.32448146 -0.33542791 -0.010820917
0.32459268 -0.35207933 -0.010117021
0.32481149 -0.36852559 -0.0088025779
0.32462275 -0.38422313 -0.0098005077
0.32470298 -0.40001667 -0.0092722643
0.32453579 -0.41546896 -0.010147835
0.3244628 -0.43090811 -0.010488819
0.32448372 -0.44631508 -0.010297094
0.32442975 -0.46935016 -0.010493774
0.32451007 -0.48469904 -0.0099650351
0.3245104 -0.50010705 -0.0098901819
0.32443243 -0.51565963 -0.010259638
0.32427895 -0.53144151 -0.011057472
0.32431939 -0.55523217 -0.010718666
0.32441479 -0.57126266 -0.010104724
0.3241114 -0.58818984 -0.011753454
0.32392135 -0.6053654 -0.012759079
0.32368425 -0.62310618 -0.014032037
0.32356992 -0.64110941 -0.014608212
0.32402825 -0.66748804 -0.011899137
0.32360801 -0.68776047 -0.014211656
0.32334211 -0.70844156 -0.01564844
0.32308626 -0.73000854 -0.017028641
0.32388458 -0.75972348 -0.012391077
0.32361814 -0.78378016 -0.013831738
0.32355231 -0.80829144 -0.014134376
0.32302755 -0.83641952 -0.017041739
0.32301089 -0.86382204 -0.017065883
0.32392913 -0.9029091 -0.011749997
0.3230857 -0.93998015 -0.016467456
0.32283008 -0.97638702 -0.017849373
0.15035625 -2.3744605 -0.99661297
0.14894801 -2.5317266 -1.0045629
0.14726652 -2.7085288 -1.0140674
0.14600845 -2.9020865 -1.0211732
0.15336035 -3.1397097 -0.97939801
0.15200332 -3.3971918 -0.98707896
0.15080526 -3.6929414 -0.99386609
0.14907731 -4.0471525 -1.0036726
0.15011695 -4.4253559 -0.99778062
0.14993788 -4.9050689 -0.99882561
0.23430502 -8.2651052 -0.52042574
0.30595279 -8.2586441 -0.11376886
0.45967305 -10.202693 0.75828499
0.52576077 -10.770435 1.1332383
0.71634358 -10.778391 2.2148321
0.70224738 -4.9940848 2.1364608
0.89410365 -6.2946649 3.224894
0.900913 -5.8863201 3.2636774
0.90592945 -5.5078201 3.2922816
0.90157467 -5.0842023 3.2677269
0.91517681 -4.8603625 3.3450096
0.90199536 -4.4410486 3.270375
0.91448826 -4.1210718 3.3414152
0.8864333 -3.6848655 3.1824017
0.91985828 -3.6728656 3.3721011
0.91147834 -3.4080091 3.3246768
0.90588969 -3.1792612 3.2930818
0.90158802 -2.9735501 3.2687833
0.90380108 -2.812012 3.2814362
0.91025388 -2.5975115 3.3181844
0.8819887 -2.3348053 3.1579494
0.91349411 -2.3103893 3.3367538
0.90481961 -2.1410043 3.2876413
0.89780831 -1.9868203 3.247962
0.89409012 -1.850269 3.2269611
0.89425629 -1.729715 3.2279935
0.8945412 -1.5556087 3.2297432
0.89346534 -1.4408216 3.2237284
0.89011621 -1.3251804 3.204818
0.89302158 -1.2229602 3.2213867
0.89359671 -1.1183724 3.2247362
0.85175699 -0.96774375 2.9874833
0.89654338 -0.91486347 3.2416253
0.88959765 -0.75817144 3.2023549
0.8867507 -0.65774626 3.1862919
0.88207459 -0.55857891 3.1598527
0.87818605 -0.46152529 3.137881
0.45658815 -0.43287179 0.74649537
0.44235465 -0.42252812 0.66591394
0.4410547 -0.41507965 0.65862036
0.44039071 -0.41153049 0.65489388
0.43932167 -0.39576009 0.64899093
0.43960685 -0.39088339 0.65064907
0.4398661 -0.37681627 0.65224099
0.44076174 -0.36536312 0.65740281
0.44342729 -0.34330329 0.67264593
0.44205034 -0.33633533 0.66491586
0.44094703 -0.3287991 0.6587382
0.43951416 -0.31696928 0.65073162
0.44037274 -0.30804881 0.65564322
0.43988228 -0.29176718 0.65298355
0.43920577 -0.27535838 0.64926869
0.4392173 -0.26153919 0.64941657
0.43948942 -0.24544366 0.65104306
0.43998149 -0.22687757 0.65391791
0.67083877 1.6928215 1.9641681
0.65168196 1.6955608 1.8555903
0.63319814 1.6966834 1.7508307
0.61449426 1.6878721 1.6448215
0.59773707 1.6910195 1.5498577
0.58075219 1.6847099 1.4536014
0.56585491 1.6970947 1.3691914
0.53796691 1.5197732 1.2110506
0.5182786 1.5343672 1.099511
0.50492835 1.5351393 1.0238754
0.49234399 1.5465324 0.95258754
0.47967315 1.5533676 0.88080877
0.46690145 1.5536485 0.80845702
0.4544422 1.5591761 0.73787975
0.43572503 1.5592312 0.63185245
0.4231874 1.5444617 0.56082702
0.41094607 1.5391392 0.49148554
0.39879885 1.5333567 0.4226785
0.38662633 1.5431328 0.35373372
0.37423801 1.5584202 0.28356767
0.36179549 1.5631977 0.21309197
0.34320378 1.5571835 0.107785
0.33019122 1.568352 0.034081191
0.31752428 1.5630862 -0.037666779
0.30479315 1.5561627 -0.10977847
0.29159012 1.5551888 -0.18456328
0.27862531 1.5456765 -0.25799903
0.28134385 1.2981403 -0.24257556
0.24972467 1.4640912 -0.42169106
0.24163428 1.39165 -0.46750343
0.2156346 1.519668 -0.61480474
0.19807586 1.5379845 -0.71427554
0.32306162 0.2084464 -0.0058572316
0.32351714 0.15598957 -0.003207874
0.32377905 0.11017224 -0.0016546006
0.32362518 0.071471587 -0.0024563735
0.32361731 0.034948595 -0.0024298434
0.32395694 -0.00089717994 -0.00043282655
0.32352999 -0.029607568 -0.0027800158
0.32335731 -0.057906527 -0.0036853591
0.32330221 -0.085071422 -0.00392377
0.32201511 -0.11749429 -0.011108025
0.32235119 -0.14306918 -0.0091280108
0.32218102 -0.1652763 -0.010017296
0.32218516 -0.18715011 -0.0099181617
0.32235935 -0.20864801 -0.008854839
0.32254562 -0.2292593 -0.0077228905
0.32257468 -0.2485991 -0.0074818349
0.32258528 -0.26722711 -0.0073451675
0.32203647 -0.29285559 -0.010341234
0.32250899 -0.30260736 -0.0076241009
0.32214338 -0.32744774 -0.0095813898
0.32203373 -0.34388342 -0.010125834
0.32219893 -0.36041787 -0.0091122296
0.32212949 -0.37635395 -0.0094287004
0.32198828 -0.392032 -0.010152007
0.32194388 -0.40765697 -0.010326467
0.32216853 -0.42329627 -0.0089756036
0.3219687 -0.43861675 -0.010031204
0.32184339 -0.46164417 -0.010625881
0.3218762 -0.4769997 -0.010362509
0.32182884 -0.49240628 -0.010553936
0.32187542 -0.50784498 -0.010212741
0.32167229 -0.52357519 -0.011287371
0.32156748 -0.53943729 -0.01180464
0.32139248 -0.55561876 -0.012719978
0.32166043 -0.57966375 -0.011085661
0.32141224 -0.59671777 -0.012416443
0.32127881 -0.61400765 -0.013096529
0.32093844 -0.63222468 -0.014950215
0.32130522 -0.65850168 -0.012756897
0.32128295 -0.67731947 -0.012807527
0.32093674 -0.69778484 -0.014695145
0.3207472 -0.71864039 -0.015694901
0.32012942 -0.74196744 -0.019123157
0.32105723 -0.77194458 -0.01375117
0.32075256 -0.79685044 -0.015405196
0.32065883 -0.82223982 -0.015863705
0.32051933 -0.84936982 -0.016582258
0.31985542 -0.88106769 -0.020275377
0.32073972 -0.92201579 -0.015154725
0.32042706 -0.95731562 -0.016858267
0.14773372 -2.3055851 -0.99608779
0.14650002 -2.4542484 -1.0030502
0.14571165 -2.6146493 -1.0074931
0.14308158 -2.8098836 -1.0223888
0.15011865 -3.0356431 -0.98245823
0.14899777 -3.2745445 -0.98881733
0.14799839 -3.5476141 -0.99450141
0.14779143 -3.8546166 -0.99570781
0.14835176 -4.2052927 -0.99258274
0.1611954 -5.2160339 -0.91996932
0.20609814 -8.3293114 -0.66636986
0.28203452 -8.1024456 -0.23577684
0.42373943 -8.8823519 0.56726402
0.49210814 -10.761502 0.95406199
0.55728054 -10.918694 1.3234296
0.58855081 -10.880252 1.5008658
0.68410408 -10.849159 2.0426912
0.75213462 -10.940512 2.4284055
0.7891407 -8.8622961 2.6392574
0.71215016 -4.9408603 2.2048116
0.89031529 -6.0259671 3.2146633
0.90012366 -5.6787362 3.2705276
0.91906399 -5.4563422 3.3781109
0.90422004 -4.9518685 3.2942848
0.90867454 -4.6630559 3.3197739
0.90671551 -4.3509784 3.3089137
0.8932991 -3.8628585 3.2332289
0.90114677 -3.6816661 3.2779098
0.91164184 -3.5267243 3.337589
0.90625703 -3.2902646 3.3072739
0.90059799 -3.0698855 3.2753968
0.89957047 -2.8874931 3.2697608
0.90079886 -2.7260141 3.2769058
0.91012144 -2.5287778 3.3300111
0.8944813 -2.3204603 3.2415388
0.90437776 -2.2158248 3.2978017
0.89796096 -2.0595365 3.2615979
0.8955512 -1.9234519 3.2481029
0.8924312 -1.7911581 3.2305789
0.89008808 -1.6662236 3.2174554
0.89265144 -1.4999702 3.2322206
0.8911832 -1.3858653 3.2240515
0.88927865 -1.2741729 3.2134068
0.89135045 -1.1711493 3.2253025
0.89158678 -1.0668216 3.2267909
0.84959519 -0.92106581 2.9888775
0.89052755 -0.81049865 3.2211523
0.8784734 -0.70414072 3.1529558
0.88049287 -0.60749716 3.164547
0.87810558 -0.50994378 3.1511528
0.45328876 -0.42744493 0.742957
0.44069341 -0.42157963 0.67169768
0.43887135 -0.41449705 0.66147
0.43786362 -0.41131228 0.65580755
0.43751556 -0.40308166 0.65393704
0.43640217 -0.39174977 0.64777845
0.4370012 -0.38622627 0.65122652
0.43736857 -0.37167573 0.65346384
0.44059321 -0.3489593 0.67190355
0.43994614 -0.33450779 0.66838843
0.43862525 -0.33299002 0.66094941
0.43795246 -0.32412511 0.6572367
0.43734735 -0.30912599 0.65395892
0.43709159 -0.29815549 0.65261084
0.43702906 -0.2858946 0.65235841
0.43700114 -0.27282828 0.65230197
0.4366225 -0.25352454 0.6503076
0.43706784 -0.23585993 0.65293473
0.43758708 -0.21632874 0.655981
0.68168539 1.7186975 2.0406353
0.65861857 1.6952465 1.9099241
0.63903296 1.6904451 1.7989532
0.62010139 1.6830462 1.6916894
0.60282522 1.683853 1.5938118
0.58636904 1.6866249 1.5005827
0.57050204 1.6899803 1.4106934
0.54546648 1.562591 1.2688084
0.52262437 1.5380627 1.1394061
0.50869548 1.5318087 1.0605038
0.49605161 1.5435839 0.98888761
0.48323479 1.5488422 0.91628945
0.46867153 1.5025067 0.83378792
0.45788494 1.5542858 0.7726987
0.44549441 1.5605092 0.70251417
0.4266032 1.5447137 0.59550476
0.41432914 1.5406272 0.52597868
0.40216026 1.5400672 0.4570474
0.3900356 1.5320654 0.38836664
0.37777036 1.5486075 0.3188847
0.36523721 1.5666155 0.24788147
0.34675351 1.5575148 0.14317092
0.33417177 1.5581958 0.071890987
0.32119763 1.5650731 -0.0016170235
0.30848575 1.5594738 -0.073637098
0.29646885 1.5368073 -0.14171365
0.29368392 1.3510571 -0.15739918
0.27348706 1.4759837 -0.27189985
0.25494123 1.451141 -0.37697321
0.24833699 1.3609146 -0.41433883
0.28860983 0.65260613 -0.18558994
0.32171413 0.17090537 0.0025205011
0.3208687 0.13216777 -0.0021747763
0.3208262 0.090744659 -0.0023141387
0.31907323 0.046267889 -0.012108975
0.31922188 0.010802694 -0.01116426
0.31921202 -0.021124424 -0.011119155
0.32075217 -0.044856519 -0.0023293344
0.31926957 -0.079169862 -0.010590937
0.31940982 -0.10608639 -0.0096943602
0.3192257 -0.13005257 -0.010638467
0.31937888 -0.15421575 -0.0096686892
0.31958356 -0.17735127 -0.0084066344
0.31952688 -0.19846858 -0.0086277174
0.31947964 -0.21876359 -0.0087951981
0.3195838 -0.23874401 -0.0081036715
0.31952083 -0.2575289 -0.0083603282
0.3195914 -0.27605638 -0.0078592915
0.3194682 -0.29357931 -0.0084576728
0.31917495 -0.31888837 -0.0099705048
0.31900653 -0.33541253 -0.010825242
0.31928137 -0.35230583 -0.0091647552
0.31915721 -0.36830238 -0.009768229
0.31913346 -0.38420781 -0.0098018721
0.31920889 -0.40000138 -0.0092726313
0.31920949 -0.41555816 -0.0091678007
0.31930536 -0.43103224 -0.0085223168
0.31893143 -0.45397669 -0.010491475
0.31891382 -0.46933496 -0.01048957
0.31898919 -0.48468387 -0.0099597815
0.31881163 -0.50017911 -0.010864921
0.31872928 -0.51576644 -0.011229713
0.3187862 -0.53927743 -0.010752576
0.31868333 -0.54733008 -0.011284857
0.31838545 -0.5637849 -0.012871645
0.31855735 -0.58817482 -0.011740934
0.31852707 -0.60504138 -0.011808729
0.3182826 -0.62274921 -0.013091621
0.31783879 -0.64146924 -0.015505024
0.31829238 -0.66789585 -0.012773488
0.31833303 -0.68683755 -0.012437131
0.31790379 -0.70794195 -0.014766099
0.31749013 -0.72999388 -0.017006095
0.31725195 -0.75249648 -0.018249862
0.31814712 -0.78317767 -0.013008635
0.31752402 -0.81012398 -0.016434235
0.31740275 -0.83640498 -0.017011769
0.31712121 -0.8651458 -0.018497612
0.31816423 -0.90360159 -0.012411657
0.31743559 -0.93996567 -0.016430452
0.31728581 -0.97561783 -0.017163958
0.14415598 -2.3776684 -0.99888295
0.14284465 -2.5341978 -1.0061482
0.14115344 -2.7110591 -1.0155575
0.13961525 -2.9072442 -1.0240865
0.14567226 -3.1591492 -0.98942405
0.14668198 -3.3900154 -0.98346776
0.14518701 -3.6883886 -0.99168909
0.14403318 -4.0332594 -0.99794573
0.14344937 -4.4347687 -1.0009321
0.22678784 -8.3058014 -0.52489907
0.29876426 -8.2995329 -0.1161282
0.45382684 -10.403531 0.76579958
0.51895779 -10.800311 1.1359285
0.61718029 -10.962642 1.6937888
0.7118777 -10.869888 2.2313998
0.88646668 -6.2837639 3.2201095
0.89424092 -5.8862038 3.2640507
0.89041954 -5.041687 3.2419543
0.90893096 -4.8627329 3.3469756
0.89827383 -4.4627771 3.2862952
0.90827256 -4.1225119 3.3429251
0.87927544 -3.6794744 3.178122
0.91265666 -3.6676333 3.3676434
0.90637136 -3.4149685 3.3318701
0.89882976 -3.1750605 3.288975
0.89636683 -2.9786904 3.2749329
0.89701545 -2.8093879 3.278568
0.90305293 -2.5932906 3.3127887
0.87668139 -2.3380585 3.1630135
0.90687358 -2.3086936 3.3344138
0.89881819 -2.1414006 3.2886496
0.8926006 -1.9895352 3.2533259
0.88845223 -1.8514837 3.2297549
0.88610768 -1.7243289 3.2164288
0.88863993 -1.5558689 3.2307847
0.88873154 -1.4433285 3.2312937
0.88475186 -1.3262538 3.2086945
0.88683981 -1.2226061 3.2205389
0.88861197 -1.119627 3.2305915
0.84596652 -0.96784681 2.9885368
0.88988757 -0.91414452 3.2378213
0.88268095 -0.80729312 3.1969163
0.88082236 -0.65765625 3.1863647
0.87598944 -0.55845559 3.1589358
0.87437278 -0.46143734 3.1497607
0.45085934 -0.43284485 0.7465269
0.43675131 -0.42681885 0.66657972
0.4353345 -0.41505563 0.65864974
0.43432972 -0.4033106 0.65305793
0.43360499 -0.39573696 0.64901906
0.43366379 -0.38683242 0.64942545
0.43415207 -0.37679359 0.65226811
0.4347446 -0.36119685 0.65573817
0.43771693 -0.34328082 0.6726715
0.43649626 -0.33585924 0.66581839
0.43523982 -0.32877746 0.65876275
0.43439674 -0.32049543 0.65405202
0.43433478 -0.30336463 0.65380716
0.43418109 -0.29174659 0.6530062
0.43350735 -0.27533829 0.64929038
0.4341276 -0.26556683 0.65284288
0.43379548 -0.24542405 0.65106332
0.43429023 -0.22685817 0.65393728
0.66647816 1.7017639 1.9704813
0.64630336 1.6964301 1.8560864
0.62754571 1.6950251 1.7497315
0.60911888 1.6887734 1.6452578
0.5921188 1.6892869 1.5488763
0.57537895 1.6856397 1.4539754
0.55377555 1.712646 1.3315002
0.52647978 1.5334668 1.1768223
0.51277375 1.5334451 1.0991366
0.49953631 1.5361174 1.0241089
0.48686278 1.5455868 0.95227742
0.47424296 1.5533864 0.88075256
0.46114409 1.5438496 0.80652177
0.4487502 1.5493152 0.73628241
0.43023977 1.555267 0.63138282
0.41771662 1.5394866 0.56042588
0.4054786 1.5291563 0.49108425
0.39339656 1.5323666 0.42262012
0.3812899 1.5331478 0.35401875
0.36881295 1.5614207 0.283301
0.35641187 1.5632041 0.21303095
0.3376638 1.5631144 0.10679885
0.32478714 1.5693371 0.033830862
0.31227395 1.5601656 -0.037064619
0.29947436 1.5551981 -0.10958632
0.28612983 1.5571017 -0.18520249
0.28816649 1.296062 -0.1734037
0.25911289 1.5511364 -0.33828512
0.24323811 1.4787048 -0.42816183
0.23520336 1.4042294 -0.47360629
0.29372987 0.66190428 -0.14111663
0.22327343 1.2331432 -0.5409984
0.31757501 0.20760939 -0.0053267782
0.31812662 0.15435283 -0.0020818945
0.31807771 0.11097235 -0.0022493193
0.31802219 0.071472943 -0.0024568485
0.31800848 0.034949835 -0.0024288758
0.31822392 -0.00016471512 -0.0011021054
0.31791088 -0.029606573 -0.002776531
0.31664255 -0.06619262 -0.0098230857
0.3166694 -0.093331367 -0.0095709888
0.31638232 -0.11749379 -0.011101269
0.31657371 -0.142481 -0.0099170404
0.31654039 -0.16527602 -0.010008753
0.31668818 -0.18767983 -0.0090736505
0.3167116 -0.20864797 -0.0088447044
0.31674114 -0.22878991 -0.0085815582
0.31692025 -0.24859926 -0.0074702641
0.31708637 -0.26763409 -0.0064332709
0.31674522 -0.28483307 -0.0082743159
0.31653124 -0.31058356 -0.0093473708
0.31690246 -0.31980827 -0.0071947947
0.31653136 -0.34414309 -0.0091597773
0.316526 -0.3604188 -0.0090968898
0.3164539 -0.37635502 -0.0094128493
0.31648156 -0.39218959 -0.009162995
0.3164354 -0.40778011 -0.0093321959
0.31648496 -0.4232977 -0.0089582689
0.3162826 -0.43861827 -0.01001341
0.31632701 -0.4616459 -0.009622612
0.31618354 -0.47700155 -0.010343566
0.31613353 -0.49240822 -0.01053454
0.31617743 -0.50784707 -0.010192894
0.31597164 -0.52357739 -0.011267082
0.31586412 -0.53943962 -0.011783904
0.31568637 -0.55562121 -0.012698795
0.31595007 -0.57966638 -0.011063798
0.31569895 -0.59672046 -0.012394123
0.31539834 -0.61433607 -0.014004894
0.3152191 -0.63222766 -0.014926953
0.31573987 -0.65809804 -0.011833278
0.31539947 -0.67776108 -0.013668185
0.31520593 -0.69778818 -0.014670148
0.3147119 -0.71964383 -0.017375035
0.31439111 -0.74197102 -0.019097039
0.31559801 -0.77080119 -0.012110844
0.31500441 -0.79685432 -0.015377649
0.31490621 -0.82224381 -0.015835514
0.31449971 -0.85068607 -0.018039824
0.31536773 -0.88885772 -0.012969716
0.31496954 -0.9220202 -0.015124005
0.31476703 -0.956577 -0.016167725
0.14124137 -2.3095293 -0.99905735
0.14072144 -2.4526341 -1.0018266
0.13960361 -2.6154821 -1.0079738
0.13657671 -2.8141272 -1.024923
0.1439483 -3.0365212 -0.98285455
0.14271232 -3.2763295 -0.98962414
0.14064728 -3.5621183 -1.001066
0.14047518 -3.8693473 -1.0017619
0.1415626 -4.2127643 -0.99529463
0.1536205 -5.2381454 -0.92607456
0.19950549 -8.311491 -0.66368431
0.27392313 -8.1741772 -0.24174179
0.36023548 -10.558104 0.24921784
0.48574263 -10.892334 0.96110082
0.54860848 -10.846984 1.3175402
0.58080804 -10.87032 1.500119
0.67796683 -10.900539 2.0509768
0.73731285 -10.724576 2.3873353
0.78421551 -8.9106178 2.6522138
0.70276946 -4.8991599 2.1883199
0.88345861 -6.0233283 3.2134466
0.88801897 -5.621047 3.2391303
0.91318476 -5.4623795 3.3817673
0.90331602 -4.6712861 3.3255067
0.90935618 -4.2787871 3.3596318
0.88966483 -3.8805175 3.2478514
0.89823645 -3.7025151 3.2964177
0.90527105 -3.5253284 3.3362727
0.89904934 -3.2840562 3.3009441
0.89520234 -3.0732751 3.2790964
0.89236891 -2.8817527 3.2630064
0.90022677 -2.6691139 3.3075547
0.9040494 -2.5282519 3.3292289
0.88888139 -2.3215969 3.2432103
0.89925402 -2.2184491 3.3020394
0.89288259 -2.0620098 3.2659178
0.8905139 -1.9257716 3.2525003
0.88711834 -1.7924764 3.2332635
0.88790154 -1.6165625 3.2377379
0.88578165 -1.4976286 3.2257431
0.88432175 -1.3837554 3.2174935
0.88376176 -1.2745025 3.214349
0.88534963 -1.1707203 3.2233849
0.88577294 -1.0666696 3.2258196
0.84346116 -0.92059714 2.9859583
0.88786191 -0.81262833 3.237757
0.88016278 -0.70785874 3.1941464
0.87545234 -0.60771257 3.1674821
0.87065113 -0.50981081 3.1403055
0.44774467 -0.42745563 0.74294221
0.43538412 -0.43043768 0.67290664
0.43361047 -0.4229967 0.66292793
0.43233126 -0.41132101 0.65579087
0.43198767 -0.40309033 0.65391964
0.43192834 -0.39437971 0.65366
0.43124071 -0.38219625 0.64987713
0.43212974 -0.37578771 0.65495509
0.4350889 -0.34896824 0.67188299
0.43467781 -0.3393285 0.66962928
0.43272603 -0.32879591 0.65868062
0.43203065 -0.31999806 0.65481555
0.43186191 -0.30913436 0.65393591
0.43161047 -0.29816377 0.65258729
0.43114346 -0.28124392 0.65005523
0.43152878 -0.27283651 0.65227753
0.43115658 -0.25353268 0.65028256
0.43160653 -0.2358681 0.65290934
0.43137369 -0.21224011 0.65170389
0.67576969 1.7138572 2.0370808
0.65312564 1.693563 1.9087967
0.63345164 1.6878866 1.7973473
0.61542642 1.6890068 1.6952442
0.59752029 1.6838163 1.5938175
0.58090281 1.6848089 1.4996955
0.56519014 1.6899488 1.4107018
0.54007542 1.5616432 1.2684306
0.51723528 1.5370997 1.1390775
0.50346941 1.53369 1.0611218
0.4906193 1.5416428 0.98835558
0.47793683 1.5497961 0.91653991
0.46332586 1.5024931 0.8338002
0.45244667 1.5513197 0.7722007
0.43382791 1.5572112 0.66677344
0.42119914 1.5417196 0.59526539
0.40886575 1.5296391 0.52543122
0.39679554 1.5410665 0.45708534
0.38465989 1.5330673 0.38837135
0.37228402 1.5605958 0.31829005
0.35986963 1.5656267 0.24799344
0.34136245 1.5575262 0.1431991
0.32868445 1.5611644 0.071407802
0.31583062 1.5641125 -0.0013804908
0.30307633 1.5594941 -0.073603794
0.2911011 1.5358694 -0.14140807
0.29014459 1.3177944 -0.14671972
0.26402059 1.5399116 -0.29476944
0.24916421 1.455777 -0.37886038
0.24164805 1.3763573 -0.42138007
0.29258063 0.69421715 -0.13250563
0.19773357 1.5403669 -0.67020094
0.31642371 0.1700964 0.0030493308
0.31568751 0.1305702 -0.0010407279
0.31544358 0.090765394 -0.0023399601
0.31514063 0.054683901 -0.0039743804
0.31552887 0.016955284 -0.0016902856
0.31383857 -0.02110241 -0.011151054
0.31412217 -0.052430797 -0.0094613358
0.31390235 -0.079147354 -0.010626346
0.31391087 -0.10543435 -0.010496829
0.31400353 -0.13063133 -0.0098906877
0.31402138 -0.15419252 -0.0097090397
0.3139382 -0.17623857 -0.010100463
0.31402728 -0.19792981 -0.0095154075
0.31413227 -0.21873961 -0.0088402312
0.31439468 -0.23917378 -0.0072728023
0.31433782 -0.25792703 -0.0075158239
0.31441441 -0.27642238 -0.0070023709
0.31429696 -0.29391265 -0.0075892969
0.31429803 -0.31121629 -0.0075042318
0.31384882 -0.33566242 -0.0099332286
0.31396061 -0.3522799 -0.0092209531
0.31384009 -0.36827615 -0.0098258974
0.31399119 -0.38435498 -0.008891169
0.31407145 -0.40011379 -0.0083581172
0.31390393 -0.41553119 -0.009230013
0.31383055 -0.43093532 -0.0095684733
0.31363562 -0.453949 -0.010557518
0.31379569 -0.46928957 -0.0095725609
0.3137016 -0.48465568 -0.010029013
0.31370112 -0.50006348 -0.0099547198
0.31344995 -0.51573771 -0.011302197
0.31346801 -0.5313974 -0.011123141
0.31341264 -0.54730082 -0.011360736
0.31326512 -0.57170188 -0.012083019
0.31313094 -0.58842057 -0.012767907
0.3131071 -0.60532016 -0.01282752
0.31303239 -0.62271869 -0.013175704
0.31314337 -0.64917803 -0.012433707
0.31321198 -0.66744208 -0.011970024
0.31310037 -0.68680614 -0.012528343
0.31222051 -0.70936459 -0.017443484
0.31226775 -0.72996169 -0.01710186
0.31203505 -0.752464 -0.01834804
0.31279892 -0.78373283 -0.013907172
0.31163791 -0.81316924 -0.020418921
0.31220713 -0.8363716 -0.017119166
0.31193206 -0.86511213 -0.018608028
0.30942506 -0.92407441 -0.032720674
0.31226429 -0.93993145 -0.016548973
0.31235006 -0.97407383 -0.015994072
0.13858145 -2.3807693 -1.0014616
0.13721238 -2.5381987 -1.0091945
0.13604391 -2.710963 -1.0157954
0.13399713 -2.9122903 -1.0273854
0.14128862 -3.1519892 -0.9860059
0.14000873 -3.409693 -0.99326724
0.13938397 -3.6992536 -0.99682492
0.13984318 -4.0229621 -0.99424887
0.13979115 -4.4158754 -0.99459416
0.15085326 -4.9610615 -0.93194026
0.22324951 -8.2769461 -0.52220029
0.29485863 -8.2875166 -0.1161068
0.45025018 -10.393549 0.76441056
0.51708138 -10.92205 1.1432091
0.60959148 -10.758252 1.6679171
0.70688218 -10.80894 2.2196426
0.69149965 -4.9903703 2.1347671
0.88314366 -6.2875328 3.2210858
0.88827538 -5.8616586 3.2503915
0.89922315 -5.5442538 3.3126357
0.89010316 -5.0740871 3.2611532
0.90588415 -4.8695459 3.3507626
0.89468211 -4.4653811 3.2874539
0.90476882 -4.1258001 3.3448572
0.87454969 -3.6751146 3.1737459
0.90947747 -3.6729333 3.371841
0.9009642 -3.4073684 3.3237317
0.89421964 -3.172507 3.2856402
0.89288658 -2.9821441 3.2782149
0.89271778 -2.8089318 3.2773848
0.89886117 -2.5934656 3.3123908
0.8709808 -2.3326313 3.1544809
0.90234429 -2.3078098 3.3323727
0.89454782 -2.141573 3.2882967
0.88768512 -1.9878269 3.2495108
0.88537234 -1.8551583 3.2365134
0.88270718 -1.7269359 3.2215173
0.88409901 -1.5556775 3.2295718
0.88466227 -1.4441462 3.2328734
0.88116086 -1.3278804 3.2131331
0.88173115 -1.221736 3.2164736
0.88534343 -1.1213671 3.2370586
0.84161544 -0.96818691 2.9892757
0.88660073 -0.9154048 3.2444003
0.87965029 -0.75855613 3.205158
0.87610734 -0.65774751 3.1851795
0.87211984 -0.55875397 3.1626804
0.86961621 -0.46159521 3.1485934
0.4458591 -0.43284607 0.74642092
0.4316175 -0.42249924 0.66584188
0.4303169 -0.41505054 0.65854901
0.42965251 -0.41150123 0.65482283
0.42874995 -0.39545506 0.64986777
0.42886832 -0.39085409 0.65057957
0.42912775 -0.37678713 0.65217245
0.42971849 -0.36119026 0.65564436
0.43269074 -0.34327513 0.67257917
0.4314678 -0.33585289 0.66572726
0.4296425 -0.32510832 0.65550077
0.42951295 -0.31997287 0.65480745
0.42929935 -0.3033568 0.6537205
0.4291437 -0.29173848 0.6529209
0.42903262 -0.27937266 0.65237439
0.42847815 -0.26151049 0.64935601
0.42875025 -0.24541506 0.65098351
0.42863777 -0.22206844 0.65047342
0.66160548 1.7041175 1.9722867
0.64110625 1.6963642 1.8561583
0.62076712 1.6805495 1.7409346
0.60397464 1.6895875 1.645828
0.58719754 1.6927731 1.5508066
0.56988835 1.6829041 1.4527639
0.55421722 1.6852138 1.3640126
0.52730149 1.5207028 1.2114426
0.50674647 1.5211372 1.0950483
0.49423069 1.5361062 1.0241916
0.48158869 1.5465462 0.95261818
0.46898904 1.5553333 0.88128453
0.45613271 1.5536689 0.80849147
0.44363981 1.558212 0.73776215
0.42477745 1.5503088 0.63096476
0.41231236 1.5375105 0.56038588
0.40016124 1.5411727 0.49159569
0.3879956 1.5403949 0.42272142
0.37580511 1.5451729 0.35370991
0.36333716 1.565448 0.28313434
0.3509739 1.5632459 0.21314117
0.33212805 1.566126 0.10645015
0.31938761 1.5674272 0.034322694
0.30668163 1.5631466 -0.037611824
0.29389969 1.5571924 -0.1099771
0.28078648 1.5543001 -0.18421756
0.28232408 1.3027476 -0.17555125
0.25322178 1.556815 -0.34027743
0.24352336 1.4038763 -0.395199
0.2895602 0.75195616 -0.13458067
0.28239617 0.68006283 -0.1750983
0.27569869 0.65645188 -0.21298711
0.3127366 0.20431235 -0.0031905067
0.31311965 0.15277222 -0.00096611382
0.3128798 0.1110302 -0.0022670105
0.31326973 0.068422303 8.0211225e-07
0.3127116 0.035762761 -0.0030993237
0.31292975 0.00062497368 -0.0018012339
0.31131071 -0.036458924 -0.010876026
0.31122094 -0.064795062 -0.011319648
0.31151178 -0.093271948 -0.0096062748
0.3113665 -0.11804979 -0.010362578
0.31128567 -0.14183341 -0.010753207
0.31154191 -0.1657753 -0.0092337141
0.31155047 -0.18761975 -0.0091169234
0.31142789 -0.20808767 -0.0097425813
0.31176582 -0.22919902 -0.0077587711
0.31179592 -0.24853876 -0.0075186267
0.31180754 -0.26716673 -0.0073828357
0.31162876 -0.28477219 -0.008325614
0.31109172 -0.30987117 -0.011262957
0.31179392 -0.31974712 -0.0072489535
0.31142807 -0.34408152 -0.0092158383
0.31125706 -0.3601321 -0.010113813
0.31135792 -0.37629312 -0.0094714789
0.31121761 -0.39197105 -0.010195524
0.31134662 -0.40771788 -0.0093933288
0.31122673 -0.4231481 -0.010001685
0.31120089 -0.43855566 -0.010076974
0.31109497 -0.45390406 -0.010606118
0.31111076 -0.47693846 -0.010410163
0.31106436 -0.49234495 -0.010602355
0.3109391 -0.50788814 -0.011241329
0.31090969 -0.52351373 -0.011337359
0.31080586 -0.53937572 -0.011855435
0.31092218 -0.56325883 -0.011090852
0.31073356 -0.57986087 -0.012089816
0.31065413 -0.59665596 -0.012470235
0.31052175 -0.61394578 -0.013151243
0.31018233 -0.63216263 -0.0150059
0.30182114 -0.68080771 -0.062295917
0.31052974 -0.67725742 -0.012865725
0.31018463 -0.69772261 -0.014754481
0.3096953 -0.71957797 -0.017461143
0.30937952 -0.74190485 -0.019184988
0.31045178 -0.77130866 -0.013008068
0.30986732 -0.79738975 -0.016256839
0.30964372 -0.82343572 -0.017461011
0.30951345 -0.85061914 -0.018137025
0.30924013 -0.88032281 -0.019625241
0.30999997 -0.92195302 -0.015227428
0.13612829 -2.3117683 -1.0010906
0.1360622 -2.4517 -1.0014753
0.13448872 -2.6186728 -1.0104194
0.13216743 -2.8114564 -1.0236182
0.13940096 -3.0355222 -0.98265964
0.13844727 -3.2726409 -0.98814052
0.13737454 -3.5465858 -0.99432129
0.1369711 -3.8563349 -0.9967345
0.13594025 -4.2313099 -1.0027474
0.14904083 -5.2466755 -0.92900932
0.19688874 -8.2767239 -0.65967065
0.27174765 -8.090414 -0.23530579
0.48200056 -10.78147 0.95433056
0.54575074 -10.836029 1.3155363
0.57792532 -10.859396 1.4979268
0.64187586 -10.856538 1.8603853
0.78179622 -8.924222 2.6549039
0.70331663 -4.9631925 2.2132795
0.88501477 -6.0822487 3.242348
0.88199687 -5.5975447 3.2256794
0.91317475 -5.4985032 3.4025192
0.89732993 -4.9822159 3.3131859
0.89966547 -4.6738615 3.3267307
0.89619148 -4.3495374 3.3073647
0.88933814 -3.906678 3.2689779
0.89360684 -3.6996589 3.2934058
0.90191561 -3.5304825 3.3407013
0.8956694 -3.2890358 3.3055665
0.8918044 -3.0780745 3.2839034
0.89028835 -2.8927953 3.2755332
0.8914085 -2.7304847 3.2820861
0.89428419 -2.5836771 3.2985764
0.88441509 -2.3217101 3.2429676
0.89596117 -2.2226861 3.3085587
0.88942695 -2.0655184 3.2717288
0.88426101 -1.920891 3.2426436
0.88317055 -1.7942799 3.2366412
0.88004261 -1.6671684 3.2190926
0.88097966 -1.497399 3.2246532
0.88081682 -1.3860309 3.2238955
0.87891078 -1.2743386 3.213259
0.87997139 -1.1698648 3.2194288
0.88189924 -1.0678217 3.230511
0.83852273 -0.92052346 2.9848797
0.88007063 -0.8610447 3.2204626
0.87536967 -0.70796949 3.1940541
0.87341583 -0.60866022 3.1831338
0.86738247 -0.51007634 3.1490932
0.44273394 -0.42744267 0.74290556
0.43013752 -0.42157274 0.67164743
0.42831752 -0.41448975 0.66142035
0.42694178 -0.3987264 0.65379864
0.42668644 -0.39028078 0.6524393
0.42638025 -0.36796805 0.65092349
0.43008047 -0.35416973 0.67194295
0.42964476 -0.3393153 0.66960573
0.42824778 -0.33251593 0.66177487
0.42742398 -0.32412049 0.65719324
0.42728639 -0.31324318 0.65650177
0.42656928 -0.29815128 0.65256929
0.42650926 -0.28589073 0.65231782
0.42589757 -0.26878443 0.64898312
0.42610869 -0.25352129 0.65026951
0.42643148 -0.23655181 0.65218955
0.42643887 -0.21149835 0.65236658
0.67767221 1.6887975 2.0773633
0.64802843 1.6943319 1.9094695
0.62844121 1.6895189 1.7985286
0.60959792 1.6829665 1.6918026
0.59231579 1.6837803 1.5939269
0.57695729 1.6990327 1.5069597
0.55990785 1.6890143 1.4103963
0.53819871 1.6067257 1.2873913
0.51197565 1.5361439 1.1388435
0.49821481 1.532726 1.0609204
0.48546475 1.5425943 0.98873091
0.47269127 1.5488192 0.91640621
0.45812562 1.5024899 0.8339023
0.44715196 1.5483645 0.77179277
0.43464804 1.5486188 0.70099145
0.41595021 1.5387374 0.59511298
0.40372649 1.5366386 0.52589697
0.39159545 1.5420781 0.45720807
0.37944555 1.5370812 0.38840801
0.36703473 1.565606 0.31813949
0.35466635 1.5656468 0.24810073
0.34199947 1.5760899 0.17637266
0.32339299 1.5641456 0.071002111
0.31066677 1.5631638 -0.0010683509
0.29800394 1.5566155 -0.072782047
0.28595331 1.534943 -0.1410308
0.28442845 1.3273396 -0.14966892
0.27452439 1.2918702 -0.20575337
0.24581255 1.4309665 -0.36837077
0.29141748 0.75341529 -0.11000468
0.19296834 1.5360482 -0.6677081
0.31035653 0.17841147 -0.0024250727
0.31028834 0.13302164 -0.0027467709
0.31035349 0.090789311 -0.0023112707
0.3102763 0.053175278 -0.002681206
0.30852357 0.012310379 -0.012512028
0.31010935 -0.013458529 -0.0034893195
0.30891404 -0.051726557 -0.01015852
0.30895394 -0.079781577 -0.0098610865
0.30883282 -0.10541294 -0.010475663
0.30878809 -0.13000855 -0.010656802
0.30923048 -0.15531924 -0.0080760568
0.30900946 -0.17676315 -0.0092556085
0.30895382 -0.19791019 -0.0094970576
0.30905974 -0.21872045 -0.0088224318
0.30901343 -0.23824711 -0.0090104286
0.30910939 -0.25748616 -0.0083915126
0.30934408 -0.27640462 -0.0069859079
0.3085604 -0.30120414 -0.011315572
0.30877769 -0.31884614 -0.010007994
0.30861324 -0.33537039 -0.010864444
0.30889237 -0.35226402 -0.009205767
0.30877215 -0.36826068 -0.0098109217
0.30892348 -0.38433999 -0.0088763935
0.30865994 -0.39982086 -0.010293945
0.30883661 -0.41551706 -0.0092155579
0.30867511 -0.4385868 -0.010015741
0.30908942 -0.45398831 -0.0075894124
0.30855486 -0.46929437 -0.010543143
0.30863434 -0.48464349 -0.010015051
0.30949885 -0.49961603 -0.0050355261
0.30838242 -0.51572633 -0.011288389
0.30840027 -0.53138649 -0.011109394
0.30836517 -0.57145011 -0.011113836
0.30839601 -0.58785987 -0.010861033
0.30796263 -0.62271011 -0.013162252
0.30768391 -0.64105552 -0.014664619
0.30798331 -0.66785723 -0.012849256
0.30771896 -0.68770707 -0.014270042
0.3071942 -0.72995538 -0.017088836
0.30772284 -0.78372771 -0.013894332
0.30712864 -0.83636725 -0.017106716
0.30672312 -0.86577725 -0.019327691
0.30409718 -0.92548478 -0.034102112
0.30718035 -0.93992865 -0.016537327
0.30703637 -0.97558087 -0.017274911
0.13368179 -2.3791361 -1.0003089
0.13249451 -2.5348866 -1.006971
0.13158099 -2.7050571 -1.0120804
0.13002472 -2.9011121 -1.0208354
0.1378499 -3.133415 -0.976345
0.13644253 -3.3907862 -0.9842549
0.13455608 -3.6946542 -0.99488199
0.1324967 -4.0535278 -1.00649
0.13534008 -4.4036288 -0.99028999
0.14676081 -4.9390388 -0.9254027
0.21762753 -8.2828903 -0.52306753
0.2891233 -8.3044777 -0.11741363
0.44395614 -10.301638 0.76108348
0.51115686 -10.912119 1.1423532
0.6063655 -10.880396 1.6825298
0.69701511 -10.678037 2.1967602
0.88139462 -6.3334675 3.2430837
0.88527477 -5.890008 3.2651765
0.89536345 -5.5616703 3.3224826
0.88922811 -5.1174302 3.2877762
0.90187407 -4.8829041 3.3595881
0.89118397 -4.4816518 3.2990525
0.89244938 -4.2094259 3.3063226
0.86848491 -3.6714256 3.170552
0.9043225 -3.675215 3.3738968
0.89927459 -3.429374 3.3453643
0.89000541 -3.1794097 3.292892
0.8878029 -2.9841933 3.280498
0.88765156 -2.8108995 3.2797382
0.89060849 -2.6606786 3.2966068
0.85994089 -2.3814058 3.1227772
0.89658844 -2.3068256 3.3307707
0.88894367 -2.1411464 3.2875147
0.88407761 -1.9935319 3.2600181
0.87977248 -1.8547896 3.2357037
0.87726676 -1.7270038 3.2215946
0.87527829 -1.6053199 3.2104197
0.87955296 -1.4448619 3.2348182
0.87771857 -1.3314518 3.2245185
0.87646449 -1.2220564 3.2175107
0.87855452 -1.119628 3.2294693
0.83585966 -0.96786094 2.9874287
0.88013661 -0.9145239 3.2386544
0.8725639 -0.80738914 3.195812
0.86828822 -0.70585608 3.1716695
0.86755896 -0.55898041 3.1676953
0.86453575 -0.4616456 3.1506579
0.44086275 -0.43854091 0.74791265
0.42670372 -0.42220801 0.66785127
0.42507148 -0.41069087 0.65874052
0.42385474 -0.39925364 0.65198666
0.42337167 -0.38684669 0.64939421
0.42369261 -0.37714973 0.65131307
0.42471856 -0.37024486 0.6571815
0.42741019 -0.34329543 0.67264634
0.42633945 -0.33541903 0.66667211
0.42477182 -0.32927516 0.65787911
0.42422476 -0.31999257 0.65487534
0.42400691 -0.30337626 0.65378886
0.42370796 -0.29234558 0.65219277
0.42373452 -0.2793918 0.65244335
0.42304495 -0.26218545 0.648682
0.42331824 -0.24611579 0.65033281
0.4239344 -0.22686774 0.65392923
0.66308051 1.6787063 2.0111277
0.63554752 1.6946911 1.8551309
0.61733937 1.6983438 1.7519661
0.5987066 1.690439 1.6463903
0.58176559 1.6918759 1.5504122
0.56568342 1.6963722 1.4593059
0.55014563 1.7016441 1.3712871
0.52189869 1.5197618 1.2111367
0.50818515 1.5211219 1.1334631
0.48905304 1.5389612 1.0251142
0.47626209 1.546532 0.95267504
0.46335354 1.5475241 0.87956733
0.45074627 1.5516911 0.80816907
0.43834984 1.5591847 0.73796797
0.42535454 1.5363704 0.66436124
0.40701476 1.5384922 0.56050235
0.39484289 1.5391574 0.49157295
0.38269243 1.5423775 0.42276576
0.37048727 1.5481532 0.35364935
0.35790816 1.5764023 0.28241923
0.34570056 1.5622319 0.2132827
0.3330048 1.5714009 0.1413852
0.31440499 1.5585704 0.036047608
0.30152181 1.5602003 -0.036915191
0.28885174 1.5523387 -0.1086725
0.27602643 1.5447115 -0.18131009
0.2765348 1.3112315 -0.17840365
0.25138971 1.5054398 -0.32084349
0.24652641 1.3830776 -0.34836501
0.2246681 1.4015874 -0.47217277
0.1809942 1.5475688 -0.71960914
0.30728912 0.20512681 -0.0036679741
0.30756283 0.1543861 -0.0020356211
0.30730915 0.11260288 -0.0033910975
0.30724779 0.073060572 -0.0036552926
0.30700022 0.038002025 -0.0049742991
0.30696386 0.0042567947 -0.005095074
0.30711818 -0.028158961 -0.0041340576
0.30693468 -0.056508213 -0.005087629
0.30586028 -0.092012078 -0.011047959
0.30584082 -0.11746 -0.011070671
0.30589339 -0.14185946 -0.010684446
0.30614594 -0.16580148 -0.0091640539
0.30600375 -0.18711616 -0.0098815644
0.30602512 -0.20811416 -0.0096713006
0.30605271 -0.22828667 -0.0094256755
0.30638614 -0.24856552 -0.0074456497
0.30639446 -0.26719365 -0.007309054
0.30637357 -0.28517389 -0.0073379553
0.30647683 -0.30291608 -0.0066626384
0.30637103 -0.31977448 -0.0071727755
0.30600062 -0.34410918 -0.0091385227
0.30582657 -0.36015993 -0.010035718
0.30592415 -0.37632111 -0.0093925521
0.30595228 -0.39215568 -0.0091431402
0.30556181 -0.40750241 -0.011267674
0.3057836 -0.42317656 -0.0099202944
0.30575466 -0.43858427 -0.0099947406
0.30493158 -0.46161181 -0.014528501
0.30565685 -0.47696748 -0.010325777
0.30578059 -0.49230441 -0.0095346542
0.30561864 -0.52340412 -0.010275064
0.30551088 -0.53923184 -0.010797568
0.30375981 -0.56553811 -0.020597154
0.30542779 -0.57963216 -0.011048097
0.30550975 -0.59610152 -0.010495213
0.30504239 -0.61397624 -0.013058738
0.30470026 -0.63219333 -0.014912334
0.29649985 -0.68043375 -0.061301365
0.30503994 -0.67728841 -0.012769286
0.30484539 -0.69728434 -0.013787236
0.30435055 -0.71910948 -0.016509382
0.30388173 -0.74193656 -0.019084778
0.30388561 -0.7641325 -0.018979058
0.30491629 -0.7950145 -0.013007003
0.3048099 -0.82032144 -0.013528893
0.30452633 -0.84802741 -0.015057006
0.30398026 -0.87899143 -0.018076004
0.30448127 -0.92198569 -0.015116012
0.13203016 -2.3023891 -0.9936657
0.13119003 -2.4477327 -0.99842453
0.12978503 -2.6129482 -1.0063996
0.12825558 -2.7979679 -1.0150934
0.12815967 -2.9912553 -1.0156633
0.13518046 -3.2486639 -0.97586793
0.13212748 -3.5448539 -0.99327397
0.13245702 -3.84445 -0.99150068
0.13129045 -4.2201891 -0.99826097
0.19256581 -8.2302504 -0.65274626
0.24361351 -8.0507975 -0.36305442
0.31031576 -8.353775 0.015145323
0.35136476 -10.69405 0.24650246
0.4766506 -10.8214 0.95707446
0.54059678 -10.876837 1.3197562
0.56937748 -10.709176 1.4830921
0.63551742 -10.835676 1.8582164
0.69666308 -10.728253 2.2051718
0.77198637 -8.8420115 2.6338511
0.69524503 -4.9325147 2.201488
0.87925571 -6.0856829 3.2445929
0.87870592 -5.6262803 3.2418633
0.90940446 -5.5206552 3.4161322
0.89276052 -4.9955058 3.3221631
0.89627165 -4.6958504 3.3423595
0.89146954 -4.3597937 3.3154287
0.88336873 -4.0318618 3.2697825
0.88613486 -3.6906183 3.2858212
0.9030748 -3.5735202 3.3820605
0.89384252 -3.3125339 3.3299515
0.88921863 -3.0960231 3.3039505
0.88581616 -2.9003923 3.2848632
0.88602424 -2.7334473 3.2862349
0.88891715 -2.5865009 3.3028209
0.86905593 -2.3573198 3.1904039
0.8928712 -2.2328746 3.3256824
0.88458121 -2.0692871 3.2788513
0.8800627 -1.9262319 3.2533972
0.877747 -1.7958646 3.2404284
0.87383348 -1.6666737 3.2183964
0.87318975 -1.5500225 3.2149012
0.87223506 -1.436085 3.20964
0.87320107 -1.2747905 3.215343
0.87561321 -1.1721857 3.2291698
0.87670511 -1.0687637 3.2355084
0.83166027 -0.91956753 2.9801989
0.87506294 -0.86178499 3.226485
0.8550573 -0.74880028 3.1131682
0.86670423 -0.65739894 3.1793637
0.86222529 -0.51007545 3.1541708
0.43715075 -0.43311614 0.74353355
0.4249284 -0.42570809 0.67433476
0.42309058 -0.42281881 0.66395259
0.42196262 -0.41524789 0.65763903
0.42146233 -0.40282744 0.65492785
0.42073262 -0.3951858 0.65087301
0.42084986 -0.39056811 0.65158027
0.42083398 -0.37238088 0.65165937
0.42311734 -0.35220268 0.66474068
0.42434517 -0.34370449 0.67174911
0.42257828 -0.33251014 0.66185296
0.42202145 -0.32877696 0.65873641
0.42264882 -0.30952808 0.66242439
0.42076027 -0.29871902 0.65183765
0.42070422 -0.2864866 0.65160549
0.42054793 -0.2740773 0.650805
0.42018539 -0.25485343 0.6488778
0.42064133 -0.23724021 0.65155238
0.42129189 -0.21703947 0.65533197
0.67254895 1.6943486 2.0816746
0.64949745 1.6741589 1.9509927
0.62289006 1.6920633 1.8001996
0.6048494 1.6932781 1.6979494
0.5866757 1.6855532 1.5949401
0.57131737 1.7008368 1.5079105
0.55456251 1.6944721 1.412949
0.53520864 1.6444838 1.3032236
0.51245517 1.5259644 1.1741817
0.49901709 1.5296355 1.0980376
0.47992498 1.5464517 0.98986685
0.46717852 1.5536819 0.91764653
0.45360258 1.5347788 0.84070855
0.44174728 1.5582222 0.77355015
0.42892671 1.5476371 0.70090014
0.41623837 1.5304124 0.62899691
0.3979862 1.529655 0.52557951
0.38591385 1.538085 0.45718181
0.37374926 1.5480853 0.38826117
0.36137038 1.5666099 0.31812871
0.34889692 1.573621 0.24745429
0.33665621 1.5621988 0.17809132
0.32394454 1.5690863 0.10606492
0.3050085 1.5641462 -0.0012361128
0.29243124 1.555649 -0.07250762
0.28024989 1.5368693 -0.14153811
0.27947083 1.3159311 -0.14598119
0.26875001 1.2946939 -0.206728
0.24612045 1.4428477 -0.33495063
0.28589469 0.75250769 -0.10956586
0.20476864 1.5155627 -0.56929636
0.18875775 1.5220593 -0.66003972
0.304766 0.17842008 -0.0023860312
0.3043927 0.13545774 -0.0044445791
0.30444437 0.093162879 -0.0040918975
0.30424243 0.056249458 -0.005175401
0.30439225 0.019961299 -0.0042631309
0.30440328 -0.012728451 -0.0041365912
0.3043403 -0.042717434 -0.0044283681
0.30441678 -0.071493194 -0.0039287568
0.30421481 -0.097135685 -0.0050069056
0.30292919 -0.12879223 -0.012195538
0.30293822 -0.15243815 -0.012075869
0.30328357 -0.17620496 -0.010048515
0.30307654 -0.19686614 -0.011152947
0.30348074 -0.21870609 -0.0087907165
0.30358979 -0.23868632 -0.0081018871
0.30368897 -0.25789359 -0.0074685779
0.30360693 -0.27599823 -0.0078626946
0.3034884 -0.29352084 -0.008463583
0.30365267 -0.31118289 -0.0074601471
0.30303824 -0.33535326 -0.01083731
0.3030284 -0.36803475 -0.010748572
0.30317906 -0.38414788 -0.0098214103
0.30326432 -0.41549778 -0.0091923084
0.30336481 -0.43097168 -0.0085493261
0.30315319 -0.46159461 -0.0096037462
0.30283961 -0.47698516 -0.011309457
0.30281413 -0.51570427 -0.011270817
0.3028326 -0.53136396 -0.011092757
0.30265364 -0.56349689 -0.011961411
0.30283055 -0.58783585 -0.010847842
0.30239874 -0.62268519 -0.013151217
0.30212086 -0.64103013 -0.014654716
0.3016561 -0.66048765 -0.017218698
0.30180314 -0.67902547 -0.016311646
0.30178374 -0.72941297 -0.016240165
0.30244645 -0.78252387 -0.012299654
0.30157372 -0.83633798 -0.017108614
0.30142751 -0.86440933 -0.017867493
0.30038765 -0.91484785 -0.023662735
0.30186635 -0.93843526 -0.015201815
0.30148715 -0.9755497 -0.017284699
0.12938729 -2.3702939 -0.9938556
0.12815173 -2.5258176 -1.0008302
0.12709454 -2.6966109 -1.0067968
0.1249579 -2.8976228 -1.0188953
0.12547398 -3.0967824 -1.0159435
0.13225056 -3.3763433 -0.97745687
0.13134634 -3.6662712 -0.98258638
0.13205239 -3.9829981 -0.97858715
0.1312145 -4.3838301 -0.98336905
0.12938462 -4.8877697 -0.99380571
0.21250853 -8.2768793 -0.52266961
0.26056093 -8.2647753 -0.24996573
0.43489802 -9.6720076 0.73904061
0.50495279 -10.830319 1.1362742
0.60289359 -10.9628 1.6920329
0.66465032 -10.849195 2.042475
0.81423062 -7.7450457 2.8921409
0.86256462 -6.4379239 3.1668561
0.88535661 -5.9501395 3.2963707
0.88902229 -5.5531025 3.3173306
0.89828479 -5.2515178 3.3700154
0.9045406 -4.952641 3.4056435
0.89017689 -4.5173445 3.3243375
0.88790774 -4.2166138 3.3116071
0.85541499 -3.7350423 3.1274748
0.89525604 -3.653374 3.3535993
0.89412647 -3.4315956 3.3473141
0.88829678 -3.1999695 3.3143697
0.88464183 -2.9961023 3.2937551
0.88388497 -2.8191812 3.2895737
0.88578033 -2.6637893 3.3004317
0.86366576 -2.4187858 3.1751161
0.8838039 -2.3521917 3.2894344
0.88673127 -2.1522517 3.3061919
0.8794781 -1.9964529 3.265156
0.87519091 -1.8575237 3.2409408
0.8722263 -1.728328 3.2242253
0.8725006 -1.6117932 3.2258792
0.87164676 -1.4960203 3.2211339
0.87038231 -1.3283421 3.2141078
0.87179565 -1.2234581 3.2222204
0.87271094 -1.1192867 3.2275081
0.83428073 -0.97234875 3.0096266
0.85337216 -0.89523035 3.1180089
0.8715477 -0.81066877 3.2211974
0.86608106 -0.70762235 3.1902852
0.86101586 -0.60751092 3.1616502
0.85870314 -0.46175578 3.1486747
0.43577012 -0.43839425 0.74985754
0.42127454 -0.42219704 0.66783094
0.41980252 -0.41486982 0.65955967
0.41897246 -0.40717959 0.65493
0.41843611 -0.39924216 0.65196627
0.41801965 -0.39115581 0.64968288
0.41837522 -0.38152772 0.65177888
0.41855758 -0.3623718 0.65297145
0.42185113 -0.3437081 0.67173451
0.42109603 -0.33495498 0.66753042
0.41952911 -0.32877997 0.65872121
0.41883376 -0.31998205 0.6548562
0.41924703 -0.30694017 0.65728068
0.41818529 -0.29292288 0.65137744
0.41821897 -0.27999711 0.651649
0.41754052 -0.26283109 0.64792091
0.41782135 -0.24678759 0.6495952
0.41832244 -0.22827199 0.65251982
0.4177517 -0.20597516 0.64940453
0.66011888 1.6970068 2.0248525
0.6382879 1.6820234 1.9011037
0.61088455 1.688114 1.7457957
0.5933606 1.6903909 1.6464826
0.57658756 1.6935991 1.5514294
0.55951047 1.686448 1.4546487
0.54481429 1.701611 1.3713799
0.51637715 1.5169562 1.2101119
0.50298184 1.5229815 1.1342192
0.48995242 1.5308191 1.0604026
0.47108573 1.5494202 0.9535237
0.45831981 1.5543393 0.88120234
0.44498038 1.5379472 0.80562139
0.43278009 1.5493109 0.73651123
0.42001766 1.5343926 0.66420436
0.40777573 1.5347613 0.59485531
0.39564466 1.5396456 0.52613711
0.3774116 1.5333995 0.42284915
0.36517912 1.5531764 0.35356244
0.35274366 1.5674548 0.28312325
0.34037539 1.5652504 0.21305989
0.32773766 1.5714403 0.14147173
0.315222 1.5671293 0.070572592
0.29630181 1.5592768 -0.036607314
0.28359562 1.5523944 -0.10858637
0.27056995 1.548597 -0.18237555
0.27128389 1.3112918 -0.17833243
0.25423837 1.3841405 -0.2748895
0.24379335 1.3490897 -0.33405408
0.22370858 1.4344614 -0.44784036
0.19492131 1.5127492 -0.61093789
0.20859528 1.2202944 -0.53342015
0.30177301 0.20769259 -0.005277521
0.30223384 0.15525508 -0.0026046431
0.30155998 0.1166462 -0.0063612256
0.30180568 0.07466495 -0.0049045961
0.30166569 0.038806945 -0.005632801
0.30162778 0.0050384211 -0.0057815691
0.30153501 -0.025987187 -0.0062403078
0.30146888 -0.055093661 -0.006547452
0.30139807 -0.082362294 -0.0068803723
0.3015627 -0.10914484 -0.0058781258
0.30126306 -0.13237107 -0.0075072581
0.30171984 -0.15756835 -0.0048478255
0.30051348 -0.18600494 -0.011581424
0.29977939 -0.20456237 -0.015672388
0.30070955 -0.22776572 -0.010328141
0.3010518 -0.2667354 -0.0082449615
0.30103141 -0.28474769 -0.0082888305
0.30103052 -0.31941372 -0.008150165
0.30103692 -0.3361463 -0.0080418596
0.30058828 -0.37607804 -0.010405052
0.30078974 -0.39210343 -0.0091903657
0.3007997 -0.42321134 -0.0089892866
0.30060053 -0.43853173 -0.010046205
0.30048129 -0.46923807 -0.010577808
0.30038786 -0.4846389 -0.01103534
0.30030766 -0.52349013 -0.011309652
0.30037454 -0.53917861 -0.010858419
0.30013031 -0.5798375 -0.012064031
0.30021662 -0.59634036 -0.011503189
0.29991779 -0.61392248 -0.013126594
0.29974023 -0.63178104 -0.014062433
0.29074422 -0.6820026 -0.064973444
0.30008021 -0.67679608 -0.011957892
0.29973197 -0.69723016 -0.013862868
0.29938972 -0.71855503 -0.015734091
0.29921448 -0.74029219 -0.016658816
0.29877883 -0.7640776 -0.019060751
0.29981327 -0.7949599 -0.013091641
0.29943907 -0.82152522 -0.015146648
0.2995584 -0.8473165 -0.014403091
0.299137 -0.87757236 -0.0167275
0.2997489 -0.91977274 -0.01315949
0.29930735 -0.95574415 -0.015600686
0.12185247 -2.2729855 -1.0221783
0.12681486 -2.4411244 -0.99399728
0.1264329 -2.5970597 -0.99615204
0.12360478 -2.7927413 -1.0121937
0.12433952 -2.9772606 -1.0080308
0.12286361 -3.2091882 -1.0164231
0.11972808 -3.4939842 -1.0342488
0.12877907 -3.8231409 -0.98296422
0.12728167 -4.2013793 -0.99154651
0.1296434 -4.5914817 -0.97825575
0.18687163 -8.2420216 -0.65506333
0.23892117 -8.0129185 -0.35980043
0.28180674 -8.2814426 -0.11672269
0.31482908 -10.699317 0.069438525
0.47131291 -10.831414 0.95668304
0.5334996 -10.766319 1.3093245
0.56635135 -10.839536 1.4956604
0.62887675 -10.785281 1.8503174
0.69469136 -10.839679 2.2235749
0.82162374 -8.3470583 2.9448807
0.69273233 -4.9697433 2.2157965
0.72295433 -4.9436474 2.3872659
0.86196506 -6.1934843 3.1750076
0.86440396 -5.7463179 3.1891356
0.90609628 -5.5380464 3.4257753
0.88380295 -4.9613566 3.2997196
0.89400017 -4.7190289 3.3577404
0.8885138 -4.3760056 3.326875
0.88708311 -4.0942731 3.3189774
0.86419803 -3.6943011 3.1894794
0.88797498 -3.6220739 3.3244193
