# .PCD v0.7 - Point Cloud Data file format
VERSION 0.7
FIELDS x y z
SIZE 4 4 4
TYPE F F F
COUNT 1 1 1
WIDTH 1407
HEIGHT 1
VIEWPOINT 0 0 0 1 0 0 0
POINTS 1407
DATA ascii
0.68005234 -4.8646135 3.3475962
0.6705597 -4.4743218 3.2939608
0.67101508 -4.1967692 3.296736
0.64828676 -3.6683633 3.1680744
0.68207335 -3.659811 3.3599012
0.67692333 -3.4144812 3.3308458
0.66908157 -3.1732306 3.2865117
0.66788232 -2.9834974 3.2798538
0.66623545 -2.803309 3.2706506
0.66816932 -2.6492069 3.2817581
0.64515316 -2.3304353 3.1513686
0.67617834 -2.3046715 3.3275211
0.67017323 -2.1446142 3.2935734
0.66318053 -1.9902152 3.2540178
0.65994692 -1.8547609 3.2357879
0.65743977 -1.7269765 3.2216771
0.65416276 -1.6022975 3.203196
0.65725899 -1.4399545 3.2209303
0.65423453 -1.3249973 3.2038772
0.6567995 -1.2222941 3.2185388
0.65736765 -1.1178087 3.2218688
0.61502451 -0.96670002 2.9816988
0.65207404 -0.90699816 3.192039
0.65514517 -0.80908 3.2095692
0.65119529 -0.65792733 3.1873081
0.64721328 -0.558864 3.1648123
0.64141607 -0.46163541 3.132015
0.22038905 -0.4274568 0.74303156
0.20901029 -0.42049551 0.67857736
0.20684575 -0.41355404 0.66637301
0.2054998 -0.40630007 0.65881407
0.20498209 -0.40260914 0.65591562
0.20420268 -0.39059195 0.65161127
0.20389791 -0.38219979 0.64996076
0.20402642 -0.37276331 0.65076935
0.20441137 -0.35751417 0.65307307
0.20539902 -0.33951557 0.6587975
0.20507535 -0.32977092 0.65704006
0.20453586 -0.31485167 0.65409774
0.20378701 -0.31186363 0.6498875
0.20305274 -0.29705966 0.64583975
0.20379557 -0.28125089 0.65013576
0.20417655 -0.25891769 0.65241843
0.20455979 -0.24203663 0.65467417
0.20441775 -0.22688077 0.65394878
0.44273013 1.6730957 2.0070262
0.41507629 1.6872091 1.8502198
0.3958247 1.680514 1.7410504
0.37852958 1.684356 1.6429861
0.36212766 1.690972 1.5499913
0.34537929 1.6873633 1.4550288
0.33061445 1.7016231 1.3713263
0.30121541 1.5030521 1.2045316
0.28361073 1.5494688 1.1047628
0.26971909 1.54181 1.0260119
0.25705603 1.552308 0.95423764
0.24423991 1.5562741 0.88159364
0.2315236 1.5585434 0.80951613
0.21863487 1.5492892 0.73645794
0.20634316 1.5562032 0.66679198
0.18797021 1.5693992 0.56266165
0.17559657 1.5661241 0.49252978
0.16329278 1.5583615 0.42279372
0.15099435 1.5651277 0.35309243
0.13866261 1.5654148 0.28320113
0.12673071 1.5403386 0.21557257
0.11480604 1.5238553 0.14798792
0.096186005 1.5251838 0.042459879
0.083083756 1.5377798 -0.031796854
0.077617191 1.378462 -0.062774703
0.043643966 1.5381503 -0.25532696
0.031029297 1.5213056 -0.32682183
0.079004355 0.68072051 -0.054767221
0.073296435 0.64860207 -0.087080181
0.062827945 0.6726281 -0.14638756
0.05608876 0.65089434 -0.18454787
0.087542124 0.16011006 -0.0059848893
0.090391546 0.094223678 0.010243631
0.089896038 0.05906143 0.0075029582
0.092268318 -0.024276949 0.021099418
0.08940284 -0.037361685 0.0049190489
0.089530535 -0.066748582 0.0057156552
0.091362685 -0.10276153 0.01618029
0.089218698 -0.11738697 0.0040930957
0.086593427 -0.14186928 -0.010686886
0.086560413 -0.16469283 -0.010800047
0.086414091 -0.18606605 -0.011555626
0.08673235 -0.20812394 -0.0096757347
0.086609043 -0.22782691 -0.010300251
0.086785942 -0.24769847 -0.009221659
0.086950108 -0.26679659 -0.0082151126
0.08692921 -0.28480896 -0.0082580904
0.086869486 -0.30224171 -0.0085211108
0.086927228 -0.31947508 -0.0081177102
0.086390108 -0.34360105 -0.011050292
0.086553782 -0.36016947 -0.010045631
0.086824015 -0.37652147 -0.0084364172
0.086512499 -0.39200869 -0.010127012
0.086640455 -0.40775561 -0.0093246195
0.086519718 -0.42318597 -0.0099328207
0.086492948 -0.43859366 -0.010007932
0.086559735 -0.4539597 -0.0095522627
0.086400405 -0.47697678 -0.010340662
0.086526185 -0.49231371 -0.009550225
0.086399451 -0.50782222 -0.010192036
0.086196303 -0.52355248 -0.01126727
0.086091407 -0.53941458 -0.011785142
0.086086139 -0.55538821 -0.011737811
0.086016156 -0.57990003 -0.012018944
0.086101539 -0.59640294 -0.011457303
0.086130187 -0.61333418 -0.011217517
0.085785486 -0.63148558 -0.013095475
0.085569128 -0.64995128 -0.014245395
0.085960701 -0.67685896 -0.011908162
0.085764691 -0.69682378 -0.012942652
0.085268058 -0.71861821 -0.015682412
0.085091583 -0.74035549 -0.016606113
0.084798642 -0.76358187 -0.018190479
0.085548177 -0.79562497 -0.013822818
0.08544609 -0.82095939 -0.014324664
0.084904701 -0.85000408 -0.017318429
0.086146228 -0.88605344 -0.010160273
0.085614711 -0.91983634 -0.013098242
0.085171081 -0.95580786 -0.015537762
-0.087517686 -2.3039312 -0.99495435
-0.087850623 -2.445271 -0.99676841
-0.088411592 -2.6029644 -0.99987668
-0.091031209 -2.7970834 -1.0146635
-0.090890221 -2.9877546 -1.0137919
-0.084715098 -3.253974 -0.9786579
-0.086443745 -3.5339415 -0.98839563
-0.085735962 -3.8269234 -0.98431486
-0.088167727 -4.2192178 -0.9980467
-0.086628191 -4.6246743 -0.98925447
-0.028235722 -8.2648859 -0.65781689
0.020004822 -8.2516804 -0.38412905
0.090487748 -8.3368082 0.015741562
0.13112101 -10.694071 0.24614398
0.19325408 -10.734088 0.59861326
0.25656137 -10.841432 0.95773518
0.32094932 -10.918756 1.3229843
0.35056624 -10.788826 1.490955
0.41799057 -10.948673 1.8734696
0.50707847 -10.68443 2.3789403
0.47338763 -4.9011049 2.1887946
0.66333115 -6.1295033 3.2663243
0.66485822 -4.9226961 3.2753675
0.6764276 -4.6943684 3.3411043
0.66841108 -4.333591 3.2957573
0.66106057 -4.0125818 3.254185
0.6663596 -3.6892796 3.2844102
0.67654604 -3.5319457 3.3422961
0.67396092 -3.310595 3.3277452
0.66663647 -3.0801055 3.2863123
0.66462064 -2.8921754 3.2749872
0.66452128 -2.7243497 3.2745306
0.66737294 -2.5778203 3.2908108
0.65442991 -2.3048458 3.2175574
0.66989458 -2.2206457 3.3053737
0.66230696 -2.0602043 3.2624404
0.65867597 -1.9204561 3.2419479
0.65602291 -1.789649 3.227001
0.65464157 -1.6671863 3.2192662
0.65352428 -1.5494257 3.2130284
0.654948 -1.38512 3.221251
0.65304959 -1.2735274 3.2105808
0.65495741 -1.1703638 3.2214987
0.65672678 -1.0680442 3.2316301
0.61288953 -0.92019153 2.9830854
0.63962007 -0.84880668 3.1347921
0.65006912 -0.70798206 3.1941979
0.6474334 -0.60846269 3.1793404
0.64349723 -0.51022798 3.1571066
0.63862109 -0.41378337 3.1295404
0.21789089 -0.41586256 0.74355876
0.20492984 -0.41279989 0.67018932
0.20357795 -0.40987656 0.66256934
0.20272957 -0.40653324 0.65780503
0.20176172 -0.39030695 0.65250576
0.20119615 -0.37785026 0.64944029
0.20116106 -0.35914719 0.64943045
0.20240983 -0.35091901 0.65656012
0.20270219 -0.334418 0.65835953
0.20219016 -0.32514447 0.65554965
0.20116001 -0.31186822 0.64984792
0.20112368 -0.30618823 0.64968872
0.20101833 -0.28832081 0.64923131
0.20154676 -0.27284732 0.65232116
0.20194498 -0.24952884 0.6547184
0.20174265 -0.23518439 0.65366316
0.20126264 -0.21298236 0.65107864
0.45243981 1.686427 2.0755737
0.42263883 1.6902289 1.9066695
0.40299425 1.684479 1.7953315
0.3851772 1.6872432 1.694357
0.36720598 1.6811472 1.5925097
0.35092828 1.6856581 1.5002652
0.33536482 1.6926293 1.412071
0.31764305 1.6647054 1.3116435
0.29387695 1.5334053 1.1769603
0.27409539 1.545077 1.0648812
0.26084694 1.5464259 0.98981857
0.24814181 1.5546273 0.91783524
0.23549575 1.5611643 0.846187
0.22266576 1.5581981 0.77349806
0.20901856 1.5139444 0.6961866
0.19771421 1.561219 0.6321348
0.17920606 1.5635853 0.52727693
0.16689029 1.5600585 0.45750338
0.15461001 1.5640596 0.38792807
0.14228864 1.5655879 0.31812024
0.13021244 1.5467002 0.24970999
0.11808918 1.5373611 0.18102917
0.10017142 1.5148847 0.079525709
0.087532215 1.5201041 0.0079119569
0.073792331 1.5449505 -0.069953471
0.04715253 1.5498663 -0.22090411
0.042846754 1.4017924 -0.24518681
0.079882689 0.6880855 -0.034724381
0.074359924 0.6529035 -0.065950073
0.066958338 0.64299655 -0.10784396
0.057699524 0.65177637 -0.16028124
0.084572949 0.1858547 -0.0073679034
0.08893922 0.10468768 0.017527914
0.087350182 0.076587185 0.0086180568
0.090147562 -0.01276514 0.024711702
0.086720176 -0.052470725 0.0054721665
0.087137073 -0.095543727 0.0079965498
0.088555992 -0.11516236 0.016101688
0.083955482 -0.1306264 -0.0098496182
0.083542578 -0.15246706 -0.01208833
0.083881676 -0.17623402 -0.010059824
0.083668925 -0.19689539 -0.011163224
0.083915345 -0.21825066 -0.0096612126
0.084170476 -0.23871589 -0.0081099775
0.084106773 -0.25750068 -0.0083681969
0.084016852 -0.27563739 -0.0087752491
0.084214777 -0.29390934 -0.007549162
0.083428383 -0.31824178 -0.011856806
0.083992563 -0.32771951 -0.0086041382
0.083695315 -0.35203528 -0.010136344
0.083569206 -0.36806574 -0.010748935
0.083714671 -0.38417903 -0.0098206997
0.083617657 -0.39983335 -0.010268123
0.083789624 -0.41552928 -0.0091894371
0.083711818 -0.43093356 -0.0095277643
0.083683789 -0.45396498 -0.0095319366
0.083665654 -0.46928829 -0.0095314309
0.083566979 -0.48465464 -0.0099876933
0.08356183 -0.50006258 -0.0099131847
0.083478324 -0.51561511 -0.010282978
0.083319269 -0.53139687 -0.011081148
0.083259031 -0.54730046 -0.011318481
0.082960591 -0.5637551 -0.01290675
0.083131745 -0.58814502 -0.011778269
0.08310093 -0.60501146 -0.011847589
0.082855821 -0.62271917 -0.013132059
0.082572281 -0.64106441 -0.014634006
0.082577541 -0.65930194 -0.014497337
0.083058923 -0.68635339 -0.011605854
0.08262606 -0.70742667 -0.013952751
0.082357384 -0.7289331 -0.015367627
0.08211197 -0.75137639 -0.01664979
0.082715139 -0.7831471 -0.013063146
0.082775198 -0.80701476 -0.012610768
0.082234859 -0.83508843 -0.015561859
0.082073361 -0.86310732 -0.016363371
0.081785291 -0.8937065 -0.017881064
0.082235016 -0.93847179 -0.015154647
0.081847027 -0.97558653 -0.017234236
-0.089933932 -2.3663828 -0.99074125
-0.091221735 -2.5218053 -0.99784189
-0.092334323 -2.6925023 -1.0039365
-0.093099736 -2.8797081 -1.0080487
-0.086815186 -3.1254921 -0.97206634
-0.087696403 -3.3755305 -0.97678751
-0.088585317 -3.6645312 -0.98152268
-0.088596337 -3.9905028 -0.98124814
-0.089635566 -4.3942552 -0.98674917
-0.091111027 -4.8916636 -0.99465472
-0.054453451 -8.198205 -0.78372216
-0.0077416869 -8.2481632 -0.51851654
0.064574048 -8.1738005 -0.10806039
0.22049303 -10.809311 0.77902424
0.28432271 -10.891144 1.1414037
0.37934121 -10.859515 1.6804888
0.44220623 -10.808619 2.0370924
0.4808816 -4.8376689 2.2522571
0.65121305 -6.283958 3.2196326
0.64940178 -5.7822118 3.2090423
0.6674704 -5.5416722 3.3114181
0.6686275 -5.165689 3.3177664
0.67470866 -4.8712158 3.3521094
0.66563535 -4.4831891 3.3004236
0.66406399 -4.1896439 3.2913647
0.64238918 -3.6683276 3.1681435
0.67891556 -3.6765924 3.3754175
0.67219281 -3.4208035 3.3371735
0.6655727 -3.1854632 3.2995288
0.66173112 -2.9814847 3.2776701
0.66172266 -2.8089261 3.2775791
0.66385704 -2.6551759 3.2896583
0.6343357 -2.3807499 3.1220868
0.66951221 -2.3009076 3.321698
0.66411054 -2.1430581 3.2910326
0.65759087 -1.9901576 3.2540307
0.65375328 -1.8529481 3.2322555
0.65188849 -1.7269155 3.2216811
0.65007699 -1.6056058 3.2114136
0.65388203 -1.4441205 3.2330291
0.65122837 -1.3293148 3.2179937
0.65064692 -1.2211889 3.2147195
0.6520679 -1.1179615 3.2228105
0.6088804 -0.9658677 2.9778101
0.64285648 -0.90348166 3.1706142
0.64919382 -0.80863678 3.2066076
0.64459157 -0.70654768 3.1805372
0.64232194 -0.558887 3.1677268
0.63618505 -0.46155256 3.1329579
0.21492931 -0.42163855 0.7433489
0.2011697 -0.40921959 0.66548604
0.20015171 -0.4060505 0.65975034
0.19927257 -0.39846155 0.6548419
0.19845656 -0.3865222 0.65033138
0.19822605 -0.36871064 0.64918268
0.19856469 -0.35342255 0.65122342
0.20025207 -0.34369066 0.66083556
0.19955727 -0.32974416 0.65701449
0.19931407 -0.31946179 0.65571547
0.19826788 -0.31183657 0.6498614
0.1975328 -0.29703236 0.64581323
0.19827561 -0.28122315 0.65010858
0.19927147 -0.2629903 0.65583992
0.19903913 -0.24200802 0.65464544
0.1987738 -0.22755904 0.6532231
0.43720657 1.6723837 2.0063062
0.41022396 1.6922653 1.8533967
0.39019513 1.6788958 1.7398802
0.37203243 1.6740383 1.6369511
0.35633597 1.6875118 1.5480158
0.33967516 1.6847347 1.453608
0.3251996 1.7026014 1.371601
0.29526064 1.4966196 1.2018337
0.28418338 1.5371319 1.1391077
0.26409656 1.5399481 1.0253192
0.25152633 1.5523556 0.95412052
0.23870155 1.5563186 0.88147658
0.22561277 1.5477866 0.80733246
0.2132149 1.5542656 0.73711181
0.20080025 1.5572305 0.66679555
0.18235722 1.5664362 0.56233883
0.16996939 1.5591545 0.4921729
0.1576989 1.5663841 0.42267767
0.14539862 1.564147 0.3530108
0.13311332 1.5604417 0.28342888
0.12116772 1.5373663 0.215767
0.1091566 1.5248528 0.14773738
0.09088058 1.5153685 0.044225924
0.077281088 1.5416737 -0.032796837
0.075841948 1.2953877 -0.040958159
0.046520419 1.3953612 -0.20702317
0.035443943 1.3700453 -0.26975715
0.072558559 0.6917606 -0.059454769
0.067809887 0.64678156 -0.086315721
0.059081573 0.65123236 -0.13572584
0.050361086 0.65175438 -0.18509315
0.082226925 0.15764892 -0.0043328139
0.085303336 0.090227783 0.013167959
0.08680062 0.041184444 0.021720642
0.086661339 -0.02427946 0.021066781
0.08417768 -0.068116389 0.00712601
0.085495487 -0.10145274 0.014665605
0.082985431 -0.1267098 0.0005412185
0.080847427 -0.14128713 -0.011509308
0.080955915 -0.16469863 -0.010824418
0.080663189 -0.18554218 -0.01241394
0.080979511 -0.20763001 -0.010550409
0.081007615 -0.22783317 -0.010320861
0.081341788 -0.24814317 -0.0083559146
0.08150968 -0.26720977 -0.0073336661
0.081331223 -0.28481558 -0.0082752258
0.081272639 -0.30224851 -0.0085371565
0.081331603 -0.31948203 -0.0081326757
0.080963954 -0.34386724 -0.010112445
0.080961257 -0.36017698 -0.01005799
0.081062488 -0.37633824 -0.0094144288
0.080922782 -0.39201653 -0.010137303
0.080879919 -0.40764174 -0.010311318
0.080933079 -0.42319414 -0.0099410601
0.081081346 -0.4386543 -0.0090316823
0.080958836 -0.46162978 -0.0096243508
0.0808198 -0.47698557 -0.010345293
0.080774285 -0.49239239 -0.010536247
0.080822766 -0.50783134 -0.010194567
0.080793642 -0.5234226 -0.010293509
0.080690011 -0.53925049 -0.010815644
0.080806158 -0.56308264 -0.010059356
0.080449857 -0.5799101 -0.012016486
0.080537885 -0.59641314 -0.011453693
0.080569327 -0.61334449 -0.011212721
0.080065615 -0.63185459 -0.014008776
0.080014512 -0.64996225 -0.014238019
0.079775944 -0.66913545 -0.015531997
0.080065519 -0.69730449 -0.013801464
0.080026805 -0.71762979 -0.013964464
0.079554014 -0.74036741 -0.016592344
0.080329478 -0.77078736 -0.012111349
0.080160618 -0.79503524 -0.013018649
0.079925328 -0.82097167 -0.014305172
0.079782888 -0.84804851 -0.015067155
0.079497248 -0.87764883 -0.01664478
0.080356866 -0.91841036 -0.011703533
0.079680406 -0.95582104 -0.01550872
-0.092958346 -2.3056202 -0.99604642
-0.09222807 -2.4389129 -0.99200767
-0.093759187 -2.604738 -1.0008372
-0.095494762 -2.7912645 -1.0108564
-0.096035287 -2.9887388 -1.014117
-0.088602588 -3.2416151 -0.97221309
-0.090849444 -3.527715 -0.98527753
-0.091525786 -3.8399291 -0.98947716
-0.092353076 -4.2109356 -0.99461859
-0.090703614 -4.6153393 -0.9857688
-0.034151647 -8.3580589 -0.67016935
0.01562543 -8.2925129 -0.38781893
0.087210596 -8.3018675 0.018082917
0.12813963 -10.704057 0.24667227
0.19037624 -10.744033 0.59948909
0.25409481 -10.88228 0.9605611
0.31815276 -10.918617 1.3237035
0.34901792 -10.859281 1.4989591
0.41390899 -10.896981 1.86704
0.47045034 -10.628677 2.1882205
0.55239689 -8.9239769 2.6557693
0.46971574 -4.9110808 2.1931195
0.50467795 -4.9515934 2.391433
0.65659469 -6.098877 3.251452
0.66439182 -4.9567537 3.2976034
0.67072242 -4.6833882 3.3339882
0.66694921 -4.3564262 3.3131478
0.66893584 -3.9737957 3.3250916
0.66228563 -3.6926782 3.2878642
0.67306286 -3.5388184 3.3492842
0.66734004 -3.2998593 3.3172519
0.66274029 -3.0844791 3.291553
0.66097432 -2.8976538 3.2818825
0.65991145 -2.7252769 3.2761769
0.66877317 -2.5263643 3.3268266
0.64871937 -2.3018303 3.2134955
0.66698456 -2.2275572 3.3172529
0.6581856 -2.0628207 3.2676597
0.65361112 -1.920168 3.2419908
0.65092921 -1.7893648 3.2270362
0.64984125 -1.6676862 3.2211068
0.65076602 -1.4978217 3.2266903
0.64993447 -1.3851535 3.222199
0.64801443 -1.2735307 3.2115321
0.64990354 -1.1703348 3.2224529
0.6508047 -1.0669432 3.2277696
0.60999984 -0.92237628 2.9966502
0.63295329 -0.84743708 3.1269724
0.64343256 -0.75648808 3.1865799
0.64019084 -0.60763282 3.1684918
0.63849026 -0.51001233 3.1590405
0.63463652 -0.41339755 3.137378
0.21223396 -0.41595206 0.74256402
0.19976445 -0.41697589 0.67194164
0.19825068 -0.41409242 0.66340297
0.1970624 -0.40233347 0.65680224
0.19627683 -0.39026603 0.65248483
0.19563949 -0.38249195 0.64896196
0.19544376 -0.37380505 0.64794391
0.1958302 -0.36353177 0.6502282
0.19676864 -0.35130191 0.6556443
0.19721842 -0.33437863 0.65833533
0.1971221 -0.32925248 0.65783548
0.19567683 -0.31183037 0.64982247
0.19564049 -0.30615056 0.64966303
0.19581209 -0.28708005 0.65077776
0.19606261 -0.2728104 0.65229392
0.19645967 -0.24949227 0.65469021
0.19625668 -0.23514825 0.65363443
0.19553883 -0.21440969 0.64970583
0.44729659 1.6912781 2.0791173
0.42354649 1.665334 1.9444953
0.39710861 1.6837428 1.7947066
0.3783111 1.6770523 1.688184
0.3615784 1.6829844 1.5933806
0.34528685 1.6875218 1.5010772
0.32963583 1.6936111 1.412407
0.31197897 1.6666155 1.3123358
0.28791222 1.5306652 1.1758295
0.26788399 1.537522 1.0623773
0.25506181 1.5464746 0.98975116
0.24235342 1.5546715 0.91776955
0.22941659 1.5533789 0.84448516
0.21693316 1.5602033 0.77377832
0.2030402 1.5060536 0.69503105
0.19207942 1.5701975 0.63300341
0.17342359 1.5656046 0.52732509
0.16111168 1.5680758 0.45758802
0.14880523 1.5640748 0.3878772
0.1364997 1.5636024 0.31817448
0.12446753 1.542724 0.25000674
0.11228259 1.5373666 0.18098478
0.10009848 1.5305446 0.11196678
0.080888815 1.5425993 0.0031637254
0.067889653 1.5468856 -0.070466831
0.041325998 1.5498554 -0.22093654
0.033478115 1.458162 -0.26542598
0.077306412 0.64450508 -0.017414032
0.068514414 0.65564013 -0.067179009
0.061173137 0.64478868 -0.10873339
0.052062772 0.65176922 -0.16030596
0.079336561 0.18336648 -0.005740793
0.083226502 0.10630561 0.016345074
0.080885179 0.083678931 0.0031365366
0.084551819 -0.012021464 0.02402778
0.081514262 -0.081558071 0.0070084133
0.081505254 -0.10744826 0.0070240018
0.079663865 -0.12362619 -0.0033433598
0.078240588 -0.15304029 -0.011306223
0.078298077 -0.17568886 -0.010910518
0.078087665 -0.19637974 -0.012032285
0.078488946 -0.21824984 -0.0096863732
0.078285396 -0.23735294 -0.01076776
0.07853388 -0.25707692 -0.0092863375
0.07844656 -0.2752454 -0.0097076511
0.078809649 -0.29390788 -0.0075753494
0.078029864 -0.31824017 -0.011883335
0.078596987 -0.32771778 -0.0086308997
0.078657165 -0.34437895 -0.0082141273
0.078354932 -0.36827156 -0.0098132249
0.078335173 -0.38417679 -0.0098486487
0.078414641 -0.39997014 -0.0093212174
0.078419179 -0.41552675 -0.0092181917
0.07817246 -0.43086118 -0.010539351
0.078192398 -0.44626793 -0.010348447
0.078310482 -0.46928525 -0.009561738
0.078216076 -0.48465145 -0.01001848
0.078042209 -0.50014645 -0.010925521
0.078308411 -0.51548976 -0.0093373433
0.077981174 -0.53139329 -0.01111351
0.07792522 -0.5472967 -0.011351416
0.078282297 -0.57097208 -0.0092075132
0.077975698 -0.58786529 -0.010866099
0.077782288 -0.60500723 -0.01188274
0.077704713 -0.62237275 -0.012242486
0.077262335 -0.64105982 -0.014670552
0.077113457 -0.65970397 -0.015434304
0.077605814 -0.68680245 -0.012521856
0.077484183 -0.70693678 -0.013130799
0.076919459 -0.72944289 -0.016252067
0.077264756 -0.74973708 -0.01421328
0.076482899 -0.77536929 -0.018565573
0.077503875 -0.80700898 -0.012654715
0.077101938 -0.83443969 -0.01485259
0.076812983 -0.86310124 -0.01640976
0.076280877 -0.89508963 -0.019345639
0.076989628 -0.93846536 -0.015204588
0.076950051 -0.97331578 -0.015347533
-0.095209025 -2.3671672 -0.99140829
-0.09667021 -2.5242474 -0.9996171
-0.096893422 -2.6874542 -1.0008061
-0.098558776 -2.8831196 -1.0101731
-0.09856043 -3.0863554 -1.0101063
-0.09287791 -3.3773091 -0.97776937
-0.093010999 -3.6572027 -0.97844917
-0.094649233 -4.0062442 -0.98766512
-0.096192338 -4.4205451 -0.9963432
-0.095510282 -4.8840327 -0.99240488
-0.060258575 -8.2505293 -0.7922284
-0.013165602 -8.299757 -0.52511293
0.036094461 -8.2189894 -0.24570625
0.21674135 -10.819313 0.77883899
0.27898395 -10.76048 1.131856
0.37758443 -10.951853 1.6910987
0.43961045 -10.849153 2.0428524
0.58999509 -7.755372 2.8959098
0.65025365 -6.3226814 3.2378235
0.64648867 -5.7972984 3.2165532
0.66566676 -5.5668674 3.3253577
0.67079341 -5.2259822 3.354496
0.67215073 -4.8870516 3.3622627
0.66189432 -4.4889355 3.3041852
0.66074824 -4.1983967 3.2977574
0.64033103 -3.6850138 3.1821067
0.67484498 -3.6796076 3.3778493
0.66589618 -3.4109941 3.3271821
0.66249061 -3.1937373 3.307941
0.65814936 -2.9868233 3.2833951
0.65680438 -2.807759 3.2758355
0.65808499 -2.6504548 3.2831602
0.63637662 -2.3366268 3.1601861
0.66585213 -2.3047142 3.327353
0.66060573 -2.1471553 3.2976725
0.65347928 -1.9921328 3.2573333
0.64979583 -1.8552376 3.2365124
0.6474576 -1.7278273 3.2233174
0.64467525 -1.6042067 3.2076044
0.64846092 -1.44292 3.2291543
0.64645636 -1.3294171 3.2178485
0.64637285 -1.2220689 3.217433
0.64796448 -1.1189661 3.2265124
0.60457247 -0.96653748 2.9805865
0.62467849 -0.89138412 3.0946202
0.64491969 -0.80910999 3.2094173
0.63944876 -0.70648116 3.1784575
0.63665408 -0.55882144 3.1626942
0.63329142 -0.46166155 3.1436841
0.20978917 -0.4216592 0.74330455
0.19602007 -0.40923789 0.66544473
0.19500162 -0.40606871 0.65970951
0.19412252 -0.39847985 0.65480179
0.19347233 -0.38623166 0.65122879
0.19323094 -0.38219324 0.64989805
0.19307828 -0.36872959 0.64914471
0.19358858 -0.35791436 0.65211135
0.19510832 -0.3437106 0.66079873
0.19441478 -0.32976434 0.65697867
0.19402377 -0.31999719 0.65483618
0.1928042 -0.3072955 0.64803451
0.19253404 -0.29646519 0.6465764
0.19313875 -0.28124419 0.65007573
0.19413756 -0.26301184 0.65580779
0.19390805 -0.24202991 0.65461439
0.19364466 -0.22758113 0.65319282
0.43253952 1.6730964 2.0068955
0.40583265 1.6955014 1.8556001
0.38586602 1.6830609 1.7424926
0.36723527 1.6739674 1.6369563
0.35194343 1.691859 1.550335
0.33509719 1.6873679 1.4549128
0.32039103 1.7025417 1.3716129
0.29054347 1.498422 1.2025814
0.27939826 1.5380222 1.1394569
0.25985762 1.5513796 1.0287894
0.24663068 1.5513487 0.95388252
0.23384859 1.5562809 0.88149506
0.22102155 1.5556055 0.80885559
0.20821993 1.5492963 0.73636311
0.19593956 1.5572028 0.66681868
0.18361533 1.5616364 0.59702748
0.16510327 1.5591353 0.49219975
0.15283178 1.5673683 0.42270616
0.140517 1.5661336 0.35297194
0.12830114 1.5554454 0.28380352
0.11632607 1.535372 0.21600488
0.10413035 1.5307931 0.14694813
0.085762873 1.5222441 0.042945515
0.072201312 1.5465539 -0.033867322
0.070426725 1.3060217 -0.043730773
0.045242533 1.5619211 -0.18654379
0.041946925 1.389706 -0.20506248
0.030276863 1.3738012 -0.27113119
0.06680119 0.70189601 -0.063670851
0.062790625 0.64679277 -0.086299613
0.053903472 0.65302849 -0.13660271
0.045422778 0.65089655 -0.18459718
0.077137917 0.15765528 -0.004329443
0.079787031 0.093427703 0.010798956
0.081977732 0.0047861971 0.023420557
0.082256287 -0.028662952 0.025095908
0.078800425 -0.066746898 0.0056847301
0.079187818 -0.095543042 0.0079750279
0.078886747 -0.11927368 0.0063603721
0.075851381 -0.14186843 -0.010713904
0.075815417 -0.16469218 -0.010825983
0.075813517 -0.18659553 -0.010745344
0.07583148 -0.20762363 -0.010552412
0.075855933 -0.22782683 -0.010323047
0.075874276 -0.24726021 -0.010128567
0.07603351 -0.26639014 -0.0091355275
0.076007858 -0.28443483 -0.0091909366
0.076106839 -0.3022424 -0.0085398806
0.076327555 -0.31978503 -0.0071988688
0.076165952 -0.33620882 -0.0080253612
0.075952433 -0.36039585 -0.0091013107
0.075880863 -0.37633219 -0.0094173718
0.075737514 -0.39201048 -0.01014025
0.075863421 -0.40775761 -0.0093368609
0.075740457 -0.42318818 -0.0099440282
0.075711526 -0.43859604 -0.010018107
0.075756647 -0.46162391 -0.0096272994
0.075787172 -0.4769448 -0.0093640294
0.075563863 -0.49238652 -0.010539127
0.075608157 -0.50782549 -0.010197421
0.075574651 -0.52341682 -0.010296322
0.075466424 -0.53924465 -0.010818406
0.075117685 -0.55559999 -0.012703021
0.07521233 -0.57169837 -0.012074676
0.075296983 -0.59640735 -0.011456274
0.07515876 -0.61366427 -0.012146398
0.074813113 -0.63184869 -0.014011215
0.074756026 -0.64995635 -0.014240402
0.074987523 -0.6773026 -0.01278635
0.074944489 -0.69682926 -0.012934232
0.074594609 -0.71812397 -0.014819506
0.07426402 -0.74036145 -0.016594475
0.074111305 -0.76302886 -0.017360663
0.074989863 -0.79442781 -0.012234196
0.074741013 -0.8203367 -0.01354187
0.074584335 -0.84738678 -0.014325925
0.074028783 -0.87832499 -0.017366981
0.075120911 -0.91768563 -0.011021452
0.073726662 -0.95953101 -0.018805481
-0.1039357 -2.2762289 -1.0244216
-0.098572508 -2.4412584 -0.99374336
-0.099185064 -2.5988524 -0.99698263
-0.099928014 -2.7750685 -1.0009423
-0.10160754 -2.9817269 -1.0101806
-0.1035199 -3.2181547 -1.0207089
-0.096682653 -3.5194759 -0.98153865
-0.097882219 -3.8361638 -0.98794681
-0.098141685 -4.1959147 -0.98898339
-0.098741993 -4.6332207 -0.99187511
-0.04172238 -8.317399 -0.66459531
0.0079322085 -8.2467289 -0.38313162
0.05506945 -8.2815256 -0.11583316
0.18070465 -10.714084 0.5988965
0.24337387 -10.761522 0.95424294
0.30787033 -10.876885 1.3200125
0.339439 -10.859402 1.4988846
0.40137649 -10.774339 1.8499674
0.46560681 -10.778545 2.2141337
0.54576242 -8.9666929 2.6669121
0.46632764 -4.9613242 2.2129986
0.65078473 -6.1160636 3.259887
0.64331841 -5.580884 3.2171161
0.67611635 -5.498456 3.4030182
0.65371668 -4.9226251 3.2755594
0.6625514 -4.671361 3.325464
0.66082919 -4.3598785 3.315469
0.65260023 -4.0303912 3.268574
0.65406072 -3.6802971 3.2766161
0.66784948 -3.5448298 3.3547113
0.66176254 -3.3028915 3.3200414
0.65972149 -3.1001203 3.3083427
0.65413797 -2.8934031 3.2765598
0.65476424 -2.7286031 3.2800162
0.65655023 -2.5771773 3.2900579
0.64306581 -2.3020709 3.2134569
0.66137254 -2.2278047 3.3172131
0.6527921 -2.0635486 3.2684824
0.6493628 -1.9240403 3.2489724
0.64471108 -1.7874898 3.2225363
0.64430213 -1.6675324 3.2201631
0.64223921 -1.5475907 3.208415
0.64385056 -1.3838431 3.2174788
0.64397216 -1.2756937 3.2181218
0.64389485 -1.169358 3.217638
0.64755255 -1.0694631 3.2383285
0.60355157 -0.9212023 2.9888573
0.62757283 -0.84738237 3.1249857
0.63964951 -0.757447 3.1933982
0.635086 -0.65663487 3.1674895
0.62995154 -0.5098682 3.138325
0.62822169 -0.413775 3.1284781
0.20731832 -0.42168403 0.74329728
0.19470771 -0.41702753 0.67194009
0.19286889 -0.40564218 0.66162199
0.192012 -0.40238407 0.65680075
0.19106595 -0.39060867 0.65154153
0.19067328 -0.37786025 0.64941692
0.19048922 -0.35956457 0.6485061
0.19204801 -0.33489874 0.65746349
0.1916941 -0.32515615 0.65552247
0.19067045 -0.31188047 0.64981991
0.1904926 -0.3067598 0.64884394
0.19067858 -0.28773198 0.64998835
0.19107477 -0.27286065 0.65229076
0.19161205 -0.24887358 0.6554184
0.19128634 -0.23519856 0.65363061
0.19132718 -0.21852051 0.6539157
0.4430261 1.6895663 2.0778553
0.41977608 1.6676338 1.9461839
0.39331177 1.6861409 1.7962687
0.37556449 1.6897985 1.6957459
0.35756576 1.683754 1.5938126
0.34221315 1.699005 1.5068443
0.32575047 1.6962361 1.4136112
0.30805832 1.6692889 1.3134469
0.28384578 1.532452 1.1764954
0.26417276 1.546008 1.0650766
0.25076726 1.5444829 0.98916906
0.23819578 1.5555768 0.91796875
0.22524737 1.5542964 0.84465128
0.21232975 1.547344 0.77151698
0.1990737 1.516894 0.69650137
0.18749756 1.550258 0.63090688
0.16919209 1.5645626 0.52723593
0.15687604 1.5650365 0.45749912
0.1445926 1.5570399 0.38796055
0.13230716 1.5585768 0.31839544
0.12032203 1.5357218 0.25057146
0.10800558 1.5383338 0.18082882
0.095996685 1.5245963 0.11285567
0.0765163 1.5455173 0.0025139411
0.063079104 1.5594865 -0.07359954
0.045971777 1.3910211 -0.17014743
0.03318537 1.3942581 -0.24255414
0.06367328 0.6583662 -0.06839896
0.056081343 0.6501689 -0.11134166
0.047345366 0.65264183 -0.16078618
0.023849757 0.74954313 -0.2940065
0.074521266 0.1833479 -0.0057502128
0.076081917 -0.07890211 0.0040767188
0.075515665 -0.10232663 0.00098501437
0.072184175 -0.12462821 -0.017742278
0.073296852 -0.15306088 -0.011308882
0.073346071 -0.17570969 -0.010912694
0.073276877 -0.19691578 -0.01118987
0.073369727 -0.2177863 -0.010548988
0.073311113 -0.23737442 -0.010768578
0.07370995 -0.25752133 -0.0083942153
0.073458835 -0.27526736 -0.0097076073
0.073491216 -0.29321334 -0.0094136577
0.073482767 -0.31058285 -0.0093519539
0.07302016 -0.33512911 -0.011811763
0.073460527 -0.3522982 -0.0092060873
0.073334783 -0.36829472 -0.0098108957
0.073138513 -0.38402647 -0.010815703
0.073211633 -0.39985454 -0.010293282
0.073210135 -0.41544601 -0.010193977
0.073304221 -0.43095493 -0.0095529184
0.073319279 -0.44632709 -0.0093598114
0.073082253 -0.46932727 -0.01054124
0.073107675 -0.47700408 -0.01034304
0.073150352 -0.50008428 -0.0099384403
0.073065855 -0.51563686 -0.010308274
0.07290566 -0.53141868 -0.011106478
0.072844334 -0.54732227 -0.011343872
0.072544433 -0.56377697 -0.012932164
0.072714038 -0.58816701 -0.011803851
0.072681889 -0.60503358 -0.011873264
0.072598398 -0.62239927 -0.012232404
0.072310723 -0.6407119 -0.0137467
0.072754525 -0.66704279 -0.011058966
0.072632454 -0.68637574 -0.011632047
0.072348885 -0.70696425 -0.013117642
0.072074383 -0.72844046 -0.014549845
0.071968652 -0.75030959 -0.015024392
0.072558396 -0.78199422 -0.011496536
0.072470918 -0.80642188 -0.011861725
0.071922004 -0.83446831 -0.014834463
0.071622774 -0.86313003 -0.016390467
0.071204267 -0.89442396 -0.018616673
0.0720101 -0.93703204 -0.013838967
0.071606137 -0.97410011 -0.015969807
-0.10144264 -2.3703632 -0.99369234
-0.1020445 -2.5201533 -0.99669963
-0.10263953 -2.6857789 -0.99963307
-0.10394096 -2.8771219 -1.006514
-0.1054095 -3.0942297 -1.0142851
-0.098003961 -3.3647306 -0.97159547
-0.098959856 -3.6526403 -0.9763037
-0.10030188 -3.9951236 -0.98308027
-0.10111555 -4.3942394 -0.98673654
-0.10271699 -4.8916473 -0.9946416
-0.020734154 -8.2769489 -0.52200252
0.026911039 -8.2937307 -0.25179282
0.2081138 -10.880327 0.78140432
0.27063543 -10.810417 1.1357572
0.36668041 -10.859617 1.6803992
0.43411317 -10.97368 2.0627258
0.62757522 -6.3980474 3.1489761
0.63918579 -5.7912011 3.2135351
0.64284158 -5.4050021 3.2334812
0.66566509 -5.2387848 3.3625164
0.6680966 -4.9070282 3.3756573
0.65667331 -4.4971023 3.3101337
0.65706688 -4.2165952 3.3118501
0.62394917 -3.7296638 3.1232491
0.66534936 -3.6577361 3.3578241
0.66261166 -3.42591 3.3419194
0.65720946 -3.1965299 3.3109262
0.65439081 -2.9967265 3.2946393
0.65181303 -2.8109653 3.2797506
0.65371603 -2.6559281 3.2903204
0.63162172 -2.4112933 3.1647236
0.66063547 -2.3058262 3.3290911
0.65423667 -2.1442049 3.2926161
0.64744079 -1.990302 3.2539103
0.64409441 -1.8544058 3.234792
0.64257663 -1.7290903 3.2260611
0.63886601 -1.6031233 3.2049048
0.63881093 -1.489808 3.2044942
0.64052987 -1.3282827 3.2141111
0.64113384 -1.2221018 3.2174585
0.64342374 -1.1198967 3.2303724
0.60483909 -0.9726724 3.0115376
0.61624402 -0.88843822 3.076153
0.63941514 -0.8088904 3.2074726
0.63569051 -0.70720053 3.1863124
0.63083988 -0.55870074 3.1587591
0.6269694 -0.46167833 3.1367888
0.20478143 -0.42737389 0.74394274
0.19105527 -0.40905595 0.66640764
0.18986554 -0.40609449 0.65970904
0.18877853 -0.39440128 0.65368026
0.18799613 -0.37786111 0.64942229
0.18821487 -0.37278059 0.65070558
0.18843938 -0.35793746 0.65210962
0.18958527 -0.3395313 0.65873343
0.18910752 -0.33027095 0.65611476
0.18886581 -0.3200185 0.65483332
0.18764174 -0.30731618 0.64803135
0.18787165 -0.30047828 0.6493777
0.18797091 -0.28126386 0.65007186
0.1883506 -0.25892985 0.65235406
0.18873338 -0.24204823 0.65460938
0.18846694 -0.22759899 0.65318739
0.18914101 -0.2064085 0.65709156
0.42756346 1.6739093 2.0074203
0.4067463 1.665696 1.8895655
0.38075393 1.6830724 1.7424253
0.36237106 1.6765758 1.6383668
0.34664312 1.6901025 1.5493436
0.3298713 1.6864769 1.4544146
0.31508791 1.7007213 1.3707452
0.28516838 1.4956434 1.2014148
0.27426764 1.5389638 1.1397326
0.25475216 1.5532922 1.0293041
0.24141195 1.5513471 0.95382166
0.22861846 1.5562779 0.8814342
0.21584651 1.557564 0.80917066
0.2030489 1.552253 0.73676485
0.19093055 1.5691054 0.66819811
0.17834011 1.5616267 0.59696704
0.15986674 1.5681171 0.49244857
0.1475291 1.5693535 0.42264569
0.13522132 1.5631186 0.35301483
0.12310961 1.5444531 0.28449956
0.11091947 1.5393293 0.2155337
0.09866526 1.5357207 0.14620361
0.08598876 1.5434175 0.074475542
0.06640128 1.5572417 -0.03636409
0.064697422 1.3137186 -0.04582217
0.051169094 1.3486303 -0.12239096
0.03661114 1.3887236 -0.20479684
0.02412964 1.3849643 -0.27542108
0.060887806 0.70922863 -0.066782586
0.05771029 0.64313531 -0.084666319
0.049941998 0.63695621 -0.12858665
0.040204313 0.64911103 -0.18367431
0.071869284 0.15680788 -0.0037808463
0.073582791 0.09978915 0.0060432008
0.077292249 0.00023129278 0.027285647
0.076865226 -0.057892911 0.025071476
0.0732987 -0.066092312 0.0049550515
0.073549904 -0.094258212 0.00647998
0.072474264 -0.12673149 0.00053208083
0.070190579 -0.14072092 -0.012314665
0.070434734 -0.16472013 -0.010832646
0.070431918 -0.18662342 -0.010751379
0.070449039 -0.20765147 -0.01055785
0.070626087 -0.22832404 -0.0094584115
0.070490316 -0.2472879 -0.010132893
0.070807621 -0.26682442 -0.0082396632
0.07062266 -0.28446233 -0.0091942353
0.070241325 -0.30993649 -0.011216162
0.070776194 -0.31950331 -0.0081378352
0.07023491 -0.34362966 -0.011068268
0.070723511 -0.35254428 -0.0082527371
0.070493869 -0.3763594 -0.0094182491
0.0705221 -0.39219406 -0.0091680819
0.07047651 -0.40778467 -0.0093369465
0.070353784 -0.42321521 -0.0099437376
0.070325196 -0.43862304 -0.010017443
0.070390336 -0.45398918 -0.0095603699
0.070228651 -0.47700652 -0.010346628
0.07017985 -0.49241331 -0.010537193
0.070225105 -0.50785226 -0.010195129
0.070192777 -0.52344346 -0.010293678
0.07008595 -0.5392713 -0.010815414
0.069738977 -0.55562669 -0.012699687
0.070005707 -0.57967198 -0.011063995
0.06975691 -0.59672624 -0.012393835
0.069787234 -0.61369079 -0.012141816
0.069444545 -0.63187528 -0.014006275
0.069390468 -0.64998281 -0.014235092
0.069306239 -0.66873336 -0.014636098
0.069740824 -0.69638604 -0.012058452
0.069242299 -0.71815032 -0.014812844
0.068916835 -0.74038792 -0.016587399
0.068769522 -0.76305532 -0.017353158
0.069655336 -0.79445374 -0.012226046
0.069143705 -0.82162142 -0.015063927
0.069133364 -0.84806883 -0.015060033
0.068971828 -0.8769871 -0.015916888
0.06994193 -0.91699183 -0.010326952
0.069369763 -0.95361173 -0.013522794
-0.10358416 -2.3048565 -0.99541271
-0.10306442 -2.4397461 -0.99255759
-0.10410841 -2.6014466 -0.99860388
-0.10641821 -2.7929859 -1.0118676
-0.10582376 -2.9792378 -1.0086664
-0.099186867 -3.2398589 -0.97128206
-0.10159353 -3.5277407 -0.98523772
-0.10058 -3.816942 -0.97981471
-0.10229411 -4.1988249 -0.98998421
-0.1022404 -4.6286035 -0.9902066
-0.043758128 -8.3115416 -0.66364157
0.0040683988 -8.3392792 -0.3925707
0.052968167 -8.2755737 -0.11528476
0.11773074 -10.607088 0.24844675
0.24204126 -10.731496 0.95288646
0.30896208 -11.011268 1.3317976
0.33958372 -10.920941 1.505464
0.4033407 -10.896977 1.8671663
0.46639672 -10.839415 2.224947
0.46118462 -4.9407363 2.2049999
0.49264184 -4.9333048 2.3834989
0.64868528 -6.1291356 3.2667515
0.6538102 -5.7257771 3.2965231
0.67307621 -5.5032921 3.4062135
0.65396732 -4.9583917 3.2987642
0.66140181 -4.693996 3.341418
0.65768689 -4.366766 3.3209357
0.65537822 -4.0798306 3.3083665
0.63552439 -3.7014143 3.1964335
0.66822344 -3.5732973 3.3821981
0.66094977 -3.3234282 3.3414114
0.65364277 -3.0924594 3.300406
0.65098792 -2.9008179 3.2857234
0.65062511 -2.7313826 3.2840044
0.65165561 -2.5768771 3.2901638
0.63069147 -2.3442481 3.1717052
0.65691066 -2.2295611 3.3206913
0.64933586 -2.0685816 3.2780554
0.64386249 -1.9228349 3.2473133
0.64213765 -1.7943779 3.2378027
0.63867611 -1.6664557 3.2184415
0.63720334 -1.5480127 3.2103434
0.63523507 -1.4322859 3.1994305
0.63881886 -1.2759482 3.2201004
0.63920105 -1.1702706 3.2224998
0.64145762 -1.0685403 3.2355213
0.59775257 -0.92075431 2.9879632
0.63307655 -0.85613579 3.1884525
0.63375115 -0.75704676 3.1924958
0.62775683 -0.65571415 3.1587226
0.62602633 -0.50976837 3.1492281
0.62338442 -0.41337946 3.1344559
0.20155255 -0.41596109 0.74258876
0.18910524 -0.41238636 0.6721282
0.18758266 -0.40963784 0.66353792
0.18635702 -0.39794704 0.6567241
0.18564908 -0.39463702 0.65275425
0.18536745 -0.38621703 0.65124875
0.18503298 -0.37782255 0.64944363
0.18499145 -0.36393499 0.64934671
0.18593206 -0.35173681 0.65477669
0.18638563 -0.33486032 0.65749061
0.18644249 -0.32926467 0.65786022
0.18574746 -0.3148306 0.65405703
0.18481709 -0.30672237 0.64887118
0.18485507 -0.28829634 0.64922911
0.18524759 -0.27345228 0.65155268
0.1859078 -0.24883553 0.65544558
0.18557563 -0.23516074 0.65365773
0.18560845 -0.21848267 0.65394276
0.43681201 1.6936946 2.0808942
0.41305223 1.6678082 1.9461896
0.38659528 1.6862997 1.7962711
0.36876774 1.6890897 1.6952391
0.35095593 1.6847662 1.5942885
0.33536437 1.6973517 1.5059466
0.31892386 1.6945417 1.4127735
0.30289015 1.6896485 1.3219048
0.27732825 1.5334792 1.1768427
0.26373091 1.5353471 1.0997983
0.24434574 1.5474403 0.98997355
0.23171769 1.5575833 0.91843373
0.21890992 1.5602232 0.84586662
0.20611782 1.5582273 0.77338344
0.19291419 1.5317903 0.69854182
0.18115024 1.5602382 0.63191873
0.16883825 1.5644222 0.56216317
0.1503451 1.5590534 0.45737514
0.13805525 1.5680465 0.38774863
0.12592368 1.5465941 0.31899059
0.11379988 1.5387034 0.25028917
0.10138713 1.5452673 0.17996213
0.089569271 1.5235869 0.11298247
0.069992907 1.5474393 0.0020740626
0.056968559 1.5516819 -0.071725607
0.057009824 1.2887753 -0.071661532
0.040096495 1.3824086 -0.16743767
0.028262319 1.3716446 -0.23450042
0.014998771 1.378758 -0.3096548
0.057420682 0.66106409 -0.069605932
0.050660193 0.64293134 -0.10789336
0.041482523 0.65082288 -0.15986823
0.068298928 0.1866276 -0.0079416269
0.069106221 0.1337568 -0.0033309001
0.07400997 0.020163922 0.024542172
0.07062339 -0.080276325 0.0055620656
0.068761609 -0.12245275 -0.0048755314
0.067330621 -0.15195206 -0.012897992
0.067383155 -0.17465883 -0.012539281
0.067614876 -0.19695422 -0.011163549
0.067716971 -0.2178248 -0.010521716
0.067667134 -0.23741306 -0.010740411
0.067759827 -0.25671476 -0.010150203
0.067831635 -0.27530614 -0.0096776402
0.067871988 -0.2932522 -0.0093828216
0.068035476 -0.31094733 -0.008389106
0.067986973 -0.32777944 -0.0085970582
0.067881025 -0.34418219 -0.0091302767
0.067918941 -0.36854202 -0.0088130264
0.067730963 -0.38423976 -0.0098105138
0.067812026 -0.40003341 -0.0092818346
0.06764552 -0.41548589 -0.010156965
0.067746431 -0.43099487 -0.0095150732
0.067594804 -0.44633231 -0.010305351
0.067709766 -0.46168831 -0.0095832292
0.067622609 -0.48471662 -0.0099721933
0.067623466 -0.50012475 -0.0098968958
0.067718275 -0.51555562 -0.0092884311
0.067392945 -0.53145957 -0.011063267
0.067509167 -0.54717249 -0.010333113
0.067046463 -0.56381834 -0.012887249
0.067196682 -0.57997108 -0.011964117
0.067367323 -0.60476601 -0.0108895
0.067126609 -0.62244099 -0.012184295
0.067008309 -0.64037925 -0.012784585
0.066856772 -0.65895957 -0.013573592
0.067189336 -0.68641782 -0.011580495
0.067067057 -0.70652175 -0.012203764
0.066501915 -0.72899824 -0.015340284
0.066554882 -0.75035244 -0.014969611
0.066347994 -0.77371973 -0.016073821
0.066808559 -0.8076961 -0.013355917
0.066546284 -0.83451158 -0.014775382
0.06664712 -0.861166 -0.014134555
0.066355571 -0.891689 -0.015721282
0.065620251 -0.927109 -0.019827534
0.066635475 -0.97187972 -0.013965776
-0.10481546 -2.3617382 -0.98708016
-0.10639666 -2.5194957 -0.99603558
-0.10701431 -2.6859407 -0.99952692
-0.10822643 -2.877285 -1.0064001
-0.10934143 -3.0917699 -1.0127304
-0.11066462 -3.3379588 -1.0202533
-0.10253976 -3.6482327 -0.97415435
-0.10251682 -3.973032 -0.97406709
-0.10423052 -4.3868842 -0.98386556
-0.10596887 -4.8899088 -0.99383622
-0.022250876 -8.2601833 -0.51961279
0.025512595 -8.2599354 -0.24851678
0.051491506 -10.642738 -0.10189243
0.14408445 -10.735662 0.42358518
0.20728929 -10.890272 0.78224897
0.26905072 -10.760447 1.1328275
0.36584842 -10.869382 1.6821396
0.4301596 -10.869768 2.0470967
0.4688009 -4.8771505 2.2690072
0.62368035 -6.3931913 3.1472912
0.63340545 -5.7696834 3.20281
0.66707748 -5.2893229 3.3941867
0.66490197 -4.9158058 3.3820562
0.65458983 -4.515377 3.3237703
0.6509068 -4.2044463 3.3030639
0.62056005 -3.7385492 3.1311295
0.66065794 -3.6581378 3.3587828
0.65868825 -3.4312408 3.3477676
0.65373713 -3.2043927 3.3198359
0.6490525 -2.9950981 3.2934101
0.64855254 -2.8194623 3.2907145
0.64822429 -2.6544132 3.2889898
0.63500941 -2.445981 3.2141645
0.65233117 -2.294919 3.3126149
0.64942342 -2.1459002 3.2962484
0.64396816 -1.996106 3.2654276
0.64045489 -1.8593712 3.2456205
0.63987595 -1.736119 3.2424567
0.6350404 -1.6069562 3.2151439
0.63333899 -1.4898649 3.2056091
0.63616741 -1.3303384 3.2218285
0.63607913 -1.2228557 3.221442
0.63715661 -1.1189419 3.2276678
0.60537416 -0.97947276 3.0474684
0.60238081 -0.88082898 3.0305953
0.63356614 -0.80861872 3.2076325
0.62912458 -0.70658469 3.182543
0.62561268 -0.60722566 3.1627269
0.62016964 -0.46142098 3.1320071
0.19940877 -0.42723992 0.74499488
0.18568739 -0.41336176 0.66734457
0.18415777 -0.40188238 0.65878689
0.1834603 -0.39848557 0.65486985
0.18280904 -0.3862375 0.65129584
0.18247652 -0.37784281 0.64948988
0.18225209 -0.36910996 0.64829731
0.18276291 -0.35832638 0.65127665
0.18391262 -0.3399674 0.65792197
0.18399027 -0.33441001 0.65840316
0.18320245 -0.32051665 0.65405416
0.18259957 -0.31131697 0.65071416
0.18185957 -0.29646996 0.64663655
0.18259849 -0.2806327 0.65091079
0.18284222 -0.25891474 0.65241599
0.18335208 -0.2413512 0.6553908
0.1828374 -0.22829163 0.65255159
0.1833968 -0.20785682 0.65580797
0.42265856 1.6828123 2.0139525
0.40082452 1.6666226 1.8901404
0.37495479 1.6848629 1.7434739
0.35763213 1.688786 1.645262
0.3406322 1.6892974 1.5488802
0.32412159 1.6883446 1.4552743
0.30942079 1.7035251 1.3719397
0.27903476 1.4910574 1.1995682
0.26853284 1.5399487 1.1400632
0.25508481 1.5422733 1.063834
0.23571883 1.5523436 0.95406407
0.22309768 1.5611748 0.88252681
0.21012031 1.5566021 0.80896592
0.1973522 1.5512797 0.73659205
0.1852178 1.5661371 0.66781664
0.17272936 1.5626274 0.59702945
0.16035447 1.5585817 0.52688605
0.14195861 1.5653459 0.42261708
0.12969202 1.5601083 0.35308746
0.11765893 1.5384512 0.28488031
0.10545496 1.5373189 0.21570611
0.093404643 1.526783 0.14740229
0.080230586 1.5532355 0.072726712
0.06093904 1.5581799 -0.036627583
0.058361575 1.3339658 -0.051207405
0.04762511 1.314163 -0.11205776
0.029676866 1.4151518 -0.21381544
0.019235989 1.3783799 -0.27299115
0.057069298 0.68894088 -0.058319755
0.052046645 0.64762855 -0.08674942
0.042374212 0.66275388 -0.14155713
0.031318679 0.68667477 -0.20421231
0.066614874 0.15677479 -0.003758186
0.068020798 0.10215246 0.0042905184
0.07137005 0.0047280588 0.023439366
0.070900999 -0.05368166 0.020926047
0.068203725 -0.093634002 0.0057709441
0.065841317 -0.13249096 -0.0074836491
0.06587097 -0.15596735 -0.0072401827
0.066090189 -0.17901567 -0.0059209005
0.065109544 -0.20718348 -0.011371884
0.065440431 -0.2283558 -0.009418576
0.065308332 -0.24731956 -0.010092222
0.065628737 -0.26685587 -0.0081980601
0.065447219 -0.28449371 -0.0091518648
0.06538564 -0.3019591 -0.0094249686
0.065606758 -0.31953442 -0.0080938563
0.06561289 -0.33626705 -0.0079825288
0.065559782 -0.35257512 -0.0082072699
0.065163925 -0.37619936 -0.010338494
0.065193556 -0.39206827 -0.010093535
0.065321781 -0.40781516 -0.0092890076
0.065201402 -0.42324558 -0.0098951142
0.06517496 -0.43865329 -0.0099681197
0.065242037 -0.45401931 -0.0095103336
0.065055087 -0.46935987 -0.010494012
0.065134659 -0.48470843 -0.009965173
0.06525553 -0.50777733 -0.0091632307
0.065052047 -0.52347308 -0.01024048
0.06494657 -0.5393008 -0.0107615
0.064770721 -0.55544811 -0.011681787
0.064529829 -0.57199627 -0.012971152
0.064952888 -0.59617043 -0.010453766
0.064979978 -0.61306846 -0.010222201
0.064309664 -0.63190413 -0.013948146
0.064415492 -0.64962083 -0.013269615
0.06432876 -0.66833937 -0.013683727
0.063912801 -0.68867427 -0.015966034
0.064256564 -0.71767861 -0.013897846
0.063779943 -0.74041617 -0.016524229
0.063919082 -0.76196498 -0.015656112
0.064514339 -0.79448158 -0.01216019
0.064270318 -0.82039046 -0.01346619
0.06398759 -0.84809649 -0.01499169
0.063949831 -0.87633258 -0.01512692
0.06318137 -0.91069055 -0.019408556
0.064326599 -0.95289576 -0.01279041
-0.10783922 -2.4357431 -0.98954427
-0.10865203 -2.5948551 -0.99407166
-0.10984819 -2.7752168 -1.0007732
-0.11053489 -2.9723492 -1.004582
-0.11295044 -3.2138898 -1.0181997
-0.10442225 -3.4942441 -0.96966738
-0.10612658 -3.8160584 -0.97924262
-0.10688151 -4.1820564 -0.98342663
-0.10523009 -4.5813618 -0.97395116
-0.049319953 -8.2590857 -0.655963
-0.0021068067 -8.2985306 -0.38792601
0.046272561 -8.252655 -0.11327492
0.1720041 -10.774063 0.60068846
0.23514752 -10.841368 0.95914525
0.32906306 -10.788693 1.4923757
0.39621073 -10.938591 1.8735318
0.45605817 -10.768534 2.2132287
0.45408517 -4.932426 2.2019589
0.48794606 -4.9570932 2.3941922
0.626239 -6.1993961 3.1791744
0.65242982 -5.7826772 3.3278725
0.66601139 -5.5007753 3.4049909
0.64506811 -4.9383211 3.2861609
0.65633506 -4.7063427 3.3501482
0.64986479 -4.3564463 3.3134696
0.65183651 -4.1001005 3.3247058
0.63324744 -3.7278936 3.2192535
0.66089511 -3.5668964 3.3762383
0.65303445 -3.3137784 3.3316784
0.64947993 -3.1025729 3.3115587
0.64587766 -2.9053965 3.2911692
0.64394927 -2.7283864 3.2802806
0.64725161 -2.583427 3.2990775
0.62381446 -2.3404186 3.1661282
0.64813346 -2.2897484 3.3041959
0.64338237 -2.0681908 3.2773211
0.6385693 -1.9242926 3.2500663
0.6367327 -1.7953212 3.2397032
0.63427287 -1.6696815 3.2258043
0.63236654 -1.5499071 3.2150466
0.63044238 -1.4340185 3.2041883
0.63341421 -1.2763333 3.2211444
0.63399559 -1.1708666 3.2245049
0.63509339 -1.0676163 3.2307963
0.5936715 -0.92225224 2.9958062
0.63089001 -0.85889846 3.2070677
0.62798053 -0.75695956 3.1906204
0.62357444 -0.65632522 3.1656806
0.6188975 -0.55789083 3.1392047
0.61718988 -0.41359529 3.1296098
0.19644818 -0.42178676 0.74237645
0.18450226 -0.42112342 0.67466807
0.18252507 -0.40966257 0.66356385
0.18149714 -0.40212804 0.65780783
0.18180668 -0.39719495 0.65960258
0.17991287 -0.38252845 0.64901012
0.17994902 -0.36395913 0.64936864
0.1807351 -0.35218391 0.65390563
0.18119705 -0.33535445 0.65664172
0.18125683 -0.32977417 0.65701932
0.18071795 -0.31485507 0.65407664
0.17930827 -0.30276245 0.64619321
0.17951629 -0.29588777 0.64741182
0.18022904 -0.27347666 0.6515708
0.18089487 -0.2488602 0.65546346
0.18044135 -0.23587997 0.65296686
0.18036181 -0.21994597 0.652592
0.43219051 1.694361 2.0815978
0.40894142 1.6725484 1.9497589
0.38865429 1.6640121 1.8347261
0.36415726 1.6898475 1.6958433
0.34659904 1.6881714 1.5962954
0.33123103 1.703501 1.5091742
0.31453797 1.6980857 1.4145364
0.29997924 1.7135062 1.3320081
0.27288172 1.5371486 1.1783459
0.25921002 1.5381242 1.1008524
0.24589348 1.5398979 1.0253742
0.22691557 1.5546263 0.91781366
0.2143463 1.5631171 0.84657639
0.20147927 1.5591773 0.77365053
0.18884818 1.5565183 0.70206386
0.17648835 1.5602152 0.63201636
0.1641922 1.5654027 0.5623306
0.15184774 1.5631191 0.49237138
0.13341048 1.5660454 0.38788399
0.12129854 1.5436031 0.3192459
0.1091483 1.5387148 0.25039035
0.096929245 1.5363525 0.18114467
0.084430382 1.5413903 0.11031173
0.07142166 1.5556033 0.036586277
0.0527061 1.5429927 -0.069475211
0.05198627 1.2955486 -0.073470652
0.035963483 1.3729522 -0.16429691
0.028222563 1.2984097 -0.2081313
0.010136516 1.3816096 -0.31066236
0.052051969 0.66841948 -0.072757408
0.045853727 0.64298278 -0.10784145
0.036760014 0.64999741 -0.15935323
0.062630929 0.19330406 -0.012326484
0.063695021 0.13784614 -0.006208478
0.069088101 0.020206423 0.024549946
0.069101319 -0.01277577 0.024705213
0.068178914 -0.066373818 0.019632364
0.064910471 -0.076214314 0.0011695627
0.061763886 -0.11316789 -0.016521677
0.063337058 -0.14422816 -0.0075167324
0.063460886 -0.16749638 -0.0067342953
0.062507816 -0.19638655 -0.012021387
0.063362464 -0.20963115 -0.007132947
0.062702246 -0.23735918 -0.010758733
0.062791817 -0.25666025 -0.010170816
0.06302046 -0.2756418 -0.008794006
0.063060254 -0.2935549 -0.0084885852
0.062894776 -0.31056547 -0.0093476512
0.063007824 -0.32772252 -0.0086267004
0.063234769 -0.34464225 -0.0072596436
0.063065425 -0.36062503 -0.0081407512
0.063167207 -0.37671775 -0.0074837939
0.0628222 -0.39997342 -0.0093216589
0.062653512 -0.41542515 -0.010199097
0.062752232 -0.43093354 -0.0095595513
0.062771991 -0.44630516 -0.0093679922
0.062711358 -0.46162567 -0.0096324803
