# .PCD v0.7 - Point Cloud Data file format
VERSION 0.7
FIELDS x y z
SIZE 4 4 4
TYPE F F F
COUNT 1 1 1
WIDTH 1330
HEIGHT 1
VIEWPOINT 0 0 0 1 0 0 0
POINTS 1330
DATA ascii
0.020536022 -0.68881023 0.049744725
0.024808951 -0.68865454 0.04975801
0.029261548 -0.68851823 0.049804449
0.050887022 -0.68846881 0.049259685
0.053615581 -0.68757617 0.049792469
0.063868009 -0.68714958 0.0497839
0.064951353 -0.68787104 0.049241479
0.065843701 -0.68781972 0.049212869
0.070737451 -0.68762851 0.049249191
0.083960153 -0.68703407 0.049234957
0.084544584 -0.68702209 0.049237348
0.071895957 -0.68679756 0.04976717
0.079135261 -0.68647224 0.049766682
0.08185216 -0.68637598 0.049793839
0.082435057 -0.68634838 0.049796306
0.083347365 -0.68628728 0.049789928
0.085401982 -0.68696362 0.049229369
0.087817259 -0.68685031 0.049240075
0.092948765 -0.68661988 0.049229812
0.094686821 -0.68651366 0.049205806
0.095295571 -0.68572563 0.049750656
0.097176418 -0.68564415 0.0497551
0.10259 -0.68536341 0.049748316
0.11726369 -0.68543965 0.049233317
0.1149059 -0.68476975 0.049750432
0.13817246 -0.68433642 0.049220372
0.14630593 -0.68314606 0.049762916
0.14804658 -0.68382806 0.049243014
0.01425828 -0.68000019 0.049389672
0.010247194 -0.67931873 0.049919639
0.011160113 -0.67930239 0.049932249
0.015999714 -0.67916334 0.049950395
0.019623278 -0.67904955 0.049942896
0.021131335 -0.67900997 0.049940195
0.030267419 -0.67948258 0.049395088
0.034225229 -0.67936271 0.04940835
0.024745442 -0.67887634 0.049921378
0.036197316 -0.67851007 0.049942479
0.039547 -0.67838085 0.049927611
0.046570815 -0.67892468 0.049396887
0.049221743 -0.67803293 0.049922712
0.051656231 -0.67871666 0.049351972
0.061389267 -0.67836058 0.049350832
0.063494228 -0.67829567 0.049366247
0.070746221 -0.67801547 0.049375188
0.055073772 -0.67785609 0.049965329
0.063140243 -0.67752492 0.04991024
0.066188186 -0.67745912 0.049986511
0.071118072 -0.67799652 0.049373321
0.10289716 -0.67670274 0.049409658
0.10414911 -0.67665625 0.049414322
0.11814046 -0.67602092 0.049399462
0.10680691 -0.67573798 0.04990954
0.10772832 -0.67571104 0.049927801
0.13441391 -0.67523462 0.049354736
0.13060662 -0.67470419 0.049980804
0.13298509 -0.67455906 0.049935907
-0.017555168 -0.671727 0.049255922
0.001278556 -0.6713571 0.049374867
0.016532594 -0.67092884 0.049290042
0.017707046 -0.67012376 0.049867865
0.021143528 -0.6708169 0.049324505
0.036660623 -0.67036295 0.049334105
0.043633766 -0.67012155 0.049283002
0.022910254 -0.66998369 0.049873579
0.029562512 -0.66977334 0.04984666
0.031743404 -0.66971761 0.049860619
0.044584472 -0.66934121 0.049875092
0.046974506 -0.6693067 0.049934246
0.055225462 -0.66973555 0.049262561
0.056056499 -0.66970128 0.04925552
0.054574184 -0.66898668 0.049823377
0.058563255 -0.66888624 0.049872156
0.059454937 -0.66887748 0.049904551
0.10497291 -0.66719824 0.04985866
0.10617949 -0.66715711 0.049869638
0.10709135 -0.66712838 0.049895145
0.11863978 -0.66740483 0.049303237
0.12266584 -0.66723484 0.04931261
0.12543584 -0.66637182 0.049863715
0.011319414 -0.66212595 0.049603879
0.016950542 -0.66194606 0.049463104
0.018784529 -0.66192275 0.049484659
0.019751921 -0.66189712 0.049482387
0.022784298 -0.6618222 0.049493123
0.030355588 -0.66163075 0.049479991
0.037520222 -0.66143513 0.049494248
0.044272106 -0.66125405 0.049481463
0.045172077 -0.66121143 0.049461253
0.046069283 -0.66118878 0.049468275
0.047637515 -0.66115725 0.04948213
0.10655913 -0.65926546 0.049471337
-0.0077511319 -0.65424085 0.049303222
-0.0019056835 -0.65409791 0.049266163
0.0083597917 -0.65401983 0.049436629
-0.036301244 -0.65396649 0.049957875
-0.034619834 -0.65394706 0.049965106
-0.032546502 -0.65390998 0.049932726
-0.022580517 -0.65374798 0.049938995
-0.021961536 -0.65373188 0.049934421
0.02412612 -0.65366828 0.049360488
0.032423899 -0.65348524 0.0493531
0.035552498 -0.65339535 0.04933909
0.021908389 -0.65295434 0.04995269
0.022855861 -0.65294051 0.049959
0.023750223 -0.65291357 0.049952663
0.026799515 -0.65286392 0.049981613
0.029060872 -0.65280807 0.049976964
0.032096144 -0.65273839 0.049951915
-0.055363309 -0.64667219 0.049452551
-0.040166844 -0.64653081 0.049481478
-0.03087182 -0.64642197 0.04945825
-0.021889756 -0.64630181 0.049471408
-0.020264594 -0.64627481 0.049468186
-0.018095709 -0.64625794 0.049485244
-0.01530376 -0.64621204 0.049469706
-0.0051085693 -0.64603448 0.04943385
0.015552197 -0.64653718 0.049019154
-0.0025019806 -0.64553523 0.049642272
-0.0012568046 -0.64512646 0.049933564
0.0058090738 -0.64591056 0.049516395
0.0064797327 -0.64590973 0.049529731
0.014837837 -0.64578491 0.049598619
0.022684375 -0.6455906 0.049455442
0.023540346 -0.64558095 0.049458183
0.024492729 -0.64557499 0.049471576
0.026321806 -0.64554387 0.049475685
-0.060269762 -0.63926321 0.049225803
-0.059230935 -0.63925648 0.049249232
-0.054603253 -0.63917279 0.049176782
-0.052384961 -0.63916743 0.049197383
-0.050812095 -0.63919109 0.049234651
-0.039590459 -0.63906658 0.049192097
-0.056570366 -0.63843584 0.049809653
-0.054990187 -0.63841313 0.049799863
-0.051519249 -0.63843119 0.049847811
-0.034398966 -0.63826913 0.049835008
-0.031593211 -0.63824427 0.049835816
-0.029555781 -0.63898784 0.049229622
-0.028103838 -0.63897049 0.049207825
-0.025658604 -0.63819045 0.049837165
-0.023404581 -0.63817644 0.049853362
-0.020315461 -0.63812745 0.049851555
-0.016267896 -0.63807791 0.049834482
-0.013255905 -0.6384294 0.049540497
-0.0108255 -0.63875556 0.049192175
-0.009567664 -0.63872105 0.049178332
7.6441982e-05 -0.63851976 0.049079854
0.0047134254 -0.63852447 0.049168751
0.012010747 -0.63850719 0.049293235
-0.010036601 -0.63798052 0.049798727
-0.0081041036 -0.63795173 0.049808256
-0.0075051645 -0.63795072 0.049812347
-0.0043501328 -0.63791788 0.049827654
-0.0034458986 -0.63790816 0.049825028
-0.00097232225 -0.63783354 0.049762335
0.0078142099 -0.63778877 0.049867444
0.010052775 -0.63778955 0.049911194
-0.077121057 -0.63112301 0.04981561
-0.063766502 -0.63104916 0.049800333
-0.05507176 -0.63177812 0.049179338
-0.037504241 -0.63164473 0.04914644
-0.034662489 -0.63163227 0.049165215
-0.031518497 -0.63161194 0.04917594
-0.029032882 -0.63159758 0.049175382
-0.027418569 -0.63159126 0.049186867
-0.020829527 -0.63154072 0.049189709
-0.0054391641 -0.63134843 0.049150746
-0.0025712487 -0.63131928 0.049156256
-0.0016439388 -0.63131547 0.049162239
-0.00099338021 -0.63130677 0.049154367
0.0011855038 -0.63125026 0.049101807
0.0038776535 -0.63115638 0.049024317
-0.053933192 -0.63098466 0.04977639
-0.050471786 -0.63097852 0.04979527
-0.046717152 -0.63099301 0.049844548
-0.041979864 -0.63093364 0.049788244
-0.039511435 -0.63088983 0.049761217
-0.035083964 -0.63089818 0.049823869
-0.032229386 -0.63087177 0.04980972
-0.025672233 -0.63082749 0.049800828
-0.021293985 -0.63080132 0.049827408
-0.017819578 -0.63075542 0.049826507
-0.015588473 -0.6307323 0.049812432
-0.013451532 -0.63071734 0.049817685
-0.0036513715 -0.63059044 0.049787186
0.000170712 -0.63054967 0.049774308
-0.078277372 -0.62444359 0.049369384
-0.063821167 -0.62440538 0.049350142
-0.058174789 -0.62439644 0.049323563
-0.050553247 -0.6243329 0.049308933
-0.044257008 -0.62436259 0.049377888
-0.043282878 -0.62435597 0.049372349
-0.042361647 -0.62437254 0.049389698
-0.040530577 -0.62434256 0.049378313
-0.0353668 -0.62427914 0.049314264
-0.032522954 -0.62427771 0.049342431
-0.029735183 -0.62426251 0.049343415
-0.026897322 -0.62424833 0.049343344
-0.020897932 -0.62421644 0.049345471
-0.01290724 -0.62415063 0.04934682
-0.009809522 -0.62414742 0.049375694
-0.0075804717 -0.62411517 0.049346451
-0.068169236 -0.6236769 0.049993765
-0.060792148 -0.62364906 0.049996186
-0.058941524 -0.62365216 0.049979076
-0.057069413 -0.62366527 0.049999423
-0.049512465 -0.62360573 0.049978502
-0.030162117 -0.62352872 0.049993679
-0.027350111 -0.62351066 0.049997427
-0.023581533 -0.62349963 0.049992643
-0.013403226 -0.62342328 0.04999987
-0.012438511 -0.62341452 0.049998704
-0.011836186 -0.62340063 0.049986623
-0.09324044 -0.6177727 0.049064454
-0.091476411 -0.61704487 0.049736507
-0.090539701 -0.61704087 0.049756408
-0.084266163 -0.61705166 0.049738087
-0.081346422 -0.61704385 0.049724869
-0.080417164 -0.61704206 0.049728263
-0.078352854 -0.61777943 0.049067564
-0.07670109 -0.61779672 0.049084533
-0.075913601 -0.61706644 0.049752746
-0.072266109 -0.61781645 0.049093369
-0.066657543 -0.61779374 0.049064666
-0.065019019 -0.61780483 0.049088627
-0.064019904 -0.61781949 0.049110096
-0.062952258 -0.61709553 0.049768224
-0.059680965 -0.61777538 0.049056921
-0.058614001 -0.61777467 0.049071044
-0.05487534 -0.61780113 0.049076568
-0.053766694 -0.61707264 0.049730886
-0.051203545 -0.61707586 0.049763914
-0.048669271 -0.61700875 0.049698655
-0.046254601 -0.617746 0.049052116
-0.045334809 -0.61775535 0.049070287
-0.044184808 -0.61705196 0.049755793
-0.043212876 -0.61704552 0.049757313
-0.042457964 -0.61777395 0.049100704
-0.040371671 -0.61705703 0.049768068
-0.032960184 -0.6177125 0.04904386
-0.022109229 -0.61769038 0.049077485
-0.019596303 -0.61766326 0.049052525
-0.017397242 -0.61766982 0.04907722
-0.096004322 -0.61695421 0.04965169
-0.036584444 -0.61698836 0.049690329
-0.0311711 -0.61699039 0.049744163
-0.030528657 -0.61699378 0.049746651
-0.02396447 -0.616974 0.049742807
-0.022246741 -0.61696661 0.049750812
-0.020761246 -0.61696059 0.049730383
-0.073560193 -0.61121899 0.04901161
-0.050571907 -0.61124158 0.049009554
-0.040056393 -0.61123586 0.049005229
-0.10783878 -0.61032999 0.049639408
-0.10309222 -0.6104117 0.049698483
-0.098984897 -0.61042452 0.04966658
-0.097344972 -0.61044538 0.049697351
-0.092220835 -0.61041021 0.04962755
-0.088431135 -0.61044502 0.049679682
-0.078170456 -0.6104483 0.049638305
-0.076613367 -0.61045492 0.049646851
-0.063222773 -0.61050665 0.049671311
-0.062193181 -0.61052287 0.049682219
-0.059668865 -0.61049783 0.049656395
-0.058729663 -0.61048424 0.04964333
-0.056773707 -0.6104899 0.049649384
-0.052028216 -0.61052805 0.049655482
-0.047873244 -0.61048079 0.049625676
-0.046886135 -0.61046356 0.049615074
-0.045375776 -0.61048341 0.049632128
-0.044357907 -0.61048228 0.049636897
-0.040500723 -0.61051673 0.049676154
-0.038571239 -0.6105296 0.049686451
-0.037676219 -0.61054063 0.049699482
-0.036746204 -0.61054367 0.04970919
-0.032211687 -0.61044186 0.049599018
-0.029999679 -0.61047935 0.049639419
-0.11658843 -0.60444111 0.049074143
-0.11276869 -0.60445327 0.049055755
-0.10882444 -0.60447443 0.049061388
-0.10562251 -0.60448468 0.049059384
-0.10469531 -0.60450733 0.049059629
-0.10182934 -0.60455602 0.049094897
-0.084806427 -0.60455322 0.049000036
-0.080705225 -0.60462749 0.049065836
-0.075167254 -0.60462451 0.049050812
-0.072596297 -0.60466385 0.049079686
-0.064992957 -0.60468739 0.049055506
-0.060108323 -0.60472333 0.049103845
-0.052329574 -0.60401195 0.049740676
-0.051299099 -0.60401756 0.049747638
-0.049912747 -0.60473615 0.049058747
-0.048902422 -0.60473138 0.049082357
-0.047326554 -0.60474676 0.049091354
-0.038953789 -0.6047405 0.049084734
-0.10007664 -0.60377985 0.049712531
-0.095011838 -0.60388124 0.049778257
-0.093372323 -0.60380477 0.049692519
-0.09072566 -0.60385615 0.049735799
-0.088588506 -0.60388613 0.04974803
-0.086905815 -0.60388947 0.049776103
-0.082474694 -0.60395128 0.049792718
-0.081824243 -0.60393429 0.049773309
-0.067431889 -0.60395765 0.049729981
-0.063184544 -0.60398126 0.049757402
-0.061641634 -0.60398281 0.04975874
-0.054198172 -0.60398555 0.04975339
-0.042645723 -0.60399532 0.049727201
-0.08881364 -0.5980584 0.049306456
-0.086585552 -0.5980885 0.049326442
-0.083373882 -0.59806263 0.049286112
-0.081154011 -0.59816396 0.049368486
-0.07757397 -0.5981338 0.049314048
-0.073688976 -0.59814173 0.049329959
-0.071449295 -0.59818041 0.049345184
-0.064118303 -0.59818172 0.049308322
-0.058502622 -0.59825289 0.049360167
-0.052712943 -0.59823805 0.049333956
-0.04923382 -0.59827477 0.049329568
-0.047953673 -0.59828651 0.049327362
-0.1259378 -0.59775037 0.04930922
-0.12436201 -0.59776753 0.049296696
-0.12333318 -0.59782535 0.049338315
-0.11594406 -0.59790665 0.049366057
-0.10527749 -0.59792155 0.049309477
-0.10458092 -0.597938 0.049317952
-0.10333535 -0.59796917 0.049330961
-0.10272824 -0.5979839 0.049322676
-0.098172143 -0.59797555 0.049285367
-0.097223379 -0.5979954 0.049313486
-0.091125481 -0.59798354 0.049248766
-0.064566493 -0.5974766 0.049990799
-0.11832002 -0.59200782 0.049030159
-0.11347496 -0.59211004 0.049073528
-0.11277851 -0.5920943 0.049058475
-0.098577932 -0.59226066 0.049093876
-0.096938387 -0.59219909 0.049021076
-0.087505862 -0.59229779 0.049044311
-0.085347012 -0.59233397 0.049056385
-0.073333293 -0.59239781 0.049056981
-0.069396995 -0.59244204 0.04907798
-0.058826722 -0.59249741 0.049055837
-0.1367285 -0.59117383 0.04977569
-0.13377823 -0.59120238 0.049806964
-0.13260405 -0.591919 0.049078617
-0.12323488 -0.59194475 0.049003605
-0.11173107 -0.59139305 0.049774759
-0.10853309 -0.59145397 0.049782734
-0.10620826 -0.59147269 0.049780972
-0.090680324 -0.59159309 0.049761679
-0.085784696 -0.5916481 0.049773179
-0.084151447 -0.59164941 0.049780469
-0.081971548 -0.59162056 0.049728252
-0.079654053 -0.59170914 0.049802665
-0.060261916 -0.59180546 0.049774565
-0.12408445 -0.58626348 0.049001586
-0.072523236 -0.58601874 0.049663782
-0.14486639 -0.58527684 0.04969576
-0.14255457 -0.58530289 0.04968939
-0.12298841 -0.58551002 0.049650759
-0.1210271 -0.58554506 0.049650464
-0.11709296 -0.58559269 0.049655363
-0.11479109 -0.58567154 0.049710054
-0.11060864 -0.58565503 0.049664933
-0.10502057 -0.58574861 0.049681529
-0.10344546 -0.58574831 0.049668755
-0.097816601 -0.58584088 0.049701247
-0.093092039 -0.58587021 0.04968274
-0.092082143 -0.5858984 0.049703531
-0.0904397 -0.58591783 0.049704641
-0.087851569 -0.58582598 0.049591947
-0.086854897 -0.58585554 0.049607735
-0.084557891 -0.58593643 0.049670264
-0.081301346 -0.58595872 0.0496803
-0.14627494 -0.58020419 0.049003225
-0.14335953 -0.58024883 0.049023513
-0.1240035 -0.58052582 0.04900546
-0.11313852 -0.58064294 0.049013138
-0.10100215 -0.58004677 0.049689695
-0.096165471 -0.58083391 0.049005698
-0.089688137 -0.58091015 0.04902174
-0.088739231 -0.58091319 0.04900112
-0.079425044 -0.58028215 0.04969082
-0.15042007 -0.5794279 0.049710967
-0.13173269 -0.57968795 0.049718302
-0.12292656 -0.57988316 0.049776878
-0.11762194 -0.5799396 0.049763322
-0.10063738 -0.57508737 0.049154695
-0.15420026 -0.5743171 0.049130049
-0.15349892 -0.57432055 0.049114618
-0.14530374 -0.57451415 0.049185373
-0.13779715 -0.5745948 0.049143013
-0.13143474 -0.57400668 0.049892958
-0.1277142 -0.57411921 0.049929302
-0.12556596 -0.57473606 0.049126912
-0.12443437 -0.57413298 0.049908798
-0.12294111 -0.57485074 0.049189035
-0.11835954 -0.57484776 0.049136281
-0.1172797 -0.57425946 0.049939625
-0.11439538 -0.57490319 0.049141329
-0.11207421 -0.57498688 0.049195174
-0.098905697 -0.57441211 0.049879096
-0.096244089 -0.57449049 0.049894225
-0.087126292 -0.57463336 0.049933672
-0.16227065 -0.57358724 0.049929753
-0.15244298 -0.57372844 0.04992152
-0.1501397 -0.57379138 0.049956344
-0.13901214 -0.5739345 0.04991832
-0.13603573 -0.57397205 0.049899463
-0.12192753 -0.5692153 0.049513884
-0.11563561 -0.56931233 0.049518384
-0.11169911 -0.56930089 0.049450561
-0.097184345 -0.56949919 0.049473461
-0.096550584 -0.56953025 0.04950159
-0.16319318 -0.56851828 0.049471729
-0.15724996 -0.56860542 0.049459003
-0.15335995 -0.56867999 0.049477395
-0.15036361 -0.56880319 0.049548831
-0.13756093 -0.56895226 0.049472932
-0.13610661 -0.5640142 0.049174733
-0.1107526 -0.56436908 0.049145497
-0.10058621 -0.56455934 0.049179874
-0.17205817 -0.56339693 0.049193494
-0.17141128 -0.56342143 0.049206339
-0.16947369 -0.56349331 0.049251482
-0.16011015 -0.56362623 0.04920429
-0.15708669 -0.56300092 0.04995482
-0.15545124 -0.56305075 0.049959116
-0.15144774 -0.56307983 0.049914159
-0.14720304 -0.56382954 0.049196601
-0.14549695 -0.56318599 0.049916364
-0.14188112 -0.56329775 0.049982913
-0.13825597 -0.56335115 0.04997541
-0.13726942 -0.56336486 0.049966794
-0.12559023 -0.56357944 0.049976349
-0.12264741 -0.56357241 0.049934011
-0.12049159 -0.56365812 0.049974255
-0.11431144 -0.56375873 0.049990263
-0.11301379 -0.56377804 0.049987927
-0.10049305 -0.56393921 0.049961545
-0.096183479 -0.56393796 0.049927972
-0.095470764 -0.56397426 0.049950365
-0.11157434 -0.55950826 0.04903423
-0.18026799 -0.55828291 0.049007993
-0.17802472 -0.55838746 0.049071405
-0.17738421 -0.55841219 0.049092807
-0.17171216 -0.55846626 0.049033541
-0.16504045 -0.55861253 0.049047697
-0.16102423 -0.55800128 0.049774367
-0.15877251 -0.55870336 0.049025878
-0.1563312 -0.55809087 0.049791995
-0.15347432 -0.55877608 0.049003351
-0.14351134 -0.55897897 0.049046375
-0.14142993 -0.55839705 0.049817078
-0.13584121 -0.55847985 0.049799711
-0.13047411 -0.55857372 0.049819108
-0.12510531 -0.55866718 0.049800374
-0.12437664 -0.55869931 0.049815662
-0.12276578 -0.55866486 0.049768507
-0.12113095 -0.55869991 0.049768832
-0.12009132 -0.55872935 0.049790118
-0.11855015 -0.55880791 0.049825337
-0.11279505 -0.55888921 0.049827412
-0.18561678 -0.55753654 0.049786735
-0.18389888 -0.55762041 0.049824726
-0.17461894 -0.55783534 0.049855985
-0.17396624 -0.55788285 0.049897145
-0.17234379 -0.55791193 0.049879603
-0.17130579 -0.55783832 0.04979495
-0.17034298 -0.55786371 0.049809303
-0.16332498 -0.55796218 0.04978044
-0.17338984 -0.55357563 0.049036313
-0.16902766 -0.55300915 0.04977753
-0.16704372 -0.55303901 0.049785484
-0.1643139 -0.55308813 0.049758684
-0.15333799 -0.55325699 0.049738511
-0.14702041 -0.55343437 0.049798854
-0.14134507 -0.55352652 0.049786068
-0.13502339 -0.55360061 0.049745534
-0.13040805 -0.55370581 0.049749691
-0.19264188 -0.55253953 0.049803976
-0.1910224 -0.55254477 0.049761795
-0.17569324 -0.55287743 0.049787696
-0.1710459 -0.55297542 0.04978529
-0.17000543 -0.55294752 0.049745049
-0.1519098 -0.54903221 0.049006511
-0.14974035 -0.54911733 0.049043879
-0.13369411 -0.54938 0.049009927
-0.12764251 -0.54949522 0.049028073
-0.18986124 -0.54826832 0.049013048
-0.1864731 -0.54836047 0.04903366
-0.18241426 -0.54843724 0.049033016
-0.17942563 -0.54846442 0.049022179
-0.17610991 -0.54860729 0.04906508
-0.17509277 -0.54802436 0.049871493
-0.17334796 -0.54804456 0.049839258
-0.17238203 -0.54840636 0.049487472
-0.16934988 -0.54809475 0.04980975
-0.16837914 -0.54812157 0.049823999
-0.16760024 -0.54850531 0.049474712
-0.16660735 -0.54850727 0.049480319
-0.15671638 -0.54895198 0.049021475
-0.154322 -0.54895943 0.049002886
-0.15033779 -0.54850888 0.049833491
-0.14325689 -0.54853767 0.049764168
-0.12897363 -0.54889441 0.049833801
-0.1888766 -0.5476321 0.049770311
-0.18110768 -0.54787552 0.049838521
-0.16239753 -0.5440107 0.049193129
-0.16072437 -0.54400247 0.049182147
-0.15600513 -0.54412717 0.049192455
-0.15300457 -0.54414105 0.049169675
-0.15135102 -0.54419488 0.049173385
-0.14968638 -0.54426885 0.04919656
-0.14465614 -0.544384 0.049233831
-0.14263496 -0.54434997 0.049167626
-0.14197868 -0.54433268 0.049136635
-0.18862098 -0.54342169 0.049176853
-0.1832329 -0.54352129 0.049164973
-0.1825825 -0.54353929 0.04917644
-0.17889924 -0.54364926 0.049212631
-0.1778595 -0.54364061 0.049178902
-0.17550878 -0.54377007 0.04924304
-0.17385432 -0.54378426 0.04922099
-0.16612394 -0.54399937 0.049256563
-0.16514705 -0.54395771 0.04921905
-0.17328903 -0.53900284 0.049525797
-0.16555543 -0.53921819 0.049545567
-0.15774746 -0.53926945 0.049454402
-0.15541452 -0.53932804 0.04946062
-0.14837047 -0.53952152 0.049489029
-0.18371502 -0.53873456 0.049472548
-0.15886074 -0.53504753 0.049037248
-0.17437172 -0.53476411 0.049078841
-0.17207617 -0.53481203 0.049074568
-0.1403154 -0.53077179 0.049577642
0.092008397 -0.75241494 0.050074119
0.081078127 -0.75172472 0.050954293
0.084649891 -0.75143045 0.050954051
0.091191225 -0.75167066 0.050488189
0.094587244 -0.75137824 0.050484817
0.097447164 -0.75115401 0.050502073
0.09297166 -0.75076497 0.050978437
0.10092604 -0.75004083 0.05089904
0.10318136 -0.75068158 0.05051136
0.077650696 -0.74004728 0.050443858
0.075666107 -0.73937291 0.050873246
0.082799882 -0.73963678 0.050398212
0.087597571 -0.73928517 0.050422627
0.091376416 -0.73901343 0.050438683
0.093154363 -0.73812026 0.050919142
0.094265729 -0.73881543 0.050429467
0.095648043 -0.73867601 0.050414804
0.098309778 -0.73849875 0.050440047
0.10350985 -0.7380839 0.050426312
0.10010409 -0.7375744 0.050912924
0.10295837 -0.73733312 0.050856359
0.10507606 -0.73721093 0.050912399
0.057346702 -0.7285524 0.050792444
0.061434839 -0.7283259 0.050818443
0.062404659 -0.72827643 0.050831404
0.063500002 -0.72899526 0.050360195
0.066627838 -0.72878063 0.050330669
0.070174284 -0.72776282 0.050817754
0.072807349 -0.72761822 0.05082497
0.085523449 -0.72755462 0.050345834
0.090143748 -0.72723424 0.050332788
0.093176678 -0.72703415 0.050338201
0.081817381 -0.72699004 0.050783794
0.084474757 -0.72685069 0.050826311
0.094234169 -0.72692829 0.050308611
0.096830189 -0.72678035 0.050337207
0.11344982 -0.72556329 0.050284479
0.11741039 -0.72453141 0.050804034
0.12284473 -0.72411549 0.050794713
0.12365275 -0.72482115 0.050296079
0.073130675 -0.71714646 0.050165303
0.06469252 -0.71685904 0.050649825
0.07115797 -0.71650493 0.050659981
0.074368626 -0.7162987 0.050657146
0.099221654 -0.71554554 0.05015327
0.10452408 -0.71524006 0.050179858
0.10601687 -0.71513861 0.050157674
0.097572662 -0.71490818 0.050665472
0.10778133 -0.71422184 0.050641917
0.10895324 -0.71493429 0.050155576
0.11196198 -0.71396965 0.050673153
0.12450919 -0.71308738 0.050606865
0.042663492 -0.70751816 0.050400186
0.049129821 -0.70715481 0.050318547
0.063641362 -0.70646673 0.05038115
0.06775891 -0.70544034 0.050862554
0.073460482 -0.70518148 0.050907206
0.081360802 -0.70551991 0.050372079
0.082365572 -0.70548582 0.050394103
0.083192118 -0.70543718 0.050381407
0.084078655 -0.70537668 0.050370641
0.087385103 -0.70440531 0.050868694
0.10120757 -0.70440745 0.050371591
0.10217852 -0.7043516 0.050363943
0.11140563 -0.70305622 0.050914995
0.11520013 -0.7035771 0.050361004
0.11873788 -0.70335567 0.050358161
0.11281215 -0.70295566 0.050860923
0.11435263 -0.7028591 0.050880384
0.11702409 -0.70273083 0.050912973
0.1181503 -0.70262492 0.050874263
0.12329151 -0.70232689 0.050872993
0.12495736 -0.70295691 0.050324183
0.12803632 -0.70205539 0.050899543
0.13664518 -0.70148724 0.050873719
0.13869953 -0.70138609 0.050896671
0.029369608 -0.69750643 0.050426252
0.037383445 -0.69718504 0.050457045
0.043110125 -0.69691175 0.050404094
0.051377613 -0.69656074 0.050433081
0.057013839 -0.69634104 0.050465249
0.060974631 -0.69614398 0.050446905
0.047267195 -0.69597286 0.050980594
0.059753884 -0.69542348 0.050974675
0.06256298 -0.69527155 0.050952047
0.065147795 -0.69592774 0.050432716
0.076139383 -0.69542086 0.050439447
0.070795372 -0.6949212 0.050995667
0.072250061 -0.69481057 0.050949112
0.077393934 -0.69459581 0.050980657
0.078929864 -0.69452316 0.050984576
0.08040072 -0.69444382 0.050970688
0.088150688 -0.69408226 0.050982315
0.089050762 -0.69402373 0.050973408
0.090446398 -0.6946913 0.050411973
0.096464507 -0.69439489 0.050426725
0.0899361 -0.69395834 0.050946996
0.092925355 -0.6938116 0.050949588
0.093844354 -0.6937775 0.050979491
0.097704828 -0.69355118 0.050935771
0.10072567 -0.69342631 0.050977051
0.10154791 -0.69338942 0.05098623
0.10545947 -0.69316 0.050947167
0.10693825 -0.69385719 0.050428469
0.11180237 -0.69282049 0.050944418
0.11743264 -0.69253588 0.050946821
0.11892203 -0.6924274 0.05095198
0.12170724 -0.69230968 0.05099652
0.12459598 -0.69288903 0.050426122
0.12703261 -0.69200838 0.050978921
0.13242276 -0.69246656 0.050457966
0.13446744 -0.69231528 0.050401032
0.13525718 -0.6922459 0.050390538
0.13718021 -0.69218743 0.050440576
0.139047 -0.6920774 0.050440196
0.12912671 -0.69185406 0.050922483
0.13152976 -0.69171226 0.050931662
0.13401376 -0.69161433 0.050968278
0.13659906 -0.6914444 0.050948039
0.13846527 -0.69136584 0.050982386
0.1431312 -0.69184738 0.05044011
0.022548944 -0.68715876 0.050829768
0.041795492 -0.68724948 0.050323356
0.044212669 -0.68714517 0.050315373
0.032159146 -0.68682426 0.050845277
0.048939567 -0.68615562 0.050808657
0.049695577 -0.68691641 0.050277021
0.050574198 -0.68690258 0.050308567
0.052367344 -0.68685633 0.05035137
0.055653669 -0.68669331 0.050308615
0.059544373 -0.6865263 0.050279655
0.070748433 -0.68607867 0.050333355
0.061332073 -0.68571699 0.050880216
0.068584815 -0.68536079 0.050824814
0.070398115 -0.68531024 0.050861489
0.073734373 -0.68596739 0.050332654
0.075527541 -0.68510759 0.050873954
0.077648558 -0.68576068 0.050293956
0.078556806 -0.68573052 0.050304733
0.080248505 -0.68564951 0.050307255
0.08122284 -0.68562347 0.050323423
0.098689511 -0.68482029 0.050335612
0.1014009 -0.68466645 0.05028769
0.10080972 -0.68395537 0.050860792
0.11161517 -0.68344319 0.050853189
0.11257477 -0.68339616 0.05085633
0.11977739 -0.68304652 0.050870534
0.12036613 -0.68302387 0.050874893
0.12101243 -0.68374509 0.050344165
0.12244331 -0.68365669 0.050290912
0.12302752 -0.68361402 0.050299756
0.12414412 -0.68356657 0.050311878
0.12684675 -0.68345487 0.050337575
0.12786798 -0.6833694 0.050304886
0.13097589 -0.6832056 0.050287221
0.12583233 -0.68273252 0.050861735
0.13035154 -0.68248737 0.05083403
0.13667455 -0.68293166 0.050337341
0.13824864 -0.68211037 0.05087297
0.14449149 -0.68248945 0.050295923
0.14397721 -0.68180382 0.050867818
-0.0024315205 -0.67971903 0.050010912
0.0049370988 -0.67873317 0.050620891
0.0059807831 -0.67869824 0.050587859
0.0068776896 -0.67865497 0.050543096
0.0086957728 -0.67859107 0.050500099
0.012309385 -0.67849433 0.050498631
0.013263284 -0.6784637 0.050496306
0.017778734 -0.67833847 0.050528679
0.022910528 -0.6781702 0.050495423
0.026503425 -0.67804062 0.050488248
0.037461251 -0.67769039 0.050495427
0.04078288 -0.67757547 0.050496526
0.042281948 -0.67756325 0.0505521
0.044777323 -0.6774801 0.050560426
0.045610327 -0.67742455 0.05052517
0.049834743 -0.67723888 0.050474267
0.061364729 -0.67683047 0.050469201
0.067444928 -0.67663932 0.050531168
0.068034835 -0.67660934 0.050515607
0.10171415 -0.67522901 0.050491024
0.10264934 -0.67520273 0.050521202
0.13421221 -0.67376637 0.050494194
0.003375744 -0.66973972 0.050511725
0.0042799306 -0.66971433 0.050513174
0.0065204613 -0.66968095 0.050584584
0.019480195 -0.66929674 0.050437152
0.02102861 -0.66926837 0.050462909
0.026153129 -0.66911811 0.050432462
0.028316129 -0.66904181 0.050416581
0.014875131 -0.66863304 0.050986707
0.034138501 -0.66887188 0.050434921
0.035597138 -0.66884983 0.050465576
0.038173728 -0.66876793 0.050461408
0.045662761 -0.6685589 0.050472457
0.053991802 -0.66823894 0.05039946
0.056947362 -0.66814327 0.050398361
0.04351633 -0.66781533 0.050995555
0.055490244 -0.66743612 0.0509816
0.10835235 -0.66634095 0.050474547
0.11412318 -0.66610539 0.050454352
0.1159358 -0.66602105 0.050445382
0.11045096 -0.6654681 0.050988268
0.11712291 -0.66595209 0.050400257
0.12451214 -0.66565239 0.05043222
-0.020859249 -0.66197485 0.050060846
0.0028103874 -0.66154158 0.050141115
0.0043275105 -0.661502 0.050137576
0.0098422281 -0.661403 0.050226789
0.010762472 -0.66138172 0.050217547
0.012609613 -0.6613186 0.050156478
0.013520559 -0.66128051 0.050113183
0.014391164 -0.66125858 0.050094884
0.016332462 -0.66119349 0.050051615
0.024576792 -0.66102427 0.050099272
0.021099908 -0.66033053 0.050659277
0.026131641 -0.66098058 0.050086156
0.028507426 -0.66053581 0.050358571
0.029586997 -0.66050655 0.050358564
0.031605516 -0.6608237 0.05005265
0.032849364 -0.6607849 0.050049689
0.044888098 -0.66046685 0.050054789
0.038388927 -0.65989435 0.050672177
0.039857607 -0.65986329 0.050688662
0.041400295 -0.6598205 0.050689518
0.043204781 -0.65976089 0.050652772
0.10877108 -0.6584419 0.050055087
0.10966787 -0.65841442 0.050061855
-0.030187333 -0.65311033 0.050551742
-0.029528311 -0.65310371 0.050555684
-0.027989691 -0.65308863 0.050566442
0.010506107 -0.65320671 0.050032482
-0.018070556 -0.65291482 0.050550468
-0.015609699 -0.65285319 0.05051522
-0.014650902 -0.65282756 0.050510973
-0.013696505 -0.65280944 0.050511703
-0.008498949 -0.65273726 0.050526876
-0.0078266058 -0.65271622 0.050508007
-0.003681296 -0.65255761 0.050404724
0.0057488666 -0.65254509 0.050625708
0.0073394957 -0.65250856 0.050624337
0.01463696 -0.652381 0.050683394
0.015616129 -0.65235192 0.05065209
0.016594943 -0.65231371 0.050612427
0.017477414 -0.65229112 0.050583951
0.028619617 -0.65206891 0.050588153
0.030723294 -0.65200609 0.050554302
0.031418897 -0.65199602 0.050553326
-0.058267538 -0.64591235 0.050045785
-0.057523418 -0.64514154 0.050658084
-0.055802304 -0.64590448 0.05005366
-0.05428493 -0.64590484 0.050083291
-0.05237079 -0.64590925 0.050105512
-0.046594419 -0.64506072 0.05067176
-0.036557995 -0.64572465 0.050085582
-0.033219613 -0.64568877 0.050090771
-0.032203987 -0.64568448 0.050098505
-0.022263462 -0.64554441 0.050084792
-0.018592332 -0.64549869 0.050088856
-0.015723184 -0.64546508 0.050098307
-0.012640448 -0.64538848 0.050046183
-0.011630414 -0.64536572 0.05004134
-0.0063931341 -0.64530301 0.050068837
-0.005488262 -0.64529216 0.05005886
0.0025493945 -0.64515299 0.050050415
0.0070035034 -0.64515454 0.050151542
0.008204353 -0.64514631 0.050167035
0.013237107 -0.64504719 0.050164867
0.016943481 -0.64500791 0.050235443
0.017196447 -0.6450035 0.050231721
-0.042582471 -0.64499253 0.050647084
-0.034234412 -0.64493299 0.050697602
-0.023276376 -0.6448009 0.05070585
-0.022700671 -0.64479256 0.05071038
-0.020493237 -0.64476109 0.050696012
-0.018919325 -0.64472944 0.050683349
-0.016463358 -0.64472449 0.05072701
-0.013359947 -0.64466435 0.050685238
-0.01025606 -0.6445955 0.050673787
-0.0096032862 -0.64458477 0.050665535
-0.0083540343 -0.64456433 0.050666895
-0.0074166832 -0.64455605 0.050679341
0.00058622332 -0.6443767 0.050593015
0.0053288732 -0.64439833 0.050725408
0.010026246 -0.64435244 0.05077482
0.018150639 -0.64497328 0.050197635
0.019134985 -0.64494187 0.050163329
0.020894105 -0.64489841 0.05011173
-0.071102396 -0.63780403 0.05048544
-0.067938671 -0.63777095 0.050468449
-0.064224772 -0.63773543 0.050468013
-0.053952008 -0.6376614 0.050443079
-0.047614601 -0.63765365 0.050490882
-0.045504715 -0.63766342 0.050524663
-0.043604113 -0.63757569 0.050416555
-0.039781198 -0.63754982 0.050431434
-0.037661362 -0.63754988 0.050478876
-0.036965258 -0.63753897 0.05046007
-0.029824132 -0.63748544 0.050476808
-0.023886863 -0.63742775 0.050476003
-0.013860276 -0.63732022 0.050495137
-0.0110459 -0.63727027 0.050456766
-0.0084810629 -0.63720685 0.050429169
-0.006682259 -0.63719141 0.050436981
-0.0053980555 -0.63717318 0.050437752
0.0074383006 -0.63704199 0.050486051
-0.072006077 -0.63034886 0.050445452
-0.060689501 -0.63030207 0.050434411
-0.054400649 -0.63026196 0.050439321
-0.048414886 -0.63025635 0.050473053
-0.044638608 -0.6302495 0.0504869
-0.043758325 -0.63025784 0.050509859
-0.037737314 -0.63013464 0.050404921
-0.035532832 -0.63015187 0.050461542
-0.029290678 -0.63010764 0.050453383
-0.027682101 -0.63010055 0.050453033
-0.018205756 -0.63001841 0.050462104
-0.011312546 -0.62996978 0.050481744
-0.054494418 -0.6236645 0.050036173
-0.01621538 -0.62345272 0.050014202
-0.084035344 -0.62294328 0.05064005
-0.08027792 -0.6229322 0.050646625
-0.077429123 -0.62296367 0.050685026
-0.065994404 -0.62295914 0.050682355
-0.061039977 -0.62291557 0.050652344
-0.058184665 -0.62292242 0.050638977
-0.055928178 -0.62293363 0.050655879
-0.053408332 -0.62292743 0.050688658
-0.05181155 -0.62287426 0.050625019
-0.048329271 -0.6228652 0.050636522
-0.045407064 -0.62289453 0.050677542
-0.044508103 -0.62288809 0.050676215
-0.024936277 -0.62278122 0.050663784
-0.021133829 -0.62274641 0.050644856
-0.01675236 -0.62273216 0.05066314
-0.014488541 -0.62270164 0.050655622
-0.094179608 -0.61628592 0.050381415
-0.093606927 -0.61629438 0.050389808
-0.086345397 -0.61635923 0.050439153
-0.084722325 -0.61632073 0.050403375
-0.067863211 -0.61633974 0.050394274
-0.06537509 -0.6163314 0.050405096
-0.056150097 -0.61633378 0.050386682
-0.055125818 -0.6163376 0.050394587
-0.052599348 -0.61633801 0.050420985
-0.047553837 -0.61628759 0.05036667
-0.041176535 -0.61632168 0.050423328
-0.039307345 -0.61634368 0.050456587
-0.028083799 -0.61625314 0.050394151
-0.025218671 -0.61623293 0.05039363
-0.11123318 -0.60962546 0.050341181
-0.10840323 -0.60959172 0.05030952
-0.10362164 -0.60969442 0.05037332
-0.10042075 -0.6096462 0.050313909
-0.096290119 -0.60970694 0.050333586
-0.087351888 -0.60968816 0.05028886
-0.086037971 -0.60968316 0.050290458
-0.080265157 -0.60973495 0.050319087
-0.077273309 -0.60900456 0.050993368
-0.068040952 -0.60902238 0.05096671
-0.066902079 -0.6097728 0.050324224
-0.064645126 -0.60977691 0.05032688
-0.045642994 -0.60903674 0.050966285
-0.043242674 -0.60976976 0.050319191
-0.042289652 -0.60980141 0.050347064
-0.03413976 -0.60903972 0.050967544
-0.033707384 -0.60975647 0.050289471
-0.10888587 -0.60886842 0.050976321
-0.10184106 -0.60890895 0.050975375
-0.095193513 -0.60893798 0.050964996
-0.094241679 -0.60889792 0.050927103
-0.11819503 -0.60301459 0.050483391
-0.11760449 -0.60302305 0.050485712
-0.10704297 -0.6030252 0.050416391
-0.10063116 -0.60308897 0.050440975
-0.095808908 -0.60317367 0.050492659
-0.091296762 -0.60311007 0.05039392
-0.089012206 -0.60317868 0.050440211
-0.083528124 -0.60319734 0.050457504
-0.082934871 -0.60322475 0.050470799
-0.077174477 -0.60320425 0.050429173
-0.071064629 -0.60327035 0.050488617
-0.069072865 -0.6032666 0.050449673
-0.068494752 -0.60327816 0.050472867
-0.057923026 -0.60329157 0.05045728
-0.056903943 -0.60327721 0.050447471
-0.053072736 -0.60328221 0.050419684
-0.043197934 -0.60329378 0.050425023
-0.041511822 -0.60329646 0.05043162
-0.1199847 -0.5971185 0.050017569
-0.11770365 -0.59719217 0.050073165
-0.11135447 -0.59720939 0.050022759
-0.10801652 -0.59724784 0.050044231
-0.096195146 -0.597341 0.050045956
-0.085429929 -0.59740156 0.050058842
-0.081550881 -0.59742588 0.050042138
-0.068416625 -0.59749687 0.050035585
-0.066432282 -0.59752226 0.050059997
-0.065228939 -0.59748518 0.050003927
-0.060015671 -0.59752196 0.0500248
-0.054519434 -0.59753561 0.050027035
-0.12828295 -0.59639913 0.050771322
-0.1237768 -0.59637755 0.050716903
-0.12055239 -0.59643787 0.050756142
-0.11344168 -0.59646589 0.050731432
-0.11021172 -0.59652275 0.050738085
-0.099215478 -0.59661472 0.050760478
-0.095065482 -0.59666854 0.050771363
-0.091508858 -0.59660578 0.050678346
-0.089883588 -0.59661341 0.050672729
-0.087603636 -0.59668922 0.050736494
-0.082119755 -0.59669375 0.050722092
-0.075666532 -0.5967434 0.050730243
-0.054991875 -0.59683901 0.05074098
-0.049892489 -0.59687299 0.05071643
-0.062136631 -0.59108478 0.050471175
-0.13731657 -0.59047377 0.050524846
-0.13070334 -0.59053445 0.050491795
-0.1235994 -0.59056437 0.050449502
-0.10677289 -0.59078687 0.05051012
-0.088598117 -0.590868 0.050425932
-0.10033821 -0.58510345 0.050403107
-0.099733353 -0.58511811 0.050398588
-0.098442055 -0.58513254 0.050397664
-0.088379078 -0.58516842 0.050340887
-0.073056363 -0.58534735 0.050410081
-0.15388703 -0.58452505 0.050465237
-0.11767379 -0.58493471 0.050417811
-0.1199052 -0.579166 0.050423764
-0.11426085 -0.57923341 0.050421428
-0.10612158 -0.57936513 0.050459027
-0.10549861 -0.5793739 0.050461184
-0.10451073 -0.57939166 0.050460726
-0.10216834 -0.57941246 0.050465085
-0.099851415 -0.57940382 0.050444443
-0.098584533 -0.57944047 0.050457258
-0.097966291 -0.5794583 0.050449509
-0.081600055 -0.57962173 0.050452977
-0.079621755 -0.57964075 0.050464913
-0.15839161 -0.57867754 0.050465301
-0.14441663 -0.57882595 0.050424524
-0.15303127 -0.57302916 0.050633997
-0.14416637 -0.57320315 0.050686274
-0.12897494 -0.57343328 0.05067781
-0.11551283 -0.57363182 0.050691258
-0.11388715 -0.57358223 0.050630227
-0.10896942 -0.57370204 0.050672852
-0.099452354 -0.5737645 0.050634347
-0.097411133 -0.57382166 0.050663691
-0.083997391 -0.57392079 0.050595362
-0.15985845 -0.57294875 0.050669152
-0.15763585 -0.57297897 0.050662201
-0.15395658 -0.56809932 0.050294809
-0.15222938 -0.56803393 0.050205413
-0.15159987 -0.5680849 0.050259575
-0.14930905 -0.56816816 0.050312448
-0.13970429 -0.56829089 0.05026887
-0.13812684 -0.56831276 0.050260842
-0.13279897 -0.56839752 0.050280254
-0.13114344 -0.56842071 0.050245874
-0.12352387 -0.56850731 0.050229143
-0.12096362 -0.56861019 0.050286736
-0.11992002 -0.56862813 0.050303556
-0.11625002 -0.56864417 0.050254881
-0.11231987 -0.56863981 0.0502198
-0.10340417 -0.56880903 0.050250057
-0.098420225 -0.56883603 0.050217383
-0.1696967 -0.56780684 0.050277133
-0.16705601 -0.56787521 0.050293673
-0.15286151 -0.5673874 0.050983626
-0.14754254 -0.56744832 0.050969619
-0.13637273 -0.56768203 0.050996173
-0.11778527 -0.56792158 0.050964426
-0.11526099 -0.56308579 0.050730702
-0.10969061 -0.56317478 0.05073484
-0.10893179 -0.56320727 0.050767105
-0.17530851 -0.5627951 0.050055034
-0.17162777 -0.56213284 0.050729014
-0.16905938 -0.56285316 0.050007503
-0.16628911 -0.56226778 0.05075362
-0.16304232 -0.56228292 0.050715886
-0.14911225 -0.56258798 0.050794329
-0.14314735 -0.5626688 0.050773852
-0.13954638 -0.56272292 0.050777458
-0.13484782 -0.56277543 0.050711513
-0.13261311 -0.56283295 0.050744444
-0.1271871 -0.56290835 0.050759736
-0.12150549 -0.56298149 0.050723128
-0.18423085 -0.56193274 0.050767023
-0.18154106 -0.56194115 0.050739527
-0.12570652 -0.55804551 0.050605383
-0.12335148 -0.55808932 0.050596438
-0.1819149 -0.5570311 0.050609827
-0.17695586 -0.55715805 0.050641656
-0.16566058 -0.55732411 0.050579894
-0.15292764 -0.55757344 0.050587218
-0.1387333 -0.55780375 0.050594755
-0.19221878 -0.55683202 0.050597847
-0.18886107 -0.55690503 0.050615199
-0.1279135 -0.55313909 0.050531209
-0.11286481 -0.55338567 0.050531164
-0.18833658 -0.55200189 0.050580349
-0.18661042 -0.55203015 0.050552636
-0.18233009 -0.55212349 0.050567329
-0.17962401 -0.55213505 0.050539806
-0.17728749 -0.55226141 0.050605044
-0.17631672 -0.55229455 0.050620798
-0.153927 -0.55261618 0.050507035
-0.19004427 -0.55189818 0.050503954
-0.190421 -0.54708636 0.050634388
-0.18441595 -0.54715639 0.050600767
-0.18004243 -0.54729956 0.050646346
-0.15793401 -0.54771447 0.050619595
-0.17609382 -0.54316247 0.050040796
-0.16875409 -0.54329413 0.050015248
-0.15912448 -0.52567977 0.050152902
0.088491581 -0.76452166 0.051011521
0.082164004 -0.76352453 0.051879611
0.085050233 -0.76325852 0.051897079
0.086188354 -0.763174 0.051926214
0.092101127 -0.7626462 0.051910255
0.078808188 -0.75031376 0.051851798
0.087942764 -0.75038797 0.051435675
0.08429902 -0.74988127 0.051842537
0.089650787 -0.74944192 0.051831201
0.099733248 -0.74861342 0.051839482
0.063931637 -0.73862952 0.051832374
0.076788142 -0.73848397 0.051320076
0.082585275 -0.73808479 0.051327936
0.079531118 -0.7375474 0.051841058
0.082058504 -0.73733974 0.051804531
0.086355202 -0.73784441 0.051372662
0.090955287 -0.73749393 0.051362164
0.097461611 -0.73659396 0.051588714
0.099752225 -0.73605716 0.051861316
0.10736904 -0.73620737 0.051318388
0.10286766 -0.7358005 0.051818643
0.10690995 -0.73546898 0.051784564
0.11313894 -0.73495764 0.05177981
0.056026578 -0.72708988 0.051812593
0.065326951 -0.72649503 0.051787574
0.068471439 -0.72627717 0.051779605
0.071335733 -0.72690356 0.051298577
0.084231682 -0.72527504 0.051770277
0.085616492 -0.72598511 0.051315788
0.099001162 -0.72507364 0.051314782
0.090318546 -0.72487473 0.051771384
0.093308277 -0.72470093 0.051798455
0.09678065 -0.72444063 0.05177056
0.10225298 -0.72406095 0.051758103
0.10714114 -0.72448313 0.051288325
0.11015162 -0.72427064 0.051269632
0.11219347 -0.72414029 0.051285964
0.056244474 -0.71573627 0.051644024
0.072662875 -0.71482402 0.051650658
0.079451934 -0.71444601 0.051658545
0.080321692 -0.71437341 0.051632792
0.10260817 -0.71380615 0.05115255
0.11438946 -0.71303451 0.051141579
0.10736033 -0.71272862 0.051633213
0.11156367 -0.7124669 0.051682025
0.12585099 -0.71226555 0.051135298
0.12676556 -0.71222621 0.051155146
0.12244319 -0.71175522 0.051669996
0.12445365 -0.7115863 0.051613148
0.036983825 -0.70615286 0.051372718
0.04048926 -0.70598012 0.051346727
0.0441489 -0.70586753 0.051432867
0.045043256 -0.70582354 0.051423095
0.051215265 -0.70548928 0.051361561
0.054130789 -0.70538193 0.05142054
0.055765089 -0.7052955 0.051407874
0.062247951 -0.70496547 0.05141446
0.065189019 -0.70483375 0.051414836
0.066657081 -0.70474762 0.051414184
0.06904237 -0.70459962 0.051374793
0.073223479 -0.70440686 0.051412519
0.070250012 -0.7037636 0.051898908
0.071911737 -0.70366853 0.051901404
0.10073677 -0.70248985 0.051635947
0.10404161 -0.70272517 0.051414531
0.10757767 -0.70249587 0.051386893
0.10933837 -0.70162803 0.051919635
0.11650784 -0.70120555 0.051914368
0.12155965 -0.70165288 0.05136871
0.12625849 -0.70058215 0.051853608
0.12752135 -0.70055014 0.051931098
0.13462681 -0.70048434 0.051648289
0.13850112 -0.69987929 0.051918704
0.035278548 -0.69652033 0.051032398
0.038501043 -0.69554406 0.051496629
0.040909294 -0.69543391 0.051483195
0.045755737 -0.69521493 0.05144757
0.048379522 -0.69514883 0.051529508
0.053479202 -0.69489199 0.051454797
0.055507291 -0.69479185 0.051452551
0.064260408 -0.69439745 0.051466085
0.069635011 -0.69419938 0.051512692
0.081583768 -0.69362134 0.051496595
0.086581543 -0.693367 0.051496159
0.087546781 -0.69332606 0.051507857
0.092690729 -0.69227558 0.051997699
0.11081815 -0.69210267 0.051485449
0.11474628 -0.69190729 0.05150906
0.1162406 -0.69184941 0.051517937
0.12083437 -0.69157803 0.051494803
0.12439301 -0.69136935 0.051479053
0.13065721 -0.69100487 0.051437054
0.14082298 -0.69042146 0.051449675
0.0053013531 -0.68617064 0.051947128
0.0071909931 -0.68609226 0.051906928
0.017746536 -0.6865589 0.051389132
0.019200502 -0.68650675 0.051387731
0.024675865 -0.68630588 0.051386155
0.027075496 -0.68621629 0.051388927
0.028510761 -0.68618447 0.051420528
0.031868391 -0.68605369 0.051392827
0.014407374 -0.68588644 0.05195963
0.015956774 -0.68583459 0.051953178
0.016517049 -0.68581074 0.051940754
0.029687544 -0.68535888 0.051971041
0.031328376 -0.68529499 0.051957812
0.036057234 -0.68588293 0.051378142
0.038714733 -0.68504268 0.051970672
0.039539732 -0.68581152 0.051455267
0.043317273 -0.6856212 0.051395778
0.045657393 -0.68551171 0.051376373
0.048408762 -0.68540633 0.051358279
0.053847749 -0.68523806 0.051425677
0.058061872 -0.68502724 0.051354066
0.04115551 -0.68496984 0.051996291
0.04205288 -0.68491703 0.051972333
0.046935461 -0.68467712 0.051894989
0.047780175 -0.68464571 0.051889975
0.055646393 -0.6843701 0.051951732
0.059496772 -0.68495303 0.051344097
0.061389994 -0.68414557 0.051936459
0.063094638 -0.68486553 0.051421616
0.064370193 -0.68403542 0.051961195
0.065607719 -0.68475389 0.051411465
0.073693559 -0.68441981 0.051409889
0.07667587 -0.6842621 0.051387623
0.077616841 -0.68421388 0.051371861
0.075526156 -0.68357354 0.051971611
0.076418154 -0.68352026 0.051946767
0.094494611 -0.68347681 0.051387265
0.095288865 -0.68343443 0.051388048
0.10026725 -0.68323302 0.051428992
0.10291182 -0.68306285 0.051363349
0.10444204 -0.68301296 0.051389068
0.11384001 -0.68259382 0.051416729
0.11888373 -0.68232781 0.051408727
0.12340855 -0.68209177 0.05138775
0.11533419 -0.68173748 0.051950991
0.11653498 -0.68166375 0.051928181
0.12073236 -0.68149203 0.051957164
0.12229144 -0.68140811 0.051953606
0.12888311 -0.68180889 0.05138433
0.12976366 -0.68176728 0.051381793
0.13284738 -0.68163848 0.051413774
0.1349225 -0.68148649 0.051364392
0.13607383 -0.68141764 0.051344551
0.14060305 -0.68117315 0.051343806
0.1415125 -0.68114716 0.05136174
0.14253832 -0.68111992 0.051403396
0.14345276 -0.68107796 0.051413659
0.137999 -0.68061882 0.051973145
0.14010838 -0.68048179 0.051921714
0.0034986392 -0.67800391 0.051216666
0.002821025 -0.67722207 0.051736336
0.0044047576 -0.67797726 0.051207274
0.0079818601 -0.67783445 0.051081251
0.0099042561 -0.67776185 0.051036686
0.014359697 -0.67764586 0.05105954
0.019572878 -0.6774978 0.05107186
0.024678396 -0.67732376 0.051042177
0.028311851 -0.6772058 0.051052164
0.031937808 -0.67710948 0.051084615
0.033428214 -0.67706138 0.051097013
0.016204529 -0.67680711 0.051614229
0.017619073 -0.67677873 0.051643718
0.021262178 -0.6766578 0.051609475
0.022804588 -0.6766125 0.051609665
0.027938221 -0.67644399 0.051611993
0.030687526 -0.67634296 0.051607009
0.038617831 -0.67685682 0.051031265
0.048331223 -0.67654228 0.051072933
0.058044706 -0.6762135 0.051086221
0.061058901 -0.67607188 0.05103438
0.043727852 -0.67597473 0.051684357
0.049482673 -0.67570883 0.051605184
0.054978605 -0.67553091 0.051605951
0.063120395 -0.67596781 0.051004983
0.064996496 -0.67516762 0.051602148
0.065303355 -0.67594856 0.051072937
0.10965339 -0.67339545 0.051637325
0.12843515 -0.67327428 0.051049396
0.13003224 -0.67321563 0.051064838
-0.0072815502 -0.66832191 0.051485613
0.0083639771 -0.66884893 0.051137976
0.0095793642 -0.66803265 0.051676761
0.015781136 -0.66862231 0.051002711
0.016716989 -0.66860378 0.051009245
0.031665239 -0.66817743 0.051002797
0.010547641 -0.66799057 0.051635824
0.01141516 -0.66796225 0.051606834
0.013274227 -0.66790032 0.0515664
0.014206586 -0.66786873 0.051553454
0.019429578 -0.66775203 0.05158107
0.020859998 -0.66772521 0.051603377
0.023100058 -0.66766083 0.051598422
0.025186636 -0.66760033 0.051576059
0.028179517 -0.66750801 0.05156688
0.034014985 -0.66732204 0.051567666
0.035577681 -0.66730714 0.051600292
0.039262205 -0.66795963 0.051009916
0.04112532 -0.66790372 0.051003709
0.04229603 -0.66708469 0.051556762
0.043206096 -0.66705602 0.051559277
0.050197501 -0.66762179 0.051018141
0.051775433 -0.66757715 0.051026523
0.04867192 -0.6669476 0.051639821
0.052928068 -0.66675818 0.051575862
0.05382587 -0.66671884 0.051558279
0.10952924 -0.66552889 0.051019318
0.11929226 -0.66513747 0.05100539
0.12049881 -0.66509533 0.051011574
0.10615452 -0.66489953 0.05156469
0.11547033 -0.66455525 0.051602934
0.11689378 -0.66448015 0.051567487
-0.01585081 -0.66029984 0.051208518
-0.00014192871 -0.66002864 0.05126524
0.00045592652 -0.66002452 0.051277727
0.0026027006 -0.66000855 0.051316742
-0.014411228 -0.65949917 0.051794264
-0.013747972 -0.65948111 0.051786963
-0.012488869 -0.65946674 0.051805742
-0.00024601468 -0.65925592 0.051844604
0.0056822035 -0.65993887 0.051320776
0.0066369381 -0.65991348 0.051319007
0.0075805658 -0.65988863 0.05131419
0.0084216679 -0.65987194 0.051339675
0.0093835583 -0.6598599 0.051361777
0.012670917 -0.65901572 0.051933251
0.018933453 -0.65960908 0.05123236
0.024391226 -0.65949756 0.051271249
0.028082903 -0.65939564 0.051237345
0.036490109 -0.65916544 0.051235329
0.04105356 -0.65907335 0.051280197
0.027729016 -0.65863246 0.051822308
0.037895277 -0.65836364 0.051820721
-0.032779686 -0.65237427 0.051140573
-0.020658363 -0.65218526 0.051145211
-0.030346284 -0.6515674 0.051742543
-0.018304886 -0.65139401 0.051770911
-0.012382268 -0.65125978 0.051717252
-0.011151857 -0.65123665 0.051712904
-0.010502751 -0.65122634 0.05171632
-0.0094795302 -0.65198493 0.051133662
-0.008893244 -0.65197492 0.051137052
-0.005543787 -0.6518538 0.051039781
-0.003820284 -0.65102601 0.051596604
-0.0017940479 -0.6517911 0.051048484
-0.00030629503 -0.65180337 0.051101036
0.0031951524 -0.65180266 0.051188551
0.018601049 -0.65150601 0.051168028
0.019592471 -0.65147185 0.051143534
0.020538561 -0.65144533 0.051131293
0.025186429 -0.65136927 0.051158708
0.029831422 -0.65127587 0.051170506
0.03041598 -0.65125525 0.051155642
0.007148853 -0.65099138 0.051826116
0.0086444104 -0.65096676 0.051832683
0.013343906 -0.65089059 0.051903728
0.026070554 -0.65059155 0.051757473
-0.046769094 -0.64431328 0.051317979
-0.038982324 -0.6442197 0.051300727
-0.035572689 -0.64418346 0.051312938
-0.032445271 -0.64415503 0.051310506
-0.030900164 -0.64414001 0.051307142
-0.025282413 -0.64408147 0.051326595
-0.054301478 -0.64359635 0.051905036
-0.049023703 -0.64359939 0.05195782
-0.043770425 -0.64347476 0.051869657
-0.033207819 -0.64340144 0.051925514
-0.029489562 -0.64336103 0.051913805
-0.027295016 -0.64333344 0.051918361
-0.026343521 -0.64332861 0.05193077
-0.020735772 -0.64323896 0.051915716
-0.0088097407 -0.64381957 0.051287025
-0.0034838391 -0.64371228 0.051236987
-0.0029077106 -0.64368618 0.051220775
-0.0013827562 -0.64362043 0.051164091
