# .PCD v0.7 - Point Cloud Data file format
VERSION 0.7
FIELDS x y z
SIZE 4 4 4
TYPE F F F
COUNT 1 1 1
WIDTH 1399
HEIGHT 1
VIEWPOINT 0 0 0 1 0 0 0
POINTS 1399
DATA ascii
0.13847969 -1.0659034 3.2209518
0.094794974 -0.91858596 2.9733162
0.13829252 -0.81070733 3.220145
0.13282493 -0.70769197 3.1892369
0.12793271 -0.60766435 3.1615899
0.12052039 -0.50970519 3.1196489
0.12206792 -0.41394374 3.1285222
0.12077814 -0.31829131 3.1213033
0.11873832 -0.2231793 3.1098297
0.11692914 -0.079866111 3.0997114
-0.29783809 -0.39157504 0.7473104
0.11764245 0.21693915 3.1040437
0.089962736 0.47115687 2.9473221
0.11697091 0.69233096 3.100672
0.10998924 0.78737599 3.0611668
0.10660725 0.89328098 3.0420814
0.10599547 1.0104876 3.038712
0.10347451 1.1254705 3.0245135
0.10520965 1.2602717 3.0344615
0.10028362 1.4443151 3.006676
0.10458295 1.6073642 3.031178
0.091882452 1.6991863 2.9592347
0.057601787 1.679373 2.7648518
0.027129309 1.6652174 2.5920699
0.0012117795 1.6645576 2.4451272
-0.046399981 1.5142391 2.1750832
-0.050270904 1.7080117 2.1532841
-0.070198596 1.7177085 2.0403178
-0.092551626 1.6999874 1.9135847
-0.1111171 1.7045422 1.8083422
-0.12351127 1.7608984 1.7381219
-0.1426861 1.7484387 1.6294166
-0.16134149 1.7319435 1.523656
-0.1837472 1.7591275 1.3966689
-0.20635559 1.6634166 1.2684571
-0.22971953 1.5276537 1.1359441
-0.24239798 1.5422076 1.0640955
-0.25514662 1.553143 0.9918474
-0.26801506 1.5585014 0.91891772
-0.28075323 1.5631181 0.84672689
-0.29353034 1.5621396 0.77431297
-0.3121694 1.5711044 0.66868365
-0.32473511 1.5646363 0.59746718
-0.33705172 1.5685968 0.52766782
-0.34938461 1.5680802 0.45777461
-0.36161762 1.5420905 0.38843781
-0.37403998 1.5696146 0.31804907
-0.3925423 1.5642529 0.21319187
-0.40521732 1.5724286 0.14136302
-0.41797543 1.5759917 0.069061503
-0.43072802 1.5739561 -0.003210668
-0.44353127 1.5692662 -0.075770743
-0.45670381 1.5686283 -0.15042339
-0.47024307 1.5699068 -0.22715442
-0.48949453 1.5465909 -0.33626372
-0.50267732 1.5331998 -0.41097793
-0.51806247 1.5441321 -0.49817222
-0.53304499 1.5432447 -0.58308738
-0.55040091 1.5614836 -0.68145466
-0.42941833 0.21856295 0.004205592
-0.43000647 0.17347124 0.00090551912
-0.42983598 0.12658356 0.0019073058
-0.42983443 0.085307457 0.0019533474
-0.4319807 0.044084173 -0.010154409
-0.43204558 0.010151686 -0.010482004
-0.4314273 -0.025287043 -0.0069360668
-0.43136606 -0.055101112 -0.0065468452
-0.43169451 -0.081057966 -0.0083659729
-0.43153316 -0.10789441 -0.0074077346
-0.43169701 -0.13177794 -0.0082925353
-0.43109706 -0.15757753 -0.0048464169
-0.43129981 -0.17890549 -0.0059507783
-0.43133789 -0.19993398 -0.0061210436
-0.4313671 -0.2201383 -0.0062406096
-0.43140018 -0.23957232 -0.0063817357
-0.43097675 -0.25956255 -0.0039341641
-0.43120471 -0.27714905 -0.0051796581
-0.43148491 -0.30287698 -0.0066975136
-0.43158343 -0.31973568 -0.0072085955
-0.43173787 -0.33615959 -0.008036349
-0.43144932 -0.352952 -0.0063524027
-0.4315607 -0.36884645 -0.0069357706
-0.43174326 -0.38447538 -0.0079225898
-0.43148512 -0.40033934 -0.0064104949
-0.43147352 -0.41579223 -0.0062960885
-0.43154046 -0.43109226 -0.0066270819
-0.43172699 -0.45394936 -0.0076115788
-0.43173581 -0.46920297 -0.0076127104
-0.43182561 -0.48449957 -0.0080730226
-0.43182224 -0.49983799 -0.0080049559
-0.43207005 -0.51544297 -0.0093610734
-0.43183139 -0.53867686 -0.0079340134
-0.43200618 -0.55472165 -0.008876075
-0.43224666 -0.57116795 -0.010190775
-0.43221256 -0.58754379 -0.0099482732
-0.43223733 -0.60434353 -0.010039537
-0.43214548 -0.63001096 -0.0094451075
-0.43236595 -0.64834762 -0.010646302
-0.43214065 -0.66612566 -0.0093196128
-0.43272015 -0.68675768 -0.012557268
-0.43298826 -0.70737696 -0.014028906
-0.43213472 -0.73554736 -0.0091151744
-0.43259624 -0.75906974 -0.011684156
-0.4327223 -0.78251004 -0.012350676
-0.4329288 -0.80758113 -0.013473668
-0.43332127 -0.83503902 -0.015651587
-0.43212032 -0.87009722 -0.008768972
-0.43267664 -0.90281481 -0.011876865
-0.43316212 -0.93769145 -0.01458359
-0.43365607 -0.97553742 -0.017338702
-0.60846132 -2.3902211 -1.0087457
-0.60917509 -2.5429821 -1.0127676
-0.60974783 -2.7108316 -1.0159926
-0.6045953 -2.9400847 -0.9867363
-0.60638475 -3.172169 -0.99687219
-0.60845906 -3.4410219 -1.0086303
-0.60995752 -3.7448022 -1.0171294
-0.6125446 -4.116478 -1.0318137
-0.59978491 -4.5367098 -0.95945525
-0.59687161 -4.9963236 -0.94296592
-0.53266382 -10.138248 -0.57952511
-0.47509852 -10.26563 -0.2530714
-0.4178881 -10.660373 0.071319312
-0.35604221 -10.715609 0.42205691
-0.29323128 -10.819317 0.77825642
-0.19607845 -10.990443 1.3292009
-0.037335206 -10.870143 2.2294669
0.12834261 -6.1825848 3.170182
0.14150684 -5.85216 3.24494
0.13781866 -5.3894486 3.2241647
0.15025227 -5.1294246 3.2947669
0.15743659 -4.8473787 3.3356082
0.14744779 -4.4542651 3.2790937
0.14844295 -4.1819658 3.2848392
0.12719008 -3.6647477 3.1645036
0.16181725 -3.661443 3.3609016
0.15533659 -3.4082823 3.3242533
0.14899035 -3.1754382 3.2883635
0.14597999 -2.9764397 3.2713826
0.14322127 -2.7915089 3.255826
0.14523566 -2.6385303 3.2673283
0.11784672 -2.3740611 3.1121268
0.15474214 -2.3011177 3.3214233
0.14616379 -2.1327653 3.2728646
0.14094536 -1.9847293 3.2433536
0.13893437 -1.853153 3.2320263
0.13483708 -1.7214249 3.208869
0.13298239 -1.600565 3.1984258
0.13443486 -1.4352101 3.2067683
0.13304888 -1.3236727 3.1989806
0.13460845 -1.2195834 3.2078931
0.13635303 -1.117044 3.2178545
0.10165229 -0.97464615 3.0211716
0.11167596 -0.88882047 3.0780733
0.13344839 -0.80823505 3.2015913
0.13088508 -0.65805435 3.1871586
0.12517104 -0.55863899 3.1548266
0.12111182 -0.46175674 3.1318772
0.11942133 -0.36602688 3.1223583
0.11854026 -0.27041388 3.1174285
0.11725291 -0.17492935 3.1101949
-0.30039692 -0.38673049 0.74222559
-0.3002238 -0.37441748 0.74326205
0.094129421 0.53487265 2.9795666
0.10934678 0.73323959 3.0659525
0.10430676 0.83319718 3.0374386
0.10444712 0.95041913 3.0382998
0.1011613 1.0607498 3.019733
0.10062802 1.1841792 3.0167744
0.10288917 1.3237524 3.0296621
0.10343836 1.4638338 3.0328424
0.099731162 1.6672412 3.01192
0.067008533 1.6599541 2.8264277
0.042321544 1.6817865 2.686502
0.013479622 1.6709075 2.5230134
-0.010579271 1.6767582 2.3866472
-0.05395586 1.545064 2.1407332
-0.052214745 1.7049736 2.1506715
-0.07453151 1.6962095 2.0241818
-0.10192837 1.7153562 1.8689147
-0.11832608 1.7372965 1.7759895
-0.13467522 1.755337 1.6833392
-0.16497228 1.6176611 1.5115885
-0.1708504 1.7358724 1.478319
-0.18584716 1.7518455 1.3933365
-0.21869932 1.5095258 1.2070897
-0.23778144 1.5324361 1.0989684
-0.25005171 1.5532746 1.029446
-0.26319322 1.5551968 0.95498186
-0.27579686 1.5650363 0.88356811
-0.28880262 1.5605016 0.80987316
-0.30140904 1.5621259 0.73844302
-0.31395152 1.5611646 0.66737485
-0.33260468 1.5554342 0.56168306
-0.34480023 1.5681252 0.49258295
-0.35711974 1.5593652 0.42277861
-0.36944535 1.5691303 0.35294068
-0.38176805 1.5664184 0.28311864
-0.39436328 1.5771433 0.21175168
-0.41307479 1.5710403 0.10572828
-0.42583424 1.572312 0.03342963
-0.4386766 1.5709192 -0.039339427
-0.45189971 1.5735919 -0.11426722
-0.46484703 1.5657549 -0.18763195
-0.4783228 1.5636923 -0.26399294
-0.49146751 1.5521274 -0.33847708
-0.51179081 1.5372362 -0.45364103
-0.52618134 1.5328257 -0.53518897
-0.54298675 1.5497601 -0.63042951
-0.56028426 1.5631765 -0.72846019
-0.43256345 0.20595996 -0.0042269779
-0.43189123 0.15192254 -0.00036503377
-0.43202016 0.10940175 -0.0010453657
-0.43183821 0.068390496 3.7362464e-05
-0.43205217 0.033466138 -0.0011244535
-0.43170029 -0.0023336427 0.0009221764
-0.43353832 -0.037882268 -0.009422048
-0.43227538 -0.059245344 -0.002235241
-0.43331632 -0.094592929 -0.0080595473
-0.43345118 -0.11931717 -0.0087722205
-0.43324089 -0.14422132 -0.0075276787
-0.43311214 -0.16749024 -0.0067453166
-0.43323806 -0.18871765 -0.007406957
-0.43320093 -0.20962642 -0.0071439249
-0.43300477 -0.23017733 -0.0059791054
-0.43327829 -0.24857873 -0.0074774511
-0.43294621 -0.26802087 -0.005541848
-0.43295589 -0.28593737 -0.0055441139
-0.43364242 -0.31056464 -0.0093576228
-0.43352452 -0.3277224 -0.0086363861
-0.43329272 -0.34464282 -0.0072690188
-0.43328816 -0.36085132 -0.0071902038
-0.4331803 -0.37691057 -0.0065257265
-0.43331409 -0.39248604 -0.0072312043
-0.43335167 -0.40800792 -0.0073913666
-0.43346694 -0.42336938 -0.0079918522
-0.43348861 -0.43870795 -0.0080615813
-0.43324345 -0.45402226 -0.0066182539
-0.43339667 -0.47688308 -0.0074071256
-0.43344077 -0.49218568 -0.0076038791
-0.43356431 -0.50762516 -0.0082509983
-0.4337647 -0.52328664 -0.0093339393
-0.43386722 -0.53908038 -0.0098618614
-0.43358067 -0.56263691 -0.008156877
-0.43360275 -0.5788793 -0.0082285637
-0.43385187 -0.59583318 -0.0095876213
-0.43398687 -0.61302406 -0.010299467
-0.4341673 -0.63078487 -0.011268921
-0.43396723 -0.65727609 -0.010053924
-0.43414941 -0.67643791 -0.011033154
-0.43434393 -0.69637215 -0.012082291
-0.43468896 -0.71763664 -0.013984838
-0.43486744 -0.73931468 -0.01494291
-0.43395939 -0.76907468 -0.0097128358
-0.43427846 -0.79383987 -0.011467797
-0.43479243 -0.82098013 -0.014328049
-0.43493652 -0.84805733 -0.015090713
-0.43420643 -0.88677013 -0.010869049
-0.43424705 -0.91770101 -0.011044711
-0.43539727 -0.95806044 -0.017511971
-0.60903901 -2.4525981 -1.00193
-0.61003774 -2.6146178 -1.0075328
-0.61184776 -2.8022203 -1.0177344
-0.60548234 -3.0338662 -0.98154742
-0.60662651 -3.2727354 -0.98797035
-0.60853308 -3.5566509 -0.99871445
-0.60931414 -3.8720808 -1.003074
-0.6104126 -4.2491465 -1.0092301
-0.61338449 -4.7334638 -1.0260038
-0.58735991 -9.8562918 -0.87785876
-0.50629342 -10.216372 -0.41805586
-0.44970357 -10.526831 -0.097081512
-0.38909534 -10.684097 0.24667194
-0.32694823 -10.744101 0.5991469
-0.26429328 -10.771529 0.95450038
-0.197367 -11.04327 1.3340888
-0.17035569 -10.749028 1.4872184
-0.10618351 -10.785249 1.8512461
-0.041616879 -10.799239 2.2175078
0.0333541 -8.8759003 2.642802
-0.046549678 -4.9029131 2.189698
0.12573406 -6.1753564 3.1669595
0.15055242 -5.7470493 3.3077812
0.16473714 -5.4735794 3.3882716
0.14664952 -4.9385409 3.2857232
0.15792844 -4.7065625 3.3497331
0.15072846 -4.351068 3.308938
0.14338496 -4.0288105 3.2673297
0.12971698 -3.6941276 3.1898532
0.1590171 -3.5462353 3.3560886
0.15040804 -3.2903519 3.3073037
0.14632885 -3.078001 3.2842097
0.14351343 -2.8862927 3.2682831
0.14462183 -2.7242513 3.2746093
0.14650103 -2.5736058 3.285306
0.12558655 -2.3411367 3.1667371
0.14854428 -2.2153926 3.2969899
0.14473255 -2.0673747 3.2754114
0.13960664 -1.922624 3.2463799
0.13650462 -1.790392 3.2288256
0.13258052 -1.661613 3.2066092
0.13241427 -1.546455 3.2057021
0.13195169 -1.4338195 3.203114
0.13292855 -1.2728705 3.2087042
0.13366458 -1.1680795 3.2129104
0.13577232 -1.0664805 3.224894
0.093293965 -0.92026609 2.9840574
0.13552202 -0.86136603 3.2235346
0.12952067 -0.75695133 3.1895342
0.12563741 -0.65655559 3.1675432
0.10954632 -0.50868642 3.0763462
0.11857215 -0.41370854 3.1275477
0.1174663 -0.31803823 3.1213014
0.11578269 -0.22275198 3.111778
0.11507622 -0.12686858 3.1077933
-0.30043322 -0.39052889 0.7521559
0.11135834 0.21284224 3.0867741
-0.00088614837 0.45515785 2.450536
0.10235647 0.89036161 3.0357809
0.10041258 1.0029899 3.0247569
0.098997436 1.1210941 3.0167267
0.099906348 1.2523634 3.0218651
0.10033785 1.3881704 3.0242927
0.10244383 1.5382199 3.0362051
0.097602099 1.6648642 3.0087354
0.059953757 1.7077137 2.7953258
0.026671566 1.6800244 2.6066856
-0.00018870361 1.6748325 2.4544451
-0.029059423 1.6452091 2.2908196
-0.048290312 1.6672317 2.1818218
-0.064490348 1.7054242 2.089999
-0.088230573 1.6806719 1.9554613
-0.11177369 1.7264868 1.8220254
-0.12617706 1.7653166 1.7403886
-0.14530158 1.7538074 1.6320143
-0.16304995 1.7480919 1.5314393
-0.17980309 1.7461613 1.436505
-0.196495 1.7374815 1.3419224
-0.22613974 1.5259866 1.1740286
-0.23935208 1.5334377 1.0991662
-0.25785413 1.5628103 0.99432516
-0.27116364 1.5595188 0.91891915
-0.28362143 1.5719614 0.84833217
-0.29669866 1.5631567 0.77424717
-0.30918869 1.5674506 0.70348316
-0.32178324 1.5622427 0.63213336
-0.33421764 1.5574595 0.56169146
-0.35262609 1.5600806 0.45740116
-0.36489493 1.5600797 0.38789541
-0.37724641 1.5676018 0.31791627
-0.38975689 1.5765998 0.24703491
-0.40206221 1.5671484 0.17732994
-0.41502163 1.5819101 0.10389967
-0.4277499 1.580166 0.031791955
-0.44661161 1.5653269 -0.075051822
-0.45986083 1.5666394 -0.15011418
-0.47280365 1.5574687 -0.2234313
-0.48599514 1.549316 -0.29815847
-0.50039506 1.5549965 -0.37974659
-0.51487535 1.5554775 -0.46178633
-0.53561908 1.5351113 -0.57929105
-0.55175185 1.5412421 -0.67070258
-0.4341661 0.13301207 -0.0027457487
-0.43442634 0.093144432 -0.004125624
-0.43418711 0.053167056 -0.0026732164
-0.43425602 0.018457068 -0.0029715707
-0.43436089 -0.013465466 -0.0034755224
-0.43442324 -0.043429535 -0.0037398268
-0.43434608 -0.072179511 -0.0032137246
-0.43428105 -0.099080987 -0.0027576569
-0.4354147 -0.13121651 -0.0090598073
-0.43525171 -0.15532281 -0.0080498643
-0.43518302 -0.17785533 -0.0075756377
-0.43523362 -0.19894256 -0.0077787475
-0.4352749 -0.21920684 -0.0079293111
-0.43501011 -0.23960991 -0.0063444101
-0.43506467 -0.25833157 -0.0065711499
-0.43498597 -0.27679482 -0.0060423925
-0.43493932 -0.29461086 -0.0056958306
-0.43493441 -0.31184861 -0.0055859769
-0.43537861 -0.3361946 -0.0079821674
-0.43525097 -0.34462321 -0.0072175274
-0.43538219 -0.36867246 -0.0078390483
-0.43522921 -0.38468248 -0.0068899114
-0.43531948 -0.40023297 -0.0073200441
-0.43531397 -0.41572002 -0.0072070244
-0.43538684 -0.43105435 -0.0075381659
-0.43519279 -0.44639114 -0.0063560833
-0.43542239 -0.4692336 -0.0075343647
-0.43534419 -0.48447737 -0.0070084222
-0.43551978 -0.49986768 -0.0079209115
-0.43560076 -0.5153504 -0.0082966909
-0.43575779 -0.5310626 -0.0091031455
-0.43598694 -0.54708791 -0.010317841
-0.4361138 -0.56328309 -0.010952348
-0.43596879 -0.57936752 -0.010045383
-0.43580687 -0.60406113 -0.0089992778
-0.4360545 -0.62166947 -0.010315874
-0.43634123 -0.6399166 -0.011853259
-0.43649831 -0.65846407 -0.012655068
-0.43667868 -0.67772031 -0.013587727
-0.43630266 -0.70594674 -0.011321974
-0.43657744 -0.7273621 -0.012786658
-0.43712115 -0.75080568 -0.01577341
-0.43623653 -0.78135675 -0.01062017
-0.43645841 -0.80637175 -0.011779884
-0.43673402 -0.83313233 -0.013241612
-0.436905 -0.86107183 -0.014108488
-0.43720335 -0.89159417 -0.015694091
-0.43653187 -0.93478578 -0.011731341
-0.43671271 -0.97027391 -0.012643699
-0.60955226 -2.3664081 -0.99054545
-0.61065125 -2.5201919 -0.99650431
-0.61169118 -2.6900113 -1.0021065
-0.61248529 -2.8771617 -1.0062915
-0.61442268 -3.0995181 -1.0169104
-0.60799128 -3.3827438 -0.9799673
-0.60857558 -3.6682081 -0.98282921
-0.61009091 -4.0155602 -0.99088585
-0.60958004 -4.3970971 -0.98740828
-0.6116733 -4.9050016 -0.99852461
-0.59770775 -5.5462937 -0.91838145
-0.56729847 -10.08339 -0.73958832
-0.51092178 -10.252226 -0.41966647
-0.42392105 -10.631387 0.074192688
-0.3622638 -10.725559 0.42394841
-0.29987562 -10.749261 0.77775156
-0.2367209 -10.800259 1.1359357
-0.14118616 -10.828608 1.6775339
-0.070792146 -11.058343 2.0768397
-0.03705436 -4.8550067 2.2598271
0.11799286 -6.3786654 3.1406927
0.12841663 -5.9936409 3.1992917
0.15992109 -5.2613306 3.3769708
0.16195834 -4.9249196 3.3881102
0.1492653 -4.5040479 3.3156497
0.1484912 -4.2146888 3.3109217
0.1121842 -3.706373 3.1045082
0.14621314 -3.7029989 3.2974231
0.14520258 -3.4775965 3.2914445
0.14631751 -3.1832652 3.2974484
0.14287807 -2.9813373 3.2777374
0.14302595 -2.8094122 3.2784002
0.14393781 -2.6502223 3.2834113
0.13345188 -2.4528847 3.2237701
0.13781264 -2.3246398 3.2483726
0.1410801 -2.1965954 3.2667792
0.13901809 -1.9905068 3.2549052
0.13441926 -1.851079 3.2287128
0.13303702 -1.726397 3.2207725
0.13027374 -1.6028765 3.2050071
0.1290735 -1.4871722 3.1981118
0.13005008 -1.3789285 3.2035661
0.12847981 -1.2685269 3.1945825
0.12027078 -1.1003284 3.1479251
0.11738218 -0.99611825 3.1314788
0.091691449 -0.87368447 2.9857585
0.13047504 -0.80843759 3.2055786
0.12432898 -0.7056033 3.1706724
0.12240043 -0.6071347 3.1596797
0.11761378 -0.50951689 3.1324873
0.11601928 -0.36572886 3.1233659
0.11463687 -0.27029407 3.1154761
0.11285082 -0.17519663 3.1052997
0.11255524 -0.07891655 3.1035721
-0.30374512 -0.38620332 0.7441867
0.11231288 0.21683572 3.1020417
-0.30390733 -0.3743405 0.74330217
0.082282849 0.51645863 2.9316907
0.10952603 0.68643987 3.0860026
0.10622413 0.79068631 3.067235
0.10222559 0.89498842 3.0445199
0.097094417 1.0584596 3.0153546
0.097335003 1.1843857 3.0166509
0.095873542 1.3094172 3.008301
0.098787233 1.4581568 3.0247304
0.10180643 1.6163046 3.0417507
0.079208985 1.6609279 2.913671
0.050054174 1.6649364 2.7484596
0.011840922 1.6802609 2.5319178
-0.012755438 1.6834921 2.3925467
-0.059972446 1.5270886 2.1250973
-0.053605948 1.7183213 2.1610665
-0.076535694 1.7059215 2.031157
-0.097933106 1.6952503 1.9099319
-0.11448791 1.7172877 1.8161274
-0.13742328 1.7606406 1.686164
-0.1595321 1.7122356 1.5609397
-0.17337219 1.7449571 1.4825143
-0.19005473 1.7400619 1.3880099
-0.22118688 1.5216639 1.211785
-0.23479074 1.5249276 1.1347237
-0.24718663 1.5441955 1.0644958
-0.26033562 1.5474542 0.99001282
-0.27925956 1.5621842 0.88281196
-0.29185283 1.5694048 0.81147563
-0.30495393 1.5552785 0.73727864
-0.31716004 1.5681765 0.66813165
-0.32969999 1.5626882 0.59710783
-0.34209302 1.5576506 0.52691633
-0.35433045 1.5681134 0.45759356
-0.37278378 1.5631906 0.35307533
-0.38519406 1.5704644 0.28277504
-0.39770764 1.5752093 0.21189095
-0.41045314 1.5833338 0.13968945
-0.423042 1.578954 0.068385646
-0.43574658 1.5749381 -0.0035746167
-0.45484951 1.5639849 -0.11177273
-0.46809804 1.5629387 -0.18681964
-0.48150426 1.5599632 -0.26275918
-0.49407241 1.540044 -0.33393484
-0.50878185 1.5479133 -0.41727152
-0.52330679 1.546833 -0.49955535
-0.53949273 1.5592618 -0.59126568
-0.56293327 1.555439 -0.72406244
-0.43627816 0.1585362 -0.0048856819
-0.43634701 0.11505319 -0.005194834
-0.43631247 0.074669369 -0.0049206223
-0.43645367 0.038811386 -0.0056463997
-0.4357821 0.00065460405 -0.0017632756
-0.43633988 -0.027396947 -0.0048570298
-0.43627048 -0.057135236 -0.004394352
-0.43659061 -0.08301381 -0.0061430447
-0.43628645 -0.11039888 -0.0043518292
-0.43630004 -0.13477384 -0.0043643522
-0.43716815 -0.16574568 -0.0091931392
-0.43631113 -0.17998044 -0.0043011797
-0.43649426 -0.20043416 -0.0052783829
-0.4369404 -0.22916949 -0.0077176653
-0.43690857 -0.24850927 -0.007477432
-0.4367364 -0.26754403 -0.006441961
-0.4369106 -0.28511736 -0.0073712724
-0.43696505 -0.30251741 -0.0076221842
-0.43673694 -0.32002679 -0.0062712012
-0.43672425 -0.33669254 -0.0061421893
-0.43660265 -0.35317504 -0.0053960304
-0.43671408 -0.36903501 -0.0059717335
-0.43689686 -0.38462922 -0.0069521796
-0.4369902 -0.4079324 -0.0073979744
-0.43693298 -0.42338043 -0.0070183352
-0.43695471 -0.43868354 -0.0070866505
-0.43705711 -0.45392734 -0.0076124603
-0.43724069 -0.46919781 -0.0085986974
-0.4371579 -0.48447657 -0.0080749085
-0.43720567 -0.50754547 -0.0082644718
-0.43706241 -0.52292806 -0.0073982226
-0.43750933 -0.53899932 -0.0098778419
-0.43734297 -0.5546965 -0.0088809775
-0.43758455 -0.57114226 -0.010196478
-0.43771839 -0.58779323 -0.010901513
-0.43746608 -0.61261463 -0.0093907053
-0.43781114 -0.63070023 -0.011292933
-0.43786824 -0.64871043 -0.011562892
-0.43811381 -0.66778755 -0.012901027
-0.43783554 -0.69581586 -0.011242903
-0.43773258 -0.71554929 -0.010605384
-0.43792403 -0.73710692 -0.011636328
-0.43823317 -0.76015747 -0.013334089
-0.43849429 -0.78424215 -0.014759496
-0.43803498 -0.81900185 -0.012074122
-0.43806031 -0.84534204 -0.012162354
-0.43836537 -0.87483805 -0.013835569
-0.43877167 -0.90702379 -0.016081871
-0.43811849 -0.95202208 -0.012295227
-0.43801233 -0.98705274 -0.011636
-0.61037225 -2.4330177 -0.98817706
-0.61130446 -2.5928969 -0.99336737
-0.61178303 -2.7664344 -0.99598241
-0.61313987 -2.9694469 -1.0035678
-0.6158309 -3.213582 -1.0187048
-0.61721826 -3.4777849 -1.0264461
-0.60868925 -3.8111525 -0.97793245
-0.61017913 -4.1873522 -0.98622352
-0.60976011 -4.6075311 -0.98368138
-0.59318638 -9.9234476 -0.88795769
-0.53758639 -10.06756 -0.57269448
-0.48322371 -10.422187 -0.26438433
-0.42442012 -10.709304 0.069081061
-0.33105862 -10.754048 0.59839886
-0.26823378 -10.791487 0.95459044
-0.20612304 -10.736461 1.3067088
-0.17427142 -10.759011 1.4872835
-0.10827783 -10.866526 1.8615012
-0.045360286 -10.809199 2.2182336
-0.047314312 -4.9447541 2.205821
0.12766805 -6.2420878 3.1982958
0.13356256 -5.8276196 3.2316439
0.14053123 -5.472774 3.2710981
0.12644513 -4.9616838 3.1911438
0.15582854 -4.7190928 3.3577266
0.15018418 -4.3744702 3.3256767
0.14813188 -4.0881157 3.3140075
0.12401126 -3.680017 3.1771932
0.15257838 -3.6382234 3.3391814
0.14561291 -3.3837142 3.2996669
0.13825154 -3.1469707 3.2579131
0.1438836 -2.9051816 3.2898438
0.14264949 -2.7312725 3.2828445
0.14528063 -2.5832622 3.297766
0.11910219 -2.3296309 3.1493292
0.14706734 -2.2928159 3.3079064
0.13649857 -2.1184371 3.247987
0.13725583 -1.9260557 3.2522962
0.1332341 -1.7910674 3.2295051
0.13027732 -1.6646006 3.212754
0.129484 -1.5477837 3.208271
0.12788336 -1.4327714 3.1992116
0.12732333 -1.3229606 3.1960535
0.12855262 -1.2184542 3.2030411
0.13131531 -1.1174346 3.2187231
0.090239652 -0.92085105 2.9858716
0.1354022 -0.86427754 3.2419429
0.12665348 -0.75752813 3.192363
0.12242772 -0.65688747 3.1684268
0.12036139 -0.55886686 3.1567342
0.11578937 -0.46191236 3.1308365
0.11428084 -0.36618134 3.1223073
0.11292738 -0.22275338 3.1146696
0.11256515 -0.12652336 3.1126399
0.11641712 -0.025770297 3.134501
-0.30508366 -0.38605312 0.74506295
0.09305574 0.59637344 3.0022266
-0.0037889397 0.45617658 2.453264
0.10175915 0.84006798 3.0516131
0.10032983 0.95309454 3.0435345
0.095166698 1.1192784 3.0143023
0.093313061 1.2401104 3.003818
0.093957283 1.3758525 3.0074925
0.097520702 1.5313233 3.0277138
0.097710855 1.6809485 3.0288126
0.063716985 1.668358 2.8361452
0.033256438 1.6598508 2.6635084
0.0054042819 1.6531279 2.5056591
-0.023636447 1.7014848 2.3410869
-0.054164056 1.6501939 2.1680782
-0.065877438 1.7202189 2.1017106
-0.089404248 1.6983073 1.9683862
-0.10714211 1.7136376 1.8678745
-0.12086055 1.7601374 1.7901448
-0.14056693 1.7466285 1.6784785
-0.16600786 1.7533218 1.5343244
-0.18301553 1.7487745 1.4379567
-0.19979297 1.7392273 1.342895
-0.22943871 1.5277779 1.174911
-0.24266374 1.5352612 1.0999858
-0.25510502 1.5532677 1.0295026
-0.26829389 1.5542285 0.95478398
-0.28712386 1.569965 0.84810901
-0.30003837 1.5660794 0.77494681
-0.31259584 1.5684171 0.70380819
-0.32523316 1.5612324 0.63221836
-0.3375403 1.5664299 0.56249881
-0.34992042 1.5601569 0.49236736
-0.36219373 1.5693961 0.42283961
-0.38069966 1.5696192 0.31800622
-0.39302725 1.56567 0.24817298
-0.40547746 1.5661925 0.17764442
-0.41818848 1.5720782 0.10563681
-0.43108934 1.5772746 0.03255358
-0.44384739 1.5729268 -0.039718911
-0.4570854 1.5755868 -0.11471274
-0.47608158 1.5546993 -0.22232053
-0.48943383 1.5494092 -0.29796067
-0.50279415 1.5402639 -0.37364581
-0.51803339 1.5519365 -0.45998403
-0.53205907 1.5419018 -0.53944027
-0.55006391 1.5710446 -0.64145702
-0.57214826 1.5485682 -0.76656872
-0.43627912 0.1934372 0.0038109834
-0.43806309 0.1379177 -0.0062251431
-0.43802485 0.095559508 -0.0059570745
-0.43790451 0.056281634 -0.0052238475
-0.43821776 0.022965917 -0.0069490857
-0.43810168 -0.010538751 -0.0062407688
-0.43792519 -0.041991465 -0.005190352
-0.43785024 -0.070793085 -0.0047157034
-0.43778723 -0.097747847 -0.0043090503
-0.43790275 -0.12233631 -0.0049147215
-0.4379549 -0.14592531 -0.005161277
-0.43824732 -0.16743058 -0.0067700539
-0.43807819 -0.18971778 -0.005762524
-0.43788385 -0.21106672 -0.0046122479
-0.43867823 -0.23820332 -0.0090427846
-0.43794304 -0.24983385 -0.0048508365
-0.43817881 -0.27675152 -0.0061149537
-0.43845105 -0.29385123 -0.0076102358
-0.43811634 -0.31180647 -0.0056647444
-0.43815634 -0.32853892 -0.0058435723
-0.43842211 -0.34458193 -0.0073022139
-0.4382475 -0.36101532 -0.0062646004
-0.43847865 -0.37665856 -0.0075271041
-0.43898758 -0.39977577 -0.010340576
-0.43830547 -0.40806845 -0.006450078
-0.43870109 -0.43094614 -0.0086213313
-0.43850175 -0.44631848 -0.007443971
-0.43855658 -0.46156976 -0.0077073555
-0.43851891 -0.47682109 -0.0074464404
-0.43873543 -0.49219322 -0.0086263102
-0.43885753 -0.50766736 -0.0092711318
-0.43868995 -0.53087121 -0.0082505131
-0.43891418 -0.54686248 -0.0094743175
-0.4386977 -0.56257421 -0.0082000764
-0.4390544 -0.5793339 -0.010175001
-0.43929926 -0.59635466 -0.011515862
-0.4387978 -0.62095332 -0.0086030494
-0.43908229 -0.63913554 -0.010168699
-0.43923739 -0.65761924 -0.011001034
-0.43957216 -0.67725086 -0.012851741
-0.43934196 -0.70591676 -0.011476845
-0.4394604 -0.72681743 -0.012101603
-0.43956244 -0.7485978 -0.01263331
-0.4397763 -0.771878 -0.013798974
-0.44007647 -0.79678422 -0.015454015
-0.43946403 -0.83181953 -0.011912959
-0.43937582 -0.85836864 -0.011366703
-0.43968132 -0.88878912 -0.013052093
-0.44043201 -0.92410964 -0.01726114
-0.44084391 -0.96022433 -0.019549828
-0.61637735 -2.3290792 -1.0144262
-0.61757189 -2.479182 -1.0211525
-0.61033994 -2.6546214 -0.98009431
-0.61345589 -2.8615654 -0.99771351
-0.61425924 -3.0713623 -1.002225
-0.61580241 -3.318064 -1.0109309
-0.61801666 -3.6100097 -1.0234423
-0.62002975 -3.9474478 -1.0348151
-0.60926861 -4.3565273 -0.97376317
-0.61198211 -4.8725009 -0.98911256
-0.60956818 -5.4110394 -0.97540081
-0.56500638 -9.9284296 -0.72277474
-0.51119757 -10.20732 -0.41775921
-0.45576772 -10.6426 -0.10356263
-0.39404351 -10.675043 0.24632241
-0.33158791 -10.844045 0.60034674
-0.23561831 -10.953048 1.1443437
-0.14278981 -10.788156 1.6705389
-0.078366376 -10.808754 2.0357811
-0.040942069 -4.8304563 2.2485566
0.12439705 -6.4796886 3.1857455
0.13415991 -6.0796037 3.2411458
0.13422295 -5.6264362 3.2415645
0.15234339 -5.3999529 3.3443289
0.1458201 -4.9730172 3.30741
0.13708355 -4.573947 3.2579432
0.14875084 -4.2332249 3.3241487
0.11602296 -3.7488885 3.1386929
0.14356086 -3.7011695 3.2948251
0.14719895 -3.5038891 3.3154905
0.13958323 -3.2564073 3.2723675
0.13620432 -3.0499911 3.2532578
0.13575043 -2.8716033 3.2507262
0.14420551 -2.662631 3.2987094
0.14428507 -2.5071657 3.2991989
0.13291371 -2.3162825 3.2347836
0.14102162 -2.2057071 3.280776
0.13411272 -2.0485663 3.2416527
0.13073243 -1.9104655 3.2225287
0.1335393 -1.7348665 3.2384896
0.12790298 -1.6039529 3.2065771
0.12913714 -1.4933091 3.2136049
0.12699069 -1.3786278 3.2014711
0.1282388 -1.2729743 3.2085764
0.11835539 -1.1529396 3.1525903
0.13040665 -1.0657549 3.2209237
0.087563828 -0.91931874 2.978132
0.13059366 -0.81080186 3.2220545
0.12461624 -0.70745677 3.1882038
0.11955848 -0.6074127 3.1595647
0.10711396 -0.50901747 3.0890608
0.11371228 -0.41383287 3.126482
0.11226001 -0.31830254 3.1182754
0.11127018 -0.2227727 3.112689
0.10895792 -0.079720899 3.0996177
-0.30595493 -0.39134711 0.74825323
0.10819075 0.21490867 3.0953293
0.081552133 0.47026989 2.9444165
0.10909554 0.69247854 3.1005235
0.10338128 0.79090232 3.0681522
0.099215016 0.89478791 3.0445521
0.098153077 1.0106326 3.038542
0.096538864 1.1287053 3.0294001
0.097544104 1.2609619 3.0350995
0.092914306 1.4462228 3.0088651
0.0974999 1.6105884 3.0348446
0.082387373 1.6909729 2.9492083
0.049684759 1.6788361 2.763907
0.017820554 1.6570051 2.5833602
-0.007699043 1.6581994 2.438765
-0.055086095 1.5091386 2.1702821
-0.057135634 1.7151064 2.1586602
-0.078163043 1.7170045 2.0395246
-0.10012759 1.7025329 1.9150832
-0.11625639 1.7289456 1.8237031
-0.13327692 1.7429775 1.7272731
-0.15125817 1.7415154 1.6254034
-0.16925186 1.7320114 1.523466
-0.19187886 1.7564483 1.3952779
-0.21592858 1.640292 1.2590542
-0.23775327 1.5267615 1.1354409
-0.25016218 1.5460558 1.065147
-0.26313132 1.5531833 0.99168235
-0.27600595 1.558538 0.91875392
-0.28871414 1.5641294 0.84676909
-0.30757532 1.5720407 0.73993212
-0.32022464 1.5691429 0.6682843
-0.3327857 1.5626644 0.59713829
-0.3450779 1.5686133 0.52751189
-0.35744527 1.5590944 0.45746538
-0.36963922 1.5351009 0.38840714
-0.38207653 1.5686219 0.31794924
-0.4005802 1.5632584 0.21314619
-0.41335145 1.5753961 0.14080429
-0.4260436 1.5759845 0.068915226
-0.43883932 1.5749233 -0.0035599018
-0.45161393 1.5692514 -0.07591328
-0.46531981 1.5791836 -0.15354986
-0.47791114 1.5622756 -0.22485931
-0.49698284 1.5372266 -0.33286968
-0.51167834 1.5451339 -0.41611221
-0.5262624 1.5450013 -0.49871954
-0.5425989 1.5592414 -0.59126365
-0.43773651 0.21940236 0.0036448934
-0.43995717 0.16425234 -0.008850202
-0.43995261 0.11982679 -0.0087611806
-0.43785945 0.083723262 0.003138016
-0.43999624 0.04256615 -0.0088863792
-0.43922582 0.0035610332 -0.004458786
-0.43979916 -0.024587857 -0.007650753
-0.43987155 -0.053744808 -0.0080031147
-0.43981698 -0.081721626 -0.0076363254
-0.43965369 -0.10853109 -0.0066536982
-0.43967688 -0.13298881 -0.0067287358
-0.43935591 -0.15758435 -0.0048533776
-0.43956023 -0.17891216 -0.0059558153
-0.43959969 -0.19994046 -0.006124197
-0.43947825 -0.22062941 -0.0053806328
-0.43920007 -0.24094048 -0.0037489778
-0.43908453 -0.25999093 -0.003039462
-0.43931115 -0.27754545 -0.0042693182
-0.43991619 -0.30254036 -0.0076166536
-0.43985242 -0.31974092 -0.0072007496
-0.43984076 -0.33644035 -0.0070803035
-0.43988857 -0.35271487 -0.0072969776
-0.43966225 -0.369059 -0.0059600244
-0.43984455 -0.38465354 -0.0069387988
-0.43993029 -0.40020433 -0.0073702605
-0.44005263 -0.42331827 -0.0079816151
-0.43990085 -0.43870884 -0.0070670419
-0.44000298 -0.45395294 -0.0075909477
-0.4400126 -0.46920633 -0.0075906045
-0.43992972 -0.48445043 -0.0070660217
-0.44010073 -0.49984097 -0.0079798726
-0.44017708 -0.51532394 -0.008357035
-0.44028324 -0.53885299 -0.0088749574
-0.44011793 -0.55451608 -0.007882392
-0.44036099 -0.57092822 -0.0092031751
-0.44066367 -0.58782142 -0.010861272
-0.44035712 -0.60403633 -0.0090676751
-0.44043231 -0.63001245 -0.0094073722
-0.44065428 -0.64834893 -0.01060678
-0.44043013 -0.66612673 -0.0092784008
-0.44085687 -0.68630475 -0.011636617
-0.44112971 -0.70689309 -0.013122327
-0.44072476 -0.73660755 -0.010737595
-0.44089392 -0.75907004 -0.011634047
-0.44102225 -0.78251016 -0.012298346
-0.44136837 -0.80819678 -0.014195037
-0.44176012 -0.83568174 -0.016348694
-0.44093722 -0.87282437 -0.011589368
-0.44111177 -0.90352112 -0.012509666
-0.44183448 -0.9398846 -0.016531639
-0.44197735 -0.97553653 -0.017268434
-0.61690444 -2.3886795 -1.0073498
-0.61834913 -2.5471332 -1.015368
-0.61242425 -2.7436705 -0.98157209
-0.61323816 -2.9392722 -0.98598629
-0.61621237 -3.1837013 -1.0026045
-0.61741865 -3.442874 -1.0091926
-0.61966079 -3.7558196 -1.0216085
-0.61083817 -4.1492181 -0.97123748
-0.60676622 -4.5036678 -0.94784039
-0.54178542 -10.102474 -0.57495534
-0.48430818 -10.220748 -0.24911162
-0.42809939 -10.729321 0.069846496
-0.36580861 -10.835578 0.42295501
-0.30372661 -10.689344 0.77468276
-0.20869133 -10.796101 1.3133609
-0.049629759 -10.778425 2.2143981
0.11864064 -6.1689286 3.164103
0.13219845 -5.8431525 3.2406826
0.13338891 -5.4291101 3.2471433
0.13038175 -5.0232406 3.2298367
0.14504188 -4.8123798 3.3127575
0.13806042 -4.4451909 3.2729745
0.14913999 -4.1141791 3.3355501
0.11902823 -3.6645808 3.1646914
0.15428317 -3.6649244 3.3644404
0.14380272 -3.3883109 3.3049171
0.13800246 -3.1595821 3.2719429
0.13531868 -2.9631507 3.2566476
0.13439678 -2.7875669 3.2513502
0.13696782 -2.637161 3.2658589
0.11718347 -2.3321009 3.153652
0.14680819 -2.3009522 3.3215003
0.13764288 -2.1306031 3.2695193
0.13273452 -1.9836308 3.2416711
0.12839037 -1.8455423 3.2170269
0.12648526 -1.7200487 3.2062097
0.12785177 -1.549612 3.2139287
0.12577194 -1.4334288 3.2021327
0.12588407 -1.32469 3.2027607
0.12645601 -1.2189144 3.2059975
0.12804076 -1.1162184 3.2149758
0.08615572 -0.96591794 2.9776673
0.11777987 -0.90134954 3.1568487
0.12549989 -0.80796623 3.2005961
0.12208015 -0.65749097 3.1812389
0.11671527 -0.55835688 3.1508601
0.11474595 -0.46161631 3.1397209
0.1118444 -0.36585286 3.1233034
0.11079573 -0.27027592 3.1173851
0.10934085 -0.17489719 3.1091681
-0.3083261 -0.3864623 0.74321038
-0.30832148 -0.37437427 0.74328703
0.085593238 0.53320533 2.9748967
0.10084701 0.73133212 3.0613723
0.099880129 0.84252679 3.0559413
0.09505327 0.94537836 3.0286469
0.09480951 1.065371 3.027317
0.094986238 1.1917183 3.0283718
0.095619008 1.3255498 3.0320122
0.09231858 1.5207468 3.0134051
0.093107082 1.6723927 3.017935
0.059271429 1.660064 2.8263273
0.032652538 1.6716614 2.6756029
0.0056885374 1.671006 2.5229244
-0.018988019 1.6731946 2.3832052
-0.058849927 1.5647711 2.1574605
-0.059309103 1.7104982 2.1549354
-0.089216262 1.7227229 1.9856253
-0.10945389 1.7187471 1.8710552
-0.12340368 1.7636572 1.792109
-0.14297487 1.7519411 1.6813151
-0.17303666 1.616841 1.5110823
-0.178691 1.7377313 1.4791383
-0.20264412 1.7411519 1.3435621
-0.23212706 1.5325141 1.1765952
-0.24550791 1.5381591 1.1008703
-0.25838727 1.5485407 1.0279876
-0.27124596 1.5562081 0.95522201
-0.28391051 1.5650797 0.88355696
-0.29693231 1.5605429 0.80986607
-0.30947313 1.5651286 0.73890197
-0.3282997 1.5632402 0.63236791
-0.34065673 1.5664424 0.56244558
-0.35306171 1.5581644 0.49224928
-0.36533654 1.5603969 0.42279294
-0.37763572 1.5621644 0.35319915
-0.39001709 1.5664468 0.28314066
-0.40264741 1.5781651 0.21167462
-0.42139217 1.5720527 0.10560619
-0.43420759 1.5742984 0.033089865
-0.44703946 1.5719153 -0.039520867
-0.46028587 1.5745783 -0.1144779
-0.47325572 1.5667305 -0.18787153
-0.48607495 1.5533098 -0.26041403
-0.50602001 1.5392747 -0.37328213
-0.52049184 1.5409055 -0.45517975
-0.53499907 1.5373337 -0.53727949
-0.55218059 1.557719 -0.63451755
-0.56876576 1.5631877 -0.72838283
-0.43997306 0.19843617 0.00066367065
-0.43985093 0.14948969 0.0013941367
-0.44006801 0.10782921 0.00020554053
-0.44169459 0.060844362 -0.0089408699
-0.44019154 0.03273654 -0.00041106559
-0.4417007 -0.0076948977 -0.0088913804
-0.44011897 -0.032384809 8.4731124e-05
-0.44147947 -0.068149894 -0.0075530862
-0.44143093 -0.095209934 -0.0072347508
-0.4415606 -0.1199069 -0.0079252133
-0.44134477 -0.14478299 -0.0066594803
-0.44135499 -0.16746391 -0.0066733751
-0.44147953 -0.18869115 -0.0073345462
-0.4412902 -0.21009976 -0.0062182988
-0.44139636 -0.22968097 -0.0067754104
-0.44120252 -0.24942851 -0.005633703
-0.44118103 -0.26799369 -0.005467983
-0.44102794 -0.28628463 -0.0045568887
-0.4417097 -0.31086263 -0.008351773
-0.44142184 -0.32827941 -0.0066779428
-0.44152063 -0.34461486 -0.0071938261
-0.44134489 -0.36104816 -0.0061552483
-0.44174597 -0.37650058 -0.0083834985
-0.44170845 -0.39230108 -0.0081280302
-0.44139993 -0.40810117 -0.0063379952
-0.44151279 -0.42342773 -0.0069347136
-0.44159368 -0.44635114 -0.0073298025
-0.44164741 -0.46160236 -0.0075924019
-0.44143474 -0.47681877 -0.0063465508
-0.44182387 -0.4922258 -0.0085098501
-0.44177184 -0.50759542 -0.0081745461
-0.44197005 -0.52325672 -0.009257474
-0.44199777 -0.54689491 -0.0093554538
-0.44194892 -0.56283146 -0.009040135
-0.44179893 -0.57884872 -0.0081524216
-0.44221166 -0.59609479 -0.010453376
-0.44217756 -0.61299318 -0.010223611
-0.44251728 -0.6311121 -0.012112633
-0.44199109 -0.656838 -0.0090790344
-0.44217244 -0.67596805 -0.010073079
-0.44251955 -0.6963405 -0.01200774
-0.44286084 -0.71760482 -0.013910683
-0.44218403 -0.74699605 -0.010030624
-0.44240469 -0.77018946 -0.011253468
-0.44271186 -0.79501098 -0.012968717
-0.4429433 -0.82094747 -0.014256607
-0.4420296 -0.8563931 -0.0090444945
-0.4422175 -0.88604242 -0.010091399
-0.44273835 -0.91982567 -0.013028961
-0.44293821 -0.95431137 -0.014150136
-0.61809063 -2.3204868 -1.0075928
-0.61818534 -2.4614594 -1.008253
-0.61851203 -2.6187253 -1.010249
-0.62034869 -2.8072701 -1.0208366
-0.61395866 -3.0399489 -0.98487347
-0.61501217 -3.2789323 -0.99109524
-0.61777085 -3.5747364 -1.0070477
-0.61843681 -3.8913701 -1.0111796
-0.61951739 -4.2715101 -1.0177438
-0.60341758 -5.242888 -0.92773646
-0.56829971 -10.030717 -0.73503387
-0.5108822 -10.118705 -0.41001937
-0.45697242 -10.681581 -0.10549938
-0.39488444 -10.694062 0.24605404
-0.33250052 -10.774065 0.59919113
-0.26955914 -10.801461 0.95555288
-0.20546587 -10.86692 1.3183842
-0.1725706 -10.921062 1.5044874
-0.10924254 -10.876339 1.8633009
0.02840439 -8.8894234 2.6458809
-0.053443532 -4.8992023 2.187968
0.13513581 -6.1062698 3.2545369
0.14175898 -5.7199583 3.2926259
0.16228618 -5.5096073 3.4092243
0.14284226 -4.9612117 3.29989
0.14572482 -4.6590796 3.316673
0.14223604 -4.3359241 3.2973969
0.12715547 -3.9604504 3.2125363
0.13916413 -3.6855035 3.2809885
0.14992195 -3.5318859 3.3421688
0.141533 -3.2785807 3.2950392
0.13707107 -3.0653269 3.2700963
0.13506623 -2.8786204 3.259033
0.13650495 -2.7187536 3.2674365
0.13902365 -2.5713003 3.281939
0.12712741 -2.3031604 3.2149794
0.14289421 -2.2200789 3.3044264
0.13572372 -2.0611238 3.264065
0.12974696 -1.9145048 3.2304471
0.12940198 -1.7904465 3.2286947
0.12464364 -1.6597147 3.2019551
0.12508988 -1.5461543 3.2046683
0.12514396 -1.3798217 3.2052469
0.12520483 -1.2721057 3.2057679
0.12034439 -1.1594331 3.1784229
0.12850772 -1.0665468 3.2248108
0.086289167 -0.92067426 2.9859328
0.12666143 -0.86018312 3.2146893
0.12148799 -0.75660378 3.1855567
0.11755845 -0.60758781 3.1635425
0.10143164 -0.50868803 3.0723701
0.11374988 -0.4135223 3.1422846
0.10949255 -0.3182717 3.1183264
0.10865294 -0.22265576 3.113723
0.10723245 -0.12719193 3.105829
-0.30832708 -0.39052817 0.75220793
0.10563368 0.21541788 3.0973039
0.1113068 0.64898741 3.1300695
0.098932609 0.78711909 3.0601993
0.096002243 0.89435267 3.0437579
0.093547769 1.0058028 3.0300152
0.092233576 1.1246018 3.0227373
0.09119463 1.2489965 3.0170231
0.092468008 1.3880693 3.0244186
0.098980002 1.5573739 3.0615129
0.083660103 1.7128386 2.974968
0.050801761 1.7015946 2.7889042
0.019779021 1.6861857 2.6132319
-0.0084731746 1.6733086 2.4532526
-0.042121772 1.6131757 2.2626634
-0.056826025 1.6640919 2.1794765
-0.073460259 1.6990479 2.0853426
-0.10291219 1.7074435 1.9186085
-0.11918277 1.7331332 1.8265244
-0.13499202 1.7592562 1.7370532
-0.15409496 1.7476293 1.6288908
-0.17260899 1.732893 1.5240605
-0.18818437 1.7443002 1.435899
-0.20664091 1.711663 1.3313768
-0.23491988 1.5175472 1.1710676
-0.25344965 1.5488944 1.0662131
-0.26658967 1.5531682 0.99183762
-0.27934828 1.5614331 0.91962624
-0.29208377 1.5670471 0.84754306
-0.30498987 1.5631366 0.77448452
-0.31751564 1.5664434 0.70358706
-0.33011335 1.5612345 0.63227391
-0.348602 1.5675962 0.52762848
-0.36094028 1.5680741 0.45779032
-0.37319443 1.5450802 0.38840657
-0.38562453 1.5696008 0.31807151
-0.3980068 1.5686359 0.24798334
-0.41063425 1.5760907 0.17651477
-0.42964208 1.5769492 0.068924837
-0.44234264 1.5729468 -0.0029681083
-0.45519656 1.5692314 -0.075729236
-0.46838439 1.5685896 -0.15037829
-0.48102361 1.5536963 -0.22193342
-0.49485651 1.5559304 -0.30023253
-0.50891805 1.5559649 -0.37982818
-0.52937037 1.5386381 -0.49561292
-0.54552388 1.5512037 -0.587044
-0.56210631 1.5605438 -0.68090689
-0.57829589 1.5587693 -0.7725544
-0.44198096 0.17758919 -0.0017542199
-0.44203335 0.13221981 -0.0020489991
-0.44205987 0.090797 -0.0021934782
-0.44223896 0.053949501 -0.003197483
-0.44194973 0.016986934 -0.0015491825
-0.44215405 -0.014168813 -0.0026906834
-0.44333109 -0.052398715 -0.0093249837
-0.44327801 -0.080427371 -0.0090055168
-0.44298089 -0.10791954 -0.0073031406
-0.44300205 -0.13240464 -0.0074006077
-0.44296372 -0.15588111 -0.0071600308
-0.44302735 -0.17784025 -0.0074953758
-0.44306827 -0.19892767 -0.0077012544
-0.44310006 -0.21919212 -0.007854512
-0.44298041 -0.23914149 -0.0071498142
-0.44255558 -0.25916263 -0.0047167381
-0.44278306 -0.27678081 -0.005975497
-0.44256511 -0.29495546 -0.0047120843
-0.44271383 -0.31183505 -0.0055240197
-0.44314581 -0.33618113 -0.0079236357
-0.44302255 -0.3527312 -0.0071946941
-0.44313243 -0.36865938 -0.007785257
-0.44314212 -0.38449597 -0.0078083086
-0.44305289 -0.40022033 -0.0072709625
-0.44303909 -0.41570756 -0.0071602822
-0.44293025 -0.43111187 -0.0065113958
-0.44307503 -0.44634423 -0.0072982358
-0.44311869 -0.4692218 -0.0074958364
-0.44320574 -0.48451811 -0.0079556806
-0.44319955 -0.49985623 -0.0078871725
-0.44327223 -0.51533908 -0.0082653891
-0.44342098 -0.53105146 -0.0090743136
-0.44347113 -0.54688609 -0.0093248058
-0.44359079 -0.56304723 -0.0099691004
-0.44357473 -0.58756042 -0.0098279901
-0.44343132 -0.60405087 -0.0089822104
-0.44367012 -0.62165928 -0.010301616
-0.44410911 -0.64028102 -0.012754979
-0.44348976 -0.66614085 -0.0091973366
-0.44360226 -0.68541074 -0.0098019987
-0.44418028 -0.70690691 -0.013044057
-0.44429001 -0.72786778 -0.013633722
-0.44467446 -0.75079626 -0.01578003
-0.44377398 -0.78134805 -0.010632049
-0.44398478 -0.80636317 -0.011795804
-0.44464824 -0.83505207 -0.015525027
-0.44466606 -0.8624016 -0.015596922
-0.44387144 -0.90211987 -0.01105258
-0.4442395 -0.93624067 -0.01311148
-0.44428298 -0.971021 -0.013332349
-0.61822361 -2.3774912 -0.99905789
-0.61900538 -2.5299237 -1.0035214
-0.61974168 -2.6982989 -1.007735
-0.62140912 -2.8950622 -1.0172368
-0.61686337 -3.1625013 -0.99156529
-0.61601132 -3.3961275 -0.98681659
-0.61741281 -3.6946023 -0.99486339
-0.61807352 -4.0340037 -0.99873567
-0.61899281 -4.4421024 -1.0041074
-0.61974365 -4.9343834 -1.0085682
-0.56950289 -9.9622231 -0.72636461
-0.48607451 -10.283599 -0.25397295
-0.42825934 -10.611405 0.073334426
-0.36662421 -10.755601 0.42236951
-0.30428705 -10.729351 0.77546686
-0.23943605 -10.922075 1.1426883
-0.14723518 -10.738455 1.6649857
-0.08337909 -10.747428 2.0266616
-0.045021612 -4.8266845 2.2472227
0.098736241 -6.206758 3.0607092
0.13793716 -5.9244761 3.2829249
0.12438574 -5.3581853 3.2065094
0.14474769 -5.1734376 3.3219619
0.14975728 -4.8696761 3.3505287
0.1422212 -4.4946327 3.3080816
0.14098157 -4.2031584 3.30125
0.106885 -3.7120051 3.1084402
0.1514533 -3.6613591 3.3609302
0.14778121 -3.4244642 3.3402934
0.14011309 -3.1835415 3.2970278
0.13464381 -2.9717677 3.2661996
0.13590138 -2.8059053 3.2734437
0.1360524 -2.6438687 3.2744188
0.11905116 -2.4210224 3.1782863
0.14356863 -2.2983904 3.3172524
0.13781899 -2.1396902 3.284807
0.13216874 -1.9898198 3.2529197
0.12893 -1.8543949 3.2346816
0.12435384 -1.7213531 3.2088678
0.12362146 -1.6031165 3.2048142
0.12239038 -1.487409 3.1979344
0.12504515 -1.3279893 3.2130988
0.12410891 -1.2195146 3.2078836
0.12636113 -1.1176509 3.2207212
0.10715196 -0.99252135 3.1120319
0.086539209 -0.87545669 2.9953902
0.12362716 -0.80865693 3.2054853
0.11987665 -0.70703834 3.1843262
0.11497741 -0.60718858 3.1566603
0.11057778 -0.46169472 3.1318598
0.10940491 -0.36586112 3.1252925
0.10799982 -0.27035347 3.1174095
0.10567183 -0.17549674 3.1042988
0.10570082 -0.078970276 3.1045353
-0.31109893 -0.38625816 0.74421614
0.10376102 0.26506582 3.0937982
0.074947372 0.51593357 2.9308176
0.10186522 0.68509567 3.0833395
0.095144495 0.83719403 3.0453784
0.091882005 0.94436753 3.0269687
0.090436973 1.0603 3.0188525
0.089758165 1.183169 3.0150762
0.08986564 1.3142956 3.0157535
0.09244322 1.462119 3.030422
0.094178967 1.6149229 3.0403228
0.059805531 1.6770555 2.8457291
0.03320545 1.6900129 2.6951272
0.0041584433 1.6787258 2.5306623
-0.020330301 1.6826475 2.3920143
-0.068237744 1.521705 2.1207085
-0.061208278 1.7174435 2.1605911
-0.084671386 1.7010357 2.027746
-0.10505601 1.698439 1.9123374
-0.12554622 1.7704014 1.7963609
-0.14559187 1.7545018 1.6828685
-0.17493498 1.6274029 1.516703
-0.18133558 1.7403954 1.4805075
-0.1977182 1.7390842 1.3877614
-0.22915694 1.5160432 1.2097131
-0.24196318 1.5314509 1.137224
-0.25462499 1.5469967 1.0655525
-0.27396917 1.5590862 0.95605224
-0.28672555 1.5660362 0.88384318
-0.29974934 1.5615087 0.8101176
-0.31229189 1.5661018 0.73911852
-0.32501826 1.5582119 0.66707665
-0.337338 1.5636469 0.59733903
-0.35581964 1.5701487 0.49272054
-0.36816254 1.5693898 0.42285055
-0.38056621 1.5801483 0.35263732
-0.39286959 1.569436 0.28298959
-0.40540361 1.5751796 0.2120371
-0.41794023 1.5743927 0.14106913
-0.43072373 1.5779413 0.068703063
-0.4496761 1.5680217 -0.038585618
-0.46298367 1.5726519 -0.11392013
-0.4758352 1.5629127 -0.18667336
-0.48840016 1.5457544 -0.25780424
-0.50244546 1.5493542 -0.33731771
-0.5166105 1.548808 -0.41750968
-0.53122377 1.5486197 -0.50024062
-0.55452621 1.5533215 -0.63216686
-0.44335684 0.20347285 -0.0025325515
-0.4434641 0.15604776 -0.0031040215
-0.44340602 0.11182733 -0.00273848
-0.44323575 0.07075198 -0.0017373627
-0.44357559 0.036515411 -0.0036244916
-0.443239 0.00062246877 -0.0016804695
-0.44354621 -0.028843697 -0.00338211
-0.44346297 -0.058532055 -0.0028723294
-0.4437705 -0.084359117 -0.0045753852
-0.4435885 -0.11106168 -0.0035056949
-0.44359392 -0.1354094 -0.0034973752
-0.44445169 -0.16633913 -0.0082963658
-0.44458216 -0.18762471 -0.0089958487
-0.4442479 -0.2095931 -0.0070629395
-0.44450992 -0.22873516 -0.0085069584
-0.44416478 -0.24898317 -0.0065121436
-0.44398648 -0.26798663 -0.0054620579
-0.44415528 -0.28552815 -0.0063777454
-0.44420451 -0.30289593 -0.0066161104
-0.44397116 -0.32037261 -0.0052537085
-0.44412088 -0.33672965 -0.0060609947
-0.44414797 -0.36104029 -0.006152987
-0.44437805 -0.37668338 -0.0074151382
-0.44416755 -0.39260587 -0.0061817425
-0.44437495 -0.40797094 -0.0073149377
-0.44431514 -0.42341927 -0.0069348025
-0.44433445 -0.4387227 -0.0070025711
-0.44443455 -0.45396683 -0.0075277835
-0.44441122 -0.47684467 -0.007332671
-0.4446269 -0.49221665 -0.0085122678
-0.44457525 -0.50758612 -0.0081774369
-0.44442964 -0.52296901 -0.007310458
-0.44470358 -0.53886706 -0.008819377
-0.44458523 -0.56259674 -0.0080850106
-0.44494587 -0.57118428 -0.0101061
-0.44501951 -0.59608465 -0.010458505
-0.44482225 -0.61265737 -0.009297939
-0.4451656 -0.63074332 -0.011199041
-0.4452208 -0.64875388 -0.01146788
-0.44562221 -0.66825396 -0.013697289
-0.44518328 -0.69586009 -0.011144866
-0.44522896 -0.71609378 -0.011358914
-0.44556305 -0.73821157 -0.013205864
-0.44586396 -0.76132107 -0.014864638
-0.44526482 -0.79379582 -0.01140281
-0.44537276 -0.81904793 -0.011967705
-0.44565877 -0.84670049 -0.01354064
-0.44595411 -0.87624878 -0.015165697
-0.44622749 -0.90777808 -0.016665662
-0.44544822 -0.95206964 -0.012179459
-0.61954331 -2.4468675 -0.99780685
-0.6190263 -2.5954826 -0.9947983
-0.62132961 -2.7860386 -1.0077537
-0.62169397 -2.9808064 -1.0097243
-0.62447673 -3.2269294 -1.0253794
-0.61750847 -3.5284853 -0.98576266
-0.61697817 -3.8232234 -0.9826355
-0.61976218 -4.2201333 -0.99825287
-0.62078029 -4.6681499 -1.0038518
-0.60113692 -9.9493027 -0.89082336
-0.54583222 -10.120358 -0.57744187
-0.49137565 -10.497075 -0.26880381
-0.40079665 -10.804034 0.24446464
-0.33821738 -10.744064 0.59899223
-0.27468625 -10.86138 0.95896482
-0.21241111 -10.786235 1.3117671
-0.18238562 -10.699291 1.4818695
-0.11675151 -10.805055 1.8537644
-0.056900565 -10.658424 2.1928227
-0.058584664 -4.8834596 2.1818287
0.1143622 -6.1655211 3.1620204
0.1225726 -5.7824183 3.2084541
0.13545413 -4.9318914 3.281261
0.145225 -4.6877851 3.3365724
0.14033027 -4.3511319 3.3087769
0.138247 -4.0661783 3.2969227
0.11625703 -3.6738112 3.1722677
0.14433777 -3.6292679 3.331358
0.14607728 -3.3237665 3.3411658
0.13859004 -3.0914543 3.298712
0.13519834 -2.8960054 3.2794695
0.13445924 -2.7249391 3.2752597
0.13705783 -2.5772066 3.2899632
0.1132748 -2.3333778 3.1551945
0.13966681 -2.2905176 3.3047099
0.13371997 -2.0650282 3.2709939
0.12935911 -1.922702 3.2462738
0.1256334 -1.78878 3.2251534
0.12410484 -1.6659905 3.2164819
0.12202495 -1.546177 3.2046874
0.11729516 -1.4251095 3.177882
0.12068477 -1.3230803 3.1970732
0.12431177 -1.1693743 3.2176027
0.12575647 -1.0667753 3.2257745
0.083074279 -0.92034405 2.9839869
0.12621273 -0.86215144 3.2283337
0.11987124 -0.75735414 3.1923997
0.11564662 -0.65671492 3.1684568
0.10750207 -0.55747163 3.1223111
0.11015832 -0.41362533 3.1373343
0.1071469 -0.31818232 3.1202619
0.10564269 -0.22284462 3.1117253
0.10425268 -0.12744957 3.1038344
0.10983977 -0.025442012 3.1354568
-0.31230369 -0.38009566 0.74474829
-0.010446609 0.45671177 2.4541278
0.095377281 0.84111309 3.0533004
0.090043299 1.001917 3.0230327
0.088789798 1.1204751 3.0158865
0.087522864 1.2435441 3.0086598
0.089442439 1.3846223 3.0194683
0.092414297 1.5381112 3.036227
0.091090858 1.6811171 3.0286624
0.056150135 1.663922 2.8307984
0.019087233 1.6938258 2.6208963
-0.0081237191 1.6876957 2.4668062
-0.033490732 1.681545 2.3231604
-0.061461598 1.6464771 2.1647871
-0.074116737 1.709296 2.0930922
-0.096367218 1.6967896 1.9671031
-0.1146899 1.7070996 1.8633447
-0.13012473 1.7373302 1.7759284
