# .PCD v0.7 - Point Cloud Data file format
VERSION 0.7
FIELDS x y z
SIZE 4 4 4
TYPE F F F
COUNT 1 1 1
WIDTH 396
HEIGHT 1
VIEWPOINT 0 0 0 1 0 0 0
POINTS 396
DATA ascii
-0.16585097 -0.88797319 0.0027404884
-0.080124386 -0.85919571 0.0028660074
0.0699149 -0.79473186 0.0028621526
-0.15196393 -0.88725179 0.0034131699
-0.02340354 -0.83169174 0.0035473604
-0.0022509957 -0.81902927 0.0033046084
0.062048003 -0.7940625 0.0036456026
0.080567941 -0.78235859 0.003432028
0.15055139 -0.7484349 0.0038303272
-0.061035194 -0.84345412 0.0047093555
0.15585379 -0.75928766 0.0040067052
0.14537996 -0.73713666 0.0047184541
-0.14354289 -0.88522434 0.005626786
-0.11153769 -0.87079275 0.0054779192
0.097238213 -0.74737036 0.0055265613
-0.15700547 -0.88442999 0.0062346752
0.15895396 -0.76904702 0.006101619
0.15376581 -0.75753886 0.0064091953
-0.11664485 -0.86872852 0.0076128142
-0.028403157 -0.82839465 0.0073018242
0.011657191 -0.8158071 0.0070318622
0.043874107 -0.80333096 0.0071251807
0.1752184 -0.80336601 0.0071387039
0.036353968 -0.80263454 0.0077606682
0.14858919 -0.74564922 0.0079528755
-0.08415994 -0.85371011 0.0084852166
-0.036337715 -0.84028649 0.0084292311
-0.014643819 -0.82777244 0.0080568306
0.020137662 -0.81455094 0.0085717216
0.092311457 -0.7787897 0.0082239676
0.09541326 -0.73446774 0.0088973967
-0.14848974 -0.880916 0.0097641107
-0.097699344 -0.86658728 0.0096791415
0.0069364849 -0.81394738 0.0094041256
0.16202924 -0.77817506 0.0090289647
-0.13490003 -0.87885535 0.011936794
-0.070546389 -0.85096556 0.011414832
-0.040970486 -0.83758497 0.011366488
0.028728779 -0.81195825 0.011536741
0.073954821 -0.78794903 0.011425651
-0.16924073 -0.89248747 0.012921722
-0.10234863 -0.86372042 0.012456664
-0.075908594 -0.85030711 0.012194827
-0.065236315 -0.85021448 0.01210139
0.17077439 -0.79893452 0.012527524
0.16810647 -0.78727674 0.012220221
-0.0057228981 -0.8224473 0.013921922
0.047919732 -0.79764652 0.013964803
0.085509352 -0.78607047 0.013728173
0.16589566 -0.78603518 0.013724162
0.056112118 -0.79770941 0.014102599
0.07727012 -0.78547645 0.014527308
-0.12598737 -0.87527913 0.015267469
-0.12061235 -0.87521738 0.015266149
0.023900798 -0.80875635 0.015344643
-0.1603232 -0.88889426 0.016278995
-0.088470824 -0.86039639 0.016155174
-0.03174144 -0.83293462 0.016452231
0.0028777178 -0.81985301 0.016886918
0.17442186 -0.80749637 0.016981265
0.091248192 -0.73956156 0.01696799
-0.056150571 -0.84464115 0.017790493
-0.050606366 -0.84459913 0.017734125
-0.045438163 -0.84468347 0.017769475
-0.018554162 -0.83237082 0.017293908
0.06745062 -0.79454076 0.017857861
-0.093428649 -0.85761344 0.018947011
0.1398336 -0.72796422 0.018946262
0.13724734 -0.71811223 0.018549459
-0.15173508 -0.88525689 0.019688576
-0.10668188 -0.87099105 0.019464165
0.016517622 -0.81786126 0.019137183
0.032688119 -0.80487019 0.019870039
0.040918086 -0.80484295 0.019836308
0.059474938 -0.79326922 0.019412102
0.08911638 -0.78112876 0.019931281
-0.11715469 -0.8695907 0.020885974
-0.11142367 -0.8696698 0.020974776
-0.079381794 -0.85544395 0.020976463
0.097463615 -0.78051668 0.020695809
0.14821766 -0.74719214 0.020896759
0.14571193 -0.73667544 0.0209742
-0.1381764 -0.88392156 0.021179697
-0.023453699 -0.8290419 0.021023972
0.011535872 -0.8159638 0.021476049
0.15358326 -0.75781393 0.021114722
-0.17320628 -0.89747775 0.022435738
-0.14360802 -0.88244593 0.022510162
-0.0093955193 -0.82696307 0.023083104
0.07085906 -0.79019278 0.023298224
-0.01460595 -0.82569534 0.024587292
0.044151295 -0.80099332 0.024372213
0.081569016 -0.78952014 0.024016673
0.16221206 -0.77746934 0.024682634
-0.16460426 -0.89455932 0.025065577
-0.13489701 -0.87962407 0.02532299
-0.12943366 -0.87959158 0.025257669
-0.097511381 -0.86460102 0.025712827
-0.065405615 -0.85053593 0.025998611
-0.059947658 -0.85042793 0.025912901
-0.035919316 -0.83736438 0.025867989
-0.0062528262 -0.8242597 0.025966043
0.020546591 -0.8119669 0.025825214
0.052458599 -0.80035877 0.025168123
-0.070609018 -0.85056365 0.026018586
-0.046390474 -0.84967345 0.026551591
0.074032694 -0.78764683 0.026253348
0.16505088 -0.78760922 0.026283933
0.15188402 -0.75370944 0.026733007
-0.040888902 -0.83590156 0.027251288
0.16000248 -0.77497399 0.02768247
0.15739223 -0.76428819 0.027058976
-0.16898291 -0.89094353 0.028462229
-0.15591307 -0.89090198 0.0284418
-0.00031184519 -0.82231289 0.028299635
0.029303201 -0.80933493 0.028724566
0.063793048 -0.79779828 0.028202895
-0.16110981 -0.88943219 0.02974054
-0.12616321 -0.87526065 0.02933497
-0.12106125 -0.87446737 0.029976016
-0.026965395 -0.83398038 0.029427463
0.055786107 -0.79650569 0.029673256
0.10139521 -0.77376336 0.029276539
-0.083172642 -0.85971725 0.030645851
-0.03252035 -0.83325082 0.030127667
0.0078724064 -0.8203373 0.030489005
0.16881995 -0.79583234 0.03040492
0.093670771 -0.7838546 0.030886371
-0.14710067 -0.8879562 0.03105903
0.002780139 -0.8189553 0.031945229
0.037294157 -0.80732632 0.031035505
0.066880837 -0.7952134 0.031170379
0.080191411 -0.79524523 0.031186702
0.13639113 -0.71977705 0.031249102
-0.10685728 -0.87238276 0.032109071
-0.11221969 -0.87168181 0.032801934
-0.088058241 -0.85837221 0.032130841
-0.056185421 -0.8441481 0.032262672
-0.051096253 -0.84406888 0.032223847
-0.018335043 -0.8313151 0.032365128
0.096557111 -0.80606639 0.032506581
0.12893908 -0.79399353 0.032743391
0.10710369 -0.78263986 0.032481708
-0.098675288 -0.87082082 0.033370037
-0.04264646 -0.84277332 0.033627722
-0.028709689 -0.84293574 0.033712402
0.035112955 -0.84298927 0.033806078
0.072612964 -0.80546182 0.033348128
0.094081186 -0.80541748 0.033280332
0.11530934 -0.80540645 0.033245105
0.15844502 -0.80535048 0.033206947
0.040942796 -0.80466509 0.033856869
0.048591901 -0.80473036 0.033988759
0.051426589 -0.80471051 0.033938155
0.15047126 -0.80467099 0.033911385
0.099692814 -0.7932831 0.033409189
0.16099493 -0.79328072 0.033411376
0.085782066 -0.78191888 0.033078901
0.12338917 -0.78195518 0.033124551
0.13978995 -0.770693 0.033195544
0.14795366 -0.77000016 0.03386661
0.11276729 -0.74907756 0.033153154
0.096709028 -0.7386722 0.033073992
-0.087635823 -0.8844077 0.034586437
-0.066505618 -0.88427073 0.034460403
-0.047585908 -0.88331538 0.034953855
-0.10156526 -0.87010586 0.034013886
-0.036991399 -0.87012142 0.034091577
0.00070409017 -0.87023652 0.03419866
-0.0073598763 -0.86948454 0.034786232
0.01386243 -0.86955708 0.034949843
-0.079664081 -0.85613 0.03405286
-0.074612178 -0.85615724 0.034196291
-0.072050191 -0.85613573 0.034161154
0.0058948793 -0.85620999 0.034124747
0.037794918 -0.85614955 0.034156036
-0.053177081 -0.85522383 0.034686532
-0.0020696232 -0.8554731 0.034829944
-0.012868415 -0.84236032 0.034506548
0.062098134 -0.82921547 0.03453438
0.016413821 -0.81694067 0.034094874
0.056676824 -0.81625247 0.034834635
0.062031742 -0.80473721 0.034029327
0.083452232 -0.80410713 0.034786832
0.10487849 -0.80411434 0.034792587
0.16639344 -0.80474067 0.034013283
0.17454685 -0.80473632 0.03403284
0.11056051 -0.79201978 0.034932945
0.091745555 -0.79199368 0.034930002
0.096958287 -0.7807008 0.034684066
0.13430849 -0.78069758 0.034699764
0.12109038 -0.76948255 0.03466402
0.1401242 -0.72724777 0.03495869
-0.13314138 -0.89865643 0.035316344
-0.14890443 -0.89779407 0.035811823
-0.1412653 -0.89785844 0.035898462
-0.13834067 -0.88365799 0.03521429
-0.10892501 -0.88366002 0.03524328
-0.1306881 -0.88292128 0.035929322
-0.020954218 -0.84166598 0.035313342
0.04359667 -0.84157318 0.035186924
-0.0018593082 -0.82784802 0.035935439
0.022317205 -0.82786429 0.035946786
0.10253385 -0.82785583 0.03595734
0.027450135 -0.81562185 0.035573389
0.035440788 -0.81559163 0.035572216
0.046104483 -0.81557232 0.035546862
0.091838725 -0.81557065 0.035542529
0.11065352 -0.81559688 0.035546299
0.13706018 -0.81558806 0.035587151
0.13181974 -0.80344045 0.035470907
0.12645979 -0.79139405 0.035674732
0.15343663 -0.79133075 0.035693817
0.11571559 -0.7800678 0.035443876
0.14270984 -0.78007239 0.035570506
0.15884891 -0.78001201 0.035406902
0.15074155 -0.77998865 0.035370037
0.15609017 -0.76878625 0.035420392
0.13193057 -0.72669113 0.035709303
-0.15677465 -0.92889535 0.036488086
-0.12228996 -0.91293961 0.036272619
-0.15677139 -0.89709109 0.036482483
-0.076663174 -0.89705694 0.03648445
-0.12225953 -0.88215131 0.036447771
-0.034068849 -0.88211268 0.036528189
-0.042186763 -0.88193446 0.036338311
-0.063502148 -0.8672365 0.036872197
-0.050320998 -0.86702192 0.036712639
-0.025784763 -0.85405362 0.036196277
-0.06606476 -0.85328579 0.036886185
-0.017535174 -0.85340881 0.036951896
-0.036536179 -0.84012598 0.036583554
0.054452527 -0.84019887 0.03665641
-0.0097300531 -0.8279227 0.036017563
0.030683665 -0.82717496 0.036591694
0.041404713 -0.82709742 0.036518402
0.025016546 -0.81496084 0.036321696
0.10031317 -0.8142367 0.036993638
0.14555517 -0.81421018 0.036998454
0.06001126 -0.80280226 0.036308106
0.070676178 -0.80278045 0.036235183
0.12391594 -0.80278182 0.036195084
0.11890575 -0.79075658 0.036480509
0.13723993 -0.79072535 0.036482498
0.11080461 -0.76822656 0.036230814
0.15354523 -0.76818007 0.036238063
0.10785646 -0.75717694 0.036629118
0.1159262 -0.75712299 0.036533512
0.12663235 -0.75713551 0.036514062
0.13201387 -0.74670959 0.03629031
-0.13525166 -0.9274236 0.037869908
-0.13050838 -0.91222322 0.037077669
-0.10850672 -0.9114759 0.037708387
-0.17315909 -0.89634049 0.037278574
-0.16497473 -0.89634413 0.037206337
-0.084783629 -0.89640206 0.03729251
-0.063458875 -0.89626884 0.037210248
-0.058004014 -0.89616287 0.037115294
-0.095517151 -0.88134855 0.037118439
-0.11665233 -0.88062841 0.037789762
-0.081919029 -0.88068247 0.037850358
-0.020514986 -0.8807534 0.037971225
-0.084701099 -0.8666504 0.037633277
-0.047142662 -0.85235578 0.037415624
-0.0094484789 -0.8527199 0.037701409
0.025190247 -0.83955401 0.037365224
0.014342885 -0.82655978 0.037500344
0.043929275 -0.81422704 0.037001826
0.07591325 -0.8142907 0.037010752
0.078439578 -0.81427962 0.037040018
0.11899213 -0.81428111 0.037050243
0.12969241 -0.81430417 0.037085518
0.054667383 -0.81357276 0.037785038
0.089717023 -0.81358021 0.037744913
0.10801946 -0.81364948 0.037853096
0.15378569 -0.81354362 0.037747681
0.16436718 -0.80212945 0.037049007
0.11353864 -0.80148929 0.037756257
0.078488812 -0.79011214 0.03722471
0.14574108 -0.78939992 0.037940245
0.10528756 -0.77882922 0.03703437
0.13223973 -0.77818197 0.03773592
0.11901916 -0.76763314 0.037044175
0.13479339 -0.7565214 0.037340298
0.15108602 -0.75644231 0.037249207
0.14049844 -0.74611908 0.037152693
0.14852993 -0.74604213 0.037048329
0.10036918 -0.7357747 0.037081629
0.10797676 -0.73585486 0.037193153
0.11905508 -0.73581898 0.037128095
0.12674884 -0.73581409 0.037081633
-0.15420315 -0.91065025 0.038268261
-0.10340249 -0.91063124 0.038231477
-0.13769099 -0.90996432 0.038970508
-0.14344162 -0.89485663 0.038531199
-0.11958262 -0.89482075 0.038474027
-0.10573326 -0.89489359 0.038556375
-0.07130298 -0.89482409 0.03855288
-0.012171399 -0.88002145 0.038539127
-0.06061516 -0.87981665 0.038455546
-0.092680871 -0.86587203 0.038215596
-0.076358154 -0.8658433 0.038176116
-0.014883973 -0.86593986 0.038277324
-0.060637075 -0.85180485 0.038245525
-0.014904562 -0.83887047 0.038074784
-0.0067782677 -0.83881837 0.038008038
0.0014030171 -0.8388508 0.038102489
0.0093257343 -0.83818734 0.03880474
0.017093444 -0.83883202 0.038041707
0.065626994 -0.83812571 0.038799219
0.0067290007 -0.82514977 0.038808212
0.038518775 -0.82577091 0.038116645
0.049431026 -0.82511699 0.038814653
0.060454506 -0.82515687 0.038907111
0.084155552 -0.82514966 0.038872804
0.065597154 -0.81291437 0.038534325
0.14321913 -0.81293023 0.038612004
0.14873001 -0.80073684 0.038403273
0.089900367 -0.78879631 0.03870789
0.11369557 -0.77756935 0.038554337
0.12998874 -0.76642418 0.038630541
0.10563952 -0.75533772 0.038951799
0.14319576 -0.75592333 0.038230333
0.10307382 -0.74493575 0.038706731
0.12181292 -0.7449643 0.038661923
0.14317746 -0.7352314 0.038028553
0.13505784 -0.73465437 0.038733501
-0.11636446 -0.90910566 0.039501574
-0.12698822 -0.89416534 0.039205305
-0.092527412 -0.89411312 0.039162561
-0.13488908 -0.89343584 0.039890058
-0.073735856 -0.87919486 0.039262835
-0.027766226 -0.87917131 0.039120425
-0.089758299 -0.87852949 0.039907642
-0.044126015 -0.86419481 0.03944857
-0.022734933 -0.86448574 0.03967851
-0.033491209 -0.85049313 0.039720967
0.0041287476 -0.85054833 0.039756767
0.031215765 -0.85053253 0.039639089
-0.022745717 -0.83746588 0.039525263
0.033625521 -0.83744907 0.039436806
0.020099895 -0.82444465 0.039549507
0.095177934 -0.82446563 0.039571047
0.033593055 -0.81226325 0.039196044
0.086821489 -0.81221974 0.039140616
0.12706377 -0.8122682 0.039192349
0.13508032 -0.81225675 0.039235398
0.12185925 -0.80017865 0.039169285
0.14083876 -0.80015725 0.039252233
0.10325523 -0.79949331 0.039957482
0.15685701 -0.79944187 0.03989077
0.13777173 -0.76575506 0.039375708
0.12455588 -0.75471526 0.039656136
0.11139172 -0.7443521 0.039473329
0.13016184 -0.74439615 0.039543159
0.14604902 -0.74430281 0.039465148
0.11647128 -0.73408085 0.039520908
0.12454253 -0.7340802 0.03949729
-0.1431386 -0.92429394 0.040361628
-0.16195349 -0.90838718 0.040187728
-0.14550771 -0.90836608 0.040132925
-0.081519656 -0.9084053 0.040211391
-0.16997139 -0.90762508 0.040890824
-0.11372478 -0.89261496 0.040486678
-0.10046049 -0.89254618 0.040381152
-0.052188084 -0.89239222 0.04034495
-0.10298757 -0.87771922 0.040497351
-0.057441048 -0.86353493 0.040204477
-0.030768784 -0.8636741 0.040242217
-0.0037379067 -0.84979337 0.040324226
0.020234533 -0.84982312 0.040414672
0.076457419 -0.83677447 0.040155388
0.071502097 -0.82308847 0.040992625
0.14614183 -0.76509947 0.040101901
0.13795783 -0.74375528 0.04031077
-0.15905099 -0.92275 0.041565828
-0.15088117 -0.89186484 0.04111971
-0.054650672 -0.87680387 0.041095603
0.012505949 -0.84919065 0.041215628
0.047179412 -0.84838998 0.041784585
0.068712376 -0.82238418 0.041697539
0.082019605 -0.82241547 0.041715574
-0.1505972 -0.92121094 0.042845007
-0.12392646 -0.90616429 0.042147581
-0.097054429 -0.90528697 0.042719215
-0.089258395 -0.90542692 0.042838287
-0.078211524 -0.89036006 0.0423964
-0.067713551 -0.87550294 0.042580854
-0.03826315 -0.86144012 0.042297956
0.052865937 -0.83462399 0.042233791
0.074305683 -0.83402318 0.043103687
0.01300789 -0.820427 0.043972153
-0.16611816 -0.91896832 0.044797342
-0.11023974 -0.90391755 0.044130914
0.029258884 -0.84419721 0.045991894
0.024270484 -0.85654843 0.047143124
