# .PCD v0.7 - Point Cloud Data file format
VERSION 0.7
FIELDS x y z
SIZE 4 4 4
TYPE F F F
COUNT 1 1 1
WIDTH 1379
HEIGHT 1
VIEWPOINT 0 0 0 1 0 0 0
POINTS 1379
DATA ascii
0.39668769 -7.7243547 2.8850319
0.46179026 -6.3561387 3.2535894
0.47595909 -6.0217719 3.3337991
0.48241028 -5.2516246 3.3700101
0.48367196 -4.9096336 3.3770094
0.47278941 -4.504499 3.3150814
0.46995643 -4.2001605 3.2988844
0.44882968 -3.6814167 3.1788151
0.48010772 -3.6563888 3.3563037
0.47755703 -3.4260242 3.341764
0.47084016 -3.1898212 3.3035893
0.46584496 -2.9797783 3.2751999
0.46852204 -2.819886 3.2903659
0.46781006 -2.6530287 3.2863042
0.45362732 -2.4406514 3.2057998
0.47196019 -2.2937469 3.3098326
0.47132468 -2.1523137 3.3062258
0.46210065 -1.9904076 3.2538867
0.45935568 -1.8562638 3.2383204
0.45639983 -1.7271597 3.2215619
0.45378458 -1.6039745 3.2067404
0.45322517 -1.4895673 3.2035878
0.45320627 -1.379266 3.203505
0.45533019 -1.2216847 3.2155979
0.45692295 -1.1186475 3.2246654
0.43861648 -0.99433047 3.1208327
0.41925997 -0.87804687 3.0110476
0.45371515 -0.80886686 3.2065697
0.45015219 -0.7072975 3.186394
0.44353577 -0.60685104 3.1488969
0.43880367 -0.46177134 3.1221147
0.43798617 -0.36621422 3.1175215
0.020442378 -0.42684585 0.74887878
0.019151734 -0.41614375 0.74163306
0.019322887 -0.39849541 0.74271834
0.0070287362 -0.39826638 0.67309105
0.0056493781 -0.39565068 0.6653049
0.0045458311 -0.38826391 0.65912217
0.0036384691 -0.37614384 0.65409124
0.0030819785 -0.36799705 0.65101206
0.0029451093 -0.3635751 0.65027446
0.0022907155 -0.35074049 0.64667886
0.0023475399 -0.34052467 0.64707881
0.0022141028 -0.32516313 0.64643836
0.0025143807 -0.31296176 0.64821923
0.0030549692 -0.29295385 0.65140188
0.0099313464 -0.20794585 0.69067502
0.0078606177 -0.20143348 0.67900693
0.0062427814 -0.19251025 0.66990769
0.0051414315 -0.18014146 0.66373789
0.0035738726 -0.15983966 0.65496218
0.0034417012 -0.13804089 0.65428889
0.16124617 1.6900742 1.5495093
0.14586717 1.7026298 1.4623476
0.12139754 1.5929013 1.3236361
0.10116189 1.5141695 1.2089379
0.087785818 1.5201545 1.1331394
0.074453928 1.5222486 1.057592
0.061873123 1.5339258 0.98630393
0.043584608 1.5611413 0.88267553
0.030735156 1.5605024 0.809865
0.018237524 1.566076 0.7390492
0.0055226628 1.5581846 0.66700292
-0.0068159858 1.5616255 0.59708887
-0.019216718 1.5545884 0.52682394
-0.031436522 1.5640476 0.45758262
-0.049883351 1.565122 0.35305759
-0.062073067 1.5534374 0.28398928
-0.074516781 1.5602214 0.21347696
-0.087023936 1.5624667 0.14260495
-0.099572785 1.5611542 0.071496472
-0.11267047 1.5709502 -0.0027275688
-0.12587725 1.5759803 -0.077570386
-0.070010312 -0.063775234 0.24003497
-0.070839502 -0.088312879 0.23541369
-0.070913412 -0.10316804 0.23503613
-0.073341593 -0.12134971 0.22138208
-0.074923053 -0.13288656 0.21249089
-0.076707177 -0.14217645 0.20244947
-0.078633025 -0.15017819 0.19160375
-0.080946118 -0.15545087 0.17856053
-0.083927609 -0.15674408 0.16172451
-0.089669809 -0.15305063 0.12926438
-0.11209872 -0.06336166 0.0021213714
-0.11055066 -0.098192386 0.010986482
-0.10948498 -0.12810969 0.017114125
-0.1118918 -0.14088266 0.003538165
-0.11416797 -0.17680487 -0.0092166848
-0.11422449 -0.19795205 -0.0094576003
-0.11381592 -0.219732 -0.0070597478
-0.11401191 -0.23874314 -0.008092422
-0.11391404 -0.25795093 -0.0074579529
-0.11439383 -0.28409013 -0.01006203
-0.11445811 -0.30158871 -0.010348176
-0.11407439 -0.31950676 -0.0080923671
-0.11423551 -0.33596441 -0.0089283418
-0.11412214 -0.35254872 -0.0082070306
-0.11424109 -0.36851153 -0.0088040996
-0.11408887 -0.38455662 -0.0078626154
-0.11417948 -0.40014237 -0.0082992222
-0.11448152 -0.42322195 -0.0098971622
-0.11424681 -0.43103474 -0.008526762
-0.11426745 -0.45401439 -0.0085285418
-0.11428086 -0.46930316 -0.0085279271
-0.11437494 -0.48463497 -0.008985376
-0.11454855 -0.50009567 -0.0098942285
-0.11462709 -0.51564854 -0.01026394
-0.11456473 -0.53910822 -0.0097964406
-0.11457166 -0.55501395 -0.0097602922
-0.11464652 -0.5712527 -0.01010987
-0.11478347 -0.58790445 -0.010812175
-0.11497564 -0.60504693 -0.011828072
-0.11505199 -0.62241298 -0.01218703
-0.11494398 -0.64882439 -0.011463206
-0.1148776 -0.66705716 -0.011013011
-0.11514603 -0.68684447 -0.012463327
-0.1155695 -0.70794904 -0.014793999
-0.11567973 -0.728971 -0.01534744
-0.11330902 -0.75244671 -0.0017847165
-0.11348021 -0.77554423 -0.0026852277
-0.11373375 -0.80028123 -0.0040537724
-0.11258003 -0.8197003 0.0025645467
-0.090894215 -0.7738573 0.1258698
-0.092118576 -0.80425423 0.11898983
-0.091027424 -0.82170546 0.12525347
-0.090523273 -0.85858685 0.12821797
-0.29164296 -2.7076783 -1.0135645
-0.2860831 -2.9324894 -0.98199695
-0.28790903 -3.1644235 -0.99237925
-0.28644553 -3.3908916 -0.98409551
-0.28795373 -3.6901929 -0.99270523
-0.28936109 -4.0397277 -1.0007648
-0.28764153 -4.4065557 -0.99109071
-0.2766099 -4.9506187 -0.92861956
-0.24216238 -10.039789 -0.7350139
-0.16004862 -10.516142 -0.26919675
-0.099833287 -10.660458 0.07247825
0.025186572 -10.890276 0.78189778
0.087804288 -10.830291 1.1372987
0.15221624 -10.890144 1.5027084
0.21751164 -10.938601 1.8733677
0.30951896 -10.765673 2.3957839
0.28583249 -4.8670769 2.2646487
0.44803709 -6.4748359 3.1845865
0.45424572 -6.0356188 3.2201114
0.47480422 -5.5866127 3.3371239
0.48765102 -5.3156972 3.4102428
0.48747393 -4.9573412 3.4094832
0.47373384 -4.5267854 3.3317778
0.47204033 -4.229743 3.322381
0.43604466 -3.7233055 3.1183958
0.47151822 -3.7283404 3.3198023
0.47700498 -3.4348578 3.351191
0.47156647 -3.2051551 3.3205047
0.46701667 -2.9964898 3.294852
0.46611872 -2.818912 3.2899106
0.4675881 -2.6617129 3.2983952
0.46394533 -2.4913657 3.2778709
0.46149778 -2.3350377 3.2641232
0.4641853 -2.2043674 3.2795072
0.46335286 -2.0013456 3.274981
0.45846653 -1.8603228 3.2473831
0.45519724 -1.7300932 3.2289572
0.45161492 -1.6044078 3.2087522
0.45136669 -1.4906218 3.2074635
0.45001683 -1.377719 3.1999216
0.45074251 -1.2713059 3.2041554
0.4522967 -1.1678948 3.2130895
0.44506067 -1.0041462 3.1721954
0.41323614 -0.87464005 2.9917066
0.45368201 -0.81039447 3.2213404
0.42885137 -0.69759613 3.0805359
0.44158754 -0.60677141 3.1529202
0.43799064 -0.50951713 3.1326134
0.43588921 -0.41366926 3.1207924
0.017914852 -0.42682666 0.74892706
0.016967433 -0.41584703 0.74363053
0.01662311 -0.39866814 0.74179673
0.0050344141 -0.40225208 0.67610574
0.0024545931 -0.39667648 0.66154349
0.0030784113 -0.39107668 0.6651237
0.0012769189 -0.37579343 0.65505785
0.00067972089 -0.37240708 0.65170801
0.00011008249 -0.35955 0.64859372
-0.00023448959 -0.35073313 0.64671719
3.503311e-05 -0.34496537 0.64828652
-0.00046090069 -0.32567105 0.64563
-0.00015807808 -0.31349918 0.64742792
0.00061224314 -0.29874504 0.65187937
0.0079033794 -0.20520684 0.69358176
0.0054487209 -0.20071669 0.67972833
0.0038271318 -0.19177015 0.67060345
0.0026076327 -0.1801334 0.6637609
0.0018457468 -0.1647706 0.65951586
0.00060136127 -0.14046103 0.65257186
0.0015281029 -0.10764145 0.65791237
0.14429979 1.716187 1.4687171
0.11849747 1.5902233 1.3223362
0.10752095 1.6431037 1.260118
0.085298613 1.5230193 1.1340563
0.071957305 1.525141 1.0584112
0.059365999 1.5368426 0.98702377
0.047189604 1.5556201 0.91799158
0.034654606 1.5650928 0.84692311
0.015448718 1.5601623 0.738029
0.0029045816 1.5581915 0.66690737
-0.0095627634 1.5526613 0.59622127
-0.021810822 1.5555831 0.52678037
-0.034038942 1.5620388 0.45745292
-0.046289328 1.5550356 0.38799796
-0.058611345 1.5635593 0.31813768
-0.076888196 1.5492555 0.21451536
-0.089370601 1.5535234 0.14374447
-0.10188868 1.5532402 0.072770782
-0.11504038 1.5660189 -0.0017981289
-0.12787479 1.5633216 -0.074567154
-0.1389008 1.5204324 -0.13707511
-0.071493067 -0.057878777 0.24570717
-0.072182767 -0.085071437 0.24186802
-0.07347957 -0.1023069 0.23458385
-0.074781224 -0.11785494 0.22727235
-0.077403836 -0.13290907 0.21250233
-0.079086967 -0.14301836 0.20302619
-0.081006505 -0.15099996 0.19220853
-0.083204187 -0.15702872 0.17981234
-0.08617495 -0.15827771 0.16302884
-0.090719968 -0.1508472 0.13731103
-0.11371699 -0.053916004 0.0069109229
-0.11327965 -0.096911512 0.0095075034
-0.11303015 -0.12310588 0.011000096
-0.11671284 -0.13068326 -0.0098236389
-0.11663105 -0.17683527 -0.0092054615
-0.11683568 -0.19746703 -0.010289602
-0.11642966 -0.21927659 -0.0079079568
-0.11647335 -0.23877209 -0.0080784345
-0.1163751 -0.25797939 -0.0074431519
-0.11685431 -0.28411803 -0.010046191
-0.11691834 -0.30161616 -0.010331654
-0.11702961 -0.31860676 -0.010885083
-0.11702909 -0.33543971 -0.010803929
-0.11675043 -0.35233283 -0.0091441991
-0.11653125 -0.36874494 -0.00782183
-0.11671973 -0.38440809 -0.008812991
-0.11681138 -0.40002787 -0.0092544649
-0.11646177 -0.41579342 -0.0071915789
-0.11688036 -0.4309887 -0.0094882445
-0.11690185 -0.45401996 -0.0094916262
-0.11691564 -0.46934319 -0.0094906138
-0.11683664 -0.48465702 -0.0089629376
-0.11701073 -0.5001173 -0.0098713916
-0.11708985 -0.51566976 -0.010240712
-0.11724448 -0.53145146 -0.011038415
-0.11703616 -0.55503398 -0.0097361235
-0.11694345 -0.57103026 -0.0091297533
-0.1172497 -0.58792359 -0.010787266
-0.11744287 -0.60506564 -0.011802792
-0.11719417 -0.62174708 -0.010310558
-0.11780135 -0.64074379 -0.013675145
-0.11811098 -0.65976268 -0.015350767
-0.11761899 -0.6868611 -0.012436372
-0.1180441 -0.70796525 -0.014766615
-0.11800733 -0.72847164 -0.014475531
-0.1162133 -0.74325973 -0.0042126044
-0.11553986 -0.77379507 -0.00026658562
-0.11608016 -0.79967946 -0.0032487174
-0.11519826 -0.82035649 0.0018394723
-0.093818173 -0.76572955 0.12336089
-0.093096144 -0.79460227 0.1275833
-0.093405269 -0.82094836 0.12591401
-0.093016818 -0.85859519 0.12824607
-0.29269737 -2.6934443 -1.0043645
-0.29388657 -2.8849542 -1.0109776
-0.29498056 -3.0995955 -1.0170426
-0.28759673 -3.372035 -0.97493219
-0.28890488 -3.6664579 -0.9821865
-0.28972104 -4.0045104 -0.98663425
-0.29022396 -4.4018717 -0.98928452
-0.2910735 -4.8898602 -0.99387288
-0.24305673 -9.9117565 -0.719289
-0.19094293 -10.289167 -0.42329496
-0.10353221 -10.650466 0.073076181
-0.041811746 -10.666656 0.42348093
0.020745616 -10.789339 0.77867037
0.08482483 -10.902118 1.1424946
0.14928424 -10.941862 1.508311
0.28299564 -11.080726 2.2675591
0.2845 -4.8910103 2.2747738
0.44470534 -6.4748378 3.184746
0.44813764 -6.0035443 3.2041633
0.46162876 -5.6960778 3.2807279
0.47496533 -5.4184723 3.3564227
0.4659287 -4.9676538 3.3050625
0.4765729 -4.5737062 3.3654718
0.47658852 -4.2856889 3.3655434
0.4491384 -3.8336089 3.2096577
0.46286607 -3.691927 3.2876072
0.46873665 -3.5085971 3.3209429
0.46341065 -3.2734523 3.2907062
0.46052817 -3.068409 3.2743483
0.45872533 -2.8822143 3.2641234
0.46574041 -2.6659219 3.3039725
0.46712032 -2.5154498 3.3118222
0.45508942 -2.3214185 3.243536
0.4629198 -2.2095125 3.2880087
0.45816931 -2.0589223 3.2610588
0.4523828 -1.9128839 3.2282293
0.4526723 -1.7304939 3.2299035
0.45039788 -1.6077722 3.2170134
0.44904494 -1.4912988 3.2093542
0.44920114 -1.3811104 3.2102616
0.44846138 -1.2718495 3.2060826
0.45053956 -1.1690961 3.2178979
0.45265296 -1.0673282 3.2299118
0.40851113 -0.91922557 2.9793901
0.45062229 -0.81001967 3.2184277
0.42770922 -0.69828337 3.0884006
0.44029021 -0.60712737 3.1598177
0.43688414 -0.50964594 3.1405008
0.43358395 -0.41364107 3.121784
0.014825257 -0.41556191 0.74558854
0.01432761 -0.40432432 0.74283785
0.0028868502 -0.40179512 0.67803192
0.00097483088 -0.39511612 0.66725779
-0.00013156731 -0.38766283 0.66105491
-0.00045435585 -0.3789385 0.65929782
-0.0019263109 -0.36798143 0.65105808
-0.002062951 -0.36355954 0.65031976
-0.0023800007 -0.35471058 0.64859474
-0.0026010543 -0.34541133 0.64741391
-0.0026782884 -0.33013266 0.64708459
-0.0027817108 -0.31403527 0.64660555
-0.0020060365 -0.29930985 0.6510756
0.0060771913 -0.20178695 0.69718194
0.0032331836 -0.1992926 0.68111992
0.0014854084 -0.19102882 0.67127359
0.00026293247 -0.17936857 0.66440493
-0.0016294818 -0.16139829 0.65376794
-0.0020556108 -0.14206867 0.65141052
-0.001404698 -0.11177613 0.65515417
0.14917986 1.7017903 1.5081478
0.13220824 1.6927141 1.4119055
0.11436009 1.6629393 1.3107105
0.083295457 1.524913 1.1346583
0.069889709 1.526106 1.0586436
0.057439361 1.5407015 0.98803639
0.045075174 1.5556338 0.91791761
0.032216217 1.5563029 0.84500635
0.019728443 1.5631447 0.77419484
0.00717525 1.5644639 0.70301813
-0.011660919 1.5536704 0.59623128
-0.02384924 1.5635849 0.52711576
-0.036156252 1.5600517 0.45734185
-0.048401386 1.5550479 0.38792095
-0.060730241 1.5645701 0.3180083
-0.073062755 1.56361 0.24808702
-0.08536464 1.5581729 0.17834491
-0.1042995 1.5630994 0.070981003
-0.11707708 1.5640737 -0.0014680359
-0.1299001 1.5613918 -0.074170351
-0.070316643 -0.024694566 0.26611775
-0.074231692 -0.054211561 0.24409474
-0.074646398 -0.08505816 0.24185936
-0.075947694 -0.10229353 0.23457588
-0.077253506 -0.11784147 0.227265
-0.078779638 -0.13006718 0.21869975
-0.081467368 -0.14382382 0.20358476
-0.083384573 -0.15178484 0.1927952
-0.085579649 -0.15779206 0.18042631
-0.088319518 -0.16052793 0.16496153
-0.092495695 -0.15522131 0.14133514
-0.11728779 -0.062016811 0.00067605847
-0.11566156 -0.084277488 0.0099747758
-0.11552992 -0.11070494 0.010837696
-0.1200288 -0.12705937 -0.014550515
-0.11975367 -0.15193702 -0.012874453
-0.11927378 -0.17627713 -0.010036791
-0.11933856 -0.19745333 -0.010294
-0.11924171 -0.21829329 -0.0096341381
-0.11929648 -0.23785029 -0.0098360274
-0.11889448 -0.25796533 -0.0074447705
-0.11914205 -0.27567926 -0.0087427767
-0.11926859 -0.29323426 -0.0093538966
-0.11911231 -0.31092897 -0.0083595375
-0.11916763 -0.32776067 -0.0085669085
-0.11894509 -0.34468049 -0.0071969698
-0.1189495 -0.36088848 -0.0071157152
-0.11927578 -0.38439307 -0.0088085597
-0.11920032 -0.40015182 -0.0082740132
-0.11919984 -0.4156737 -0.0081650019
-0.11945055 -0.43097335 -0.0094814803
-0.11943507 -0.44634518 -0.0092870453
-0.11932644 -0.46166587 -0.0085637709
-0.11942343 -0.48464122 -0.0089534102
-0.11942946 -0.50001413 -0.0088799642
-0.11951409 -0.51553178 -0.0092520742
-0.11967453 -0.53127879 -0.010053712
-0.11973644 -0.54714775 -0.010295724
-0.11986766 -0.56334317 -0.010930202
-0.12006266 -0.5799455 -0.011925644
-0.11973745 -0.60443074 -0.0099136019
-0.11998751 -0.62207234 -0.01121901
-0.12011551 -0.63997751 -0.011830977
-0.12043586 -0.65893203 -0.013532394
-0.11996033 -0.68593568 -0.010660848
-0.12009391 -0.70600837 -0.011299566
-0.12052242 -0.72793907 -0.01360834
-0.11902789 -0.74378663 -0.0050145299
-0.11914276 -0.76623267 -0.0055418862
-0.11849298 -0.79842991 -0.0016694837
-0.11842408 -0.82290953 -0.0011493926
-0.096006766 -0.76288104 0.12617126
-0.095436834 -0.79235256 0.12958692
-0.095879734 -0.8193959 0.12720843
-0.096590661 -0.85093063 0.12331758
-0.29345798 -2.6716297 -0.99027961
-0.29519403 -2.8660877 -0.99966729
-0.29629594 -3.0785959 -1.0054193
-0.29756248 -3.3218651 -1.0120441
-0.29056609 -3.6426966 -0.9715724
-0.29044828 -3.9637043 -0.97018337
-0.29107463 -4.3567567 -0.97287416
-0.29460296 -4.8841453 -0.99176878
-0.24492699 -9.7539282 -0.69963253
-0.19548753 -10.234361 -0.41796288
-0.13257532 -9.8687544 -0.061506979
-0.07821504 -10.665088 0.24872479
0.07935898 -10.912056 1.1438451
0.1418727 -10.839386 1.4983506
0.27016878 -10.839405 2.2262557
0.26732108 -4.92312 2.1985743
0.43935165 -5.9482718 3.1766729
0.45948598 -5.7135401 3.2904913
0.48210713 -5.5230165 3.4185066
0.46212992 -4.9659524 3.3041534
0.4644047 -4.6571517 3.3165231
0.47434825 -4.2943392 3.3723314
0.45696801 -3.9101954 3.2730651
0.45694107 -3.674824 3.2725332
0.46950224 -3.5323262 3.3435934
0.46400329 -3.2942858 3.3120205
0.45975137 -3.0804498 3.2875714
0.45700467 -2.8886421 3.2717066
0.4578971 -2.7252655 3.2765427
0.46558672 -2.5211928 3.3199074
0.44868654 -2.308358 3.2237217
0.46286058 -2.2193108 3.3040516
0.45653164 -2.0628161 3.2679465
0.4511072 -1.9174414 3.2369957
0.44784987 -1.7851375 3.2183657
0.44600195 -1.6618261 3.2077498
0.44875532 -1.496456 3.2232115
0.44698235 -1.3820676 3.2130435
0.44643459 -1.2729849 3.2098379
0.44769612 -1.1688902 3.2169082
0.44999582 -1.0673672 3.2298751
0.40688995 -0.92030317 2.985173
0.44858736 -0.86094451 3.2217271
0.43345591 -0.75106722 3.1357975
0.43769795 -0.60717702 3.1597748
0.43291479 -0.50955844 3.1325803
0.43101346 -0.41369513 3.1217403
0.012115835 -0.41554907 0.74556613
0.011445789 -0.40448546 0.74184519
0.00033794122 -0.40155596 0.67896867
-0.0013748143 -0.39920238 0.6692968
-0.0028544497 -0.38764864 0.66103154
-0.0043694112 -0.37202719 0.65260947
-0.005103305 -0.3595286 0.64857501
-0.00533474 -0.34539816 0.64738959
-0.0057160337 -0.33111995 0.64535445
-0.0056675831 -0.3145676 0.64575517
-0.0046865959 -0.30504608 0.65135753
0.0047639729 -0.20333534 0.70524353
0.0016530165 -0.20181797 0.687693
-0.0011508098 -0.19028848 0.67192358
-0.0024953566 -0.17935956 0.66438383
-0.0034817667 -0.16552855 0.65887296
-0.0049249423 -0.14286876 0.65081239
-0.0046608457 -0.1159129 0.65238297
0.14638363 1.7008569 1.5077777
0.12984067 1.6972076 1.4140668
0.1153458 1.713534 1.3319557
0.08652316 1.5119687 1.1687732
0.073050566 1.5135672 1.0924736
0.054770038 1.5435698 0.98894018
0.042456228 1.5604738 0.91920298
0.029696319 1.5650989 0.84694707
0.016835559 1.5621567 0.77412629
0.0040773982 1.5555526 0.70189118
-0.0083057573 1.5582504 0.63177627
-0.020661984 1.558444 0.56181693
-0.039080881 1.5640684 0.4575302
-0.051384259 1.5650687 0.3878721
-0.063692719 1.5635988 0.3181878
-0.076021284 1.56165 0.24839056
-0.088370092 1.558211 0.17848027
-0.10106655 1.5651169 0.1065918
-0.11389909 1.5693682 0.03393437
-0.13296799 1.5614501 -0.074020401
-0.14624919 1.5637635 -0.14921901
-0.077437922 -0.050523568 0.24248743
-0.077799782 -0.082327694 0.24055615
-0.079038836 -0.10049283 0.23364155
-0.080271564 -0.11693994 0.22676151
-0.081714429 -0.13003081 0.21868753
-0.083332561 -0.14077967 0.20961811
-0.085272692 -0.14852713 0.19872086
-0.087378405 -0.15507998 0.18688393
-0.090010367 -0.15826195 0.17206089
-0.094747148 -0.15956539 0.1453514
-0.11930449 -0.053151295 0.0061930027
-0.11969067 -0.078867182 0.00411767
-0.11866017 -0.11000482 0.01007785
-0.12158684 -0.12114795 -0.0064115496
-0.12179752 -0.1442042 -0.0074945195
-0.12167908 -0.16747232 -0.0067116772
-0.12249132 -0.19687741 -0.011154076
-0.12254956 -0.21726248 -0.011375578
-0.12230093 -0.23778881 -0.0098574907
-0.12221345 -0.25705844 -0.0092541808
-0.12198696 -0.27600798 -0.0078631742
-0.12227365 -0.29317182 -0.0093834121
-0.12211734 -0.3108663 -0.0083917696
-0.1221728 -0.32769763 -0.0086017679
-0.12228553 -0.34409958 -0.0091370475
-0.12195443 -0.36082494 -0.0071559595
-0.12202591 -0.37669256 -0.0074584307
-0.12216949 -0.39230162 -0.0081701865
-0.12220426 -0.41560888 -0.0082146348
-0.12228151 -0.43097782 -0.008551443
-0.12243874 -0.44627956 -0.0093422178
-0.12250307 -0.46159998 -0.0096066557
-0.12247445 -0.4769204 -0.0093443915
-0.12243036 -0.4999474 -0.008945372
-0.12251396 -0.51546466 -0.0093205376
-0.12267324 -0.5312112 -0.01012531
-0.12273376 -0.54707986 -0.010370543
-0.12269422 -0.56304991 -0.01004879
-0.12305672 -0.57987672 -0.012007209
-0.12297473 -0.59637934 -0.011445738
-0.12264968 -0.62131882 -0.0094586937
-0.12310153 -0.63990754 -0.0119254
-0.12310169 -0.65804815 -0.011831544
-0.1234422 -0.67771077 -0.013668069
-0.12291653 -0.70545256 -0.010547291
-0.12319504 -0.72683734 -0.012033854
-0.12184849 -0.74317116 -0.0043065343
-0.12196187 -0.76558775 -0.0048581525
-0.12189287 -0.7883774 -0.0043764436
-0.12137147 -0.82283801 -0.0012857367
-0.098588973 -0.76070493 0.12812954
-0.099484645 -0.78778183 0.12313864
-0.098703921 -0.81857455 0.12769687
-0.29442924 -2.6579962 -0.98218966
-0.29599816 -2.8504412 -0.99107265
-0.29703143 -3.0617588 -0.99693084
-0.29838723 -3.3056052 -1.0046345
-0.30117777 -3.6036789 -1.0204988
-0.30178785 -3.9216862 -1.0240169
-0.28928503 -4.2992163 -0.95320243
-0.24435152 -9.745801 -0.70081317
-0.19494545 -10.243183 -0.42101055
-0.13324653 -10.012468 -0.071161211
-0.077034079 -10.616055 0.24714524
-0.015140997 -10.71407 0.59790945
0.079501726 -10.810408 1.1342933
0.21244441 -11.054643 1.8876982
0.27073807 -10.809151 2.2184019
0.26672521 -4.9289484 2.1996367
0.44663495 -6.0360084 3.2190838
0.4618139 -5.7437086 3.305382
0.45768633 -4.9345098 3.2826126
0.46742219 -4.6903486 3.3380234
0.46311641 -4.358427 3.3138847
0.47200072 -4.0224648 3.364558
0.45335665 -3.6611195 3.2591543
0.47121885 -3.5514562 3.3605502
0.46285734 -3.2967887 3.3133733
0.45917624 -3.0862172 3.2927029
0.45718333 -2.8980517 3.2815888
0.45669726 -2.728137 3.2790055
0.45942348 -2.5808556 3.2946186
0.44356698 -2.2967713 3.2050076
0.46420267 -2.2310503 3.3220944
0.45605385 -2.0680652 3.2760682
0.4502908 -1.9214679 3.2435565
0.44873697 -1.7935587 3.2348938
0.44497126 -1.6649483 3.2136934
0.44399592 -1.5477424 3.2083035
0.44407535 -1.3812144 3.2089558
0.44448557 -1.2739176 3.2114131
0.44588548 -1.169997 3.2194784
0.44764844 -1.067748 3.2295997
0.40445802 -0.92064828 2.9849341
0.44754976 -0.86243516 3.2292962
0.44049841 -0.75718468 3.189456
0.43625188 -0.65665025 3.1655111
0.43020746 -0.50989956 3.1314356
0.42879805 -0.41401601 3.1235693
0.0093400823 -0.42130879 0.74623203
0.0083590606 -0.40469044 0.74080175
-0.0020763772 -0.40090427 0.68177652
-0.0041292408 -0.39898211 0.67018241
-0.0053857318 -0.39162731 0.66314572
-0.007131278 -0.37168792 0.65346545
-0.0077164322 -0.36356443 0.65023422
-0.008035603 -0.35471538 0.64851087
-0.0080610737 -0.34985316 0.64840955
-0.008640049 -0.33113754 0.64529973
-0.0082916487 -0.3190895 0.64736152
-0.0077549317 -0.30562332 0.65049124
-0.0064764591 -0.28169629 0.65787047
0.0027374169 -0.19867636 0.7103337
-0.0010270362 -0.20045091 0.68907756
-0.0038441753 -0.18884587 0.67323709
-0.0053121843 -0.17862384 0.66500217
-0.0065226536 -0.16632377 0.65822786
-0.0070991954 -0.1485738 0.65504873
-0.0069453502 -0.12332927 0.65601242
0.14334948 1.7025211 1.5089163
0.12686507 1.6998205 1.4155599
0.11227931 1.7152795 1.3329723
0.083472483 1.5137595 1.1696973
0.070098624 1.517282 1.0939751
0.057656426 1.5331712 1.0235386
0.039223343 1.5594569 0.91918993
0.026538976 1.5660388 0.8473779
0.013701299 1.5640966 0.77469403
0.0010998535 1.5644436 0.70335025
-0.011447829 1.5612206 0.63231015
-0.024257999 1.5255191 0.55977052
-0.036131941 1.563145 0.49256513
-0.054551244 1.5540841 0.38828486
-0.066875756 1.5616229 0.31851521
-0.079086266 1.5527132 0.24938601
-0.091571808 1.5582471 0.17870368
-0.10421574 1.5631852 0.10712381
-0.11713739 1.5704011 0.033971108
-0.12993957 1.5680541 -0.038507637
-0.14931145 1.5609493 -0.14818184
-0.08069057 -0.045927487 0.24048701
-0.080919676 -0.079602964 0.23925909
-0.082006507 -0.099581093 0.23317491
-0.083152726 -0.11691064 0.22675519
-0.084683463 -0.12915276 0.21815804
-0.086205721 -0.14074896 0.20960927
-0.08804056 -0.14930455 0.1992901
-0.090138592 -0.1558354 0.18748011
-0.092652045 -0.15976027 0.17331672
-0.097135946 -0.16245483 0.14802796
-0.12256499 -0.051017657 0.0040737265
-0.12166477 -0.10931348 0.0093225595
-0.122812 -0.12848726 0.0028978046
-0.12480091 -0.14356673 -0.0082956366
-0.12496823 -0.16574524 -0.0091677355
-0.12466659 -0.18864992 -0.0073822401
-0.12493505 -0.20855798 -0.0088266581
-0.12529477 -0.23728618 -0.010749148
-0.12456462 -0.24894789 -0.0065731416
-0.12513599 -0.27517852 -0.0096941479
-0.12509839 -0.29312417 -0.0094030527
-0.12510182 -0.31049332 -0.0093441298
-0.12515487 -0.32735813 -0.0095662596
-0.12492942 -0.34431171 -0.0082100639
-0.12493116 -0.36055356 -0.0081411097
-0.12499999 -0.37645555 -0.0084520681
-0.12496917 -0.39225575 -0.0081983386
-0.12517115 -0.41545877 -0.0092239752
-0.12513342 -0.42320725 -0.0089704599
-0.12539941 -0.44619957 -0.010358521
-0.1254604 -0.46155512 -0.010624606
-0.1252546 -0.47687599 -0.0093786102
-0.12530303 -0.49224776 -0.009573346
-0.12525772 -0.50765187 -0.0092367269
-0.12527066 -0.53101146 -0.0091902446
-0.12532924 -0.54684597 -0.0094423015
-0.12545733 -0.563007 -0.01008821
-0.12514575 -0.57879919 -0.0082424954
-0.12573236 -0.5963369 -0.011486943
-0.12586866 -0.61359358 -0.012179417
-0.12588778 -0.63106114 -0.012207868
-0.12585035 -0.65800667 -0.01187583
-0.12587628 -0.67679292 -0.011942909
-0.12607312 -0.69675761 -0.012978666
-0.12626988 -0.71755207 -0.014013967
-0.12615867 -0.73816985 -0.013304027
-0.12455582 -0.76497489 -0.0041004755
-0.12462736 -0.7883383 -0.0044264891
-0.12477501 -0.81334257 -0.0051839645
-0.10154967 -0.76209027 0.12668924
-0.10160615 -0.78409666 0.1264488
-0.10248309 -0.81326354 0.12155789
-0.10148039 -0.84533072 0.12735982
-0.30225414 -2.6185687 -1.0105011
-0.30459517 -2.8113518 -1.0237112
-0.29721782 -3.0336723 -0.98180979
-0.29844368 -3.2734306 -0.98870665
-0.300935 -3.5646098 -1.0027822
-0.30044541 -3.8635976 -0.99996644
-0.30221793 -4.2498794 -1.0099823
-0.29042202 -4.7278581 -0.94307888
-0.28798172 -5.2465811 -0.92924058
-0.27115536 -9.5332775 -0.8341738
-0.19792259 -10.216228 -0.41915303
-0.080622874 -10.675028 0.24565496
-0.018587008 -10.704074 0.59727341
0.044681679 -10.821468 0.95586318
0.10683548 -10.756412 1.3081601
0.17526211 -11.004617 1.6959633
0.27018496 -10.901815 2.2340128
0.26637989 -4.9651976 2.2138088
0.29518119 -4.9209046 2.3771095
0.43825018 -6.2205791 3.1877573
0.45379001 -5.6904955 3.2760189
0.47721264 -5.5098963 3.40886
0.45638219 -4.94807 3.2909782
0.46761736 -4.7150679 3.3547611
0.46432149 -4.3889184 3.336211
0.46167225 -4.0975146 3.3213198
0.43665138 -3.6831059 3.1796679
0.47370899 -3.5825317 3.3898036
0.46505001 -3.3240213 3.3408499
0.45909244 -3.0997367 3.3071992
0.45519674 -2.9014001 3.2852294
0.45501706 -2.7325804 3.2843132
0.45693785 -2.5815763 3.2952969
0.43287665 -2.3364177 3.1590562
0.46354184 -2.2378795 3.3329625
0.454227 -2.0706191 3.2802761
0.44817844 -1.9229573 3.2460964
0.44727209 -1.7966439 3.2410536
0.4430528 -1.666636 3.2172368
0.44177097 -1.5485827 3.2100644
0.44016108 -1.4335052 3.2010319
0.43959245 -1.3236289 3.1978991
0.44336587 -1.1701181 3.2194142
0.44598711 -1.068909 3.2343554
0.40160483 -0.92040992 2.9829412
0.44625899 -0.86352974 3.236069
0.43887356 -0.7578249 3.1943033
0.43411636 -0.65690517 3.1674299
0.43012804 -0.55853444 3.144913
0.42606401 -0.46199921 3.1219664
0.0069452147 -0.4211953 0.74719006
0.0059648748 -0.41034463 0.74171269
-0.006526676 -0.39874524 0.67112005
-0.0077836411 -0.39135638 0.66407478
-0.0096930312 -0.37169206 0.65344858
-0.010276851 -0.36356843 0.65021765
-0.010428381 -0.35914418 0.64939761
-0.010971061 -0.34587383 0.64643836
-0.011345685 -0.33164114 0.64443129
-0.010709823 -0.32412651 0.64807314
-0.010594282 -0.30674535 0.64884335
-0.0087592397 -0.28707108 0.65931886
-0.0031887365 -0.19837244 0.69119048
-0.0054312744 -0.19261307 0.67855889
-0.0077317809 -0.17787349 0.66563648
-0.0089451987 -0.16555069 0.65883607
-0.0096288268 -0.14857763 0.65503752
-0.0097709894 -0.12579031 0.65430677
0.14022529 1.6935782 1.5044638
0.12482233 1.7034154 1.4172446
0.11021469 1.7189343 1.3345313
0.081737801 1.5230737 1.1732438
0.068363167 1.5276638 1.0975193
0.055909324 1.5446304 1.0270113
0.04312503 1.5532348 0.95463115
0.030366957 1.5591674 0.88239962
0.011376056 1.5650741 0.77488071
-0.0012314237 1.5654287 0.70350266
-0.013803595 1.5612179 0.63232499
-0.026702229 1.5185357 0.55930269
-0.038493186 1.5621473 0.49254474
-0.05078657 1.5533912 0.42294699
-0.063085005 1.563167 0.35331744
-0.081500933 1.5567069 0.24905573
-0.093945943 1.5592507 0.17859589
-0.10626899 1.5523335 0.10882859
-0.11912327 1.5596179 0.036047861
-0.1322497 1.5670969 -0.03827557
-0.14505476 1.5611179 -0.11077565
-0.083541326 -0.041351084 0.23847511
-0.08239606 -0.074589558 0.24501039
-0.083397418 -0.096269466 0.23941563
-0.085740909 -0.11603606 0.22625223
-0.086074919 -0.12642752 0.22439946
-0.088707216 -0.14074023 0.20959824
-0.090439692 -0.15010479 0.19985767
-0.092532374 -0.15661444 0.18807502
-0.095040329 -0.16051702 0.17393821
-0.098247901 -0.16059619 0.1558354
-0.12554929 -0.048225377 0.0012295224
-0.1248179 -0.10608622 0.0055394485
-0.1259848 -0.12539558 -0.00099371478
-0.1275705 -0.14237805 -0.0099008875
-0.12716967 -0.1668511 -0.0075472705
-0.12745173 -0.18757728 -0.0090648616
-0.12742628 -0.20854557 -0.0088392589
-0.12708797 -0.22962688 -0.0068403827
-0.12736969 -0.24805886 -0.0083561614
-0.1276295 -0.27516663 -0.0097072534
-0.12722388 -0.28510603 -0.0073675583
-0.12759638 -0.31048179 -0.0093574496
-0.12722401 -0.31970692 -0.0072062858
-0.12742494 -0.34430054 -0.0082235485
-0.12742709 -0.36054254 -0.0081546623
-0.12749626 -0.37644467 -0.0084656784
-0.12763743 -0.39208847 -0.0091846772
-0.12750953 -0.40780109 -0.0083785793
-0.12763073 -0.42319685 -0.0089841858
-0.12772353 -0.44622442 -0.0093881041
-0.12778474 -0.46154523 -0.0096536037
-0.12775305 -0.47686616 -0.0093923658
-0.12780182 -0.49223807 -0.0095870914
-0.12792967 -0.5077467 -0.010229849
-0.12778987 -0.5231989 -0.009355573
-0.12806892 -0.53916574 -0.01085499
-0.12795782 -0.562998 -0.010101791
-0.12798241 -0.57930773 -0.01015853
-0.12806761 -0.59603596 -0.010558631
-0.12837061 -0.61358505 -0.012192788
-0.12855256 -0.63141102 -0.013140584
-0.12803632 -0.65718538 -0.010089522
-0.1285367 -0.67722321 -0.012841086
-0.12857814 -0.69674981 -0.012991522
-0.12892629 -0.71804428 -0.014879578
-0.12881291 -0.73869216 -0.014151781
-0.12692162 -0.76439428 -0.0033059565
-0.12658149 -0.78592449 -0.0012922356
-0.12715065 -0.81270659 -0.0044303737
-0.1052034 -0.7581833 0.1201423
-0.10458928 -0.78701711 0.12375146
-0.10463518 -0.85005397 0.12371168
-0.30430937 -2.6135783 -1.0072025
-0.30586904 -2.7986159 -1.0158859
-0.30608323 -2.9927878 -1.0169382
-0.29893389 -3.2484698 -0.97618389
-0.30020872 -3.5220015 -0.98321146
-0.30089247 -3.8322885 -0.98687166
-0.30214572 -4.2069235 -0.99373049
-0.30241907 -4.6405907 -0.99500746
-0.27564266 -9.5798092 -0.84054297
-0.23240432 -10.281366 -0.5950349
-0.084150307 -10.675027 0.24576782
-0.021816939 -10.814058 0.59926969
0.1059846 -10.938724 1.3239781
0.16987039 -10.921248 1.6860346
0.2303444 -10.768375 2.0289011
0.25994703 -4.916985 2.1947203
0.43705329 -6.2448511 3.1995375
0.43995675 -5.7976642 3.2158818
0.45976517 -5.5733085 3.3281627
0.4405905 -5.0075479 3.2192852
0.46908826 -4.7527494 3.3808522
0.46218795 -4.3961034 3.3416519
0.45950356 -4.1037269 3.3263805
0.43366122 -3.6831002 3.1797626
0.46342641 -3.64853 3.3485692
0.45701608 -3.3965092 3.3121901
0.4503679 -3.1627228 3.2744699
0.454676 -2.9129601 3.298892
0.45649868 -2.7522719 3.3092258
0.45644468 -2.5915561 3.3089194
0.42859071 -2.3308101 3.1509655
0.45744345 -2.2971191 3.3145912
0.44960791 -2.1315014 3.2701657
0.44408813 -1.9826144 3.2388759
0.44416532 -1.7957777 3.2393317
0.44267485 -1.6724771 3.2308939
0.4396573 -1.5499938 3.2137985
0.43872628 -1.4360869 3.208535
0.43818542 -1.3259438 3.2054842
0.43876079 -1.2200657 3.2087622
0.44102529 -1.1181675 3.2216163
0.39661801 -0.96473253 2.969871
0.44460696 -0.86433464 3.2419589
0.43637717 -0.75789803 3.1953173
0.43232733 -0.65722221 3.1723731
0.42783296 -0.55857128 3.146909
0.42395601 -0.4619655 3.1249449
0.0044528097 -0.42119527 0.74718988
0.0034739333 -0.41034466 0.74171215
-0.0086755296 -0.39826283 0.67302978
-0.0098877968 -0.39538783 0.66619515
-0.012013097 -0.3713353 0.65436566
-0.012460576 -0.36761746 0.65186548
-0.012598149 -0.36317939 0.65112156
-0.013605065 -0.34632936 0.64555764
-0.013973664 -0.33214274 0.6435746
-0.013335569 -0.32464308 0.6472249
-0.013213173 -0.30730605 0.64802212
-0.011654086 -0.28883556 0.65692306
-0.0051518707 -0.19559477 0.69401509
-0.0076518026 -0.19117546 0.67991745
-0.009331461 -0.18222363 0.67046577
-0.010505413 -0.16978234 0.66387749
-0.012293525 -0.15017629 0.65383989
-0.012522648 -0.12824911 0.65259868
-0.012211837 -0.099338517 0.65441155
0.14595485 1.6899948 1.5495629
0.12927267 1.6872793 1.4550637
0.10784306 1.7171124 1.3336543
0.079109937 1.5174867 1.1710265
0.065717965 1.5210575 1.0951732
0.053769827 1.546553 1.0274835
0.040934324 1.5542086 0.95478022
0.028136306 1.5591732 0.88229179
0.015526002 1.5653982 0.81086606
0.0024464645 1.5512553 0.73680019
-0.016018966 1.5612156 0.63221145
-0.028562345 1.5474598 0.56118447
-0.040687624 1.5641388 0.49249685
-0.052990071 1.5563811 0.42282942
-0.06528949 1.564154 0.35316318
-0.077492669 1.5534756 0.28406128
-0.089959055 1.5612613 0.21344809
-0.10880574 1.5651515 0.10670205
-0.12123819 1.5576293 0.036296751
-0.13423084 1.5621965 -0.0372971
-0.14713757 1.5591543 -0.11039606
-0.15140328 1.3888894 -0.13432981
-0.085285947 -0.029884212 0.24223959
-0.085042812 -0.071889006 0.24374036
-0.0859062 -0.095397361 0.23894833
-0.087113097 -0.11262728 0.23220223
-0.088509008 -0.1264475 0.22438106
-0.090062499 -0.13787237 0.21566397
-0.092774555 -0.15093541 0.20041943
-0.09486296 -0.15742478 0.18866459
-0.097254775 -0.16207242 0.17518763
-0.10033644 -0.16285002 0.15779543
-0.12777185 -0.103547 0.0025000204
-0.12723608 -0.11860052 0.0055934195
-0.12999791 -0.14241168 -0.0099203549
-0.13017669 -0.16464783 -0.010830489
-0.1300337 -0.18708149 -0.0099160066
-0.13001484 -0.20807996 -0.0097065391
-0.12983629 -0.2287225 -0.008592126
-0.12981449 -0.24809396 -0.0083674621
-0.12965217 -0.26716101 -0.0073463735
-0.12983595 -0.284767 -0.0082889311
-0.12973669 -0.30254233 -0.0076264609
-0.13027419 -0.32709086 -0.010526164
-0.13005391 -0.34407845 -0.0091780312
-0.13022958 -0.36012957 -0.010075605
-0.12996314 -0.37648213 -0.0084661366
-0.13010705 -0.39212626 -0.0091837356
-0.12998199 -0.40783918 -0.0083762053
-0.13010591 -0.42323527 -0.008980399
-0.13013606 -0.43860859 -0.0090526994
-0.13024648 -0.45392272 -0.0095800376
-0.13026403 -0.46924624 -0.0095806969
-0.13028955 -0.49227792 -0.0095767407
-0.13024746 -0.50768244 -0.0092385849
-0.13028334 -0.52323937 -0.0093421685
-0.13039419 -0.53903306 -0.0098701492
-0.13057578 -0.55514646 -0.01079856
-0.13048632 -0.57934934 -0.010139451
-0.13057464 -0.59607792 -0.01053783
-0.13071655 -0.61330193 -0.011239015
-0.13090388 -0.63109541 -0.012196708
-0.13096744 -0.64913863 -0.012452116
-0.13043401 -0.67551351 -0.0092711737
-0.1309506 -0.69632423 -0.012090567
-0.1314562 -0.71808851 -0.014845903
-0.13134676 -0.73873669 -0.014115862
-0.12963779 -0.75404787 -0.004324832
-0.12926391 -0.78657079 -0.0020374982
-0.12929362 -0.81086373 -0.0020901307
-0.12793633 -0.82964098 0.005713
-0.10595346 -0.77974164 0.13051189
-0.10737345 -0.83774132 0.12270922
-0.10822063 -0.87210119 0.11803868
-0.30587205 -2.7724469 -0.99946553
-0.3068054 -2.9712577 -1.0043644
-0.30905196 -3.2101316 -1.0166453
-0.30276519 -3.5166833 -0.98039222
-0.3017678 -3.8029537 -0.97420174
-0.30439439 -4.193975 -0.98839217
-0.30124775 -4.5679097 -0.96987319
-0.28171566 -9.6591454 -0.85051739
-0.2358135 -10.235716 -0.58922392
-0.11860199 -10.534465 0.07606627
-0.026230918 -10.814064 0.60043013
0.036045924 -10.751544 0.95355457
0.10307187 -11.043272 1.3341788
0.16253404 -10.788166 1.6711529
0.22971615 -10.911484 2.052423
0.43603441 -6.2770019 3.2157795
0.44628322 -5.9060612 3.2733994
0.45474297 -5.5592327 3.3209126
0.44798309 -5.1082582 3.2819498
0.45676586 -4.8407803 3.3314219
0.46021825 -4.4070616 3.3504462
0.46037924 -4.1338148 3.3510153
0.42922753 -3.6753411 3.1737173
0.4628444 -3.6651261 3.3644309
0.45449534 -3.400528 3.3167534
0.44981629 -3.1768239 3.2899535
0.44516706 -2.9692428 3.2633481
0.44484156 -2.7959325 3.2613163
0.45528644 -2.5995584 3.3203685
0.4250885 -2.3289173 3.1487796
0.45716304 -2.3069589 3.3307209
0.44881508 -2.1387753 3.2832012
0.44152644 -1.9837981 3.2417097
0.43907607 -1.8509667 3.227689
0.43515873 -1.719802 3.2053521
0.43702853 -1.550485 3.2158129
0.43661165 -1.4374889 3.2133529
0.43576509 -1.3265945 3.2084589
0.43636125 -1.2206147 3.2117531
0.43762982 -1.117263 3.218863
0.3947894 -0.96566939 2.9757767
0.43050694 -0.9049288 3.1782949
0.43699816 -0.75975931 3.2149885
0.42968374 -0.65706313 3.1734262
0.42346996 -0.55802935 3.1381102
0.42151767 -0.46173927 3.1269615
0.0019503174 -0.42105889 0.74818951
0.00079787121 -0.41033041 0.74173307
0.00078010786 -0.39867374 0.74170864
-0.011185936 -0.39801249 0.6740045
-0.013617445 -0.3924523 0.6603049
-0.014325467 -0.37991929 0.65641338
-0.015146492 -0.36761025 0.65188128
-0.015920794 -0.35513631 0.64761347
-0.016295221 -0.3463223 0.64557099
-0.016043974 -0.34051222 0.6470331
-0.016177619 -0.32515052 0.64639163
-0.015730802 -0.31240442 0.64899749
-0.014912226 -0.29117772 0.65374297
-0.0070940265 -0.19141382 0.6982609
-0.0099841543 -0.18900554 0.68196464
-0.01179478 -0.18072616 0.67177731
-0.013090468 -0.16900557 0.66450262
-0.014046457 -0.15431006 0.65914774
-0.015419425 -0.12987725 0.65145582
-0.015096551 -0.10100539 0.65332204
0.1441178 1.6962731 1.5525565
0.1279345 1.6999513 1.4608636
0.1123066 1.7043704 1.372318
0.083180688 1.5114048 1.2076569
0.06987796 1.5182917 1.1322914
0.051547877 1.550427 1.0284041
0.038510218 1.5542502 0.95454717
0.025832407 1.562131 0.88272142
0.012904851 1.5595362 0.80950212
0.00038283027 1.5641159 0.73856616
-0.012263018 1.5591921 0.66694874
-0.024781825 1.5516784 0.59605712
-0.043084122 1.5671337 0.49235803
-0.055402871 1.5653709 0.42258704
-0.067697495 1.5631374 0.35295355
-0.080024563 1.5634271 0.28312993
-0.092335418 1.5592412 0.21340805
-0.10495927 1.5664421 0.14188477
-0.1175372 1.5651077 0.070640966
-0.13656025 1.5601914 -0.037104357
-0.14940962 1.5561925 -0.10988244
-0.15414602 1.3945607 -0.13628635
-0.16670637 1.396317 -0.20743819
-0.088239148 -0.027150216 0.24105567
-0.088024229 -0.069197349 0.24246809
-0.088833071 -0.093643069 0.23803377
-0.089889243 -0.11265563 0.23218434
-0.09129063 -0.12647662 0.22436504
-0.092849076 -0.13790233 0.21564949
-0.094610117 -0.14707494 0.2057797
-0.096617378 -0.15415485 0.19450864
-0.099832274 -0.16363853 0.1764424
-0.10279113 -0.16511531 0.15976109
-0.10746852 -0.15734968 0.13331105
-0.13003387 -0.11865249 0.0055740764
-0.13222899 -0.13304152 -0.006745189
-0.13299042 -0.16470157 -0.010843387
-0.13329625 -0.18554537 -0.012431294
-0.13314396 -0.20713362 -0.011418926
-0.13282558 -0.22830652 -0.0094652716
-0.13296947 -0.2472707 -0.010138528
-0.13281935 -0.26640087 -0.0091436598
-0.13285369 -0.28444585 -0.0091973282
-0.1327634 -0.30225366 -0.0085445074
-0.13271639 -0.31948751 -0.0081383782
-0.13305469 -0.3356694 -0.0099198921
-0.13311577 -0.36018318 -0.010059592
-0.13302626 -0.37634477 -0.0094143394
-0.13300608 -0.39217979 -0.009162847
-0.13305973 -0.40777072 -0.0093303779
-0.13301758 -0.42328873 -0.0089547392
-0.13305399 -0.43866208 -0.0090246703
-0.13317063 -0.45397627 -0.0095496457
-0.13319446 -0.46929976 -0.0095479265
-0.13322942 -0.49233145 -0.009540379
-0.13319363 -0.50773597 -0.0091998074
-0.13340783 -0.52343208 -0.010276178
-0.13335299 -0.53908658 -0.0098264534
-0.13371088 -0.555408 -0.011715624
-0.13362581 -0.57147264 -0.011092905
-0.13338989 -0.59583914 -0.0095433425
-0.1339753 -0.60533369 -0.012789484
-0.13373634 -0.63079083 -0.011219101
-0.13380896 -0.64880168 -0.011484505
-0.13407038 -0.66787952 -0.012817828
-0.13381611 -0.69590855 -0.011152389
-0.13403077 -0.71664256 -0.012215327
-0.13423306 -0.73826075 -0.013205306
-0.13267866 -0.75410074 -0.0042467173
-0.13285524 -0.77728385 -0.0050860839
-0.13311461 -0.80210429 -0.0063903579
-0.13139845 -0.83166087 0.0035739655
-0.10973518 -0.77311385 0.12654102
-0.11040869 -0.81182539 0.12297714
-0.10882517 -0.82612145 0.13209888
-0.11122157 -0.87134075 0.11873133
-0.30695593 -2.7514169 -0.98604387
-0.30797368 -2.9489131 -0.99115568
-0.31089866 -3.1926467 -1.006954
-0.31276143 -3.4591694 -1.0166597
-0.31274715 -3.7431474 -1.0156657
-0.30583203 -4.1605372 -0.97508788
-0.30570379 -4.5794258 -0.97305602
-0.23584864 -9.9732847 -0.5605104
-0.12450613 -10.660429 0.073389173
-0.062739342 -10.735627 0.42414969
0.03143508 -10.821382 0.95886415
0.095770262 -10.907676 1.3242341
0.15874553 -10.859471 1.6815108
0.22329941 -10.8698 2.0476618
0.28622913 -10.805908 2.4043832
0.32795247 -8.8418827 2.6353002
0.3730782 -7.728754 2.8880386
0.43780166 -6.3485842 3.251245
0.44118407 -5.8960261 3.2691691
0.44801879 -5.5329275 3.306936
0.45155075 -5.1783261 3.3260014
0.4569461 -4.8761072 3.3557897
0.44885451 -4.4944358 3.3088665
0.44756347 -4.201386 3.3007693
0.42447433 -3.6682565 3.1684022
0.45994297 -3.6699352 3.3696287
0.45400634 -3.4186101 3.3353164
0.44657022 -3.1785738 3.2925355
0.44393718 -2.9807611 3.2771175
0.44506407 -2.8132653 3.2831113
0.44492757 -2.6490939 3.2819524
0.41830227 -2.3864269 3.1302905
0.45209482 -2.3008468 3.3218246
0.44719893 -2.1444993 3.2937038
0.43982288 -1.9886934 3.2515209
0.43649277 -1.8528943 3.2323425
0.43324664 -1.7232033 3.2136595
0.43145654 -1.6021849 3.2032609
0.43043903 -1.4868853 3.1972623
0.4334901 -1.3280995 3.2142684
0.43243733 -1.2193333 3.2080936
0.43473017 -1.1174688 3.2209153
0.40572503 -0.98128331 3.0561297
0.40193194 -0.88154811 3.0344427
0.43247548 -0.80872095 3.2075844
0.41701457 -0.70111108 3.1197023
0.42239502 -0.55822664 3.1499913
0.41819891 -0.46152216 3.1260374
0.41637111 -0.36603856 3.1155221
-0.00070320605 -0.42079413 0.75017715
-0.0020248631 -0.41015393 0.74273723
-0.0022105477 -0.39865413 0.74173892
-0.013831365 -0.39751467 0.67594492
-0.015594046 -0.39078575 0.6660133
-0.016886802 -0.38375273 0.65874666
-0.017134745 -0.37958199 0.65737188
-0.018411905 -0.36355227 0.6502561
-0.018562173 -0.35912827 0.64943504
-0.018569574 -0.35428095 0.64942348
-0.01938213 -0.33654568 0.64494061
-0.019281538 -0.32565665 0.64557016
-0.018828807 -0.31294033 0.64819342
-0.017629253 -0.2964367 0.65504491
-0.0095343878 -0.18862525 0.70110935
-0.012801282 -0.18827769 0.68266356
-0.014613791 -0.17997546 0.67245084
-0.016023653 -0.16899881 0.66451675
-0.016977625 -0.15430397 0.65916121
-0.017547222 -0.13559461 0.65597832
-0.018213732 -0.10267783 0.65226102
0.12497553 1.7008935 1.4612396
0.10267491 1.6194475 1.3350203
0.080221638 1.512361 1.2079818
0.06703122 1.5211354 1.1332601
0.054604948 1.5394047 1.0628552
0.035478618 1.5542653 0.95451087
0.02283795 1.5631169 0.882909
0.0099697672 1.5624888 0.81003445
-0.002956928 1.5532554 0.73684376
-0.015323791 1.5582007 0.66680306
-0.027668364 1.5616384 0.59689182
-0.040087327 1.5535992 0.52657914
-0.058450684 1.5663621 0.42257074
-0.070696078 1.5541314 0.35325018
-0.082912296 1.5494474 0.2840822
-0.095444739 1.5622085 0.21309139
-0.10806648 1.5684041 0.14160571
-0.12062947 1.566072 0.070467971
-0.13347581 1.5680075 -0.0022836039
-0.15243451 1.5552016 -0.10962201
-0.15977541 1.4433067 -0.15096489
-0.16835621 1.3726528 -0.19940889
-0.091113336 -0.066493072 0.24123894
-0.091854885 -0.09187571 0.23715942
-0.092833377 -0.11179569 0.23172706
-0.094147004 -0.12649135 0.22438551
-0.095701933 -0.13791715 0.2156702
-0.097459741 -0.14708984 0.20580062
-0.099359736 -0.15496844 0.19512248
-0.10164727 -0.16011213 0.18224239
-0.10539939 -0.16661672 0.16110075
-0.10982649 -0.16024236 0.13606973
-0.13341418 -0.11615127 0.0025365748
-0.13534302 -0.13185371 -0.0082942126
-0.1351824 -0.15593205 -0.0072642295
-0.13540694 -0.17734668 -0.0084228748
-0.13531737 -0.19897881 -0.007800282
-0.13594279 -0.22738191 -0.01118176
-0.13494943 -0.24010074 -0.005489096
-0.13577697 -0.26600781 -0.010021673
-0.13548599 -0.28483376 -0.0082630431
-0.13571382 -0.30192465 -0.0094493488
-0.13549779 -0.31950018 -0.0081183799
-0.13549659 -0.33623296 -0.0080071809
-0.13555448 -0.35254118 -0.008232059
-0.13550794 -0.36871138 -0.0078654215
-0.13570069 -0.38437444 -0.0088567249
-0.13562448 -0.40013334 -0.0083231628
-0.13593274 -0.42321214 -0.0099206949
-0.13596328 -0.43861997 -0.0099939285
-0.13572651 -0.45400357 -0.0085517317
-0.13574384 -0.46929184 -0.0085509978
-0.1360153 -0.4846755 -0.0099917846
-0.13601945 -0.50008333 -0.0099171521
-0.1359352 -0.52330124 -0.0092926659
-0.13604531 -0.53909463 -0.0098194294
-0.1360561 -0.55499989 -0.0097833741
-0.13630344 -0.57148004 -0.011088608
-0.13644287 -0.58816499 -0.011782176
-0.13663742 -0.60534036 -0.012788219
-0.13622425 -0.63043869 -0.010300849
-0.13629071 -0.64841682 -0.010580909
-0.13654578 -0.66746241 -0.011930098
-0.13728055 -0.68864256 -0.015998093
-0.13739362 -0.70890015 -0.016541919
-0.1365381 -0.73720521 -0.011547244
-0.13483748 -0.7524274 -0.0018116443
-0.13529481 -0.77669996 -0.0043061664
-0.13554637 -0.80149215 -0.0056339223
-0.13545331 -0.82610756 -0.0050082989
-0.11229245 -0.77312052 0.12652014
-0.11213246 -0.79457527 0.1275216
-0.11135482 -0.82612789 0.13207115
-0.11268635 -0.86336011 0.12462505
-0.31385803 -2.7092862 -1.0146712
-0.30849311 -2.9358833 -0.98400879
-0.31066751 -3.1714144 -0.99612629
-0.31202081 -3.4312632 -1.0035777
-0.31177989 -3.7111285 -1.0019825
-0.31637973 -4.1073337 -1.0277697
-0.30154616 -4.4905014 -0.94336164
-0.30019081 -4.9725356 -0.93535054
-0.23699558 -10.09359 -0.57410967
-0.17937113 -10.19388 -0.24734356
-0.12373706 -10.769363 0.068375804
0.0016070672 -10.819336 0.77904671
0.064598903 -10.820355 1.136181
0.12673539 -10.758931 1.4886775
0.19220349 -10.845605 1.8600302
0.28487125 -10.71475 2.3855512
0.42004943 -6.4015989 3.1505432
0.44885245 -5.9827294 3.3137858
0.45041823 -5.5616817 3.322541
0.46022993 -5.2641544 3.3781135
0.45961037 -4.9052992 3.3745067
0.4495981 -4.5075517 3.3176203
0.44719666 -4.206284 3.3039374
0.41401598 -3.7204096 3.1156335
0.45765594 -3.6635234 3.3631835
0.45685679 -3.4428191 3.3586252
0.44972119 -3.20329 3.3181272
0.44545221 -2.9960124 3.2939
0.44471404 -2.8190906 3.2897089
0.44621056 -2.6618917 3.2981987
0.43405971 -2.4571283 3.229279
0.44162458 -2.3406603 3.2721992
0.44672921 -2.1491556 3.3011725
0.4390125 -1.9921327 3.2574193
0.43596208 -1.8569906 3.2401371
0.4318969 -1.724979 3.2171018
0.42974925 -1.6030811 3.2049453
0.4286938 -1.4877151 3.1989849
0.42816797 -1.3766538 3.1960299
0.43144441 -1.2212882 3.2146549
0.43252793 -1.1176115 3.2208292
0.42017356 -1.0001169 3.1507978
0.39260739 -0.87526625 2.9945042
0.43154556 -0.80983454 3.2153523
0.41189748 -0.69985014 3.1039655
0.42067769 -0.6069904 3.15379
0.41639701 -0.50962991 3.1295502
0.41512802 -0.3659237 3.1224067
-0.0022685346 -0.42610899 0.75573564
-0.0042353394 -0.40986881 0.74469352
-0.0045967284 -0.39849082 0.74271786
-0.016027289 -0.40181151 0.6779809
-0.017772721 -0.39487317 0.66815895
-0.01888141 -0.38738602 0.66194749
-0.019960459 -0.37545937 0.65594143
-0.020396736 -0.37169808 0.65350521
-0.02113124 -0.35915077 0.64945269
-0.021139748 -0.35430336 0.6494416
-0.021729954 -0.34099421 0.64620697
-0.022007069 -0.32619336 0.64474714
-0.021699619 -0.31405121 0.64656383
-0.020781517 -0.29875267 0.65184188
-0.010552325 -0.18953107 0.71011299
-0.014088483 -0.19011939 0.69014025
-0.016131606 -0.18300261 0.67863035
-0.018522544 -0.16825335 0.6651842
-0.01959122 -0.15432416 0.65919691
-0.020266853 -0.1364235 0.65543664
-0.021311354 -0.10689066 0.64961892
0.12216917 1.7035464 1.4627028
0.09874095 1.6075321 1.3299747
0.080880173 1.5642483 1.2287935
0.064220786 1.5239222 1.1344236
0.05193631 1.5450809 1.0648345
0.038781211 1.54835 0.99031639
0.025893666 1.5526856 0.91731501
0.00694797 1.5614855 0.80999863
-0.0056686457 1.5631127 0.73853469
-0.018306557 1.5581833 0.66695297
-0.030786242 1.5526575 0.59626865
-0.0429723 1.5635725 0.52724218
-0.055269159 1.5670426 0.45759064
-0.067568079 1.5620433 0.38793111
-0.086022988 1.5614117 0.28340179
-0.098392777 1.5612091 0.2133383
-0.11069372 1.5545373 0.14366804
-0.12347032 1.5621314 0.07129427
-0.1363624 1.5660512 -0.0017327114
-0.14916721 1.5623881 -0.074261494
-0.15996298 1.5147052 -0.13537896
-0.17572556 1.4473531 -0.22461259
-0.094015636 -0.062873185 0.23961611
-0.0946154 -0.09009891 0.23630577
-0.094521709 -0.10670371 0.23688366
-0.095799722 -0.12216673 0.22972216
-0.097299166 -0.13430212 0.22130358
-0.099948771 -0.14791353 0.20640306
-0.10184152 -0.15577137 0.19575234
-0.10412249 -0.16089334 0.1828991
-0.10673129 -0.1642933 0.1681861
-0.11100695 -0.15813713 0.14401709
-0.1364689 -0.088351615 -0.00015907425
-0.13627242 -0.11489372 0.0010452693
-0.13806647 -0.13125284 -0.0090421364
-0.13818873 -0.15421234 -0.0096468739
-0.13812767 -0.17680314 -0.009212249
-0.13803677 -0.19846493 -0.0086088162
-0.13808197 -0.21875979 -0.0087776938
-0.13797566 -0.2387401 -0.0080875885
-0.13787907 -0.25794747 -0.007453043
-0.13764393 -0.27683368 -0.0060329135
-0.13759823 -0.29465005 -0.0056874868
-0.13820927 -0.31919274 -0.009023888
-0.13820665 -0.33595896 -0.0089232745
-0.13809456 -0.35254285 -0.0082020033
-0.13804507 -0.36871314 -0.007835824
-0.138235 -0.38437626 -0.0088275401
-0.13815601 -0.40013519 -0.0082943747
-0.13815205 -0.41565722 -0.0081867222
