# .PCD v0.7 - Point Cloud Data file format
VERSION 0.7
FIELDS x y z
SIZE 4 4 4
TYPE F F F
COUNT 1 1 1
WIDTH 1375
HEIGHT 1
VIEWPOINT 0 0 0 1 0 0 0
POINTS 1375
DATA ascii
0.27125725 -0.51015252 3.1472147
0.2672435 -0.41396889 3.124577
0.26560265 -0.31856021 3.1153939
-0.15229192 -0.41544795 0.74647915
-0.15381941 -0.40521705 0.73790628
-0.15421058 -0.39408121 0.73577601
-0.15365785 -0.38157663 0.73899764
-0.15331429 -0.3503086 0.74116725
-0.16425435 -0.36166328 0.67922437
-0.16620024 -0.35060802 0.6683231
-0.16655111 -0.3462722 0.66637778
-0.16752855 -0.33301139 0.66096854
-0.16848095 -0.31949574 0.65570205
-0.16909188 -0.31023639 0.65232754
-0.1694809 -0.29989737 0.65021193
-0.17132312 -0.27652243 0.63999242
0.11451072 1.6123549 2.2620478
0.099592455 1.6617199 2.1776197
0.075645223 1.7201279 2.042069
0.055249382 1.7188473 1.9265538
-0.14722498 0.16274919 0.77778691
-0.15999711 0.12705982 0.70553261
-0.16241443 0.1522532 0.69193888
-0.16501305 0.17810848 0.67731869
-0.16702293 0.25600088 0.66612649
-0.10979126 1.5531358 0.99184436
-0.12267572 1.5584918 0.91891623
-0.13539378 1.5640845 0.84693176
-0.19782963 0.11006935 0.49189493
-0.20170887 0.086271055 0.46997043
-0.20523928 0.066640049 0.45002687
-0.20851243 0.049288154 0.43154335
-0.21158183 0.035291139 0.4142178
-0.21449803 0.022702957 0.39776185
-0.21729399 0.011560799 0.38198858
-0.21998161 0.00089549558 0.36682978
-0.22260346 -0.0082814638 0.35204515
-0.22647652 -0.019506795 0.33020896
-0.22899306 -0.026936453 0.31602263
-0.23139143 -0.035789557 0.30250448
-0.2327362 -0.062184583 0.29493943
-0.23515865 -0.06695696 0.28128868
-0.2375506 -0.072210178 0.26781026
-0.2398383 -0.078851439 0.25492102
-0.24207875 -0.085930705 0.24229902
-0.24353385 -0.10138386 0.234119
-0.24510236 -0.11435016 0.2252987
-0.24683151 -0.12495106 0.21557027
-0.24935067 -0.12835266 0.20137185
-0.25328994 -0.13338596 0.17916425
-0.28668872 -0.02250451 -0.0096769538
-0.28526202 -0.045518056 -0.0015750988
-0.28659815 -0.080448449 -0.0090637738
-0.28644204 -0.10731182 -0.0081272023
-0.28647253 -0.13182501 -0.0082461964
-0.28644338 -0.15533029 -0.0080262544
-0.28651589 -0.17731892 -0.0083812121
-0.28626746 -0.19946662 -0.0069175321
-0.28614959 -0.22018628 -0.0061926208
-0.28633955 -0.23916653 -0.0072108
-0.28623545 -0.25834295 -0.0065629692
-0.28615299 -0.27680698 -0.0060370527
-0.28627643 -0.30292606 -0.0066479491
-0.27623376 -0.33139855 0.050280768
-0.27599752 -0.34643182 0.051681567
-0.2764664 -0.3670353 0.04911831
-0.27633113 -0.38116539 0.049947169
-0.28637359 -0.38469946 -0.006901721
-0.28646037 -0.40025067 -0.007334406
-0.28641108 -0.42345247 -0.0069665508
-0.28634721 -0.43114334 -0.0065752682
-0.28632277 -0.44641119 -0.0063781431
-0.28654668 -0.46925467 -0.0075602978
-0.28646451 -0.48449925 -0.0070369649
-0.28663602 -0.49989021 -0.0079521043
-0.28671274 -0.51537365 -0.0083305687
-0.28652218 -0.53077376 -0.0071943817
-0.28648412 -0.55435902 -0.0068959696
-0.28672817 -0.5707376 -0.0082259085
-0.28686482 -0.58732188 -0.0089477021
-0.28705695 -0.60439748 -0.0099854711
-0.28713349 -0.62169749 -0.010368588
-0.28686628 -0.6476208 -0.008778831
-0.28711772 -0.66660303 -0.010157623
-0.28722984 -0.68590486 -0.01074759
-0.28765446 -0.70694762 -0.013112684
-0.28695136 -0.73560297 -0.0090602571
-0.28726709 -0.75856656 -0.010812703
-0.28725407 -0.78139079 -0.010702082
-0.28773856 -0.80763769 -0.01341852
-0.28799465 -0.83445317 -0.01484195
-0.28679541 -0.86947215 -0.0079935323
-0.28722802 -0.90145797 -0.010428863
-0.28759786 -0.93555516 -0.012513376
-0.28821194 -0.97408617 -0.015991352
-0.46038282 -2.3711607 -0.99446124
-0.4618642 -2.5291636 -1.003106
-0.46265981 -2.6983595 -1.0078895
-0.45477948 -2.8994887 -0.96353585
-0.42537662 -2.7899635 -0.79660136
-0.40657192 -2.7778251 -0.6899327
-0.38825405 -2.7619424 -0.58601588
-0.37257653 -2.7731061 -0.49712017
-0.35574254 -2.7610664 -0.40162224
-0.23143451 -2.7704802 0.3034184
-0.21042854 -2.7626498 0.4225806
-0.18248709 -2.7630305 0.58106279
-0.16159594 -2.7524476 0.69958067
-0.14743246 -2.7530875 0.77999437
0.11470723 -4.8635044 2.2625282
0.26730627 -6.3463073 3.1247084
0.29410324 -5.9147339 3.2777753
0.29532602 -5.4975863 3.2857263
0.3111707 -5.2615995 3.3761909
0.30046672 -4.5075397 3.3173237
0.29621154 -4.1936636 3.2939649
0.26329428 -3.7119706 3.1084356
0.30612043 -3.6510761 3.3515365
0.30428633 -3.4258332 3.3417001
0.29796073 -3.1923623 3.3064094
0.29235291 -2.9795942 3.2751408
0.29198039 -2.8058574 3.2734711
0.29305241 -2.6480319 3.2799556
0.28628671 -2.4662867 3.2420459
0.29269364 -2.2739594 3.2788775
0.29654765 -2.1491346 3.301054
0.28753617 -1.9883554 3.250356
0.28409526 -1.8525847 3.2311878
0.28137967 -1.7245493 3.2161129
0.27869704 -1.6015592 3.2012117
0.27775064 -1.4866647 3.1961346
0.28001708 -1.3267568 3.2093854
0.27988297 -1.2197089 3.2088892
0.28227431 -1.1180341 3.2226963
0.27482295 -1.0060043 3.1807201
0.23951289 -0.8730489 2.9808502
0.27929094 -0.80870819 3.2065198
0.27534431 -0.70696694 3.1843824
0.26556537 -0.60565144 3.1291795
0.26546922 -0.46162149 3.1289599
0.26357913 -0.36603096 3.1184571
0.26250061 -0.27062657 3.1125505
-0.15574872 -0.41612273 0.74164248
-0.15658906 -0.40536994 0.73697501
-0.155848 -0.38694754 0.74132168
-0.15651955 -0.37596178 0.73760992
-0.1559481 -0.34397489 0.74108994
-0.16749948 -0.35786387 0.67567527
-0.16915758 -0.34625459 0.66641074
-0.16974445 -0.3372356 0.66317469
-0.1703884 -0.32830599 0.6596145
-0.17094025 -0.31896272 0.65657651
-0.17140914 -0.30912894 0.65400875
-0.17245351 -0.29528412 0.64822239
0.13538411 1.6863782 2.3953538
0.086036243 1.5157293 2.1155159
0.093182392 1.7120686 2.1562231
-0.14354724 0.12616606 0.81319559
-0.14394878 0.1693266 0.81102145
-0.15025914 0.15845305 0.7753123
-0.15742069 0.16030157 0.73482221
-0.16329142 0.1456053 0.70160341
-0.16599979 0.16892508 0.6863355
-0.16688073 0.22269402 0.68144375
-0.16847321 0.27493885 0.67251533
-0.118614 1.5591011 0.95597404
-0.1315164 1.5621504 0.88287497
-0.19651879 0.12210359 0.51379824
-0.2006921 0.096190728 0.49019998
-0.20613644 0.071079105 0.45943382
-0.20946676 0.058063224 0.44062173
-0.21109076 0.044302955 0.43144643
-0.21563227 0.03107989 0.40580547
-0.21849647 0.019206176 0.38963765
-0.22125699 0.0087892702 0.37405857
-0.22389854 -0.0021350933 0.35915411
-0.22650905 -0.01057741 0.34442669
-0.22903112 -0.019496545 0.33020088
-0.23158836 -0.025956359 0.3157765
-0.23384775 -0.03770262 0.30303982
-0.23673046 -0.060718935 0.28680548
-0.23903488 -0.067647763 0.27381548
-0.24142049 -0.073165551 0.26036569
-0.24377124 -0.079156637 0.24711375
-0.2455321 -0.091850683 0.23720552
-0.24692485 -0.10739721 0.22938444
-0.24870697 -0.11789399 0.21935682
-0.2504985 -0.12782703 0.20927635
-0.2532101 -0.12986134 0.1939802
-0.25562847 -0.13497593 0.18034668
-0.28825751 0.0035205353 -0.0044130217
-0.28797412 -0.029577902 -0.0027298871
-0.28814739 -0.057876851 -0.0036347182
-0.28859645 -0.083073609 -0.0061023301
-0.28856423 -0.10919999 -0.0058402908
-0.28929657 -0.1424517 -0.0098720025
-0.28918311 -0.1658058 -0.0091474019
-0.28917667 -0.18765029 -0.0090288455
-0.28915089 -0.2086183 -0.008799891
-0.28911915 -0.22876012 -0.0085366666
-0.28893796 -0.24856937 -0.007425244
-0.2889286 -0.26719737 -0.0072877128
-0.28878751 -0.28555211 -0.006402581
-0.27870771 -0.33893567 0.050921042
-0.27875873 -0.35328966 0.050718255
-0.2787165 -0.36750725 0.051044501
-0.28860679 -0.36930305 -0.0049435976
-0.28902277 -0.39247146 -0.0071690888
-0.28906658 -0.40799275 -0.0073280828
-0.28901511 -0.42344075 -0.0069463253
-0.28904277 -0.43874392 -0.0070124697
-0.2891708 -0.46161434 -0.0076012597
-0.28916728 -0.4692409 -0.0075353612
-0.28919154 -0.49216715 -0.0075338949
-0.28932199 -0.50760609 -0.0081797149
-0.28935736 -0.52312779 -0.0082861222
-0.2892969 -0.5387128 -0.0078482283
-0.28930971 -0.55454928 -0.007825044
-0.28922504 -0.57859856 -0.0071998122
-0.28948352 -0.59551835 -0.0085668182
-0.28962818 -0.61267549 -0.0092876935
-0.28981867 -0.63040298 -0.010267218
-0.29004583 -0.64877164 -0.011453226
-0.29014191 -0.66742629 -0.011895251
-0.28972656 -0.69493806 -0.0093852412
-0.28993896 -0.7156105 -0.010482866
-0.29028657 -0.73769826 -0.012344784
-0.29060143 -0.76077831 -0.014019385
-0.28974691 -0.79200602 -0.0090102321
-0.29001257 -0.81780463 -0.010400623
-0.2903181 -0.84540361 -0.012014184
-0.29076082 -0.87558192 -0.014401734
-0.28957739 -0.91407305 -0.0075135208
-0.29018182 -0.95059741 -0.010807776
-0.46244666 -2.4299741 -0.98545957
-0.4644047 -2.5980659 -0.99623907
-0.4635056 -2.7589982 -0.99082148
-0.44528207 -2.7661264 -0.88736475
-0.42760706 -2.7723036 -0.78701848
-0.40164515 -2.7754288 -0.63962758
-0.38426778 -2.7674866 -0.54098594
-0.36821732 -2.7703633 -0.44985291
-0.3523975 -2.7705722 -0.36003086
-0.22850998 -2.7721829 0.34347698
-0.21451463 -2.7605884 0.42293918
-0.2006007 -2.7591848 0.50195539
-0.17969121 -2.7568133 0.62069827
-0.1587666 -2.7481062 0.73940551
-0.14464787 -2.7453442 0.819507
0.095955975 -4.8953266 2.1872306
0.26426345 -6.1248064 3.1433678
0.28100005 -5.8368878 3.2378507
0.28636035 -5.4645314 3.2677162
0.27094331 -4.9408965 3.1795685
0.30177882 -4.7120824 3.3541081
0.2962606 -4.3684287 3.3223617
0.29389733 -4.0798965 3.3085878
0.26832163 -3.6622331 3.163033
0.30057585 -3.6443565 3.3459175
0.29172945 -3.3783226 3.2954342
0.28526527 -3.1465366 3.2585101
0.28987148 -2.8996027 3.2843585
0.28863344 -2.725913 3.2771533
0.29153797 -2.5793004 3.2934742
0.2648021 -2.3236275 3.1416068
0.29317841 -2.2886732 3.3024943
0.28607014 -2.1260133 3.2620356
0.28008091 -1.9760301 3.227941
0.2821745 -1.7952987 3.2396648
0.28021982 -1.6708293 3.2284834
0.27623764 -1.5462974 3.2058101
0.27497262 -1.4320372 3.1985564
0.27425727 -1.3219693 3.1944268
0.27583006 -1.2180479 3.203279
0.27792659 -1.1161277 3.2151051
0.23669459 -0.91961074 2.9812086
0.28013614 -0.86178327 3.2274904
0.27466869 -0.7575475 3.1964378
0.27201402 -0.65740007 3.1813385
0.26405841 -0.55774355 3.1361895
0.26261923 -0.46152645 3.1279898
0.26163986 -0.36579791 3.1223991
-0.15885283 -0.41074151 0.73886716
-0.15920703 -0.39956993 0.7369265
-0.15919046 -0.38199073 0.73712075
-0.15888371 -0.36952022 0.73892617
-0.16847068 -0.35407248 0.68480086
-0.17056967 -0.35374308 0.67294145
-0.17157803 -0.3457877 0.66729707
-0.17255557 -0.33248067 0.66186231
-0.17280778 -0.32777798 0.66046798
-0.17365877 -0.31373817 0.65575033
-0.1741607 -0.30389342 0.65297574
-0.17487311 -0.29465497 0.64900869
0.12359463 1.7002522 2.3395524
0.08847785 1.6174846 2.1406529
0.081570901 1.7204407 2.1014943
-0.14750475 0.13554911 0.80460799
-0.15001404 0.15986164 0.79044527
-0.15986204 0.16033669 0.73478758
-0.16463569 0.15923445 0.70781237
-0.16873898 0.19671355 0.68464577
-0.17015156 0.24694109 0.67667937
-0.10766511 1.5552648 1.0299003
-0.1210545 1.5523722 0.95409733
-0.13969669 1.5729618 0.84854603
-0.20115966 0.10781386 0.50153148
-0.20509236 0.085396439 0.47934118
-0.20868678 0.066120431 0.45906562
-0.21200407 0.051096227 0.44035739
-0.21513078 0.039408427 0.42272669
-0.21811204 0.027110277 0.40592086
-0.22242366 0.015585074 0.38161495
-0.22515905 0.0058967941 0.36620051
-0.22778605 -0.0042929165 0.35140076
-0.23040102 -0.012007598 0.33666721
-0.23293802 -0.020203372 0.32237592
-0.23543927 -0.027892519 0.30828685
-0.23700762 -0.052294914 0.29949808
-0.23932192 -0.059748106 0.28646818
-0.24169688 -0.065755568 0.2730934
-0.24409617 -0.071299769 0.25958028
-0.24646044 -0.077319473 0.24626595
-0.24895741 -0.097819708 0.23225088
-0.25046387 -0.11171993 0.22380403
-0.25202751 -0.12407116 0.21503201
-0.2547465 -0.12583423 0.19970348
-0.25697789 -0.13232465 0.18714216
-0.29113099 -0.010570141 -0.0061978553
-0.29133794 -0.039938502 -0.0072689536
-0.29102579 -0.070154682 -0.0053974553
-0.29124108 -0.095849857 -0.0065190229
-0.29123929 -0.12113519 -0.0064106644
-0.29116622 -0.14536746 -0.0058991672
-0.29118189 -0.16801961 -0.0058922837
-0.29116452 -0.1897472 -0.0056987419
-0.29188573 -0.21822134 -0.0096475407
-0.29093316 -0.23108515 -0.0041995696
-0.29169035 -0.25747102 -0.0083543174
-0.29145852 -0.27638903 -0.0069483132
-0.29174027 -0.29352096 -0.0084546776
-0.28049394 -0.32581317 0.055351939
-0.28096282 -0.33953342 0.052782439
-0.28133523 -0.36039683 0.05080362
-0.28141648 -0.37431404 0.050430927
-0.29172349 -0.38449547 -0.0078678606
-0.29181612 -0.40008068 -0.0083048036
-0.29163986 -0.41570717 -0.007218068
-0.29171395 -0.43104178 -0.007550722
-0.29152107 -0.44637886 -0.0063701943
-0.29175621 -0.461595 -0.007616458
-0.29189885 -0.47688094 -0.0083384095
-0.29185149 -0.49985623 -0.0079407543
-0.2917608 -0.5152173 -0.007340794
-0.29191932 -0.53089523 -0.0081538195
-0.29180896 -0.54650474 -0.0074429521
-0.29177079 -0.56237274 -0.0071413121
-0.29213545 -0.57909846 -0.0091232378
-0.29181117 -0.60343331 -0.0071582333
-0.29222596 -0.62131792 -0.0094247842
-0.29219243 -0.63878334 -0.0091505805
-0.29251501 -0.65764147 -0.010894661
-0.29254374 -0.67639619 -0.010973708
-0.29274353 -0.69633007 -0.012022294
-0.29216424 -0.72477865 -0.0086137876
-0.29272252 -0.74807429 -0.011694593
-0.29280362 -0.77075177 -0.012071116
-0.29223672 -0.80390179 -0.0087339487
-0.29252508 -0.83055407 -0.010285687
-0.2924509 -0.85705012 -0.0097827604
-0.29289573 -0.88811409 -0.012221374
-0.29317394 -0.92053258 -0.013715925
-0.29233643 -0.96573973 -0.0088469014
-0.46836382 -2.3189328 -1.0063077
-0.46300986 -2.4898114 -0.97584057
-0.4631615 -2.6496823 -0.97661757
-0.4644337 -2.8385155 -0.98374599
-0.43825603 -2.7662134 -0.83531225
-0.42045072 -2.7675157 -0.73432714
-0.40327159 -2.7690506 -0.63689178
-0.37944713 -2.785114 -0.50175864
-0.36289307 -2.7788734 -0.40786752
-0.34747535 -2.7840717 -0.32041711
-0.23749697 -2.773422 0.30340087
-0.22346784 -2.7732432 0.38297838
-0.19550098 -2.7654347 0.54161489
-0.18147919 -2.7647991 0.62115026
-0.17453571 -2.7589433 0.66049701
-0.16052832 -2.7540691 0.73999304
-0.14631785 -2.7532465 0.82063979
0.094747901 -4.8972631 2.1875327
0.28065938 -6.0794277 3.2415249
0.28458065 -5.6664953 3.263875
0.30024454 -5.4134912 3.3527761
0.28810987 -4.9359436 3.2841158
0.29169342 -4.6409516 3.3045404
0.29067034 -4.3374176 3.2988522
0.28978699 -3.9364188 3.2940071
0.27948931 -3.6341269 3.2357442
0.29647437 -3.5209968 3.3321195
0.28707418 -3.2625079 3.2789402
0.28514031 -3.0632262 3.2680788
0.28475395 -2.8843145 3.2659876
0.28460884 -2.7168174 3.2652626
0.29315928 -2.5173502 3.3138716
0.27528039 -2.3014421 3.2126265
0.29103419 -2.2184498 3.3020148
0.28510153 -2.0634665 3.2684808
0.27854753 -1.9148796 3.2314239
0.27475935 -1.7814937 3.2100432
0.27157179 -1.6553414 3.192066
0.27503917 -1.492509 3.211854
0.2738694 -1.379751 3.205312
0.27344364 -1.2712097 3.2029867
0.27500403 -1.1678343 3.2119181
0.26180676 -1.0475588 3.1372013
0.23391201 -0.91939718 2.9791775
0.27562591 -0.86026031 3.2157001
0.27162999 -0.70779771 3.1931772
0.25424516 -0.60386515 3.0947227
0.26158103 -0.50976974 3.1363852
0.25982982 -0.41374761 3.1265411
0.25784659 -0.31837702 3.1153815
-0.16166684 -0.40516281 0.73791158
-0.16205883 -0.39402711 0.73577994
-0.16167516 -0.38176423 0.73804468
-0.16099969 -0.34992877 0.74209762
-0.17178246 -0.35558274 0.68111897
-0.17358011 -0.34933671 0.67102033
-0.17445956 -0.34104371 0.66612577
-0.17507917 -0.33202147 0.66270381
-0.17604135 -0.31841478 0.65738499
-0.17665917 -0.30909625 0.65397298
-0.17705519 -0.29869932 0.6518178
-0.1776595 -0.26215285 0.64865959
0.10337222 1.5894156 2.2414954
0.091844857 1.6602812 2.1762278
0.068446741 1.7226107 2.0437198
0.044747431 1.6943563 1.9094818
-0.15528117 0.1602059 0.77627134
-0.16049218 0.15734728 0.74682552
-0.16513364 0.15857016 0.72060698
-0.16809289 0.17971204 0.70391858
-0.16994289 0.2189566 0.69351292
-0.17440806 0.26267213 0.66832763
-0.11741168 1.5512706 0.99119508
-0.13023905 1.5575777 0.91857231
-0.20181514 0.12016169 0.51346773
-0.20594126 0.09622553 0.49017698
-0.20965059 0.078353405 0.46924719
-0.21311007 0.061698902 0.44973335
-0.21634507 0.048340499 0.43149108
-0.21941522 0.035343647 0.41418311
-0.22235307 0.024753019 0.39762446
-0.22516447 0.013606383 0.38178283
-0.22788854 0.0039267289 0.36643583
-0.2305585 -0.0042766379 0.35139519
-0.2331413 -0.012971697 0.33684874
-0.23705612 -0.022029709 0.31479776
-0.23953466 -0.029966131 0.30084223
-0.24092144 -0.056421842 0.29308057
-0.24343985 -0.060322084 0.27889791
-0.24587378 -0.065662228 0.26519471
-0.24827386 -0.071484745 0.25168341
-0.25010449 -0.084074251 0.24140209
-0.25157538 -0.099558435 0.23316093
-0.25430954 -0.11526998 0.21780498
-0.25444224 -0.12743445 0.2171023
-0.2586509 -0.12898771 0.19338444
-0.26139107 -0.13172565 0.177945
-0.29419976 0.0072489241 -0.0077906591
-0.29455712 -0.022434961 -0.0097150635
-0.294269 -0.053712972 -0.0079799388
-0.2944845 -0.080377229 -0.009100996
-0.29447195 -0.10661039 -0.0089293532
-0.29423687 -0.13235399 -0.0074964138
-0.29435435 -0.15525655 -0.0080627166
-0.29428881 -0.17778903 -0.0075916774
-0.2941938 -0.19939123 -0.0069537815
-0.29423535 -0.21962522 -0.0070901271
-0.29412571 -0.2395435 -0.0063696057
-0.29447985 -0.26671726 -0.0082289213
-0.29450488 -0.28472939 -0.0082720863
-0.29440549 -0.302504 -0.0076099173
-0.28404406 -0.33164585 0.051175438
-0.28397846 -0.34635273 0.051644869
-0.28398323 -0.36060739 0.051715631
-0.30605835 -0.36365148 -0.073219188
-0.29437414 -0.38461524 -0.006939413
-0.29429588 -0.40030485 -0.0063971779
-0.29429314 -0.41575715 -0.0062828315
-0.29436895 -0.43105662 -0.0066139083
-0.29439512 -0.45393032 -0.0066139237
-0.29441282 -0.46914843 -0.0066152094
-0.29451177 -0.48440954 -0.0070769298
-0.29469085 -0.49979964 -0.0079924837
-0.29477525 -0.51528221 -0.008371382
-0.29455122 -0.53846347 -0.0069522876
-0.29482707 -0.54663783 -0.008465548
-0.29481879 -0.57064319 -0.0082683777
-0.29496399 -0.58722657 -0.0089906761
-0.29516497 -0.60430133 -0.010028963
-0.29525054 -0.62160045 -0.01041262
-0.29554042 -0.63984722 -0.011953835
-0.29510096 -0.66608131 -0.0093105286
-0.29553565 -0.68625879 -0.011671158
-0.29566449 -0.70636189 -0.012298007
-0.29593909 -0.72780716 -0.013750072
-0.29560095 -0.75902265 -0.011677437
-0.29531538 -0.78069919 -0.0099542923
-0.2956804 -0.80630165 -0.011916108
-0.29649103 -0.8356328 -0.016401261
-0.29504472 -0.86936557 -0.0080451425
-0.29574007 -0.90276444 -0.011874086
-0.29600057 -0.93617779 -0.013238288
-0.29674429 -0.97548568 -0.017337682
-0.46942919 -2.3717716 -0.99510741
-0.47128269 -2.5322502 -1.0054212
-0.47223657 -2.7023599 -1.0106291
-0.46398553 -2.8992968 -0.963597
-0.43347788 -2.7783055 -0.79065353
-0.41596553 -2.7803483 -0.69129378
-0.39763117 -2.7645173 -0.5872857
-0.3652792 -2.7665522 -0.40371612
-0.26874956 -2.7642448 0.14405392
-0.23368947 -2.7721496 0.34302613
-0.21968676 -2.7625661 0.42248601
-0.20572209 -2.7661693 0.50173855
-0.17065194 -2.7623174 0.70067436
-0.15665844 -2.754029 0.78003722
-0.14290376 -2.737025 0.85804147
0.10459863 -4.8636298 2.2623093
0.25861743 -6.3719106 3.1360784
0.26698911 -5.9647422 3.1833327
0.27896646 -5.4372134 3.2509844
0.30212206 -5.2720442 3.3821702
0.30466905 -4.9395514 3.3964758
0.28905332 -4.4948616 3.3077943
0.28850859 -4.2081175 3.3046136
0.25176299 -3.6976631 3.0961623
0.28713188 -3.703516 3.2966731
0.29577699 -3.4303622 3.3456268
0.28628242 -3.1790054 3.2917614
0.28278825 -2.9772546 3.2719297
0.2816712 -2.7998512 3.2655847
0.28375009 -2.6465187 3.2773669
0.27605718 -2.4608407 3.2337563
0.27709329 -2.319694 3.2396398
0.28788507 -2.1494422 3.3008409
0.27970618 -1.9910076 3.2544975
0.27586654 -1.8537667 3.2327585
0.27289054 -1.7248558 3.2159197
0.27057883 -1.6026165 3.2028508
0.27213052 -1.4927918 3.2116849
0.26931861 -1.3769426 3.1957881
0.27225998 -1.2210658 3.2125292
0.27317065 -1.1172351 3.2177403
0.25944054 -0.99830842 3.1399698
0.23270556 -0.8745997 2.9884925
0.27027586 -0.80843252 3.2014971
0.26549241 -0.70642847 3.1744452
0.2519218 -0.60430193 3.0975916
0.25759411 -0.46195635 3.1298397
0.25625139 -0.3662284 3.122298
0.25467721 -0.2708959 3.1134465
-0.16367109 -0.4159646 0.74252552
-0.1648671 -0.3997907 0.73586929
-0.16393542 -0.38693017 0.74123156
-0.16460465 -0.37594455 0.73752069
-0.16402657 -0.34395999 0.74100357
-0.17527205 -0.3518101 0.67739201
-0.17641281 -0.34934533 0.67096812
-0.17736064 -0.33584881 0.66572106
-0.17816392 -0.32731143 0.6612519
-0.17902264 -0.31322587 0.65651071
-0.17919473 -0.30801502 0.65557742
-0.18024801 -0.29408383 0.6497342
-0.18080816 -0.27069464 0.64672923
0.12694463 1.6817061 2.3915257
0.078263558 1.5154915 2.1156979
0.085975058 1.7157066 2.1595378
0.061272148 1.6896896 2.0196304
-0.15298361 0.15998782 0.80526859
-0.15733112 0.16797291 0.78071862
-0.16553292 0.15941153 0.73436499
-0.16832012 0.18276723 0.71866214
-0.17159641 0.20206934 0.70018685
-0.1736744 0.2413732 0.68850857
-0.1763982 0.27683958 0.67316997
-0.12655373 1.5590556 0.95621532
-0.20245287 0.13225414 0.52586132
-0.20675708 0.10782348 0.50154722
-0.20898016 0.086307071 0.48898464
-0.21264267 0.067404695 0.46830845
-0.21756577 0.0561148 0.44053379
-0.22072197 0.04343361 0.4227286
-0.22372656 0.031136435 0.40578264
-0.22660628 0.020263234 0.38954455
-0.22939424 0.010840627 0.37382692
-0.23209937 0.0018911127 0.3585788
-0.234767 -0.0055854511 0.34354353
-0.23735785 -0.013557016 0.3289431
-0.23991127 -0.021031534 0.31455493
-0.24355778 -0.034073472 0.29401207
-0.24394462 -0.052586924 0.2918545
-0.24636599 -0.058410365 0.27821466
-0.25008738 -0.065717123 0.25724927
-0.25248474 -0.071819074 0.24374513
-0.25373855 -0.090871163 0.23671553
-0.25530675 -0.10468315 0.22790639
-0.25692725 -0.11694475 0.21880139
-0.2593883 -0.12102281 0.2049365
-0.26174349 -0.126487 0.19167085
-0.26636156 -0.12739812 0.16562517
-0.29641771 0.0036615606 -0.0044300524
-0.29637969 -0.028022647 -0.0041468008
-0.29630682 -0.057735767 -0.0036657313
-0.29649329 -0.084244303 -0.004652983
-0.29631752 -0.11094663 -0.0035877135
-0.29745436 -0.14230879 -0.0099229608
-0.29690754 -0.16734098 -0.0067552272
-0.29718485 -0.18803746 -0.0082559194
-0.29730523 -0.20847528 -0.0088673495
-0.29727215 -0.22861704 -0.0086093144
-0.29708937 -0.24842641 -0.0075030844
-0.29676092 -0.26786819 -0.0055714236
-0.29677445 -0.28578395 -0.0055773635
-0.28684658 -0.33880618 0.050818227
-0.28656173 -0.35371175 0.052504428
-0.28685167 -0.36737767 0.050933365
-0.2970196 -0.37675294 -0.0065785446
-0.29698545 -0.39248422 -0.0063149217
-0.2971983 -0.40784869 -0.0074512349
-0.29714406 -0.42329669 -0.0070742387
-0.29699528 -0.43865225 -0.0061617331
-0.2972742 -0.4538433 -0.0076735648
-0.29725879 -0.47672057 -0.0074832859
-0.29730618 -0.4920224 -0.0076837735
-0.29726017 -0.50735676 -0.0073552802
-0.29729247 -0.52284366 -0.0074710622
-0.29739997 -0.5385676 -0.0080136731
-0.29757842 -0.55461168 -0.0089592133
-0.29765397 -0.57081544 -0.0093218936
-0.29757056 -0.59537256 -0.0087519055
-0.29771003 -0.6125294 -0.0094788214
-0.2980572 -0.63061464 -0.011384143
-0.2981163 -0.64862472 -0.011657191
-0.29757649 -0.67495143 -0.0085047819
-0.2977812 -0.69479138 -0.009606041
-0.29813677 -0.71596318 -0.01156421
-0.2983261 -0.7375505 -0.012581211
-0.29848865 -0.76007098 -0.013447677
-0.29804307 -0.79306209 -0.010840307
-0.29815644 -0.81828612 -0.011432491
-0.29857844 -0.84656721 -0.013777748
-0.29862034 -0.87475115 -0.013969312
-0.29766789 -0.91464496 -0.0085007297
-0.29813707 -0.95044911 -0.011124362
-0.47053257 -2.434407 -0.9897508
-0.47151721 -2.5951545 -0.99546522
-0.4718501 -2.7679012 -0.997504
-0.45250818 -2.7648642 -0.8878203
-0.43392286 -2.7613406 -0.78242391
-0.40891045 -2.7751005 -0.64059448
-0.39178941 -2.7708671 -0.54349643
-0.37520117 -2.7663538 -0.44941762
-0.36017641 -2.7797761 -0.36422339
-0.24952435 -2.7639029 0.26335794
-0.23558477 -2.7731366 0.34240624
-0.22157012 -2.7685668 0.42189899
-0.20060734 -2.7654369 0.54079753
-0.16570272 -2.7511516 0.73877567
-0.1516577 -2.7454417 0.81847233
0.25856438 -6.1219611 3.1394053
0.27489844 -5.8314786 3.2324944
0.27952343 -5.4540482 3.259341
0.26748034 -4.9645443 3.1918731
0.29521966 -4.7087741 3.3495998
0.29098079 -4.3763928 3.3261387
0.29038605 -4.100873 3.3232503
0.26062405 -3.6554074 3.1552832
0.29484406 -3.6502445 3.3493383
0.28676403 -3.3889737 3.3040004
0.28819737 -3.1053209 3.3126593
0.28429317 -2.9067671 3.2908993
0.2830126 -2.7328 3.2839744
0.2860269 -2.5864966 3.3013535
0.25935268 -2.3310246 3.15061
0.28864065 -2.2989361 3.3167474
0.27759859 -2.1227181 3.2544949
0.27832884 -1.9299645 3.2590339
0.27412704 -1.794297 3.2354937
0.27082625 -1.6668203 3.2170486
0.27033079 -1.5505552 3.214488
0.26870689 -1.4353093 3.2055297
0.26662809 -1.3226297 3.1939888
0.26748407 -1.2176698 3.1990714
0.27261066 -1.0678244 3.2284641
0.22837064 -0.91968381 2.9779954
0.27282479 -0.86284965 3.2301302
0.26921523 -0.75965023 3.209897
0.26288512 -0.65753895 3.1742415
0.25644702 -0.55842757 3.137969
0.25531527 -0.46213487 3.1317694
0.25360134 -0.36639994 3.1222689
-0.16694793 -0.41080534 0.73873883
-0.16730641 -0.39963314 0.73680192
-0.16688618 -0.38741258 0.7392801
-0.16749513 -0.37040967 0.73597115
-0.16611612 -0.35565421 0.74388736
-0.17804782 -0.35222942 0.67645907
-0.1795958 -0.3402037 0.66782022
-0.1802208 -0.33111879 0.66436923
-0.18090342 -0.32213119 0.66059148
-0.18149599 -0.31272331 0.65732461
-0.18200791 -0.30281931 0.6545155
-0.18287088 -0.29411048 0.64971489
-0.18284784 -0.26087534 0.65008789
0.11349438 1.6917217 2.3327057
0.078233786 1.6072097 2.1328013
0.072421573 1.7177691 2.1000767
0.048906326 1.6958035 1.9668307
-0.15803725 0.16236554 0.7919879
-0.16199972 0.2609821 0.76985019
-0.17158012 0.20616201 0.71555161
-0.17528699 0.22169802 0.69463748
-0.17793486 0.25535131 0.67974943
-0.20087527 0.14581445 0.5498839
-0.20554578 0.1184402 0.52345222
-0.20968768 0.09690278 0.50002456
-0.21343799 0.080408782 0.47882295
-0.21694721 0.065110631 0.4589895
-0.2202467 0.05108659 0.44034657
-0.22336864 0.039401144 0.42271304
-0.22635745 0.029103994 0.40583587
-0.22923364 0.019230742 0.38959762
-0.23344678 0.008874259 0.36581916
-0.23614229 0.00064705138 0.35060713
-0.23878369 -0.0070962724 0.33570245
-0.24142529 -0.013378 0.32079837
-0.2439643 -0.021124801 0.30647403
-0.24556483 -0.045593802 0.29744902
-0.24797295 -0.052175716 0.28386813
-0.25039062 -0.058277439 0.27023354
-0.25418139 -0.065103829 0.24885358
-0.25604481 -0.077796884 0.23835281
-0.25730193 -0.096041434 0.23128229
-0.25872684 -0.11084118 0.22326496
-0.26112098 -0.115577 0.20976551
-0.26320818 -0.12333266 0.19800225
-0.26586062 -0.126646 0.18304028
-0.29932779 -0.010536277 -0.0062294402
-0.29914978 -0.041989774 -0.0051806755
-0.29933238 -0.069453754 -0.0061710216
-0.29914364 -0.09710487 -0.0050564273
-0.29940003 -0.12110551 -0.0064608278
-0.29931909 -0.14533889 -0.005953175
-0.29932749 -0.16799209 -0.0059498018
-0.29930311 -0.18972075 -0.00575954
-0.2994107 -0.21007028 -0.0063156495
-0.29921207 -0.2305914 -0.0051358487
-0.29980728 -0.25744799 -0.0084247366
-0.29956958 -0.27636719 -0.0070212414
-0.29952142 -0.29421696 -0.0066911117
-0.28949201 -0.33135328 0.050200973
-0.28942192 -0.34609467 0.050659429
-0.28909957 -0.3538079 0.052517034
-0.28949901 -0.37430227 0.050346326
-0.29980144 -0.38448039 -0.0079533812
-0.29951426 -0.39259323 -0.006295661
-0.29970863 -0.41569427 -0.007306641
-0.29960498 -0.43109971 -0.0066583157
-0.29958099 -0.44636813 -0.006461503
-0.29963812 -0.46158528 -0.00672423
-0.29977655 -0.47683734 -0.0074480115
-0.29982212 -0.49214059 -0.0076453174
-0.29994711 -0.5075807 -0.0082929526
-0.29978436 -0.53073382 -0.0072787474
-0.3000119 -0.54669154 -0.0085082436
-0.2999683 -0.56259477 -0.0082003819
-0.30032715 -0.5793553 -0.010174963
-0.29999417 -0.60374206 -0.0081965486
-0.30054227 -0.61330932 -0.011275196
-0.30004054 -0.63841057 -0.0083408393
-0.30036089 -0.65723747 -0.010099206
-0.30069983 -0.67683828 -0.011963842
-0.30017292 -0.70448935 -0.0088890325
-0.30030197 -0.72530019 -0.0095646875
-0.30070609 -0.74808174 -0.011802168
-0.30078214 -0.7707603 -0.012179424
-0.30109015 -0.7956109 -0.013874012
-0.30035782 -0.82992256 -0.0096412404
-0.30053997 -0.85773152 -0.010625316
-0.30084926 -0.88812739 -0.012332957
-0.30100021 -0.91982758 -0.013144252
-0.30016056 -0.96500111 -0.008314102
-0.47641194 -2.3220744 -1.008938
-0.47670868 -2.4647095 -1.0106959
-0.47138253 -2.65555 -0.98058623
-0.47204715 -2.8393724 -0.98447311
-0.4461396 -2.7697177 -0.83743197
-0.42855558 -2.7737627 -0.73766106
-0.40988001 -2.7572825 -0.63167882
-0.39430049 -2.7720757 -0.54328334
-0.37023196 -2.7751367 -0.40670422
-0.35516411 -2.7859986 -0.32120448
-0.28033194 -2.7669713 0.10350315
-0.24508059 -2.7674658 0.30357614
-0.23109235 -2.7662799 0.38297063
-0.21712217 -2.76928 0.46225864
-0.20316178 -2.76547 0.5414986
-0.18910176 -2.7678225 0.6212973
-0.18209735 -2.765938 0.66110915
-0.16836914 -2.7481596 0.73906469
-0.15383479 -2.759187 0.82156152
0.16649888 -8.8352413 2.6320102
0.086471319 -4.8852262 2.1826143
0.26774743 -6.0161705 3.2096553
0.28092 -5.7049813 3.2847624
0.27967137 -4.9275584 3.27865
0.28634825 -4.6589737 3.3168714
0.28308272 -4.3374176 3.2987638
0.28928918 -3.985445 3.3344386
0.27284202 -3.6408143 3.2416005
0.28948155 -3.5253103 3.336154
0.28207108 -3.2777874 3.2944589
0.27735662 -3.0632229 3.2680175
0.27601141 -2.8798108 3.2606492
0.27745819 -2.7198908 3.2690883
0.28571889 -2.5190644 3.3162422
0.26505527 -2.292722 3.1993656
0.283869 -2.2210171 3.3061922
0.27641162 -2.0610344 3.2641337
0.26936013 -1.9112396 3.2243657
0.26821056 -1.7852889 3.2180398
0.26454914 -1.6576771 3.1974709
0.26850349 -1.4955771 3.2201517
0.26502383 -1.378195 3.2006004
0.26541024 -1.2711983 3.2029595
0.26611418 -1.1666125 3.2071152
0.25255919 -1.0460917 3.130434
0.22584659 -0.91938728 2.9791534
0.26822868 -0.86080265 3.2195807
0.26197034 -0.70699823 3.184329
0.25810477 -0.60746312 3.1625624
0.2527642 -0.50968444 3.1324298
0.25152358 -0.41374913 3.1255405
0.24935719 -0.31846526 3.1134
-0.16965622 -0.40518594 0.73787403
-0.17004748 -0.39405006 0.73574293
-0.16966343 -0.38178697 0.7380082
-0.16982388 -0.36396876 0.73722923
-0.16898702 -0.34995091 0.74206233
-0.1778304 -0.35111067 0.69204092
-0.18057778 -0.35221452 0.67650288
-0.18181205 -0.33931321 0.66963184
-0.18300575 -0.32635641 0.66299039
-0.18327923 -0.32161817 0.6614821
-0.18372652 -0.31165075 0.65903091
-0.18474223 -0.29757455 0.65339851
0.098480612 1.6109792 2.2605891
0.084030382 1.663357 2.1787419
0.06061044 1.7258151 2.0460708
0.036806699 1.6968209 1.9111549
0.017781714 1.6970956 1.803346
-0.16050231 0.24385738 0.79210937
-0.16346256 0.27269751 0.77540976
-0.17318936 0.21714863 0.72031438
-0.17650424 0.23933607 0.70160145
-0.18217276 0.2664355 0.66958177
-0.2007429 0.1619866 0.56448185
-0.20397823 0.12821342 0.54616553
-0.21009514 0.108288 0.5115906
-0.21401626 0.090248331 0.48942885
-0.21765375 0.074346311 0.46887609
-0.22105666 0.060677703 0.44965434
-0.22428076 0.047317728 0.43144664
-0.22734934 0.037320122 0.41412181
-0.23029487 0.026726753 0.39749467
-0.23314425 0.017567376 0.38141307
-0.23590937 0.0088654067 0.36580959
-0.23860525 0.00063747488 0.35059896
-0.24128014 -0.0061248429 0.33550775
-0.24392778 -0.012414447 0.32057115
-0.24781473 -0.022301212 0.29864559
-0.24918906 -0.049789734 0.2909258
-0.2518034 -0.05283007 0.27617905
-0.25434396 -0.057343367 0.26185048
-0.25686121 -0.062375296 0.2476541
-0.25813353 -0.082302988 0.24051499
-0.25961107 -0.097818978 0.23221305
-0.26128808 -0.10998639 0.22278063
-0.26359555 -0.11558823 0.20977424
-0.26680928 -0.12655741 0.19166781
-0.27008325 -0.12536401 0.17318195
-0.30107221 0.017746348 -0.0023286957
-0.30264488 -0.021053497 -0.011132357
-0.30085194 -0.046175502 -0.00092835247
-0.30244875 -0.079753801 -0.0098672388
-0.30203092 -0.10790175 -0.0074209021
-0.30192304 -0.13298835 -0.0067313192
-0.30189073 -0.15643625 -0.0064699966
-0.3021059 -0.17782146 -0.007611528
-0.3020072 -0.19942358 -0.006972855
-0.30204511 -0.21965751 -0.0071084443
-0.30193195 -0.23957571 -0.006387149
-0.30167159 -0.25914252 -0.0048310142
-0.30230248 -0.28476152 -0.0082877753
-0.3030158 -0.30082574 -0.012251816
-0.29151109 -0.33232719 0.053024299
-0.29160482 -0.34667519 0.052573945
-0.29177263 -0.36063737 0.051703706
-0.30366433 -0.3669734 -0.015603703
-0.30215272 -0.38464698 -0.0069504604
-0.30207148 -0.40033653 -0.0064074299
-0.30223846 -0.41568419 -0.007271722
-0.30222681 -0.43870071 -0.0070813266
-0.30216038 -0.45396182 -0.006621364
-0.30217516 -0.46917987 -0.0066218241
-0.30227125 -0.48444095 -0.0070827138
-0.30244738 -0.49983099 -0.007997429
-0.30252895 -0.51531357 -0.0083754677
-0.30247191 -0.53866827 -0.0079249265
-0.30248308 -0.55450457 -0.0079030897
-0.30256277 -0.5706743 -0.0082693249
-0.30270514 -0.58725768 -0.0089906901
-0.30290332 -0.60433239 -0.010028023
-0.30249697 -0.62928218 -0.0075939088
-0.30256879 -0.6471628 -0.0079137236
-0.30298731 -0.66653478 -0.0101986
-0.30279732 -0.68492782 -0.0090331538
-0.30338773 -0.70639277 -0.012291327
-0.30365947 -0.72783804 -0.013742234
-0.30317345 -0.75849426 -0.010851387
-0.30316997 -0.78131753 -0.0107402
-0.30339152 -0.80633223 -0.011903904
-0.30406585 -0.83502078 -0.015633173
-0.30319586 -0.90138072 -0.010463973
-0.30358067 -0.9354769 -0.012547623
-0.30443963 -0.9755162 -0.017316828
-0.47710964 -2.3726389 -0.99564368
-0.4779551 -2.5249474 -1.0002742
-0.47923228 -2.6973977 -1.0073408
-0.47154665 -2.8993649 -0.9635179
-0.44121835 -2.7801325 -0.79149985
-0.42408344 -2.7866971 -0.69423497
-0.40529433 -2.7654841 -0.58760339
-0.38948309 -2.7748506 -0.49784246
-0.37300393 -2.768477 -0.4043017
-0.2765024 -2.7692306 0.14355689
-0.26239738 -2.7707446 0.2236402
-0.24835226 -2.7713997 0.30338356
-0.22735524 -2.7705765 0.42259699
-0.21335404 -2.7731721 0.50209272
-0.19942917 -2.7639637 0.58114851
-0.17836049 -2.7613232 0.70067447
-0.16416012 -2.7609377 0.78123969
0.094817087 -4.8359265 2.2510457
0.2567724 -6.4451847 3.1701653
0.26266402 -6.0038018 3.2033672
0.26769546 -5.4024167 3.2316368
0.29789868 -5.3049536 3.402868
0.29549614 -4.9277744 3.3891001
0.27919972 -4.4785123 3.29653
0.27802116 -4.1882443 3.2897565
0.24551734 -3.7082267 3.1052945
0.27687258 -3.687731 3.283114
0.27791017 -3.4757724 3.2889557
0.28061646 -3.1904135 3.3042598
0.27771488 -2.9908438 3.287782
0.27627373 -2.8109879 3.2795966
0.27647629 -2.6487298 3.2807415
0.27420378 -2.4847364 3.2678554
0.2698468 -2.3216724 3.2431543
0.27441356 -2.1984391 3.269068
0.27309966 -1.9945537 3.2616472
0.26865783 -1.8553087 3.2364838
0.26553327 -1.7258625 3.2187955
0.2632283 -1.6035246 3.205759
0.26380551 -1.4915454 3.2090707
0.26131779 -1.3764116 3.1950057
0.26288396 -1.2715433 3.203932
0.26600701 -1.1179025 3.2217147
0.25876427 -1.0060955 3.1806972
0.22419257 -0.87375623 2.9847159
0.26467299 -0.80977613 3.2143161
0.25937924 -0.70705849 3.1843593
0.23974666 -0.60275471 3.0730989
0.24985653 -0.50970513 3.130492
0.2482325 -0.3660149 3.121387
0.24700394 -0.27057543 3.1144931
-0.17115378 -0.41582155 0.74354786
-0.17234905 -0.39959672 0.73688215
-0.17260258 -0.38827583 0.73551959
-0.17225507 -0.37594116 0.73756546
-0.17131996 -0.3496156 0.74301952
-0.18211335 -0.34986022 0.68196785
-0.18341765 -0.34772295 0.6746099
-0.18430446 -0.33930379 0.66965759
-0.1853441 -0.32586294 0.66387749
-0.18636192 -0.31217268 0.65822148
-0.18639104 -0.30638796 0.65809524
-0.18759817 -0.29291597 0.65136659
0.11885916 1.6804678 2.3899989
0.069988921 1.5126623 2.1129453
0.078471676 1.7182355 2.1612017
0.055125311 1.7026474 2.0289176
0.033250187 1.6878043 1.9049755
0.014180109 1.6870267 1.7969431
-0.16419025 0.26098776 0.78532058
-0.17067814 0.2480212 0.7486105
-0.17719948 0.22968209 0.71170831
-0.18087623 0.24790429 0.69094998
-0.18420415 0.27399677 0.6721732
-0.19841535 0.17879352 0.59171629
-0.20400697 0.1424946 0.56007594
-0.208657 0.11852706 0.53377938
-0.21282305 0.099392571 0.51022881
-0.21662691 0.084286056 0.48873341
-0.22027342 0.065372705 0.46812803
-0.22515567 0.057069547 0.4405607
-0.22831462 0.045385677 0.42272279
-0.23133413 0.03408343 0.40567538
-0.23425324 0.02519672 0.38919839
-0.23706833 0.015755828 0.3733108
-0.23982476 0.0077722431 0.35775626
-0.24255565 0.0012446374 0.34234732
-0.24518521 -0.006776561 0.32751176
-0.24781919 -0.013338798 0.31265193
-0.25158229 -0.025540816 0.29142562
-0.25188562 -0.046004318 0.2897321
-0.25571361 -0.052708205 0.26814049
-0.25825676 -0.057515062 0.25379595
-0.26033366 -0.068279475 0.24209094
-0.26152718 -0.088285737 0.23538806
-0.26302421 -0.1030238 0.22696765
-0.26518965 -0.11017965 0.21476218
-0.26721561 -0.11860234 0.20334639
-0.27081051 -0.12668613 0.18307336
-0.30394599 0.0035219372 -0.0044358615
-0.3039045 -0.028163234 -0.0041468348
-0.30395547 -0.057195298 -0.0043804725
-0.30388039 -0.085043065 -0.0038993408
-0.3053003 -0.11685143 -0.011860198
-0.30397993 -0.13483667 -0.0043497407
-0.30499128 -0.16525093 -0.0099943681
-0.30513141 -0.18659569 -0.010730688
-0.30480674 -0.20862447 -0.0088325432
-0.30446395 -0.22970615 -0.0068313256
-0.30474141 -0.24813899 -0.0083450787
-0.30441278 -0.26761302 -0.0064237742
-0.30442593 -0.28556195 -0.0064392742
-0.29549894 -0.32174167 0.044219926
-0.29433447 -0.33894882 0.050881486
-0.29421413 -0.35357934 0.051624522
-0.29416588 -0.36776412 0.051958807
-0.30449492 -0.37691137 -0.0065067988
-0.30462962 -0.39248717 -0.0072121057
-0.30449569 -0.40813121 -0.0063946489
-0.30461118 -0.42345828 -0.0069913599
-0.30463317 -0.43876234 -0.0070585366
-0.30456215 -0.45402452 -0.0065985066
-0.30474591 -0.46926114 -0.0075835576
-0.30476087 -0.49218872 -0.0075837513
-0.30471209 -0.50752401 -0.0072513204
-0.30474153 -0.52301204 -0.0073630977
-0.30484614 -0.53873712 -0.0079016183
-0.30519146 -0.55499035 -0.0098062428
-0.30509421 -0.57098728 -0.0092013627
-0.30500641 -0.59554583 -0.0086248051
-0.30516252 -0.63007379 -0.009408786
-0.30554259 -0.64880174 -0.011515784
-0.30531031 -0.67600596 -0.010126355
-0.30535281 -0.69543999 -0.010321468
-0.30573726 -0.73773241 -0.012415422
-0.30544525 -0.79324609 -0.010659058
-0.30584133 -0.84609795 -0.01283851
-0.30600989 -0.87493902 -0.013765502
-0.30746111 -0.9292199 -0.02196799
-0.30551565 -0.95063883 -0.010899344
-0.47667593 -2.4267662 -0.98338115
-0.47749883 -2.5856595 -0.98823297
-0.47824141 -2.7615726 -0.99265873
-0.46163231 -2.7852125 -0.89847177
-0.4426055 -2.7785201 -0.79053032
-0.41766348 -2.7954075 -0.6490621
-0.39974955 -2.7822571 -0.5474211
-0.38235497 -2.7666738 -0.44872078
-0.36722031 -2.7781835 -0.36287707
-0.25679377 -2.7710168 0.2636131
-0.24278548 -2.7752447 0.34308082
-0.21478163 -2.7682464 0.50196999
-0.19389482 -2.757879 0.62048775
-0.17987676 -2.7564151 0.70012832
-0.15875663 -2.7503388 0.82007349
0.263024 -6.2588248 3.2070634
0.269593 -5.8519988 3.2451181
0.27221406 -5.4533753 3.2607648
0.26557404 -5.0139289 3.2239528
0.28190994 -4.8190279 3.3170333
0.27327687 -4.4395447 3.268811
0.28227752 -4.0955443 3.3205845
0.25280648 -3.6525257 3.1542799
0.28675258 -3.645926 3.3469107
0.28072175 -3.3968139 3.3132176
0.27449471 -3.1657391 3.2783794
0.27084348 -2.9644823 3.2580984
0.2689054 -2.7844398 3.2474964
0.27871603 -2.5870512 3.3035965
0.25060064 -2.3259721 3.1446633
0.28205371 -2.3020318 3.3231692
0.27147627 -2.1271241 3.2635541
0.26541486 -1.9770797 3.2295086
0.26300806 -1.8451263 3.2161582
0.26412547 -1.6685973 3.2229052
0.26136401 -1.5471268 3.2075222
0.26234457 -1.4373592 3.21334
0.25977543 -1.3235446 3.1990321
0.26063231 -1.218421 3.2041376
0.26284808 -1.1166927 3.2169418
0.21941361 -0.96461052 2.9709463
0.25771388 -0.85633349 3.1884251
0.260115 -0.75829154 3.2022681
0.25447151 -0.65674996 3.1704953
0.25063393 -0.55831409 3.148957
0.24741563 -0.46164376 3.1309261
0.2455252 -0.36598551 3.1204216
-0.17416452 -0.4104993 0.74078202
-0.17486827 -0.39964059 0.73689705
-0.17445062 -0.38741979 0.73937261
-0.17445004 -0.375467 0.73948246
-0.17401686 -0.35627916 0.7420997
-0.18466029 -0.34990507 0.68198168
-0.18601267 -0.34247592 0.67441308
-0.18733676 -0.32973289 0.6670565
-0.18803005 -0.32065448 0.66322678
-0.18863383 -0.31115749 0.6599049
-0.1891575 -0.3011663 0.65703762
-0.19003259 -0.29237258 0.65217602
0.11314563 1.6629153 2.3738928
0.068240963 1.5913326 2.1192844
0.066592745 1.7313668 2.1101458
0.042495985 1.7056895 1.9735436
0.021608433 1.6946602 1.8551543
-0.16577864 0.21354918 0.79132438
-0.16614977 0.26896793 0.78935611
-0.17614695 0.24542721 0.73277032
-0.18139112 0.24300295 0.70311469
-0.18547136 0.25626856 0.68007308
-0.18858175 0.28777605 0.66254675
-0.19817729 0.19488592 0.60813761
-0.20403478 0.15836349 0.57497561
-0.20901173 0.13110235 0.54681545
-0.21338385 0.11051849 0.52209127
-0.21735866 0.093885869 0.49962381
-0.22105579 0.079365723 0.47873291
-0.224536 0.066057496 0.45907342
-0.22783074 0.054032043 0.440467
-0.23097214 0.044346694 0.42273211
-0.23398609 0.033045493 0.40571889
-0.23689981 0.024161004 0.38927609
-0.23974612 0.016712697 0.37321678
-0.24396811 0.0084878206 0.3493993
-0.24665838 0.00069489348 0.33422488
-0.2493093 -0.0066203172 0.31927416
-0.25202587 -0.011529344 0.30395281
-0.25368762 -0.036094911 0.29460037
-0.25609803 -0.043730948 0.28101394
-0.25856823 -0.049940784 0.26708937
-0.26243624 -0.056948546 0.24528146
-0.2638177 -0.076066241 0.23752345
-0.26404163 -0.090099081 0.23628911
-0.26902461 -0.11310011 0.20823811
-0.27112883 -0.12091301 0.19638909
-0.27420586 -0.12105077 0.1790276
-0.30751827 0.025861433 -0.0095491316
-0.30694032 -0.010615432 -0.0062033902
-0.30689242 -0.041372932 -0.0058598192
-0.30708376 -0.068861328 -0.0068708309
-0.30690387 -0.096537456 -0.0057761492
-0.3070316 -0.12117983 -0.0064238822
-0.30709589 -0.14482415 -0.0067106984
-0.30696827 -0.16806395 -0.0059086597
-0.30694842 -0.1897914 -0.0057165595
-0.30706039 -0.21013975 -0.0062710233
-0.30771706 -0.23782203 -0.0098721487
-0.30746779 -0.25751454 -0.0083765695
-0.3073945 -0.27604169 -0.0078782216
-0.30751523 -0.29356417 -0.0084791966
-0.29659688 -0.32517463 0.053475544
-0.29673886 -0.33957875 0.052755978
-0.29678643 -0.35386607 0.052572161
-0.29808921 -0.36608067 0.045270726
-0.30724239 -0.37691855 -0.0065067429
-0.30741584 -0.40026206 -0.0073604593
-0.30748588 -0.43108365 -0.0075833085
-0.30746689 -0.44638568 -0.0073878323
-0.30749828 -0.47688743 -0.0073892944
-0.30772185 -0.49225917 -0.0085686902
-0.30752325 -0.53077966 -0.0072190235
-0.30741495 -0.54635465 -0.0065148934
-0.30791375 -0.57913876 -0.0091635184
-0.30800173 -0.5958333 -0.0095716212
-0.30866003 -0.62272567 -0.013168814
-0.30781433 -0.63844854 -0.008280593
-0.30798191 -0.6568675 -0.0091393096
-0.30832949 -0.67643553 -0.0110186
-0.30853081 -0.69636917 -0.012068115
-0.30840117 -0.72636271 -0.01119333
-0.30836886 -0.74756837 -0.010916729
-0.30916649 -0.77308446 -0.015347189
-0.30891299 -0.79563969 -0.013815138
-0.30928794 -0.82223266 -0.015847096
-0.30799514 -0.85574996 -0.0083717853
-0.30845049 -0.88676268 -0.010858665
-0.31030795 -0.92848253 -0.021297071
-0.48363435 -2.3157713 -1.0040237
-0.48482016 -2.4647071 -1.0106339
-0.47831357 -2.6446414 -0.97355419
-0.479267 -2.8299344 -0.97883689
-0.45544022 -2.7810786 -0.84358603
-0.43693331 -2.7755361 -0.73850507
-0.41957828 -2.7754006 -0.63995653
-0.40268192 -2.7739096 -0.54400909
-0.37855652 -2.7760708 -0.40700188
-0.36312166 -2.7802877 -0.31934234
-0.25348276 -2.7714753 0.303381
-0.23949403 -2.7742972 0.38284063
-0.22547877 -2.7803011 0.46245167
-0.21154389 -2.7674944 0.54160273
-0.19755937 -2.7648656 0.62103778
-0.19049823 -2.7659733 0.66110647
-0.17644918 -2.7610734 0.7408464
-0.16234812 -2.7552927 0.82088089
0.1595801 -8.8972054 2.6482475
0.076245889 -4.8658671 2.1748683
0.2603752 -6.0359287 3.219497
0.27273059 -5.7138839 3.2895515
0.26930991 -4.9142885 3.2700999
0.27935451 -4.6738663 3.3270757
0.27551997 -4.3463454 3.3053257
0.28288972 -4.0009055 3.3471489
0.26150051 -3.6231108 3.2258406
0.28215978 -3.5326364 3.3430533
0.27597108 -3.2911141 3.3079798
0.27125326 -3.0753911 3.281255
0.2681573 -2.8825018 3.2637339
0.26951647 -2.7218547 3.271486
0.27152076 -2.5719082 3.2829006
0.25431713 -2.2835696 3.1853988
0.27770188 -2.2283344 3.3180861
0.26834512 -2.061621 3.2650719
0.2638016 -1.9190555 3.2393603
0.26130468 -1.7887644 3.2252586
0.2581664 -1.6620659 3.2075217
0.25572851 -1.5418578 3.1937587
0.25277141 -1.4247644 3.1770532
0.25750217 -1.2715533 3.2039866
0.25889799 -1.1678984 3.2119732
0.24808921 -1.0505303 3.1507423
0.22142673 -0.92310154 2.9995978
0.26193404 -0.86226135 3.2294126
0.25472161 -0.75690609 3.1885834
0.24960634 -0.60736424 3.1596894
0.2468826 -0.50994897 3.1443219
0.2439172 -0.41376594 3.1275852
0.24158783 -0.31846148 3.1144571
-0.17748252 -0.40522781 0.73792815
-0.177872 -0.39409199 0.73579705
-0.1773179 -0.38158703 0.73901784
-0.17751703 -0.36987576 0.73796678
-0.17697041 -0.35031849 0.74118513
-0.18778624 -0.34533527 0.68003583
-0.18900077 -0.33760279 0.673226
-0.18994658 -0.32927072 0.66794044
-0.19093207 -0.31539074 0.66246969
-0.19156687 -0.3058947 0.65894866
-0.19226564 -0.29647136 0.65506488
0.12388709 1.6690301 2.449064
0.096334592 1.6473918 2.2928867
0.07529965 1.6572266 2.1736822
0.059366241 1.6967101 2.0834198
0.029664258 1.7025491 1.9151064
0.0096580284 1.6945719 1.8017322
-0.1709675 0.27625114 0.77717108
-0.17916228 0.24085724 0.73076469
-0.18411766 0.24207312 0.70274276
-0.18789349 0.26002428 0.68141663
-0.20208181 0.16988814 0.60107845
-0.20736897 0.14283292 0.57116359
-0.21207179 0.12033596 0.54456419
-0.21800818 0.10428282 0.51101136
-0.22019066 0.086945623 0.49866685
-0.22542709 0.076281458 0.46908548
-0.22884154 0.062616229 0.44979548
-0.23206836 0.052256908 0.43157089
-0.23516369 0.041257992 0.41409159
-0.23814213 0.031656984 0.39727575
-0.24103653 0.023480177 0.38093707
-0.24387985 0.016739976 0.36488861
-0.24662329 0.0084717246 0.34940583
-0.24934553 0.0016594068 0.33404395
-0.25347129 -0.00563074 0.31076187
-0.25614074 -0.011800011 0.29569942
-0.2575233 -0.040352985 0.28792369
-0.26019463 -0.043508604 0.27285194
-0.26279134 -0.04814864 0.25820252
-0.26508099 -0.056972805 0.24529219
-0.26615605 -0.0796865 0.23926237
-0.26748523 -0.097017251 0.23179406
-0.26977479 -0.10314091 0.21888523
-0.27175465 -0.11228042 0.2077309
-0.27415368 -0.11762659 0.19420159
-0.27787229 -0.12545307 0.17322652
-0.30922076 0.019870196 -0.004271125
-0.30896726 -0.014258817 -0.0027740933
-0.30889562 -0.04489366 -0.0023067836
-0.30919302 -0.071586184 -0.0039304164
-0.30899465 -0.099157639 -0.0027434404
-0.30998468 -0.13189635 -0.0082602901
-0.31009901 -0.15482815 -0.0088445302
-0.30988446 -0.17793512 -0.0075643822
-0.30993181 -0.19902325 -0.0077682864
-0.30996993 -0.21928841 -0.0079196198
-0.30985671 -0.23923841 -0.0072129676
-0.30983183 -0.27648833 -0.0069414652
-0.2995964 -0.33179086 0.051221222
-0.29935896 -0.34679091 0.052634399
-0.29952401 -0.3607541 0.051765386
-0.30988303 -0.36896938 -0.0068719634
-0.30972609 -0.38494602 -0.0059169065
-0.30964065 -0.40060204 -0.0053670751
-0.31014898 -0.41570726 -0.0081845457
-0.31004623 -0.43114698 -0.0075369431
-0.31006312 -0.45407447 -0.0075357947
-0.31059515 -0.469381 -0.010488715
-0.30999297 -0.48457307 -0.0070094485
-0.30999225 -0.49987704 -0.0069415336
-0.31093216 -0.51593566 -0.012208867
-0.31022474 -0.53100449 -0.0081334775
-0.31001666 -0.55443341 -0.0068592746
-0.311104 -0.5720222 -0.012964765
-0.31023252 -0.58712101 -0.0079599964
-0.3102625 -0.60385442 -0.0080688968
-0.31050733 -0.6214307 -0.0093974536
-0.31095213 -0.64002079 -0.011861043
-0.31852397 -0.68781316 -0.054731548
-0.31077194 -0.68598068 -0.010692997
-0.31059107 -0.70508426 -0.0096099796
-0.31131154 -0.72798544 -0.013642372
-0.31169891 -0.75091487 -0.015786035
-0.31066459 -0.78087926 -0.0098373434
-0.31060833 -0.80463582 -0.0094668427
-0.31141791 -0.8338874 -0.014012125
-0.31066912 -0.90082777 -0.009647401
-0.31081057 -0.93343818 -0.010408625
-0.48344305 -2.3665552 -0.99063414
-0.48427933 -2.518702 -0.99546969
-0.48525846 -2.688484 -1.0011358
-0.48410961 -2.8575971 -0.99473649
-0.45641473 -2.7707965 -0.83753145
-0.43094984 -2.7851708 -0.69304848
-0.41273552 -2.7712219 -0.589683
-0.3972061 -2.7852938 -0.5015732
-0.3801274 -2.770587 -0.40464696
-0.36476657 -2.7756748 -0.3174842
-0.25527298 -2.7685256 0.30388603
-0.24128567 -2.7703314 0.38326198
-0.22032727 -2.7662649 0.50220537
-0.20637913 -2.7620435 0.58136594
-0.18529607 -2.7613761 0.70103467
-0.17119089 -2.7580125 0.78113872
-0.15733427 -2.743911 0.8598454
0.090275437 -4.8614759 2.2624509
0.24957491 -6.4303002 3.1643372
