# .PCD v0.7 - Point Cloud Data file format
VERSION 0.7
FIELDS x y z
SIZE 4 4 4
TYPE F F F
COUNT 1 1 1
WIDTH 1376
HEIGHT 1
VIEWPOINT 0 0 0 1 0 0 0
POINTS 1376
DATA ascii
0.44142148 -2.3398032 3.165344
0.47072372 -2.2362845 3.331836
0.46215269 -2.0715194 3.2833884
0.45672014 -1.9255879 3.2527378
0.45172629 -1.7880692 3.2245696
0.45112422 -1.6676576 3.2213125
0.4491896 -1.548043 3.2104909
0.44789541 -1.4336184 3.203299
0.44798121 -1.3248456 3.203934
0.45090234 -1.169818 3.2207255
0.45249 -1.0673249 3.229876
0.40917155 -0.92009139 2.9842088
0.45392889 -0.86326236 3.2383177
0.44636989 -0.75739259 3.195559
0.44108847 -0.65623456 3.1657212
0.43761376 -0.55804271 3.1461334
0.43458545 -0.46147692 3.129077
0.014661121 -0.42129576 0.74631828
0.014195756 -0.4100112 0.74376148
0.0032590227 -0.40090165 0.68185741
0.001208794 -0.39898139 0.67026258
-0.0002716356 -0.38737711 0.66198432
-0.0019503502 -0.37204796 0.65262133
-0.0025321422 -0.36395726 0.64940161
-0.0025243165 -0.35914233 0.64948726
-0.0027160791 -0.3498553 0.64848125
-0.0030488148 -0.33558938 0.64671624
-0.0026610035 -0.32360941 0.64900011
-0.0026964303 -0.30674303 0.64892292
-2.4097752e-05 -0.28353941 0.66417539
0.0074268752 -0.20201257 0.70672339
0.0039379075 -0.20252886 0.68700075
0.0019644704 -0.19548132 0.67588145
0.00054321357 -0.18518758 0.66789687
-0.00050266681 -0.17207295 0.66204333
-0.0019590524 -0.15017027 0.65390164
-0.0018947448 -0.12578562 0.65435183
0.14762604 1.6928713 1.5037489
0.13217586 1.7017686 1.4161386
0.11773366 1.7190827 1.3342512
0.089316577 1.5231882 1.1729943
0.075621456 1.5220895 1.0953422
0.06296432 1.5341948 1.0235845
0.05066466 1.5513719 0.95385677
0.037896372 1.5562984 0.88146621
0.019017847 1.5641207 0.77443498
0.0064817942 1.5664358 0.70336181
-0.0060787979 1.5622144 0.63214785
-0.01909413 1.5085466 0.55834132
-0.030747076 1.5631193 0.49229291
-0.043029599 1.565349 0.42265898
-0.055311918 1.5631105 0.35302529
-0.073641911 1.552644 0.24910405
-0.086110175 1.5581653 0.17841734
-0.098464638 1.5532137 0.10837432
-0.11157402 1.56833 0.034051578
-0.1241902 1.5620869 -0.037476566
-0.13762303 1.5706239 -0.11363589
-0.073820084 -0.044671915 0.24843135
-0.075834714 -0.075179704 0.23710904
-0.076701753 -0.097886913 0.23226227
-0.076879255 -0.11093884 0.23129156
-0.079394594 -0.12753108 0.21713108
-0.08092425 -0.13916683 0.2085264
-0.082765862 -0.14776437 0.19815204
-0.08487007 -0.15433942 0.18628788
-0.087388925 -0.15831076 0.17207117
-0.090838812 -0.15697607 0.15257183
-0.11716256 -0.050436839 0.0033589087
-0.11587121 -0.11071182 0.010836011
-0.11755567 -0.12737013 0.00135349
-0.11940815 -0.14309523 -0.0090821926
-0.11929026 -0.1664208 -0.0083369836
-0.1194266 -0.18770628 -0.0090340739
-0.11939967 -0.2086744 -0.0088043539
-0.11921351 -0.22928575 -0.007670843
-0.11918442 -0.24862565 -0.0074282936
-0.11933234 -0.26684707 -0.0081898784
-0.11919235 -0.28523403 -0.0073175533
-0.11956286 -0.31061003 -0.0093025109
-0.11944932 -0.32776722 -0.0085796006
-0.11972487 -0.34391075 -0.010064432
-0.11955991 -0.36044523 -0.0090493457
-0.1196294 -0.37638146 -0.0093643842
-0.11959921 -0.39221603 -0.00911358
-0.11964289 -0.40780655 -0.0092818188
-0.1195909 -0.42332411 -0.0089069009
-0.11968245 -0.44635159 -0.0093062501
-0.11974288 -0.46167234 -0.0095687071
-0.1197105 -0.47699305 -0.0093044043
-0.11975852 -0.49236488 -0.0094960686
-0.11971293 -0.50776893 -0.009156337
-0.11991709 -0.52346468 -0.010233602
-0.12002327 -0.53929245 -0.01075463
-0.12008041 -0.56334937 -0.010956176
-0.12010283 -0.57969284 -0.011001337
-0.12035158 -0.59674704 -0.012330402
-0.12032158 -0.61371148 -0.012077562
-0.12034058 -0.63117903 -0.012102414
-0.12071948 -0.65000337 -0.014169122
-0.12017299 -0.67647243 -0.010942871
-0.12052564 -0.69687581 -0.012859624
-0.12072224 -0.7176705 -0.013890638
-0.1212001 -0.74040806 -0.016516937
-0.12000596 -0.76910686 -0.0096135829
-0.12046867 -0.79447359 -0.012152663
-0.11923029 -0.8134594 -0.0050401469
-0.11955738 -0.84087139 -0.0068086018
-0.1196413 -0.86882216 -0.0071967151
-0.10460271 -0.87839168 0.078426257
-0.095964298 -0.84542155 0.12751691
-0.095969848 -0.87425888 0.12757465
-0.092385888 -0.87534857 0.14799333
-0.088577345 -0.87296069 0.16968535
-0.085118681 -0.87215209 0.18939246
-0.081969805 -0.87310839 0.20734219
-0.078936316 -0.87420011 0.22463718
-0.076077737 -0.8764022 0.24094005
-0.29664078 -4.6853595 -1.0091859
-0.28156775 -5.2295804 -0.92331886
-0.26893222 -9.6593266 -0.84962028
-0.22344378 -10.263709 -0.59115225
-0.013568606 -10.754061 0.60041213
0.051403347 -11.037094 0.96933115
0.11182205 -10.776187 1.3122029
0.1780811 -10.921017 1.6882573
0.24131081 -10.869804 2.0469627
0.26945958 -4.9389124 2.2045619
0.43971956 -6.1823149 3.1709912
0.44728273 -5.7909617 3.2137997
0.46226424 -5.5190763 3.2987385
0.46007201 -4.938314 3.2861736
0.47613358 -4.7456527 3.377275
0.46813899 -4.3811946 3.3318532
0.4679791 -4.1078615 3.3309114
0.4409084 -3.678829 3.1772604
0.47098789 -3.6465404 3.3479476
0.46210632 -3.3804357 3.2975407
0.46573704 -3.1085811 3.3181481
0.46098086 -2.9053819 3.2911706
0.46302527 -2.7462239 3.3027875
0.46292931 -2.5857618 3.3022647
0.43576577 -2.3281002 3.1481647
0.46473145 -2.2950292 3.312546
0.45507684 -2.1235123 3.2578015
0.45119217 -1.9802554 3.2357991
0.45186836 -1.7953002 3.2396994
0.44925055 -1.6692691 3.2248938
0.44750538 -1.5498843 3.2150419
0.44673106 -1.4362737 3.2107012
0.4465161 -1.3266522 3.2095366
0.44541058 -1.2180541 3.2033219
0.44883797 -1.1179339 3.2228265
0.4037675 -0.96374738 2.9671912
0.45221922 -0.86387908 3.2421691
0.44398281 -0.75745302 3.1955099
0.44096234 -0.65720195 3.1784444
0.43507233 -0.55806971 3.145102
0.43153191 -0.46153992 3.1250913
0.012178171 -0.42128673 0.7462939
0.011370605 -0.41031525 0.74179167
-0.0011084421 -0.39872858 0.67119396
-0.0023187816 -0.39588848 0.66436726
-0.0037393577 -0.37991127 0.65646791
-0.0047205384 -0.3679775 0.65102196
-0.005333323 -0.35512951 0.64766651
-0.0057076951 -0.34631583 0.64562362
-0.005303924 -0.34003624 0.64795518
-0.0052943761 -0.32411429 0.64813197
-0.0053248126 -0.30729231 0.64808273
-0.0036306407 -0.28823271 0.65777826
0.0057205986 -0.19799079 0.71109331
0.0018304036 -0.20043732 0.68910491
-0.00039825507 -0.19475417 0.67654479
-0.0019411343 -0.18517959 0.66787654
-0.0029880011 -0.17206489 0.6620236
-0.0045504021 -0.15096073 0.65329021
-0.004581504 -0.12741598 0.65320438
0.15200467 1.6768852 1.5425234
0.13639787 1.6856029 1.4540968
0.11518542 1.7181368 1.3339347
0.087009273 1.5259708 1.1741148
0.073116601 1.5220747 1.0954065
0.060346968 1.5322706 1.0230763
0.048092466 1.5503973 0.95367301
0.035474651 1.559216 0.88220489
0.022633307 1.5585603 0.80946451
0.010061775 1.5611563 0.73825693
-0.008710986 1.5592375 0.6319229
-0.021476986 1.5255157 0.5595926
-0.033359688 1.5611343 0.4923135
-0.045640759 1.5553666 0.4227511
-0.057941638 1.5641311 0.35308573
-0.070165217 1.5554399 0.28384858
-0.088932566 1.5661365 0.17755866
-0.10115553 1.5542362 0.1083241
-0.11431731 1.5703323 0.033783525
-0.12695691 1.5640793 -0.037809532
-0.14027943 1.5697057 -0.11326738
-0.076781392 -0.039121617 0.24611694
-0.077352248 -0.07010819 0.24293986
-0.078219391 -0.093647316 0.23808724
-0.079431705 -0.11091036 0.23128124
-0.080833808 -0.12476594 0.22340113
-0.082393967 -0.13622831 0.21462618
-0.084157661 -0.14543962 0.20469847
-0.0872126 -0.15588385 0.18748742
-0.089612104 -0.16057633 0.17395705
-0.092818543 -0.16065793 0.15585385
-0.11910269 -0.039488185 0.0070082135
-0.12040386 -0.074872963 -0.00027536973
-0.11885446 -0.10873977 0.0085665267
-0.12068714 -0.12486301 -0.0017581712
-0.12227307 -0.1418743 -0.010684464
-0.1220159 -0.16581614 -0.0091643343
-0.12200632 -0.18766059 -0.0090469876
-0.12197734 -0.20862855 -0.0088192625
-0.12209577 -0.22830085 -0.0094268294
-0.12175783 -0.24857955 -0.0074471491
-0.12190383 -0.26680073 -0.0082105752
-0.12176165 -0.2851876 -0.0073401728
-0.12245779 -0.30991203 -0.011190093
-0.12217962 -0.32742786 -0.0095485523
-0.12211931 -0.34412232 -0.0091421613
-0.12211975 -0.36039788 -0.0090802209
-0.12201649 -0.37652475 -0.0084304232
-0.12215439 -0.39216834 -0.0091481898
-0.12202331 -0.40788054 -0.008340857
-0.12231416 -0.42318889 -0.0099263787
-0.12216517 -0.43864879 -0.0090179145
-0.12209574 -0.45397982 -0.0085609397
-0.12225144 -0.47694436 -0.0093496833
-0.12229658 -0.49231601 -0.0095433844
-0.12224796 -0.50771993 -0.0092057362
-0.12244909 -0.52341539 -0.010285124
-0.12238108 -0.53906929 -0.0098384721
-0.12255549 -0.55518216 -0.010767549
-0.12279506 -0.57169598 -0.012066985
-0.12253588 -0.59611207 -0.010508683
-0.12266979 -0.61333555 -0.011210717
-0.1230108 -0.63148683 -0.013088753
-0.12306351 -0.64956176 -0.013332236
-0.12266977 -0.67642152 -0.011016606
-0.12286415 -0.6963551 -0.012066837
-0.12320865 -0.71761894 -0.013970559
-0.12353358 -0.7398262 -0.015765049
-0.12339295 -0.76134568 -0.014918963
-0.12293383 -0.79442161 -0.012244564
-0.12128463 -0.81151992 -0.0028391704
-0.12161578 -0.83885139 -0.0046781437
-0.1217038 -0.86672413 -0.0051396703
-0.11206107 -0.88223785 0.049707379
-0.10770982 -0.86840689 0.074438512
-0.099216372 -0.83775824 0.12271974
-0.098492399 -0.875027 0.12688455
-0.094802812 -0.87530953 0.14788081
-0.091174982 -0.8746196 0.16852812
-0.087789372 -0.87471467 0.18780069
-0.084539771 -0.87484044 0.20630176
-0.081340179 -0.8741678 0.22452031
-0.29497603 -4.202436 -0.99174726
-0.2938779 -4.6152415 -0.98611176
-0.26908502 -9.6760235 -0.85340142
-0.22052425 -10.129336 -0.57880253
-0.10591582 -10.689379 0.07007546
-0.012687928 -10.744067 0.59854245
0.050183591 -10.791472 0.95491123
0.11461975 -10.887836 1.320066
0.18003449 -10.962818 1.6915416
0.24350117 -10.911438 2.0516875
0.26481578 -4.8871517 2.1831274
0.44894275 -6.2976198 3.2252626
0.44913253 -5.818594 3.227216
0.45408788 -5.4457293 3.2560213
0.44326079 -4.9682784 3.1954894
0.4661423 -4.8324432 3.3255682
0.46959415 -4.4014282 3.3459806
0.46858498 -4.1213403 3.340802
0.43847623 -3.672287 3.1708705
0.47088253 -3.6548519 3.3547635
0.46466365 -3.4040318 3.319989
0.45733911 -3.1665649 3.2789216
0.45448399 -2.9692168 3.2631342
0.46131495 -2.7464819 3.3023565
0.46341738 -2.5954239 3.3146048
0.43405601 -2.3289011 3.1486151
0.46597251 -2.3064144 3.3297207
0.45677754 -2.1357634 3.2779329
0.45107558 -1.9861367 3.245918
0.44638047 -1.8470148 3.219595
0.44831681 -1.6722484 3.2309697
0.44590244 -1.5512018 3.2175477
0.44395086 -1.4352121 3.2067411
0.44286615 -1.3242602 3.2008402
0.44473559 -1.2206223 3.2116773
0.44611901 -1.1174983 3.2197561
0.40046731 -0.96281767 2.9612243
0.44667447 -0.86147273 3.2234819
0.44409388 -0.75915098 3.2090781
0.4381083 -0.657224 3.1753669
0.43357894 -0.55847216 3.1499059
0.42966703 -0.46176508 3.1279414
0.0095133903 -0.42130131 0.74624062
0.0085279075 -0.41048571 0.7407673
-0.0034361125 -0.40292388 0.67314804
-0.0050611733 -0.39134806 0.66409981
-0.0063583315 -0.38438091 0.65685457
-0.0074336538 -0.36798316 0.65097839
-0.0077279345 -0.35913706 0.64942068
-0.0080807675 -0.35028827 0.64753079
-0.0085687302 -0.33655348 0.64493018
-0.008179538 -0.32463434 0.64725
-0.0082126763 -0.30785638 0.64723051
-0.0066602994 -0.28941384 0.65615094
-0.00056382141 -0.19836132 0.69120526
-0.0029310347 -0.19332233 0.67788899
-0.0044878325 -0.18369937 0.66917157
-0.0057719243 -0.17207031 0.66200203
-0.0065035741 -0.15588665 0.65796864
-0.0076763676 -0.12987784 0.65149254
-0.0061403927 -0.09010388 0.66033602
0.15087669 1.6953526 1.5523643
0.13378198 1.6882324 1.4555233
0.11906686 1.7034247 1.3721926
0.089909442 1.5085975 1.2068021
0.070765048 1.5305461 1.0984101
0.058040127 1.5427574 1.0263622
0.045358229 1.5532683 0.95455688
0.032640573 1.5601693 0.88254589
0.020053452 1.5673792 0.81127536
0.0069915191 1.5542324 0.7372967
-0.0052581541 1.5651442 0.66794264
-0.023934688 1.5614316 0.56218374
-0.036241367 1.5631419 0.49249977
-0.048538882 1.5653805 0.42286843
-0.060786456 1.5551556 0.35351101
-0.073179029 1.5644423 0.28334665
-0.085515849 1.5612519 0.21348923
-0.098183677 1.5694389 0.141764
-0.11683393 1.5585949 0.036152482
-0.12983677 1.5631522 -0.037473932
-0.1427063 1.5591329 -0.11035041
-0.14743152 1.3984309 -0.13716389
-0.080040425 -0.03449234 0.24418896
-0.08042226 -0.068268746 0.24210116
-0.08114633 -0.093620226 0.23807926
-0.082362682 -0.11088284 0.23127224
-0.083768897 -0.12473793 0.22339137
-0.085333243 -0.13619974 0.21461584
-0.087101191 -0.14541043 0.20468771
-0.089116275 -0.15253027 0.19336005
-0.092454858 -0.1613113 0.17457888
-0.095545024 -0.16211203 0.15716079
-0.12244133 -0.06602937 0.0049927896
-0.12061384 -0.10206863 0.015432793
-0.1226312 -0.11734972 0.0040886034
-0.1244122 -0.1335979 -0.0059158858
-0.12529856 -0.16465501 -0.010805669
-0.12559521 -0.18549822 -0.012397038
-0.12528272 -0.20758608 -0.010535521
-0.12525867 -0.22778909 -0.010307763
-0.12524089 -0.24722227 -0.010114829
-0.12492359 -0.26675883 -0.0082236966
-0.12510885 -0.28439653 -0.0091801481
-0.12501082 -0.30220392 -0.0085305013
-0.1249564 -0.31943733 -0.0081274714
-0.12533122 -0.34382203 -0.010109217
-0.12533875 -0.36013159 -0.010056096
-0.12524241 -0.37629277 -0.0094138579
-0.12521559 -0.39212731 -0.009165341
-0.12509033 -0.40783969 -0.0083583863
-0.12521419 -0.42323533 -0.0089631602
-0.12524427 -0.43860817 -0.0090360576
-0.12535469 -0.45392182 -0.0095640067
-0.12554595 -0.46926221 -0.010549922
-0.12539782 -0.4922758 -0.0095623219
-0.12518297 -0.50757539 -0.0082454178
-0.12556368 -0.52337539 -0.010304364
-0.12550247 -0.53902942 -0.0098578334
-0.12568396 -0.55514234 -0.010786997
-0.12576227 -0.57141441 -0.011130915
-0.1256825 -0.59607261 -0.010528265
-0.12565984 -0.61297065 -0.010299165
-0.12601097 -0.63108915 -0.012188907
-0.12623394 -0.64952254 -0.013351786
-0.12632534 -0.66824096 -0.013768596
-0.12605545 -0.69631624 -0.012086225
-0.12610832 -0.71658027 -0.012284026
-0.12689111 -0.74031729 -0.016619418
-0.12646854 -0.76074797 -0.014121503
-0.12701552 -0.78603679 -0.01711957
-0.12425698 -0.81022382 -0.0013269616
-0.12460736 -0.83750176 -0.0032098715
-0.11201236 -0.87516582 0.068606213
-0.10215992 -0.83539659 0.12456257
-0.10280786 -0.86809438 0.12099423
-0.099432647 -0.87116641 0.1402325
-0.094655752 -0.87628788 0.16746913
-0.091090269 -0.87468803 0.187786
-0.08784502 -0.87481475 0.20628755
-0.084649608 -0.87414312 0.22450656
-0.2982834 -4.1874146 -0.98610306
-0.29548237 -4.5678835 -0.97007751
-0.2786791 -9.822506 -0.87365508
-0.22539775 -10.058663 -0.5714376
-0.050268594 -10.735612 0.42186764
0.043463662 -10.761523 0.95344943
0.10780547 -10.866943 1.3183542
0.17341155 -10.951942 1.6902987
0.23463117 -10.818652 2.0372839
0.4454875 -6.3121042 3.2321749
0.45203236 -5.8990483 3.2692833
0.45160028 -5.4648857 3.2668502
0.45971736 -5.1591997 3.3128867
0.46971869 -4.8988748 3.3696091
0.45719278 -4.4818649 3.2986434
0.46658427 -4.1354327 3.3519409
0.434286 -3.6701183 3.1689153
0.46872014 -3.6651938 3.364146
0.46312764 -3.4168611 3.3325012
0.45696422 -3.1843963 3.2976239
0.45217571 -2.9758744 3.2705424
0.45225227 -2.8041866 3.2710388
0.4529579 -2.6446395 3.2751029
0.43119529 -2.3312275 3.1518538
0.46196979 -2.3043897 3.3263514
0.4561179 -2.1448574 3.2932539
0.44866875 -1.9890448 3.2511051
0.4440279 -1.8497344 3.224875
0.44228998 -1.7243611 3.2150996
0.44045103 -1.6032758 3.2047534
0.44274667 -1.4392061 3.2178819
0.44154778 -1.3275622 3.2111666
0.44161779 -1.2207071 3.2116442
0.44336715 -1.1180326 3.2216415
0.4108749 -0.97797304 3.0375602
0.41817185 -0.88906056 3.0790031
0.44201937 -0.80990821 3.2142558
0.43446955 -0.706056 3.1715503
0.42975336 -0.55837524 3.1449509
0.42707816 -0.46184182 3.1298771
0.42486256 -0.36628586 3.1174097
0.0069552739 -0.42683429 0.74882835
0.0056812395 -0.41033122 0.74172533
0.0060042185 -0.39829335 0.74363524
-0.0061090123 -0.40247414 0.67505306
-0.007897743 -0.39107233 0.66503233
-0.009191636 -0.38407171 0.65777707
-0.010136694 -0.37204263 0.65253884
-0.010710277 -0.35913679 0.64940655
-0.01140832 -0.3463206 0.64556903
-0.01153759 -0.33655331 0.64491606
-0.010876616 -0.32913455 0.64870304
-0.010845692 -0.31240356 0.6489988
-0.010170139 -0.29176509 0.65294969
-0.0029830271 -0.19558451 0.6940248
-0.0056049419 -0.19188507 0.67924315
-0.0072823483 -0.18295746 0.66981655
-0.0086779231 -0.1720714 0.66198808
-0.009404243 -0.15588772 0.65795469
-0.010768274 -0.1315171 0.6503489
-0.010160037 -0.1001687 0.65388519
0.13134119 1.6909103 1.4568068
0.11053245 1.6275866 1.3389294
0.087536596 1.5132205 1.2086368
0.073678903 1.5116795 1.1301787
0.055538952 1.5465734 1.027506
0.042696241 1.5542264 0.95480442
0.029969674 1.5611374 0.88276094
0.017042644 1.55854 0.80957752
0.0042740465 1.5542287 0.73729146
-0.008104899 1.5591865 0.66721749
-0.02049114 1.5606433 0.59710085
-0.032896429 1.5536079 0.52687269
-0.051269609 1.5533823 0.42286518
-0.063533843 1.557157 0.35344088
-0.075770535 1.552475 0.28416905
-0.088256687 1.5612563 0.213489
-0.10068467 1.5595413 0.14313412
-0.11371081 1.5740076 0.0693959
-0.12632 1.5680722 -0.0019881013
-0.14537019 1.5572093 -0.10983833
-0.14943047 1.3840941 -0.13284466
-0.083518378 -0.025284844 0.2403312
-0.083438784 -0.065547764 0.24084185
-0.084018581 -0.092727371 0.23762108
-0.08523728 -0.11000651 0.23078358
-0.08655604 -0.12473638 0.22337998
-0.088022433 -0.13703704 0.21514066
-0.089782014 -0.14622833 0.20524098
-0.091788806 -0.15332773 0.19394106
-0.094084248 -0.15851317 0.18100592
-0.096935607 -0.16046979 0.16492145
-0.10252905 -0.15731579 0.13333645
-0.12468389 -0.095505871 0.007990472
-0.12744075 -0.13239299 -0.007499625
-0.12726757 -0.15644333 -0.006453427
-0.12833589 -0.18549773 -0.012408559
-0.12816951 -0.20708586 -0.011400135
-0.12814394 -0.22731966 -0.011189352
-0.12796816 -0.24722268 -0.01012719
-0.12764618 -0.26675954 -0.0082363421
-0.12766561 -0.28477219 -0.0082800137
-0.12772387 -0.3022052 -0.0085436814
-0.12766457 -0.31943887 -0.0081409244
-0.1278242 -0.3358961 -0.0089789871
-0.12770906 -0.35248011 -0.0082598524
-0.12748662 -0.36885849 -0.0069325222
-0.12790079 -0.39213017 -0.0091800261
-0.12794265 -0.40772092 -0.0093507906
-0.12806174 -0.42315152 -0.0099594602
-0.12791325 -0.43861189 -0.0090516023
-0.12784439 -0.45394337 -0.0085951947
-0.12785628 -0.46923178 -0.0085967565
-0.12812245 -0.48461542 -0.010039812
-0.12812123 -0.50002342 -0.0099674556
-0.12819834 -0.51557589 -0.010339428
-0.12813362 -0.53903508 -0.0098754093
-0.12830894 -0.55514824 -0.010804915
-0.12838094 -0.57142061 -0.011149184
-0.1285149 -0.58810568 -0.011845089
-0.12842649 -0.61330307 -0.011249504
-0.12844446 -0.63073808 -0.011289095
-0.12850289 -0.6487487 -0.01155871
-0.12859216 -0.66740364 -0.012003881
-0.12885644 -0.68722183 -0.013442161
-0.12897247 -0.71758866 -0.0140114
-0.12915193 -0.7392664 -0.014971071
-0.12858427 -0.75907964 -0.011694587
-0.12913327 -0.78428304 -0.01475243
-0.12782502 -0.80266607 -0.0072774654
-0.1278501 -0.82797861 -0.0073661827
-0.10443216 -0.83385324 0.1257771
-0.1051839 -0.86730695 0.1215611
-0.10220558 -0.87363499 0.1385116
-0.098365381 -0.8717131 0.16035479
-0.094968781 -0.87218791 0.17968136
-0.091624036 -0.87180293 0.19871482
-0.088337339 -0.87057978 0.21742001
-0.30766916 -4.1081281 -1.0286162
-0.29284114 -4.4932117 -0.94484514
-0.29286918 -5.0039682 -0.94543213
-0.22627057 -10.067636 -0.57259274
-0.16656539 -9.9843206 -0.23406802
-0.11293851 -10.709352 0.069207959
-0.0507604 -10.755624 0.421619
0.012529202 -10.890295 0.78024173
0.10756394 -10.876906 1.3189588
0.14010109 -10.911146 1.5031756
0.23370264 -10.79889 2.0339541
0.29858315 -10.806158 2.4017761
0.38156357 -7.6978588 2.8756125
0.27206951 -4.853488 2.2580509
0.44880313 -6.3669095 3.2583671
0.45060864 -5.899024 3.2691565
0.44843596 -5.4484062 3.2573795
0.469854 -5.2668815 3.3790424
0.46779963 -4.8963618 3.3678541
0.45855185 -4.5061121 3.3159125
0.4640983 -4.2639894 3.3476753
0.42453292 -3.7312992 3.1240354
0.46412078 -3.6483455 3.3486249
0.46342194 -3.4295642 3.344965
0.45563644 -3.1877811 3.3011601
0.45437163 -2.9968452 3.2942634
0.45197248 -2.8123434 3.2809308
0.45352927 -2.6560497 3.2899921
0.44399393 -2.4624627 3.2362196
0.45541546 -2.2884643 3.3012531
0.45576373 -2.1508324 3.3034453
0.44893545 -1.9965321 3.2649772
0.44337609 -1.8540938 3.2336895
0.44179988 -1.7288109 3.2249613
0.43899849 -1.6051244 3.2092869
0.43825209 -1.490279 3.2052517
0.43957329 -1.328122 3.2130237
0.43946031 -1.2209408 3.2125711
0.44136277 -1.1184572 3.2235382
0.42744347 -0.99913746 3.1448417
0.401546 -0.87604719 2.9982545
0.43893495 -0.8093949 3.2103291
0.41734523 -0.69861692 3.0881467
0.42956987 -0.60736573 3.1576109
0.42428023 -0.46181709 3.1278961
0.42204994 -0.36633101 3.1154315
0.005028279 -0.42652887 0.75175428
0.0037323453 -0.41572282 0.74449658
0.003384308 -0.3984921 0.74265689
-0.0084139444 -0.39753598 0.67589778
-0.0099648507 -0.39512819 0.66714776
-0.010848444 -0.39190811 0.66218108
-0.012152807 -0.37579688 0.65495795
-0.012588938 -0.37205181 0.65252811
-0.013011901 -0.36357015 0.65021628
-0.013668821 -0.35073557 0.64662135
-0.013399659 -0.34496805 0.64819145
-0.013898483 -0.32567346 0.64553791
-0.013596798 -0.31350183 0.64733762
-0.012685195 -0.29817477 0.6525979
-0.003889516 -0.19635029 0.70287007
-0.0078391694 -0.19045508 0.68060416
-0.009642465 -0.18222308 0.67046845
-0.011043761 -0.17131421 0.66261423
-0.011990324 -0.15668458 0.65734166
-0.01255386 -0.13803776 0.65424448
-0.013023823 -0.10353213 0.65173352
0.13059439 1.714281 1.4680439
0.10563438 1.5992687 1.3265194
0.085101031 1.5169282 1.2101213
0.071696915 1.5229537 1.1342299
0.058819287 1.5336444 1.0613278
0.046204951 1.5464083 0.98992056
0.033574093 1.5565524 0.9184168
0.014715023 1.569331 0.81165308
0.0016671418 1.5571842 0.7377612
-0.01085454 1.5562003 0.66686428
-0.023026453 1.5705957 0.59796697
-0.035489526 1.563584 0.52739567
-0.047800772 1.5640591 0.45769337
-0.06007234 1.5550649 0.38820547
-0.078446336 1.5524608 0.28417489
-0.090785064 1.553285 0.21431741
-0.10328475 1.5565544 0.14355046
-0.11611082 1.5651273 0.070939444
-0.12895443 1.5670755 -0.0017782589
-0.14176945 1.5634091 -0.074340194
-0.15020828 1.4686184 -0.12219931
-0.08688622 -0.013332628 0.23532669
-0.085990645 -0.064656079 0.24042222
-0.085516438 -0.087720759 0.24312265
-0.086714216 -0.10579086 0.23639023
-0.087993823 -0.12127038 0.22919686
-0.090491556 -0.13705206 0.21513717
-0.092249863 -0.1462435 0.20523757
-0.094150916 -0.15414174 0.19453032
-0.096440785 -0.15930589 0.18162233
-0.099172935 -0.16199504 0.16621029
-0.10451131 -0.16020958 0.13606961
-0.12859915 -0.088306859 -0.00018686186
-0.12799008 -0.11673723 0.0033101551
-0.13004696 -0.13180953 -0.0082884179
-0.13001713 -0.15531446 -0.0080690235
-0.13008901 -0.17730276 -0.0084245121
-0.12998903 -0.19893508 -0.0078054233
-0.13002573 -0.21919975 -0.0079595409
-0.12991109 -0.23914936 -0.0072556734
-0.12996414 -0.2579028 -0.007500811
-0.13060035 -0.28366661 -0.011020885
-0.1301734 -0.30222359 -0.0085453168
-0.13027769 -0.31914821 -0.0090789683
-0.13027047 -0.33591452 -0.0089803692
-0.13032238 -0.35225654 -0.0092166048
-0.13009977 -0.36866891 -0.0078968713
-0.13028544 -0.38433203 -0.0088904621
-0.13020207 -0.40009108 -0.0083592022
-0.1301938 -0.41561317 -0.0082534226
-0.13035032 -0.43863031 -0.0090519972
-0.13045391 -0.45394427 -0.0095800674
-0.13046457 -0.46926758 -0.0095814811
-0.13038231 -0.48458159 -0.0090562524
-0.13072647 -0.50012892 -0.010948162
-0.13062935 -0.51559436 -0.010338898
-0.13078083 -0.53137606 -0.011139077
-0.13066281 -0.54708886 -0.010411769
-0.1304709 -0.57095534 -0.0092367828
-0.13094082 -0.5881241 -0.011843591
-0.13079832 -0.60468161 -0.010978532
-0.13103721 -0.62235624 -0.012276483
-0.13131453 -0.64066869 -0.013793109
-0.13085575 -0.66699952 -0.011108731
-0.131431 -0.68769425 -0.014316765
-0.13184614 -0.70885986 -0.016617969
-0.13068542 -0.73610568 -0.0099562593
-0.1307123 -0.75797981 -0.010057699
-0.1315479 -0.78430152 -0.014748167
-0.1299651 -0.80145317 -0.0057207206
-0.12986359 -0.8260687 -0.0050978693
-0.13032709 -0.85505694 -0.0076826192
-0.10640764 -0.83076102 0.12826227
-0.1068638 -0.86173302 0.12571658
-0.10481516 -0.8752892 0.13738832
-0.10105954 -0.87424469 0.1587522
-0.097468928 -0.87306035 0.17918099
-0.094203107 -0.8735671 0.1977669
-0.090984561 -0.87326741 0.21608576
-0.30487895 -4.0358448 -0.99979758
-0.30456185 -4.4251747 -0.99838829
-0.29343823 -4.9724445 -0.93588114
-0.25761145 -10.057504 -0.73852021
-0.17134382 -10.211787 -0.24965134
-0.11428732 -10.59244 0.073348403
-0.052802343 -10.735635 0.421731
0.0097347246 -10.769373 0.77620703
0.073675506 -10.871259 1.138557
0.13710475 -10.859423 1.4979417
0.20153174 -10.876368 1.8631409
0.2676965 -10.922365 2.2381549
0.27186662 -4.8810806 2.2696486
0.43410891 -6.4832945 3.1873066
0.43503058 -5.9842434 3.1932197
0.45902216 -5.5756712 3.3298163
0.47409517 -5.3261986 3.4156318
0.47958419 -5.0156989 3.4472034
0.46019205 -4.5368075 3.3379624
0.45766369 -4.2332063 3.3240864
0.42035127 -3.7182302 3.113323
0.45421016 -3.7130427 3.3053155
0.45376182 -3.4909232 3.3031299
0.45727757 -3.2088723 3.3235276
0.45494848 -3.0112267 3.3106532
0.45113987 -2.8192136 3.2893867
0.45231387 -2.6608109 3.2963197
0.44920772 -2.4928112 3.2790058
0.44849381 -2.3429592 3.2752285
0.45031846 -2.2087848 3.2858205
0.44262505 -2.0490394 3.2424972
0.44382322 -1.8619292 3.2496471
0.43942806 -1.7287544 3.2249858
0.43662024 -1.6050675 3.2093098
0.43341771 -1.4850907 3.1913924
0.43284309 -1.3742926 3.1883588
0.43503654 -1.2707608 3.2010057
0.43690982 -1.1679348 3.2118375
0.43083239 -1.0055676 3.1777227
0.39741111 -0.8744269 2.9885402
0.43737563 -0.80994266 3.2152274
0.41768637 -0.69995284 3.1038523
0.42678928 -0.60719925 3.1556516
0.42160925 -0.50967985 3.1265004
0.41966307 -0.41402191 3.1156769
0.0014492598 -0.41558737 0.74547738
0.0006054556 -0.40469685 0.74078894
-0.010154528 -0.40613857 0.679878
-0.012472559 -0.39053607 0.66691953
-0.013533178 -0.38768023 0.66095155
-0.013937014 -0.38377789 0.65870768
-0.015175083 -0.36762372 0.6518715
-0.015627097 -0.35915226 0.64940065
-0.01623198 -0.34099561 0.64615631
-0.016251678 -0.33064982 0.64613855
-0.015760876 -0.31804183 0.64901745
-0.015296754 -0.29875436 0.65179425
-0.0056052785 -0.19226278 0.70719236
-0.0091260755 -0.19295087 0.68731511
-0.011154987 -0.18593071 0.67590469
-0.012528742 -0.17486118 0.66821331
-0.014472473 -0.15669033 0.65734106
-0.015139581 -0.1388526 0.65366453
-0.014907503 -0.11179659 0.65509742
0.13466388 1.6963402 1.5056801
0.10340148 1.6038545 1.3284757
0.091277003 1.6421111 1.2598879
0.069055334 1.5220259 1.1338474
0.056663323 1.541262 1.0637165
0.043715198 1.5483377 0.99041647
0.030904176 1.5546162 0.91789234
0.017924989 1.5523497 0.84440297
-0.0010015349 1.5542188 0.73724961
-0.013170618 1.5690982 0.66837573
-0.025884427 1.5526565 0.59637022
-0.038079213 1.5635735 0.52734482
-0.050385315 1.5660458 0.45767647
-0.06269177 1.5640477 0.38799971
-0.074919231 1.5545911 0.31876004
-0.093467757 1.5582346 0.21375008
-0.10585146 1.5555382 0.14363381
-0.1183682 1.554265 0.072765373
-0.1315465 1.5670434 -0.0018333549
-0.14431916 1.5624038 -0.074157596
-0.15606695 1.5339476 -0.14070649
-0.16865477 1.5222735 -0.21199329
-0.087846376 -0.05420037 0.2440632
-0.088171616 -0.085945852 0.24225436
-0.089297809 -0.10493096 0.23592344
-0.090495177 -0.12129384 0.22919276
-0.09208902 -0.13259913 0.22022182
-0.093685217 -0.14329132 0.2112384
-0.09654697 -0.15496565 0.19511959
-0.098722577 -0.16088615 0.18285847
-0.10133142 -0.16428596 0.16814514
-0.10537339 -0.1595922 0.14531979
-0.13296683 -0.13003939 -0.010653017
-0.13266177 -0.15477633 -0.0088801896
-0.13273612 -0.17679378 -0.0092541687
-0.1327875 -0.19794072 -0.0094967382
-0.13267733 -0.21875088 -0.0088232355
-0.13271965 -0.23827744 -0.0090123229
-0.13261969 -0.25751638 -0.0083945012
-0.13238101 -0.27643472 -0.0069899941
-0.13249426 -0.29392532 -0.0075783082
-0.13277324 -0.31918505 -0.0090780705
-0.13293242 -0.33567584 -0.0099255266
-0.13264801 -0.35253561 -0.0082590394
-0.13276339 -0.36849818 -0.0088574924
-0.13277844 -0.38436943 -0.0088872742
-0.13269445 -0.40012863 -0.0083554434
-0.13268557 -0.41565087 -0.0082490966
-0.13292818 -0.43095076 -0.0095681567
-0.13294411 -0.45398238 -0.0095743192
-0.13295415 -0.46930584 -0.00957515
-0.13287127 -0.48461998 -0.0090493318
-0.13304168 -0.50008041 -0.0099596046
-0.13294455 -0.51551127 -0.0093533099
-0.13309617 -0.53125858 -0.01015764
-0.13314903 -0.5471279 -0.010402386
-0.13312458 -0.57123649 -0.010182
-0.13325819 -0.587888 -0.010885878
-0.13328186 -0.60472125 -0.010966789
-0.13351984 -0.62239605 -0.012264005
-0.1337962 -0.6407088 -0.013779863
-0.13317886 -0.6666171 -0.010201791
-0.13313688 -0.6854648 -0.0099140787
-0.1335651 -0.70647657 -0.012295078
-0.13397792 -0.72843766 -0.014590436
-0.13406987 -0.7503069 -0.01506683
-0.13346018 -0.7819916 -0.011541625
-0.13257502 -0.80210966 -0.0064764153
-0.13220243 -0.82546693 -0.0043219915
-0.13253914 -0.85375994 -0.0061961189
-0.13087428 -0.87288743 0.0032903156
-0.12527461 -0.88364124 0.035134424
-0.12236524 -0.88004088 0.051671863
-0.11032481 -0.82781994 0.12008639
-0.1090258 -0.85937154 0.12751886
-0.10738926 -0.8761422 0.13684836
-0.10362968 -0.87511611 0.15824088
-0.10003497 -0.87394917 0.17869894
-0.096764781 -0.87447244 0.19731483
-0.093620449 -0.87507915 0.2152171
-0.30396858 -3.9914417 -0.98192382
-0.30401132 -4.382051 -0.98270994
-0.30723166 -4.9125981 -1.0017318
-0.25734094 -9.9623079 -0.72653824
-0.202087 -10.1626 -0.4135662
-0.11662322 -10.699414 0.070157602
-0.054533508 -10.676654 0.42223617
0.071442083 -10.830331 1.1362602
0.13460307 -10.818599 1.4942403
0.20024522 -10.897091 1.8665441
0.26328769 -10.839548 2.2243297
0.27060732 -4.8966331 2.2764442
0.42957056 -6.4568601 3.1755862
0.43084094 -5.9644899 3.1837096
0.44712695 -5.6901088 3.2766364
0.45675617 -5.3783431 3.3318658
0.44997495 -4.9518733 3.294205
0.46178371 -4.569818 3.361954
0.46146375 -4.2803292 3.3607082
0.43515047 -3.8375874 3.2122865
0.44723305 -3.6853905 3.2811546
0.45590565 -3.5195408 3.3307021
0.44805834 -3.2701311 3.28669
0.44430819 -3.0611989 3.2658472
0.44988459 -2.8259821 3.297981
0.45178124 -2.6702857 3.3090715
0.45370579 -2.5219104 3.3203056
0.43886745 -2.3172095 3.2365623
0.44857731 -2.2122374 3.2918739
0.4419634 -2.0556769 3.2546916
0.43718743 -1.9130301 3.2279084
0.4341445 -1.7818816 3.2109327
0.43477681 -1.6071681 3.2149
0.43468609 -1.4934952 3.2146323
0.43349591 -1.3806365 3.2081256
0.43371823 -1.2730957 3.2096181
0.4344224 -1.1682725 3.2138357
0.43768886 -1.0680963 3.2325718
0.39380634 -0.92022508 2.9840326
0.43575421 -0.81065023 3.2221351
0.41936371 -0.70207965 3.1294177
0.42431262 -0.6071623 3.157671
0.41948354 -0.50960988 3.1304851
0.41736662 -0.41383064 3.1186709
-0.0014410414 -0.41571882 0.74452323
-0.0019445266 -0.40451559 0.74177921
-0.01272287 -0.40113467 0.6808244
-0.014607806 -0.39898881 0.67018974
-0.015867833 -0.39163467 0.66315258
-0.01762248 -0.37169605 0.65347105
-0.018211227 -0.36357281 0.65023929
-0.018873526 -0.35073832 0.64664346
-0.019128468 -0.34146136 0.64530408
-0.019147519 -0.33114597 0.64530241
-0.018802907 -0.31909755 0.64736319
-0.018473769 -0.30047065 0.64938903
-0.011387998 -0.1901153 0.69010848
-0.013672516 -0.18446136 0.67725533
-0.015283914 -0.17485479 0.66821992
-0.01630158 -0.16088893 0.662552
-0.01799731 -0.13965563 0.65308958
-0.018146748 -0.11593561 0.65234584
0.13259114 1.7008454 1.5077739
0.11223746 1.6500676 1.392419
0.098913863 1.6776226 1.3169409
0.066824555 1.525816 1.1350615
0.054367118 1.5441431 1.0644934
0.041362666 1.5502843 0.99082118
0.028590746 1.5575478 0.91846693
0.015925802 1.5641048 0.84671855
0.0028060947 1.5522916 0.77238995
-0.0096192285 1.5565248 0.70199925
-0.02832067 1.5506696 0.59605229
-0.040611472 1.5485963 0.52642328
-0.052782122 1.5630451 0.45747456
-0.065075308 1.5650433 0.38783082
-0.077276237 1.5525866 0.31871089
-0.089711905 1.5626168 0.24825774
-0.10212196 1.5621493 0.17795031
-0.120686 1.5532619 0.072778977
-0.13377465 1.5640875 -0.0013792206
-0.1466067 1.5614086 -0.074080616
-0.15968807 1.5598736 -0.14819635
-0.17092574 1.5212917 -0.21184941
-0.090850398 -0.051468614 0.24285685
-0.091127515 -0.084157027 0.24138944
-0.092190742 -0.10405684 0.2354615
-0.093400456 -0.12043673 0.2287024
-0.094913013 -0.13260825 0.22022501
-0.096514605 -0.14330065 0.21124266
-0.099383064 -0.1549754 0.19512501
-0.10063578 -0.15669146 0.18806995
-0.10406041 -0.16505116 0.16879754
-0.10786092 -0.16179754 0.14734045
-0.13265726 -0.1074802 0.0070321392
-0.13608016 -0.12885301 -0.012224707
-0.13607787 -0.15249901 -0.01210303
-0.13588491 -0.17572118 -0.010899577
-0.13610172 -0.19641212 -0.01202039
-0.13570727 -0.21828222 -0.0096734045
-0.13591705 -0.23738538 -0.010753845
-0.13551778 -0.257532 -0.0083788671
-0.13544901 -0.27605933 -0.0078786565
-0.1357362 -0.29322371 -0.0093972236
-0.13541645 -0.3112441 -0.0074726422
-0.13547087 -0.32804275 -0.0076701916
-0.13541521 -0.34467041 -0.0072429292
-0.13589421 -0.36830434 -0.0097918427
-0.13574913 -0.38438323 -0.0088563571
-0.13584688 -0.40000299 -0.0092977555
-0.13584854 -0.41555962 -0.0091936691
-0.13592818 -0.43096384 -0.0095313378
-0.13591421 -0.44633582 -0.0093375631
-0.13598073 -0.46165672 -0.0095997881
-0.13607998 -0.48468456 -0.0099889394
-0.13608728 -0.50009239 -0.0099137528
-0.13600068 -0.51552296 -0.0093053924
-0.13616297 -0.53127009 -0.010107623
-0.13605621 -0.54694831 -0.0093834922
-0.13619058 -0.5631097 -0.01002578
-0.13655674 -0.5799371 -0.011981348
-0.13639943 -0.60473168 -0.010906795
-0.13632306 -0.62172222 -0.010350822
-0.13645521 -0.63959491 -0.010975772
-0.13677998 -0.65851742 -0.012691273
-0.13696703 -0.67777389 -0.013624579
-0.13675348 -0.70648569 -0.012221017
-0.13688315 -0.72741652 -0.012825121
-0.13714229 -0.74977094 -0.014160824
-0.13736433 -0.77310896 -0.015284142
-0.1362417 -0.80396456 -0.0087168282
-0.1352084 -0.82418877 -0.0027223488
-0.13557176 -0.85242891 -0.0046376232
-0.13418067 -0.87289411 0.0033881192
-0.11322521 -0.85171747 0.12264612
-0.11218017 -0.87263256 0.12871234
-0.10707998 -0.87595409 0.15780801
-0.10357635 -0.87566197 0.17778872
-0.10013416 -0.87446988 0.1974197
-0.097155236 -0.87685776 0.21442875
-0.30688456 -3.9627383 -0.96999645
-0.30840081 -4.369874 -0.97778618
-0.3091397 -4.8498673 -0.98103446
-0.26195952 -9.7866545 -0.7040022
-0.21109571 -10.189514 -0.41453618
-0.1561476 -10.642688 -0.10179961
-0.0012867888 -10.749354 0.77748972
0.062633559 -10.871193 1.1405632
0.12649341 -10.890153 1.5031635
0.25708675 -10.942877 2.2437859
0.25112489 -4.9250345 2.199111
0.42659387 -5.9875555 3.1961148
0.44277331 -5.7083735 3.2874026
0.46501425 -5.5145264 3.4132183
0.44741848 -4.9794478 3.3125422
0.4528501 -4.6957259 3.3428926
0.44589365 -4.3421006 3.3028793
0.44908237 -3.9677157 3.3203936
0.44347948 -3.6927257 3.2882054
0.45434433 -3.5388653 3.3496118
0.44800434 -3.2957377 3.3133073
0.44298196 -3.0778337 3.2845216
0.44141054 -2.8919137 3.2753634
0.4408164 -2.7216275 3.2717767
0.44229606 -2.5693319 3.2799838
0.43154198 -2.30514 3.2186713
0.44912174 -2.2281141 3.318311
0.43889347 -2.0584989 3.2601075
0.43390241 -1.9147611 3.2316487
0.43188366 -1.786024 3.2200732
0.43003774 -1.6626464 3.2094891
0.43214354 -1.4958079 3.2212915
0.42788759 -1.3768486 3.1970544
0.42964327 -1.2721896 3.2069349
0.43123537 -1.1686779 3.2158923
0.43353242 -1.0671868 3.2288537
0.39057821 -0.92032778 2.9851203
0.43366417 -0.86208087 3.2294757
0.42747098 -0.70775741 3.1942656
0.42225689 -0.60745645 3.1646442
0.41799173 -0.50971371 3.1404114
0.41469854 -0.41370898 3.121696
-0.0043540499 -0.42141584 0.74531227
-0.0049861651 -0.40450278 0.74182647
-0.01506209 -0.40508324 0.68476135
-0.017671041 -0.39434296 0.6700719
-0.018948371 -0.3870815 0.6628992
-0.020628372 -0.37168652 0.65351415
-0.021210931 -0.3635636 0.65028167
-0.021864032 -0.3507295 0.64668471
-0.022266239 -0.34192234 0.6444751
-0.022125678 -0.33113769 0.64534223
-0.022364875 -0.31567463 0.64409184
-0.021235203 -0.30562291 0.65052974
-0.013943897 -0.18798663 0.69222933
-0.016355665 -0.18299177 0.67863017
-0.01797121 -0.1733389 0.66954315
-0.01921151 -0.16088285 0.66258252
-0.020132128 -0.14537896 0.65743309
-0.020193407 -0.12169067 0.65715188
0.13009694 1.7026443 1.5086287
0.11361501 1.6999303 1.4152721
0.099033363 1.7153774 1.3326814
0.07020735 1.5138338 1.169439
0.057685148 1.5315282 1.0985245
0.038614087 1.5493308 0.99052721
0.025884934 1.5575542 0.91844618
0.013214517 1.5641099 0.84669966
0.00063171831 1.5700221 0.77545089
-0.012295309 1.5585079 0.70225888
-0.024569118 1.5681779 0.63276136
-0.037594911 1.5185208 0.5590266
-0.055514093 1.5680434 0.45755357
-0.06781479 1.5600424 0.38791251
-0.08013761 1.5635686 0.31814155
-0.092495747 1.5636094 0.24817206
-0.10504583 1.5690925 0.17711243
-0.11729306 1.5571756 0.10777663
-0.13040833 1.5712883 0.033509772
-0.14936742 1.5604311 -0.073831454
-0.1620682 1.5512143 -0.1457397
-0.16612956 1.3862344 -0.16861425
-0.18773335 1.5295361 -0.2910502
-0.094170816 -0.04507881 0.24008583
-0.094103672 -0.082364537 0.24055953
-0.095012374 -0.10406207 0.23549543
-0.096219644 -0.12044214 0.22873661
-0.097729735 -0.13261384 0.22025944
-0.099328786 -0.14330642 0.21127731
-0.10104628 -0.15261278 0.20162299
-0.10312425 -0.15906158 0.18992397
-0.10572941 -0.16213487 0.17523505
-0.10995381 -0.16619219 0.1514059
-0.13798645 -0.12058788 -0.0071778228
-0.13805516 -0.14426038 -0.007483324
-0.13896446 -0.17463988 -0.012514604
-0.13873649 -0.19693512 -0.011139503
-0.13878973 -0.21732073 -0.011359637
-0.13884558 -0.23693953 -0.011595118
-0.13860105 -0.256695 -0.010128042
-0.13853194 -0.27528617 -0.0096561406
-0.13849409 -0.29323202 -0.0093619935
-0.1383329 -0.31092694 -0.0083689811
-0.13838355 -0.32775885 -0.0085776281
-0.13832372 -0.34442011 -0.0081603266
-0.13798629 -0.36111203 -0.0061694803
-0.13847478 -0.38439187 -0.0088237887
-0.13818948 -0.39252126 -0.0071678869
-0.13838862 -0.4156729 -0.0081828889
-0.13863432 -0.4309727 -0.0095006693
-0.13861349 -0.4463447 -0.0093076071
-0.13867301 -0.46166566 -0.00957058
-0.13846597 -0.47695169 -0.0083226105
-0.13858818 -0.50001436 -0.0089055337
-0.13881217 -0.50786746 -0.010139325
-0.1386497 -0.53112286 -0.0091096694
-0.1388768 -0.54714847 -0.010325934
-0.13883227 -0.56311905 -0.010002528
-0.13902196 -0.57968771 -0.011007964
-0.13885373 -0.60443211 -0.0099498425
-0.13909633 -0.62207383 -0.011257142
-0.13921651 -0.63997918 -0.011871078
-0.13937004 -0.65852708 -0.012674936
-0.13954648 -0.67778361 -0.013609752
-0.14004111 -0.6987499 -0.016350295
-0.14007221 -0.71916687 -0.016462915
-0.13953568 -0.74923629 -0.013326082
-0.13946375 -0.77139819 -0.012857228
-0.14157154 -0.8041001 -0.0247549
-0.13851467 -0.81534493 -0.0073558236
-0.13753445 -0.84976256 -0.0017108214
-0.13739485 -0.87707257 -0.00086502108
-0.12825358 -0.88079929 0.051108148
-0.11534634 -0.84936506 0.12445988
-0.11450534 -0.87183529 0.12928371
-0.11093175 -0.8728658 0.14961721
-0.10722629 -0.87126994 0.17070036
-0.10412078 -0.8738904 0.18837839
-0.31718862 -3.6074891 -1.0218508
-0.31455523 -3.8822906 -1.0071287
-0.30367389 -4.279664 -0.94575024
-0.25798786 -9.6804543 -0.69200182
-0.20950855 -10.216417 -0.41774952
-0.15317413 -10.565804 -0.098786555
-0.092154205 -10.684104 0.24697198
0.033764187 -10.882343 0.96050459
0.16197976 -10.921077 1.6874125
0.25797847 -10.880877 2.2319474
0.25052923 -4.9204412 2.1968274
0.42825341 -6.0036497 3.203618
0.44227567 -5.7023091 3.2835457
0.46097299 -5.4760141 3.3898997
0.44354194 -4.9476371 3.2917211
0.45342842 -4.7039752 3.3481307
0.44812408 -4.3637209 3.3185072
0.44691423 -4.0846429 3.3120332
0.43523079 -3.6459658 3.246383
0.45431572 -3.5446782 3.3547919
0.44876665 -3.306215 3.3236651
0.44344184 -3.0865896 3.2937889
0.44143283 -2.8983984 3.2826796
0.4420279 -2.7333817 3.2863102
0.44364509 -2.5811446 3.2957218
0.42185709 -2.3449557 3.172509
0.45062757 -2.238987 3.3358743
0.44038388 -2.0687361 3.2780483
0.43523175 -1.9238964 3.2490644
0.4319481 -1.7911508 3.2306619
0.4276776 -1.6615299 3.2066598
0.42748293 -1.5463746 3.2057521
0.42748523 -1.4347184 3.2059572
0.429432 -1.2752767 3.2172732
0.42830151 -1.1675237 3.2110486
0.43174025 -1.0676581 3.2307231
0.39162794 -0.92367852 3.0035043
0.43282658 -0.86324948 3.2372377
0.4245632 -0.75699461 3.1905642
0.42100134 -0.65670669 3.1705418
0.41595709 -0.55802602 3.1421115
0.41335374 -0.41365764 3.1276014
-0.0064977957 -0.42118895 0.74728221
-0.007479758 -0.41033918 0.74180335
-0.020004395 -0.39409935 0.67104065
-0.021058049 -0.39108807 0.66510862
-0.022975264 -0.37134272 0.65445262
-0.023423789 -0.36762524 0.65195215
-0.024379546 -0.35074368 0.64670515
-0.02479713 -0.3316516 0.64451098
-0.024163025 -0.32413635 0.64815193
-0.024533978 -0.30277085 0.64622337
-0.015886355 -0.18446471 0.69574082
-0.018676074 -0.1815424 0.68000329
-0.020416543 -0.17259727 0.67021966
-0.021664109 -0.16011851 0.66323328
-0.022697147 -0.1453916 0.65746486
-0.024098549 -0.12008791 0.64965433
0.12729482 1.7044008 1.5096538
0.11066078 1.6999063 1.4154019
0.096013129 1.7144341 1.3324264
0.067550339 1.5175482 1.1709688
0.055006538 1.5352917 1.0999252
0.042003993 1.5427699 1.026273
0.029236982 1.5513434 0.95395684
0.010321797 1.5640959 0.84681648
-0.0025270584 1.5611458 0.77402794
-0.015224033 1.5565161 0.70209938
-0.027445892 1.5681676 0.63287544
-0.040408783 1.5225021 0.559412
-0.052236643 1.5641114 0.49244127
-0.064534418 1.5583451 0.42277503
-0.082959399 1.5605682 0.3184053
-0.095308535 1.5616137 0.2484518
-0.1076711 1.5591652 0.1784198
-0.12015015 1.5581629 0.10772815
-0.13326736 1.5722706 0.033427015
-0.14591675 1.5660021 -0.038234103
-0.1586632 1.5590537 -0.1104461
-0.16318128 1.3945241 -0.13609488
-0.18939328 1.5116889 -0.28455245
-0.097083218 -0.040512908 0.23811406
-0.096732378 -0.08146739 0.24015705
-0.096544415 -0.099908613 0.24125101
-0.097803377 -0.11618251 0.23418045
-0.10027263 -0.13261476 0.22028601
-0.10177222 -0.1441361 0.21185397
-0.1035849 -0.1526131 0.20164838
-0.10566124 -0.15906158 0.18994892
-0.10804175 -0.16366653 0.17652573
-0.1112297 -0.16365696 0.15852654
-0.13972552 -0.099127799 -0.002712704
-0.1406572 -0.11996789 -0.0079291118
-0.14072643 -0.1436681 -0.0082563078
-0.14089145 -0.16584684 -0.0091255475
-0.14073505 -0.18822147 -0.0081722066
-0.14055309 -0.2096597 -0.0070731589
-0.14066626 -0.22927119 -0.007646556
-0.14111878 -0.25668967 -0.010108774
-0.14030643 -0.26805279 -0.0054687178
-0.14100845 -0.29322642 -0.0093440469
-0.14084581 -0.31092122 -0.0083516454
-0.14122738 -0.32716826 -0.010444397
-0.14100194 -0.34415528 -0.0090953223
-0.14100343 -0.36043108 -0.0090324506
-0.14090127 -0.37655815 -0.0083816983
-0.14104035 -0.39220199 -0.0090984954
-0.14091051 -0.40791443 -0.008290166
-0.14096746 -0.43103561 -0.0085045556
-0.14111952 -0.44633776 -0.0092942724
-0.14100511 -0.46165854 -0.0085727694
-0.14097163 -0.47694445 -0.0083099827
-0.14119205 -0.49235123 -0.0094867591
-0.1413179 -0.50785989 -0.010127336
-0.14134826 -0.52345109 -0.010226102
-0.14138329 -0.5471406 -0.010314643
-0.14133927 -0.56311101 -0.0099914856
-0.14152959 -0.57967949 -0.01099716
-0.14161104 -0.59644127 -0.011385427
-0.1417457 -0.61369818 -0.012075411
-0.1412444 -0.63884664 -0.0091216834
-0.14140627 -0.65729797 -0.0099660093
-0.14190395 -0.67733622 -0.012714826
-0.14224963 -0.69780171 -0.014601633
-0.14243874 -0.71865743 -0.015600552
-0.14276151 -0.74092484 -0.017357653
-0.14170139 -0.77024132 -0.011234449
-0.14201647 -0.79506272 -0.012948235
-0.14036714 -0.81218839 -0.0035198396
-0.14109302 -0.84151512 -0.0075638951
-0.13980478 -0.87636781 -0.00014723913
-0.13114128 -0.88301927 0.049141243
-0.11778065 -0.84856862 0.12507698
-0.11715216 -0.8726359 0.12871578
-0.11357573 -0.87368667 0.14907773
-0.1098671 -0.87211007 0.17019004
-0.10658507 -0.8730166 0.1888826
-0.31568429 -3.5539863 -0.99728596
-0.31647182 -3.8693728 -1.00173
-0.31651688 -4.2305284 -1.0019705
-0.30650285 -4.7366619 -0.94514626
-0.30346933 -5.2449007 -0.92795074
-0.28871995 -9.6196604 -0.84472877
-0.21315412 -10.198465 -0.41612753
-0.096295722 -10.704094 0.24672499
-0.034404021 -10.645101 0.59784329
0.02826637 -10.741541 0.95335251
0.091853425 -10.806131 1.3140666
0.15531622 -10.808938 1.6739709
0.21872181 -10.787924 2.0334523
0.25079912 -4.9696112 2.2164207
0.42003775 -6.1932487 3.1757624
0.42445508 -5.7672715 3.2009342
0.46152729 -5.5120692 3.4112353
0.44013757 -4.9451733 3.2901402
0.45214561 -4.7187738 3.3583231
0.44572964 -4.3685665 3.3220844
0.44743684 -4.1095648 3.3318834
0.42146096 -3.6880264 3.1847773
0.45018655 -3.6466882 3.3477118
0.44978851 -3.3278041 3.3456368
0.4439787 -3.1040409 3.3128264
0.4399713 -2.9048805 3.2902317
0.44103926 -2.7414398 3.2964056
0.44160116 -2.5841384 3.2997112
0.41770014 -2.3394165 3.1643498
0.44232368 -2.2898684 3.3040509
0.43607584 -2.1301475 3.2687571
0.43349844 -1.9266756 3.2543325
0.43103325 -1.7958547 3.2404828
0.42616451 -1.6643198 3.2130082
0.42421398 -1.5449961 3.2020776
0.42454764 -1.4341223 3.2040977
0.42364284 -1.3235626 3.1990986
0.42552638 -1.2199911 3.2099092
0.42709258 -1.1171591 3.2189231
0.38649708 -0.92112589 2.9889615
0.43060693 -0.86358488 3.2391939
0.42528826 -0.75903696 3.2091794
0.41758361 -0.65641415 3.1656373
0.41410476 -0.55822146 3.1460567
0.4098562 -0.46165505 3.1221135
-0.0090047223 -0.42119592 0.74728566
-0.0099861864 -0.41034618 0.74180681
-0.00966499 -0.39830825 0.74371594
-0.021966511 -0.39803153 0.67407787
-0.023179954 -0.39514056 0.66723859
-0.025041178 -0.3751263 0.65689772
-0.026226584 -0.36358407 0.65030414
-0.026545947 -0.35473529 0.64858001
-0.026571637 -0.34987313 0.64847833
-0.027057789 -0.33609229 0.64585316
-0.027245568 -0.32069963 0.6449222
-0.026844168 -0.30788025 0.64729053
-0.02556934 -0.29061294 0.65461659
-0.016685216 -0.18449046 0.70542872
-0.020835103 -0.17935671 0.6820249
-0.021937929 -0.17629169 0.67581558
-0.024180459 -0.16012682 0.66324043
-0.02521513 -0.14539993 0.65747249
-0.025781058 -0.12580736 0.65436876
-0.026158238 -0.10270883 0.65234023
0.13164052 1.6900796 1.5495673
0.10832803 1.704412 1.4175621
0.093441427 1.716251 1.3332767
0.065476969 1.5268635 1.1745725
0.052473627 1.5381089 1.1009629
0.039800413 1.552315 1.0292298
0.026654482 1.5542245 0.95480007
0.013811549 1.5582068 0.88209158
0.00093717448 1.5565634 0.80919731
-0.017893024 1.5594752 0.70259321
-0.030356228 1.559207 0.63203281
-0.042826504 1.5504254 0.56142014
-0.054981776 1.5671023 0.49263084
-0.067305259 1.5663394 0.42286265
-0.079603903 1.5631053 0.35323179
-0.091949344 1.5643926 0.28334254
-0.11046521 1.5591645 0.17851116
-0.12322575 1.5680406 0.10628062
-0.13597812 1.5693281 0.034085032
-0.14865553 1.5640574 -0.037695769
-0.16175836 1.5648547 -0.11187885
-0.16680107 1.4098309 -0.14061213
-0.17781341 1.3839952 -0.20298752
-0.098627619 -0.033625651 0.24385436
-0.098416701 -0.074667089 0.24506533
-0.099174008 -0.099020869 0.24081343
-0.10043624 -0.11531115 0.23371166
-0.10181024 -0.12907964 0.22598003
-0.10334325 -0.14044976 0.2173506
-0.10602713 -0.15342505 0.20223372
-0.10809824 -0.15985239 0.19056134
-0.11047403 -0.16443519 0.17716458
-0.11354198 -0.16514559 0.1598503
-0.11834456 -0.15666009 0.13271759
-0.14365794 -0.065533623 -0.010472879
-0.14362372 -0.09269888 -0.010245876
-0.14349326 -0.11873558 -0.0094719511
-0.14370593 -0.14190386 -0.010638742
-0.14344443 -0.16584608 -0.0091193691
-0.14343092 -0.18769087 -0.0090026828
-0.14339812 -0.20865919 -0.0087755769
-0.14335944 -0.22880132 -0.0085141798
-0.14317116 -0.24861088 -0.0074046054
-0.14331377 -0.26683244 -0.0081685148
-0.14316806 -0.28521964 -0.0072986046
-0.14322029 -0.30262002 -0.0075495313
-0.14357795 -0.3274608 -0.0095080109
-0.14334647 -0.34441444 -0.0081508197
-0.14334223 -0.36065647 -0.0080809426
-0.14340502 -0.37655872 -0.0083910143
-0.1435398 -0.39220268 -0.0091091087
-0.14340547 -0.40791523 -0.0083021093
-0.14352019 -0.42331111 -0.0089068674
-0.14360315 -0.4463388 -0.0093095498
-0.143484 -0.46165973 -0.0085894167
-0.14344569 -0.47694576 -0.0083280159
-0.14366116 -0.49235263 -0.0095062004
-0.14378195 -0.50786138 -0.010148217
-0.14363509 -0.52331352 -0.0092732087
-0.14390662 -0.53928059 -0.010771909
-0.14378427 -0.56311285 -0.010017653
-0.143801 -0.57942265 -0.010073699
-0.14387804 -0.59615099 -0.01047311
-0.14417231 -0.61370033 -0.012106568
-0.14434531 -0.63152647 -0.01305367
-0.14381614 -0.65730047 -0.010001618
-0.14399424 -0.67646205 -0.010982135
