# .PCD v0.7 - Point Cloud Data file format
VERSION 0.7
FIELDS x y z
SIZE 4 4 4
TYPE F F F
COUNT 1 1 1
WIDTH 516
HEIGHT 1
VIEWPOINT 0 0 0 1 0 0 0
POINTS 516
DATA ascii
0.036062796 -0.57545167 0.0040823864
0.14680897 -0.62424058 0.0052544009
0.14703026 -0.6070708 0.0064378078
0.074418597 -0.57474214 0.007003251
0.14736857 -0.59018582 0.0082849478
0.05855165 -0.5820812 0.0090731392
0.026352469 -0.58177865 0.0099202786
0.083016619 -0.58179581 0.0099520097
-0.15968573 -0.57393277 0.0098507414
0.14765298 -0.57387012 0.009826256
0.14787577 -0.558047 0.011017603
0.061968666 -0.5809738 0.012868787
-0.18344465 -0.57321554 0.012894018
0.013720518 -0.58070529 0.013771738
0.0056646867 -0.57300657 0.013779138
-0.053769462 -0.57207668 0.015541875
0.078426883 -0.57242429 0.015618183
0.030432768 -0.57987076 0.016581623
0.024766747 -0.57214803 0.016532449
-0.10145845 -0.5792098 0.018401895
0.057667717 -0.57161397 0.018460713
0.0090752793 -0.57911915 0.019523276
0.046775345 -0.57900351 0.019398356
0.090190277 -0.57877123 0.020402068
-0.036494318 -0.57106417 0.020352932
0.10134647 -0.53352785 0.021218952
0.14731924 -0.6338768 0.022943744
-0.095679298 -0.57818764 0.022259654
0.01774247 -0.57823187 0.022329612
-0.18673712 -0.57774132 0.024375914
0.14774747 -0.54743105 0.024884362
-0.10577136 -0.58497459 0.025262728
-0.084335767 -0.58498865 0.025279336
-0.070834592 -0.58493239 0.025295895
-0.14886706 -0.57735616 0.025091253
0.034421768 -0.5773775 0.025122287
-0.20799096 -0.58478397 0.026362821
-0.19709882 -0.58478725 0.026390776
-0.0057790494 -0.58468974 0.026184503
-0.019118533 -0.5696035 0.026056897
0.083010614 -0.56929654 0.026999068
-0.057233009 -0.58419853 0.027155824
-0.026961071 -0.58441865 0.02716971
-0.0026815089 -0.58442008 0.027182454
-0.11594115 -0.58410758 0.028114194
0.051350839 -0.58411789 0.028121307
0.14829449 -0.56147772 0.028077537
0.070384562 -0.58355892 0.029993206
0.094749652 -0.57602584 0.029851545
-0.078111328 -0.56845242 0.029807772
0.10531855 -0.53931683 0.029307423
0.00048367633 -0.58327144 0.030966856
0.0029386061 -0.58326697 0.030972417
-0.10197142 -0.58288693 0.03182146
0.14656986 -0.60552853 0.033078115
-0.020792557 -0.5824272 0.033804357
0.025267102 -0.58241272 0.033802461
0.097938031 -0.56750542 0.033689253
0.0062905489 -0.58210081 0.03470334
0.044376642 -0.56720781 0.034599882
0.14687514 -0.5453276 0.034481786
0.14707482 -0.58916265 0.035861712
0.1470255 -0.57427448 0.03549961
-0.050039053 -0.58862776 0.036786214
-0.20322429 -0.58156711 0.036698055
-0.13314216 -0.58122456 0.037589937
-0.076771513 -0.58114111 0.037485696
0.041929506 -0.58115453 0.037445206
0.058093145 -0.58118701 0.037538644
-0.087392598 -0.56647015 0.037481368
0.14740942 -0.55903381 0.037596226
0.0099823223 -0.61150849 0.038516551
0.12577963 -0.60358649 0.038699176
-0.21061096 -0.58095521 0.038567241
-0.15465905 -0.58089465 0.038448889
-0.063195266 -0.58080757 0.038442567
0.010019811 -0.58099806 0.038574517
0.079951912 -0.58092618 0.038454548
0.082448378 -0.58093625 0.038509808
0.13957131 -0.63485444 0.039405122
0.12854189 -0.62693882 0.039278068
0.13141583 -0.62691253 0.039255779
0.088133067 -0.61895192 0.039190803
0.090809032 -0.6189782 0.039282296
0.14762989 -0.6188733 0.039175667
0.069600269 -0.60319114 0.03954282
-0.12202842 -0.59541005 0.039962586
-0.076348849 -0.59536982 0.039965473
0.080207564 -0.59544694 0.039994672
0.082539931 -0.59578276 0.039120425
-0.18402722 -0.58808076 0.039850611
-0.17332055 -0.5880217 0.0397195
0.072078288 -0.58802772 0.039641485
0.12596656 -0.58803618 0.039673492
-0.041442413 -0.58778811 0.039553657
-0.0034218528 -0.58798981 0.039599344
0.050319817 -0.5879721 0.039600637
0.069620885 -0.58798301 0.039594676
-0.17875955 -0.58065331 0.039582994
-0.087065779 -0.58064371 0.039435159
0.061349947 -0.58061182 0.039439633
0.098929346 -0.57328165 0.039354313
-0.18964139 -0.56597137 0.03952767
0.11520142 -0.56591034 0.039319545
0.10169467 -0.55866599 0.039607119
0.12342095 -0.54437369 0.039310221
0.11789016 -0.63446093 0.040317014
-0.030336099 -0.61814713 0.040991671
0.085264891 -0.61858833 0.040133595
0.12047265 -0.61859399 0.040095985
0.13986619 -0.61817044 0.040990721
0.14487274 -0.61854571 0.040120147
-0.046629809 -0.61790723 0.04094889
-0.18953478 -0.6107474 0.040425334
-0.12200266 -0.61068285 0.040196504
-0.062906958 -0.61060172 0.040211342
0.077409111 -0.61076415 0.040268876
0.080232836 -0.61071944 0.040229429
0.10176247 -0.61073697 0.040318295
0.10718629 -0.61073887 0.04029521
0.13160352 -0.61071438 0.040244989
-0.13815546 -0.60291559 0.040560048
-0.041303597 -0.60265434 0.040423311
-0.024629146 -0.60287696 0.040517908
-0.0060290922 -0.60286528 0.040482063
0.018411886 -0.60288376 0.040530343
0.050457463 -0.6028384 0.040473867
0.06406863 -0.60288227 0.040565941
0.066811152 -0.60287803 0.040577553
0.091054767 -0.60289752 0.040584579
0.096603766 -0.60289103 0.040515903
0.12357787 -0.60287857 0.04050016
0.1449592 -0.60283947 0.040511988
-0.18955964 -0.59547514 0.040185962
-0.17866977 -0.59546643 0.040185336
-0.16512895 -0.59542507 0.040018972
-0.15423767 -0.59509003 0.040919598
-0.14346392 -0.59509081 0.040936965
-0.13272215 -0.59545296 0.040072639
-0.10849022 -0.59549463 0.040082235
-0.097521298 -0.59500009 0.040847778
-0.086978041 -0.59545696 0.040033855
-0.062771685 -0.59500349 0.0409109
-0.035626743 -0.59534746 0.040001519
-0.024547173 -0.59510571 0.040942147
-0.019544648 -0.59516025 0.04098586
-0.016680392 -0.59548336 0.040025499
0.0022347141 -0.59512764 0.040972538
0.026355132 -0.59547168 0.040052269
0.029042652 -0.59511644 0.040943556
0.042517431 -0.59505749 0.040856127
0.055994418 -0.59509957 0.040964898
0.05851252 -0.59541565 0.04001997
0.061439391 -0.59542501 0.04003809
0.1047501 -0.59512043 0.040960535
0.10962804 -0.59544134 0.040015373
0.13157541 -0.59544182 0.040010303
0.13401563 -0.59543973 0.04001338
-0.097577207 -0.58759612 0.040486533
-0.054874878 -0.58748615 0.040564384
-0.0085097002 -0.58775067 0.040605601
-0.0060038008 -0.58768976 0.040544037
0.012785923 -0.5877741 0.040664993
0.018435234 -0.58770841 0.040591817
0.028985806 -0.58771229 0.040580764
0.085380428 -0.5877068 0.040584285
0.093732439 -0.58770436 0.040596154
-0.15174541 -0.58031529 0.040348962
0.11241002 -0.58031476 0.040326402
0.12609133 -0.5730058 0.040295344
0.12355977 -0.57298201 0.040248077
0.14494969 -0.5729419 0.040260848
0.10467422 -0.56568313 0.040331423
0.11242046 -0.56565708 0.040284637
0.13679847 -0.56565559 0.040320296
0.13979256 -0.56563032 0.040270552
0.12882765 -0.55842745 0.040511884
0.14500734 -0.55835277 0.040489618
0.11252566 -0.55114239 0.040779959
0.11547314 -0.55113679 0.040766802
0.11804443 -0.55112994 0.040772349
0.13989544 -0.55111575 0.04076799
0.12880702 -0.54419947 0.04030823
0.11546028 -0.63406336 0.04121162
0.13688368 -0.6340676 0.041266181
0.14256558 -0.63405222 0.041254994
-0.15680405 -0.62608331 0.041035857
-0.10302804 -0.62609363 0.041043483
-0.10039682 -0.62605286 0.041007545
-0.0032091767 -0.62609941 0.0410235
-0.0002792406 -0.62612176 0.041083124
0.0022337865 -0.6261425 0.041099899
0.037175741 -0.62610912 0.041075971
0.10189154 -0.62615389 0.04114341
0.10473697 -0.62613493 0.041087806
-0.14592662 -0.6256972 0.041939922
-0.11659349 -0.62566966 0.041926213
-0.092255354 -0.62570059 0.041952454
-0.07852374 -0.62566799 0.041932441
-0.051605128 -0.62546551 0.041917767
0.070002757 -0.62570167 0.041923825
0.096841395 -0.62574375 0.041973006
0.12381524 -0.62573111 0.041958116
-0.20012574 -0.61823452 0.041171029
-0.19743174 -0.61825657 0.04118254
-0.17561962 -0.61823273 0.041176889
-0.16497266 -0.61820221 0.04104872
-0.13807938 -0.61824667 0.041082583
-0.12995467 -0.61824232 0.041088473
-0.10551562 -0.61823428 0.041078832
-0.086823434 -0.61823398 0.041063279
-0.059967518 -0.61806822 0.041008987
-0.032893807 -0.61817145 0.041054919
-0.014063833 -0.61826646 0.041077696
0.012835153 -0.61828059 0.041130006
0.015452092 -0.61827254 0.041126586
0.018491419 -0.61821496 0.04105204
0.03469529 -0.618209 0.04102134
0.045454428 -0.61819571 0.041032638
0.048022609 -0.61818546 0.041041754
0.061596606 -0.61820197 0.041067153
0.066884086 -0.61820954 0.041100722
0.082861759 -0.61823428 0.04108306
0.10978525 -0.6182186 0.041045111
0.11248653 -0.61819744 0.041012544
0.11802424 -0.61818373 0.041001398
0.14253905 -0.61818147 0.041039918
-0.16227253 -0.61781275 0.041920301
-0.14046445 -0.61784858 0.041979857
-0.094704412 -0.61776429 0.041890424
-0.073265247 -0.61778963 0.041961756
-0.01125813 -0.61790127 0.041972123
0.11560015 -0.61781788 0.041909304
-0.21015733 -0.61038995 0.041265029
-0.14343995 -0.6103304 0.041158881
-0.10036454 -0.61027741 0.041104939
-0.089699209 -0.61036444 0.041177638
-0.06549716 -0.61026186 0.041138608
-0.049297724 -0.61003762 0.041108564
-0.03543992 -0.6102615 0.041153714
-0.02219281 -0.61038995 0.041221771
-0.01952325 -0.61040002 0.041210283
0.0073923552 -0.61036557 0.041162886
0.039736379 -0.61028582 0.041097451
0.056015164 -0.6103394 0.041187819
0.058697756 -0.61032987 0.041173469
0.074802183 -0.61039293 0.04117525
0.1047717 -0.61036003 0.041183427
0.12889323 -0.61038196 0.041185722
-0.2053308 -0.60260445 0.041582454
-0.1866153 -0.60261261 0.041631032
-0.14860867 -0.60249871 0.041429687
-0.12738253 -0.60256624 0.041457742
-0.10543098 -0.6025607 0.041481707
-0.094782375 -0.60246575 0.041383196
-0.084014259 -0.60255766 0.041469507
-0.073337957 -0.60249084 0.041453108
-0.046544269 -0.60223442 0.041360553
-0.043690275 -0.6022706 0.041373536
-0.027409092 -0.60247219 0.041355327
-0.011332595 -0.60260266 0.041461505
-0.0083715646 -0.60258442 0.041471079
0.015542573 -0.60259879 0.041527241
0.031874489 -0.60251486 0.041388638
0.034782767 -0.60253578 0.041425195
0.048106547 -0.60251206 0.041445524
0.085515052 -0.60254031 0.041449275
0.088539757 -0.60252964 0.041421201
0.093867153 -0.60253763 0.041460775
0.11810894 -0.60251075 0.041405585
0.12072174 -0.60254604 0.041412421
0.14262176 -0.60250825 0.041444376
0.010442094 -0.59519309 0.041048665
0.10190134 -0.59513867 0.041013546
-0.20230047 -0.59485155 0.041985638
-0.16729249 -0.59478068 0.041895777
-0.15663381 -0.59474325 0.041841865
-0.13516679 -0.59482765 0.041921198
-0.12459631 -0.5948 0.041851908
-0.11093343 -0.59481841 0.041939862
-0.10022414 -0.5947119 0.041814949
-0.089559525 -0.59479916 0.041886017
-0.081428491 -0.59476638 0.041866723
-0.07851468 -0.59471822 0.041832156
-0.067923203 -0.59471107 0.041882362
-0.065357782 -0.59469658 0.041849427
-0.051603802 -0.59451514 0.041828543
-0.022052614 -0.59482467 0.041928463
0.0048505017 -0.59479785 0.041910283
0.0075359344 -0.59480077 0.041872032
0.021172972 -0.59479368 0.041925892
0.023739133 -0.59479767 0.041896794
0.037350792 -0.59476805 0.041877694
0.039877545 -0.5947206 0.041806914
0.05376349 -0.59477186 0.041883323
0.074941717 -0.59482777 0.041883055
0.077708989 -0.59483999 0.0418953
0.10748694 -0.59481502 0.041921496
0.12903304 -0.59481645 0.041893024
-0.2077914 -0.58744103 0.041628901
-0.20530173 -0.58746219 0.04165154
-0.18658805 -0.58747023 0.041699026
-0.16485523 -0.58738655 0.041523799
-0.14858088 -0.58735639 0.041503172
-0.11662995 -0.5873329 0.041470882
-0.10821739 -0.58745581 0.041586597
-0.10540468 -0.58741802 0.041553553
-0.083988629 -0.5874151 0.041541375
-0.070439875 -0.58733541 0.041528009
-0.046517096 -0.58709228 0.041440886
-0.043662962 -0.5871284 0.041451748
-0.032781247 -0.58735561 0.041532096
-0.030220682 -0.58733135 0.041470848
-0.027383229 -0.58733016 0.041430969
-0.016408958 -0.58744466 0.041530024
0.015574591 -0.58745599 0.041596953
0.031901184 -0.58737266 0.041462574
0.034811791 -0.5873934 0.041497979
0.04813214 -0.58736956 0.041518234
0.064260729 -0.58739793 0.041563809
0.067005821 -0.5873934 0.041574262
0.091246448 -0.58741289 0.041580528
0.1207515 -0.58740354 0.041484714
0.12376693 -0.5873943 0.041498184
0.13698362 -0.58738059 0.041524377
0.13998139 -0.58735502 0.041470893
0.14264621 -0.58736593 0.041517742
0.14515255 -0.58735478 0.04151053
0.10197996 -0.58006608 0.041366424
0.10483018 -0.58004826 0.04131465
0.10739888 -0.58006805 0.041343182
0.10987092 -0.5800432 0.041300021
0.12894636 -0.58006948 0.041315109
0.13181537 -0.58004391 0.041295543
0.13425866 -0.58004165 0.041298196
0.11809534 -0.57268089 0.041175749
0.12071498 -0.5727154 0.041181006
-0.1648749 -0.56540298 0.041271161
0.10740695 -0.56544381 0.041309953
0.12378167 -0.55815148 0.041431945
0.12631488 -0.55817521 0.041477971
0.10998628 -0.55093795 0.041770797
0.13192531 -0.55093896 0.041767415
0.13707295 -0.55091572 0.041774876
0.14272006 -0.55090165 0.041771676
0.099298626 -0.54398173 0.041290507
0.12629534 -0.54398155 0.041281652
0.10750255 -0.63370752 0.042206921
0.13435285 -0.63368106 0.042158857
-0.19436963 -0.62580156 0.042151693
-0.1836542 -0.6257996 0.042198531
-0.17294739 -0.62573951 0.042056825
-0.16993366 -0.62539905 0.042922661
-0.13501211 -0.62538701 0.042930234
-0.1244488 -0.62535942 0.042861752
-0.11337933 -0.62531984 0.042883135
-0.089411102 -0.62535805 0.042894963
-0.081285909 -0.62532604 0.042875811
-0.067776963 -0.62527031 0.042889643
-0.065208457 -0.62525588 0.042853527
-0.038043149 -0.62519491 0.042811979
-0.008139167 -0.62538904 0.042912453
-0.0056339251 -0.62532759 0.042845752
0.004996812 -0.62535703 0.042921964
0.021319607 -0.62535268 0.042938799
0.023881102 -0.62535626 0.042906899
0.040022828 -0.62527966 0.042813774
0.053915586 -0.62533081 0.042892206
0.077860996 -0.62539959 0.04290694
0.094094366 -0.62534159 0.042900816
0.099507973 -0.6253646 0.042916115
0.12634026 -0.62575483 0.042009953
-0.20773697 -0.61788177 0.042069953
-0.18653992 -0.6179111 0.042145152
-0.15134802 -0.61744934 0.042860094
-0.14837296 -0.61742294 0.042851388
-0.11887079 -0.61740106 0.042799834
-0.016195115 -0.61751091 0.042882089
0.029360518 -0.61747032 0.042867854
0.032111578 -0.61743885 0.042809829
0.064466164 -0.6174643 0.042914104
0.13449469 -0.6174677 0.042869039
0.1371856 -0.61744744 0.042875744
-0.20227145 -0.61005884 0.042198777
-0.19160473 -0.61005396 0.042235501
-0.13514127 -0.61003476 0.042132255
-0.13237426 -0.61000866 0.042146958
-0.11091273 -0.61002517 0.042152438
0.0024242343 -0.61000901 0.042114876
0.0048719565 -0.6100049 0.042122632
0.023758389 -0.61000443 0.042108376
-0.15661086 -0.60995007 0.042051971
-0.15405054 -0.6099714 0.042061333
-0.14589888 -0.60995454 0.042050894
-0.12441219 -0.60964882 0.042982794
-0.11639424 -0.60956883 0.042955987
-0.10283601 -0.60996002 0.042059574
-0.081246801 -0.60961539 0.042997248
-0.078491032 -0.60992521 0.04204211
-0.054475296 -0.6094144 0.042982232
-0.051576346 -0.6097225 0.042033058
-0.038169485 -0.60984302 0.042018071
-0.0030147915 -0.6099661 0.04203951
0.037371412 -0.60997534 0.04208988
0.053787775 -0.6099788 0.042094294
-0.19987535 -0.60221916 0.042497039
-0.19718282 -0.60224116 0.042508688
-0.17536935 -0.60221702 0.042502001
-0.16218758 -0.60217184 0.042337384
-0.15141751 -0.60218304 0.042363126
-0.14037496 -0.60220802 0.042395145
-0.1297055 -0.60222697 0.042416494
-0.11894779 -0.60213488 0.042304717
-0.059717473 -0.60205305 0.042341441
-0.057182189 -0.60200888 0.042338908
-0.03264517 -0.60215616 0.042384457
-0.030085964 -0.60213196 0.042322248
-0.013813953 -0.60225117 0.042404484
0.013085435 -0.60226524 0.042456627
0.045704741 -0.60218048 0.042362254
0.11569031 -0.60217714 0.042325649
0.13711597 -0.6021812 0.042377867
0.14011617 -0.60215545 0.042321801
-0.049077071 -0.6018858 0.042315938
-0.19419244 -0.59452617 0.042970721
-0.1916334 -0.59484679 0.042021316
-0.18105234 -0.59481901 0.04207065
-0.16992955 -0.59451371 0.042844262
-0.15949142 -0.59439856 0.042764813
-0.14576314 -0.59442222 0.042773422
-0.11336422 -0.59443599 0.04280667
-0.10269593 -0.59442735 0.042780686
-0.092080496 -0.59442604 0.042783242
-0.038027816 -0.594311 0.042742271
5.875697e-05 -0.59445614 0.042817757
-0.19984473 -0.58710986 0.042578023
-0.19715333 -0.58713192 0.04258978
-0.1891211 -0.58712703 0.042625196
-0.16216107 -0.58706218 0.042422336
-0.14034408 -0.58709878 0.042478368
-0.13779853 -0.5871222 0.042493928
-0.073142752 -0.58703947 0.042463154
-0.013783735 -0.58714181 0.04248618
-0.01113927 -0.58715117 0.04246958
0.045735542 -0.58707106 0.042446606
0.088731274 -0.58707845 0.042430967
0.096957728 -0.5870977 0.042451173
0.11572177 -0.5870676 0.042409904
0.11830038 -0.58705968 0.042415336
-0.059687339 -0.58694339 0.042428542
-0.057153769 -0.58689934 0.042427212
0.11004917 -0.56516016 0.042218681
0.13199084 -0.56516105 0.042214766
0.13443707 -0.56515867 0.04221702
0.12094221 -0.55791837 0.042373449
0.10511756 -0.55071872 0.042746171
0.10767873 -0.5507378 0.042772207
0.13454363 -0.55071157 0.042728864
0.12102162 -0.64124674 0.043354869
0.11012453 -0.6332761 0.043060895
0.11282427 -0.63325477 0.04302806
-0.20510139 -0.62540805 0.04302682
-0.18089955 -0.62537771 0.043088991
-0.15935527 -0.62489229 0.043746926
-0.12699197 -0.62497956 0.04380466
-0.083619937 -0.62497115 0.043816194
-0.056951843 -0.62476486 0.043752301
-0.054355785 -0.62473464 0.043762852
-0.043297827 -0.62468463 0.043710694
-0.04074971 -0.62472624 0.043685935
-0.027014963 -0.62488526 0.043696322
-0.024074066 -0.62494797 0.043788433
-0.02174568 -0.62499267 0.043847259
0.051009122 -0.62490976 0.043741886
0.072776072 -0.62496495 0.043788802
-0.1780293 -0.61711872 0.04395948
-0.10784905 -0.6171478 0.043852597
-0.075706832 -0.61702335 0.043730438
0.026998976 -0.61712503 0.043821771
0.04299726 -0.61703622 0.043689776
-0.097045034 -0.61697918 0.043680541
-0.18086572 -0.6096673 0.043205686
-0.1699035 -0.60968828 0.043043841
-0.15931286 -0.60921437 0.04388243
-0.1133435 -0.60960984 0.043005299
-0.09189751 -0.6092416 0.043900914
-0.070198253 -0.60957175 0.043013863
-0.067739576 -0.60955989 0.043011993
7.791417e-05 -0.60963011 0.043017361
0.02135667 -0.60964227 0.043058284
0.072650857 -0.60964543 0.043003198
0.09954343 -0.60965431 0.043037899
-0.20977588 -0.60189521 0.043393102
-0.20748891 -0.60189903 0.043409072
0.11290195 -0.60184014 0.043266695
-0.17517355 -0.58679819 0.043518655
-0.12951081 -0.58680856 0.043435939
-0.12702401 -0.58680576 0.043402635
-0.11875699 -0.58671653 0.043327175
-0.094427176 -0.5867058 0.04333128
0.14293803 -0.57212669 0.043108467
0.10243389 -0.55051076 0.043755148
-0.11044931 -0.63248968 0.044924486
-0.06991367 -0.62450093 0.04470424
0.05661926 -0.62455201 0.0447184
-0.16681716 -0.61671054 0.044714916
-0.19401078 -0.60934162 0.044094004
-0.18329597 -0.60933924 0.044139452
-0.17258894 -0.60928035 0.044002324
0.099850565 -0.59382915 0.044701245
-0.19112916 -0.63251871 0.045009874
-0.16664439 -0.63204616 0.045776837
0.027333507 -0.63208604 0.045797598
-0.14267294 -0.62415195 0.045595005
0.075569667 -0.62421411 0.045612689
-0.045051549 -0.56992781 0.049665701
