# .PCD v0.7 - Point Cloud Data file format
VERSION 0.7
FIELDS x y z
SIZE 4 4 4
TYPE F F F
COUNT 1 1 1
WIDTH 1355
HEIGHT 1
VIEWPOINT 0 0 0 1 0 0 0
POINTS 1355
DATA ascii
-0.21043839 -0.34989119 0.28915501
-0.20619598 -0.34986079 0.2891452
-0.20048168 -0.34906015 0.28952789
-0.19664073 -0.34988129 0.28913376
-0.19097218 -0.34907007 0.28953627
-0.18711598 -0.34990513 0.28916574
-0.18180314 -0.34990233 0.2891553
-0.17755313 -0.34989458 0.28916588
-0.16433676 -0.34905735 0.28950661
-0.16050054 -0.34989008 0.28914845
-0.15622321 -0.34991315 0.28916115
-0.15201384 -0.34990683 0.2891731
-0.14731821 -0.34906933 0.28952202
-0.1436321 -0.34987035 0.28915197
-0.13780013 -0.34907007 0.28955019
-0.13289769 -0.34991565 0.28914824
-0.1271257 -0.34908974 0.28955591
-0.12086084 -0.34903935 0.28953692
-0.19479397 -0.34823579 0.28987649
-0.18525748 -0.34820649 0.28989786
-0.14163336 -0.34822318 0.28988898
-0.13626954 -0.34823725 0.28990564
-0.1309613 -0.34821448 0.28986314
-0.12567112 -0.34823999 0.28990784
-0.14093396 -0.3433001 0.28909883
-0.12497437 -0.34331599 0.2890991
-0.11859732 -0.34329903 0.28911689
-0.11328734 -0.34331486 0.28910604
-0.096278146 -0.34327784 0.28907472
-0.11185659 -0.34247696 0.28945756
-0.1065687 -0.34246531 0.28946176
-0.10117026 -0.34245357 0.28942281
-0.089523055 -0.34242126 0.28944138
-0.09967979 -0.34162027 0.28978804
-0.094362952 -0.34161222 0.28979138
-0.088088721 -0.34159878 0.28980249
-0.08580073 -0.33580241 0.28911835
-0.074219204 -0.33582079 0.28912809
-0.068822764 -0.33583799 0.28909412
-0.067320473 -0.33501408 0.28945997
-0.079063788 -0.334979 0.28944451
-0.063107073 -0.33497962 0.28944543
-0.057334356 -0.33411494 0.28978035
-0.053050816 -0.33417338 0.28982079
-0.039710552 -0.3275325 0.28918824
-0.034412451 -0.32753834 0.28919652
-0.029148297 -0.32750779 0.28918037
-0.032987654 -0.32668829 0.28952211
-0.027299566 -0.32581314 0.28982639
-0.021975907 -0.32585093 0.2898722
-0.27717054 -0.35807699 0.29097551
-0.26548058 -0.35808039 0.29098594
-0.25811869 -0.35808018 0.29099587
-0.23974055 -0.35810962 0.2909973
-0.22702621 -0.35808435 0.29098061
-0.20993595 -0.35803288 0.29095751
-0.2056544 -0.35807452 0.29097757
-0.20039153 -0.3580749 0.2909537
-0.1961443 -0.35808456 0.29098639
-0.18655257 -0.35809112 0.29097742
-0.18230283 -0.35808283 0.29098827
-0.17805281 -0.35806069 0.2909826
-0.17476089 -0.35808644 0.29097313
-0.17059273 -0.35807616 0.29098147
-0.16631158 -0.35807529 0.29097715
-0.19148171 -0.35400316 0.29013619
-0.24515298 -0.3539885 0.2901445
-0.21343023 -0.3531813 0.29053682
-0.20918721 -0.35315979 0.29053947
-0.20490874 -0.35316357 0.29053971
-0.17773485 -0.35397825 0.29013917
-0.17347756 -0.35399163 0.29013765
-0.16893509 -0.35314563 0.29053479
-0.16465577 -0.35316509 0.2905184
-0.16079125 -0.3539778 0.290124
-0.15611735 -0.35315749 0.29050958
-0.15189813 -0.3531571 0.29053643
-0.14761205 -0.35318002 0.29054502
-0.14332837 -0.35315961 0.2905032
-0.15469953 -0.35232824 0.29090738
-0.14186925 -0.35235962 0.29090741
-0.13661714 -0.35235181 0.29091403
-0.20391756 -0.34736633 0.29025355
-0.13481273 -0.34739879 0.29026064
-0.12953791 -0.34736964 0.29022992
-0.12425089 -0.34738907 0.29026109
-0.11899841 -0.34738293 0.29027212
-0.11357367 -0.34739664 0.29026088
-0.11738259 -0.34656081 0.29064453
-0.11202083 -0.34658104 0.29064879
-0.1067683 -0.34658456 0.29066545
-0.10151093 -0.34658709 0.29063866
-0.092954777 -0.34079817 0.29015669
-0.086621851 -0.34080642 0.29016906
-0.081224613 -0.34078091 0.2901465
-0.075946115 -0.34077746 0.29015702
-0.079699449 -0.33996692 0.29051149
-0.07437782 -0.33995482 0.2904993
-0.072904266 -0.3391352 0.2908296
-0.069133632 -0.3399961 0.29053372
-0.061100129 -0.33333108 0.29013744
-0.051561221 -0.33333382 0.29015446
-0.047333442 -0.33332905 0.29014194
-0.055425394 -0.33244231 0.29045913
-0.045417007 -0.33166212 0.2908408
-0.040183142 -0.33163527 0.29078716
-0.034874082 -0.33165985 0.29082227
-0.025386592 -0.32414913 0.29049015
-0.019933591 -0.32414681 0.29048973
-0.016240172 -0.32499799 0.29017609
-0.24427176 -0.3580921 0.29100081
-0.24814376 -0.35727596 0.29139125
-0.23503974 -0.35729539 0.29138097
-0.23081058 -0.35725397 0.29138866
-0.19043832 -0.35723218 0.29137996
-0.17333035 -0.35725808 0.29137439
-0.16909567 -0.35725608 0.29136166
-0.26049772 -0.35646474 0.29179475
-0.18043442 -0.35644761 0.2917949
-0.16442029 -0.35644823 0.29178092
-0.16014242 -0.35647124 0.29179412
-0.15593509 -0.35646379 0.29180714
-0.1516633 -0.35645229 0.29178378
-0.14755124 -0.35642844 0.29178539
-0.15004063 -0.35150978 0.29130426
-0.14574035 -0.35152262 0.29131404
-0.14046414 -0.35153869 0.2913208
-0.13520125 -0.35155243 0.2913025
-0.13092296 -0.35150206 0.29127914
-0.12443492 -0.35151219 0.29131758
-0.12936376 -0.35071775 0.29169983
-0.12298498 -0.35070136 0.29171818
-0.11869449 -0.35069722 0.29170617
-0.11767563 -0.35071695 0.29170662
-0.11241252 -0.3506923 0.29169467
-0.11057419 -0.34575737 0.29101801
-0.10534278 -0.345752 0.29102492
-0.10008045 -0.34577641 0.29101631
-0.094757348 -0.34577286 0.29103705
-0.098598421 -0.34493351 0.29137373
-0.093144856 -0.34492788 0.29139364
-0.091662288 -0.34407783 0.29175341
-0.086393707 -0.34411982 0.29176968
-0.067254841 -0.3383255 0.29123583
-0.0629545 -0.33832419 0.29124001
-0.061563712 -0.33750033 0.29160899
-0.057292961 -0.33744478 0.29157284
-0.065396287 -0.33663341 0.29192841
-0.043985169 -0.33083227 0.29117653
-0.038715914 -0.33081436 0.29113725
-0.032835741 -0.33000115 0.29149681
-0.027555091 -0.33000505 0.29152057
-0.037123069 -0.32999241 0.2914927
-0.031318754 -0.32916147 0.29183277
-0.02603968 -0.32919067 0.29187053
-0.16299091 -0.35561836 0.29218626
-0.15872756 -0.35563016 0.29217744
-0.15443999 -0.35565716 0.29221356
-0.14172985 -0.3556388 0.29221481
-0.14975242 -0.3548421 0.29259896
-0.14557247 -0.35480219 0.29258597
-0.14020677 -0.35481721 0.292602
-0.13489848 -0.35479477 0.29255918
-0.1296083 -0.35482019 0.2926037
-0.13875991 -0.35398877 0.2929886
-0.1334846 -0.35395995 0.29295725
-0.12819701 -0.35397983 0.29298851
-0.1229449 -0.35397345 0.29299954
-0.11625221 -0.34989002 0.29209036
-0.11096524 -0.34987783 0.29209465
-0.1051487 -0.34904534 0.29244474
-0.1089824 -0.34824029 0.29287988
-0.10366549 -0.34822214 0.29284275
-0.098348752 -0.34821448 0.29284495
-0.084956951 -0.34326831 0.29212302
-0.079647221 -0.34327009 0.29213631
-0.074362181 -0.34327069 0.29208973
-0.083515957 -0.34242082 0.29248619
-0.078239039 -0.34242716 0.29251039
-0.072843708 -0.34244412 0.29247665
-0.068688162 -0.34243566 0.29249203
-0.071349442 -0.34162927 0.29287532
-0.067136683 -0.34159571 0.29285976
-0.062871255 -0.34161648 0.29287681
-0.059574496 -0.33580929 0.29229701
-0.055278432 -0.33581889 0.29229939
-0.05115464 -0.33580959 0.29228905
-0.045735665 -0.33582178 0.29229477
-0.049567249 -0.33497974 0.29263157
-0.044215254 -0.33499119 0.29264244
-0.042774547 -0.33413935 0.2929801
-0.020341264 -0.32830736 0.29216251
-0.024196025 -0.32752213 0.29255694
-0.018874783 -0.32748038 0.2925213
-0.0142019 -0.32668588 0.29286838
-0.0088732755 -0.32666892 0.29285049
-0.16271697 -0.35893893 0.29334426
-0.15861237 -0.3589088 0.29334417
-0.15539213 -0.35891673 0.29336259
-0.15396333 -0.35810086 0.29377365
-0.15110689 -0.35893926 0.29337066
-0.14966291 -0.35811412 0.29378298
-0.14537354 -0.3581304 0.29376313
-0.14012095 -0.35812268 0.29376984
-0.1262366 -0.35234907 0.29379371
-0.12092622 -0.35234618 0.29380828
-0.11556314 -0.35236648 0.29381236
-0.11453953 -0.35236865 0.29380915
-0.11030978 -0.35237014 0.29382962
-0.096949078 -0.34741041 0.29324266
-0.091655329 -0.34738046 0.29324496
-0.09019807 -0.34659764 0.29364383
-0.084801674 -0.34657237 0.29362103
-0.065569185 -0.34079206 0.29324418
-0.061371937 -0.34074074 0.2932269
-0.059904188 -0.3399123 0.29359773
-0.05666497 -0.33997267 0.29364067
-0.050956745 -0.33913764 0.29399389
-0.038488615 -0.33416685 0.29300702
-0.037071098 -0.33332649 0.29336509
-0.032796238 -0.33330649 0.29334658
-0.031391155 -0.33246073 0.29370156
-0.026067108 -0.33249867 0.29374844
-0.14397693 -0.35732082 0.29420865
-0.13871461 -0.35733426 0.29419035
-0.13443562 -0.35728475 0.29416591
-0.13712741 -0.35652333 0.29460698
-0.13288768 -0.35651082 0.2946184
-0.12753841 -0.35648501 0.29462484
-0.12221715 -0.35649052 0.29462463
-0.10889362 -0.35154802 0.29422113
-0.10363135 -0.35157201 0.29421297
-0.10743803 -0.35073221 0.29459339
-0.1021592 -0.35074002 0.29460189
-0.096705854 -0.35073489 0.2946218
-0.08863049 -0.34578988 0.29403421
-0.083284803 -0.34576821 0.29401839
-0.077962346 -0.34575698 0.29400611
-0.08182101 -0.34496415 0.29441798
-0.076498032 -0.34494689 0.29436865
-0.072299026 -0.34497684 0.29443014
-0.070856921 -0.34414726 0.29480779
-0.066556402 -0.34414589 0.29481149
-0.055183608 -0.33914313 0.294007
-0.053760991 -0.33831769 0.29436699
-0.049480569 -0.33831578 0.29438552
-0.048056208 -0.33749574 0.29475376
-0.043821897 -0.33746335 0.29470512
-0.029922256 -0.33164549 0.29407442
-0.024470327 -0.33164325 0.29407433
-0.022965085 -0.33080715 0.29441258
-0.018329723 -0.32999101 0.29479733
-0.14755125 -0.35980362 0.29568255
-0.14330082 -0.35981002 0.29571331
-0.14226897 -0.35979649 0.29569501
-0.13799222 -0.35978809 0.2956703
-0.13136852 -0.35571334 0.2950618
-0.12609768 -0.35568526 0.29505768
-0.12510276 -0.3556636 0.29504281
-0.12078879 -0.35570085 0.29504567
-0.1193736 -0.35488567 0.29546115
-0.11784515 -0.35405368 0.29586172
-0.11408735 -0.35487297 0.29546544
-0.11253317 -0.35406733 0.29589394
-0.1086906 -0.35486096 0.29542714
-0.10721523 -0.35404885 0.29585746
-0.10056612 -0.34990355 0.29500452
-0.095231049 -0.34989524 0.2950131
-0.093821183 -0.34906322 0.29541957
-0.089963093 -0.34993666 0.29502985
-0.088534929 -0.34909633 0.29541507
-0.087102652 -0.34825951 0.29580998
-0.082810722 -0.34828281 0.29583308
-0.081825346 -0.34826574 0.29583454
-0.065174654 -0.34333184 0.29521289
-0.0604854 -0.3424558 0.29556486
-0.058908824 -0.34167033 0.29596746
-0.054783791 -0.34166133 0.29595715
-0.04236358 -0.3366518 0.29508775
-0.040780727 -0.33583918 0.29547551
-0.036493544 -0.33584845 0.29547888
-0.034984417 -0.33501825 0.29584709
-0.031213345 -0.33585188 0.29550275
-0.02970594 -0.33504659 0.29588529
-0.01684534 -0.32917246 0.29515284
-0.012587709 -0.32913798 0.29509223
-0.010697384 -0.32749721 0.29581475
-0.0064440938 -0.3275165 0.29587159
-0.13229746 -0.35900962 0.2961508
-0.13658831 -0.35896435 0.29609925
-0.13130037 -0.35898456 0.29613057
-0.12976591 -0.35818005 0.29656234
-0.12564386 -0.35817426 0.29657775
-0.1244562 -0.35817701 0.29657692
-0.10579412 -0.35325903 0.29628846
-0.1014889 -0.353232 0.29627916
-0.1000983 -0.35243896 0.29670873
-0.099054866 -0.35246146 0.29673401
-0.094804622 -0.35240906 0.29671106
-0.093767129 -0.35244632 0.29672128
-0.080273286 -0.34744978 0.29623175
-0.076016575 -0.34746733 0.29620567
-0.074530758 -0.34666255 0.29663658
-0.070318885 -0.34662983 0.29662028
-0.053206533 -0.3408415 0.29633176
-0.04894663 -0.34085301 0.29635182
-0.047434367 -0.34003183 0.29673204
-0.042135194 -0.34003836 0.29674011
-0.028302513 -0.33422285 0.29626435
-0.024016008 -0.33417341 0.29620889
-0.022557195 -0.33335638 0.29660061
-0.021117184 -0.33253154 0.29698104
-0.017893275 -0.33257061 0.29698071
-0.11868697 -0.35739374 0.29701701
-0.11343282 -0.35739753 0.29703483
-0.11725803 -0.35659245 0.29745027
-0.11627276 -0.3565844 0.29745111
-0.11202645 -0.35658681 0.29745787
-0.1105803 -0.35578281 0.29786173
-0.10635921 -0.3558068 0.29788619
-0.1053024 -0.35579032 0.2978701
-0.092210121 -0.35164955 0.29714361
-0.087961845 -0.35161179 0.29711875
-0.086453751 -0.35081846 0.29754797
-0.084998697 -0.35002568 0.29797944
-0.079675876 -0.35000858 0.29792994
-0.080721013 -0.34999841 0.29795617
-0.068759598 -0.34583667 0.2970368
-0.064562529 -0.34578562 0.29701921
-0.059864607 -0.34502736 0.2974655
-0.063104458 -0.34496722 0.29742193
-0.058392122 -0.34420875 0.29786408
-0.054165985 -0.34420264 0.29785037
-0.046001274 -0.33919069 0.29710236
-0.040306531 -0.33838809 0.29751897
-0.038867459 -0.33755925 0.29790831
-0.034635343 -0.3375327 0.2978873
-0.033594158 -0.33754808 0.29790381
-0.016429944 -0.33172947 0.29733431
-0.01486589 -0.33086264 0.29767329
-0.010724515 -0.33090022 0.29772425
-0.0032058996 -0.33088019 0.29770198
-0.13448167 -0.36075693 0.29807019
-0.13024199 -0.36071888 0.29805326
-0.12921092 -0.36072874 0.29806611
-0.12781541 -0.35991007 0.29850289
-0.1235025 -0.35994679 0.29850543
-0.1220962 -0.35914427 0.29895213
-0.1209786 -0.35912198 0.29893208
-0.1168106 -0.35913116 0.29895642
-0.10371974 -0.35496545 0.29830381
-0.099444546 -0.35498199 0.29832625
-0.097977936 -0.35415378 0.29874864
-0.096982069 -0.35413724 0.29875055
-0.078290865 -0.34919864 0.2983503
-0.074043646 -0.34921992 0.29840142
-0.072630979 -0.34838024 0.29880062
-0.069333255 -0.348409 0.29882517
-0.056978229 -0.34339374 0.2982558
-0.05269875 -0.34339151 0.29827446
-0.051282428 -0.34258223 0.29867479
-0.047047697 -0.3425498 0.29862663
-0.027724288 -0.33672538 0.29829276
-0.026227705 -0.33589891 0.29866266
-0.0091759991 -0.33007076 0.29810804
0.00041435074 -0.33006063 0.29810044
-0.0045020259 -0.32918638 0.29844943
-0.0029913939 -0.3283655 0.29882067
-0.1152667 -0.35833773 0.2994163
-0.10994745 -0.35831898 0.2993803
-0.10853617 -0.35754108 0.29984257
-0.1042312 -0.35751456 0.29983252
-0.091291577 -0.35336649 0.29918242
-0.090273425 -0.35334495 0.29917243
-0.084590986 -0.35254732 0.29963341
-0.067960992 -0.34760576 0.2992585
-0.063691303 -0.34755033 0.29922122
-0.066420034 -0.34676793 0.29965389
-0.062125355 -0.34677571 0.29965582
-0.045598831 -0.3417486 0.29904136
-0.044440914 -0.34176147 0.29905644
-0.039739419 -0.34095612 0.29946372
-0.038238626 -0.34013644 0.29986373
-0.034045205 -0.34014386 0.29989228
-0.021601724 -0.33509287 0.2990801
-0.020543486 -0.33510494 0.29907912
-0.015866244 -0.33424988 0.29940787
-0.014413786 -0.33344921 0.29980603
-0.010160236 -0.33346894 0.29986268
-0.12677866 -0.36166301 0.30035377
-0.12568559 -0.36168182 0.3003673
-0.12141312 -0.3616834 0.30035743
-0.11999374 -0.3608948 0.30082199
-0.10285017 -0.35673344 0.30029345
-0.1018071 -0.35675582 0.30031893
-0.096119888 -0.3559429 0.3007578
-0.094973721 -0.35595566 0.30075979
-0.083050005 -0.35174292 0.30006206
-0.078792542 -0.35176042 0.30003625
-0.077315651 -0.35096672 0.30049887
-0.076257348 -0.35098726 0.30052
-0.073104762 -0.35093477 0.30048195
-0.071554236 -0.35015306 0.30093005
-0.067357242 -0.35010234 0.30091226
-0.05758933 -0.34595758 0.30006611
-0.056432437 -0.3459582 0.30005181
-0.051762365 -0.34516028 0.30049273
-0.050668515 -0.34515905 0.30048454
-0.049243599 -0.3443296 0.30088699
-0.044959147 -0.34435636 0.30091301
-0.036827825 -0.33930299 0.30025947
-0.032546189 -0.33934876 0.30030695
-0.031151449 -0.33853558 0.30071825
-0.030111289 -0.33851057 0.30071062
-0.012945477 -0.33265495 0.30022797
-0.0087154778 -0.33263609 0.30024296
-0.0072790873 -0.33179787 0.30062211
-0.1186139 -0.36009544 0.30128986
-0.11436724 -0.36009791 0.30129704
-0.11332592 -0.36009777 0.30126473
-0.1117944 -0.35929856 0.30173075
-0.10765388 -0.35931399 0.30174023
-0.10647709 -0.35929272 0.30173734
-0.093491696 -0.35515872 0.30120975
-0.089226268 -0.35513666 0.30119517
-0.087780535 -0.35435611 0.301658
-0.086767748 -0.35433844 0.30165538
-0.083502792 -0.35432938 0.30163461
-0.065909311 -0.34929496 0.30134636
-0.06120586 -0.34854814 0.30182078
-0.043558009 -0.34353822 0.3013348
-0.042127877 -0.34272087 0.30175596
-0.038874462 -0.34270909 0.30173594
-0.037896067 -0.34269422 0.30173451
-0.02541489 -0.33768055 0.30108595
-0.02398348 -0.33686629 0.30149865
-0.019719448 -0.33688992 0.30148014
-0.018164592 -0.33603406 0.30185118
-0.0025635436 -0.33101478 0.30101085
-0.001032604 -0.3301968 0.30141529
0.0035609351 -0.32936516 0.30179095
-0.12332663 -0.36266881 0.30263588
-0.11915807 -0.3626774 0.30266026
-0.11801454 -0.36268163 0.30266854
-0.10180665 -0.35851851 0.30222741
-0.10074355 -0.35849383 0.30221319
-0.09974736 -0.35847756 0.30221519
-0.098346531 -0.3576932 0.30268726
-0.094067417 -0.35771912 0.30267823
-0.082057774 -0.35354182 0.30206022
-0.081082106 -0.35354125 0.30206004
-0.076435022 -0.35276502 0.30256337
-0.075432166 -0.35273522 0.3025417
-0.059801094 -0.34774458 0.30224383
-0.055522583 -0.34774202 0.30226257
-0.054114833 -0.34694451 0.30269447
-0.03644532 -0.34189993 0.30217165
-0.031752557 -0.34111294 0.30262393
-0.030585637 -0.34108847 0.30259272
-0.029098129 -0.34027272 0.30299383
-0.013608593 -0.33525577 0.30230632
-0.012070389 -0.33443689 0.30272201
-0.0078198463 -0.33437878 0.30269039
-0.11655129 -0.36189649 0.30315128
-0.11230431 -0.36187819 0.30311537
-0.11090336 -0.3611131 0.30360833
-0.10989769 -0.361128 0.30361319
-0.092654265 -0.35690659 0.30313522
-0.091125973 -0.35612303 0.30360872
-0.086981572 -0.35612121 0.3036274
-0.085846871 -0.35612053 0.3036198
-0.070771962 -0.35197219 0.30303094
-0.069242053 -0.35114709 0.30345756
-0.064547978 -0.35035661 0.30391106
-0.063479602 -0.35035586 0.30392784
-0.060420476 -0.35034826 0.3039009
-0.049474683 -0.34610844 0.30308285
-0.048440732 -0.34612218 0.30309305
-0.046879165 -0.34533128 0.3035441
-0.042187601 -0.34453797 0.30398247
-0.041100461 -0.34453347 0.30397761
-0.027687639 -0.33947003 0.30341578
-0.02448214 -0.33947772 0.30344343
-0.023422351 -0.33948973 0.30344242
-0.02200168 -0.33870828 0.30386379
-0.0063171219 -0.33356848 0.30309349
-0.0048478479 -0.33279064 0.3034974
-0.00017810498 -0.33197874 0.30392176
-0.11674003 -0.36370346 0.30492684
-0.11569868 -0.36370355 0.30489463
-0.10522775 -0.3603189 0.30408937
-0.10418506 -0.36034113 0.304115
-0.098508522 -0.359541 0.30458447
-0.09736342 -0.35955375 0.30458662
-0.080121242 -0.35535631 0.30408803
-0.078668252 -0.35458574 0.3045764
-0.075516529 -0.35453403 0.30453768
-0.058864873 -0.34955141 0.30433831
-0.057396151 -0.34875119 0.30481112
-0.053109527 -0.34876376 0.30480275
-0.035418041 -0.34375647 0.30445269
-0.034032494 -0.34295484 0.3048957
-0.018343937 -0.33783627 0.3042239
-0.017311607 -0.3378557 0.30423328
-0.015852803 -0.33707225 0.3046869
0.0012888369 -0.3311758 0.30432227
0.0059370529 -0.33033001 0.30473012
0.0069610351 -0.33034638 0.30474269
-0.11417849 -0.3629176 0.30539095
-0.11003786 -0.3629331 0.30540043
-0.1084776 -0.36213431 0.30589479
-0.10740972 -0.36213058 0.30589887
-0.095890567 -0.35876986 0.30506724
-0.091625392 -0.35874784 0.30505249
-0.090189554 -0.35798043 0.30554613
-0.089176565 -0.35796306 0.30554357
-0.084477007 -0.35717943 0.30597901
-0.08350087 -0.35717881 0.30597878
-0.07397531 -0.35376471 0.30501685
-0.072949521 -0.35378507 0.30503482
-0.06938348 -0.35292333 0.30546618
-0.06834098 -0.35291904 0.30546388
-0.066928484 -0.35215366 0.30594432
-0.063647024 -0.35218474 0.30596995
-0.051693473 -0.34794688 0.30523679
-0.047009703 -0.34717587 0.30571413
-0.046017669 -0.34716773 0.30571535
-0.027900379 -0.34130859 0.30573058
-0.026882889 -0.34130958 0.30573887
-0.011213223 -0.33624429 0.30512223
-0.0097860973 -0.33541727 0.30553305
-0.0050803577 -0.33464524 0.30595306
-0.0039689383 -0.33464769 0.30596906
0.0085043646 -0.32954931 0.3051534
0.012622931 -0.32955426 0.3051016
-0.10275295 -0.36134908 0.3064011
-0.10175662 -0.36133298 0.30640316
-0.10036635 -0.36056176 0.30690569
-0.095069036 -0.36056653 0.30688637
-0.082018159 -0.35639367 0.30647674
-0.078864224 -0.35641551 0.30651328
-0.077471837 -0.35560158 0.30697379
-0.062251791 -0.35139367 0.30642378
-0.057579465 -0.35059962 0.30690971
-0.056575608 -0.35060593 0.30690554
-0.04459722 -0.34636268 0.30616778
-0.039965663 -0.34553859 0.30659783
-0.038924783 -0.34555364 0.30661452
-0.02221375 -0.34052944 0.30615723
-0.020668646 -0.3396855 0.30655983
-0.002505207 -0.33381963 0.30638835
0.0010259227 -0.33301783 0.30679697
0.00212609 -0.33300152 0.30679208
0.014792712 -0.33298957 0.30676925
-0.11431182 -0.36475724 0.30715254
-0.11330066 -0.36477649 0.30716306
-0.11191632 -0.36402085 0.3076804
-0.093552552 -0.35979602 0.30739027
-0.089022338 -0.35901675 0.30790675
-0.087889113 -0.35901609 0.30789918
-0.072821826 -0.35485098 0.30749372
-0.071693182 -0.35482404 0.30746865
-0.067009874 -0.35404575 0.30795261
-0.055045806 -0.34981889 0.30735657
-0.050516527 -0.34900478 0.30780259
-0.049361166 -0.34901741 0.30781743
-0.037349466 -0.34478065 0.30708882
-0.0326759 -0.34395689 0.30751896
-0.031597689 -0.34395045 0.30749908
-0.030197298 -0.34315959 0.30795214
-0.016121954 -0.33891815 0.30704615
-0.0145946 -0.3381108 0.30749321
-0.013506769 -0.33810982 0.30748916
-0.0088498499 -0.33725455 0.30789581
0.0036221715 -0.33217764 0.3072117
0.0099354982 -0.33221608 0.3071934
0.0083040819 -0.33139306 0.3076494
0.014603236 -0.3313674 0.30760965
-0.10725702 -0.36322615 0.30818629
-0.10621476 -0.36324814 0.30821201
-0.10503125 -0.36323094 0.3081964
-0.099405207 -0.36247462 0.30871382
-0.086360149 -0.35824752 0.30838206
-0.082172379 -0.35826492 0.30839804
-0.080730207 -0.35750774 0.30891699
-0.065550067 -0.35326079 0.30845204
-0.060947366 -0.35246947 0.30889308
-0.059877288 -0.35246646 0.30891398
-0.044679981 -0.34823713 0.30828637
-0.043197185 -0.34744161 0.30874857
-0.042200465 -0.34742361 0.30873948
-0.025531115 -0.34238183 0.30843097
-0.024120839 -0.34161192 0.30888373
-0.0073909271 -0.33648798 0.30833101
-0.0027299686 -0.33568802 0.30878723
0.009746558 -0.33058769 0.30804291
-0.11621683 -0.3658607 0.30936649
-0.11170268 -0.36511314 0.30990347
-0.11052779 -0.36509198 0.30989987
-0.10945822 -0.36508828 0.30990401
-0.097942032 -0.36170471 0.30922458
-0.096927367 -0.36168164 0.30920506
-0.093677111 -0.36168271 0.30920961
-0.092251718 -0.36092934 0.30973345
-0.091238514 -0.36091229 0.30973101
-0.076048017 -0.3567009 0.30938736
-0.075021878 -0.35672098 0.30940536
-0.070424646 -0.35586867 0.30986461
-0.05520102 -0.35169432 0.30938858
-0.053794369 -0.35089087 0.30985364
-0.052804988 -0.35087556 0.30984777
-0.037525177 -0.34667629 0.30925483
-0.03614933 -0.34588718 0.30972895
-0.035107847 -0.34586406 0.30972174
-0.019439984 -0.34077156 0.30928463
-0.018391261 -0.34079736 0.30931768
-0.0012731249 -0.33489627 0.30921909
0.0033661653 -0.33406204 0.30965868
-0.10481249 -0.36432132 0.31043601
-0.103816 -0.36430541 0.31043813
-0.10243677 -0.36354828 0.31097052
-0.10140149 -0.36358398 0.31098083
-0.086549751 -0.36014274 0.31019649
-0.085194096 -0.3593716 0.31070876
-0.084101819 -0.35937083 0.3107245
-0.069022454 -0.35511649 0.31037548
-0.065356545 -0.35437009 0.31089926
-0.064355493 -0.35437021 0.31088573
-0.063355938 -0.35436529 0.31087765
-0.048128907 -0.35012493 0.31036249
-0.04671875 -0.34933308 0.31084567
-0.030432044 -0.34505785 0.31015825
-0.029019313 -0.34426773 0.31063396
-0.013361711 -0.33918443 0.31023598
-0.012344303 -0.33916706 0.31022623
-0.010824766 -0.33834302 0.31066841
0.0047945478 -0.33327428 0.31010747
0.006327196 -0.33248842 0.31054991
0.010852781 -0.33168975 0.3109346
-0.11498775 -0.3670117 0.31158888
-0.11398271 -0.3670266 0.31159371
-0.096766353 -0.36279014 0.31147859
-0.095635369 -0.36279687 0.31148484
-0.079565957 -0.35859293 0.31125155
-0.078441307 -0.35857904 0.31124583
-0.059694681 -0.35358927 0.31140211
-0.0586899 -0.35359576 0.311398
-0.057172444 -0.35282218 0.31187943
-0.042097531 -0.34852213 0.31130615
-0.041056905 -0.34853694 0.31132287
-0.039493334 -0.34777641 0.31182796
-0.0274745 -0.34347439 0.3111012
-0.024359901 -0.34350005 0.31108388
-0.022825051 -0.34266901 0.31151757
-0.021757243 -0.34266093 0.31150851
-0.0061379541 -0.33761194 0.31114504
-0.0046825497 -0.33679628 0.31159586
0.0124207 -0.33088106 0.31137779
0.013925107 -0.3300578 0.31180835
-0.10792503 -0.36551335 0.31269652
-0.1067427 -0.36549664 0.31268117
-0.08960963 -0.36126834 0.31255114
-0.088464051 -0.36127764 0.31253633
-0.073420458 -0.35705891 0.31228927
-0.072338991 -0.35701004 0.31226501
-0.068748266 -0.35629389 0.31280309
-0.067676418 -0.35629359 0.31282014
-0.052267265 -0.3512437 0.31285372
-0.051113084 -0.35125631 0.31286851
-0.050007198 -0.35127184 0.31287464
-0.034829393 -0.34696642 0.31228909
-0.033750758 -0.3469598 0.31226876
-0.032360908 -0.34618178 0.31275237
-0.016772186 -0.34111875 0.31251243
-0.015683535 -0.34111789 0.3125084
-6.2393083e-05 -0.33599013 0.31203067
0.0014251246 -0.33517852 0.31248158
0.006097666 -0.33440536 0.31295121
0.020013316 -0.32842779 0.31268844
-0.11793895 -0.36816573 0.31374323
-0.1168677 -0.3681623 0.3137545
-0.10112792 -0.36475465 0.31322792
-0.10004263 -0.36475527 0.31322607
-0.098660067 -0.36397713 0.31374869
-0.083902106 -0.36053118 0.31307998
-0.082471304 -0.3597883 0.31362888
-0.08144819 -0.35978106 0.31361735
-0.06270726 -0.35474589 0.31380385
-0.061635841 -0.35474268 0.31382456
-0.045354176 -0.35048562 0.31336248
-0.043972954 -0.34969026 0.31385103
-0.027704084 -0.34541699 0.31326234
-0.026304716 -0.34465954 0.31374595
-0.01064172 -0.33948451 0.31341293
-0.0095882947 -0.33952141 0.31341171
-0.0081610866 -0.33875251 0.3138904
0.0075304545 -0.33361167 0.31337616
0.0085391579 -0.33362082 0.31336722
-0.11226228 -0.36741245 0.31430551
-0.11119109 -0.36740881 0.31430975
-0.11020931 -0.36742476 0.31431901
-0.093995832 -0.36323929 0.31430644
-0.092982404 -0.36322251 0.31430411
-0.091627665 -0.36244959 0.31484747
-0.076773845 -0.35901642 0.3141467
-0.075811833 -0.35902196 0.31415993
-0.077800423 -0.35899657 0.31412867
-0.072188385 -0.35817885 0.31463557
-0.056970306 -0.35398421 0.31432974
-0.055573616 -0.3531951 0.31482521
-0.054583635 -0.35317981 0.31481922
-0.039308678 -0.34895536 0.31439695
-0.037942994 -0.34817973 0.31490159
-0.036901239 -0.34815735 0.31489456
-0.021633584 -0.3438324 0.31417769
-0.020195419 -0.34307346 0.314693
-0.019200519 -0.34307286 0.31470978
-0.004542043 -0.33794311 0.31436643
-0.0034903458 -0.33795467 0.31436193
-0.0020840445 -0.33716202 0.31482804
0.013596611 -0.3319878 0.31426618
0.01500523 -0.33119354 0.31471863
-0.10519849 -0.36589369 0.31542969
-0.1041925 -0.36589941 0.31543463
-0.10315779 -0.36593473 0.31544495
-0.098533697 -0.36515695 0.31597185
-0.086959824 -0.36171174 0.3153407
-0.085868247 -0.36171091 0.31535667
-0.081343383 -0.36094809 0.31591314
-0.070796937 -0.3574408 0.31517625
-0.06614022 -0.35670912 0.31571665
-0.065141529 -0.35670412 0.31570846
-0.04991902 -0.35244328 0.31536379
-0.048519731 -0.35166559 0.31587711
-0.047353934 -0.35167596 0.31587064
-0.031852011 -0.34658703 0.3158586
-0.03083365 -0.34658802 0.31586733
-0.029685022 -0.34658575 0.31586736
-0.014169279 -0.34146976 0.31566295
-0.013050247 -0.3414436 0.31565329
0.0025573839 -0.33635733 0.3153125
0.0040788492 -0.3355836 0.31578609
0.016531823 -0.33040193 0.3151781
0.018055269 -0.32958719 0.31562307
-0.11638594 -0.36864522 0.31648651
-0.11538117 -0.36866012 0.31649134
-0.11432806 -0.36864555 0.31647441
-0.097042002 -0.3644155 0.3165347
-0.095940895 -0.36443079 0.31654361
-0.07985194 -0.36017868 0.3164494
-0.074138872 -0.35939541 0.3169854
-0.060112469 -0.35518566 0.3167862
-0.058981027 -0.35518977 0.31677002
-0.042490155 -0.35011274 0.31689683
-0.0413175 -0.35013622 0.31691954
-0.024660289 -0.34501657 0.31681237
-0.023591544 -0.34500819 0.31680304
-0.0079844426 -0.33994064 0.316643
-0.0069275233 -0.33992276 0.31664228
0.010153004 -0.33400184 0.31667617
0.02341258 -0.32842898 0.3163287
-0.10970338 -0.36791849 0.31708065
-0.10852223 -0.36790225 0.31706554
-0.1074543 -0.36787742 0.31704998
-0.091401078 -0.36366564 0.31710288
-0.090254679 -0.36367515 0.31708798
-0.088846706 -0.362937 0.3176187
-0.075221598 -0.35944399 0.31700996
-0.052942753 -0.35365248 0.31781894
-0.051836483 -0.353668 0.31782496
-0.035205647 -0.34856376 0.31790301
-0.03420572 -0.34857002 0.31790394
-0.018629612 -0.34349263 0.31786761
-0.01754012 -0.34349194 0.31786367
0.011648563 -0.33319148 0.31713766
-0.11865477 -0.37060374 0.31802979
-0.11937708 -0.36987594 0.31860331
-0.1014768 -0.36643636 0.31821004
-0.10046174 -0.36641443 0.3181906
-0.084284276 -0.36221576 0.31823927
-0.083261102 -0.36220899 0.31822771
-0.069119751 -0.35793743 0.31811225
-0.068062373 -0.35793501 0.31810719
-0.064542413 -0.35717532 0.31861284
-0.046821132 -0.35213366 0.3188698
-0.045824107 -0.35211605 0.31886071
-0.044844348 -0.35210136 0.31885922
-0.029180039 -0.34704849 0.31895694
-0.028170755 -0.34707507 0.31895819
-0.016130844 -0.34270191 0.31835255
-0.0015396661 -0.33756062 0.31807265
-0.00045098635 -0.33754668 0.31807181
0.00058519765 -0.33754769 0.318082
0.016697766 -0.33158535 0.3180719
0.017717158 -0.33158714 0.31807914
0.019113336 -0.33081797 0.31855491
-0.11371328 -0.36913905 0.31919393
-0.11264053 -0.36913541 0.31919822
-0.11165858 -0.36915118 0.31920749
-0.095453404 -0.36495209 0.31934798
-0.094439745 -0.36493564 0.31934577
-0.093452327 -0.36491826 0.31934696
-0.079263322 -0.36069223 0.31932443
-0.07823623 -0.3607119 0.31934249
-0.077274323 -0.36071721 0.31935576
-0.063101903 -0.35641629 0.31917545
-0.062050082 -0.35642004 0.31919637
-0.039816279 -0.35063332 0.31997114
-0.026748223 -0.34629166 0.31945392
-0.022082675 -0.34551683 0.31996545
-0.011082077 -0.34114522 0.31932506
-0.010049827 -0.34116724 0.31933635
0.0056344392 -0.33600488 0.31902853
0.007033071 -0.3352294 0.31950182
0.0080271009 -0.33523172 0.31949767
0.020519508 -0.33004633 0.31902638
0.027031943 -0.33001497 0.31901535
-0.1238218 -0.37189364 0.3201625
-0.12282063 -0.37188661 0.32014972
-0.12177926 -0.37188751 0.32011783
-0.10667174 -0.36765301 0.32037517
-0.10566572 -0.36765844 0.32038012
-0.10463154 -0.36769331 0.32039043
-0.10348977 -0.36770636 0.32039303
-0.088439755 -0.3634567 0.32043993
-0.087348931 -0.36345571 0.32045606
-0.086273819 -0.36346358 0.32048288
-0.073301077 -0.3591423 0.32041708
-0.072282709 -0.35916707 0.32043022
-0.071132585 -0.35920078 0.32044506
-0.066638879 -0.35844576 0.32099181
-0.05706127 -0.35489863 0.32023576
-0.056070711 -0.35488337 0.32022968
-0.055038452 -0.35489613 0.3202399
-0.038400993 -0.34984839 0.3204917
-0.037237175 -0.34982499 0.32046008
-0.020708412 -0.34474602 0.32049498
-0.0050049713 -0.33960545 0.32033622
-0.0039935024 -0.33960378 0.32033506
0.013077652 -0.33362651 0.32046241
0.01459283 -0.33284774 0.32095253
0.025980636 -0.32766956 0.32045659
0.027111296 -0.32765645 0.32043314
-0.11686891 -0.3704623 0.32134095
-0.11581663 -0.3704482 0.32132396
-0.098540299 -0.366207 0.32153711
-0.097438537 -0.36622208 0.32154605
-0.082479574 -0.36196923 0.3216123
-0.08135666 -0.36195543 0.32160631
-0.067636751 -0.35845086 0.3210001
-0.050030205 -0.35339919 0.32134637
-0.048865724 -0.35340944 0.32133988
-0.032355234 -0.34830809 0.32152385
-0.031208022 -0.34830576 0.32152387
-0.015699381 -0.34317118 0.32150826
-0.01458102 -0.34314537 0.32149857
-0.013489326 -0.34315017 0.32149661
0.0014060285 -0.33725685 0.32184526
0.0025316959 -0.3372739 0.32185185
0.0036202923 -0.33726418 0.32184106
-0.12583378 -0.37319845 0.32223228
-0.12766464 -0.37247396 0.32282409
-0.12663694 -0.37247938 0.32283655
-0.11085991 -0.36901441 0.32255715
-0.10967992 -0.36899874 0.32254237
-0.10861058 -0.36897394 0.32252648
-0.092561424 -0.36474192 0.3227191
-0.091414221 -0.36475167 0.32270414
-0.090367556 -0.36476144 0.3226783
-0.076382421 -0.36049685 0.32276693
-0.075298429 -0.36044863 0.32274213
-0.061270222 -0.35621002 0.32268465
-0.060140423 -0.35621423 0.32266846
-0.059041426 -0.35621125 0.32266071
-0.044023365 -0.35187605 0.32242489
-0.042852003 -0.35189909 0.32244763
-0.02620363 -0.34676576 0.32252908
-0.025133923 -0.34675711 0.32251948
-0.024104649 -0.34677523 0.32252842
0.021096732 -0.33052054 0.32241884
0.022189295 -0.33051002 0.32242349
0.023189917 -0.33050889 0.32244158
-0.12090379 -0.37175417 0.32341206
-0.11983012 -0.37175018 0.3234238
-0.11881921 -0.37176877 0.3234342
-0.10265757 -0.36756578 0.32374296
-0.10164242 -0.36754438 0.32372364
-0.10062362 -0.36752319 0.32371247
-0.085466817 -0.36332405 0.32391253
-0.084443606 -0.36331779 0.32390106
-0.070302509 -0.35902134 0.32392663
-0.069601484 -0.35975882 0.32335088
-0.054123927 -0.35470736 0.3237758
-0.053017296 -0.35472295 0.32378179
-0.052023329 -0.35471645 0.32378271
-0.041396134 -0.35116211 0.32300025
-0.0080998894 -0.34088179 0.32306045
-0.0070429863 -0.34087959 0.32305363
0.0089699747 -0.33494195 0.32330042
0.010071787 -0.33492318 0.32329485
0.011072672 -0.33490729 0.32329294
-0.13063183 -0.37382546 0.3248812
-0.12960425 -0.37382892 0.32488039
-0.11384128 -0.37031657 0.32464755
-0.11285917 -0.37033215 0.32465678
-0.094656996 -0.36608133 0.32493612
-0.048025012 -0.35321996 0.32488483
-0.047027856 -0.35320252 0.32487574
-0.046047803 -0.3531878 0.32487419
-0.036393743 -0.34960157 0.32403225
-0.035393991 -0.34960771 0.32403305
-0.034356829 -0.3496165 0.32405296
-0.019822871 -0.34450677 0.32417083
-0.018732507 -0.34450626 0.32416701
-0.017707648 -0.34449396 0.32415825
-0.0031243749 -0.33933204 0.32406852
-0.0020346816 -0.33931825 0.32406768
-0.00099843205 -0.33931896 0.32407781
0.016503677 -0.33256876 0.32479441
0.017504709 -0.3325904 0.32480302
0.018515397 -0.33260953 0.32480717
0.030404851 -0.32654679 0.3248221
0.031416994 -0.32656085 0.32484135
-0.10585744 -0.36890826 0.32589531
-0.10471652 -0.3689214 0.32589802
-0.095300771 -0.36537579 0.32553408
-0.079442471 -0.36185324 0.32507253
-0.078480631 -0.36185837 0.32508588
-0.064308263 -0.35753191 0.32504731
-0.063256882 -0.35753539 0.3250685
-0.029381203 -0.34814179 0.32514656
-0.028336881 -0.34812933 0.32513011
-0.012307847 -0.34220347 0.3257176
-0.011275595 -0.34222543 0.3257288
-0.010166041 -0.34222725 0.32574549
-0.14151871 -0.37589115 0.32627925
-0.13384576 -0.37521869 0.32691538
-0.13273521 -0.37519801 0.32689551
-0.12471054 -0.37241811 0.32615471
-0.12370925 -0.37241119 0.32614198
-0.12266783 -0.37241241 0.32611024
-0.11589064 -0.37169278 0.32673988
-0.1065535 -0.36815935 0.32649791
-0.087502025 -0.36465985 0.32612839
-0.088233903 -0.36392945 0.32670066
-0.07351318 -0.3603411 0.32621714
-0.072364397 -0.36037451 0.32623211
-0.058290042 -0.3560459 0.32616594
-0.057298917 -0.35603064 0.32615975
-0.056267172 -0.3560431 0.32616994
-0.039639156 -0.35098037 0.3265945
-0.038476113 -0.35095742 0.32656291
-0.02294744 -0.34585762 0.32675472
-0.021951832 -0.34585759 0.32677191
-0.0062525054 -0.34069246 0.32678849
-0.0052409852 -0.34069076 0.32678732
0.0047878847 -0.33626229 0.32611018
0.0057971333 -0.33627126 0.32610098
0.0067911139 -0.33627364 0.32609689
0.024329493 -0.32949507 0.32682666
0.025458809 -0.32948214 0.32680324
0.02656504 -0.32946751 0.32678691
-0.13453101 -0.37452435 0.32756066
-0.1177819 -0.37102181 0.32738808
-0.11673052 -0.37100828 0.32737115
-0.099453904 -0.36674231 0.32771045
-0.098351434 -0.36675721 0.32771939
-0.097304359 -0.36677426 0.32773066
-0.0814614 -0.36320677 0.32731989
-0.082266785 -0.36246285 0.32790715
-0.068528481 -0.3589097 0.32740089
-0.067531303 -0.3589046 0.32739258
-0.066381097 -0.35890543 0.32737809
-0.050119646 -0.35458854 0.32732743
-0.050926954 -0.3538385 0.32790488
-0.031403635 -0.34948036 0.32768384
0.012198197 -0.33392686 0.32763419
0.013322591 -0.33393237 0.32764173
0.014448065 -0.33391672 0.32763508
0.027967783 -0.32867754 0.32728291
-0.14570035 -0.37731156 0.32826391
-0.14470218 -0.37728751 0.3282415
-0.14358532 -0.37728441 0.32823578
-0.1279135 -0.37381047 0.32819939
-0.12677334 -0.37381518 0.32820803
-0.11062 -0.36959407 0.32864442
-0.10954922 -0.36956936 0.32862827
-0.10855277 -0.36955369 0.32863054
-0.092351899 -0.36532158 0.32893315
-0.091304444 -0.36533156 0.32890743
-0.090325661 -0.36533064 0.32890651
-0.075535513 -0.36170655 0.32849738
-0.061419647 -0.35745323 0.32856968
-0.060319237 -0.35744992 0.32856196
-0.033254236 -0.34872311 0.32824144
-0.032108445 -0.34872076 0.32824144
-0.01659823 -0.34355736 0.32838625
-0.015480643 -0.34353188 0.32837653
-0.014388146 -0.34353662 0.32837451
0.0004988091 -0.3376233 0.32891443
0.0016235906 -0.33764002 0.32892105
0.0027137974 -0.33763051 0.32891047
-0.13764267 -0.37590677 0.32955658
-0.13654053 -0.37592316 0.32956982
-0.11978214 -0.37242132 0.3294642
-0.10158749 -0.36815387 0.32986909
-0.077317126 -0.36103773 0.32912433
-0.076231867 -0.36098996 0.3290993
-0.042684406 -0.35238793 0.32907429
-0.041702237 -0.35238978 0.32908148
-0.043417517 -0.35162976 0.32963458
-0.026054403 -0.3472029 0.32929555
-0.025025798 -0.34722078 0.32930443
-0.026763204 -0.34646392 0.32986191
0.02126655 -0.33086607 0.3297157
0.022267247 -0.33086449 0.3297337
0.035798103 -0.32560188 0.32928047
0.034162469 -0.32480717 0.32981139
-0.15425412 -0.37876037 0.33021
-0.14853866 -0.37807056 0.33087808
-0.14741999 -0.37808445 0.3309035
-0.13849844 -0.37521765 0.33021182
-0.13060524 -0.37455657 0.33086476
-0.12962125 -0.37454718 0.33086407
-0.12046779 -0.37170666 0.33009371
-0.11280799 -0.37104204 0.3307665
-0.10329006 -0.36749038 0.33052611
-0.10227491 -0.36746958 0.33050695
-0.086090453 -0.36321294 0.33080995
-0.08506725 -0.36320728 0.33079869
-0.084403127 -0.36389399 0.330163
-0.071259998 -0.35959509 0.33034
-0.070203543 -0.35959277 0.33033538
-0.053968724 -0.3552627 0.3303251
-0.052974384 -0.35525665 0.33032599
-0.054725569 -0.35451546 0.33090413
-0.035312321 -0.35013494 0.33075547
-0.0090320893 -0.34131286 0.33002695
-0.0079756714 -0.34131074 0.3300201
0.0080297813 -0.33535188 0.33045918
0.0091326712 -0.33533362 0.33045372
0.010133524 -0.33531788 0.33045164
0.035524189 -0.32402498 0.33029589
-0.13131496 -0.37386593 0.33151841
-0.11450546 -0.37030956 0.33137146
-0.11352323 -0.37032494 0.33138061
-0.095314451 -0.36604124 0.33177406
-0.094187699 -0.366041 0.33176672
-0.064239316 -0.35814238 0.3315382
-0.063231573 -0.35814947 0.33153442
-0.035993375 -0.34938675 0.33130664
-0.019327002 -0.34425005 0.33158717
-0.018664006 -0.34498569 0.33102173
-0.0026220414 -0.33902353 0.33163524
-0.001585751 -0.33902395 0.33164528
-0.15625969 -0.38020164 0.33213204
-0.15799773 -0.37953168 0.33282173
-0.15696602 -0.37951869 0.33280173
-0.14121331 -0.37602323 0.33289841
-0.14052549 -0.37668341 0.33221754
-0.12369448 -0.37317699 0.3321481
-0.12256115 -0.37316796 0.33214572
-0.12441745 -0.3724885 0.33283284
-0.095970891 -0.36535349 0.33239955
-0.080090776 -0.36177716 0.33202547
-0.079128951 -0.36178207 0.33203885
-0.064946197 -0.35741618 0.33211592
-0.047653157 -0.35304421 0.33206117
-0.046672869 -0.35302946 0.33205953
-0.04563367 -0.35304305 0.3320761
-0.02895863 -0.34793937 0.33246163
0.016905429 -0.33228126 0.33257863
0.017915832 -0.33230031 0.33258274
0.019091973 -0.33230004 0.33258834
0.029428493 -0.32697231 0.33226496
0.030440295 -0.3269859 0.33228412
0.031615805 -0.32699665 0.33229789
-0.15037248 -0.37884498 0.33346272
-0.13347474 -0.37534082 0.33352578
-0.10622264 -0.36824039 0.33331314
-0.1050824 -0.36825368 0.33331591
-0.10693108 -0.3675099 0.33394283
-0.087851942 -0.36394933 0.33364758
-0.073039025 -0.36033264 0.3332406
-0.073848732 -0.35958531 0.33383855
-0.057615466 -0.35522527 0.33388397
-0.056928273 -0.3559604 0.33329511
-0.038057007 -0.35084128 0.33381265
-0.029647622 -0.34721169 0.33304876
-0.011904638 -0.34201601 0.33323628
-0.010795688 -0.3420175 0.333253
-0.012575111 -0.34124634 0.33378193
0.0061605442 -0.33603764 0.33378258
0.016277876 -0.33149666 0.3330974
-0.16652599 -0.38102216 0.33473769
-0.16583435 -0.38166654 0.33403245
-0.15107529 -0.37815893 0.33412534
-0.15176579 -0.37751421 0.33481589
-0.14327897 -0.37751627 0.33485821
-0.13462174 -0.37434578 0.33454746
-0.12645879 -0.37399432 0.33489135
-0.11746472 -0.37112281 0.33411539
-0.1162945 -0.37110206 0.33411041
-0.11819658 -0.37044877 0.33478534
-0.098032743 -0.36685693 0.33458966
-0.088597156 -0.36323714 0.33424744
-0.081837937 -0.36253196 0.33489403
-0.067080289 -0.35889837 0.33444238
-0.039950464 -0.35013837 0.33445051
-0.03878811 -0.35011607 0.33441913
-0.021492749 -0.34571096 0.33420014
-0.023248367 -0.34497491 0.33474323
-0.022252709 -0.34497499 0.33476067
-0.005530782 -0.33976424 0.33490989
-0.0044339607 -0.33974805 0.33490536
-0.1784624 -0.38321197 0.33588225
-0.17317598 -0.38319427 0.33591023
-0.15984716 -0.38037878 0.33543667
-0.14406225 -0.37684163 0.33550966
-0.12722734 -0.37331754 0.33555678
-0.098754801 -0.3661437 0.33521834
-0.099533059 -0.36543271 0.33584937
-0.082656309 -0.36180601 0.33550876
-0.067891605 -0.35818306 0.33506972
-0.050119262 -0.35309377 0.33570716
-0.049371019 -0.35381305 0.33510259
-0.03173833 -0.34867117 0.3355968
-0.0061805723 -0.33901814 0.33546779
0.014149892 -0.33297148 0.33595145
0.025187636 -0.32846695 0.33522567
0.026294671 -0.32845241 0.33520922
0.027313335 -0.32844004 0.33520758
0.039638441 -0.32164586 0.33584955
-0.1613466 -0.37906933 0.33678383
-0.16065209 -0.3797285 0.33611932
-0.14487255 -0.3761771 0.33619449
-0.13704309 -0.37551853 0.33689529
-0.12805486 -0.37263545 0.3362143
-0.10899439 -0.36901829 0.33608106
-0.11074443 -0.36837155 0.33674836
-0.10967217 -0.36834708 0.336732
-0.0907529 -0.36475399 0.33645961
-0.075605638 -0.36036208 0.33675304
-0.060365636 -0.35604799 0.33690748
-0.059683312 -0.35674471 0.33627835
-0.032456502 -0.34792793 0.33618286
-0.014724781 -0.34270227 0.33644986
0.0040609566 -0.33752429 0.33655763
-0.17359358 -0.3819297 0.33733094
-0.1683121 -0.38192055 0.33732283
-0.15362284 -0.3784315 0.33748153
-0.13784154 -0.37483484 0.33756122
-0.11994796 -0.3712838 0.33753163
-0.092456177 -0.36404824 0.33712634
-0.091407493 -0.3640587 0.3371008
-0.076314136 -0.35966346 0.33738244
-0.042719346 -0.35094255 0.33753827
-0.041736785 -0.35094428 0.33754537
-0.025044953 -0.3457289 0.33788794
-0.015462027 -0.34195784 0.3370229
0.0016488649 -0.33602589 0.33771676
0.0023786782 -0.33676431 0.3371498
0.0034131515 -0.33676752 0.33712357
-0.19097996 -0.3841117 0.33843929
-0.18557435 -0.38412797 0.33843756
-0.18022583 -0.38414934 0.3384462
-0.16903037 -0.38128218 0.33801219
-0.15449227 -0.37777019 0.33817717
-0.14767331 -0.37711406 0.33889595
-0.14693332 -0.37775442 0.33818606
-0.12984511 -0.373514 0.33892033
-0.12064649 -0.37058833 0.33818749
-0.10243681 -0.36630261 0.33869082
-0.10173657 -0.36696848 0.33802614
-0.084531933 -0.36265692 0.33841029
-0.069638193 -0.35900667 0.33803281
-0.070311338 -0.35830018 0.33867326
-0.052376311 -0.35461384 0.33814278
-0.025722964 -0.34497961 0.33846417
-0.007991693 -0.33978406 0.33875299
0.023296863 -0.32922974 0.33871076
0.034804162 -0.32387385 0.33839959
0.035846841 -0.32389545 0.33837941
0.037042182 -0.32391194 0.33837542
-0.18071157 -0.38286525 0.33985946
-0.175468 -0.38285315 0.33989468
-0.16315702 -0.37996721 0.33938685
-0.14849411 -0.3764427 0.33956206
-0.13052404 -0.37285575 0.33960032
-0.1126898 -0.36926481 0.33955246
-0.085208446 -0.36198768 0.33907297
-0.063363828 -0.35689196 0.33992705
-0.062237952 -0.35689664 0.33991095
-0.052719992 -0.35319215 0.33936778
-0.053376619 -0.35248345 0.33997971
-0.035039887 -0.34801748 0.33990297
-0.034364026 -0.34874117 0.33931321
-0.017702607 -0.3435261 0.33968106
-0.0086914096 -0.3390463 0.33933076
0.010488349 -0.3330034 0.3398917
0.011133476 -0.33375412 0.33933577
0.012256343 -0.33375949 0.33934316
0.02165891 -0.32846838 0.33923411
0.0226594 -0.32846606 0.33925185
-0.20160238 -0.38572332 0.34024954
-0.19708072 -0.38508841 0.34096166
-0.16369841 -0.37865964 0.34081152
-0.15627573 -0.37868515 0.3408148
-0.13979214 -0.37574822 0.34024909
-0.13094254 -0.37151653 0.34095851
-0.12250593 -0.37150586 0.34093273
-0.1134176 -0.3685672 0.34019306
-0.11408804 -0.36787468 0.34085023
-0.094058529 -0.36422357 0.34065697
-0.078175202 -0.36057535 0.34034318
-0.044586275 -0.35176623 0.34061095
-0.018369963 -0.34281114 0.34027591
-0.000614152 -0.33755845 0.34047714
0.0098495027 -0.33227104 0.34045041
-0.21354309 -0.38797849 0.34129187
-0.18720821 -0.38447198 0.34169346
-0.17062835 -0.38156959 0.34130514
-0.14020862 -0.37443745 0.34164435
-0.12333433 -0.37084714 0.34161448
-0.094865449 -0.36353657 0.34131721
-0.078970619 -0.35990208 0.3410069
-0.07215374 -0.35918519 0.34164
-0.06370955 -0.35547379 0.34118369
-0.045417327 -0.3510299 0.34120116
-0.046118125 -0.35030261 0.34179774
-0.027926186 -0.34655657 0.34106168
-0.018695103 -0.34135991 0.34145492
-0.0019609402 -0.3360647 0.34159648
-0.0009246642 -0.33606467 0.34160638
0.033030055 -0.32467371 0.34196237
-0.22626618 -0.38958672 0.34298608
-0.21953279 -0.38734436 0.34200349
-0.2079678 -0.38736442 0.3420186
-0.21399499 -0.38674816 0.34276772
-0.19223168 -0.38382369 0.34241208
-0.17573577 -0.38091895 0.3420133
-0.15670507 -0.37737507 0.34221378
-0.15744624 -0.37673959 0.34293768
-0.15012467 -0.37672231 0.34289983
-0.10392759 -0.36655283 0.34220526
-0.10470544 -0.36587489 0.34287333
-0.086703755 -0.36220601 0.34263936
-0.072582752 -0.35779271 0.34290281
-0.028377166 -0.34514856 0.34229273
-0.010550041 -0.33990842 0.34262115
0.019760568 -0.3292993 0.34270182
0.032317765 -0.3239167 0.3425056
-0.23243926 -0.38895816 0.34373638
-0.1709315 -0.37963802 0.34345829
-0.14061186 -0.37313864 0.34304208
-0.13288793 -0.37247744 0.34369543
-0.12376562 -0.36950982 0.34300384
-0.10553329 -0.36518395 0.34353667
-0.087439843 -0.36150002 0.34327051
-0.055284705 -0.3533572 0.34303728
-0.05610241 -0.35263914 0.34364915
-0.036877688 -0.34888646 0.3430219
-0.028735081 -0.34371439 0.34350699
-0.010958194 -0.33844453 0.34377491
0.0079332516 -0.33313805 0.34386525
0.018299179 -0.3277849 0.34380549
0.031511392 -0.32315031 0.34303385
0.044503625 -0.31698433 0.34309492
-0.22686525 -0.38839525 0.34450623
-0.2081704 -0.38552606 0.34425709
-0.20290595 -0.38550299 0.3442491
-0.18713035 -0.38196641 0.34459448
-0.18182984 -0.38195202 0.3445994
-0.16535731 -0.37900588 0.34416881
-0.15054905 -0.37540922 0.3442916
-0.11567026 -0.36816281 0.3443332
-0.096667245 -0.3645004 0.34419781
-0.080424249 -0.3601391 0.34458855
-0.065571964 -0.35639042 0.3441782
-0.047918186 -0.35123435 0.34490398
-0.03720165 -0.34745181 0.34424731
-0.020605873 -0.34224671 0.34471449
0.0071338275 -0.33240142 0.34442973
-0.248505 -0.3906756 0.34546143
-0.19811094 -0.38424969 0.34572193
-0.19213513 -0.38133639 0.34533069
-0.14247607 -0.37413815 0.34575316
-0.13339989 -0.37118167 0.34509814
-0.12559973 -0.3705115 0.34580311
-0.11653389 -0.36751568 0.34501728
-0.097058013 -0.36316085 0.34553191
-0.080816999 -0.35874605 0.34587696
-0.065999262 -0.35500261 0.3454389
-0.037608754 -0.34602866 0.34549436
-0.021032147 -0.34080452 0.3459022
0.0068521169 -0.33091909 0.34557527
-0.25940382 -0.39297575 0.34634498
-0.24392843 -0.39009902 0.34625205
-0.21530738 -0.38659385 0.3467609
-0.20306687 -0.38365027 0.34646925
-0.17673504 -0.38006875 0.34678295
-0.16549395 -0.37710643 0.34633061
-0.097480908 -0.36178949 0.34685317
-0.048252724 -0.3498404 0.34616598
-0.0039198222 -0.33477834 0.3467043
0.017750105 -0.33018139 0.34616315
0.02965752 -0.32401133 0.34658876
0.04160776 -0.31788963 0.34679621
0.042625703 -0.31785017 0.3467811
-0.28091335 -0.39468613 0.34798747
-0.25467139 -0.39179164 0.34792671
-0.19829573 -0.38239473 0.34793317
-0.1817874 -0.37944183 0.34752166
-0.15883082 -0.37648517 0.34705472
-0.15964808 -0.37585557 0.34776184
-0.14298287 -0.3728368 0.34713423
-0.12578616 -0.36853889 0.34787717
-0.1070981 -0.36547309 0.3470653
-0.10779941 -0.36480114 0.34773949
-0.088727213 -0.3611137 0.34749705
-0.073921897 -0.35734305 0.34717575
-0.057645243 -0.35288686 0.34734893
-0.030244878 -0.34390333 0.34734029
0.016807107 -0.32792184 0.34786329
0.029011732 -0.32327208 0.34713662
0.041369904 -0.31640363 0.34788972
-0.27641916 -0.39410302 0.34876332
-0.27036697 -0.39469665 0.34801453
-0.22824794 -0.38829592 0.34851718
-0.2095079 -0.38535848 0.34826326
-0.17696579 -0.37819839 0.3489742
-0.17295705 -0.3788358 0.34828621
-0.17195615 -0.37880492 0.34827298
-0.15182267 -0.37519839 0.34842804
-0.1435142 -0.37154457 0.34854802
-0.134973 -0.37157419 0.34857178
-0.089190878 -0.35976142 0.34881333
-0.057987295 -0.35150966 0.34863532
-0.039627984 -0.34701997 0.34871158
-0.012145955 -0.33789769 0.34827438
-0.0047291834 -0.33789459 0.34828436
0.016141852 -0.32718113 0.3484278
0.028717475 -0.32178926 0.34825164
-0.27091122 -0.39353707 0.34957764
-0.1882157 -0.38118052 0.34940043
-0.16712014 -0.37757367 0.34973404
-0.16180234 -0.37758425 0.34969944
-0.15236174 -0.3739638 0.3498899
-0.13651216 -0.37024269 0.34996486
-0.13569833 -0.37090582 0.34927365
-0.11783854 -0.36723727 0.34924158
-0.11854355 -0.36656424 0.34992808
-0.10818481 -0.36348191 0.3490954
-0.089860067 -0.35908496 0.34948123
-0.067366377 -0.3546215 0.34979397
