# .PCD v0.7 - Point Cloud Data file format
VERSION 0.7
FIELDS x y z
SIZE 4 4 4
TYPE F F F
COUNT 1 1 1
WIDTH 1373
HEIGHT 1
VIEWPOINT 0 0 0 1 0 0 0
POINTS 1373
DATA ascii
-0.040735036 -0.11186349 0.21583851
-0.042374205 -0.1236023 0.20662504
-0.044314973 -0.13228598 0.19570422
-0.04651089 -0.13893475 0.18333867
-0.04911232 -0.1429517 0.16867648
-0.053714454 -0.14574154 0.14271788
-0.073968664 -0.046503529 0.028066471
-0.073600002 -0.089873821 0.030256199
-0.07831797 -0.091542095 0.0035992616
-0.080567852 -0.13116129 -0.0090066707
-0.080830231 -0.15354703 -0.010421914
-0.080770329 -0.17616682 -0.010010367
-0.080680594 -0.19785827 -0.0094288895
-0.080879077 -0.21769843 -0.010479669
-0.08046703 -0.23864871 -0.008070454
-0.080683902 -0.25701067 -0.0092241103
-0.080612138 -0.27557001 -0.0087416526
-0.080572009 -0.29348353 -0.0084379073
-0.080408819 -0.31114578 -0.0074363342
-0.080457941 -0.3279444 -0.0076373233
-0.08056473 -0.3443132 -0.0081647262
-0.080397069 -0.36078033 -0.0071363873
-0.080464557 -0.3766484 -0.007440256
-0.08081007 -0.39990452 -0.0092798611
-0.080979101 -0.41535655 -0.010158422
-0.080707192 -0.43093529 -0.0085376464
-0.080687374 -0.44627246 -0.0083453339
-0.080748282 -0.46155843 -0.0086102299
-0.080890171 -0.47687927 -0.0093338313
-0.080938786 -0.49225125 -0.0095285652
-0.080893695 -0.5076555 -0.0091919284
-0.080907017 -0.53101546 -0.0091453958
-0.080965884 -0.54685014 -0.0093974061
-0.080924965 -0.56278658 -0.0090836445
-0.081286572 -0.57957989 -0.011051237
-0.081203848 -0.59604949 -0.010500074
-0.074278355 -0.59927922 0.028837778
-0.071956135 -0.6099301 0.042083804
-0.072310135 -0.62645406 0.040160511
-0.071834087 -0.64962715 0.042984154
-0.081560031 -0.69629425 -0.01206327
-0.082061239 -0.71805811 -0.01482089
-0.082094938 -0.73923582 -0.014928279
-0.081195049 -0.76899588 -0.0097013377
-0.081658691 -0.79436231 -0.012245405
-0.081769824 -0.81964189 -0.012791033
-0.082189813 -0.84797704 -0.015087279
-0.082356662 -0.87689525 -0.015948381
-0.081394099 -0.91690111 -0.010364324
-0.081973858 -0.95352048 -0.013565524
-0.25415167 -2.434617 -0.98934317
-0.25478169 -2.5920508 -0.99282813
-0.25508004 -2.7638748 -0.99443167
-0.23160195 -2.7191706 -0.86125118
-0.17810525 -2.6969297 -0.55771899
-0.15595007 -2.7216995 -0.43198755
-0.019033486 -2.7112374 0.34506851
-0.0054029417 -2.7026196 0.42243424
0.0081546251 -2.6992664 0.49938685
0.021647297 -2.6911962 0.57597154
0.035334513 -2.6953478 0.65363705
0.048646789 -2.6778817 0.72917199
0.062279303 -2.6735506 0.80652303
0.38375837 -8.8287706 2.6294363
0.48643196 -6.2700028 3.2116563
0.49744937 -5.9089074 3.2741559
0.51205778 -5.2314358 3.3570623
0.5162738 -4.9164343 3.381012
0.50385433 -4.4989996 3.3106585
0.50331014 -4.2121468 3.3076277
0.47046316 -3.7283914 3.121479
0.51264566 -3.6616807 3.3606911
0.51206917 -3.442462 3.357482
0.50542438 -3.2056804 3.3198743
0.50233704 -3.0042267 3.3024337
0.50069284 -2.8225765 3.2931752
0.50150841 -2.662231 3.2978604
0.49873582 -2.4953208 3.2822065
0.4961789 -2.3382711 3.2677758
0.49785924 -2.2038488 3.2773645
0.49734789 -2.0018549 3.2745621
0.49294075 -1.8621416 3.2496445
0.48969051 -1.7318127 3.2312856
0.48805848 -1.6105226 3.2220993
0.48720273 -1.4948782 3.2173138
0.48291188 -1.3760456 3.1930568
0.48514107 -1.2723479 3.2057579
0.4865433 -1.1686281 3.2137713
0.48932907 -1.0678301 3.2296271
0.44592696 -0.87383479 2.9837098
0.48935279 -0.81198198 3.2299242
0.46572176 -0.69945478 3.0960433
0.4771015 -0.60766602 3.1606112
0.47177505 -0.50995219 3.1304848
0.47054964 -0.41408437 3.1236036
0.051658075 -0.4326348 0.74941748
0.049919054 -0.41642496 0.73967397
0.050110932 -0.40469959 0.74083716
0.038322758 -0.40271053 0.67413533
0.036781952 -0.4001984 0.66544002
0.035480015 -0.38855252 0.65817451
0.03508018 -0.38469988 0.6559462
0.034142036 -0.37276903 0.65074265
0.033725329 -0.36435181 0.64845657
0.033893842 -0.3591463 0.64944953
0.033141367 -0.34145844 0.64533597
0.033579338 -0.32964334 0.64789379
0.033773065 -0.31803524 0.64906722
0.034017235 -0.30562857 0.6505264
0.035985831 -0.28530905 0.66175872
0.039486587 -0.22477439 0.68182343
0.038134303 -0.21504186 0.67423397
0.036719531 -0.20555952 0.66629028
0.035708837 -0.19336841 0.6606366
0.035048801 -0.17820667 0.65696996
0.034277838 -0.15177183 0.65271127
0.22614253 1.6787037 1.7401317
0.20797016 1.6738614 1.6372039
0.19234911 1.6882309 1.5487342
0.16890998 1.7007198 1.4159883
0.14970168 1.6536027 1.3071957
0.12698615 1.5370935 1.1785349
0.11284835 1.530515 1.0984761
0.09951432 1.5312555 1.022972
0.086678021 1.5368254 0.95028836
0.073825672 1.5377407 0.87751454
0.061673947 1.553622 0.8087095
0.049318358 1.5631106 0.73874992
0.036697257 1.5591818 0.66728777
0.017671444 1.5225251 0.55956602
0.0057959668 1.5561482 0.49232379
-0.0064596403 1.5563859 0.42293265
-0.018691218 1.5521665 0.35367852
-0.030956166 1.5524834 0.28423446
-0.043402832 1.5592781 0.21375933
-0.055816662 1.5575739 0.14347182
-0.069248624 1.5858412 0.067408107
-0.081350453 1.5641773 -0.0011073094
-0.10090216 1.5649579 -0.1118158
-0.034414582 -0.066615835 0.26560602
-0.037089035 -0.068769932 0.25052416
-0.040324885 -0.08202371 0.23230074
-0.040499404 -0.096052073 0.23135258
-0.04308239 -0.11358088 0.21683057
-0.044806074 -0.12444418 0.20713949
-0.046741579 -0.13310862 0.1962474
-0.048932053 -0.13973716 0.18390976
-0.05141848 -0.14451021 0.16989429
-0.055888694 -0.14797597 0.14467278
-0.07773114 -0.053569347 0.020964807
-0.076465771 -0.074646086 0.028179571
-0.081090018 -0.09023869 0.0020873479
-0.081690885 -0.1129243 -0.0012369927
-0.083080105 -0.13117059 -0.0090306308
-0.083201699 -0.15413006 -0.0096382666
-0.083139911 -0.17672093 -0.0092064999
-0.083346099 -0.19735256 -0.010294001
-0.083092861 -0.2186777 -0.0087772654
-0.082985878 -0.23865812 -0.0080897007
-0.083046101 -0.25744286 -0.0083501143
-0.082972638 -0.27597031 -0.0078528291
-0.0829309 -0.29385149 -0.007535418
-0.082766242 -0.31148094 -0.0065212864
-0.082980074 -0.32795393 -0.0076527037
-0.082919404 -0.34458169 -0.0072281575
-0.0833911 -0.36821538 -0.0097809341
-0.083240755 -0.38429445 -0.0088481307
-0.083333306 -0.39991423 -0.0092921369
-0.083329625 -0.41547093 -0.0091906711
-0.083403878 -0.43087515 -0.0095309457
-0.08338438 -0.44624722 -0.0093397945
-0.083271585 -0.46156824 -0.0086198132
-0.083413363 -0.4768891 -0.0093427412
-0.083461843 -0.49226111 -0.0095367953
-0.083444901 -0.51543462 -0.0093195867
-0.083257966 -0.53086901 -0.0081791775
-0.083488204 -0.5468601 -0.0094031915
-0.083616324 -0.56302142 -0.010048309
-0.083640516 -0.57933122 -0.010104293
-0.083725303 -0.59605956 -0.010503612
-0.076963075 -0.59961325 0.02790321
-0.074638046 -0.61029637 0.041161455
-0.074829362 -0.62646216 0.04015832
-0.074747801 -0.64245433 0.040701795
-0.084233016 -0.69677395 -0.012931636
-0.084580503 -0.71806854 -0.014818638
-0.084613845 -0.73924631 -0.014924993
-0.083855562 -0.76957965 -0.01050334
-0.084176607 -0.79437274 -0.012239398
-0.084422484 -0.82028157 -0.013549111
-0.084707223 -0.84798765 -0.015078565
-0.084746726 -0.87622392 -0.015217855
-0.084031343 -0.91763085 -0.011036219
-0.084141478 -0.95130187 -0.011574324
-0.25653368 -2.4330544 -0.98809063
-0.25678915 -2.5871325 -0.98942006
-0.25703055 -2.7579949 -0.99066502
-0.23323488 -2.7096949 -0.8557232
-0.18103431 -2.701534 -0.5596121
-0.15926792 -2.7329333 -0.43611202
-0.055791188 -2.7077167 0.15094662
-0.0079223141 -2.7026083 0.4225449
0.0056584445 -2.7022493 0.49960014
0.019246994 -2.7001553 0.57669908
0.032786954 -2.6933348 0.65354294
0.046354216 -2.6867669 0.73051316
0.059801091 -2.674504 0.80679977
0.3859531 -8.9320049 2.6571271
0.49273878 -6.3741264 3.2619858
0.49436489 -5.9025846 3.2711577
0.51038718 -5.2389259 3.3619549
0.51484877 -4.9254122 3.3872471
0.50228381 -4.5061445 3.3160233
0.5014655 -4.2167401 3.3114049
0.46708435 -3.7221375 3.1165316
0.50862366 -3.6520395 3.3520696
0.5084821 -3.4359665 3.3513122
0.50154459 -3.1980505 3.3120377
0.49828029 -2.996228 3.2935903
0.49753287 -2.8193069 3.2894146
0.49916044 -2.6627119 3.2987049
0.49539268 -2.4917603 3.2774165
0.49004418 -2.3245368 3.2471716
0.49700209 -2.2093999 3.2866857
0.49117139 -2.0554428 3.2537141
0.49137267 -1.8646626 3.2549765
0.48638734 -1.7296712 3.2268035
0.48506084 -1.6092932 3.2193716
0.48256096 -1.4903272 3.2052908
0.48203924 -1.3790357 3.2024248
0.48261064 -1.2722484 3.2057567
0.48434418 -1.169014 3.2156777
0.48678669 -1.0677332 3.229619
0.44035241 -0.91733319 2.9665246
0.48679346 -0.81188941 3.2299087
0.46748167 -0.70154917 3.1205509
0.47539461 -0.60784101 3.1655078
0.47110355 -0.51006061 3.1412928
0.46778542 -0.41401899 3.1225941
0.048718572 -0.43279248 0.74743009
0.04745714 -0.42203292 0.74037689
0.04750799 -0.40468407 0.74081105
0.035884243 -0.40247217 0.67506856
0.034340966 -0.39994341 0.66636914
0.033031002 -0.38824758 0.65908951
0.032463148 -0.38468739 0.65591931
0.032050774 -0.38089153 0.65363044
0.031396229 -0.36835515 0.65006661
0.030939776 -0.35513228 0.64762622
0.030504832 -0.34144726 0.6453082
0.031189421 -0.33412749 0.64923859
0.030980695 -0.31855425 0.64820391
0.031367812 -0.30561796 0.65049821
0.032642808 -0.28169098 0.65787715
0.039839141 -0.2263778 0.6988309
0.037590954 -0.22074981 0.68618655
0.035584725 -0.21433738 0.67491406
0.034161273 -0.20483072 0.66694611
0.033025246 -0.19335917 0.66060829
0.032360211 -0.17819771 0.65694177
0.031581283 -0.15176326 0.65268326
0.22389184 1.6846596 1.743771
0.20585068 1.6816733 1.6416234
0.18919568 1.6855986 1.5473357
0.17291185 1.6872962 1.4551511
0.14711949 1.6582177 1.3091127
0.12413364 1.5380379 1.1788806
0.10992815 1.5305248 1.0984703
0.096537083 1.5303079 1.0226797
0.08374466 1.5368333 0.95028567
0.070847005 1.5367737 0.8772918
0.058825437 1.5565734 0.8092742
0.046146408 1.5552152 0.73751891
0.033757556 1.5601796 0.66741168
0.01473008 1.524525 0.55970907
0.0028740524 1.5651469 0.49264181
-0.0094421208 1.5633901 0.42294261
-0.021684822 1.5531697 0.35365477
-0.034010731 1.5574751 0.28390363
-0.046458051 1.5622655 0.21346456
-0.058871455 1.5595584 0.14321309
-0.072355464 1.5887997 0.066912785
-0.084514372 1.5680943 -0.0019075298
-0.10402032 1.5668947 -0.11230476
-0.037358902 -0.064757444 0.26484495
-0.041248135 -0.070064634 0.24294288
-0.043066636 -0.08291062 0.23272401
-0.043238178 -0.096930943 0.23179071
-0.045905501 -0.11357657 0.21680602
-0.047631048 -0.12443975 0.20711465
-0.049369238 -0.1347425 0.1973518
-0.051552333 -0.14132982 0.18506961
-0.054031897 -0.14605974 0.17110819
-0.057416923 -0.1453554 0.15201828
-0.079573534 -0.045066148 0.026649602
-0.081508271 -0.076233402 0.015804945
-0.083947584 -0.090231344 0.0020643058
-0.086493008 -0.12875517 -0.01220087
-0.086201243 -0.15354839 -0.010470492
-0.085850842 -0.17725751 -0.0084072705
-0.085904628 -0.19837451 -0.0086333966
-0.085948981 -0.21866921 -0.0088058049
-0.086151496 -0.23774129 -0.0098740123
-0.085901931 -0.25743404 -0.0083805816
-0.085828394 -0.27596134 -0.0078842677
-0.08594887 -0.29348385 -0.0084871762
-0.085950553 -0.31082031 -0.0084169023
-0.086002044 -0.32765198 -0.0086288135
-0.085775226 -0.34457207 -0.0072635207
-0.08577577 -0.36078012 -0.007186716
-0.086096719 -0.38428438 -0.0088860216
-0.086017229 -0.40004325 -0.0083558969
-0.086012788 -0.41556516 -0.008251261
-0.086086482 -0.43093443 -0.0085896635
-0.086240202 -0.44623646 -0.0093819993
-0.086127289 -0.46155733 -0.0086631533
-0.086268865 -0.47687799 -0.0093872491
-0.086317085 -0.49224985 -0.0095825
-0.086299635 -0.51542312 -0.0093671428
-0.086303785 -0.52321047 -0.0093520945
-0.08634194 -0.54684824 -0.0094533516
-0.086469375 -0.56300938 -0.010099845
-0.086492799 -0.579319 -0.010157242
-0.086576656 -0.59604716 -0.010558034
-0.08047393 -0.60090363 0.024123557
-0.077492677 -0.61028522 0.041105524
-0.077683039 -0.6264509 0.04010088
-0.077048875 -0.64918554 0.043808576
-0.087382793 -0.69769925 -0.014734562
-0.087270871 -0.71755505 -0.014031449
-0.08689639 -0.74803531 -0.011807171
-0.086690463 -0.76956576 -0.010574133
-0.08700797 -0.79435861 -0.012312619
-0.086980179 -0.81900883 -0.012094051
-0.087137312 -0.8460052 -0.012927113
-0.087311313 -0.87484539 -0.01385858
-0.08648134 -0.91545826 -0.009069195
-0.086946853 -0.95128679 -0.011663374
-0.26017076 -2.3037937 -0.99516684
-0.25853765 -2.4297636 -0.98599625
-0.25877258 -2.5837607 -0.9874537
-0.25963217 -2.7604821 -0.99248505
-0.2371355 -2.7252307 -0.86484063
-0.17703864 -2.7250063 -0.52391809
-0.1606131 -2.7179608 -0.43072501
-0.14498776 -2.715625 -0.34207419
-0.13038668 -2.7250931 -0.25924575
-0.010278606 -2.7006118 0.42226589
0.0032889706 -2.7002578 0.49925056
0.016789733 -2.6921864 0.57586807
0.030451359 -2.6943452 0.6533615
0.043868281 -2.6818352 0.72954941
0.057547204 -2.6784663 0.80720913
0.38043347 -8.8287601 2.6290019
0.48624015 -6.3158312 3.2333694
0.49121526 -5.8868184 3.2623236
0.51431352 -5.2924852 3.3943834
0.51053542 -4.9056411 3.3736284
0.50285089 -4.5273027 3.3307059
0.49950579 -4.2184358 3.312284
0.46568355 -3.7283762 3.1213059
0.50593293 -3.649961 3.3497813
0.50658035 -3.4389091 3.3538451
0.49998078 -3.202935 3.3168495
0.49629968 -2.9989598 3.2963533
0.49525243 -2.8206704 3.2907524
0.49545902 -2.6579995 3.2922366
0.4930461 -2.4930077 3.2788682
0.48810342 -2.3273573 3.2511542
0.4937073 -2.2074354 3.2831743
0.48798335 -2.0540807 3.2510083
0.4878177 -1.8625599 3.2504456
0.48501512 -1.7334195 3.2348051
0.48078564 -1.6060052 3.2110693
0.480203 -1.4914356 3.2079916
0.47983155 -1.380352 3.2061043
0.47922137 -1.2714988 3.202858
0.48143771 -1.1690899 3.2156267
0.48386285 -1.0678073 3.2295754
0.43775728 -0.91774619 2.9684284
0.48314089 -0.81147033 3.2259719
0.46364245 -0.701177 3.1156247
0.4718864 -0.6077469 3.1625423
0.46775743 -0.51008612 3.1393137
0.46495011 -0.41405988 3.1235738
0.045985788 -0.43271363 0.7483896
0.044380739 -0.42216244 0.73937881
0.044606533 -0.41049406 0.74074876
0.032989386 -0.40247804 0.67504984
0.030364849 -0.39245331 0.66029668
0.029656176 -0.37992004 0.65640736
0.028634541 -0.37276161 0.6506995
0.028512625 -0.36835968 0.65005106
0.028059794 -0.35513645 0.64761168
0.027628588 -0.34145111 0.64529467
0.027914146 -0.33013588 0.64700013
0.028109096 -0.31855771 0.64819181
0.028498532 -0.30562124 0.65048677
0.029915409 -0.28109226 0.65865338
0.037372291 -0.22445264 0.70108575
0.034987085 -0.21941437 0.68764204
0.032851599 -0.21364516 0.67561442
0.031306926 -0.20483281 0.66693825
0.029461702 -0.18843094 0.65660036
0.029512882 -0.17819932 0.65693456
0.028634692 -0.15256312 0.65208369
0.033999294 -0.070332408 0.68265855
0.20320652 1.6842715 1.6431065
0.18679565 1.6908971 1.5501127
0.16988638 1.6855004 1.4542866
0.15223095 1.6622856 1.3542209
0.1210528 1.5343064 1.1774597
0.10699768 1.5286366 1.0978172
0.093734048 1.5303108 1.022665
0.080956057 1.5368363 0.95026815
0.068228915 1.540674 0.87815785
0.056363791 1.5654106 0.81094271
0.043618441 1.5631189 0.7387256
0.031006128 1.5591892 0.66726196
0.011815179 1.5075678 0.55850589
0.00013227535 1.5571525 0.49232882
-0.012121098 1.5643899 0.42290258
-0.024428746 1.5661608 0.35316643
-0.03661187 1.553483 0.284132
-0.049056247 1.5602734 0.21362109
-0.06141866 1.5565835 0.14357182
-0.074897654 1.5868245 0.067198612
-0.087103285 1.5680875 -0.0019660357
-0.10618162 1.558192 -0.11007483
-0.039858703 -0.067541927 0.26594231
-0.044009075 -0.069161676 0.24251765
-0.044591058 -0.079605214 0.23925298
-0.047027756 -0.10037357 0.2255439
-0.048582822 -0.11358084 0.21679851
-0.050115552 -0.12612179 0.20818014
-0.051939663 -0.13556665 0.19790997
-0.054113686 -0.14213394 0.18565588
-0.056474734 -0.14762004 0.17234141
-0.059845023 -0.14687149 0.15330409
-0.082198501 -0.073260352 0.026729211
-0.086831398 -0.088930763 0.00056738278
-0.087708332 -0.11041125 -0.0043313126
-0.088278636 -0.13237913 -0.0074906037
-0.088818602 -0.15356129 -0.01047732
-0.088904791 -0.1756365 -0.010890135
-0.088818692 -0.19735767 -0.010325394
-0.088716596 -0.21819802 -0.0096693914
-0.088611767 -0.23820934 -0.0089974497
-0.0885166 -0.25744826 -0.0083798561
-0.088442624 -0.27597579 -0.0078820046
-0.088562548 -0.29349864 -0.0084834043
-0.088399656 -0.31116098 -0.0074804649
-0.088614948 -0.3276673 -0.0086219255
-0.088555746 -0.34432873 -0.0082062604
-0.088388346 -0.36079594 -0.0071765748
-0.088708915 -0.38430068 -0.0088734543
-0.088629469 -0.40005982 -0.0083416281
-0.088625118 -0.415582 -0.0082352702
-0.088698946 -0.43095157 -0.0085719237
-0.088679336 -0.44628885 -0.0083782542
-0.088740423 -0.461575 -0.0086417869
-0.088882469 -0.47689599 -0.0093640108
-0.088931322 -0.49226812 -0.0095573356
-0.089059263 -0.50777698 -0.010198667
-0.089091741 -0.52336842 -0.010298165
-0.08878915 -0.54667675 -0.0084543061
-0.089088403 -0.56302893 -0.010065314
-0.089113384 -0.57933885 -0.010120451
-0.089199007 -0.59606731 -0.010518897
-0.084083118 -0.60287523 0.018577373
-0.080442242 -0.61101979 0.039309468
-0.080150336 -0.62607843 0.041052595
-0.08038725 -0.6428839 0.039797924
-0.089866355 -0.69725168 -0.013811083
-0.089911446 -0.71757716 -0.01397457
-0.090391509 -0.74031466 -0.016603047
-0.08996734 -0.7607457 -0.014103984
-0.089525834 -0.79377985 -0.011457397
-0.089642547 -0.81903207 -0.012021556
-0.089937389 -0.84668481 -0.013593756
-0.089987613 -0.87486929 -0.013777526
-0.089168772 -0.91548228 -0.0089815715
-0.089644283 -0.95131129 -0.011570318
-0.26143274 -2.4282343 -0.98457408
-0.2617332 -2.5821927 -0.98606557
-0.26248288 -2.7571809 -0.99008501
-0.23914209 -2.7131901 -0.85763264
-0.18748748 -2.7125206 -0.56434923
-0.164708 -2.730154 -0.43497717
-0.14868127 -2.7222948 -0.34397769
-0.13324176 -2.7165322 -0.25630662
-0.047619697 -2.6980536 0.22995481
-0.027316894 -2.7112324 0.34528476
-0.013694237 -2.7036085 0.42265269
-0.00014491331 -2.6992488 0.49960807
0.01339971 -2.6961606 0.57653838
0.026807941 -2.6833835 0.65262717
0.040576782 -2.6877487 0.73076677
0.053968258 -2.6735089 0.80674827
0.37606233 -8.8623877 2.6392531
0.47988081 -6.2976255 3.2256763
0.48745251 -5.8962994 3.2682841
0.50853032 -5.2795205 3.3873391
0.50473821 -4.8921332 3.3655412
0.49610898 -4.5060287 3.3163226
0.49436542 -4.2095294 3.3062339
0.46135473 -3.7243228 3.1186857
0.5005399 -3.6394794 3.3409114
0.50403154 -3.4450302 3.3606133
0.49527746 -3.1965568 3.310833
0.49320999 -3.0006895 3.2990179
0.49197251 -2.8210614 3.2919264
0.49252084 -2.6595659 3.2949803
0.49330735 -2.5071096 3.2993956
0.48356056 -2.3222191 3.2440562
0.49170667 -2.2113171 3.2902455
0.48959553 -2.0034742 3.2782385
0.48443365 -1.861446 3.2489436
0.48230329 -1.7339971 3.2368543
0.47828123 -1.6068947 3.21404
0.47692516 -1.4905171 3.2063558
0.47691369 -1.3801175 3.2063038
0.47616869 -1.2709886 3.202096
0.47790638 -1.1678861 3.2119751
0.48137194 -1.0679858 3.2316587
0.43412697 -0.91666275 2.9637132
0.47968709 -0.81074488 3.2221851
0.46039248 -0.70068693 3.1127889
0.46865341 -0.60735685 3.1596875
0.46506745 -0.50985491 3.1393967
0.46193385 -0.41386467 3.1216748
0.042037476 -0.42202091 0.7403999
0.041922551 -0.40484554 0.73986328
0.030660428 -0.406946 0.67606801
0.029127533 -0.40426409 0.66741318
0.027858857 -0.39244157 0.660335
0.026131509 -0.37275127 0.6507349
0.026010104 -0.36834952 0.65008587
0.025882388 -0.35912901 0.64944077
0.025339294 -0.34585914 0.64648002
0.025662748 -0.33460674 0.64839447
0.025610752 -0.3185488 0.64822024
0.026000859 -0.30561233 0.65051371
0.027280029 -0.28168473 0.65789098
0.032750063 -0.21806467 0.68912333
0.030481463 -0.21294035 0.67633963
0.028932516 -0.20410433 0.66763812
0.027911773 -0.19186641 0.66193306
0.02712933 -0.17742553 0.65758038
0.027077129 -0.15666795 0.65737081
0.032491036 -0.076627187 0.68821651
0.19976231 1.6748446 1.6375253
0.18397421 1.687456 1.5480986
0.16761287 1.6882783 1.455418
0.14852285 1.6468275 1.34725
0.11847354 1.533428 1.1769584
0.10407878 1.5220655 1.0954255
0.091203779 1.5303509 1.0225183
0.078418791 1.5368694 0.95012128
0.065762527 1.5426486 0.87845439
0.053216342 1.5477606 0.80741185
0.040815007 1.554242 0.73719168
0.028439183 1.5591944 0.66711581
0.015438659 1.5198019 0.59347761
-0.0024478086 1.5581394 0.49221909
-0.014714531 1.5543708 0.42275843
-0.026963446 1.5551411 0.35340098
-0.039209295 1.5524521 0.28405923
-0.051820267 1.568189 0.21265648
-0.063996151 1.5545555 0.14370582
-0.077533923 1.5867692 0.067056768
-0.089710377 1.5670465 -0.0019006453
-0.10265049 1.5662857 -0.07517837
-0.042977806 -0.059234969 0.26262251
-0.046617463 -0.068295836 0.24210189
-0.04704944 -0.080544926 0.23968594
-0.049562391 -0.10041631 0.22554681
-0.049876388 -0.11176015 0.22379996
-0.052555341 -0.12700558 0.20872143
-0.054374602 -0.13643222 0.19848043
-0.056334954 -0.14457777 0.18743993
-0.058791585 -0.14922394 0.17358738
-0.062039878 -0.14918745 0.15524867
-0.085374154 -0.069852613 0.023187827
-0.089644156 -0.087687381 -0.00091732916
-0.090408638 -0.13425471 -0.0051262113
-0.091220319 -0.15420571 -0.0096642049
-0.091300502 -0.17625237 -0.010056258
-0.091208443 -0.19794421 -0.0094718114
-0.091100506 -0.21875462 -0.0087972162
-0.091144793 -0.23828144 -0.0089852912
-0.091204181 -0.25709805 -0.0092589697
-0.090969823 -0.27604848 -0.0078674546
-0.091249004 -0.2932134 -0.0093871662
-0.091085069 -0.31090876 -0.0083949324
-0.091133066 -0.32774112 -0.0086043086
-0.091070622 -0.34440282 -0.0081877047
-0.090899862 -0.36087027 -0.0071571148
-0.091386385 -0.38420209 -0.0098226331
-0.091100343 -0.39234895 -0.0081698177
-0.091296934 -0.41555315 -0.0091924528
-0.091194198 -0.43102762 -0.0085489303
-0.091170602 -0.44636527 -0.0083545521
-0.091227546 -0.46165177 -0.0086174011
-0.091191739 -0.47693825 -0.0083547374
-0.091409639 -0.49234566 -0.0095316432
-0.091360219 -0.50775039 -0.0091929408
-0.091366686 -0.531111 -0.0091432929
-0.091250308 -0.54675543 -0.0084265023
-0.091374874 -0.56288314 -0.0090773171
-0.091563307 -0.57941836 -0.010091487
-0.091476947 -0.59585482 -0.009547567
-0.087016657 -0.60392916 0.015813483
-0.082556114 -0.61037821 0.041177996
-0.082742117 -0.62654459 0.040176224
-0.082655363 -0.64253718 0.040721074
-0.092117645 -0.69686443 -0.01290896
-0.092457674 -0.71815979 -0.01479425
-0.09248364 -0.73933798 -0.01489888
-0.092488542 -0.76138818 -0.014886105
-0.091749921 -0.79326153 -0.01063579
-0.091993749 -0.819116 -0.011985806
-0.092275985 -0.84676927 -0.013557315
-0.09243989 -0.87563616 -0.014460625
-0.091474682 -0.9155671 -0.008943595
-0.091817223 -0.95065355 -0.010872509
-0.26308873 -2.4284291 -0.98448247
-0.26340982 -2.5832174 -0.98652059
-0.26370034 -2.7548335 -0.98841935
-0.24159415 -2.722899 -0.86295259
-0.20597959 -2.7176723 -0.66088057
-0.18874028 -2.7099309 -0.56305659
-0.17306344 -2.7156758 -0.47411799
-0.14977226 -2.7167485 -0.34196755
-0.13491261 -2.7214313 -0.25766206
-0.049044751 -2.7030988 0.22959733
-0.015011497 -2.6986508 0.42271942
-0.0014430544 -2.7002821 0.49970695
0.012069438 -2.6931934 0.57639468
0.025645919 -2.6903615 0.65341079
0.039223902 -2.685776 0.73055661
0.052642275 -2.6735075 0.80681264
0.38178375 -8.9452457 2.6613824
0.48326719 -6.3333058 3.2431049
0.48812836 -5.9022059 3.2716725
0.48553634 -5.4480572 3.2580018
0.51363403 -5.3284211 3.4177468
0.4975948 -4.5227437 3.3286009
0.4955788 -4.2242298 3.3178697
0.46207917 -3.7363298 3.1289184
0.49170712 -3.7030771 3.2971554
0.49334046 -3.4942153 3.3069375
0.49734786 -3.2147043 3.3303726
0.49135038 -2.9984589 3.2968767
0.4901436 -2.8195422 3.2904794
0.49157333 -2.6623154 3.2989929
0.49457842 -2.5188954 3.3164127
0.48175105 -2.3219678 3.2441278
0.48909461 -2.208487 3.2860935
0.48260006 -2.0526252 3.2496462
0.47841558 -1.9119807 3.2262702
0.48036695 -1.734159 3.2378099
0.47644985 -1.6074027 3.2159185
0.47618797 -1.4933556 3.2147336
0.47515315 -1.3808066 3.2091596
0.47636938 -1.2748861 3.2163384
0.47623178 -1.1686178 3.2158368
0.47813132 -1.0667101 3.2268789
0.43304288 -0.91784209 2.971504
0.47753659 -0.81075627 3.2241678
0.45768115 -0.70037931 3.1118319
0.46590668 -0.60708094 3.1587253
0.46315265 -0.50970399 3.1433527
0.45963737 -0.41361201 3.1236584
0.039191004 -0.42214629 0.7394411
0.039408762 -0.40467522 0.74085134
0.028127853 -0.40202376 0.67702723
0.026210461 -0.39537874 0.66626227
0.025159003 -0.39245182 0.66035312
0.023579499 -0.37240365 0.65167195
0.02299468 -0.3643454 0.64846557
0.022833275 -0.35513768 0.64766175
0.022608215 -0.34586996 0.64649677
0.022925671 -0.33461729 0.64841086
0.023302238 -0.32257694 0.65066081
0.023105271 -0.30618164 0.6497125
0.024241405 -0.28289777 0.65633231
0.030226292 -0.21673277 0.69059843
0.027945653 -0.21155834 0.67776769
0.026263271 -0.20339295 0.66833305
0.02511717 -0.19187476 0.66194344
0.024329593 -0.17743412 0.65759009
0.024057852 -0.15825252 0.65616697
0.024199605 -0.12168848 0.65715522
0.19685003 1.6766438 1.6384264
0.18113782 1.6901648 1.5494004
0.16431147 1.6856341 1.4540372
0.14482777 1.6386492 1.3435611
0.12127721 1.51701 1.2099483
0.10099376 1.5211445 1.0950257
0.088129982 1.5294141 1.0221502
0.075401343 1.5368834 0.9500401
0.06278991 1.5436319 0.8785938
0.050672509 1.5615075 0.80995917
0.038085658 1.564118 0.738648
0.025425058 1.5581959 0.66691095
0.01272513 1.5377223 0.59493858
0.00067498145 1.5535895 0.52668238
-0.017684596 1.5613483 0.42267129
-0.029931886 1.556114 0.35327896
-0.042287089 1.5623966 0.28328377
-0.054641377 1.5611919 0.21328768
-0.067180738 1.5644181 0.14224529
-0.080318414 1.5818009 0.067819916
-0.09263844 1.566998 -0.0019922671
-0.10599284 1.5759358 -0.077653535
-0.049571041 -0.067419961 0.2416895
-0.049930442 -0.08057531 0.23969054
-0.052362088 -0.10132161 0.22603007
-0.053824477 -0.1153699 0.21782354
-0.054323789 -0.12414255 0.21503451
-0.056168597 -0.13336752 0.20466247
-0.059123538 -0.1454079 0.18804115
-0.061577741 -0.15003298 0.17421596
-0.064709574 -0.15072942 0.15654972
-0.088647477 -0.067807756 0.021066027
-0.09202183 -0.090350993 0.0020604143
-0.092352375 -0.11429571 0.0002703791
-0.094566427 -0.12887776 -0.012197343
-0.094275527 -0.15367082 -0.010461969
-0.094363183 -0.17574595 -0.010871761
-0.094427504 -0.19695191 -0.011148229
-0.094330072 -0.21782224 -0.010506619
-0.094075076 -0.2383181 -0.0089705763
-0.094139129 -0.25713423 -0.0092429295
-0.094069533 -0.27569345 -0.0087566124
-0.094031595 -0.29360691 -0.0084491335
-0.093706518 -0.31159449 -0.0065126326
-0.09408813 -0.32777536 -0.0085831424
-0.093863316 -0.34469533 -0.0072139902
-0.093865827 -0.36090347 -0.0071334569
-0.094189726 -0.3844083 -0.0088273007
-0.094112523 -0.40016723 -0.0082934462
-0.094123423 -0.40793738 -0.0083070463
-0.094186544 -0.43105873 -0.0085198032
-0.094169229 -0.44639587 -0.0083241938
-0.094232611 -0.4616819 -0.0085858041
-0.094376937 -0.47700286 -0.0093061132
-0.094254881 -0.49230507 -0.0085151568
-0.094385616 -0.50777912 -0.0091575375
-0.094593048 -0.52347505 -0.010234515
-0.094531491 -0.53912926 -0.0097854072
-0.094256982 -0.56268513 -0.0080777034
-0.094622523 -0.57944494 -0.01004998
-0.094710305 -0.59617335 -0.010446411
-0.090911493 -0.605582 0.011201612
-0.085636504 -0.61040145 0.041222502
-0.085830972 -0.62656742 0.040222172
-0.08606755 -0.64340484 0.038983461
-0.095388532 -0.69735754 -0.013726562
-0.095285021 -0.71718282 -0.013034786
-0.095916949 -0.74042064 -0.016513471
-0.094585493 -0.76854599 -0.0088028656
-0.095194191 -0.79448658 -0.012148072
-0.095173486 -0.81913692 -0.011922832
-0.095469296 -0.84678972 -0.013491825
-0.095520459 -0.87497413 -0.01367234
-0.094462015 -0.91414744 -0.0075036446
-0.09517885 -0.95141548 -0.011456345
-0.26660427 -2.4268558 -0.9831267
-0.26661095 -2.5782866 -0.98300463
-0.26746339 -2.7540283 -0.98766994
-0.24554323 -2.7238038 -0.86321867
-0.2101032 -2.7204003 -0.66194731
-0.1924381 -2.7072184 -0.56162626
-0.17718771 -2.718483 -0.47499397
-0.13853122 -2.7147555 -0.25541297
-0.039481118 -2.7025847 0.30730227
-0.0191245 -2.7086515 0.42296284
-0.0055494579 -2.7042787 0.50008875
0.0079728765 -2.697181 0.57691437
0.021564279 -2.6943359 0.65406585
0.035031859 -2.6837904 0.73052311
0.048571985 -2.6754708 0.80739278
0.36898464 -8.8148165 2.6277521
0.30383715 -4.847724 2.2566934
0.46314228 -6.4231462 3.1610274
0.47991002 -5.8712678 3.2559829
0.49286085 -5.5727248 3.3293719
0.50714767 -5.3156652 3.4103575
0.49354938 -4.5283728 3.3330202
0.4912698 -4.2265615 3.3200283
0.45798749 -3.7385983 3.1311152
0.48823303 -3.7089915 3.3027203
0.49059606 -3.5035365 3.3161056
0.49277735 -3.21263 3.32846
0.49131382 -3.0187681 3.3201487
0.48733681 -2.8251796 3.2975826
0.48789734 -2.6634936 3.3007665
0.49111354 -2.5205913 3.319021
0.4761939 -2.3154097 3.2343881
0.48637521 -2.2120695 3.292165
0.47951084 -2.0545428 3.2532406
0.47663337 -1.9174076 3.2369382
0.47145769 -1.7800317 3.2076015
0.47309768 -1.6077591 3.2169454
0.4738631 -1.4957322 3.2213166
0.47189665 -1.3810992 3.2101924
0.47132105 -1.272115 3.2069597
0.47238886 -1.1678777 3.2130504
0.47551289 -1.0675278 3.2308049
0.4306573 -0.91869837 2.9764154
0.47389469 -0.86089379 3.221698
0.450968 -0.74631631 3.0916967
0.46416977 -0.60748953 3.1666341
0.45832813 -0.50952148 3.1335413
0.45623639 -0.41363937 3.1217179
0.036337864 -0.42202529 0.74044371
0.036393877 -0.40467635 0.74087518
0.025300138 -0.40654051 0.67803669
0.023408711 -0.39970586 0.66738701
0.022325713 -0.39217773 0.66132224
0.020431621 -0.37276399 0.65077347
0.020014651 -0.36434743 0.64848584
0.020182814 -0.35914183 0.6494779
0.019485395 -0.34632623 0.64563841
0.020196443 -0.33910754 0.64970875
0.020198327 -0.32309449 0.64983428
0.020015595 -0.30674347 0.64891273
0.021168025 -0.2835024 0.65556115
0.027703846 -0.2147284 0.69280607
0.02516531 -0.21086687 0.67848796
0.023483744 -0.20267688 0.66902864
0.022339093 -0.19113499 0.66261327
0.021441838 -0.17743762 0.65760034
0.02014062 -0.15496461 0.6503337
0.020934081 -0.12496898 0.65490407
0.19476095 1.6800988 1.6403389
0.17870282 1.6901555 1.5493444
0.16194989 1.6865242 1.4544144
0.14096414 1.6203691 1.3354994
0.11840734 1.5114386 1.2076888
0.09856987 1.5220826 1.0953016
0.085649863 1.5294065 1.0221065
0.072921336 1.5368762 0.94999748
0.060387991 1.5455737 0.87899512
0.048128195 1.5595378 0.8095426
0.03563378 1.5650997 0.73876232
0.02302786 1.5621606 0.66735262
0.010464895 1.5526606 0.59618878
-0.0017840795 1.5565811 0.52680135
-0.02017208 1.564345 0.4226374
-0.032470491 1.5641062 0.35297126
-0.044754103 1.5603993 0.28339022
-0.057134673 1.5611907 0.21325797
-0.069482401 1.5564957 0.1433138
-0.082540862 1.572938 0.069332108
-0.095100559 1.5660213 -0.0018132922
-0.1081138 1.5672059 -0.075533465
-0.051282819 -0.062445559 0.24769914
-0.052708853 -0.080576696 0.23969831
-0.055055894 -0.10219735 0.2265157
-0.056512672 -0.11622809 0.21833916
-0.057009459 -0.12499154 0.21556491
-0.059841864 -0.1381024 0.19962691
-0.061793383 -0.14620702 0.18864265
-0.06413161 -0.15158747 0.17546442
-0.067251645 -0.1522387 0.15785085
-0.072191365 -0.14280084 0.12991421
-0.091649838 -0.06641607 0.019657498
-0.094274841 -0.079603843 0.0048553427
-0.095230371 -0.10107377 -0.00047631506
-0.098206021 -0.11259838 -0.017267689
-0.096075431 -0.14603707 -0.0050935284
-0.097115636 -0.17574248 -0.010862635
-0.097179748 -0.19694835 -0.01113907
-0.097081952 -0.2178186 -0.01049746
-0.096826427 -0.23831439 -0.0089614531
-0.096889675 -0.25713044 -0.0092338687
-0.096819133 -0.27568957 -0.0087476457
-0.096780092 -0.29360294 -0.0084402859
-0.096782163 -0.31093943 -0.0083663091
-0.096833967 -0.32777122 -0.0085746124
-0.096607663 -0.34469113 -0.0072056595
-0.096777722 -0.36067429 -0.0080849212
-0.097100765 -0.38423023 -0.0097894417
-0.097022608 -0.40002355 -0.0092612021
-0.097019278 -0.41558012 -0.0091573903
-0.096920602 -0.431054 -0.0085129635
-0.097074658 -0.44635621 -0.0093019307
-0.096962236 -0.46167701 -0.0085796798
-0.097104236 -0.47699785 -0.0093003809
-0.096979752 -0.4923 -0.0085098427
-0.097280711 -0.50787848 -0.010132062
-0.097140938 -0.52333051 -0.0092548756
-0.097009748 -0.54677755 -0.0083841402
-0.097308472 -0.56312966 -0.0099936957
-0.0971651 -0.57918048 -0.0090961708
-0.097417764 -0.59616762 -0.010444442
-0.094436318 -0.60720479 0.006547336
-0.088336304 -0.61039692 0.041223429
-0.088367805 -0.62617201 0.041128948
-0.088288896 -0.64213216 0.041660625
-0.098079033 -0.69735122 -0.013728498
-0.098423369 -0.71867657 -0.015596119
-0.098453529 -0.73988408 -0.01568201
-0.098606795 -0.76252222 -0.016465858
-0.097452909 -0.79267436 -0.0097948043
-0.098114513 -0.82038885 -0.01346064
-0.09800557 -0.84612674 -0.012757031
-0.098056875 -0.8742851 -0.012961815
-0.099170186 -0.92636979 -0.019144455
-0.097599484 -0.94992203 -0.010151693
-0.26896292 -2.424391 -0.98144728
-0.2689766 -2.5757611 -0.98141599
-0.26937553 -2.7472048 -0.98356593
-0.24826713 -2.7246344 -0.86378306
-0.21294658 -2.7230675 -0.66331875
-0.1956073 -2.7145007 -0.56490874
-0.18004097 -2.722168 -0.4765504
-0.15703933 -2.7290421 -0.34598678
-0.035237078 -2.713289 0.34542465
-0.021596475 -2.7046587 0.42285764
-0.0079743713 -2.7102852 0.50018811
0.0055104541 -2.6961963 0.57673663
0.019134432 -2.6953466 0.65405846
0.032827441 -2.6937118 0.73178393
0.046309095 -2.6814013 0.80830914
0.29996857 -4.8266273 2.2476287
0.46422678 -6.4640374 3.1794696
0.4834573 -5.9340663 3.2885482
0.49060941 -5.5728378 3.3291223
0.50516266 -5.318325 3.4116855
0.50154614 -4.9300671 3.3911877
0.49298686 -4.5422382 3.34266
0.49462432 -4.2684364 3.3519762
0.46234763 -3.7846637 3.1689332
0.48404032 -3.697212 3.2920125
0.48765066 -3.5000501 3.3125303
0.49054989 -3.2134221 3.3290389
0.48501959 -2.9991963 3.2977183
0.4851003 -2.8259168 3.298224
0.48607397 -2.6660089 3.3037963
0.48872986 -2.5206995 3.3189111
0.47307181 -2.3127913 3.2301579
0.48576438 -2.2183561 3.3021989
0.47710666 -2.0546477 3.2531519
0.47360444 -1.9156957 3.2333457
0.47660574 -1.7399372 3.2504542
0.47164088 -1.6101089 3.2223551
0.47208866 -1.4972024 3.2249546
0.46929958 -1.3808917 3.209197
0.46905172 -1.2724915 3.2078524
0.47079113 -1.1691879 3.2177789
0.47306913 -1.0676289 3.2307601
0.42803225 -0.91861641 2.9754078
0.4726465 -0.86196786 3.2284887
0.45282695 -0.74902385 3.1161516
0.46309453 -0.60800523 3.1744773
0.45759749 -0.50979143 3.1433675
0.45393935 -0.41371679 3.1226866
0.033660423 -0.42215699 0.73945612
0.033888608 -0.41048846 0.74082369
0.022953965 -0.40158218 0.67896026
0.02087198 -0.39512786 0.66722709
0.019822642 -0.39218384 0.66131318
0.018092191 -0.37241083 0.6516844
0.017513704 -0.36435238 0.64847767
0.017358879 -0.35514453 0.64767355
0.016985636 -0.3463307 0.64563084
0.017312918 -0.33510882 0.64756066
0.01769962 -0.32309872 0.64982748
0.017517671 -0.30674738 0.64890647
0.018531986 -0.28410804 0.65476924
0.026216188 -0.21824417 0.69849241
0.022918399 -0.2094814 0.67990196
0.021108154 -0.20196089 0.66971022
0.01984329 -0.19113792 0.66261119
0.018946374 -0.1774402 0.65759873
0.018575491 -0.15904647 0.65556926
0.018339166 -0.12579012 0.65433955
0.17622165 1.6910069 1.5498803
0.15953943 1.6882936 1.4553512
0.13713251 1.6039013 1.3283606
0.11611171 1.5151281 1.2092307
0.10266768 1.5201819 1.1330651
0.083245851 1.532263 1.0230372
0.07005021 1.5301049 0.94828063
0.057909463 1.5475154 0.87950569
0.045869373 1.5683677 0.81130159
0.033049557 1.5641099 0.73867649
0.02040769 1.5591834 0.66706055
0.0080602942 1.5626256 0.59711432
-0.0043580867 1.5545894 0.52676594
-0.016580833 1.5640463 0.45752642
-0.034959152 1.5531247 0.35341725
-0.047199871 1.5514354 0.28407612
-0.059670959 1.5602127 0.21342829
-0.071987897 1.5545342 0.14365503
-0.085034743 1.57099 0.069741823
-0.097581811 1.5640894 -0.0013365149
-0.11058287 1.5652918 -0.074989706
-0.053824995 -0.061514981 0.24729879
-0.055178583 -0.080559209 0.23969768
-0.05642185 -0.09875638 0.23272216
-0.057832472 -0.11350562 0.22479749
-0.059382159 -0.12582079 0.21608408
-0.061214201 -0.13500708 0.20576936
-0.063183673 -0.14289524 0.19467522
-0.066373132 -0.15312105 0.17669982
-0.069482908 -0.15372668 0.15913878
-0.074176319 -0.14570373 0.13259682
-0.096992686 -0.078238763 0.0033899706
-0.0963578 -0.10747433 0.0070652948
-0.10185365 -0.11981964 -0.02398999
-0.099907413 -0.15191889 -0.012878012
-0.099274963 -0.17680366 -0.009216697
-0.099777155 -0.19640513 -0.01199009
-0.099376582 -0.21827504 -0.0096438918
-0.099425644 -0.23783195 -0.0098476317
-0.099332228 -0.25710177 -0.0092434417
-0.099259757 -0.27566078 -0.008758056
-0.099380933 -0.29321566 -0.0093708932
-0.099219009 -0.31091031 -0.0083783148
-0.099268973 -0.32774192 -0.0085873809
-0.099208541 -0.34440291 -0.0081704827
-0.099209055 -0.3606447 -0.0080991816
-0.099106081 -0.37673751 -0.0074410918
-0.099072963 -0.39250326 -0.0071791681
-0.099617019 -0.41544545 -0.010153524
-0.099405944 -0.42329836 -0.008919497
-0.099496141 -0.44632569 -0.0093200663
-0.09972924 -0.46164638 -0.010568134
-0.099348612 -0.47693211 -0.0083356705
-0.09956912 -0.49233878 -0.0095124077
-0.099553511 -0.52329916 -0.0092764515
-0.09965948 -0.53909236 -0.0098037664
-0.099571362 -0.57914859 -0.0091202017
-0.099656112 -0.59584314 -0.0095274113
-0.097331643 -0.60814983 0.0037286058
-0.09089981 -0.61072445 0.040278498
-0.090767413 -0.62614095 0.041102737
-0.090844087 -0.64252359 0.040741157
-0.10077961 -0.69825715 -0.015496641
-0.10111602 -0.71964324 -0.017331749
-0.10069614 -0.7393207 -0.014877677
-0.099976361 -0.79324251 -0.010614271
-0.10117172 -0.82350153 -0.017321417
-0.10038581 -0.84609264 -0.012792162
-0.10056178 -0.87493283 -0.013718291
-0.10428482 -0.92621106 -0.034762081
-0.10155143 -0.94287223 -0.019188171
-0.27644175 -2.3935523 -1.0109105
-0.27127457 -2.5756981 -0.98151439
-0.27074471 -2.7386611 -0.97845191
-0.25463617 -2.7652781 -0.88702959
-0.21515681 -2.7221143 -0.66299087
-0.19852826 -2.7226708 -0.56861705
-0.18232484 -2.7221186 -0.47665414
-0.143784 -2.7223458 -0.25790611
-0.071652874 -2.7047901 0.15151657
-0.057966258 -2.7080541 0.229206
-0.044307563 -2.709549 0.30673727
-0.030654347 -2.7022915 0.38423842
-0.010288148 -2.7032654 0.49984449
0.0032274728 -2.6951768 0.57656544
0.016995354 -2.7022882 0.65467548
0.030346358 -2.6847813 0.73044449
0.044169009 -2.6853251 0.80888546
0.30058077 -4.863481 2.2628033
0.45864075 -6.4196939 3.1587813
0.46510845 -5.9876513 3.1955662
0.47605842 -5.6551228 3.2577529
0.50369072 -5.323493 3.4145544
0.49814379 -4.9185414 3.38323
0.49215049 -4.5520277 3.3493724
0.49329919 -4.2740359 3.3559961
0.46392787 -3.8100214 3.1896193
0.48123911 -3.6928372 3.2878563
0.48855516 -3.5181208 3.3294368
0.48251069 -3.2784872 3.2952831
0.47808808 -3.0652366 3.2703221
0.4774453 -2.8849607 3.2667875
0.48460972 -2.6691122 3.3075652
0.48670623 -2.5213699 3.3195603
0.47118118 -2.3139756 3.2316618
0.48342991 -2.2179408 3.3012102
0.47718757 -2.0620191 3.2659352
0.47232473 -1.9185199 3.2384803
0.46949899 -1.7874196 3.2225747
0.46682179 -1.6619939 3.2075119
0.46903223 -1.4955977 3.2202177
0.46787527 -1.3825434 3.2137764
0.46729302 -1.2734267 3.2105947
0.46835405 -1.1690563 3.2167308
0.47113141 -1.0681574 3.2326
0.42658883 -0.91958666 2.9801805
0.47017691 -0.86194468 3.2274389
0.46329734 -0.75687242 3.1885605
0.45852965 -0.65616655 3.1616573
0.45314285 -0.5577302 3.1312449
0.45141646 -0.41385236 3.1216564
0.031414915 -0.42202947 0.74039847
0.031468172 -0.41048312 0.74078918
0.020880925 -0.40591553 0.68088281
0.018611498 -0.39486039 0.6681447
0.017560158 -0.39189935 0.66222632
0.015818805 -0.37204358 0.65257144
0.015235549 -0.36395279 0.64935231
0.014918292 -0.35513583 0.6476422
0.014542421 -0.34632206 0.64560002
0.014714987 -0.3355853 0.64666927
0.014669403 -0.31961757 0.64654744
0.015064064 -0.30673966 0.64887846
0.016332047 -0.28941536 0.65616536
0.023379464 -0.21138342 0.69644225
0.021336127 -0.2133905 0.68489677
0.018750774 -0.20123652 0.67037505
0.017477851 -0.19038948 0.66325194
0.016460767 -0.17743477 0.65758175
0.015978303 -0.15982912 0.65494764
0.015542132 -0.12824242 0.65263277
0.17384474 1.6953634 1.5523567
0.15674703 1.6882412 1.4555175
0.13441519 1.6047709 1.3289216
0.11332981 1.515092 1.2093843
0.099876687 1.5201508 1.1332213
0.08647988 1.5212952 1.0573739
0.06741593 1.5339499 0.94946295
0.055123508 1.5484756 0.87989378
0.042834546 1.5624688 0.81034452
0.030204715 1.5641059 0.73884904
0.017555201 1.5591844 0.66723484
0.0051985132 1.5626318 0.59729117
-0.0071469536 1.5635886 0.52740872
-0.019471712 1.5600636 0.45763874
-0.031763118 1.5640668 0.3880676
-0.050136115 1.5544583 0.28405592
-0.062526114 1.5572649 0.21392575
-0.074930526 1.5555658 0.14370863
-0.087844521 1.5670983 0.070620328
-0.10052109 1.5641427 -0.0011401332
-0.11357436 1.5663215 -0.075028889
-0.053955339 -0.055509124 0.26115897
-0.056555741 -0.05965453 0.2464985
-0.057765853 -0.080525242 0.23969612
-0.059007466 -0.098721787 0.23271847
-0.060330167 -0.11433639 0.2252844
-0.061966635 -0.12578468 0.21607725
-0.06469053 -0.13968362 0.2007449
-0.06663169 -0.14774564 0.18981495
-0.068851233 -0.15385853 0.17730974
-0.071731091 -0.15594955 0.16106722
-0.076416776 -0.14785409 0.13460334
-0.099246398 -0.10613292 0.0055554998
-0.10545046 -0.11554767 -0.029497223
-0.10156866 -0.1441887 -0.0074941963
-0.10129558 -0.16801623 -0.0058973031
-0.10223849 -0.19686192 -0.011158994
-0.10228729 -0.21724705 -0.011382524
-0.10202907 -0.23777354 -0.00986649
-0.10209005 -0.25662056 -0.01015759
-0.10185695 -0.27560213 -0.0087824194
-0.10181307 -0.29351524 -0.008478526
-0.10197479 -0.31052572 -0.0093390187
-0.10185766 -0.32768279 -0.0086195543
-0.10179444 -0.34434366 -0.0082052238
-0.10213092 -0.36013523 -0.010055489
-0.10185708 -0.37648708 -0.0084476257
-0.10199392 -0.39213055 -0.0091668162
-0.10191491 -0.43096346 -0.0085790073
-0.10189085 -0.44630021 -0.0083869873
-0.10208481 -0.47690621 -0.0093761962
-0.10195554 -0.49220812 -0.0085889818
-0.10210707 -0.52323788 -0.0093407826
-0.10220984 -0.53903085 -0.0098708766
-0.10211314 -0.57908672 -0.0091945054
-0.10219421 -0.59578109 -0.00960474
-0.093295276 -0.62608397 0.041018546
-0.093210787 -0.64204389 0.041546505
-0.092858858 -0.6577096 0.043590497
-0.10319924 -0.73925674 -0.014981691
-0.10289236 -0.78309697 -0.013173127
-0.10285888 -0.84602809 -0.012916774
-0.10302642 -0.87486804 -0.013848459
-0.10649042 -0.92472953 -0.033508487
-0.10387767 -0.94207513 -0.018659618
-0.10219972 -0.9840185 -0.0091235572
-0.27809158 -2.3901734 -1.0089245
-0.272791 -2.5713711 -0.97918141
-0.27232143 -2.7350864 -0.97681648
-0.2632252 -2.8317854 -0.92541653
-0.21805242 -2.7336519 -0.66906703
-0.1843393 -2.7238488 -0.47786221
-0.059696939 -2.7040319 0.22904989
-0.046085104 -2.7095215 0.30623299
-0.032438666 -2.7082734 0.38362741
-0.018826557 -2.7062829 0.46082851
0.0015486003 -2.7001727 0.57639295
0.015213839 -2.6993229 0.65384841
0.028680934 -2.6877804 0.73034179
0.042423435 -2.6853631 0.80837405
0.29857746 -4.8498936 2.2561166
0.46095681 -6.4535623 3.1729612
0.46333668 -5.9746203 3.1877367
0.47644177 -5.6668358 3.2628994
0.48912901 -5.3864088 3.3356228
0.48072872 -4.9455109 3.2891729
0.49202767 -4.5604668 3.354322
0.49429756 -4.2909331 3.3679433
0.46653074 -3.8379276 3.2117097
0.48127985 -3.7028353 3.2957518
0.48870778 -3.5285325 3.3383777
0.48200783 -3.2850745 3.3010695
0.4765085 -3.0662355 3.2705061
0.47726998 -2.893003 3.2753258
0.47642544 -2.7220736 3.2710323
0.4856557 -2.5251422 3.3239553
0.46526232 -2.2995858 3.2089593
0.48380405 -2.2265081 3.314327
0.47512233 -2.0623386 3.2655756
0.47036582 -1.9192884 3.2390242
0.46797219 -1.7894218 3.2258344
0.46478397 -1.6626927 3.2081304
0.46278653 -1.5435294 3.1971567
0.46592286 -1.3834667 3.21541
0.4654792 -1.2745571 3.2132132
0.4666844 -1.1703269 3.2203488
0.46791035 -1.06742 3.2275958
0.42467588 -0.92038065 2.9829292
0.46930107 -0.86349767 3.2360606
0.46101701 -0.75727051 3.1894021
0.45691764 -0.65680486 3.1664469
0.45202896 -0.55829448 3.1390114
0.4492296 -0.41409856 3.1235402
0.028691176 -0.42204571 0.74034458
0.028739529 -0.4104991 0.74073714
0.018312257 -0.40571681 0.68179601
0.015865805 -0.39486766 0.66809666
0.013598097 -0.38024893 0.65546513
0.012897975 -0.37240669 0.65160799
0.011994215 -0.35556215 0.64670825
0.011771875 -0.34632543 0.64556003
0.012326528 -0.33957675 0.64876246
0.011889745 -0.31962037 0.64651114
0.012137022 -0.30730155 0.6480273
0.013405249 -0.29000634 0.65533602
0.021869576 -0.21365562 0.70365018
0.01879341 -0.21203201 0.68631339
0.016190719 -0.19980146 0.67172092
0.014673839 -0.19039194 0.66323066
0.013765664 -0.17667043 0.65819502
0.01316928 -0.15983024 0.65492958
0.01343789 -0.13479555 0.65657526
0.014256471 -0.088430479 0.66140753
0.17110607 1.6952773 1.5525028
0.15598772 1.7115322 1.4668894
0.13111372 1.5973995 1.3258505
0.11039613 1.512259 1.2084024
0.097200662 1.5210465 1.1336823
0.083801642 1.5222099 1.0578007
0.070782237 1.5252445 0.98407215
0.052831743 1.5591745 0.88245231
0.040251654 1.5663831 0.81121588
0.027494332 1.5641007 0.73896635
0.014996498 1.5661339 0.66819102
0.0026327826 1.5716056 0.59817827
-0.0098608481 1.5616062 0.52741647
-0.022162838 1.5600849 0.45774758
-0.034420371 1.5550958 0.38832784
-0.046673916 1.5546464 0.31893393
-0.065253317 1.5602919 0.21371859
-0.077621736 1.5566057 0.1436706
-0.090837084 1.5779873 0.068838403
-0.10321141 1.5651828 -0.0012496762
-0.11618 1.5654198 -0.074697942
-0.13020065 1.5821261 -0.15409991
-0.059490554 -0.058699884 0.24608725
-0.060634647 -0.080483593 0.23968399
-0.061880719 -0.098679505 0.23270524
-0.063207604 -0.11429343 0.22527024
-0.064755574 -0.12658904 0.21658416
-0.066489175 -0.13658364 0.20684728
-0.068452723 -0.14442979 0.19580817
-0.071524665 -0.15536596 0.1785326
-0.074397393 -0.15741085 0.16234261
-0.078837134 -0.15072942 0.13727313
-0.10200401 -0.10671534 0.0062948768
-0.11181422 -0.10043623 -0.04917267
-0.10447086 -0.14412734 -0.0075107301
-0.10434902 -0.16739568 -0.0067311227
-0.10545525 -0.19577013 -0.012865506
-0.10460266 -0.20903036 -0.007987475
-0.10457017 -0.22914164 -0.007711201
-0.10518741 -0.2561366 -0.011070198
-0.10480403 -0.27554107 -0.0088029969
-0.1049294 -0.29309574 -0.0094187697
-0.10482604 -0.32762194 -0.0086410027
-0.10477008 -0.3442829 -0.0082268501
-0.10484742 -0.37642643 -0.0084694447
-0.10482014 -0.39222649 -0.0082159759
-0.10481855 -0.42326498 -0.0080075515
-0.10508958 -0.44620478 -0.009392757
-0.10495267 -0.47681114 -0.0084131369
-0.10500549 -0.49214792 -0.0086098667
-0.1050025 -0.52303874 -0.0083857849
-0.10545751 -0.53914422 -0.010860564
-0.10521349 -0.57902682 -0.0092131253
-0.10530461 -0.59572119 -0.0096227992
-0.09817829 -0.61419308 0.030986166
-0.096110359 -0.62524623 0.042815659
-0.09619873 -0.64156491 0.042423762
-0.096324466 -0.65856099 0.041820932
-0.10639846 -0.73919702 -0.014993764
-0.10626034 -0.78362513 -0.013979778
-0.10586403 -0.84465694 -0.011436637
-0.10618496 -0.87412691 -0.013133151
-0.10918896 -0.92113423 -0.030029228
-0.10574688 -0.94976366 -0.010336536
-0.10533204 -0.98242784 -0.0078560691
-0.28167564 -2.3868656 -1.0065154
-0.28244764 -2.5395429 -1.0106596
-0.27569765 -2.7273443 -0.97206163
-0.27288887 -2.8853669 -0.95588845
-0.2226193 -2.7371538 -0.67072475
-0.20392165 -2.7124 -0.56460232
-0.18915577 -2.7311833 -0.48073673
-0.15723203 -2.7173724 -0.29948306
-0.064113893 -2.7019932 0.22933491
-0.036912065 -2.7032351 0.38383603
-0.023332065 -2.7072473 0.46097186
-0.0029625194 -2.702137 0.57666266
0.024044853 -2.6837952 0.7299304
0.037834127 -2.6833735 0.80816787
0.29866335 -4.9291062 2.2894599
0.45759541 -6.494432 3.1920414
0.45304015 -5.9301505 3.1657155
0.4754003 -5.7202787 3.2923236
0.47830951 -4.9749546 3.3082049
0.49276051 -4.6099124 3.3898647
0.48993734 -4.2981167 3.3736222
0.46147722 -3.8380108 3.211906
0.47561535 -3.6984625 3.2919867
0.48444945 -3.532218 3.3419755
0.47729185 -3.2851608 3.3012328
0.47321227 -3.0730131 3.2779744
0.4726544 -2.8924451 3.2747118
0.48104084 -2.6809654 3.3221631
0.48210201 -2.5280972 3.3281085
0.46389386 -2.3100178 3.2247574
0.4806053 -2.2296846 3.3194945
0.4720358 -2.0653315 3.2708375
0.46830595 -1.9248201 3.2496397
0.46318504 -1.7869663 3.2205596
0.46181104 -1.6647274 3.2127364
0.46086362 -1.5475529 3.2073371
0.462964 -1.3847836 3.2192159
0.46442214 -1.278774 3.2274668
0.46334672 -1.1706489 3.2213542
0.46462744 -1.067708 3.2286046
0.42096469 -0.92010337 2.9810264
0.46629584 -0.8638562 3.2380474
0.45910433 -0.75818592 3.1972685
0.45523268 -0.657511 3.1753156
0.44761798 -0.5581246 3.1321449
0.44634786 -0.46204531 3.1249466
0.025681857 -0.42203185 0.74034303
0.025910538 -0.41032919 0.74170792
0.015662191 -0.40528587 0.68372005
0.013257305 -0.39896992 0.67015892
0.012047567 -0.39614534 0.66333723
0.010102222 -0.37203297 0.65252352
0.0095219249 -0.3639417 0.64930546
