# .PCD v0.7 - Point Cloud Data file format
VERSION 0.7
FIELDS x y z
SIZE 4 4 4
TYPE F F F
COUNT 1 1 1
WIDTH 1422
HEIGHT 1
VIEWPOINT 0 0 0 1 0 0 0
POINTS 1422
DATA ascii
0.081567608 -2.9044073 -1.0230166
0.090051256 -3.1297524 -0.97466052
0.087988295 -3.394249 -0.98616195
0.087791488 -3.6762507 -0.98706692
0.085261106 -4.0394859 -1.001173
0.085903987 -4.4222889 -0.99726534
0.085800156 -4.8991141 -0.99754924
0.16849738 -8.3056154 -0.52628261
0.21794125 -8.213933 -0.24571167
0.39791128 -10.779337 0.7769227
0.461202 -10.830335 1.1361325
0.52615231 -10.921069 1.504717
0.58789331 -10.814963 1.8550507
0.6498462 -10.738208 2.2065988
0.76960659 -7.7243228 2.8849943
0.8137002 -6.3682237 3.1347411
0.84430927 -5.9731894 3.308327
0.83949256 -5.4891067 3.280839
0.85796553 -5.2770557 3.385618
0.85781616 -4.9212322 3.3846717
0.84699243 -4.5158186 3.3231387
0.84315079 -4.2033086 3.3012638
0.81209517 -3.7320633 3.1249118
0.85510689 -3.6702893 3.3690181
0.85202092 -3.4359307 3.3514674
0.84548604 -3.2000606 3.3143482
0.84185803 -2.9961922 3.2937365
0.84139389 -2.8205295 3.2910881
0.84276229 -2.6626754 3.2988455
0.82508236 -2.4355066 3.198499
0.83993965 -2.3479228 3.2828181
0.84420711 -2.1528409 3.3070385
0.83697855 -1.99701 3.2660215
0.83380497 -1.8611178 3.2480195
0.83404917 -1.7398044 3.2494147
0.83006078 -1.6122534 3.2267935
0.82710457 -1.4920005 3.210032
0.82710153 -1.3814709 3.2100289
0.82907945 -1.2232839 3.2212751
0.83068377 -1.1200464 3.2303941
0.80881035 -0.99151534 3.1063058
0.79749912 -0.88310272 3.0421495
0.82853895 -0.81038672 3.218276
0.8218751 -0.70683259 3.1804869
0.82028741 -0.60811663 3.1714981
0.8165372 -0.51017952 3.1502409
0.39356872 -0.43832922 0.7508443
0.39234418 -0.42734206 0.74396771
0.37953943 -0.42613196 0.67140156
0.37777463 -0.41449052 0.66149837
0.37677413 -0.40695679 0.65589511
0.3762376 -0.39898551 0.65292346
0.37565473 -0.39115793 0.64968914
0.37559339 -0.37782466 0.64944881
0.37629977 -0.37166962 0.65349084
0.37870592 -0.34582397 0.66727942
0.37842974 -0.33586594 0.66578358
0.37717351 -0.32878292 0.65872961
0.37675843 -0.32462057 0.65641081
0.37616664 -0.3096661 0.65315992
0.37555459 -0.29410139 0.64979345
0.37559763 -0.28123146 0.65010673
0.37553221 -0.26814127 0.64980441
0.3752251 -0.24815482 0.64816529
0.37598324 -0.22827552 0.65253079
0.3767834 -0.2063788 0.65713352
0.61825699 1.6985606 2.0260577
0.59621936 1.6819838 1.9011229
0.57719779 1.6810758 1.7932888
0.55806375 1.6709145 1.6848224
0.54137635 1.676736 1.5902263
0.51974797 1.7133838 1.4676183
0.50305462 1.7052406 1.3729979
0.47385445 1.5104462 1.2075437
0.46145517 1.5314206 1.1372654
0.44864786 1.5441175 1.0646778
0.43531296 1.5435381 0.98910582
0.42187124 1.5342516 0.91293359
0.4088459 1.5269344 0.83912241
0.39019671 1.5295498 0.73343974
0.37795982 1.5333945 0.66409487
0.36588022 1.5437231 0.59563851
0.3538835 1.5686036 0.52764344
0.34155259 1.5690869 0.45776793
0.32920313 1.5790923 0.3877818
0.31690103 1.5686239 0.31807736
0.29840517 1.5632666 0.2132723
0.28590482 1.5645155 0.14243662
0.27334434 1.5631988 0.071261704
0.26052386 1.565163 -0.0013900475
0.2476463 1.5634555 -0.074362703
0.23632166 1.5263441 -0.13850345
0.23245777 1.3606813 -0.16023938
0.21514814 1.3402771 -0.25830212
0.25780267 0.64086449 -0.015851982
0.2540451 0.58719528 -0.037055571
0.2461776 0.54350501 -0.081540562
0.24172331 0.50840545 -0.10670775
0.2604894 0.22536071 4.3243574e-05
0.26101202 0.17016815 0.0031210338
0.26037407 0.1298333 -0.0003939796
0.26023772 0.089261554 -0.0010632455
0.25849822 0.044853251 -0.010785124
0.25998551 0.017770687 -0.0022918673
0.25865346 -0.022443555 -0.0097049056
0.25868812 -0.052357782 -0.0094108013
0.25872734 -0.080386512 -0.009092018
0.25874072 -0.10662002 -0.0089208828
0.25869939 -0.1311602 -0.0090613281
0.2588602 -0.1552669 -0.0080551226
0.25878128 -0.177255 -0.0084103439
0.25872543 -0.19837205 -0.0086350888
0.25867912 -0.21866678 -0.0088061485
0.25878429 -0.23864707 -0.0081181955
0.25903705 -0.25827712 -0.0065932563
0.25895399 -0.27634984 -0.0069741928
0.25816667 -0.30114838 -0.011306089
0.25821596 -0.31848094 -0.010936612
0.25838089 -0.33558959 -0.0099113332
0.25849038 -0.35220715 -0.0092008188
0.2585375 -0.36841139 -0.0088442219
0.25834551 -0.38410857 -0.0098443469
0.25825062 -0.39976266 -0.01029357
0.25825211 -0.41535389 -0.010196103
0.2585223 -0.43093249 -0.0085744746
0.25836715 -0.44623455 -0.0093656015
0.25830844 -0.46921691 -0.0095651904
0.25821194 -0.48458302 -0.010023352
0.25803605 -0.50007784 -0.010931831
0.2579554 -0.51566488 -0.011300011
0.25797087 -0.53132463 -0.011122703
0.25808331 -0.5470373 -0.010395364
0.25792974 -0.57138723 -0.011131506
0.25779116 -0.58807212 -0.011827189
0.2575196 -0.62264574 -0.013185528
0.25723821 -0.64099061 -0.01468989
0.25753355 -0.66779184 -0.012877481
0.25742102 -0.68718725 -0.013422901
0.25688422 -0.72937334 -0.016279491
0.25644189 -0.77529943 -0.018597169
0.25665385 -0.83629829 -0.01715287
0.25650224 -0.86436963 -0.017913016
0.25446954 -0.92046392 -0.029281896
0.25692707 -0.93839574 -0.015250699
0.25665474 -0.97475541 -0.016689051
0.083720692 -2.3733766 -0.99632657
0.082474031 -2.5289819 -1.0031961
0.081782065 -2.6964984 -1.00691
0.079605788 -2.8975093 -1.0190165
0.080083124 -3.0966692 -1.0160729
0.086577863 -3.3789291 -0.97889316
0.085845932 -3.6661603 -0.98273903
0.083753012 -4.0218272 -0.99425054
0.083848782 -4.4109693 -0.99332118
0.08343228 -4.8914618 -0.99522543
0.16613849 -8.2768021 -0.52301341
0.21446516 -8.2477827 -0.24885115
0.33229989 -10.886602 0.42177376
0.45745328 -10.770512 1.1316937
0.52296346 -10.911169 1.5033665
0.58691561 -10.897213 1.866101
0.65000081 -10.839714 2.2238889
0.8164385 -6.4344797 3.1649349
0.82723415 -6.0494189 3.2259498
0.83451056 -5.4649487 3.2668984
0.85735631 -5.2949591 3.3964274
0.8574273 -4.9395642 3.3966482
0.84540284 -4.5231891 3.3282228
0.8422578 -4.2152162 3.3102424
0.81061542 -3.7390385 3.130507
0.84387851 -3.7287846 3.3192515
0.85016996 -3.4395492 3.3548586
0.84391612 -3.204915 3.3193066
0.83992887 -2.9988947 3.296633
0.83988929 -2.8250115 3.2963746
0.84004039 -2.6615462 3.2972071
0.82661986 -2.4516401 3.2210269
0.8389557 -2.3534412 3.2910218
0.83627313 -2.2027361 3.2757933
0.83622849 -2.0022421 3.2755418
0.8327738 -1.8651289 3.2559457
0.83113885 -1.7386472 3.24668
0.82843029 -1.6141883 3.2313268
0.82678914 -1.4965075 3.222034
0.82549047 -1.3830745 3.2146871
0.82526225 -1.2744726 3.2134171
0.82875174 -1.1207761 3.2332563
0.81352431 -0.99958438 3.1468949
0.79299647 -0.88127261 3.0304677
0.82454246 -0.80933869 3.2094717
0.82063675 -0.70749092 3.1873498
0.81662214 -0.60779548 3.1646123
0.81460291 -0.51027632 3.1531959
0.39126909 -0.43826985 0.75183362
0.38987052 -0.4273521 0.74397552
0.37706488 -0.42614105 0.6714102
0.37529895 -0.41449937 0.66150832
0.37429771 -0.40696552 0.65590596
0.3737604 -0.39899412 0.65293515
0.37334278 -0.39087415 0.65064347
0.37320453 -0.38218939 0.6499365
0.37353462 -0.36760196 0.65192455
0.37606689 -0.3462548 0.66640294
0.37632832 -0.34020093 0.66792417
0.37509292 -0.33299387 0.66099387
0.37427452 -0.32462862 0.65642887
0.37382689 -0.30912945 0.65400517
0.37343362 -0.29873243 0.65185124
0.37351808 -0.28589821 0.65240669
0.373043 -0.2681489 0.64982659
0.37338158 -0.25219026 0.65182263
0.37407339 -0.23308589 0.6558215
0.37428927 -0.20638615 0.65715855
0.6146217 1.6905696 2.0201712
0.59422606 1.6868938 1.9045529
0.57451034 1.6802332 1.7927926
0.55546975 1.6709108 1.6848625
0.53886479 1.6776074 1.5907437
0.51615804 1.701697 1.4620447
0.50031269 1.7034106 1.3722357
0.47113287 1.5085884 1.2068437
0.45886174 1.5314173 1.1373032
0.44546208 1.5336527 1.061367
0.43266943 1.5425732 0.98887151
0.41927555 1.5342475 0.91297042
0.40617785 1.5249734 0.83874917
0.38757321 1.5285571 0.73332143
0.37534201 1.5323963 0.66401023
0.36343515 1.5536786 0.59653246
0.35117546 1.556613 0.52705848
0.33891132 1.5550812 0.45756015
0.32665858 1.5610862 0.38812312
0.31439465 1.5586276 0.31862473
0.29584652 1.5612663 0.21350977
0.28350389 1.5565808 0.14356357
0.27051169 1.5710634 0.069924496
0.25789732 1.5661259 -0.0015651942
0.24522547 1.5595577 -0.073381267
0.23512253 1.4984487 -0.13060503
0.22902581 1.3758799 -0.16507871
0.21226728 1.344924 -0.26003858
0.25552258 0.63713872 -0.014341452
0.25129738 0.58991838 -0.038221601
0.24663527 0.55316794 -0.064584769
0.23961522 0.50401241 -0.10428486
0.25791642 0.17512427 -0.00014191537
0.25755724 0.13224179 -0.0020887305
0.25772938 0.089242533 -0.0010207321
0.25754616 0.052438661 -0.0019713021
0.25615242 0.0094149066 -0.0097502312
0.25615302 -0.022463817 -0.0096597299
0.25618973 -0.052378334 -0.0093648005
0.25596905 -0.079095095 -0.01053163
0.25611141 -0.1060118 -0.0096385432
0.25620672 -0.13118164 -0.009012863
0.25594297 -0.15356766 -0.010425885
0.25643769 -0.17782171 -0.0075343186
0.25608933 -0.19787923 -0.0094283018
0.25619349 -0.2186894 -0.0087543791
0.25614569 -0.23821592 -0.0089430725
0.2563974 -0.25787759 -0.0074322694
0.25647324 -0.2763733 -0.0069198739
0.25552565 -0.30083036 -0.012175991
0.25651985 -0.31149343 -0.0064925067
0.25573936 -0.33533844 -0.010800765
0.25584888 -0.35199004 -0.010098279
0.25589633 -0.36822855 -0.009748511
0.25604671 -0.38430777 -0.0088146059
0.25578594 -0.41537997 -0.01013447
0.25588468 -0.43088898 -0.0094943214
0.25567508 -0.46926141 -0.010484998
0.25575405 -0.48461044 -0.0099575669
0.25567383 -0.51557118 -0.010254835
0.25551912 -0.531353 -0.011054045
0.2556518 -0.5711745 -0.010104756
0.25551406 -0.58782595 -0.0108083
0.25508082 -0.62267584 -0.013111236
0.25464138 -0.64139557 -0.015527658
0.25510135 -0.66782266 -0.012800406
0.25499183 -0.68721843 -0.013344675
0.25386691 -0.73146516 -0.019575676
0.25498205 -0.78310472 -0.01305441
0.25424847 -0.83633161 -0.017066278
0.25410149 -0.86440325 -0.017824953
0.25183386 -0.92191273 -0.030584341
0.2544198 -0.93916124 -0.015830342
0.25449958 -0.97328067 -0.015302942
0.081993118 -2.3710678 -0.99443913
0.080759279 -2.5266125 -1.0013871
0.079136595 -2.7024581 -1.010545
0.078104436 -2.8933141 -1.0163534
0.077075526 -3.1081302 -1.0221468
0.084632188 -3.3799186 -0.9791801
0.084096506 -3.6653385 -0.98218381
0.084139645 -3.9913242 -0.98190784
0.084174491 -4.3791146 -0.98168731
0.081715643 -4.8934588 -0.99563801
0.16601938 -8.2312164 -0.51716018
0.21193084 -8.3404827 -0.25649902
0.33152851 -10.715614 0.42223898
0.45817143 -10.902158 1.1412362
0.52149117 -10.880283 1.500652
0.58344007 -10.795138 1.8524698
0.64893103 -10.839617 2.2243731
0.81808728 -6.4796515 3.1860862
0.83545625 -5.928103 3.2849081
0.85289967 -5.2744541 3.384208
0.84405571 -4.5311356 3.3342857
0.84069777 -4.2213788 3.3153551
0.80904323 -3.7450364 3.135813
0.83952659 -3.7167547 3.3089521
0.8472566 -3.4372892 3.3530018
0.84184688 -3.2075081 3.3224099
0.8367998 -2.9961379 3.2938738
0.83631372 -2.8204753 3.2912238
0.83752275 -2.662019 3.2981932
0.82507956 -2.4561052 3.2276709
0.83494568 -2.3484137 3.2837753
0.83504033 -2.2077637 3.2844152
0.83256149 -1.9993043 3.2704968
0.83000958 -1.8650107 3.2561119
0.82772475 -1.736904 3.2432418
0.82434875 -1.6110772 3.2241774
0.82332832 -1.4950273 3.2184823
0.82250333 -1.3826555 3.2138958
0.82159305 -1.2729859 3.2088246
0.82366496 -1.1701338 3.2206798
0.8082788 -0.99681067 3.1334884
0.7894482 -0.88055158 3.0266986
0.82423729 -0.81106657 3.2242551
0.81773967 -0.70739233 3.1874666
0.81319702 -0.60754222 3.1617739
0.80856603 -0.50986695 3.1355798
0.38838974 -0.43834248 0.75091583
0.38698837 -0.42746007 0.74305934
0.37286481 -0.42299691 0.66304165
0.3715834 -0.40697303 0.65596366
0.37062144 -0.39088222 0.65069866
0.37064356 -0.38187218 0.65092164
0.37136564 -0.37578967 0.6550687
0.37317136 -0.34668568 0.6655606
0.37320516 -0.33588269 0.66584951
0.37209687 -0.3283152 0.65965652
0.37152794 -0.32463774 0.65647602
0.37107494 -0.30913892 0.65405047
0.37031049 -0.29411906 0.64985746
0.37075868 -0.28590813 0.65244955
0.3701452 -0.26880187 0.64911312
0.37061256 -0.25220063 0.65186238
0.37129992 -0.23309636 0.65586001
0.37162802 -0.20566557 0.65786684
0.61257005 1.6977805 2.0255268
0.59104317 1.6852753 1.9034424
0.57143962 1.6794108 1.7922738
0.55241132 1.6700665 1.6843712
0.53598499 1.6784917 1.5912358
0.51319981 1.7017028 1.462057
0.49757084 1.7061543 1.3734486
0.46806848 1.5067332 1.206117
0.4565227 1.5408111 1.1406822
0.44312233 1.5441091 1.0647242
0.42974171 1.5425664 0.98887932
0.41622484 1.5313281 0.91226232
0.40332806 1.5269196 0.83916485
0.38473523 1.5315074 0.73378855
0.37246612 1.5343671 0.66425425
0.36053216 1.5546595 0.59662133
0.3482309 1.5536002 0.52690589
0.33600721 1.5590627 0.45763069
0.32372451 1.5670664 0.38802126
0.31146094 1.5606049 0.31852207
0.2929309 1.5612447 0.21350922
0.2805641 1.5575484 0.14342557
0.26777562 1.5651314 0.070948616
0.25490797 1.5680584 -0.0019765359
0.24222364 1.5614737 -0.07385993
0.2318231 1.5061136 -0.13277839
0.22621879 1.3739523 -0.16447218
0.21431603 1.3651805 -0.23191805
0.25269371 0.63618821 -0.013972406
0.24854341 0.58806789 -0.037420802
0.24389049 0.55134684 -0.063722096
0.23966293 0.51318181 -0.087609172
0.25550321 0.17095663 0.0026090636
0.25486058 0.13060158 -0.00093399145
0.25461271 0.090796739 -0.0022368173
0.25274441 0.047076125 -0.012684406
0.25445732 0.018472672 -0.0029117016
0.2545906 -0.014888981 -0.0020519886
0.25327352 -0.052399512 -0.0093716532
0.25318056 -0.079772227 -0.0097960737
0.25305384 -0.10540326 -0.010412281
0.25314209 -0.13060044 -0.0098085869
0.25315556 -0.1541618 -0.0096292719
0.25321361 -0.17675264 -0.0091970293
0.25315267 -0.19789939 -0.0094400551
0.25325316 -0.21870939 -0.0087669976
0.25335628 -0.2386898 -0.0080790715
0.25329235 -0.25747454 -0.0083392011
0.25320217 -0.27561116 -0.008748142
0.25273106 -0.30119166 -0.011267183
0.25310817 -0.31914249 -0.0090245306
0.25294062 -0.33563304 -0.0098725269
0.25292265 -0.36824709 -0.0097688073
0.25306892 -0.38432613 -0.0088358568
0.25297228 -0.41550261 -0.0091782315
0.25289416 -0.43090686 -0.009518452
0.25267366 -0.46927884 -0.010511581
0.25274822 -0.48462769 -0.0099851564
0.25265899 -0.5155881 -0.01028445
0.25249967 -0.53136975 -0.011084681
0.25245234 -0.57143265 -0.011093598
0.25231135 -0.58811766 -0.011789319
0.25187197 -0.62303358 -0.014073192
0.25191244 -0.64066207 -0.013738938
0.25159806 -0.65968078 -0.015417569
0.25192854 -0.68723363 -0.0133851
0.25153658 -0.72890502 -0.015397461
0.25189468 -0.78311914 -0.013100251
0.25141516 -0.83506012 -0.015605723
0.25086707 -0.86508608 -0.018606558
0.24846852 -0.90757 -0.032101866
0.25165439 -0.93698078 -0.013868476
0.25148627 -0.97253925 -0.01471155
0.079094507 -2.3678637 -0.99212581
0.077922709 -2.5225065 -0.99862325
0.076822676 -2.6932218 -1.0047085
0.075534195 -2.8855877 -1.0118561
0.074519388 -3.099371 -1.0174444
0.081207462 -3.3799052 -0.97925967
0.081632607 -3.6525354 -0.97666043
0.079873763 -4.0024352 -0.98642772
0.080653057 -4.3790994 -0.9817872
0.078683183 -4.8839326 -0.99270386
0.16147093 -8.2649565 -0.52143437
0.20730865 -8.3932829 -0.2612541
0.32756907 -10.77564 0.42196327
0.45426536 -10.902207 1.1409354
0.5168553 -10.839569 1.4961455
0.58134657 -10.86651 1.8620433
0.64022654 -10.678186 2.1960461
0.81030452 -6.4235559 3.1600783
0.82194501 -6.0493693 3.2260818
0.81234181 -5.4979215 3.1715243
0.85172158 -5.2923594 3.3949842
0.85009807 -4.9229264 3.3857522
0.83743179 -4.5029078 3.3138623
0.83681142 -4.2151613 3.3103473
0.8094855 -3.7688661 3.1552894
0.83444375 -3.7034597 3.2969456
0.84343117 -3.4324195 3.3479881
0.83889407 -3.2075856 3.3222761
0.83516908 -3.0027738 3.301177
0.83271128 -2.8174009 3.2872729
0.83529943 -2.6650991 3.3020051
0.82416052 -2.4642034 3.2388487
0.8295747 -2.3392198 3.2696221
0.83126032 -2.2047372 3.2792406
0.83075857 -2.0026515 3.2764785
0.82604873 -1.862 3.249814
0.82549655 -1.7385871 3.2467418
0.82004344 -1.6077586 3.2158635
0.8209666 -1.496105 3.2211652
0.81916273 -1.3817774 3.2109954
0.81841916 -1.2724817 3.2068427
0.82083082 -1.170179 3.2205935
0.80987602 -1.0018147 3.158541
0.78541261 -0.87949437 3.0198112
0.82107496 -0.81086063 3.2222204
0.81544214 -0.70768958 3.1903324
0.81107616 -0.60778517 3.1656322
0.80835688 -0.51016086 3.1502762
0.38559368 -0.43828794 0.75185627
0.38419449 -0.42737025 0.74399775
0.37144062 -0.42160326 0.67175734
0.36976713 -0.41875866 0.66230273
0.36862212 -0.40698588 0.65592682
0.36825198 -0.39875561 0.65390688
0.36766618 -0.39089423 0.65066361
0.36769149 -0.38188377 0.65088743
0.36798009 -0.37205586 0.652605
0.37057844 -0.35101601 0.66746706
0.37064809 -0.34021938 0.66794229
0.36900929 -0.32880944 0.65876484
0.36859354 -0.32464701 0.65644622
0.36756271 -0.31132597 0.65071797
0.36775121 -0.29875043 0.65186745
0.36728942 -0.28187251 0.64936745
0.36735889 -0.26816639 0.64984149
0.36769655 -0.25220746 0.65183693
0.36838725 -0.23310271 0.65583515
0.36872011 -0.20567128 0.65784281
0.61016709 1.700986 2.0278406
0.58821774 1.6852863 1.9033864
0.56747562 1.6693575 1.7857815
0.54966801 1.6709341 1.6848241
0.53306562 1.6776274 1.5907042
0.50914401 1.6873323 1.4550949
0.49458987 1.7043369 1.3725939
0.46535304 1.5085952 1.2068057
0.45355824 1.5389389 1.1399589
0.43968582 1.5336543 1.0613267
0.42679936 1.5406498 0.98828709
0.41320992 1.5274522 0.91126043
0.40048134 1.5269239 0.83911633
0.38186207 1.5305227 0.73358589
0.36966333 1.5363543 0.66444582
0.35773364 1.5576489 0.59682989
0.34542453 1.5575948 0.52706313
0.33315358 1.5550619 0.45751244
0.32091179 1.5580648 0.3881259
0.3086412 1.5586032 0.31857535
0.2901144 1.5602434 0.21356204
0.27756304 1.5644721 0.14241613
0.2647956 1.5700451 0.070042945
0.25208142 1.5680462 -0.0020278052
0.23940024 1.5614595 -0.073911436
0.23077187 1.4705307 -0.12278625
0.2238844 1.3653758 -0.16178043
0.2079079 1.324339 -0.25232387
0.24975227 0.63802999 -0.014734963
0.24531238 0.59353584 -0.039847143
0.24116278 0.55043387 -0.063312382
0.23670033 0.51493263 -0.088554397
0.25300485 0.16845734 0.0042529511
0.25187114 0.13220742 -0.0020981156
0.25193799 0.089996368 -0.0016351208
0.25175136 0.053170677 -0.0026113898
0.25035247 0.010112117 -0.010427755
0.25034976 -0.021790665 -0.0103611
0.25000256 -0.049684107 -0.012249883
0.25029033 -0.079128794 -0.01053506
0.24854575 -0.097234465 -0.020355949
0.25025243 -0.13001129 -0.0105878
0.25032526 -0.17622067 -0.010012727
0.25036693 -0.21823727 -0.0096152266
0.250626 -0.23870248 -0.0080645205
0.25072354 -0.25790989 -0.0074306699
0.2507998 -0.27640545 -0.0069177528
0.25100619 -0.29461265 -0.0056663761
0.25006709 -0.31853721 -0.010876974
0.25023392 -0.33564588 -0.0098503195
0.25022465 -0.36825997 -0.0097437957
0.25020441 -0.38416529 -0.0097793108
0.2502875 -0.41551551 -0.0091489609
0.25021386 -0.43091977 -0.0094877537
0.25017354 -0.46161276 -0.0095584607
0.2500838 -0.48464069 -0.0099493442
0.25000381 -0.5156011 -0.010245623
0.24984924 -0.53138286 -0.01104432
0.24966876 -0.56351602 -0.011911455
0.24967763 -0.58813083 -0.011743357
0.2494113 -0.62270492 -0.013098375
0.24929366 -0.64067543 -0.013687847
0.24866751 -0.66050774 -0.017164083
0.24947697 -0.68679297 -0.012451911
0.24894112 -0.72891855 -0.015337866
0.2494289 -0.74863869 -0.012491091
0.24835752 -0.77536023 -0.018495353
0.24883153 -0.80946279 -0.01568827
0.24884468 -0.83507371 -0.015536214
0.24868968 -0.8630926 -0.016338855
0.24840856 -0.89369172 -0.017857803
0.24910483 -0.93699431 -0.013789783
0.24894337 -0.9725529 -0.014629823
0.07092955 -2.3433716 -1.0251372
0.075311698 -2.5250471 -1.000162
0.073678955 -2.7008538 -1.0093687
0.073797829 -2.8805301 -1.0086322
0.072521843 -3.0968337 -1.0158168
0.070663765 -3.3493569 -1.0263087
0.079223476 -3.6553612 -0.97762746
0.078554869 -3.9904685 -0.98137313
0.078227378 -4.383884 -0.98318666
0.075635664 -4.9011397 -0.99786323
0.15986207 -8.2540932 -0.5195446
0.20687139 -8.299675 -0.25259593
0.3258265 -10.745619 0.42274404
0.45269108 -10.922076 1.1431298
0.51462102 -10.81857 1.4948157
0.5776996 -10.795069 1.8530115
0.64446044 -10.880888 2.2320993
0.80639994 -6.4051957 3.1522737
0.83753008 -6.0118389 3.3291178
0.84917939 -5.2921143 3.3954196
0.85267532 -4.9666228 3.4153473
0.83668417 -4.5172353 3.3246579
0.84222275 -4.2740297 3.3561752
0.80330646 -3.7441337 3.1353519
0.83413869 -3.7180953 3.3104401
0.84225816 -3.4406767 3.3566389
0.83522534 -3.201906 3.3167911
0.83185339 -2.9992733 3.2977223
0.83220088 -2.8272529 3.2997656
0.83234733 -2.6636794 3.300667
0.82190949 -2.4657145 3.2414885
0.82878232 -2.3460903 3.2805693
0.83376616 -2.1536403 3.3089614
0.82683843 -1.9986905 3.2697062
0.8235085 -1.862237 3.2508726
0.82121271 -1.7343206 3.2379088
0.81863105 -1.6105607 3.2233224
0.81761265 -1.4945436 3.2176092
0.81662476 -1.3818959 3.2120688
0.8160485 -1.2728447 3.2088649
0.82035744 -1.1205266 3.233423
0.80325478 -0.99724561 3.1364148
0.78100336 -0.87775999 3.0101826
0.81715989 -0.80982733 3.2154739
0.81169701 -0.70699036 3.1845338
0.80854261 -0.6076647 3.1666968
0.80634475 -0.51006085 3.154289
0.38443664 -0.43770078 0.75975454
0.38165385 -0.42734197 0.74403489
0.36890581 -0.42157969 0.67179173
0.36709028 -0.4144972 0.66156244
0.36572018 -0.39873427 0.65393692
0.36496925 -0.39116588 0.64975041
0.36523816 -0.38622743 0.65131438
0.36516595 -0.36797628 0.65105557
0.36754268 -0.34709883 0.66465884
0.36811841 -0.34019968 0.66796428
0.36663282 -0.32830605 0.65964615
0.36606574 -0.32462877 0.65646541
0.36474502 -0.31239787 0.6490832
0.36471877 -0.29469821 0.64904821
0.36476398 -0.28185627 0.64938098
0.36528555 -0.27283344 0.65237927
0.36517167 -0.25219196 0.65184742
0.36515722 -0.22899199 0.6518802
0.36619541 -0.20565659 0.65784937
0.60762268 1.7018548 2.0283809
0.58577502 1.6869881 1.9044634
0.56616348 1.6811568 1.7932384
0.54837817 1.6838443 1.6923795
0.5305236 1.6785499 1.5911279
0.5067516 1.6900699 1.4563357
0.49197191 1.7043742 1.3725388
0.46255389 1.5058439 1.2056489
0.45089582 1.5380263 1.1395711
0.43778238 1.5460417 1.0652323
0.42410508 1.5387479 0.98769307
0.41023603 1.5187366 0.90906519
0.39781457 1.5249816 0.83865607
0.37921479 1.5285573 0.73322719
0.36726099 1.5452945 0.66547567
0.35520104 1.5616382 0.59712255
0.34285897 1.5605927 0.52716738
0.33060306 1.5690594 0.45770332
0.31828517 1.5690603 0.38788739
0.30605662 1.5575999 0.31857762
0.29359564 1.5676204 0.24795315
0.2749421 1.565452 0.14223115
0.26240799 1.5631393 0.071192473
0.24955302 1.5660756 -0.0016649603
0.23700774 1.5565919 -0.072766043
0.22731043 1.4878165 -0.12771575
0.22139536 1.3634557 -0.16121329
0.21032903 1.342589 -0.22392236
0.24706671 0.63986987 -0.015504368
0.24254601 0.59626144 -0.041079815
0.23822856 0.55491227 -0.065501362
0.23439147 0.51226771 -0.087197557
0.24930713 0.17839171 -0.0023833332
0.24954377 0.13057505 -0.00096849323
0.24908771 0.092346132 -0.0034822579
0.24911165 0.053922374 -0.0032728189
0.24904084 0.019189114 -0.0036004474
0.2491751 -0.014196349 -0.0027645035
0.24722397 -0.048334587 -0.013719916
0.24750488 -0.077831209 -0.012051508
0.24278411 -0.082145065 -0.038754281
0.24786954 -0.13062766 -0.0098323347
0.24780539 -0.17623523 -0.010044883
0.24784847 -0.21825184 -0.009648649
0.2481083 -0.23871705 -0.0080986349
0.2482065 -0.25792447 -0.0074654887
0.24812354 -0.27602926 -0.0078597916
0.24767996 -0.2928353 -0.010299639
0.24800336 -0.31088865 -0.0083887801
0.24755189 -0.33538488 -0.010835153
0.2477103 -0.3682746 -0.0097835949
0.24769041 -0.38417995 -0.0098199518
0.24777426 -0.41553017 -0.0091913491
0.24752769 -0.43086469 -0.010513461
0.24766113 -0.46162748 -0.0096035721
0.24757175 -0.48465541 -0.0099958712
0.24843594 -0.49962768 -0.0050174594
0.24749224 -0.51561588 -0.010294103
0.24716632 -0.53155398 -0.012066461
0.24745266 -0.54711032 -0.010365966
0.24763979 -0.57097673 -0.0091902008
0.24716689 -0.58814561 -0.01179649
0.24690083 -0.62271971 -0.013153697
0.24678333 -0.64069021 -0.013744302
0.24663277 -0.65930235 -0.014522595
0.24696735 -0.68680781 -0.012511368
0.2465428 -0.70791185 -0.014844165
0.24658041 -0.72841835 -0.01455564
0.24633753 -0.75083202 -0.015858186
0.24556361 -0.7765221 -0.020173362
0.24645965 -0.80886197 -0.014978893
0.2462033 -0.83573139 -0.01635881
0.24618152 -0.86310738 -0.016408507
0.24577561 -0.89440125 -0.018637482
0.24659792 -0.93700922 -0.013863537
0.24643674 -0.97256774 -0.014705329
0.068282418 -2.3433716 -1.0252101
0.073266074 -2.5201316 -0.99685222
0.071886204 -2.6933048 -1.0046256
0.071333967 -2.8788137 -1.0077077
0.070131958 -3.094207 -1.0144807
0.067864038 -3.3511357 -1.0273066
0.076803602 -3.652617 -0.97654104
0.076446258 -3.9830468 -0.97854692
0.07619638 -4.3744826 -0.97995549
0.073014885 -4.901134 -0.99801552
0.15640488 -8.2997522 -0.52534562
0.20478518 -8.2767706 -0.25091571
0.32356581 -10.725644 0.42233971
0.38631147 -10.809348 0.77819258
0.4489786 -10.790444 1.1336154
0.51186323 -10.778847 1.4902352
0.57672715 -10.835735 1.8581575
0.64286882 -10.890814 2.2333257
0.80633223 -6.4270434 3.161906
0.81827736 -6.0563569 3.2298052
0.81817818 -5.6036167 3.2294171
0.84570438 -5.2769489 3.385704
0.84492624 -4.9161501 3.3814445
0.83503664 -4.5189495 3.325521
0.83341795 -4.2229037 3.3164802
0.79961431 -3.731967 3.1249604
0.83330649 -3.7248771 3.3161039
0.83043456 -3.4872708 3.299942
0.83383971 -3.2047253 3.319423
0.83178502 -3.0085487 3.3078856
0.82934707 -2.8229373 3.2941728
0.83071047 -2.6649716 3.3020103
0.82197058 -2.4738314 3.2525601
0.8265624 -2.3450875 3.2786987
0.82633996 -2.2035844 3.2775381
0.82796311 -2.0081649 3.2868898
0.82187057 -1.863197 3.2524412
0.82020801 -1.7368435 3.2431095
0.81795609 -1.6136388 3.2304344
0.81662375 -1.4966761 3.2229726
0.81580818 -1.3841386 3.2184396
0.8144055 -1.2734745 3.2105763
0.81530368 -1.16886 3.2157583
0.80449647 -1.0009466 3.1546106
0.77949584 -0.87830162 3.0129361
0.81482524 -0.80965859 3.2133503
0.80935317 -0.70688969 3.1824071
0.80636579 -0.60768497 3.1655519
0.80121118 -0.5098179 3.1364067
0.37888974 -0.4275828 0.74199289
0.36659548 -0.42602918 0.67236203
0.36482593 -0.41433677 0.66245019
0.36365291 -0.40699425 0.65588021
0.36347383 -0.40287039 0.65490532
0.36274436 -0.39522883 0.6508503
0.36255667 -0.38221896 0.64990771
0.36300936 -0.37206578 0.6525557
0.36529142 -0.35183936 0.66561681
0.36567819 -0.34022963 0.66789067
0.3641901 -0.32833576 0.65957379
0.3636221 -0.32465842 0.65639347
0.36245784 -0.31752032 0.64987242
0.36277884 -0.29876289 0.65181303
0.36231652 -0.28188556 0.64931196
0.36283833 -0.27286273 0.65231049
0.36272359 -0.25222114 0.65177965
0.36341453 -0.23311663 0.6557768
0.36386585 -0.20495431 0.65845472
0.60501808 1.6986191 2.0259156
0.58227468 1.6762998 1.8970286
0.56394207 1.6811186 1.7931497
0.54605293 1.6829503 1.6917859
0.5281049 1.6767647 1.590089
0.51185107 1.6811924 1.4979974
0.48969272 1.7043407 1.3724599
0.46017867 1.5048847 1.2052051
0.44845951 1.5361155 1.1388239
0.43534821 1.5441087 1.0645517
0.42119327 1.5271827 0.98436528
0.40793023 1.5196775 0.909235
0.39556673 1.5278871 0.8392033
0.37687317 1.5295167 0.73331624
0.36496982 1.5492367 0.66589206
0.35272703 1.5556338 0.59654498
0.3404406 1.5575697 0.52695149
0.32819563 1.5660331 0.45759174
0.31588233 1.5680339 0.38784581
0.30355218 1.5675596 0.31800491
0.29135618 1.55564 0.24892662
0.27270362 1.5575038 0.14327295
0.25987884 1.5660677 0.070626095
0.24710733 1.5660497 -0.0017172165
0.23438683 1.5604472 -0.073770083
0.2279101 1.4262693 -0.11039346
0.2181727 1.3767444 -0.16552176
0.21295583 1.2617488 -0.1950036
0.24437304 0.64262491 -0.016654938
0.23502943 0.66109705 -0.06956134
0.15154651 1.4629321 -0.54298693
0.23212312 0.509592 -0.085851371
0.22420049 0.47351959 -0.13064846
0.24731754 0.22441858 0.00052634865
0.24658768 0.1800226 -0.0035223246
0.24681138 0.13216579 -0.0021629499
0.2466635 0.09153071 -0.0029118203
0.24650465 0.019161446 -0.0036345958
0.24540712 -0.02254015 -0.0097268103
0.24366595 -0.042906478 -0.019513849
0.2449607 -0.077859312 -0.012082739
0.23983222 -0.080285378 -0.041080639
0.24518274 -0.13005418 -0.0106484
0.24510783 -0.17571916 -0.010898757
0.2454448 -0.21876547 -0.0088136485
0.24539633 -0.23829196 -0.0090016443
0.24564755 -0.25795349 -0.00749018
0.24572271 -0.27644917 -0.0069771642
0.24592809 -0.29465649 -0.0057257232
0.24560346 -0.31124362 -0.0074798367
0.2449851 -0.33541444 -0.010856053
0.24514019 -0.36830443 -0.0098027857
0.24511859 -0.3842099 -0.009838271
0.24519904 -0.41556033 -0.0092079062
0.24495065 -0.43089497 -0.010529105
0.2452736 -0.45401376 -0.0085668946
0.24508062 -0.461658 -0.009617391
0.24493805 -0.47701398 -0.010338189
0.2451591 -0.50000703 -0.0089532007
0.24473284 -0.51576865 -0.011282034
0.24492039 -0.53127223 -0.010130572
0.2448618 -0.54714155 -0.010374438
0.24470891 -0.57149196 -0.011108252
0.24457079 -0.58817714 -0.011802327
0.24437751 -0.60535264 -0.012808861
0.24430025 -0.62275147 -0.013157312
0.24401934 -0.64109671 -0.014659878
0.24463049 -0.66705298 -0.011059781
0.24389412 -0.6882019 -0.015143285
0.24408303 -0.70745933 -0.013981042
0.24366817 -0.7294808 -0.016240783
0.24357446 -0.75140917 -0.016679598
0.24418232 -0.78318012 -0.013094214
0.24397154 -0.80827916 -0.014194831
0.2434416 -0.83640712 -0.017103544
0.2435493 -0.86314052 -0.016397215
0.24326421 -0.89373982 -0.017915951
0.24395598 -0.93704259 -0.013847905
0.24356209 -0.97411066 -0.015979888
0.071488678 -2.3663983 -0.99079376
0.069807626 -2.5250969 -1.0001582
0.069194578 -2.691678 -1.003462
0.067983165 -2.8831508 -1.0101447
0.067455649 -3.091635 -1.0129398
0.074072167 -3.3719497 -0.97514379
0.073100328 -3.6618044 -0.98041284
0.073409781 -3.9830995 -0.97839856
0.070402667 -4.8916769 -0.99478334
0.15219659 -8.3295755 -0.52860284
0.20050187 -8.3236332 -0.25460458
0.44655496 -10.912158 1.1424671
0.50851732 -10.808684 1.4938017
0.57234502 -10.814933 1.8557572
0.63744026 -10.839586 2.224911
0.80490994 -6.4496546 3.1725788
0.81443948 -6.04918 3.2264786
0.81443638 -5.5974436 3.2263048
0.84765261 -5.3235354 3.4146209
0.85263115 -5.0081167 3.4427702
0.83497167 -4.5423546 3.3424878
0.83181667 -4.2330909 3.3245285
0.80046785 -3.7579589 3.1466281
0.82804716 -3.7099547 3.3030684
0.82993484 -3.5015974 3.3137574
0.83184594 -3.2094371 3.324585
0.82734931 -3.000613 3.2990785
0.82744581 -2.8272786 3.2996337
0.82718599 -2.6618974 3.2981739
0.82057858 -2.4795027 3.2607155
0.8236137 -2.3444767 3.2779551
0.82503694 -2.2086673 3.2860558
0.82057905 -2.0591047 3.2608044
0.8195737 -1.8644428 3.2551582
0.81713468 -1.7359596 3.2413661
0.81472534 -1.612444 3.2277458
0.81437314 -1.4976304 3.2257946
0.81307489 -1.3840659 3.2184806
0.81134474 -1.2728497 3.2087195
0.81376183 -1.1704788 3.2224791
0.80568671 -1.056066 3.1767409
0.77353007 -0.87525779 2.9944749
0.81160343 -0.80921465 3.2104349
0.80769062 -0.70733416 3.1883061
0.80470943 -0.60791993 3.1714613
0.79851741 -0.50973868 3.1364114
0.37636811 -0.42746449 0.74297267
0.36407092 -0.42587748 0.67333728
0.36240372 -0.42284897 0.66393012
0.36111888 -0.41112131 0.65678316
0.3605786 -0.39874995 0.65385795
0.3602066 -0.39493847 0.65179503
0.36009172 -0.38624194 0.65123582
0.3600136 -0.36798927 0.65097737
0.36226127 -0.35263482 0.66381311
0.36296335 -0.3402108 0.66788566
0.3617245 -0.33300388 0.660954
0.36032417 -0.32103285 0.65315294
0.3601782 -0.31591013 0.65237141
0.36005405 -0.29874134 0.65180558
0.35999671 -0.28650829 0.65157253
0.35952249 -0.2687993 0.64902169
0.35986197 -0.25286624 0.65103799
0.36067986 -0.23309174 0.65576607
0.36112788 -0.20492828 0.65844268
0.6021986 1.6978923 2.0252442
0.58114898 1.6894749 1.9059881
0.56159586 1.6845394 1.7952167
0.54233932 1.6735848 1.6861283
0.52528661 1.6759514 1.5895333
0.50832367 1.6723412 1.4934481
0.48701808 1.7053103 1.3727808
0.45892429 1.5262616 1.213617
0.4458822 1.5389848 1.1397603
0.43248093 1.5422552 1.0638688
0.4183332 1.5253066 0.9837485
0.40516165 1.5197223 0.90916121
0.39272171 1.525974 0.83871967
0.38040146 1.5326138 0.76895654
0.36220795 1.5502684 0.66593671
0.35004604 1.5626448 0.59706992
0.33765855 1.5586041 0.52692705
0.32537594 1.5580685 0.45737794
0.31307718 1.5700662 0.38773468
0.30074012 1.5685891 0.31787643
0.28841344 1.5646346 0.24807726
0.26989123 1.5575303 0.14319581
0.25691217 1.5710161 0.069693282
0.2443238 1.5650941 -0.0015904035
0.23147982 1.5624084 -0.074324623
0.22345799 1.4589721 -0.11969724
0.21593451 1.3663015 -0.16224645
0.20709741 1.309691 -0.21225144
0.24148011 0.6435774 -0.017071918
0.23205748 0.66294801 -0.070411429
0.14909852 1.4584849 -0.54082829
0.22888121 0.51403129 -0.088207565
0.22127347 0.4744007 -0.13119939
0.24457319 0.22359955 0.0010130104
0.24404076 0.17756502 -0.0019041913
0.24397144 0.13219593 -0.0021955967
0.2437149 0.092349418 -0.0035496941
0.24232356 0.010833265 -0.01119153
0.24243654 -0.021800369 -0.010451881
0.24195936 -0.049011394 -0.013059848
0.24184743 -0.076513343 -0.013596712
0.23684441 -0.079622693 -0.041873693
0.2421896 -0.12941721 -0.011461157
0.2423958 -0.17622735 -0.010098112
0.24243213 -0.21824291 -0.0096994238
0.24268873 -0.23870754 -0.0081482036
0.2427837 -0.25791442 -0.0075138924
0.24269752 -0.27601874 -0.0079070637
0.24257492 -0.29354101 -0.0085070375
0.24273522 -0.31120268 -0.007502682
0.24268349 -0.32800084 -0.0077010612
0.2423906 -0.35226542 -0.0092197517
0.24226722 -0.36826137 -0.0098248357
0.24224433 -0.38416618 -0.0098601114
0.24249266 -0.40009829 -0.0083573107
0.24232228 -0.41551536 -0.009229348
0.24224599 -0.43091914 -0.0095679434
0.24226341 -0.44629067 -0.0093751131
0.24220382 -0.46927252 -0.0095723551
0.2421068 -0.48463833 -0.010028936
0.2419304 -0.50013292 -0.01093581
0.24202165 -0.51559776 -0.010324905
0.2418644 -0.53137904 -0.011123427
0.24180607 -0.5472821 -0.011361133
0.2418226 -0.57144076 -0.011128007
0.24185081 -0.58784968 -0.010875258
0.24165526 -0.60499126 -0.011891651
0.24141242 -0.62269843 -0.013176535
0.24113125 -0.64104313 -0.014678907
0.2409804 -0.65968692 -0.015442346
0.24065103 -0.67947626 -0.017218612
0.24104254 -0.70788836 -0.014860633
0.24077991 -0.72942448 -0.016258806
0.24097776 -0.75026292 -0.015045513
0.24062456 -0.77420306 -0.016958004
0.24122162 -0.80760485 -0.013435787
0.24082217 -0.83506238 -0.015611398
0.24092299 -0.86174244 -0.014949813
0.24169478 -0.90142196 -0.010438304
0.24131215 -0.93551838 -0.012519895
0.24091186 -0.97253919 -0.014702355
0.069329865 -2.3623843 -0.98782051
0.067344613 -2.5234375 -0.99901533
0.06655252 -2.6916568 -1.0034454
0.066258758 -2.8745577 -1.0050523
0.064694762 -3.0933626 -1.01387
0.063210927 -3.3413651 -1.0222389
0.07177911 -3.6462493 -0.97356707
0.071254894 -3.9784381 -0.97651058
0.067934833 -4.8935533 -0.99532926
0.14967413 -8.3583097 -0.53194356
0.19805725 -8.3584375 -0.25746745
0.37979129 -10.640358 0.77304572
0.44420746 -10.85018 1.1384104
0.50989735 -10.972635 1.5109872
0.57269871 -10.896965 1.8673326
0.63170785 -10.707448 2.2021904
0.6414808 -4.8550801 2.2594469
0.80281824 -6.4530797 3.1743529
0.81317896 -6.0623441 3.2332861
0.81386954 -5.6173615 3.2373776
0.84822935 -5.3521662 3.4324517
0.84003258 -4.9225268 3.3861253
0.83354902 -4.551868 3.3495038
0.83415717 -4.2699347 3.3530891
0.7946099 -3.7363274 3.1289551
0.82657862 -3.7179427 3.3103688
0.8268013 -3.4992549 3.3117526
0.83119982 -3.220849 3.3368709
0.82543993 -3.0050266 3.3043182
0.82473546 -2.8277316 3.3004324
0.82640409 -2.6707506 3.3100019
0.82082921 -2.4919503 3.2784896
0.82072115 -2.3443077 3.2779787
0.82257801 -2.2100456 3.2886093
0.81644607 -2.0550625 3.2539313
0.81663948 -1.8642825 3.2551723
0.81387341 -1.7349886 3.2395785
0.81112826 -1.6107907 3.2241027
0.81141174 -1.4974777 3.2258017
0.80861962 -1.3811346 3.2100563
0.8083688 -1.2727019 3.2087226
0.81061059 -1.1700908 3.2215247
0.80422741 -1.0577945 3.1854095
0.76899463 -0.87371576 2.9857156
0.81101459 -0.81078243 3.2241147
0.805031 -0.7073732 3.1902618
0.80065972 -0.60747355 3.1655524
0.79880422 -0.50994021 3.1551104
0.37343654 -0.42739952 0.742948
0.3611435 -0.42581517 0.67331225
0.35934603 -0.41851857 0.66320133
0.35819525 -0.41106132 0.65675801
0.35765749 -0.39869151 0.65383273
0.3571195 -0.3951562 0.65082312
0.35693121 -0.38214678 0.64987963
0.3570984 -0.36793432 0.65095198
0.35918853 -0.35298735 0.66288799
0.35989466 -0.34059587 0.66697508
0.35881394 -0.33295166 0.66092855
0.35784385 -0.32508737 0.65550911
0.35667086 -0.31235704 0.64898014
0.35715011 -0.2986927 0.65178001
0.35655046 -0.2824316 0.64850193
0.3566232 -0.26875317 0.64899606
0.35696444 -0.25282106 0.6510123
0.35765898 -0.23374215 0.65503198
0.35823458 -0.20488542 0.65841687
0.59955049 1.7003454 2.0269861
0.57789701 1.6870714 1.9042575
0.55846179 1.6829131 1.7941079
0.54065496 1.6856338 1.6931932
0.52269423 1.6794958 1.5914071
0.5062694 1.682186 1.4983301
0.4841772 1.7062641 1.3731457
0.45973268 1.579149 1.2346092
0.44310662 1.5408999 1.1403996
0.42964667 1.54324 1.0641389
0.41549975 1.5263001 0.98398614
0.40224463 1.5187823 0.90888935
0.38985282 1.5260029 0.83868635
0.37726694 1.5237776 0.76738459
0.3593328 1.549301 0.66578406
0.34724346 1.5656571 0.59729499
0.33481631 1.5586268 0.52689499
0.32254252 1.5590897 0.45736343
0.3102794 1.559088 0.38789266
0.2979331 1.5666109 0.31794861
0.28559381 1.5646528 0.24804671
0.26686251 1.5664598 0.14193214
0.25401574 1.5739865 0.069150679
0.241559 1.5641315 -0.0014146911
0.22889395 1.5575716 -0.073161885
0.22267438 1.4186132 -0.10832316
0.21244819 1.3786784 -0.16622993
0.20805106 1.2505035 -0.19105662
0.23822962 0.65007955 -0.019678978
0.22954835 0.65930545 -0.068833373
0.14775012 1.4424587 -0.53280532
0.2256038 0.51933908 -0.091004983
0.22186857 0.47888738 -0.11209571
0.24086347 0.18088904 -0.0041290517
0.24097958 0.13382123 -0.0033750795
0.2408215 0.093144059 -0.0041775145
0.24075915 0.019941851 -0.0043442571
0.24088608 -0.013467515 -0.0035316206
0.23905145 -0.048325706 -0.013800597
0.23932967 -0.077822424 -0.01213047
0.23447128 -0.081508018 -0.039597694
0.24057496 -0.12238771 -0.0049294685
0.23962016 -0.17622699 -0.010117769
0.23970731 -0.19791855 -0.0095326658
0.2396585 -0.21824388 -0.0097187972
0.23976134 -0.23825522 -0.009044962
0.23985459 -0.25749415 -0.0084255878
0.23976688 -0.27563098 -0.0088325944
0.23996711 -0.29390302 -0.0076065031
0.23980199 -0.31088144 -0.0084526008
0.23974921 -0.32771346 -0.0086615374
0.23980679 -0.34437492 -0.0082445079
0.23950094 -0.36826795 -0.0098432647
0.23964979 -0.38434711 -0.0089085801
0.23955582 -0.39996707 -0.0093507897
0.23938532 -0.41541943 -0.010226924
0.23948231 -0.43092841 -0.0095860641
0.23932673 -0.4462657 -0.010377367
0.23926416 -0.46162173 -0.010641082
0.23929466 -0.47697774 -0.010376878
0.23934175 -0.500058 -0.009972644
0.23926032 -0.51561064 -0.010342746
0.23927483 -0.53123611 -0.010168551
0.23887463 -0.54748708 -0.012345607
0.2392303 -0.57121396 -0.010190234
0.23855935 -0.58042145 -0.013948074
0.2388943 -0.60500771 -0.011909411
0.2388144 -0.62237352 -0.012268902
0.23836961 -0.64106089 -0.014696696
0.23853567 -0.65889186 -0.013660875
0.23886177 -0.68635017 -0.011669864
0.23858277 -0.7069388 -0.013155916
0.23831309 -0.72841507 -0.014588597
0.23806651 -0.75082898 -0.015889574
0.2379999 -0.77365148 -0.016169526
0.23756289 -0.79924428 -0.018548185
0.2380514 -0.83508605 -0.015629953
0.23789206 -0.86310506 -0.016432229
0.23760612 -0.89370441 -0.017950727
0.23841502 -0.93627578 -0.013210788
0.23835771 -0.97105646 -0.013429754
0.060743384 -2.3363075 -1.0196947
0.065338507 -2.5152442 -0.99339485
0.063999586 -2.6874619 -1.0007935
0.063475557 -2.8719845 -1.0035625
0.062623456 -3.0828655 -1.0081748
0.059777047 -3.3449273 -1.0240638
0.069183283 -3.638941 -0.97040355
0.068305567 -3.9747298 -0.97507972
0.067712449 -4.3698115 -0.97810334
0.064698063 -4.8916516 -0.99477613
0.14617559 -8.3414545 -0.5300076
0.19509687 -8.2996912 -0.25251189
0.28286621 -10.694074 0.24695519
0.37701884 -10.880283 0.78114873
0.43997711 -10.850267 1.1382531
0.50359648 -10.859363 1.4990867
0.57077587 -10.991158 1.8801928
0.63157707 -10.839542 2.2249491
0.63796961 -4.8515229 2.2578349
0.80113643 -6.474988 3.1842477
0.80515456 -6.009933 3.2068191
0.81249273 -5.6376343 3.2482781
0.83149385 -5.418633 3.3559754
0.83712256 -4.9251714 3.3877077
0.82938153 -4.5439324 3.3436513
0.8326534 -4.2819085 3.3621247
0.79213172 -3.7403023 3.1320691
0.82308656 -3.7151191 3.3076828
0.82476944 -3.5051575 3.3171792
0.82786262 -3.2189496 3.3346689
0.82277471 -3.0064824 3.3057668
0.82115817 -2.8247271 3.2965708
0.82269102 -2.6672802 3.3052504
0.82166821 -2.5070014 3.2994351
0.81628156 -2.3384533 3.2688668
0.82005513 -2.211211 3.2902734
0.81455612 -2.0581043 3.2590775
0.81526715 -1.8683584 3.2631202
0.810637 -1.7338971 3.2368634
0.80870479 -1.6116666 3.2259145
0.80851704 -1.4972609 3.224864
0.80804837 -1.3852751 3.2222219
0.80649829 -1.2742016 3.2134469
0.80758077 -1.1697277 3.2196064
0.80426455 -1.0612391 3.2008169
0.76650572 -0.87398285 2.9866858
0.80870694 -0.81114161 3.226068
0.8023898 -0.70748627 3.1902618
0.79820257 -0.60763681 3.1665373
0.79462147 -0.5098924 3.146251
0.37082186 -0.42744613 0.74295413
0.35857975 -0.42126688 0.67363882
0.35673398 -0.41856217 0.6632086
0.35573816 -0.41526029 0.65759838
0.35524058 -0.4028396 0.65488696
0.35451251 -0.3951979 0.65083194
0.35416263 -0.3825132 0.64895809
0.35461879 -0.37239248 0.65161777
0.35611317 -0.35424733 0.6602
0.35729736 -0.34063515 0.66698653
0.35637164 -0.33252078 0.66181004
0.35482344 -0.32101986 0.65314013
0.35453197 -0.31642732 0.65152365
0.35441846 -0.29930282 0.65098691
0.35450727 -0.28649661 0.65156102
0.35462359 -0.27282849 0.65229064
0.35425326 -0.25352478 0.65029573
0.35495457 -0.23447092 0.65433931
0.35554054 -0.20565014 0.65776163
0.59850013 1.7106754 2.0347083
0.57578576 1.6894795 1.9059695
0.55614656 1.6837051 1.7946615
0.53699291 1.6735888 1.6861093
0.52037036 1.6803282 1.5919011
0.50402045 1.683928 1.4992406
0.48832253 1.6890521 1.4102764
0.46763235 1.6205651 1.2930473
0.44075188 1.5418068 1.1407517
0.42728791 1.5441599 1.0644583
0.41284755 1.5214641 0.98264372
0.39983335 1.5187541 0.90890378
0.38748023 1.5269543 0.83890504
0.37507176 1.5306458 0.76859504
0.36314526 1.5496136 0.70100707
0.34483024 1.5646385 0.59722137
0.33249381 1.5665946 0.52731884
0.32014576 1.5580698 0.45735753
0.30788845 1.5590689 0.38790336
0.2956084 1.5596025 0.31831968
0.28323919 1.5626434 0.24822788
0.27087379 1.5601914 0.17816101
0.25200051 1.5621541 0.071210884
0.23915021 1.5650951 -0.0016123543
0.22644056 1.5594985 -0.073631987
0.21981759 1.4282126 -0.11103065
0.21081811 1.3653512 -0.16196184
0.20566259 1.2504914 -0.1910485
0.23571731 0.650994 -0.02003186
0.22710523 0.65929323 -0.068817779
0.14469063 1.4504672 -0.53682709
0.21941587 0.47887611 -0.11207814
0.23847942 0.18004906 -0.0035556951
0.23829201 0.13542858 -0.0045093615
0.23844253 0.0923457 -0.0035469378
0.23779251 0.05851835 -0.0071329712
0.23838611 0.019188987 -0.0036595489
0.23839554 -0.013476931 -0.0035051527
0.23795706 -0.041357286 -0.0058954363
0.23776217 -0.068845876 -0.0069040377
0.23562273 -0.098507747 -0.018904723
0.23808132 -0.12239592 -0.0049002771
0.23678514 -0.15246771 -0.012116508
0.23712623 -0.17623445 -0.010087036
0.23706439 -0.1974107 -0.010345429
0.23716423 -0.21825074 -0.009686741
0.23711236 -0.2378078 -0.0098897116
0.23720293 -0.25707778 -0.0092847347
0.23727264 -0.27563694 -0.0087985629
0.23731092 -0.29355031 -0.0084912302
0.23730813 -0.31088677 -0.008417258
0.23725566 -0.32771853 -0.0086255455
0.23731354 -0.34437966 -0.008207852
0.23700845 -0.36827224 -0.0098056495
0.23715764 -0.38435107 -0.0088702831
0.2370642 -0.39997077 -0.0093118334
0.23689429 -0.41542283 -0.010187309
0.23699176 -0.43093148 -0.0095457593
0.23701029 -0.44630337 -0.0093521783
0.23677486 -0.46162421 -0.010599419
0.23685637 -0.48465192 -0.010004133
0.23685396 -0.50005972 -0.0099292072
0.23660092 -0.51573396 -0.011276069
0.23661692 -0.53139371 -0.011096364
0.23655947 -0.54729712 -0.011333307
0.23626384 -0.56375158 -0.012921189
0.23643918 -0.58814126 -0.011792151
0.23657629 -0.60469848 -0.01092451
0.23633204 -0.62237304 -0.012219794
0.23604918 -0.6406855 -0.01373367
0.23589629 -0.65929753 -0.014509765
0.23638193 -0.68634862 -0.011617778
0.23610379 -0.70693696 -0.01310294
0.23568611 -0.72892803 -0.015378822
0.23558918 -0.75082654 -0.015834725
0.23509654 -0.77536952 -0.018533742
0.23638758 -0.80577773 -0.011068742
0.23584248 -0.83379698 -0.014062679
0.23580495 -0.86109388 -0.014177048
0.2351325 -0.89370036 -0.017889874
0.23629723 -0.9340772 -0.011133226
0.235999 -0.97029692 -0.012719593
0.058984358 -2.3315926 -1.0159794
0.063830718 -2.5078843 -0.98822773
0.061782874 -2.6857972 -0.99963224
0.061157022 -2.8711405 -1.0029614
0.06012873 -3.0837531 -1.0085522
0.057995427 -3.3378127 -1.0203798
0.057404958 -3.611063 -1.0234367
0.066919968 -3.9599073 -0.96904981
0.094844095 -6.8912973 -0.80780113
0.14386411 -8.3295469 -0.52829653
0.19222599 -8.3176184 -0.25377697
0.34236401 -10.774035 0.6004979
0.43656027 -10.800348 1.1352164
0.5022074 -10.941856 1.5080538
0.62551433 -10.738039 2.2077541
0.63705462 -4.8772335 2.2688363
0.80220592 -6.5247512 3.2074275
0.80480576 -6.0392542 3.2218451
0.81291699 -5.6725373 3.2676358
0.8255192 -5.3894072 3.3389795
0.8287164 -5.0490808 3.3569076
0.82973588 -4.5697427 3.3623967
0.82954192 -4.2802553 3.3611238
0.79094797 -3.7517211 3.1417565
0.8177796 -3.69944 3.2940352
0.82275027 -3.5101206 3.3221521
0.81695443 -3.2721479 3.2891359
0.81343752 -3.0638101 3.2690763
0.81792337 -2.8227725 3.2944348
0.82125247 -2.673233 3.3132708
0.81601059 -2.4954662 3.2834492
0.8134765 -2.3383913 3.2690101
0.81844413 -2.2152705 3.2971656
0.81085533 -2.0551364 3.2540426
0.80722064 -1.9157002 3.2333736
0.80944997 -1.7379092 3.2459826
0.80787045 -1.6161082 3.2369902
0.80608433 -1.4978929 3.2268293
0.80414051 -1.3830615 3.2157764
0.80475283 -1.2758064 3.2192345
0.80500787 -1.1699218 3.2206664
0.80220944 -1.0620246 3.2047708
0.76265252 -0.91948992 2.9802723
0.80563921 -0.81085509 3.2242072
0.80002052 -0.70761949 3.1923144
0.79480135 -0.60738808 3.1626911
0.79226702 -0.50988942 3.1483049
0.36815542 -0.42753679 0.74202007
0.35621414 -0.42570743 0.6743378
0.35441884 -0.418376 0.66422111
0.35309994 -0.41109213 0.65680754
0.352566 -0.39872196 0.65388185
0.35168058 -0.38250238 0.64899701
0.35213721 -0.37238199 0.65165591
0.35363194 -0.35423732 0.66023713
0.35481632 -0.34062549 0.66702294
0.35389155 -0.33251148 0.66184568
0.35277075 -0.32511643 0.65555644
0.35174721 -0.31184101 0.64985299
0.35194111 -0.2992948 0.65101993
0.35203046 -0.28648895 0.65159339
0.35214728 -0.27282119 0.65232229
0.35177785 -0.25351802 0.65032637
0.3524794 -0.23446448 0.65436929
0.35384122 -0.20984899 0.66215473
0.60259688 1.682567 2.0724502
0.57284391 1.6862047 1.9037532
0.55389369 1.6862222 1.7963127
0.53437263 1.6727325 1.6856434
0.5178445 1.6803285 1.5919417
0.50149924 1.6839279 1.4992807
0.4858056 1.6890516 1.4103161
0.46539289 1.6242466 1.2946249
0.43812883 1.5399268 1.1401153
0.42478675 1.5441591 1.0644951
0.41092503 1.5329984 0.9859373
0.39742211 1.520694 0.90941632
0.3849144 1.5249971 0.83853143
0.37245923 1.526706 0.76794684
0.36072797 1.5525838 0.70145404
0.34229639 1.5616494 0.59699982
0.32989654 1.5546111 0.5267365
0.31766623 1.5600698 0.45742765
0.30537716 1.5680683 0.3877843
0.29308808 1.563598 0.31814933
0.28074014 1.5636411 0.24817811
0.26820058 1.5691266 0.17711684
0.24978708 1.5532937 0.072786644
0.23670208 1.564121 -0.0013708521
0.22399798 1.5585331 -0.0733568
0.21848065 1.4051476 -0.10448024
0.20796072 1.3720143 -0.16405779
0.22463335 0.65929759 -0.068794973
0.20974626 0.7373687 -0.15321575
0.20098081 0.73300576 -0.20285814
0.21685867 0.47974703 -0.1125514
0.23591772 0.1808811 -0.0040936065
0.23582779 0.1354315 -0.0044977907
0.23587203 0.093136564 -0.0041429228
0.23544061 0.057755046 -0.0064906254
0.23580714 0.019934796 -0.0043104691
0.2358125 -0.012755043 -0.0041823247
0.23561957 -0.042049453 -0.0051810653
0.23555803 -0.070181727 -0.0054354141
0.23534377 -0.095876954 -0.0065575219
0.23445728 -0.12942123 -0.011449421
0.2346081 -0.15361257 -0.01050177
0.23466517 -0.17623229 -0.010086799
0.23460354 -0.19740862 -0.010346212
0.23455182 -0.21776393 -0.010549937
0.23480657 -0.23825988 -0.0090150917
0.23490003 -0.25749859 -0.0083960844
0.23481266 -0.27563521 -0.0088034635
0.23468912 -0.2931903 -0.0094165504
0.23484857 -0.31088522 -0.0084242169
0.2347963 -0.32771704 -0.0086335335
0.23450312 -0.35203266 -0.010166427
0.23454957 -0.36827093 -0.0098162303
0.23452805 -0.38417622 -0.0098518142
0.23460579 -0.39996964 -0.009324545
0.23443608 -0.41542175 -0.010201089
0.23436064 -0.43086076 -0.01054307
0.2343791 -0.44626758 -0.010352362
