# .PCD v0.7 - Point Cloud Data file format
VERSION 0.7
FIELDS x y z
SIZE 4 4 4
TYPE F F F
COUNT 1 1 1
WIDTH 1341
HEIGHT 1
VIEWPOINT 0 0 0 1 0 0 0
POINTS 1341
DATA ascii
0.030174702 0.020280194 0.027954614
0.025816545 0.02033397 0.027910763
0.023302913 0.020335907 0.027827991
0.021494508 0.02037189 0.027834242
0.0048455819 0.020579191 0.027610248
0.14144869 0.013726522 0.028770251
0.12842132 0.013835636 0.028525949
0.12409694 0.013955413 0.02856257
0.12116345 0.013941234 0.028453369
0.10734378 0.014131816 0.028273312
0.091867752 0.014344014 0.028130693
0.077795096 0.014480223 0.027895875
0.0582752 0.014672965 0.027589988
0.028162792 0.015089018 0.027248226
0.013098978 0.015264203 0.027046673
0.0021418706 0.13741519 0.043801393
-0.00048707426 0.13746265 0.0437828
0.0049477592 0.11774363 0.041154213
-0.00042036921 0.11781324 0.041111778
0.0035065338 0.11694638 0.041600388
0.0023993775 0.11698028 0.041608565
0.0013346523 0.11699247 0.041598186
0.00027482957 0.11700346 0.041590694
0.0009758696 0.10842185 0.040033929
-1.8358231e-05 0.10842093 0.0400264
0.0054742619 0.099819094 0.038877923
0.0044111907 0.099843718 0.03888502
0.0015191957 0.099871062 0.038850106
0.00042033195 0.099877991 0.038822446
0.010803863 0.091226578 0.038002059
0.0010242984 0.091331877 0.037879527
0.0017748028 0.090510242 0.038366344
0.010347754 0.083492108 0.036797002
0.0049086884 0.083581567 0.036746949
0.0038229749 0.083587021 0.036724113
0.0063895583 0.082771271 0.037288226
0.00090032816 0.075932927 0.035770081
0.0091964155 0.068176173 0.035239693
0.0084052682 0.068969265 0.034692783
0.0073139369 0.068976395 0.034671083
0.0011955127 0.068248637 0.035101961
0.006698899 0.061316695 0.034201313
0.0023518577 0.061394777 0.034183104
0.01252868 0.055179846 0.032953709
0.0092392862 0.055227831 0.03292805
0.013342537 0.048337568 0.032431141
0.011223979 0.048370153 0.032428045
0.00578814 0.048446104 0.0323571
0.0059084594 0.042375486 0.0313842
0.008630231 0.036300022 0.030689653
0.027678251 0.030102257 0.030445671
0.007696867 0.030325325 0.030149361
0.076706715 0.024266394 0.030092871
0.075602055 0.02427577 0.03007343
0.063260317 0.024405928 0.029885529
0.044792309 0.02467425 0.029695775
0.043053299 0.024655543 0.029610831
0.011167005 0.025033921 0.029199798
0.15019058 0.018172927 0.030251674
0.137952 0.018325953 0.030100675
0.10869479 0.018641982 0.029654907
0.10467818 0.018670358 0.029599451
0.10074589 0.018757829 0.029566033
0.085973382 0.018864689 0.02931308
0.079107508 0.018975284 0.029269438
0.05012241 0.01932651 0.028856013
0.049350917 0.019347116 0.02886316
0.045416936 0.019376554 0.028785307
0.039335132 0.019447381 0.028717494
0.028104469 0.01959878 0.028597804
0.020114325 0.019686561 0.028484687
0.01832553 0.019711234 0.028434293
0.012265116 0.01974581 0.028321182
0.010764532 0.019787781 0.028333193
0.13440932 0.017639099 0.030684965
0.12974393 0.017672043 0.030598437
0.086009353 0.018187135 0.029990831
0.080575578 0.018263061 0.029949818
0.048341133 0.018658753 0.029531831
0.033634424 0.018805496 0.029290559
0.12630543 0.013230577 0.029231394
0.11618307 0.013300739 0.029047372
0.10605689 0.013442233 0.02892345
0.034932956 0.014272369 0.027962165
0.019261315 0.014468688 0.027768934
0.12772828 0.013139153 0.029167971
0.067395881 0.013209857 0.029087434
0.0034773499 0.13575408 0.04464734
-0.00015479326 0.13580477 0.044631571
0.0089986995 0.089652285 0.038970638
0.015308499 0.081893913 0.037941027
0.0070318207 0.0819804 0.037821073
0.0099217072 0.074272819 0.036977194
0.0066800416 0.074289612 0.036887705
0.0095988363 0.060495958 0.034760542
0.0084980652 0.060506601 0.034742534
0.0074142888 0.060526341 0.034735497
0.005257003 0.060589656 0.034764312
0.0041548461 0.060606871 0.034759961
0.012849212 0.059732441 0.035422675
0.012522951 0.059740499 0.035428055
0.013647608 0.05365321 0.034145098
0.088589266 0.03393086 0.033034574
0.02805838 0.034624103 0.032197382
0.026112832 0.034675762 0.032197725
0.024665199 0.034693867 0.03219622
0.023955412 0.034694139 0.032193929
0.037099674 0.029280391 0.031229408
0.031671278 0.029338855 0.031124508
0.066954069 0.023678992 0.03062127
0.059702635 0.023770269 0.030521637
0.072031252 0.022863718 0.031280369
0.068772577 0.022916825 0.031239877
0.063417941 0.022952188 0.031147892
0.056411408 0.023761535 0.03042181
0.043542981 0.02323534 0.030923801
0.041769348 0.023229491 0.030879585
0.039490215 0.023978762 0.030204047
0.15181373 0.016745273 0.031590894
0.14136246 0.016843492 0.031419657
0.12652658 0.017057249 0.031267475
0.065763883 0.017725915 0.030376457
0.01842726 0.018285263 0.029742945
0.0038149729 0.1238818 0.044323139
0.00052914023 0.12391789 0.044272114
0.0074900463 0.10593379 0.041571192
0.054759905 0.10457008 0.04266372
0.078200251 0.095728837 0.041782685
0.075941488 0.096600577 0.041335553
0.00083069503 0.096662298 0.040773563
0.0039348975 0.088103622 0.039877586
0.0028134882 0.08811862 0.039868966
0.010309145 0.08113993 0.038336102
0.004575327 0.081219852 0.038289279
0.013552874 0.073428258 0.03752153
0.0098886862 0.073490344 0.037503205
0.012672015 0.052890848 0.034672085
0.0078683123 0.052960578 0.034618787
0.033780314 0.03382523 0.032908022
0.026534513 0.033913523 0.032796722
0.080243871 0.027302872 0.033012792
0.036843233 0.027823044 0.032464307
0.035364866 0.028562393 0.031785909
0.033997208 0.02785266 0.032401968
0.070684403 0.022172872 0.031919166
0.063465357 0.022228844 0.031782694
0.062795766 0.022245932 0.031787645
0.042518832 0.022509659 0.0315248
0.011738718 0.022862613 0.031096853
0.055125535 0.10293696 0.043599408
0.080249555 0.09491647 0.042287365
0.082484864 0.094096735 0.042825002
0.079196744 0.094120808 0.042754546
0.015004642 0.079532266 0.039478447
0.01560612 0.038556427 0.034551855
0.034859978 0.033090856 0.033545505
0.077811278 0.026608247 0.033625327
0.040905945 0.027025925 0.033098228
0.03908889 0.027055634 0.033071633
0.035743207 0.027129669 0.033072177
0.03511887 0.027122684 0.033049628
0.033675134 0.027129417 0.033026211
0.03254433 0.027149113 0.033010773
0.067459673 0.021500234 0.032512669
0.060960941 0.021586141 0.032445394
0.057728626 0.021651218 0.032428525
0.055881873 0.021644739 0.032358687
0.054446712 0.021627832 0.032288108
0.044020258 0.021811999 0.032250959
0.040422156 0.021820752 0.032145251
0.068212911 0.020780893 0.033165105
0.066416681 0.020828538 0.03316123
0.059537008 0.020911638 0.033096489
0.058877796 0.020917101 0.033082094
0.056763649 0.020928834 0.033054758
0.052441522 0.020952694 0.032926727
0.051936604 0.10215031 0.044024136
0.070670061 0.10111938 0.044717647
0.084573612 0.092499979 0.04386618
0.07604906 0.02590517 0.034222934
0.075235322 0.025918406 0.034209482
0.042051494 0.026298588 0.033750217
0.038123943 0.026336709 0.033688918
0.037333481 0.026357658 0.03369825
0.065159142 0.020120131 0.033805151
0.062951803 0.020097798 0.033693805
0.060803629 0.020146525 0.033708211
0.072831519 0.1003029 0.045260523
0.071832575 0.099477038 0.045685675
0.082458131 0.091689058 0.044260681
0.08927618 0.083899312 0.04301117
0.023296215 0.036945477 0.035804279
0.032314464 0.036138766 0.036594883
0.029069208 0.036173481 0.036525566
0.026991561 0.036210895 0.036515992
0.0226577 0.036214381 0.036401298
0.077946939 0.024437107 0.035491053
0.075805008 0.024446066 0.035452805
0.043618195 0.024827614 0.035012223
0.07501734 0.099474624 0.045767814
0.069156699 0.099542566 0.045674033
0.067443058 0.0995555 0.045660041
0.066632636 0.099577405 0.045637261
0.073861256 0.09868864 0.046213858
0.070643835 0.098683573 0.046094224
0.084948599 0.090855479 0.044815827
0.085659117 0.090016618 0.045253247
0.08954481 0.08230941 0.043992229
0.014014639 0.074802376 0.04254299
0.033709064 0.029427303 0.036582232
0.032940254 0.029448118 0.036589328
0.031140596 0.029424937 0.036489468
0.071480796 0.023765633 0.036035426
0.066445507 0.023857631 0.035982367
0.053789094 0.023981765 0.035774477
0.038291737 0.024157144 0.035568055
0.076744512 0.097850703 0.046729699
0.076076537 0.097836062 0.046696924
0.067769431 0.097939178 0.046607465
0.078942932 0.09698467 0.047198977
0.075014412 0.097042054 0.047163896
0.086343035 0.089221932 0.045747973
0.083153449 0.088499412 0.046273932
0.035950646 0.02866834 0.037232999
0.073327675 0.02300957 0.036671706
0.038664758 0.023419317 0.036188003
0.075239956 0.022279086 0.03733325
0.074072011 0.022312749 0.03732758
0.069079317 0.022338323 0.037237771
0.062986031 0.022404339 0.037155386
0.058502227 0.017324258 0.036258932
0.077816486 0.09620674 0.047682088
0.083328456 0.095314316 0.048193436
0.080015667 0.095340818 0.048125163
0.076723166 0.095416255 0.04815238
0.087813482 0.087619722 0.046773382
0.086755492 0.08762414 0.046736885
0.083835527 0.087666422 0.046725251
0.089584284 0.086804301 0.047277719
0.088508025 0.086807922 0.047285505
0.016058281 0.039300382 0.039524149
0.033405349 0.027969914 0.037813812
0.069865376 0.021609539 0.037875764
0.055754572 0.021751441 0.037646554
0.054726161 0.02175408 0.037624516
0.068230376 0.10317431 0.04974778
0.054454364 0.10333899 0.049575247
0.051604584 0.10335935 0.049533416
0.081069231 0.093734391 0.049095642
0.078910053 0.094561152 0.048597861
0.091018513 0.078368954 0.046616066
0.029088408 0.038430434 0.040298782
0.027272195 0.038447373 0.040285185
0.024796791 0.038412623 0.040168531
0.03182774 0.032408066 0.039535604
0.078789055 0.025946939 0.039654113
0.036787219 0.026466984 0.039121997
0.066072792 0.10240614 0.050202899
0.063862607 0.10162125 0.050642304
0.060237043 0.10162698 0.050529137
0.081796519 0.093724132 0.049119607
0.083281234 0.092889123 0.049602095
0.079970159 0.092930503 0.049552377
0.08607813 0.085226178 0.048188332
0.089640684 0.084375679 0.048714001
0.024847098 0.036909547 0.041326664
0.033715561 0.030925697 0.040808264
0.033089347 0.030905504 0.040771738
0.072299592 0.024553437 0.040772829
0.059576787 0.025452211 0.040006578
0.042770609 0.024898099 0.040367045
0.041966781 0.024915094 0.040359773
0.037150502 0.025720628 0.039727397
0.035045631 0.02574108 0.039665323
0.033259824 0.02576446 0.039659742
0.028896458 0.025782961 0.039523121
0.064968981 0.019533632 0.039748002
0.063920796 0.019488467 0.039657149
0.053120345 0.019615097 0.039505832
0.075043492 0.10065611 0.051226072
0.066413477 0.10074621 0.051087625
0.061715767 0.10076314 0.05095851
0.048646137 0.10093556 0.050829142
0.047588393 0.10093962 0.050803188
0.046459027 0.10096711 0.050788701
0.068935826 0.099898018 0.051590763
0.067043379 0.099926464 0.051541045
0.065343998 0.099964269 0.051546738
0.064278208 0.099976525 0.051546365
0.084675878 0.092093669 0.050109718
0.082155779 0.092100985 0.050059356
0.083573826 0.091279753 0.050539184
0.081132218 0.091292277 0.050506931
0.091738068 0.082735673 0.049695298
0.088169649 0.082805164 0.049667343
0.092055313 0.07597395 0.048134957
0.030116297 0.030219901 0.041347809
0.029077113 0.030225052 0.041327715
0.027589895 0.030256199 0.041314788
0.073564142 0.099046834 0.05211122
0.071056925 0.099036001 0.052019574
0.065987304 0.099133104 0.051983695
0.07573878 0.098196819 0.052585095
0.072540738 0.098221436 0.05253879
0.089625768 0.081939913 0.050117988
0.025084071 0.041363683 0.043433122
0.024266273 0.041370057 0.043414213
0.015601404 0.041468784 0.043293975
0.026820071 0.03469469 0.0432017
0.040377095 0.028602114 0.042672291
0.037811264 0.028661283 0.042668451
0.073505551 0.023060765 0.042003058
0.043185785 0.023437826 0.041611146
0.059716091 0.017403318 0.041536938
0.05861789 0.017422449 0.04154171
0.074580714 0.097406805 0.053029723
0.086428888 0.088794775 0.051953174
0.090992399 0.080340594 0.051143099
0.090275057 0.081146225 0.050619539
0.022147968 0.033951469 0.043652341
0.042593896 0.02782616 0.043286838
0.033542559 0.027959459 0.043205716
0.072832339 0.022335261 0.042610236
0.042177722 0.022709932 0.042202316
0.04027915 0.022726709 0.042166233
0.075091615 0.021596655 0.043279916
0.072159588 0.021616369 0.043228772
0.066011161 0.021692453 0.04312754
0.055882171 0.021788206 0.042949677
0.066990785 0.016569015 0.042223614
0.061634846 0.016604809 0.042131677
0.057308257 0.016711203 0.042140562
0.053986989 0.016700676 0.042032968
0.077399805 0.096579574 0.053539522
0.073540673 0.096599728 0.053461667
0.076405346 0.095757715 0.053962931
0.075736277 0.09574917 0.053948041
0.086751424 0.087196261 0.052914862
0.084280811 0.088049434 0.052495845
0.093241289 0.078750297 0.052207559
0.091355465 0.078772701 0.052192245
0.093220823 0.071128324 0.051065076
0.027686059 0.039062545 0.045220155
0.026925385 0.032437608 0.044947013
0.076204993 0.026684029 0.044344299
0.046635784 0.027049549 0.043947287
0.035052791 0.02719143 0.043814667
0.053799622 0.021100383 0.043580756
0.037228152 0.02129098 0.043358102
0.035698839 0.021326013 0.043369893
0.03250628 0.021367917 0.043321852
0.057022728 0.015264628 0.043386348
0.062872805 0.10265209 0.05602555
0.059858441 0.10272123 0.05600749
0.058817036 0.10273302 0.055998642
0.078961909 0.094069526 0.054879684
0.078161739 0.094096489 0.054892212
0.088573851 0.086365923 0.05342897
0.084555179 0.086406611 0.053360578
0.089214735 0.085577227 0.053944901
0.074177615 0.025242021 0.045546133
0.056681082 0.020317707 0.044221859
0.067239627 0.019490974 0.045015078
0.062925428 0.019518252 0.044930786
0.054260641 0.019597555 0.044768509
0.064612165 0.10267574 0.056135315
0.06176123 0.10186218 0.056456547
0.060642198 0.1018945 0.056480128
0.080328345 0.093234181 0.055333529
0.081765763 0.092419393 0.05582872
0.079275236 0.092438817 0.055788193
0.094241098 0.076333024 0.053663343
0.092459604 0.076356649 0.053645108
0.019287437 0.042779323 0.047786236
0.034880571 0.030834217 0.046229675
0.030911274 0.030873064 0.046178758
0.02526442 0.030198788 0.046681516
0.024123497 0.030223368 0.046692263
0.075659953 0.023750702 0.046763793
0.0749593 0.018656997 0.045727678
0.067647867 0.018750468 0.045631576
0.057156585 0.018886225 0.045525599
0.054344334 0.018856203 0.045382269
0.051731423 0.018937679 0.045407474
0.041714586 0.019037597 0.045261927
0.064955369 0.10105749 0.057030637
0.056220606 0.10113768 0.056866605
0.054064378 0.10116445 0.056836389
0.051112063 0.10118935 0.056789678
0.050067894 0.10118395 0.056758892
0.049003892 0.10119148 0.05674123
0.047879547 0.10120412 0.056711182
0.046785541 0.10124151 0.056726314
0.071408123 0.10013498 0.057516541
0.069231525 0.10016109 0.057496175
0.065734178 0.10020651 0.05744851
0.062726282 0.10021263 0.057349958
0.056989022 0.1002908 0.05731643
0.054728471 0.10034711 0.057292692
0.053020842 0.10033876 0.057260439
0.04533501 0.10043388 0.057142824
0.085306808 0.090793632 0.056838199
0.083923295 0.091578461 0.056305099
0.082845896 0.090782791 0.056761585
0.080623455 0.091615304 0.056254677
0.090382561 0.083102681 0.055304434
0.088489503 0.08315026 0.055321239
0.095049478 0.075473815 0.05411806
0.096410073 0.067939714 0.053134691
0.095300771 0.067190245 0.053641025
0.07169351 0.023045752 0.047298148
0.042510591 0.023384748 0.046902865
0.064541981 0.017331298 0.046825893
0.060879588 0.017359037 0.046773825
0.05265484 0.017439738 0.046619389
0.073179804 0.099266276 0.057910763
0.06813135 0.099349119 0.0578891
0.051439621 0.099563479 0.057698231
0.049646661 0.099560603 0.057629868
0.072083451 0.098466709 0.058335971
0.069568023 0.098506927 0.058361154
0.065979652 0.098573379 0.058324501
0.048204243 0.098739527 0.058044679
0.04355561 0.098808333 0.058015294
0.042416185 0.098841302 0.058005244
0.084199883 0.089962721 0.057232756
0.090704359 0.081454642 0.056213625
0.088859469 0.081518114 0.05623538
0.09637668 0.065560177 0.054635402
0.026100479 0.034533914 0.04864414
0.060251147 0.022462664 0.047784571
0.041161299 0.021912979 0.048072267
0.061002269 0.016615383 0.047373824
0.05975049 0.01739713 0.046788678
0.059091158 0.017402655 0.046774235
0.056668669 0.016683534 0.04735605
0.074206337 0.09765926 0.058886107
0.070975699 0.097665377 0.058790196
0.066640384 0.097735755 0.058756866
0.040956452 0.09802705 0.058380406
0.076393619 0.096794978 0.059342511
0.07312759 0.096836187 0.059301853
0.069823332 0.096880056 0.059251368
0.08453624 0.088350452 0.058190282
0.090979993 0.079849936 0.057164542
0.089273013 0.079866908 0.057154678
0.095710337 0.072264552 0.056047119
0.093894809 0.07229019 0.056040421
0.019537911 0.044814467 0.05167095
0.018410355 0.044818394 0.051624782
0.017338611 0.044819813 0.051607039
0.024410404 0.038872842 0.050605107
0.033377878 0.032914996 0.04983256
0.028693616 0.032981005 0.049776904
0.042327337 0.026956921 0.049210455
0.035273284 0.022014912 0.048038103
0.075922638 0.020759568 0.049146548
0.059969962 0.020984152 0.048983801
0.036848187 0.021226099 0.048636999
0.079189941 0.095954537 0.059848275
0.075300202 0.095996156 0.059778314
0.074133396 0.095198616 0.060193606
0.08708293 0.08745072 0.058599696
0.083488241 0.087532148 0.058595225
0.087802976 0.086643338 0.059078015
0.084888153 0.086681738 0.059079111
0.093511507 0.07906875 0.05777131
0.091652147 0.079070941 0.057697076
0.089890346 0.0790556 0.057610951
0.092469633 0.078254476 0.058224849
0.096454449 0.063155018 0.056140613
0.024406947 0.032257933 0.050295472
0.023664296 0.0322496 0.050236017
0.021487378 0.032300211 0.050238647
0.037301652 0.026301343 0.049775671
0.034726068 0.026328083 0.049737129
0.074435845 0.020048313 0.049743839
0.064424917 0.020128731 0.049574833
0.037986204 0.020463808 0.049228724
0.080370605 0.094266519 0.060687438
0.077376232 0.094344065 0.060698908
0.076337986 0.094334364 0.060645957
0.037720822 0.094778307 0.060104702
0.075263776 0.093528405 0.061081994
0.089578316 0.085812002 0.059594318
0.088497229 0.085835889 0.059550885
0.085585698 0.085831761 0.059486125
0.095663369 0.069914088 0.057580113
0.093879268 0.06986402 0.057467613
0.018422954 0.043277316 0.052729558
0.042443335 0.024711212 0.05098762
0.061878935 0.019459935 0.050189193
0.056448147 0.01947587 0.050040312
0.056057699 0.019485515 0.050034456
0.053220429 0.019550072 0.050037205
0.052469052 0.019561918 0.050047342
0.057178065 0.01876187 0.050700128
0.064123556 0.013666126 0.049907129
0.065636918 0.10201496 0.062515467
0.063868053 0.1019925 0.062378809
0.061620779 0.10122747 0.06282071
0.060841136 0.1020613 0.062384117
0.059776731 0.10207921 0.062370889
0.056487754 0.10130076 0.062768228
0.055411674 0.10131379 0.062760077
0.081332341 0.0926238 0.061567351
0.078431591 0.092668235 0.06156002
0.088083833 0.084207617 0.060465511
0.094487347 0.076637752 0.059197702
0.092788249 0.076650582 0.059162252
0.090924673 0.076654136 0.059111144
0.018831097 0.041744061 0.053848218
0.02500806 0.0357829 0.052829426
0.021637015 0.035076693 0.053367592
0.020554923 0.035099216 0.053371146
0.017694011 0.035142057 0.053326156
0.068877548 0.022943914 0.052573696
0.06568943 0.022926696 0.052471738
0.044343442 0.023198187 0.052191671
0.04401084 0.023943407 0.051594861
0.031299807 0.023361964 0.052039601
0.030210242 0.02334059 0.051954124
0.05294732 0.01806163 0.051227316
0.065935709 0.10037811 0.063355245
0.060454637 0.10040513 0.063213371
0.059356831 0.10042294 0.063208401
0.058292069 0.10043655 0.063209265
0.057187587 0.10046196 0.063196748
0.052173063 0.10051282 0.063135989
0.048944257 0.10052505 0.063060954
0.047794737 0.10056464 0.063043803
0.046738796 0.10057714 0.06304235
0.066630192 0.099547841 0.063774347
0.063758619 0.099543355 0.063712128
0.062016994 0.099537499 0.063640401
0.054018758 0.099662326 0.063578553
0.052869074 0.099685639 0.063571483
0.048901521 0.099701814 0.063477017
0.045323417 0.099758431 0.063460454
0.044221133 0.099785954 0.06345807
0.084923953 0.090953343 0.062502138
0.083554052 0.091777287 0.062049981
0.08238218 0.090979382 0.062481131
0.080241852 0.091804437 0.061981969
0.094880812 0.074987859 0.0601082
0.093084477 0.075035028 0.060110766
0.097100064 0.066643812 0.059474107
0.035747744 0.028348574 0.053312071
0.033643603 0.028348388 0.053268228
0.038996898 0.022501791 0.052700114
0.037440486 0.022540061 0.052726988
0.037115686 0.022542855 0.05272064
0.058789678 0.017281011 0.05195817
0.058851048 0.016532235 0.052557029
0.053457588 0.016549341 0.05241327
0.069875099 0.098657563 0.064232834
0.046301827 0.098928645 0.063879974
0.041637987 0.098992988 0.063810199
0.081271946 0.090174325 0.062890649
0.083472148 0.089317098 0.063366301
0.089087278 0.081760332 0.061837345
0.093439281 0.073399894 0.061034806
0.094199009 0.072560444 0.061490834
0.022582628 0.039364308 0.055516019
0.066447392 0.021400241 0.053628314
0.038262449 0.021761093 0.053280313
0.055215247 0.015783774 0.053044721
0.054148071 0.01579331 0.053000048
0.068676218 0.097859211 0.064627841
0.066947743 0.097866066 0.064597145
0.065189786 0.097905628 0.064606868
0.064019561 0.097930312 0.064600535
0.075189888 0.09695439 0.065153241
0.073875293 0.097758673 0.06467589
0.072669387 0.096949674 0.065038703
0.070166342 0.09700685 0.065087356
0.046994619 0.09808737 0.064298198
0.044874273 0.098114967 0.064291418
0.041987613 0.09732651 0.064662084
0.085553735 0.087689079 0.064330615
0.083742306 0.087684333 0.064241722
0.089485914 0.080105074 0.062733077
0.091938682 0.079250433 0.063204221
0.094557978 0.070916623 0.062407088
0.096724436 0.063445322 0.061407693
0.025379859 0.026204392 0.054890577
0.023558922 0.026234202 0.054891866
0.053830087 0.02009283 0.054669637
0.040835924 0.020228671 0.054474257
0.074077681 0.096143693 0.065558352
0.071569018 0.096133947 0.065467
0.073043741 0.095306925 0.065954722
0.070456155 0.095341258 0.065905251
0.087993003 0.086800806 0.064718083
0.088754162 0.085982569 0.065181434
0.085834131 0.086023651 0.065169759
0.090452209 0.077637069 0.064067617
0.097769827 0.070113033 0.062975265
0.095926337 0.070116535 0.062901549
0.016059466 0.049534097 0.059019722
0.024177693 0.042836867 0.058304101
0.02042748 0.037077468 0.057117142
0.020052873 0.037076317 0.057108022
0.018635273 0.037095323 0.057086755
0.036637366 0.030328039 0.056954566
0.03199356 0.030369371 0.056889705
0.023681 0.030427856 0.056695603
0.080362901 0.024784148 0.056212697
0.042723022 0.025206923 0.055662055
0.036985695 0.025299104 0.055623069
0.027146541 0.025417622 0.055485778
0.038765661 0.024521116 0.056241937
0.035898261 0.024550386 0.056181021
0.033715039 0.024582779 0.056157917
0.062920302 0.019244513 0.055401985
0.059692785 0.019291889 0.055373598
0.058257431 0.018536344 0.055913825
0.078682266 0.093610503 0.06691099
0.077263176 0.093630716 0.066867806
0.075852081 0.094461523 0.066419147
0.07507132 0.094481289 0.066414773
0.090106957 0.084331736 0.066117346
0.087246664 0.084357768 0.066029839
0.086563855 0.085164122 0.065563351
0.093017921 0.076840341 0.064655252
0.091158226 0.076818399 0.064560488
0.096218005 0.068537205 0.063918017
0.094850458 0.069303319 0.063332453
0.024828047 0.035458606 0.058231793
0.022624202 0.035481162 0.058210243
0.026283219 0.029690117 0.057378609
0.043884553 0.023689864 0.056839217
0.030866854 0.023821514 0.05661818
0.064495839 0.017674737 0.056537274
0.0611782 0.017769001 0.056569822
0.043541528 0.017951112 0.056272045
0.05895742 0.10132053 0.06867715
0.080851041 0.092739165 0.067310184
0.077492021 0.092821047 0.067311071
0.076205216 0.092800967 0.06727083
0.079795964 0.091920108 0.067722537
0.034538932 0.092471354 0.067115672
0.088025063 0.083530083 0.066494599
0.093382522 0.075202532 0.065563619
0.097679734 0.067687035 0.06436035
0.095189989 0.067726955 0.064339057
0.097080328 0.060219664 0.063346565
0.096364006 0.060247969 0.063366339
0.016636595 0.040555902 0.059766229
0.015571497 0.040563919 0.059742931
0.044693224 0.022920646 0.057421662
0.037760817 0.023023555 0.05738654
0.062307648 0.016986247 0.057143737
0.058083504 0.016293498 0.057698149
0.057968594 0.017051425 0.05711339
0.056876421 0.017022928 0.057028387
0.055794455 0.017030314 0.056986697
0.054764092 0.017034108 0.056966156
0.057421915 0.10052374 0.069066986
0.056362256 0.10053091 0.069040783
0.052347511 0.10056118 0.068971552
0.05129607 0.100562 0.068957247
0.063972697 0.099564195 0.069488786
0.062114917 0.099617325 0.069508463
0.060273923 0.099636286 0.069475941
0.059232786 0.099648014 0.069467135
0.053042971 0.099745139 0.069425933
0.044404849 0.099828184 0.069270208
0.084045194 0.090227105 0.068632364
0.08187665 0.091074541 0.068171777
0.080763012 0.090252891 0.068563208
0.077451758 0.090322882 0.068588331
0.088675588 0.082699731 0.066946596
0.089304782 0.081898652 0.067431435
0.086483054 0.081905574 0.067344278
0.094000623 0.074389778 0.066037469
0.095906854 0.066091739 0.06529133
0.022069827 0.038961168 0.060925134
0.037157699 0.027246395 0.05919189
0.03637889 0.027260415 0.059173502
0.034950256 0.027277403 0.059158642
0.032108836 0.026503362 0.059620619
0.030980721 0.027315956 0.059107661
0.029170208 0.027333844 0.059078414
0.026704274 0.026596349 0.059582938
0.041452393 0.021429989 0.058509011
0.066774912 0.015444972 0.058390696
0.059522614 0.015535724 0.058290862
0.069284149 0.098710246 0.070024446
0.067582354 0.098747239 0.070030272
0.064632758 0.098763041 0.070005313
0.062893845 0.098740883 0.069896147
0.061045304 0.098798074 0.069916904
0.05485218 0.098884039 0.069839954
0.053830817 0.098880038 0.06983608
0.070782825 0.097854212 0.070476018
0.065347336 0.097949885 0.070436046
0.063502632 0.097921811 0.070322089
0.061770089 0.097940274 0.070295848
0.057766408 0.097999491 0.070288531
0.056613758 0.098031066 0.070272297
0.051505581 0.098082617 0.07019522
0.050461121 0.098077215 0.070164561
0.049397387 0.098084621 0.070146792
0.048273265 0.098097742 0.070116945
0.047179438 0.098134644 0.070131898
0.044731982 0.098161548 0.070123255
0.083004013 0.089401089 0.069033563
0.084335104 0.088574328 0.069472648
0.081799865 0.088605419 0.069445066
0.091504566 0.080172874 0.068240568
0.090063602 0.081055589 0.06783592
0.094348267 0.072748832 0.066927828
0.097266071 0.064445369 0.066207781
0.011497378 0.051446751 0.062966958
0.095098935 0.04966189 0.064613372
0.025352202 0.037332945 0.061992612
0.023398183 0.037756313 0.061722506
0.022431657 0.038167451 0.061452653
0.020265333 0.038199164 0.061432142
0.026375763 0.032350015 0.060477883
0.022446051 0.031616569 0.060932115
0.029241867 0.026568143 0.05963935
0.037587076 0.025707465 0.060305193
0.033619232 0.025744569 0.060246993
0.043373518 0.020652376 0.059116248
0.040403068 0.020677667 0.059058145
0.069991454 0.019620791 0.060078461
0.055618025 0.019753072 0.059851464
0.039339654 0.019947087 0.059631389
0.05811023 0.014808339 0.058870882
0.053867765 0.014035048 0.059296899
0.071419694 0.097028494 0.07090269
0.069614224 0.097042985 0.07087025
0.067815915 0.097073786 0.070822462
0.04571832 0.097316481 0.070517153
0.042166367 0.097361282 0.070458129
0.07610777 0.096143596 0.071355835
0.07394594 0.096965142 0.070851728
0.068503097 0.096220836 0.071232058
0.066733539 0.096260473 0.071234033
0.063837625 0.096282616 0.07123296
0.0431697 0.096528284 0.070914567
0.086093023 0.087342568 0.070196226
0.084589675 0.0869359 0.070337959
0.082857177 0.086945958 0.070315666
0.080647156 0.08779031 0.069840096
0.090438083 0.079389893 0.068698928
0.088544868 0.079436764 0.068715595
0.091120183 0.078534313 0.069112979
0.094766289 0.071068078 0.06780114
0.096170537 0.063651636 0.066672914
0.0962971 0.056220215 0.065762371
0.019672997 0.043172538 0.063151568
0.020640448 0.037416797 0.061964519
0.018151768 0.037436973 0.061932996
0.038587958 0.024182994 0.061450779
0.062781937 0.018947007 0.060581267
0.038346902 0.019194756 0.060193259
0.074950337 0.095335335 0.071764126
0.072443902 0.095328428 0.071647882
0.041698769 0.095704213 0.071258821
0.040497206 0.095707156 0.071242921
0.039179377 0.095751509 0.071270786
0.038106456 0.09576153 0.071258195
0.073861785 0.094501354 0.07214845
0.084905043 0.085300103 0.071233086
0.027834363 0.085910879 0.070362963
0.093165137 0.07693056 0.070129901
0.095758006 0.068619974 0.069159135
0.096894726 0.061210956 0.068089008
0.0961015 0.061233431 0.068082631
0.01423803 0.054812055 0.066114485
0.019877471 0.030103493 0.061980762
0.033674009 0.029152378 0.062692948
0.025727451 0.029288219 0.062649854
0.024271347 0.029255228 0.062555932
0.023252413 0.029256148 0.062534198
0.054231532 0.018262789 0.060979407
0.080285676 0.092763424 0.073047802
0.076732539 0.093633883 0.07259123
0.075627543 0.092824176 0.072995655
0.072837614 0.093653858 0.072511114
0.038738914 0.094092689 0.072071627
0.037647493 0.094100721 0.072057262
0.036142521 0.093287475 0.072428457
0.087439582 0.084390327 0.071611628
0.086327188 0.084412128 0.071608752
0.092034832 0.07611388 0.07050357
0.093510382 0.075295426 0.071011126
0.014346048 0.068803735 0.068565503
0.019343518 0.040047169 0.065241002
0.016149476 0.040831715 0.064642042
0.021782808 0.03426284 0.064089172
0.031199902 0.028423196 0.063246608
0.025777221 0.028513119 0.063199401
0.022192322 0.028507294 0.063067466
0.039870471 0.027552506 0.06389568
0.044187948 0.021786749 0.063166089
0.037620336 0.022652276 0.062546134
0.029714458 0.022716301 0.062404498
0.065870956 0.016581336 0.062259834
0.064462937 0.016592419 0.062247366
0.056803174 0.016678892 0.062117435
0.078446276 0.09197174 0.073471576
0.081020452 0.091073304 0.073846184
0.088832848 0.082752801 0.072500691
0.094216958 0.07446114 0.071445219
0.013277695 0.068001464 0.069008246
0.095676772 0.066231355 0.070600048
0.011072583 0.05241441 0.067515172
0.023346499 0.039202955 0.06579347
0.029884562 0.033401743 0.064739816
0.026241772 0.033395462 0.06461855
0.063717417 0.015856741 0.062820487
0.061525472 0.015915459 0.062838554
0.059760973 0.015944492 0.062816255
0.057520173 0.0159477 0.062748887
0.052109905 0.016021619 0.062707134
0.051428899 0.016013091 0.062690914
0.052166596 0.015253948 0.063259259
0.061503485 0.099572532 0.075326122
0.060439885 0.099590488 0.07531289
0.057177193 0.099645965 0.075292915
0.05427248 0.099677399 0.075264968
0.081616141 0.089409545 0.074659534
0.076919191 0.090328462 0.074235246
0.076250583 0.090314552 0.074202858
0.032093666 0.089971937 0.073953941
0.089524955 0.081907235 0.072961621
0.094452076 0.072829135 0.072345093
0.092752233 0.072842032 0.072309732
0.096676193 0.064590581 0.071490809
0.097233906 0.057962313 0.069956772
0.095771566 0.057986073 0.069961227
0.020812541 0.037660688 0.066795275
0.036966562 0.026043719 0.064953007
0.042822577 0.0195012 0.064814694
0.052946739 0.014477199 0.063815862
0.067783132 0.098672725 0.075835116
0.062271595 0.098728172 0.075731285
0.058228083 0.098784164 0.07568942
0.056063212 0.098814547 0.075670481
0.055071309 0.098805256 0.075646885
0.051020324 0.098837972 0.075564325
0.059998214 0.09791369 0.076087303
0.056739666 0.097970307 0.076065026
0.053898692 0.097997181 0.076032527
0.052813768 0.098003104 0.076014712
0.051679619 0.09801241 0.075969264
0.049584806 0.098015569 0.075939663
0.048435785 0.098055512 0.075922824
0.045972154 0.098074734 0.075921178
0.063331805 0.097010098 0.076479889
0.062646791 0.097018071 0.07648769
0.080514856 0.088579468 0.075042956
0.030920044 0.089159399 0.074344717
0.03059645 0.089158721 0.074338809
0.085184991 0.087717369 0.075531624
0.083037801 0.08773426 0.075511657
0.079386763 0.087776169 0.075453088
0.090918534 0.080241635 0.073786981
0.095205635 0.071972065 0.072760776
0.096686445 0.071099676 0.073168106
0.095671922 0.063769728 0.071944498
0.019488722 0.042577114 0.068556339
0.026315473 0.036004465 0.067872204
0.02416008 0.030297603 0.066721715
0.023345985 0.024649486 0.065884285
0.069598101 0.018440524 0.065774217
0.056261852 0.018569471 0.065535784
0.071586177 0.096942045 0.07665322
0.069040418 0.096987158 0.07661552
0.066176325 0.097036585 0.076620229
0.064387925 0.097023338 0.076559097
0.06069573 0.097064547 0.076478608
0.051639818 0.097177282 0.076364532
0.049532183 0.09718214 0.076324336
0.047151066 0.097233362 0.076308429
0.045953475 0.097238526 0.076307714
0.044850074 0.097265944 0.076305337
0.072975956 0.09608575 0.077035382
0.070495084 0.096126869 0.077048339
0.066860877 0.096195944 0.077007644
0.041254446 0.09646035 0.076615915
0.028328843 0.086698897 0.075538747
0.093005754 0.078539468 0.074623168
0.089366026 0.078621 0.074631758
0.090910636 0.077734515 0.075031146
0.095565036 0.070305414 0.073610544
0.096689977 0.062103219 0.072821237
0.096779928 0.054766957 0.071856409
0.097101673 0.053961974 0.072329119
0.017504066 0.048338175 0.070044309
0.024177179 0.041762054 0.069150582
0.020176634 0.041789409 0.069081828
0.01878266 0.041791148 0.069048926
0.017917968 0.036121454 0.067794755
0.035989426 0.029383384 0.067398548
0.028824642 0.02872714 0.067892425
0.045029461 0.023611987 0.066664569
0.040663615 0.023670321 0.066639684
0.064956322 0.017689077 0.066223823
0.064581133 0.017712193 0.066234499
0.038621552 0.017241264 0.066426709
0.062820584 0.012055516 0.065648407
0.071808137 0.095283985 0.077449188
0.069285952 0.09531869 0.077411741
0.067555681 0.095325679 0.077381305
0.042983219 0.095607825 0.077028438
0.04185681 0.095631875 0.077012196
0.073267594 0.094400115 0.077791348
0.070764311 0.094455563 0.077839553
0.039305232 0.094831258 0.077402703
0.072155751 0.093573675 0.078188062
0.086865075 0.085199155 0.076813243
0.08508487 0.085240476 0.076778084
0.083317146 0.085232951 0.076735139
0.083959974 0.084405199 0.077145793
0.09407296 0.076085299 0.076008141
0.091511041 0.076906539 0.0754411
0.095496759 0.067826174 0.074899897
0.097560689 0.053124387 0.072787344
0.015861504 0.05409985 0.071702585
0.013704628 0.054115303 0.071664616
0.094884485 0.046634126 0.071584009
0.039295807 0.027809588 0.068562537
0.036391735 0.022172268 0.067661755
0.077336445 0.10174433 0.080164716
0.076085791 0.093570806 0.078296773
0.075388588 0.093572065 0.078291848
0.037768513 0.0940172 0.077758148
0.077584051 0.092699707 0.078704365
0.075373441 0.092734508 0.078669503
0.073944114 0.092743099 0.078654572
0.039998159 0.093123756 0.078149661
0.038839228 0.093168691 0.078182295
0.036130495 0.093189128 0.078138098
0.088200986 0.083510995 0.077590838
0.087149784 0.083507821 0.077575564
0.088951021 0.082682043 0.078022853
0.091796011 0.075256139 0.076323077
0.091064245 0.075263113 0.076288797
0.096056506 0.074434415 0.076888263
0.092674434 0.074454278 0.076820679
0.097311087 0.06621851 0.075882919
0.095798828 0.066214852 0.075802669
0.098099262 0.059642829 0.074215382
0.096267551 0.058855467 0.074632637
0.023738638 0.032876123 0.06989406
0.022338212 0.032896891 0.069872104
0.028834164 0.026368972 0.069466606
0.034571379 0.021428395 0.068181723
0.042204723 0.020534104 0.068787955
0.060686052 0.015482524 0.067886695
0.057366304 0.015474602 0.067778759
0.080712385 0.09098015 0.079512328
0.079958387 0.091004908 0.079530977
0.079562537 0.091015145 0.079543076
0.034313142 0.091507591 0.078858018
0.032940745 0.090684757 0.079201795
0.089616582 0.081850082 0.078460924
0.086031288 0.082722172 0.078010984
0.02531597 0.082587883 0.077568755
0.094619781 0.072797164 0.077708334
0.097886756 0.065406568 0.076304927
0.095794588 0.065420665 0.076280579
0.09471143 0.065390334 0.076202951
0.096068181 0.064610936 0.076757185
0.098992571 0.049870498 0.074697994
0.019637361 0.044286475 0.072460473
0.017768979 0.044329122 0.072453946
0.016697071 0.044339839 0.072438717
0.036049508 0.025516475 0.070119262
0.063890547 0.019549256 0.069691777
0.048336513 0.019738652 0.069485232
0.080202959 0.018566679 0.070414141
0.058491856 0.018783864 0.070061073
0.053082094 0.018887818 0.070044719
0.042254746 0.018989846 0.069889195
0.03856051 0.019828713 0.069344953
0.037139997 0.019856397 0.069312908
0.03612642 0.019855466 0.069287591
0.032842606 0.019123919 0.069793649
0.066136122 0.013883717 0.0690611
0.05271101 0.014029738 0.068861514
0.045537777 0.014134518 0.068813987
0.056672439 0.099473499 0.081072897
0.060154557 0.098590404 0.081491627
0.059474058 0.09860529 0.081489578
0.058332242 0.098635189 0.081477411
0.054348417 0.098682553 0.081434146
0.052206233 0.098673217 0.081367634
0.078839302 0.090186186 0.079923101
0.078038059 0.09021847 0.079905346
0.077420108 0.090207055 0.079879895
0.08745534 0.089251004 0.080394045
0.080329403 0.089307606 0.080285378
0.090282634 0.081008814 0.078895874
0.087421142 0.081035577 0.078808501
0.089223363 0.080182247 0.079260476
0.088188946 0.080197059 0.079241827
0.095328793 0.071949266 0.078122124
0.093571432 0.071971893 0.078109041
0.096454769 0.071066305 0.078520112
0.09528175 0.071127146 0.078544453
0.097519137 0.063750044 0.077169053
0.10060409 0.05555376 0.076535866
0.097441293 0.055572607 0.076461866
0.011126116 0.050093099 0.073972329
0.095670342 0.048298858 0.075584322
0.012112275 0.049289446 0.074446686
0.097013056 0.041786745 0.074492499
0.01417847 0.043579657 0.072908334
0.098074123 0.041770194 0.074502125
0.021253996 0.029759275 0.071921334
0.088127784 0.024090717 0.071324997
0.037561268 0.024708377 0.070668042
0.036120974 0.02394193 0.071161024
0.065420181 0.013099477 0.069571309
0.061805673 0.012386048 0.07011573
0.050962642 0.012508705 0.069975123
0.063014358 0.097718954 0.081887178
0.062338591 0.097725801 0.081893288
0.061174355 0.097738206 0.081854649
0.060133636 0.097749747 0.081845812
0.056868039 0.097806096 0.081821591
0.056146964 0.09781193 0.08181648
0.055125311 0.097807512 0.081812456
0.052149415 0.097831674 0.081739038
0.049961939 0.097852558 0.081691414
0.049242266 0.09787941 0.08170189
0.047801584 0.097897492 0.081689425
0.045645192 0.097935468 0.081684887
0.044567958 0.097938806 0.081627376
0.069493301 0.096818544 0.082365185
0.067793235 0.096832454 0.082365476
0.066629939 0.096867427 0.082380705
0.066235363 0.096874796 0.082370341
0.06552206 0.09685389 0.082351826
0.064126223 0.096831582 0.082240373
0.050681598 0.097002625 0.082091369
0.047092222 0.097060263 0.08206097
0.035428047 0.097192734 0.081858493
0.082907833 0.087618053 0.081103019
0.082000315 0.087620765 0.081089243
0.081275627 0.087620378 0.081062928
0.085225254 0.086752422 0.081523016
0.083831161 0.086760364 0.081509963
0.02982755 0.087391444 0.080735877
0.091923565 0.079313442 0.07968574
0.090588406 0.078516804 0.080087207
0.089841209 0.079369739 0.079713777
0.023391768 0.080131605 0.078780882
0.017546907 0.079387359 0.079140872
0.099241413 0.070267715 0.079043612
0.097800657 0.069406331 0.079367004
0.097113594 0.070230797 0.078933448
0.0956828 0.07027141 0.078949429
0.096434936 0.062936693 0.077593312
0.10180132 0.062060703 0.078103624
0.10126318 0.054743573 0.076982886
0.011539392 0.055768661 0.075721331
0.097566687 0.053972766 0.077395581
0.015206546 0.054933749 0.07626757
0.012656853 0.054931819 0.076184288
0.011612192 0.054943707 0.076176398
0.099644244 0.047437761 0.076112352
0.015411936 0.048440788 0.074948363
0.094448686 0.041028354 0.074951254
0.092702404 0.040245526 0.075425044
0.095410153 0.034562998 0.074108951
0.092903383 0.033774663 0.074549392
0.091841988 0.033785194 0.074553132
0.089317441 0.034220856 0.07427372
0.024917923 0.034570031 0.073619097
0.02060812 0.034640584 0.07358446
0.018045336 0.035470415 0.073072217
0.091128536 0.028134041 0.0733959
0.090036042 0.02813684 0.073341601
0.0238965 0.028919149 0.072440177
0.084156573 0.022593373 0.072332174
0.082089387 0.022604672 0.072319783
0.079772249 0.022658428 0.072282232
0.041525312 0.023091115 0.071766503
0.040085793 0.023123784 0.071787208
0.043038338 0.022281101 0.072292447
0.031084545 0.02242304 0.072134376
0.029625937 0.022444969 0.072126321
0.074797519 0.016277954 0.07195349
0.071861014 0.016334198 0.07192982
0.07040792 0.017152157 0.071387172
0.06909889 0.016384639 0.071934059
0.067974009 0.016397532 0.071898103
0.065850131 0.016374214 0.071825311
0.063620999 0.016443025 0.071844071
0.061076172 0.017258523 0.071281843
0.059962153 0.017251141 0.071240492
0.058191486 0.01646121 0.071695171
0.050613396 0.016573841 0.071620308
0.045574747 0.016637325 0.071562178
0.041210905 0.017451681 0.070952758
0.069770038 0.095965937 0.082741484
0.068066314 0.096002541 0.082747273
0.067000754 0.096013837 0.082746714
0.045610815 0.096243106 0.082438141
0.044495039 0.096257627 0.082389407
0.076607585 0.095060065 0.083242983
0.073028855 0.095078006 0.083162084
0.07125815 0.09509936 0.083161041
0.070483401 0.0951147 0.083153121
0.043033637 0.09543404 0.08274138
0.041184552 0.095470317 0.082746401
0.038981318 0.095492162 0.082701273
0.037909918 0.095501557 0.082705431
0.087746814 0.085895658 0.082018897
0.086589873 0.085943736 0.08199238
0.028798327 0.086558975 0.081112742
0.08836256 0.085033357 0.082342543
0.092019573 0.077623837 0.080460675
0.0991579 0.076752044 0.081048511
0.097020082 0.076793797 0.081033185
0.095930293 0.076811939 0.081032403
0.018916368 0.077702016 0.079965994
0.096006945 0.068593912 0.079772994
0.01357504 0.069602698 0.07870882
0.10000265 0.06040886 0.078927957
0.098559014 0.06125775 0.078483827
0.097443335 0.061276913 0.07845974
0.099963248 0.045819022 0.077036671
0.097768724 0.045857925 0.077021629
0.09668462 0.045874987 0.077008352
0.095710784 0.045863692 0.077008873
0.013998397 0.046823822 0.075858109
0.026394881 0.033761512 0.07414192
0.025289558 0.03376684 0.074123882
0.021312125 0.033839878 0.07410457
0.019230783 0.033851523 0.074071921
0.031073473 0.028062811 0.07308232
0.026403159 0.028126979 0.073072962
0.025280781 0.028112549 0.072976604
0.088899657 0.026592135 0.074374422
0.087102532 0.0266231 0.074359782
0.085002959 0.026646759 0.074347787
0.083895251 0.026657185 0.074328296
0.03356456 0.027253009 0.073648959
0.027538233 0.027343988 0.073589206
0.025341749 0.027333204 0.073531523
0.084189199 0.021035913 0.073394537
0.045185119 0.021481415 0.072855987
0.044424139 0.021485809 0.072835192
0.038316682 0.021579824 0.072788194
0.033603542 0.021628644 0.072726034
0.031081513 0.021634974 0.072645083
0.029666767 0.021670271 0.072674818
0.069409959 0.01559557 0.072453916
0.064402729 0.015642118 0.07237608
0.049207479 0.015793277 0.072125316
0.044188768 0.015872978 0.072091796
0.063489795 0.1042078 0.084774218
0.078773752 0.094175175 0.083636113
0.078006186 0.093346491 0.083998501
0.077224836 0.093366325 0.083994031
0.074410811 0.094202079 0.083505236
0.039688297 0.094642192 0.083102383
0.0901732 0.084182918 0.082760841
0.089075491 0.084180109 0.082731389
0.086962342 0.085085891 0.08239466
0.027644277 0.084898569 0.08189334
0.02697131 0.084918439 0.081908636
0.025839314 0.084954835 0.081926428
0.024706885 0.084978543 0.081917912
0.090848468 0.08335305 0.083170876
0.094795749 0.075158931 0.081827164
0.093329772 0.075965293 0.081330396
0.017557673 0.068707235 0.079145998
0.014210239 0.06877169 0.079132058
0.10251696 0.059576683 0.079417989
0.10134514 0.059612893 0.079412587
0.098158762 0.058807731 0.079812489
0.016098037 0.059745423 0.078635454
0.013912037 0.059776414 0.0786108
0.01286418 0.059800379 0.078629553
0.011755437 0.059835553 0.078639753
0.1012175 0.052293327 0.078342713
0.099462152 0.051496543 0.07878574
0.098351672 0.051508252 0.078766488
0.097243577 0.051528096 0.078756548
0.012303017 0.052492395 0.077553846
0.01328367 0.046032656 0.076333486
0.014626525 0.045207772 0.076804705
0.097386368 0.038569584 0.076451361
0.096294872 0.038572192 0.076396115
0.095212243 0.038602825 0.07641232
0.094066516 0.038628597 0.076396063
0.092670895 0.037830867 0.076871999
0.019195169 0.038691979 0.07585565
0.017414182 0.038701832 0.075825855
0.092927918 0.032175459 0.07554812
0.022606514 0.033014305 0.074618302
0.02057755 0.03304781 0.074590102
0.09366861 0.031383317 0.076080546
0.091506414 0.031401161 0.076032981
0.089309268 0.031439677 0.076011993
0.086076111 0.031470969 0.075961389
0.026507407 0.032145362 0.075124227
0.021302022 0.032241557 0.075097032
0.035868771 0.026414821 0.074176319
0.08713109 0.025033679 0.075396761
0.032534681 0.02568941 0.07467752
0.030724332 0.025707416 0.074648082
0.028931208 0.025735062 0.07459899
0.077684589 0.020300586 0.073821202
0.076631911 0.020315252 0.073802948
0.062142618 0.020509152 0.073635384
0.053867638 0.020599738 0.073496349
0.052422844 0.020593848 0.073459946
0.043019772 0.020711428 0.073337875
0.032955602 0.020845156 0.07323762
0.031820871 0.020836771 0.073159218
0.025703758 0.020934474 0.07312683
0.050964281 0.01983691 0.073979467
0.04702086 0.019897511 0.073932096
0.045292452 0.019909011 0.073911652
0.070855029 0.014790702 0.072990663
0.067625292 0.014864447 0.073005281
0.06440971 0.014082632 0.073447123
0.06327863 0.014901463 0.072926536
0.061490618 0.014928148 0.072907947
0.060400143 0.01494737 0.072906338
0.058201082 0.014922075 0.072808474
0.055779651 0.014949274 0.072763771
0.054279581 0.014994101 0.072769716
0.051078275 0.015029131 0.072731458
0.041992679 0.015132852 0.072612122
0.068403892 0.1024504 0.085516416
0.066261142 0.10162789 0.085844748
0.078733377 0.092491344 0.084384449
0.038549542 0.092977501 0.083847597
0.035296232 0.092974171 0.083728656
0.083373852 0.091585852 0.084799655
0.037049048 0.092147581 0.084182173
0.036017239 0.09214025 0.084170587
0.087921917 0.082516067 0.083486453
0.020680338 0.083349854 0.082652397
0.096121535 0.073485844 0.082666978
0.020262405 0.074360535 0.081600964
0.019158565 0.074377291 0.081596941
0.018041074 0.074395694 0.081588395
0.017026 0.074400023 0.081572279
0.10084743 0.066093542 0.081130683
0.099412881 0.065279171 0.081531651
0.098109618 0.057148732 0.08065974
0.014614068 0.058941584 0.079051465
0.011779919 0.058174971 0.079496138
0.10117715 0.050666884 0.079246834
0.095244333 0.043467671 0.078396067
0.018119559 0.037892528 0.076321468
0.095853038 0.036183026 0.077874415
0.020515397 0.037084382 0.076872185
0.026837856 0.031343255 0.075612545
0.024985738 0.031394292 0.075628906
0.02382493 0.031403609 0.075613178
0.08456175 0.024293702 0.075873755
0.031465292 0.024904309 0.075156838
0.022846349 0.024976159 0.074992813
0.043783233 0.019153742 0.074417889
0.040164128 0.019190392 0.074376665
0.039418057 0.019211415 0.074392773
0.058640733 0.018159851 0.075101666
0.055405803 0.013394076 0.073824257
0.056682609 0.10093392 0.086139724
0.060286254 0.10003724 0.086529382
0.059177123 0.10006217 0.086521842
0.055178158 0.10008873 0.086452164
0.03892725 0.10025781 0.086177863
0.081102274 0.090786129 0.085171588
0.033383839 0.091315329 0.084452122
0.032298066 0.091334738 0.08444567
0.030853279 0.090517983 0.084835447
0.029739127 0.090555839 0.08484748
0.028634444 0.090572901 0.084843889
0.03264419 0.090485841 0.084826842
0.094346225 0.079917505 0.0847269
0.10196486 0.06440983 0.081992067
0.016677305 0.065401688 0.08080212
0.013337374 0.065483041 0.080815129
0.012287915 0.065488547 0.080801599
0.017279252 0.064575896 0.081221782
0.015190318 0.064618804 0.081241064
0.012430951 0.05733341 0.079906546
0.10026047 0.055500653 0.081573844
0.0091197044 0.056589257 0.080368921
0.018196411 0.042739451 0.078269586
0.017135061 0.042755052 0.078268833
0.092209533 0.035444021 0.078312822
0.032562897 0.029714407 0.076733954
0.02644638 0.029756797 0.076601736
0.084970869 0.023492517 0.07639087
0.082077384 0.023522209 0.076351821
0.077746935 0.022786006 0.076821268
0.050234444 0.023120562 0.076438174
0.03944011 0.023243424 0.076295443
0.033286534 0.02328947 0.07615415
0.030781791 0.024128092 0.075675577
0.068368852 0.018062901 0.075252049
0.061891444 0.018174063 0.075247832
0.060715936 0.018180221 0.075187564
0.045252375 0.0183561 0.074975125
0.057221681 0.017425695 0.075644657
0.05495742 0.017476557 0.075670317
0.0474362 0.017566172 0.075549386
0.048361778 0.099312484 0.086731881
0.039286606 0.098553322 0.086914293
0.027111441 0.089755699 0.085205242
0.026099205 0.089758448 0.085189022
0.020178199 0.080845617 0.083812557
0.023002848 0.079981729 0.084241256
0.021904528 0.079993054 0.084224984
0.013658002 0.063829482 0.08166673
0.014350511 0.048440933 0.079907902
0.018561348 0.041502446 0.078971989
0.088262782 0.033878628 0.079227179
0.02531933 0.034611601 0.078363463
0.027865484 0.029004861 0.077217042
0.029399663 0.028975369 0.077217124
0.027896225 0.028208826 0.077722177
0.082133077 0.021948386 0.077398568
0.081029691 0.021955185 0.077359095
0.076293699 0.022006897 0.077291027
0.057141669 0.022238296 0.077067301
0.042743988 0.022399655 0.076839998
0.04118976 0.022436887 0.076866649
0.040067464 0.022469837 0.0768454
0.038756788 0.022463389 0.076809004
0.035089217 0.022513423 0.076766051
0.029715583 0.022566648 0.076693475
0.074528687 0.016439736 0.076433219
0.069062948 0.015767748 0.076940425
0.06695655 0.015721638 0.076821625
0.06396836 0.016603425 0.076338194
