# .PCD v0.7 - Point Cloud Data file format
VERSION 0.7
FIELDS x y z
SIZE 4 4 4
TYPE F F F
COUNT 1 1 1
WIDTH 1340
HEIGHT 1
VIEWPOINT 0 0 0 1 0 0 0
POINTS 1340
DATA ascii
-0.24796447 -0.62511033 0.031279095
-0.24028011 -0.62520945 0.031361945
-0.23977588 -0.6252088 0.031362731
-0.2376536 -0.62518942 0.031341944
-0.23088326 -0.62518954 0.031349719
-0.24901213 -0.62450349 0.031995263
-0.24178305 -0.62447417 0.031975407
-0.23461406 -0.62450516 0.031983949
-0.22772571 -0.62449181 0.031996001
-0.21905804 -0.73904485 0.032257926
-0.21158779 -0.73900032 0.032174304
-0.2105128 -0.7390067 0.032176018
-0.21788351 -0.73828566 0.032754932
-0.21084543 -0.73822492 0.032662898
-0.21915604 -0.72695351 0.032418188
-0.2133982 -0.72695637 0.032402597
-0.21531597 -0.71576703 0.032509062
-0.21883984 -0.70456159 0.032919914
-0.23227292 -0.69573712 0.032094549
-0.23122758 -0.69575328 0.032121994
-0.21806745 -0.69580317 0.03218177
-0.23226172 -0.69498408 0.032652002
-0.21563263 -0.69498372 0.032618582
-0.22881402 -0.67681175 0.032509398
-0.22740225 -0.67680967 0.032507509
-0.2410237 -0.66889328 0.03200525
-0.23771733 -0.66814888 0.032561827
-0.23130722 -0.65959936 0.032933369
-0.30623311 -0.65245825 0.032291941
-0.29566625 -0.65249836 0.032343529
-0.2682814 -0.65247172 0.032309122
-0.25798377 -0.65242761 0.032256231
-0.22104536 -0.65247315 0.032321144
-0.22060727 -0.65248507 0.032319132
-0.30523691 -0.651775 0.03295216
-0.30484664 -0.65177864 0.032934606
-0.25398123 -0.65181291 0.032966353
-0.24972948 -0.65176135 0.032907616
-0.244424 -0.65172338 0.032871176
-0.23122777 -0.65175265 0.03291199
-0.23089992 -0.65172988 0.032881871
-0.2210523 -0.65176612 0.032931063
-0.3170073 -0.64471167 0.032551616
-0.30658808 -0.64469534 0.032518573
-0.29446056 -0.64465761 0.032470018
-0.29202133 -0.64473015 0.032557443
-0.27064547 -0.64465791 0.032502651
-0.25541413 -0.64474201 0.032574665
-0.22232383 -0.64473027 0.032550044
-0.3462292 -0.63772458 0.032405242
-0.34405905 -0.63772708 0.032420035
-0.34346926 -0.63775015 0.032421827
-0.34298995 -0.63773394 0.032412894
-0.32776788 -0.63769364 0.032363638
-0.27281523 -0.63770145 0.03235162
-0.22557326 -0.63774842 0.032422584
-0.22409596 -0.637734 0.032405417
-0.22369429 -0.63771635 0.03239575
-0.30274528 -0.63069946 0.032387428
-0.30026218 -0.63076186 0.032428309
-0.29947031 -0.63076252 0.032422859
-0.29809439 -0.63069826 0.032388106
-0.28954116 -0.63077283 0.032443359
-0.28884304 -0.63077092 0.032437563
-0.26390284 -0.63073123 0.032398414
-0.24904594 -0.63076681 0.032436538
-0.22430073 -0.63075399 0.032428596
-0.24125588 -0.62450409 0.032010995
-0.24071103 -0.62452447 0.032024194
-0.23414759 -0.62450737 0.032004263
-0.22524613 -0.62454718 0.032036003
-0.23542655 -0.62381732 0.032670956
-0.23487228 -0.62382424 0.032659415
-0.22673564 -0.62382865 0.032667782
-0.22563607 -0.62385982 0.032699496
-0.21140225 -0.76338375 0.033102632
-0.21251638 -0.76256675 0.033566248
-0.21167906 -0.76259691 0.033575736
-0.2171738 -0.73750484 0.03324518
-0.21650434 -0.73749179 0.033232506
-0.21589553 -0.73746961 0.033231564
-0.21475165 -0.73749655 0.033254724
-0.2137987 -0.73750699 0.033240139
-0.21187447 -0.73750156 0.033247482
-0.21514747 -0.73670179 0.033736795
-0.21473375 -0.73670661 0.033737823
-0.2125532 -0.7367295 0.033744439
-0.21150239 -0.73671746 0.033741415
-0.21085997 -0.73667276 0.033692982
-0.21754953 -0.72541088 0.033435546
-0.22292848 -0.72463423 0.03391932
-0.21309826 -0.72462124 0.033939421
-0.21272717 -0.7246173 0.033919938
-0.21428171 -0.71460211 0.033279426
-0.21389486 -0.71498197 0.033021167
-0.22547418 -0.70387125 0.033533458
-0.2180578 -0.70381212 0.033465967
-0.21619594 -0.7038604 0.033516392
-0.21558128 -0.70384502 0.033530373
-0.23219384 -0.69425005 0.033208743
-0.21656527 -0.69428825 0.033259388
-0.23216289 -0.69352269 0.033794895
-0.22805642 -0.67607486 0.033075787
-0.22770897 -0.67607975 0.033076562
-0.22665398 -0.67608458 0.033091392
-0.22534613 -0.67606342 0.033115871
-0.21851085 -0.67607528 0.033093896
-0.22463377 -0.6753363 0.033694692
-0.23963851 -0.66669875 0.03375959
-0.23758604 -0.66668481 0.033733666
-0.30413997 -0.65106153 0.033557177
-0.25474793 -0.65108979 0.033594817
-0.25047734 -0.65104336 0.033541292
-0.23165257 -0.65108967 0.033590425
-0.22153297 -0.65108001 0.033569571
-0.31734389 -0.64405984 0.033216652
-0.22231825 -0.6440351 0.033177558
-0.3529833 -0.64341146 0.033931993
-0.31538916 -0.64326715 0.03377559
-0.31452265 -0.64326721 0.033773404
-0.31384572 -0.64331222 0.033833157
-0.3120504 -0.64334297 0.03384126
-0.3116976 -0.64334381 0.033838648
-0.31028003 -0.64327323 0.033778645
-0.30626705 -0.64332002 0.033808
-0.29333541 -0.64397454 0.033143222
-0.28210923 -0.64329523 0.033807676
-0.28067058 -0.64336056 0.033861145
-0.2797823 -0.64333475 0.033839349
-0.26962301 -0.64399934 0.033159163
-0.26892832 -0.6433295 0.033831563
-0.23250158 -0.6432941 0.03380619
-0.34527823 -0.63703883 0.033056222
-0.34456468 -0.63703072 0.033053532
-0.27018166 -0.63702333 0.033036903
-0.26276886 -0.6370436 0.03305921
-0.33622575 -0.63627917 0.033618025
-0.33548245 -0.63629788 0.033644255
-0.3344214 -0.6363225 0.033667851
-0.33262572 -0.63631529 0.033663422
-0.33175129 -0.63628584 0.033626009
-0.3255533 -0.63630587 0.033649385
-0.31952664 -0.63634169 0.033693612
-0.2942141 -0.63631409 0.033654656
-0.2938599 -0.6363278 0.033656597
-0.26932457 -0.63634515 0.033681646
-0.2689482 -0.63634735 0.033696391
-0.25507265 -0.63629055 0.033628747
-0.24228388 -0.63631344 0.03366334
-0.23447673 -0.63631076 0.033667952
-0.28811064 -0.63013226 0.033142246
-0.28747356 -0.63007897 0.033098612
-0.28637043 -0.63001508 0.033022571
-0.27430195 -0.63007557 0.033095986
-0.27354878 -0.6300987 0.033099644
-0.27269953 -0.6300869 0.033109352
-0.25534225 -0.63008857 0.033103287
-0.24780053 -0.63009906 0.033119217
-0.24227723 -0.6300993 0.033123583
-0.23664127 -0.63006955 0.033073898
-0.22562465 -0.63002545 0.033050787
-0.27167007 -0.62940919 0.033773951
-0.27045846 -0.62937367 0.033739023
-0.26956016 -0.62937087 0.033736225
-0.2683197 -0.62938887 0.033733144
-0.26792762 -0.62938917 0.03374663
-0.26583588 -0.62939781 0.033764746
-0.25446367 -0.62942183 0.033772055
-0.2359993 -0.62940806 0.033748511
-0.21340911 -0.76102388 0.034541611
-0.21263316 -0.76177043 0.034024168
-0.21269773 -0.76060522 0.034742184
-0.22580807 -0.74800712 0.034361884
-0.22162922 -0.72311032 0.034980893
-0.21621723 -0.7238636 0.034461062
-0.2153367 -0.72362471 0.034628216
-0.21431467 -0.72310835 0.034956947
-0.21338999 -0.72355825 0.034654818
-0.21923877 -0.71345031 0.03406376
-0.23907907 -0.7126891 0.034602098
-0.21846873 -0.71267855 0.034582898
-0.22455323 -0.70311594 0.034078129
-0.21733047 -0.70306402 0.034008671
-0.21551135 -0.70309389 0.034054931
-0.22373451 -0.70235974 0.03463934
-0.21640886 -0.70234215 0.034581408
-0.23218299 -0.69279987 0.034359399
-0.22909318 -0.69201261 0.034909543
-0.22867481 -0.69200981 0.034898605
-0.22205544 -0.67463279 0.034274224
-0.22133991 -0.67458844 0.034237757
-0.21932358 -0.67459553 0.034267563
-0.21873558 -0.67459536 0.034265727
-0.21574792 -0.67460793 0.034272034
-0.22320376 -0.67387903 0.034850311
-0.22281864 -0.67387962 0.034866281
-0.22132187 -0.673877 0.03485176
-0.22051972 -0.67384636 0.034822173
-0.21945484 -0.67386746 0.034847528
-0.2376169 -0.66594017 0.034316719
-0.22844046 -0.66526532 0.034994528
-0.22765175 -0.66527712 0.034990426
-0.2267485 -0.66526824 0.034980211
-0.22115999 -0.66599792 0.034369588
-0.22085579 -0.66598809 0.0343698
-0.23991406 -0.65815747 0.034163266
-0.22977 -0.65816379 0.034163322
-0.22180539 -0.65744555 0.034769621
-0.30332732 -0.65032172 0.034151249
-0.30279452 -0.65031773 0.034145128
-0.30172524 -0.65035063 0.034160607
-0.29391295 -0.65039206 0.034220781
-0.27434337 -0.6503185 0.034155287
-0.2629354 -0.65031475 0.034132451
-0.25657004 -0.65031898 0.034152616
-0.25586963 -0.65034735 0.034188189
-0.24958605 -0.65034282 0.034158006
-0.2293869 -0.65030241 0.034121171
-0.2961168 -0.64963579 0.034808997
-0.28894216 -0.6497035 0.034868483
-0.28785172 -0.64964342 0.034804631
-0.26013389 -0.64967585 0.034836195
-0.22855288 -0.64960241 0.034750096
-0.35189036 -0.64269936 0.03454113
-0.32519516 -0.64257753 0.034415085
-0.31243593 -0.64266711 0.034506854
-0.31061351 -0.64261389 0.034440733
-0.30937463 -0.64258677 0.034430113
-0.30848765 -0.64263815 0.03446966
-0.30744141 -0.64263159 0.034461018
-0.30646059 -0.64264727 0.034470089
-0.29460293 -0.64263302 0.034472201
-0.27858251 -0.64263088 0.034472145
-0.27755523 -0.64260519 0.034444403
-0.27679107 -0.64260936 0.034449119
-0.27536941 -0.64262062 0.034454033
-0.26684284 -0.64267498 0.034496587
-0.2636286 -0.64261013 0.034447439
-0.23164864 -0.64262587 0.034463666
-0.32448527 -0.63563389 0.034313034
-0.32237276 -0.63563561 0.034323998
-0.31825149 -0.63568342 0.034365118
-0.31756943 -0.63570178 0.0343749
-0.31636038 -0.63561231 0.034303714
-0.28250232 -0.63566077 0.034345612
-0.28143892 -0.63568991 0.034379181
-0.26832452 -0.63565618 0.034358509
-0.26120505 -0.63559717 0.034288581
-0.26085573 -0.63558847 0.034270115
-0.24235991 -0.63560903 0.034317575
-0.23315121 -0.63562435 0.034330379
-0.23271704 -0.63564396 0.03432801
-0.32346171 -0.63494784 0.034974307
-0.32276759 -0.63495845 0.034989744
-0.3153176 -0.63490772 0.034950409
-0.31481427 -0.63494879 0.034973763
-0.29549694 -0.63496363 0.034987457
-0.29464945 -0.63492274 0.034951568
-0.28468901 -0.63495123 0.034958199
-0.28380156 -0.63489068 0.034920774
-0.28275883 -0.63492668 0.034961522
-0.26018742 -0.63490796 0.034928814
-0.24703088 -0.63496506 0.034998264
-0.23064756 -0.6349805 0.034996048
-0.22605871 -0.63497537 0.034996297
-0.27048478 -0.62872249 0.034421436
-0.26851586 -0.6287142 0.034404598
-0.26727378 -0.62871122 0.03441935
-0.2665464 -0.6287244 0.034425352
-0.26122028 -0.62869728 0.034398168
-0.26018155 -0.62870681 0.034422725
-0.25950596 -0.62874389 0.034451101
-0.25876907 -0.62875396 0.034453977
-0.25363174 -0.62874472 0.034449212
-0.24652284 -0.62873775 0.034450799
-0.24069163 -0.62872672 0.034442481
-0.23502703 -0.62871271 0.034413073
-0.21403354 -0.76027304 0.035035439
-0.21422818 -0.7594732 0.035509355
-0.21329659 -0.75945306 0.035492525
-0.21294737 -0.75945109 0.035493847
-0.21461761 -0.75865567 0.035958741
-0.21738137 -0.7111432 0.03563083
-0.22300307 -0.70160842 0.035168383
-0.2155012 -0.70159173 0.035138249
-0.22757867 -0.69128656 0.035466958
-0.23376049 -0.68178362 0.035572194
-0.23638648 -0.67307621 0.035359025
-0.23569365 -0.67234045 0.035952967
-0.22550653 -0.66455054 0.035572261
-0.22430179 -0.66451168 0.03555835
-0.25030679 -0.65672135 0.035386194
-0.24978819 -0.65671968 0.035387035
-0.24849933 -0.65673363 0.035398748
-0.24781993 -0.65670514 0.035354514
-0.24565764 -0.65670216 0.035367403
-0.23602676 -0.65676326 0.035425529
-0.22824273 -0.65673131 0.035378527
-0.22792429 -0.6566925 0.035355527
-0.30540529 -0.65598321 0.03596817
-0.25457075 -0.6559974 0.035995308
-0.25038868 -0.6559974 0.035987869
-0.22720756 -0.65595955 0.035941057
-0.22688533 -0.65592992 0.035913408
-0.29220435 -0.64890051 0.03538892
-0.26013762 -0.64896178 0.035456583
-0.25445348 -0.64896208 0.035459574
-0.22784838 -0.64891779 0.035392411
-0.3512159 -0.64201289 0.035193268
-0.35083726 -0.64200848 0.035169534
-0.37752375 -0.64190489 0.035084989
-0.37509134 -0.6419152 0.035109833
-0.37466979 -0.6419211 0.035106201
-0.37253237 -0.64158022 0.035405613
-0.37011501 -0.64124304 0.035760198
-0.36925423 -0.641258 0.035766691
-0.36867589 -0.64127082 0.035801105
-0.36686462 -0.64122957 0.035765581
-0.34175637 -0.64193225 0.035099626
-0.3409619 -0.64124489 0.035759624
-0.33147752 -0.64191914 0.035090484
-0.3306514 -0.6412046 0.035723798
-0.32419991 -0.64119244 0.035698835
-0.32371345 -0.64118898 0.035698205
-0.29538026 -0.64125723 0.035767503
-0.29491481 -0.64199024 0.035156712
-0.28110665 -0.64193326 0.035109673
-0.28051898 -0.64195895 0.035116628
-0.27825999 -0.64194763 0.03511408
-0.27725369 -0.64189339 0.035074767
-0.2761305 -0.64191997 0.035088293
-0.27575868 -0.64193356 0.035082608
-0.27008063 -0.64189178 0.035066318
-0.26728705 -0.6412223 0.035743948
-0.26619869 -0.64196599 0.035136331
-0.23061866 -0.6419341 0.035104871
-0.22959761 -0.64195698 0.035120901
-0.22839582 -0.64127445 0.035787817
-0.22674899 -0.64126408 0.035782605
-0.22459577 -0.641886 0.035039745
-0.31267142 -0.63500452 0.035026997
-0.28150368 -0.63500166 0.035021916
-0.28077412 -0.6350109 0.035041906
-0.31671569 -0.63497931 0.035015874
-0.31343701 -0.63428086 0.035669096
-0.31290397 -0.6343109 0.035687223
-0.31113237 -0.6342476 0.035625666
-0.30572364 -0.63425082 0.035613649
-0.3043035 -0.63427639 0.035650857
-0.29861742 -0.63425213 0.035619482
-0.29750714 -0.63427263 0.035629809
-0.29643846 -0.63426054 0.03562811
-0.29575604 -0.63427901 0.035659745
-0.28634924 -0.6342901 0.03566923
-0.28546435 -0.63464713 0.035352968
-0.28437841 -0.63425922 0.035612606
-0.28186455 -0.63497782 0.035011955
-0.28025156 -0.63498044 0.035015233
-0.27919412 -0.63426352 0.035636991
-0.27846918 -0.63423842 0.035596147
-0.26765358 -0.63496929 0.035009682
-0.26693359 -0.63429809 0.035653591
-0.25931364 -0.63423944 0.035616487
-0.25274584 -0.63424915 0.03562076
-0.24643688 -0.63498199 0.035012752
-0.24559902 -0.63429868 0.035675138
-0.24076907 -0.63425708 0.035613239
-0.23206517 -0.63497388 0.035005037
-0.23170802 -0.63498998 0.035017751
-0.2309809 -0.63498718 0.035004064
-0.22963065 -0.63428682 0.035636514
-0.25759274 -0.62804109 0.035100102
-0.25238976 -0.62808156 0.03513037
-0.23997018 -0.62805158 0.035104662
-0.23429699 -0.62804371 0.035089768
-0.23360015 -0.62803954 0.035090748
-0.25064713 -0.62731791 0.035713442
-0.24519125 -0.62734258 0.035744175
-0.24451247 -0.62732536 0.035715021
-0.23875153 -0.62736607 0.035757791
-0.23220058 -0.62737083 0.03577102
-0.23147769 -0.62735015 0.035727922
-0.23063299 -0.62730265 0.035690185
-0.22035941 -0.75784642 0.036386441
-0.21955617 -0.75708359 0.036880746
-0.21824718 -0.75705349 0.036886249
-0.21778259 -0.7570731 0.036886077
-0.21548073 -0.75734049 0.036716592
-0.21471065 -0.75747442 0.036650605
-0.2202083 -0.72159278 0.036047898
-0.21626996 -0.70960945 0.036675993
-0.22188075 -0.70009542 0.036253102
-0.22117013 -0.69934881 0.0368075
-0.22087872 -0.69933701 0.036820695
-0.23145694 -0.68979353 0.036575135
-0.22631156 -0.68978536 0.036573514
-0.22524768 -0.68979645 0.036574982
-0.22171639 -0.68976545 0.036548343
-0.22068538 -0.68975532 0.036554426
-0.21946558 -0.68976599 0.036566839
-0.23588942 -0.68107301 0.036167193
-0.23195255 -0.68105638 0.036145151
-0.23600897 -0.67164248 0.036557171
-0.2339693 -0.66312969 0.036779892
-0.22446463 -0.66379833 0.036172479
-0.22320992 -0.66380095 0.036154196
-0.22268368 -0.66379672 0.036148634
-0.22139141 -0.66309845 0.036760151
-0.22074091 -0.66358131 0.03635836
-0.26034936 -0.6552543 0.036576305
-0.22620533 -0.65521109 0.036534771
-0.22544353 -0.65524381 0.03655754
-0.2612825 -0.64816779 0.036012646
-0.26075009 -0.64820313 0.036035776
-0.22714379 -0.64821315 0.03602745
-0.22659305 -0.64824367 0.036058288
-0.22393233 -0.64826131 0.036082111
-0.22570032 -0.64755875 0.036697987
-0.34875816 -0.64058703 0.036444455
-0.32276484 -0.64054352 0.036367107
-0.29538444 -0.64056033 0.036403291
-0.27405202 -0.64053142 0.036380503
-0.27368006 -0.64055318 0.036389906
-0.27295342 -0.64054549 0.036393959
-0.23788746 -0.64047074 0.036325522
-0.22710985 -0.64058167 0.036424797
-0.22676188 -0.64056802 0.036413193
-0.22531033 -0.64052159 0.036362935
-0.22498211 -0.64049906 0.036333144
-0.32873338 -0.63981831 0.036980521
-0.30056661 -0.63355231 0.036257647
-0.29950458 -0.63356763 0.036281113
-0.2876533 -0.63355213 0.036265831
-0.28678846 -0.63359499 0.036304105
-0.27747613 -0.63352776 0.036259882
-0.26554874 -0.63354737 0.036256913
-0.25846404 -0.63356698 0.036285195
-0.239777 -0.63357848 0.036279
-0.22841406 -0.63354492 0.036246389
-0.27660817 -0.63287151 0.036931276
-0.27550292 -0.63293266 0.036973409
-0.26469195 -0.63285047 0.036911689
-0.25782925 -0.63289762 0.036949374
-0.25035721 -0.63291502 0.036970705
-0.2389403 -0.63289517 0.036925577
-0.22718847 -0.6328575 0.03692627
-0.22664446 -0.63288981 0.036939651
-0.2378926 -0.62666297 0.036410935
-0.22939959 -0.62665975 0.036398586
-0.22836365 -0.62666291 0.036416877
-0.22759658 -0.62669897 0.036437906
-0.21851362 -0.75627714 0.037355442
-0.21706706 -0.75627923 0.037356962
-0.21591425 -0.75628996 0.037330382
-0.21839668 -0.75549871 0.037815981
-0.21782172 -0.75546521 0.037804503
-0.21629629 -0.75549287 0.037810124
-0.21521839 -0.75550097 0.037806928
-0.22261226 -0.74254495 0.037760124
-0.22256771 -0.73125577 0.037201911
-0.22264209 -0.73048949 0.037692133
-0.21846597 -0.72007507 0.037062675
-0.22261828 -0.70843953 0.037427887
-0.21534601 -0.7088443 0.03720846
-0.21481472 -0.70883566 0.037195642
-0.2197132 -0.69857162 0.037337083
-0.23148949 -0.68903774 0.037149817
-0.22688659 -0.68902504 0.037143391
-0.22542143 -0.68903005 0.037129931
-0.22433054 -0.68906033 0.03714266
-0.22356138 -0.68904817 0.037162598
-0.22261119 -0.68904716 0.037144516
-0.22192109 -0.68901771 0.037095293
-0.22085911 -0.68900746 0.037111688
-0.21980739 -0.68900675 0.037108634
-0.21869846 -0.68903077 0.037136432
-0.21794429 -0.68907213 0.037170742
-0.23151265 -0.6882894 0.037690267
-0.22371106 -0.68828475 0.037696097
-0.21949708 -0.68899387 0.037104618
-0.21798451 -0.68829852 0.037714764
-0.23230857 -0.67957783 0.037281979
-0.23191726 -0.67957449 0.037278242
-0.23123062 -0.67883229 0.037845261
-0.22939819 -0.67885911 0.037852202
-0.22665417 -0.67884958 0.037876964
-0.23603889 -0.67092896 0.037170056
-0.23354155 -0.670569 0.037472591
-0.23356856 -0.65458477 0.037242785
-0.22443019 -0.65456349 0.037220586
-0.22334261 -0.65459085 0.037235569
-0.23432854 -0.65389186 0.037865013
-0.23399037 -0.65389168 0.037874334
-0.31796208 -0.64609957 0.037930094
-0.29646409 -0.64677137 0.03725173
-0.29546565 -0.64607078 0.037879452
-0.29412508 -0.64612466 0.037950963
-0.29014036 -0.64605224 0.037866004
-0.23504613 -0.64607799 0.037905239
-0.22479874 -0.64685649 0.037321113
-0.22357956 -0.64684743 0.037324447
-0.33960995 -0.63983393 0.037024047
-0.33855289 -0.63909429 0.037618633
-0.32146752 -0.63914967 0.037664305
-0.2954466 -0.63949883 0.037347917
-0.26382336 -0.63913459 0.03766077
-0.23646471 -0.63911891 0.037640601
-0.23574924 -0.63912696 0.037642814
-0.26382619 -0.63217479 0.037564341
-0.23760076 -0.63221812 0.037586898
-0.21290468 -0.76767319 0.038708508
-0.22152644 -0.74177229 0.038278367
-0.22148092 -0.74097693 0.038731296
-0.22051488 -0.72892177 0.038700473
-0.22158417 -0.70728344 0.038215455
-0.22091392 -0.70653087 0.038771566
-0.21824622 -0.69702679 0.038351562
-0.21792503 -0.6970017 0.038337674
-0.23153302 -0.68753624 0.038255721
-0.2317031 -0.68678403 0.038821034
-0.23333329 -0.67813426 0.038444564
-0.23248588 -0.67808914 0.03843293
-0.22801378 -0.67811531 0.038435463
-0.22751552 -0.67811799 0.038440101
-0.23600282 -0.66951281 0.038384635
-0.23565699 -0.66950494 0.038363405
-0.23247375 -0.6695053 0.03837464
-0.23142059 -0.66877335 0.038963228
-0.23764305 -0.6609565 0.038605262
-0.23227051 -0.66094661 0.038567435
-0.2319057 -0.65309066 0.038381368
-0.35561898 -0.6454882 0.038672283
-0.35420185 -0.64549369 0.038662676
-0.3151356 -0.64543486 0.038593378
-0.31256926 -0.64542294 0.038568269
-0.29342011 -0.64543635 0.03858754
-0.29269034 -0.64543879 0.038617168
-0.28914061 -0.64537799 0.038531881
-0.28804502 -0.6454373 0.038596731
-0.27128005 -0.64538276 0.038535085
-0.26636729 -0.64536816 0.038512725
-0.23507385 -0.6453678 0.038521659
-0.29615909 -0.63842481 0.038266193
-0.24999645 -0.63840514 0.038267665
-0.28526953 -0.63768226 0.038882881
-0.26259172 -0.63153249 0.038258892
-0.21999229 -0.7402159 0.039260887
-0.21644567 -0.74023235 0.039245315
-0.21501903 -0.74023151 0.039235491
-0.22574994 -0.72811735 0.039152533
-0.22443816 -0.67738855 0.039016515
-0.23332237 -0.67664373 0.039585266
-0.22442614 -0.67664301 0.039579075
-0.2219919 -0.67659628 0.039557066
-0.23600236 -0.66804594 0.039544411
-0.22999001 -0.66804016 0.03955156
-0.23090658 -0.66022617 0.039189566
-0.29054075 -0.6443665 0.03949324
-0.28917521 -0.64464313 0.039137237
-0.28702068 -0.6440503 0.039859757
-0.28626239 -0.64474303 0.03923095
-0.28556484 -0.64471471 0.039209977
-0.28380856 -0.6446594 0.039184101
-0.27436864 -0.64436877 0.039523624
-0.27351457 -0.6443696 0.039534852
-0.26749644 -0.64438343 0.039543159
-0.26570341 -0.64466429 0.039166149
-0.28430533 -0.6439743 0.039779365
-0.27220023 -0.64399087 0.039804749
-0.26640394 -0.64395905 0.039778668
-0.25963989 -0.64395434 0.039766449
-0.21416897 -0.76528442 0.040067967
-0.21350165 -0.76528358 0.040071651
-0.21236163 -0.76529008 0.040066481
-0.22167122 -0.73859608 0.040171843
-0.23531356 -0.70429689 0.040405184
-0.23408055 -0.6751681 0.040743195
-0.23371503 -0.67591089 0.040162403
-0.23597173 -0.66731632 0.040116817
-0.22891961 -0.66731089 0.04012683
-0.22743601 -0.66733366 0.040129948
-0.28916311 -0.64323682 0.040394988
-0.2950449 -0.72504419 0.041215587
-0.29053682 -0.72503734 0.041171215
-0.29068035 -0.72426057 0.041683655
-0.22601742 -0.7027998 0.041494552
-0.23348933 -0.69326895 0.041089717
-0.2345029 -0.67441404 0.041299358
-0.23593912 -0.66586697 0.041296884
-0.28312561 -0.64253443 0.041022625
-0.2995376 -0.72348118 0.042186294
-0.29457897 -0.72349995 0.042213492
-0.3001717 -0.72275019 0.042732269
-0.29971004 -0.72272998 0.0427179
-0.29465279 -0.72274828 0.042722307
-0.30612427 -0.71236229 0.042198617
-0.3057963 -0.71236128 0.042202953
-0.30606532 -0.7116037 0.042709973
-0.23345172 -0.67293555 0.042457968
-0.24233922 -0.65658236 0.042147353
-0.25231132 -0.65586495 0.042745605
-0.25197133 -0.65586329 0.042751394
-0.24237223 -0.65589285 0.042764597
-0.28068233 -0.64812893 0.042723183
-0.26933768 -0.64813608 0.04273561
-0.29977635 -0.72117585 0.043701138
-0.23384099 -0.7004624 0.04304909
-0.23792031 -0.67147803 0.043590378
-0.23816173 -0.66287214 0.043582186
-0.28077057 -0.64739782 0.043324377
-0.27716765 -0.64743412 0.043359958
-0.27149057 -0.64742011 0.04335124
-0.25726706 -0.64742738 0.043349452
-0.25698167 -0.64739263 0.043330632
-0.2630015 -0.64671981 0.043970279
-0.2590794 -0.64673436 0.043976612
-0.25181586 -0.64672828 0.043985628
-0.29980993 -0.72039485 0.044203855
-0.30403692 -0.71963274 0.044723481
-0.29976028 -0.71961796 0.044688534
-0.23343545 -0.69892955 0.044085294
-0.23348781 -0.68796229 0.044881061
-0.23604517 -0.67857999 0.044944409
-0.23826519 -0.67000449 0.044728063
-0.26398 -0.64677316 0.044011794
-0.2569907 -0.64601606 0.044604275
-0.27790394 -0.64599741 0.044573635
-0.30443111 -0.71834236 0.045543168
-0.30395854 -0.71886438 0.045218613
-0.29969612 -0.71884727 0.04519726
-0.31056067 -0.7069369 0.045759089
-0.23310679 -0.69740564 0.045150943
-0.23305897 -0.69664419 0.04567387
-0.23628408 -0.68719226 0.045409463
-0.23407231 -0.68722081 0.045415852
-0.23359615 -0.68721414 0.045417406
-0.2341017 -0.68645924 0.045959149
-0.23847345 -0.66851282 0.045865931
-0.27757135 -0.64456868 0.045792717
-0.28530169 -0.7292577 0.046016786
-0.28561899 -0.72763944 0.046934579
-0.28488261 -0.72767127 0.046968177
-0.30465546 -0.71729064 0.046185743
-0.24957696 -0.65154052 0.046354752
-0.26661989 -0.64380324 0.046350822
-0.27712706 -0.72768927 0.047000725
-0.29300007 -0.72686386 0.047399901
-0.29292363 -0.72608006 0.047880769
-0.28648686 -0.72683418 0.047402911
-0.28593212 -0.72685128 0.047409836
-0.30424395 -0.71573311 0.047181532
-0.23261082 -0.69357592 0.047756158
-0.23332626 -0.68419266 0.047572143
-0.23672937 -0.67559224 0.047166433
-0.27441755 -0.65006495 0.047535781
-0.26234919 -0.65009272 0.047558963
-0.26163012 -0.65010709 0.047583975
-0.25558394 -0.65011168 0.047592811
-0.25466728 -0.65011871 0.047594294
-0.25241053 -0.65007645 0.047559544
-0.25054935 -0.65007555 0.047533959
-0.27695021 -0.64242542 0.047617659
-0.27511734 -0.64243919 0.047651522
-0.26882687 -0.64243829 0.047657177
-0.26133341 -0.64246166 0.047682866
-0.29723558 -0.7253269 0.048429407
-0.29293537 -0.72528332 0.048359863
-0.28731176 -0.72528541 0.048361883
-0.29717866 -0.72454387 0.048913799
-0.29290676 -0.72449875 0.048854813
-0.28743219 -0.72453201 0.048891891
-0.30852002 -0.71416897 0.048202604
-0.3039076 -0.71415216 0.048169587
-0.30847353 -0.71337956 0.048674349
-0.30414259 -0.71336198 0.04864857
-0.30383536 -0.71337414 0.048659492
-0.23188584 -0.69280291 0.048288774
-0.23346284 -0.68343616 0.048110776
-0.2606324 -0.64937663 0.048183668
-0.27550614 -0.64173257 0.048260257
-0.27375835 -0.64172816 0.048254605
-0.27052209 -0.64166021 0.048212845
-0.26871714 -0.64101219 0.048869986
-0.27824974 -0.64097977 0.048846163
-0.27696893 -0.64099264 0.04885146
-0.29712754 -0.72376317 0.049391508
-0.29343107 -0.72371519 0.049351774
-0.29291883 -0.72369254 0.049338911
-0.29710102 -0.7229628 0.049862511
-0.30851084 -0.71260023 0.049155094
-0.30902225 -0.71180826 0.04962457
-0.30864921 -0.71183437 0.049658954
-0.23582473 -0.67256761 0.049368292
-0.27373245 -0.64787871 0.0493211
-0.25454977 -0.6479404 0.049392819
-0.24957657 -0.6471712 0.049927261
-0.29712695 -0.72216666 0.050334055
-0.29707929 -0.72136658 0.050807316
-0.31256139 -0.71027178 0.050657474
-0.30860063 -0.71023571 0.050606679
-0.23332164 -0.68038714 0.050275777
-0.23439598 -0.67962813 0.050835796
-0.23367512 -0.67963713 0.050825559
-0.23559308 -0.67105234 0.050452188
-0.23618746 -0.67026997 0.05097675
-0.23562622 -0.67028421 0.05098515
-0.3020024 -0.72060162 0.051284514
-0.30161974 -0.72060752 0.051305402
-0.2974228 -0.72054547 0.051243495
-0.3021836 -0.71976554 0.051735505
-0.30857053 -0.70943582 0.051098928
-0.31244415 -0.70872229 0.051653016
-0.23455878 -0.6976735 0.051888548
-0.23183803 -0.67890459 0.051381882
-0.23632005 -0.66955298 0.051556554
-0.25459582 -0.65268189 0.051832974
-0.25352871 -0.6526475 0.051811419
-0.25074929 -0.65267879 0.05181824
-0.27410191 -0.64572722 0.051129099
-0.27344438 -0.64570665 0.051124275
-0.27964133 -0.73020065 0.052805934
-0.2786628 -0.73021412 0.052800603
-0.30230078 -0.71856487 0.052431367
-0.31253663 -0.70742279 0.052469242
-0.2354075 -0.69688636 0.052376144
-0.23292433 -0.67660075 0.05299481
-0.253216 -0.65189934 0.052393723
-0.24973625 -0.65192997 0.05240266
-0.24896696 -0.65120775 0.052998751
-0.2809194 -0.64429098 0.052347027
-0.25921434 -0.64431393 0.052370608
-0.27095261 -0.64358282 0.052959982
-0.25963542 -0.64355266 0.05293192
-0.28936785 -0.72931874 0.053154722
-0.27978298 -0.72938991 0.053245593
-0.27971402 -0.72862202 0.053715732
-0.27113613 -0.72860408 0.053693533
-0.30237871 -0.71741277 0.053163979
-0.30270928 -0.71666855 0.053695962
-0.31312385 -0.70637506 0.053109016
-0.31273192 -0.70637584 0.053124201
-0.31324846 -0.70560068 0.053611822
-0.23622607 -0.66662419 0.053844601
-0.27241158 -0.64281541 0.05351406
-0.28990468 -0.72701609 0.054650985
-0.2885727 -0.72773576 0.054072969
-0.2810351 -0.72780138 0.054159276
-0.28050959 -0.72780269 0.054164417
-0.27983582 -0.72780466 0.054160424
-0.27140245 -0.72755665 0.054310631
-0.28175375 -0.72696 0.054579377
-0.28098455 -0.7269935 0.054609805
-0.30599484 -0.71508813 0.054649271
-0.31341586 -0.7044065 0.054355912
-0.23399094 -0.6930604 0.054968555
-0.23625523 -0.66587406 0.054401275
-0.28990546 -0.72621268 0.055098377
-0.29550177 -0.72543746 0.055564925
-0.2910023 -0.7254107 0.055551607
-0.29041013 -0.72542048 0.055564489
-0.28986779 -0.72543103 0.055565387
-0.30566117 -0.7134847 0.055598114
-0.31357369 -0.70324135 0.055101879
-0.31367043 -0.70248336 0.055616405
-0.23798616 -0.68216729 0.055701558
-0.24610518 -0.65592343 0.055568617
-0.29092714 -0.72462988 0.05601237
-0.29522625 -0.72331411 0.056820821
-0.2911759 -0.72343892 0.056704387
-0.29087886 -0.72384459 0.056484446
-0.30578053 -0.71269619 0.056048401
-0.30625814 -0.71195245 0.056594215
-0.30591822 -0.71191418 0.056547046
-0.31364131 -0.70173186 0.056131348
-0.31378266 -0.70095253 0.056637764
-0.23726851 -0.68141294 0.05623208
-0.23838413 -0.66282344 0.05655602
-0.25324804 -0.65518188 0.056123294
-0.24400108 -0.65520531 0.056153763
-0.2443527 -0.65447801 0.056744453
-0.29973298 -0.72221285 0.057388838
-0.29539433 -0.72226918 0.057452101
-0.29982126 -0.72143918 0.057881486
-0.31048357 -0.71114057 0.057043575
-0.30628946 -0.71118718 0.057109348
-0.31059554 -0.71036732 0.057525534
-0.23781772 -0.67056227 0.057324931
-0.23811619 -0.66985261 0.057911266
-0.23776986 -0.66984493 0.05789011
-0.2631633 -0.65374053 0.057329886
-0.27602884 -0.64609236 0.057114206
-0.2717934 -0.64609081 0.057108071
-0.27035144 -0.64611697 0.057128254
-0.26215175 -0.64601249 0.057038955
-0.27652484 -0.64536428 0.057685018
-0.26501861 -0.6453746 0.057709478
-0.26456931 -0.64540774 0.057724793
-0.26394829 -0.6453827 0.057718784
-0.26538804 -0.63850451 0.057143118
-0.29995647 -0.72068721 0.058391057
-0.30018672 -0.71992338 0.058874618
-0.29988754 -0.71991074 0.058862381
-0.31053182 -0.70882827 0.058524027
-0.31370264 -0.69863278 0.058142412
-0.27921611 -0.64461565 0.058238484
-0.27364078 -0.73023701 0.059974797
-0.3001878 -0.71831918 0.059787866
-0.31074509 -0.70804489 0.059031859
-0.31071442 -0.70725679 0.059516065
-0.23803206 -0.66758502 0.05951475
-0.24756981 -0.65839607 0.059980728
-0.27403465 -0.72940505 0.060412526
-0.28362659 -0.72855699 0.060819652
-0.2828733 -0.72856849 0.060853433
-0.30455673 -0.71754801 0.060275845
-0.30462679 -0.71677941 0.06074984
-0.3104226 -0.70569485 0.060464092
-0.23516119 -0.68459433 0.060587246
-0.23764244 -0.66607982 0.060607165
-0.24797677 -0.65761107 0.060514223
-0.25676066 -0.64929563 0.060743887
-0.25005907 -0.64926225 0.060696743
-0.28632432 -0.72701454 0.061774179
-0.28540802 -0.72731113 0.061656978
-0.28451002 -0.72756481 0.061480463
-0.28373295 -0.72778767 0.061287265
-0.27472636 -0.72775686 0.061259057
-0.27378643 -0.72779965 0.061305285
-0.27536297 -0.72695804 0.06170693
-0.27464458 -0.72696453 0.061707463
-0.27394497 -0.72698355 0.061728116
-0.30468559 -0.71595222 0.061199974
-0.31045642 -0.70334136 0.061912771
-0.23462886 -0.67377871 0.061509281
-0.23759609 -0.6653316 0.06115083
-0.24845262 -0.6568656 0.061059929
-0.24793884 -0.65686816 0.061054043
-0.26826003 -0.64778948 0.061865233
-0.26001123 -0.64781219 0.061885837
-0.25020656 -0.64778042 0.061839633
-0.27498105 -0.64096618 0.061196323
-0.26995799 -0.64023864 0.061780229
-0.26721862 -0.64024282 0.061799511
-0.26104838 -0.6409539 0.061172973
-0.28635976 -0.72619402 0.062227447
-0.28558624 -0.72623467 0.062254306
-0.27461168 -0.72614747 0.062159587
-0.25817969 -0.72622126 0.062206365
-0.25785252 -0.72621959 0.062220622
-0.28628531 -0.72540164 0.06266062
-0.27574462 -0.725438 0.062709816
-0.2646991 -0.72540486 0.062699407
-0.30424041 -0.71437818 0.062122911
-0.30420151 -0.71357924 0.062582538
-0.31537646 -0.70177728 0.062885813
-0.23605365 -0.6730178 0.062047962
-0.23638308 -0.6722526 0.062567592
-0.25220275 -0.65539163 0.062191058
-0.26108146 -0.64706373 0.062438745
-0.27532011 -0.63949841 0.062349934
-0.26784584 -0.63954812 0.062390503
-0.29345208 -0.72461748 0.063106254
-0.29298976 -0.72461486 0.063128464
-0.26562363 -0.72463399 0.063144974
-0.26331252 -0.72462958 0.063143209
-0.2625913 -0.72462082 0.063136637
-0.29714593 -0.72386837 0.063623458
-0.29437196 -0.72378618 0.063567825
-0.29379001 -0.72380811 0.063559949
-0.30828685 -0.71253777 0.063227408
-0.30878443 -0.71158409 0.063764006
-0.30420068 -0.71196908 0.063510351
-0.23511213 -0.67994714 0.063666724
-0.23601758 -0.67070282 0.063615814
-0.23523912 -0.67073762 0.063632548
-0.26039156 -0.64632297 0.063020661
-0.29633471 -0.64556766 0.063573875
-0.29731297 -0.72305286 0.06407544
-0.29744297 -0.7222569 0.064528555
-0.25686139 -0.72222877 0.064460292
-0.30202273 -0.72145045 0.064963043
-0.29815963 -0.72143626 0.06495332
-0.29738149 -0.72146332 0.064975612
-0.25611198 -0.72143734 0.064913265
-0.3087844 -0.71039021 0.064435005
-0.30891186 -0.70961076 0.064908348
-0.31542054 -0.69944167 0.064327829
-0.3156203 -0.69862992 0.064802513
-0.23631999 -0.669128 0.064600095
-0.23559484 -0.66915751 0.064635165
-0.24823338 -0.65167159 0.064979307
-0.29560399 -0.64484477 0.064154685
-0.29451132 -0.64410704 0.064741753
-0.29198781 -0.64402384 0.064653136
-0.26125723 -0.64405131 0.06468004
-0.25926295 -0.64484549 0.064157099
-0.29734451 -0.72065026 0.065415971
-0.30197671 -0.71985275 0.065858521
-0.30889046 -0.70879424 0.065341532
-0.31559026 -0.69781321 0.065261178
-0.31575531 -0.69699496 0.065723844
-0.23517853 -0.66762149 0.065678485
-0.25463545 -0.65089488 0.065526552
-0.24857564 -0.65091056 0.065549731
-0.26750675 -0.64330059 0.065248936
-0.26177904 -0.643296 0.06522233
-0.29025894 -0.64256859 0.065812163
-0.27101806 -0.64259702 0.065852001
-0.2667073 -0.64259326 0.065835476
-0.25926661 -0.64263111 0.065874681
-0.30223271 -0.71905357 0.066314951
-0.30189705 -0.71906179 0.066321112
-0.30259585 -0.71821648 0.066724971
-0.3124074 -0.70722997 0.06631314
-0.30880204 -0.70717263 0.066257223
-0.31235227 -0.70643771 0.066780262
-0.31563807 -0.69545627 0.066677131
-0.23355858 -0.67531013 0.066743247
-0.23244855 -0.6753211 0.066738673
-0.25241324 -0.65014714 0.066057622
-0.2471821 -0.65014249 0.066055387
-0.24617198 -0.65008914 0.066025771
-0.25944564 -0.64936584 0.066599026
-0.2724137 -0.64145172 0.066671945
-0.2713421 -0.64111072 0.066969194
-0.27057293 -0.64113843 0.066996396
-0.26712838 -0.64182025 0.066364199
-0.27727416 -0.72847551 0.067980617
-0.30292088 -0.71736604 0.067141242
-0.31265363 -0.70564491 0.067227945
-0.31259564 -0.70487297 0.067710057
-0.31614575 -0.69469523 0.06720078
-0.31580374 -0.69469291 0.067207977
-0.23417364 -0.67381668 0.067790218
-0.23313835 -0.6737783 0.067784727
-0.31075227 -0.65624404 0.067654409
-0.25742045 -0.64867377 0.067217939
-0.30146188 -0.64796942 0.067807332
-0.30084532 -0.6479134 0.067766719
-0.25781235 -0.64790094 0.067756154
-0.26966864 -0.64114708 0.067032836
-0.28034601 -0.72770691 0.068482526
-0.27962783 -0.72772777 0.068512611
-0.27848783 -0.72773093 0.068498664
-0.28937328 -0.72682589 0.068820655
-0.28842935 -0.72686577 0.068871997
-0.28061131 -0.72690922 0.068906598
-0.27922714 -0.72692448 0.068944052
-0.2703371 -0.72685921 0.068864681
-0.26832715 -0.72685969 0.068854325
-0.26744974 -0.72689974 0.068907171
-0.26661623 -0.72689223 0.068902776
-0.26568905 -0.72689599 0.06890884
-0.26386055 -0.72690922 0.068896689
-0.30598122 -0.7150709 0.068573892
-0.30260983 -0.71580309 0.06804198
-0.31257585 -0.70405942 0.068168074
-0.31272215 -0.70326656 0.068620376
-0.31576592 -0.69314712 0.068198524
-0.31570312 -0.69237971 0.068692029
-0.24603716 -0.65475309 0.068768971
-0.30185825 -0.64643788 0.068887196
-0.29334736 -0.64634597 0.068788342
-0.26221189 -0.64642733 0.068875261
-0.25921294 -0.64641052 0.068865657
-0.25674877 -0.64642036 0.068878084
-0.25353834 -0.64642334 0.068883456
-0.29050815 -0.72610068 0.069353327
-0.28961596 -0.72606206 0.069281265
-0.28087777 -0.72608781 0.069338746
-0.27042305 -0.72609937 0.069335133
-0.26938528 -0.7260285 0.069257721
-0.26868027 -0.72602105 0.069256067
-0.29611745 -0.72526318 0.06975574
-0.29156291 -0.72528023 0.069774285
-0.29043603 -0.72529626 0.069794856
-0.28973034 -0.72530991 0.069777839
-0.30638367 -0.71344125 0.069447875
-0.30592617 -0.71345013 0.06946265
-0.30726358 -0.71260536 0.069843926
-0.30674595 -0.71261239 0.069865458
-0.31284517 -0.70248646 0.069081865
-0.31338108 -0.70165956 0.069549978
-0.31282479 -0.70167929 0.069555454
-0.31567082 -0.69161612 0.069198869
-0.31563061 -0.69082397 0.069671772
-0.23807232 -0.67064476 0.069765761
-0.23970652 -0.6622563 0.069351174
-0.31500113 -0.66154182 0.069929756
-0.25247625 -0.65321481 0.069808565
-0.25103536 -0.65321743 0.069825888
-0.24885802 -0.65316921 0.069759361
-0.2951853 -0.64569354 0.069469415
-0.29439631 -0.64568311 0.069422983
-0.29372099 -0.64562398 0.069373891
-0.2926828 -0.64559907 0.069363087
-0.26346359 -0.645612 0.069370747
-0.28014457 -0.64491433 0.069970772
-0.29609358 -0.72447467 0.070202194
-0.29170656 -0.72447586 0.070203774
-0.29060528 -0.72448534 0.070211291
-0.29183441 -0.7236762 0.070627131
-0.30715552 -0.71105325 0.070814028
-0.30681565 -0.711016 0.07076706
-0.31352335 -0.70047402 0.070250198
-0.31412137 -0.69933254 0.070998736
-0.3134118 -0.69930685 0.070967898
-0.31591785 -0.68922621 0.070599832
-0.23448342 -0.68921757 0.070577167
-0.23819928 -0.66951573 0.070553489
-0.23798162 -0.66913605 0.070809521
-0.25245506 -0.65246528 0.070355982
-0.25141412 -0.65244937 0.070361212
-0.25031063 -0.65245241 0.070367992
-0.25739864 -0.65171236 0.070928872
-0.25593501 -0.65171254 0.070912734
-0.25275949 -0.65169674 0.070883609
-0.28017426 -0.64416671 0.070513658
-0.27802739 -0.64417386 0.070546135
-0.27694625 -0.64418328 0.070552602
-0.27531552 -0.64415491 0.070516914
-0.27097014 -0.64495188 0.070016958
-0.25749257 -0.64413834 0.070504554
-0.25636011 -0.64413017 0.070501693
-0.29968661 -0.72204417 0.071493402
-0.29560795 -0.7224803 0.071303397
-0.29170182 -0.72206098 0.071494281
-0.29980779 -0.72122616 0.071910143
-0.29576555 -0.7212671 0.071967959
-0.31062952 -0.71023351 0.071226336
-0.31402138 -0.69774687 0.071927607
-0.31592029 -0.68760008 0.071509942
-0.31590158 -0.68678552 0.071969479
-0.23739281 -0.67839187 0.071045719
-0.31321439 -0.65927297 0.071545742
-0.31244996 -0.65926558 0.071524151
-0.30430549 -0.65096635 0.071471542
-0.30393505 -0.65096557 0.071462646
-0.30214602 -0.65017134 0.071961388
-0.30157095 -0.65013409 0.071919002
-0.27572337 -0.64343971 0.071111083
-0.27445725 -0.64338732 0.071056329
-0.26953346 -0.64340591 0.071084246
-0.26880381 -0.64337021 0.071029477
-0.26343471 -0.64340758 0.071076684
-0.26383162 -0.64270544 0.071691848
-0.29982689 -0.72041208 0.072328486
-0.29614058 -0.72050828 0.072420627
-0.30028379 -0.71963185 0.07280831
-0.29980043 -0.71961492 0.072782874
-0.31057259 -0.70863366 0.072136298
-0.31051812 -0.70783746 0.072581537
-0.31402165 -0.69696003 0.07239911
-0.23762691 -0.66637009 0.072750486
-0.31317326 -0.65849978 0.072050624
-0.30285424 -0.65022117 0.072028995
-0.26409155 -0.64198261 0.072254531
-0.30057168 -0.71887398 0.073288888
-0.31061405 -0.70705962 0.0730519
-0.31078306 -0.70630121 0.073538825
-0.24031895 -0.6570136 0.073158585
-0.30034545 -0.64862686 0.073008686
-0.25621176 -0.64871901 0.073106989
-0.25561947 -0.6486823 0.073094808
-0.25165316 -0.64867014 0.073068552
-0.29965627 -0.64788371 0.073571518
-0.29861474 -0.64792186 0.073622681
-0.26091689 -0.64793277 0.073643528
-0.25621191 -0.64794666 0.073650464
-0.30450937 -0.71720707 0.074081153
-0.30059725 -0.71726876 0.074149884
-0.30401409 -0.71563548 0.074984618
-0.31079245 -0.70548511 0.07400158
-0.3160238 -0.6829704 0.074482411
-0.24495184 -0.66382009 0.074501775
-0.23921756 -0.66379219 0.074449733
-0.24911511 -0.65542805 0.07415048
-0.24810325 -0.65542942 0.07416027
-0.24733464 -0.6554662 0.07418339
-0.3098934 -0.65466517 0.074670173
-0.25445691 -0.65468293 0.074675366
-0.29895639 -0.64711773 0.07412219
-0.26087618 -0.64719039 0.074189208
-0.2562401 -0.64719063 0.074191764
-0.29679453 -0.64642823 0.074746266
-0.27259055 -0.64644444 0.074733794
-0.26081309 -0.64644408 0.07474234
-0.25375366 -0.64641482 0.07471218
-0.2840853 -0.72822547 0.075101174
-0.28335726 -0.72826564 0.075121842
-0.28406507 -0.72741085 0.075500764
-0.28295064 -0.72746015 0.075547844
-0.27405304 -0.72748041 0.075549819
-0.2724638 -0.7274729 0.07554923
-0.28526649 -0.72666627 0.075963929
-0.2843571 -0.72661406 0.075918905
-0.27439442 -0.72663885 0.075945966
-0.27323395 -0.72667968 0.075966999
-0.27273956 -0.72666955 0.075960591
-0.30445212 -0.7156471 0.075009428
-0.30444878 -0.71434528 0.075776778
-0.31752902 -0.69222641 0.075212628
-0.3156659 -0.68139297 0.075460248
-0.31561601 -0.68060601 0.075933814
-0.23656742 -0.67215979 0.07502795
-0.24692397 -0.65392381 0.075213447
-0.28498617 -0.64566559 0.075256087
-0.28001726 -0.64565277 0.075234681
-0.27963126 -0.64566195 0.075252861
-0.27897775 -0.64565694 0.075251408
-0.27317137 -0.64566624 0.075270623
-0.27254304 -0.64570135 0.075275712
-0.26123285 -0.6456697 0.075266272
-0.25913051 -0.64561558 0.075222112
-0.26578394 -0.64493626 0.075824521
-0.28681743 -0.72668177 0.076001167
-0.28713125 -0.72500557 0.076801889
-0.28637323 -0.72531492 0.076681763
-0.2855311 -0.72585869 0.076397523
-0.27510834 -0.72578394 0.076316781
-0.27472705 -0.72580767 0.076333925
-0.23994008 -0.7132327 0.076304212
-0.30891946 -0.7124359 0.076778114
-0.30426723 -0.71244955 0.076782234
-0.31549829 -0.70150918 0.076246381
-0.31579584 -0.70070839 0.076702394
-0.31762257 -0.69058722 0.076101325
-0.31552833 -0.67942256 0.076650411
-0.23332417 -0.67901713 0.0768352
-0.23299515 -0.67901623 0.076848224
-0.23571226 -0.66984636 0.076536499
-0.29535306 -0.64416653 0.076363482
-0.25544381 -0.64417148 0.076357342
-0.26615372 -0.64341843 0.076891683
-0.26581156 -0.64340901 0.076901473
-0.29312989 -0.72422063 0.07721895
-0.26356545 -0.72422284 0.077228159
-0.26233843 -0.72420299 0.077218793
-0.2616576 -0.72418165 0.077205174
-0.30156195 -0.7233665 0.077608921
-0.29356146 -0.72340375 0.077631243
-0.26050249 -0.72338372 0.077620231
-0.2596077 -0.72339344 0.077626102
-0.30884841 -0.71165454 0.077224754
-0.30492041 -0.71164399 0.077199988
-0.246189 -0.71159941 0.077145144
-0.30380297 -0.7108503 0.077643193
-0.31728613 -0.68738198 0.077910677
-0.31551427 -0.67824566 0.077358752
-0.23563324 -0.66907817 0.077036619
-0.23564556 -0.66828948 0.077524073
-0.30550054 -0.65089488 0.077340096
-0.30458185 -0.65038496 0.077699974
-0.30027071 -0.65010822 0.077862777
-0.25382376 -0.65060669 0.077477403
-0.24901494 -0.65089309 0.077336952
-0.24849042 -0.65084553 0.077283315
-0.24730498 -0.65004396 0.07779789
-0.24581499 -0.6500923 0.077835798
-0.26613742 -0.64265752 0.077427126
-0.26009718 -0.64264834 0.077423789
-0.28487518 -0.64190626 0.07796859
-0.26612329 -0.64190143 0.077969752
-0.27635384 -0.7360214 0.078101508
-0.29761648 -0.72260767 0.078093246
-0.29453349 -0.72258353 0.078040555
-0.29379627 -0.72259533 0.078038737
-0.25739595 -0.72260243 0.078056559
-0.29816714 -0.72100711 0.078946538
-0.29763699 -0.72100556 0.07894516
-0.29502782 -0.72176623 0.078476541
-0.29470548 -0.72175199 0.078468934
-0.25765184 -0.72179359 0.078459971
-0.30668768 -0.72094226 0.078848429
-0.25618359 -0.72098786 0.078896485
-0.25555202 -0.72097594 0.078900389
-0.30852765 -0.71005464 0.078092113
-0.30908835 -0.70921248 0.078508928
-0.30897948 -0.70839399 0.07892707
-0.31525728 -0.69754308 0.07853397
-0.31535605 -0.6967389 0.078959823
-0.31760967 -0.68663406 0.078407675
-0.31511396 -0.67665839 0.078313336
-0.23265989 -0.6766628 0.078279048
-0.31506154 -0.67585748 0.078785419
-0.31260446 -0.65839148 0.078038953
-0.23619696 -0.65839332 0.078031331
-0.24261294 -0.6576584 0.078577891
-0.25393414 -0.6493265 0.078365028
-0.24578179 -0.64933026 0.078367859
-0.30482766 -0.64856988 0.078908741
-0.26280853 -0.64859974 0.078929856
-0.25427747 -0.64855951 0.078900658
-0.24615823 -0.64854807 0.078880832
-0.28352225 -0.64113635 0.078516655
-0.29887351 -0.72017485 0.07934016
-0.25411394 -0.72015297 0.0793363
-0.30195403 -0.71939707 0.079796046
-0.29804885 -0.71937674 0.079771534
-0.25407037 -0.71933609 0.079763077
-0.25334963 -0.71934783 0.07975091
-0.25296238 -0.71935624 0.079743065
-0.31246164 -0.70680189 0.079825655
-0.23951732 -0.70679241 0.079787865
-0.3194313 -0.69515532 0.079888985
-0.31834441 -0.69514233 0.079885527
-0.31552511 -0.69549978 0.079617865
-0.31731692 -0.6850974 0.079376929
-0.31480187 -0.67426199 0.07971143
-0.31261715 -0.66600323 0.079064637
-0.31313851 -0.66544873 0.079361796
-0.30446625 -0.65630865 0.079384029
-0.29836291 -0.6478337 0.079453513
-0.25853819 -0.64704549 0.079968058
-0.28275958 -0.64037597 0.079054587
-0.2724489 -0.64033085 0.07900089
-0.2717315 -0.6403718 0.079044707
-0.27173483 -0.63959199 0.079555333
-0.27096608 -0.63961905 0.079582259
-0.29590067 -0.73115945 0.080567412
-0.28446993 -0.73116738 0.080555476
-0.30233452 -0.71856606 0.080195434
-0.25216722 -0.71854615 0.080179371
-0.30405331 -0.71768498 0.080545574
-0.30349463 -0.71773326 0.080576673
-0.30242205 -0.71776092 0.080608651
-0.30399618 -0.71685505 0.080951296
-0.31236139 -0.70600414 0.080252849
-0.23821656 -0.70601439 0.08023183
-0.31442741 -0.70519805 0.080668904
-0.31334221 -0.70520252 0.080682471
-0.31232148 -0.70520407 0.080673583
-0.23736857 -0.70518315 0.080669314
-0.23667628 -0.70520312 0.080695763
-0.32009774 -0.69428885 0.080289505
-0.31650665 -0.69429129 0.080268063
-0.31565979 -0.69425404 0.080263898
-0.2332814 -0.69352019 0.080749117
-0.31450504 -0.67268926 0.080650859
-0.31329665 -0.66441268 0.080016732
-0.31336081 -0.66359866 0.080500379
-0.31346843 -0.66282094 0.080973193
-0.23969884 -0.66280931 0.080962747
-0.30473244 -0.65526122 0.08002653
-0.24337687 -0.65530294 0.080085754
-0.30522007 -0.65450454 0.080556408
-0.3046656 -0.65448815 0.080530278
-0.2424757 -0.65454865 0.080610655
-0.25708541 -0.64708018 0.080000825
-0.25761786 -0.6463021 0.080509
-0.26419932 -0.64545888 0.080968037
-0.26384595 -0.64547962 0.080981955
-0.27265266 -0.72948754 0.081309579
-0.28222769 -0.72872859 0.081797928
-0.2815133 -0.72874951 0.081823267
-0.27828228 -0.72866577 0.081700757
-0.27173987 -0.72864461 0.081691474
-0.30250823 -0.71694642 0.081028447
-0.2507816 -0.7169404 0.081005976
-0.24982081 -0.71614307 0.081432611
-0.31660506 -0.70434576 0.081074879
-0.31546593 -0.70438075 0.081090227
-0.31476939 -0.70438582 0.081082106
-0.31332073 -0.70439082 0.081098855
-0.31245396 -0.70439279 0.081118211
-0.31561774 -0.70355713 0.08152099
-0.31468692 -0.70359331 0.081520036
-0.31610054 -0.70277005 0.081965715
-0.2328735 -0.69190663 0.081659183
-0.31440991 -0.67150909 0.081368551
-0.31356964 -0.66203475 0.081459597
-0.31428534 -0.66125685 0.08197391
-0.31376916 -0.66123903 0.081950247
-0.305516 -0.65304399 0.081676431
-0.25099385 -0.65300834 0.081648342
-0.26329744 -0.64552259 0.08100991
-0.26945391 -0.64475167 0.081532374
-0.26218241 -0.64478439 0.08156842
-0.26959518 -0.63733172 0.081206173
-0.29348263 -0.72750008 0.082389086
-0.29158562 -0.72727126 0.082438961
-0.29047844 -0.72703254 0.082533412
-0.28213897 -0.72793645 0.082205094
-0.28145322 -0.72793013 0.082231402
-0.28051668 -0.72794217 0.08222881
-0.27936882 -0.72711819 0.082620278
-0.27848572 -0.72749412 0.082372934
-0.27733347 -0.72784716 0.082106128
-0.27075791 -0.72784668 0.082106285
-0.26962015 -0.72706383 0.082557671
-0.2685481 -0.72710532 0.082599252
-0.26775929 -0.72707486 0.082590647
-0.28910199 -0.72625852 0.082969494
-0.28876129 -0.72625798 0.082965232
-0.2661882 -0.72628218 0.082995906
-0.26450709 -0.72631305 0.08299645
-0.30882198 -0.71445799 0.08224088
-0.24862319 -0.71449786 0.082264632
-0.30751169 -0.71368343 0.08269047
-0.24759002 -0.71365494 0.082655668
-0.23668386 -0.69113123 0.082099423
-0.23323244 -0.69110525 0.082103156
-0.2328161 -0.69110352 0.082092978
-0.23667631 -0.69032413 0.082568802
-0.23556295 -0.69034761 0.0825615
-0.23349679 -0.69030255 0.082542814
-0.23430488 -0.68949962 0.082975924
-0.233806 -0.68949771 0.082975134
-0.3143993 -0.67036909 0.082135215
-0.31439617 -0.66960245 0.082660034
-0.23726806 -0.66958892 0.082648069
-0.31420687 -0.6597352 0.082992256
-0.25134239 -0.65222597 0.0821473
-0.25094816 -0.65223646 0.082165048
-0.24921004 -0.65217608 0.08206816
-0.26830035 -0.64400339 0.082082167
-0.28559405 -0.64327049 0.082626775
-0.27548769 -0.64320332 0.082565762
-0.27475315 -0.64318502 0.082561754
-0.26877397 -0.64398563 0.082067482
-0.2922869 -0.72628433 0.083015695
-0.29195398 -0.72628534 0.083010256
-0.26673165 -0.72627634 0.083001815
-0.29826328 -0.72547227 0.083399571
-0.28903899 -0.72543329 0.083376698
-0.29752195 -0.72463584 0.08379589
-0.3137103 -0.71230215 0.083353467
-0.31267184 -0.71205127 0.083500229
-0.31083867 -0.71208471 0.08357732
-0.30584964 -0.71290636 0.083130553
-0.2464503 -0.7124396 0.083288491
-0.31171474 -0.71127474 0.083961301
-0.24528211 -0.7112478 0.083942801
-0.24480176 -0.71124387 0.083946966
-0.23666199 -0.68952715 0.083005175
-0.23554008 -0.68954152 0.083011188
-0.23478255 -0.68952513 0.083004721
-0.31433031 -0.66884834 0.083169915
-0.30608678 -0.65892935 0.083485745
-0.30537307 -0.65896267 0.083505675
