# .PCD v0.7 - Point Cloud Data file format
VERSION 0.7
FIELDS x y z
SIZE 4 4 4
TYPE F F F
COUNT 1 1 1
WIDTH 1394
HEIGHT 1
VIEWPOINT 0 0 0 1 0 0 0
POINTS 1394
DATA ascii
-0.38949907 0.0013606371 -0.0024023147
-0.38945347 -0.030251095 -0.0020397957
-0.38950023 -0.059207205 -0.0022023676
-0.38955224 -0.086320378 -0.0023960627
-0.38963947 -0.11168397 -0.0027906073
-0.39077652 -0.14300588 -0.0090889689
-0.39080679 -0.16577241 -0.0091627445
-0.39065593 -0.18814717 -0.0082106553
-0.39078012 -0.2085854 -0.0088184373
-0.39059746 -0.22919703 -0.0076873023
-0.3905718 -0.24853706 -0.0074469512
-0.39040577 -0.2675721 -0.006411334
-0.39042518 -0.28552037 -0.0064273532
-0.39048374 -0.30288807 -0.0066656535
-0.39042506 -0.32005563 -0.0062397723
-0.39025161 -0.33699739 -0.0051637939
-0.39030325 -0.3532044 -0.0053638862
-0.3906984 -0.37667516 -0.0074644438
-0.39066863 -0.39244112 -0.0072036246
-0.39088571 -0.40784064 -0.0083416309
-0.39066234 -0.42341089 -0.0069840164
-0.39069051 -0.43871427 -0.0070517738
-0.39079937 -0.45395827 -0.0075769909
-0.39081573 -0.46921164 -0.0075779897
-0.39091316 -0.48450801 -0.0080381855
-0.39079782 -0.50747287 -0.0072473628
-0.39100599 -0.52309924 -0.0083350055
-0.39111644 -0.53885812 -0.0088688312
-0.39129779 -0.55493689 -0.009804341
-0.39120811 -0.57908839 -0.0091581363
-0.39113024 -0.59549081 -0.008624848
-0.39127424 -0.61264807 -0.0093479902
-0.39162627 -0.63073391 -0.011249331
-0.39169019 -0.64874434 -0.011518401
-0.3917852 -0.66739917 -0.011963025
-0.39221051 -0.68767107 -0.014278209
-0.39172915 -0.716084 -0.011410492
-0.39177716 -0.73714197 -0.011587514
-0.392382 -0.76131099 -0.014917161
-0.39151853 -0.79258233 -0.0098829726
-0.39177817 -0.81840849 -0.011256088
-0.39207733 -0.84603429 -0.012851864
-0.39225888 -0.87487453 -0.013780489
-0.39279613 -0.90776753 -0.016721861
-0.39168182 -0.94983 -0.01025985
-0.56408167 -2.429817 -0.98577046
-0.56553656 -2.5937619 -0.99382347
-0.56630343 -2.7698631 -0.9979713
-0.56591809 -2.9556293 -0.99558508
-0.56961519 -3.2092063 -1.0162838
-0.57166284 -3.480521 -1.0276265
-0.56340516 -3.817637 -0.98050344
-0.56469774 -4.1911287 -0.98750407
-0.56457031 -4.6160836 -0.98642689
-0.49580595 -10.263525 -0.59273213
-0.43680114 -10.338436 -0.25833926
-0.37932137 -10.759315 0.06763231
-0.31682625 -10.775633 0.42175612
-0.22310045 -10.751573 0.9528113
-0.15830822 -10.887911 1.3200191
-0.094907597 -10.859697 1.6789669
-0.027435802 -10.973796 2.0612779
-0.019688791 -4.9047375 2.1017976
0.15874776 -6.0650229 3.1133845
0.18283756 -5.862062 3.2497795
0.19246566 -5.5308061 3.3041835
0.17726688 -5.0049419 3.2178469
0.19472247 -4.8193793 3.3166785
0.18644534 -4.4415054 3.2696402
0.19737016 -4.1098781 3.3314319
0.16756278 -3.6626587 3.1624048
0.20363081 -3.6682105 3.3667796
0.19402081 -3.3964419 3.3122613
0.1873711 -3.1626565 3.2745345
0.18574685 -2.9713662 3.2652991
0.18392107 -2.7910526 3.2549298
0.192617 -2.58796 3.3041852
0.16587435 -2.3318644 3.1526396
0.19682011 -2.3055294 3.3279891
0.18857735 -2.1379337 3.2812846
0.18263116 -1.9872419 3.2475991
0.17861404 -1.8498079 3.2248487
0.17641005 -1.7232125 3.2123759
0.1768215 -1.5502834 3.2147348
0.17539707 -1.4353666 3.2066865
0.17484997 -1.3252896 3.2036116
0.17525208 -1.2192192 3.2059164
0.16819552 -1.1050444 3.1659694
0.13511105 -0.96638829 2.9785774
0.16021213 -0.89585108 3.1208096
0.17594795 -0.75939637 3.2100043
0.17137837 -0.65798986 3.1841559
0.16149375 -0.55783629 3.1282024
0.16369139 -0.46189731 3.1406922
0.16096061 -0.36606038 3.1252661
0.15938845 -0.27061987 3.1164045
-0.25818244 -0.39679331 0.75139844
-0.2598106 -0.38675871 0.74225295
0.15182154 0.73677891 3.0740383
0.1483179 0.8414067 3.0542486
0.14564498 0.95077193 3.0391645
0.14265576 1.0621349 3.0222902
0.14314699 1.1893643 3.0251279
0.14393857 1.32364 3.0296674
0.14547551 1.4678365 3.0384281
0.14118768 1.6690204 3.0142303
0.10906941 1.6651018 2.8323939
0.083174683 1.6810107 2.6858063
0.054546118 1.6715277 2.5237391
0.030570332 1.6781398 2.3880239
-0.014128453 1.538201 2.1349556
-0.009168651 1.7204452 2.1631088
-0.034332823 1.6913531 2.0206704
-0.061431628 1.7128106 1.8673126
-0.080510058 1.7101055 1.7593418
-0.097411975 1.7206466 1.663698
-0.26006463 0.23528607 0.74282414
-0.26522601 0.23423938 0.71367425
-0.2106057 1.5322101 1.0231823
-0.22336997 1.5397187 0.95097721
-0.23625216 1.5406566 0.87810528
-0.2484338 1.5565568 0.80920053
-0.26073784 1.5690236 0.73960328
-0.27351314 1.5601583 0.66733855
-0.28583911 1.5665994 0.59761816
-0.30438057 1.5701158 0.49274147
-0.31673339 1.5633594 0.42287058
-0.32900736 1.5571334 0.35344654
-0.34141177 1.565419 0.28328374
-0.35398602 1.5741596 0.21215943
-0.36659938 1.5763499 0.14081419
-0.3793447 1.5779196 0.068721831
-0.39815646 1.5641049 -0.037681732
-0.41118091 1.5629746 -0.11135413
-0.42495057 1.5715027 -0.18924665
-0.43876705 1.5741051 -0.26740396
-0.45268261 1.5726798 -0.34612229
-0.46706712 1.5727285 -0.42749608
-0.42025885 0.81266421 -0.16233197
-0.51633048 1.5242243 -0.70617396
-0.39219514 0.20428851 -0.003075884
-0.39241531 0.15766275 -0.0042410209
-0.39237505 0.11340112 -0.0039314888
-0.39255053 0.074614003 -0.0048438413
-0.39292136 0.040264975 -0.0068627535
-0.39225918 0.0020607805 -0.0030318727
-0.39245969 -0.028161271 -0.0040866714
-0.3926425 -0.056510944 -0.0050410754
-0.39270714 -0.083728276 -0.0053266878
-0.39280659 -0.10919912 -0.0058095781
-0.39269161 -0.13423149 -0.0050781397
-0.39265254 -0.15762371 -0.0047767856
-0.39371496 -0.18659125 -0.010673287
-0.39354452 -0.20811972 -0.0096284002
-0.39336175 -0.22876221 -0.0085136862
-0.39317974 -0.2485721 -0.0074036224
-0.3931697 -0.26720068 -0.0072673378
-0.3930276 -0.28555605 -0.0063834703
-0.3930836 -0.3029241 -0.0066214544
-0.39318764 -0.31978294 -0.0071317637
-0.39318043 -0.3364827 -0.0070121391
-0.39306399 -0.35299948 -0.0062741251
-0.39328688 -0.3767128 -0.0074185659
-0.39325455 -0.39247909 -0.0071573211
-0.39346921 -0.40787902 -0.0082948636
-0.3934164 -0.42336234 -0.0079178177
-0.39326876 -0.43875328 -0.0070040575
-0.3933751 -0.45399767 -0.0075287507
-0.39338884 -0.46925136 -0.0075292103
-0.39365727 -0.48460042 -0.0089722825
-0.39353713 -0.50761795 -0.0081764981
-0.39356965 -0.52314025 -0.0082841273
-0.39384851 -0.53907305 -0.009787106
-0.39385575 -0.55497867 -0.0097520901
-0.39409974 -0.57145911 -0.011058323
-0.3942357 -0.58814436 -0.011752901
-0.39382127 -0.61269104 -0.0092930868
-0.39400762 -0.63041896 -0.010274121
-0.39407036 -0.64839745 -0.01055519
-0.39432177 -0.66744334 -0.011905394
-0.39474326 -0.68771571 -0.014219526
-0.39425594 -0.71612906 -0.011350332
-0.39415222 -0.7366575 -0.010691082
-0.39461157 -0.76023865 -0.013221669
-0.39459392 -0.78314847 -0.013051177
-0.39414874 -0.81782579 -0.010425046
-0.39444613 -0.84542531 -0.012041298
-0.39449862 -0.87355804 -0.012271076
-0.39491469 -0.90569437 -0.014562046
-0.39550477 -0.94139957 -0.017840277
-0.39440253 -0.98713863 -0.011500968
-0.57111627 -2.3958974 -1.0127141
-0.5720908 -2.55126 -1.018232
-0.56673414 -2.7538793 -0.98788661
-0.56788361 -2.9540272 -0.99442095
-0.56925356 -3.1828511 -1.0022199
-0.57186174 -3.459085 -1.0170569
-0.57436681 -3.7777777 -1.031334
-0.56469566 -4.1632566 -0.976668
-0.56374031 -4.5727262 -0.97140568
-0.43983161 -10.554985 -0.27265546
-0.37925109 -10.6994 0.070321403
-0.31708047 -10.685647 0.42238852
-0.25503024 -10.679426 0.77376789
-0.15983397 -10.796187 1.3127701
-0.12776703 -10.818618 1.4943647
-0.02899966 -10.921299 2.0537732
0.031182323 -10.765828 2.3947747
0.074722677 -8.8758764 2.6426477
0.0063819615 -4.8534217 2.2583439
0.17102909 -6.2238898 3.190079
0.18303812 -5.8777266 3.258374
0.18998949 -5.5193181 3.2980335
0.18862107 -5.1226034 3.2905984
0.19886123 -4.8672414 3.3488202
0.18741073 -4.4615154 3.2842934
0.18831828 -4.1882415 3.2896729
0.15635426 -3.7128272 3.1090159
0.20198771 -3.6687334 3.3675847
0.19674961 -3.4224048 3.3381431
0.188804 -3.1801951 3.2933657
0.18501143 -2.9770815 3.2720838
0.18412806 -2.8009372 3.2672606
0.18507388 -2.6427336 3.2727849
0.1602176 -2.3883958 3.1322479
0.18618509 -2.3456674 3.2794013
0.18738952 -2.1407647 3.2864525
0.18204343 -1.9917736 3.2563384
0.17818178 -1.8544722 3.2346232
0.17550385 -1.726313 3.2196057
0.1738241 -1.6054446 3.2102358
0.17079999 -1.4857804 3.1932521
0.17459294 -1.3286587 3.2149284
0.17365207 -1.2201184 3.2097337
0.15776679 -1.0941137 3.1199219
0.15668359 -0.99299043 3.1139162
0.13554837 -0.87538677 2.9943707
0.17401151 -0.80960315 3.2122812
0.1695644 -0.70739388 3.1872249
0.16570044 -0.60775501 3.1654687
0.16024774 -0.46179163 3.1347752
0.16045728 -0.36557603 3.1360817
0.15765318 -0.27024397 3.1203222
0.15618068 -0.17476182 3.1121023
-0.26236701 -0.38674384 0.74226403
-0.26227939 -0.36224619 0.74293298
0.15204705 0.68771666 3.0896823
0.14870526 0.79209322 3.0708721
0.1418453 0.94706851 3.0321941
0.13977268 1.061183 3.0205717
0.13849026 1.181991 3.0134246
0.13960588 1.3169714 3.0198603
0.14103338 1.4602338 3.0280633
0.1442799 1.619724 3.0465703
0.11762854 1.6452398 2.8957369
0.08396773 1.6994466 2.7052569
0.054360509 1.6856885 2.5376732
0.029344689 1.6869321 2.3960934
-0.019056605 1.523122 2.1220448
-0.011606024 1.7220111 2.1643636
-0.035316154 1.7041402 2.0301719
-0.057225171 1.6893432 1.9061797
-0.076325461 1.6886092 1.7980961
-0.099902071 1.7223843 1.6647106
-0.11444829 1.752707 1.5824225
-0.26237744 0.23892356 0.74449575
-0.26728967 0.24161582 0.71675992
-0.2072219 1.5212717 1.0573961
-0.21981774 1.5329434 0.98614788
-0.23887105 1.5416399 0.87836993
-0.25105867 1.5575486 0.809434
-0.26347721 1.5660723 0.73918879
-0.27597928 1.5691046 0.66846919
-0.28838927 1.5735879 0.59827149
-0.3008824 1.5665858 0.52760053
-0.31324348 1.5600686 0.45767739
-0.33167785 1.5601552 0.35340211
-0.34396598 1.5574645 0.28389305
-0.35647276 1.5652385 0.21314776
-0.36910334 1.5704409 0.14170077
-0.38199273 1.5779557 0.068788737
-0.39474368 1.5749307 -0.0033411349
-0.40761763 1.5712053 -0.07616774
-0.42708522 1.5619895 -0.18629518
-0.44135231 1.5732144 -0.26700804
-0.45526081 1.5718063 -0.34569228
-0.46957037 1.570953 -0.42664751
-0.42324695 0.81725025 -0.16437149
-0.49625525 1.5325702 -0.57761019
-0.51809454 1.5156496 -0.70116794
-0.39541993 0.16099139 -0.0064937156
-0.39550322 0.11744734 -0.0068906113
-0.39548317 0.076999456 -0.0067016184
-0.39552525 0.040319916 -0.0068638539
-0.39557427 0.0065051038 -0.0070646824
-0.39530894 -0.026690051 -0.0054850793
-0.39524567 -0.056453034 -0.0050490773
-0.39570406 -0.081700839 -0.0075662392
-0.39540985 -0.10913911 -0.0058217677
-0.39529496 -0.1341705 -0.0050924304
-0.39568347 -0.15584068 -0.0072129285
-0.39546537 -0.17888871 -0.0058984687
-0.39536065 -0.20043141 -0.005225766
-0.39539307 -0.2206046 -0.0053292233
-0.39609772 -0.24762829 -0.0091988612
-0.39532426 -0.25911948 -0.0047788802
-0.39595664 -0.2847378 -0.0082386043
-0.39601764 -0.30216998 -0.0085031614
-0.39579558 -0.31971201 -0.0071647773
-0.39578918 -0.33641073 -0.0070471354
-0.39567357 -0.35292655 -0.0063111293
-0.39579123 -0.36882007 -0.0068957522
-0.39580888 -0.38462183 -0.0069140587
-0.39572781 -0.40031114 -0.0063731601
-0.3958953 -0.41565847 -0.0072395159
-0.39605767 -0.43862215 -0.008035725
-0.39599159 -0.45391792 -0.007579138
-0.39600661 -0.46917063 -0.007581763
-0.39610276 -0.48446628 -0.00804359
-0.39610565 -0.49980378 -0.0079771001
-0.39618742 -0.51528603 -0.0083573777
-0.39634532 -0.53099769 -0.0091684163
-0.39631185 -0.55468422 -0.0088540651
-0.39639032 -0.57088768 -0.0092149619
-0.3966985 -0.58777994 -0.010876544
-0.39689338 -0.60492104 -0.011896263
-0.39648038 -0.62996936 -0.0094316592
-0.39654765 -0.64791441 -0.0097284373
-0.39680398 -0.66692722 -0.011095574
-0.39692089 -0.68625921 -0.011672893
-0.39735115 -0.7073313 -0.014024377
-0.39665404 -0.73603058 -0.0099495985
-0.39712 -0.75958109 -0.012502544
-0.39724988 -0.78304899 -0.013152155
-0.39732319 -0.80753142 -0.013481376
-0.39772367 -0.83498818 -0.015662491
-0.39665917 -0.87072754 -0.0095050437
-0.39721996 -0.90346897 -0.012592804
-0.39770991 -0.93836874 -0.015278864
-0.3980943 -0.97548223 -0.017366638
-0.57283384 -2.3868678 -1.0064906
-0.57428479 -2.5452774 -1.0145953
-0.57410455 -2.7064741 -1.0134616
-0.56927276 -2.9381878 -0.98593032
-0.57142705 -3.1737666 -0.99800164
-0.57230109 -3.4282682 -1.0028185
-0.57369763 -3.7290981 -1.010585
-0.57687694 -4.107028 -1.0284314
-0.56326795 -4.5110087 -0.95115566
-0.49730486 -10.093355 -0.57590604
-0.44072735 -10.283483 -0.25537139
-0.38344717 -10.689293 0.069187738
-0.32135963 -10.71559 0.42089373
-0.25854841 -10.80935 0.776712
-0.19508244 -10.850356 1.1362274
-0.13287398 -10.778961 1.4887137
-0.065673903 -10.928005 1.8693485
0.026474215 -10.7553 2.3912196
0.070080638 -8.8626556 2.637877
0.0058232378 -4.8913956 2.2734745
0.1601257 -6.3983989 3.1476464
0.16634817 -5.9649429 3.1828759
0.15824188 -5.436038 3.1369479
0.20450063 -5.3002334 3.3989999
0.20525318 -4.9505267 3.4032776
0.18792781 -4.4918113 3.3051641
0.18734579 -4.2051458 3.3018997
0.15533029 -3.7277083 3.1205986
0.18438824 -3.6910512 3.2852292
0.18676218 -3.4869108 3.298723
0.18878986 -3.1968994 3.3102856
0.18525583 -2.9938118 3.2903256
0.18300928 -2.8100698 3.2776608
0.18486299 -2.6550887 3.2882211
0.17649207 -2.4661407 3.2408752
0.18090531 -2.3372586 3.2659357
0.18302815 -2.2044399 3.2780256
0.18067881 -1.9967631 3.2648242
0.17592478 -1.8565124 3.2379711
0.17486167 -1.7322891 3.2320228
0.17081174 -1.6053439 3.2091603
0.16959716 -1.4894696 3.2023563
0.16907334 -1.3782738 3.1994653
0.16897568 -1.2704805 3.1989884
0.1524826 -1.1413358 3.1056626
0.16277826 -1.0031593 3.1640854
0.13157849 -0.87451291 2.9874773
0.17193764 -0.81033123 3.2161131
0.16715686 -0.70780134 3.1891189
0.16260876 -0.6078763 3.1634429
0.15901466 -0.51023167 3.1431699
0.15656875 -0.41402969 3.1293998
0.15476537 -0.27052003 3.1193092
0.15330119 -0.17506751 3.1110992
-0.26523945 -0.3869597 0.74126381
-0.26574263 -0.37571496 0.73850495
-0.264817 -0.36194476 0.7438373
0.15132226 0.69224167 3.1005912
0.1454353 0.79024678 3.0673373
0.14420182 0.90272743 3.0604346
0.14064278 1.0113734 3.0403628
0.13484065 1.1781448 3.0076299
0.13483332 1.3084513 3.0076694
0.13674285 1.4530516 3.0185633
0.14045291 1.6140569 3.0396521
0.12356209 1.6862578 2.9440868
0.08943034 1.6665939 2.750895
0.058982663 1.6519598 2.5785654
0.027339734 1.6905144 2.399509
-0.021096492 1.5268376 2.1253233
-0.014425505 1.7204003 2.163177
-0.036350016 1.7160709 2.0391123
-0.059433568 1.6925796 1.9084855
-0.078367099 1.6936078 1.801358
-0.095553041 1.7034427 1.704126
-0.11027987 1.7326703 1.6208183
-0.26303241 0.23222741 0.75605065
-0.26999551 0.24162918 0.71675551
-0.27418634 0.25348908 0.69311374
-0.2095384 1.5269816 1.0592421
-0.22250676 1.5319883 0.98589349
-0.23539793 1.5342389 0.91298205
-0.24750681 1.5523549 0.84449917
-0.26612535 1.5660859 0.73919779
-0.27852365 1.5740824 0.66907632
-0.2910268 1.5746001 0.59836143
-0.30354705 1.5656042 0.52755034
-0.31586802 1.5710845 0.45786643
-0.32818791 1.5590941 0.38818973
-0.34049076 1.5596359 0.31860831
-0.35926583 1.5722185 0.21241778
-0.3715297 1.5605558 0.14305753
-0.38460216 1.5760033 0.069115169
-0.39723504 1.5700558 -0.0023358914
-0.41020769 1.5692798 -0.075712107
-0.42354894 1.5715266 -0.15117621
-0.4373993 1.5775311 -0.22952434
-0.45787883 1.5708816 -0.34536949
-0.4719806 1.5672771 -0.42514151
-0.42333421 0.84391207 -0.14953236
-0.49988866 1.5432634 -0.58301151
-0.5148288 1.5361376 -0.66753256
-0.39694935 0.17430946 0.00040714114
-0.39689636 0.12821046 0.00080209534
-0.39712864 0.088468216 -0.0004190703
-0.39863485 0.04258275 -0.008809261
-0.39822593 0.0057710884 -0.0063994387
-0.39845067 -0.024572359 -0.0075789145
-0.3984026 -0.05441184 -0.0072133983
-0.39874423 -0.080394924 -0.0090552131
-0.39846018 -0.10788782 -0.0073536001
-0.39835504 -0.13297541 -0.0066652917
-0.39846787 -0.15585065 -0.0072117276
-0.39825186 -0.17889984 -0.0058958777
-0.39844719 -0.19941352 -0.0069099087
-0.39848757 -0.21964839 -0.0070463615
-0.39837664 -0.23956759 -0.0063259099
-0.39827585 -0.25871274 -0.0056630373
-0.39819679 -0.27714497 -0.0051232195
-0.39815003 -0.29492947 -0.0047665085
-0.39859539 -0.31973234 -0.0071512191
-0.39875764 -0.33615658 -0.0079785818
-0.39864516 -0.3527073 -0.0072498098
-0.39859557 -0.36884403 -0.0068772901
-0.39861465 -0.38464701 -0.0068938942
-0.39870718 -0.40019828 -0.0073264372
-0.39870378 -0.41568613 -0.0072158338
-0.39860538 -0.4310911 -0.0065670023
-0.39880323 -0.45394865 -0.0075508216
-0.39881948 -0.46920258 -0.0075515117
-0.39891678 -0.48449948 -0.008011356
-0.39892077 -0.4998382 -0.0079428293
-0.39917618 -0.5154435 -0.0092984224
-0.39899078 -0.53087831 -0.0081572048
-0.39913052 -0.55472296 -0.0088122031
-0.39920989 -0.57092768 -0.0091707818
-0.39918458 -0.58727014 -0.0089366678
-0.39954913 -0.60465479 -0.010910599
-0.39946735 -0.62164587 -0.010356713
-0.39953068 -0.64835066 -0.010579314
-0.39915478 -0.66570646 -0.0083595598
-0.39958999 -0.68585348 -0.010734035
-0.40017548 -0.70738095 -0.013959873
-0.40029249 -0.72837269 -0.014532149
-0.39980111 -0.75907451 -0.011613465
-0.39965326 -0.78133965 -0.010685754
-0.39973757 -0.8057397 -0.011073255
-0.40014929 -0.83311653 -0.013315109
-0.40044817 -0.86172581 -0.014918134
-0.39955288 -0.90070009 -0.0097123757
-0.40005943 -0.93550432 -0.012492126
-0.4004609 -0.97252589 -0.014676558
-0.5739761 -2.3750682 -0.997347
-0.57459384 -2.5258021 -1.0007638
-0.57528239 -2.6932425 -1.004583
-0.57834798 -2.9027531 -1.0218678
-0.57058185 -3.135993 -0.97775865
-0.57228184 -3.397007 -0.98731154
-0.57271981 -3.6827083 -0.98971814
-0.57374895 -4.0256429 -0.99547619
-0.57315439 -4.4082584 -0.9920401
-0.57539493 -4.9220052 -1.0046692
-0.56148314 -5.5713034 -0.9257741
-0.52467132 -9.8857946 -0.71715057
-0.47353026 -10.324904 -0.4274199
-0.38550124 -10.670379 0.071297795
-0.32353398 -10.666614 0.42237577
-0.26035875 -10.869282 0.7802856
-0.19798939 -10.790416 1.1336479
-0.13259481 -10.911093 1.5039393
-0.069838442 -10.845613 1.8595389
-0.0066776299 -10.799199 2.2174296
0.0013918346 -4.8672023 2.2641847
0.15655951 -6.3862238 3.1431692
0.168911 -6.0233526 3.2132535
0.1684546 -5.5694671 3.2107878
0.19232228 -5.4024024 3.3460951
0.18475585 -4.966186 3.3033481
0.19017258 -4.5310407 3.3341911
0.18756063 -4.2267981 3.3194993
0.1523041 -3.7257917 3.1198881
0.17889747 -3.6735499 3.2706258
0.18550274 -3.4958522 3.3081386
0.18070078 -3.264621 3.2810321
0.18239672 -2.9934042 3.2907789
0.18068069 -2.8121819 3.2811494
0.18295653 -2.6588953 3.2941315
0.18158071 -2.4978631 3.286427
0.17334612 -2.319428 3.2398674
0.18042508 -2.2050669 3.2800555
0.1738036 -2.0489273 3.2426319
0.17072442 -1.9117043 3.2252738
0.17289488 -1.7343351 3.2376952
0.1698225 -1.6094487 3.2203736
0.16634321 -1.4883966 3.2007458
0.16696905 -1.3794309 3.2043726
0.16704382 -1.2717468 3.2048771
0.16692278 -1.1658816 3.2042716
0.1710524 -1.0670843 3.2277453
0.12613355 -0.91833562 2.9733593
0.16985284 -0.8105529 3.2211452
0.16490155 -0.70776677 3.1931732
0.16000772 -0.607602 3.1655259
0.15641376 -0.50989103 3.1452417
0.1539674 -0.41362172 3.1314578
0.15215673 -0.31802168 3.1212742
0.15080932 -0.2225616 3.1137145
-0.2676309 -0.39237911 0.7435196
-0.26792997 -0.38081154 0.74190044
-0.26776463 -0.3622067 0.74294925
0.14965224 0.69573092 3.1077785
0.1421731 0.7897597 3.0654738
0.13877769 0.89582038 3.0463016
0.13724317 1.0102724 3.0376694
0.13591899 1.1293446 3.0302274
0.13530684 1.2556405 3.0268173
0.13155489 1.4439958 3.0056465
0.13614504 1.6082516 3.0317004
0.12396286 1.7026651 2.9627442
0.088973753 1.6796176 2.7645979
0.058588456 1.6661388 2.5925312
0.033117969 1.668366 2.4483051
-0.0079519069 1.5604975 2.2157216
-0.01282334 1.6748993 2.1881752
-0.038876619 1.7186769 2.0406733
-0.061761945 1.6968673 1.9110943
-0.080330126 1.7013332 1.8059682
-0.098088682 1.7061779 1.7054282
-0.11256839 1.7380704 1.6234585
-0.26521847 0.23855339 0.75904012
-0.27050492 0.23725501 0.729164
-0.212161 1.5289593 1.059647
-0.22493963 1.5378217 0.98731679
-0.23798268 1.5372059 0.91349018
-0.2501362 1.5543582 0.84469879
-0.26251319 1.5651295 0.77464217
-0.27536619 1.5555701 0.70189327
-0.29371056 1.5736184 0.59805942
-0.30617869 1.5686053 0.52748895
-0.31853288 1.5660814 0.45756307
-0.33079508 1.5480828 0.38816214
-0.34313038 1.5606124 0.31833878
-0.35574582 1.5785929 0.24692613
-0.36824211 1.5770742 0.17619349
-0.38719866 1.5759491 0.068891622
-0.39978576 1.5690144 -0.0023548647
-0.41270059 1.5672666 -0.075460225
-0.42602 1.5695219 -0.15085925
-0.43974105 1.5736349 -0.22853486
-0.45327723 1.5690473 -0.30516088
-0.46845797 1.5837365 -0.3911109
-0.42653039 0.85205305 -0.15326741
-0.50184697 1.5368903 -0.58011001
-0.51724434 1.5351163 -0.66728359
-0.46483049 0.87811989 -0.37003818
-0.39990321 0.17756578 -0.0018360226
-0.40007198 0.13300505 -0.0027055454
-0.40000987 0.090772904 -0.0022674114
-0.3999781 0.052392967 -0.0020020048
-0.40004122 0.017705344 -0.0022753011
-0.40001994 -0.014913241 -0.0020708919
-0.39994788 -0.045523107 -0.0015790549
-0.40155265 -0.079141662 -0.010550307
-0.40127417 -0.10668752 -0.008889514
-0.40159044 -0.13002443 -0.010599966
-0.40129164 -0.15476124 -0.0088245636
-0.40108016 -0.17786787 -0.0075443625
-0.40127942 -0.19844063 -0.0085923476
-0.40132347 -0.21873567 -0.008760795
-0.40106112 -0.2391701 -0.0071928175
-0.40096071 -0.25834626 -0.0065427832
-0.4008818 -0.27681002 -0.006014735
-0.40099728 -0.29426822 -0.0065882769
-0.40099433 -0.31153935 -0.0064908355
-0.40144145 -0.33593607 -0.0089034913
-0.40081093 -0.34515807 -0.0052900943
-0.40110788 -0.36889842 -0.0068518398
-0.4012959 -0.38452747 -0.0078364853
-0.40121505 -0.40025213 -0.0072974549
-0.40120947 -0.41573969 -0.0071851094
-0.40128231 -0.43107456 -0.0075169196
-0.40143549 -0.44634217 -0.008303877
-0.40132222 -0.46162835 -0.0075808689
-0.40123937 -0.48449945 -0.0069895554
-0.40133891 -0.49218211 -0.0075128647
-0.40149575 -0.51537347 -0.0082791867
-0.40148097 -0.5309298 -0.0081136441
-0.40171099 -0.54692119 -0.0093350029
-0.4018389 -0.56308275 -0.0099774329
-0.40166825 -0.58732074 -0.0088868281
-0.40170032 -0.60408717 -0.0089856973
-0.40211087 -0.62203813 -0.011228431
-0.40207261 -0.63956898 -0.010928133
-0.40223145 -0.65808493 -0.011744149
-0.40175501 -0.68499464 -0.0089183142
-0.40219268 -0.70597571 -0.011312674
-0.40261549 -0.72790664 -0.013622299
-0.40257174 -0.7492016 -0.013288192
-0.40278879 -0.77251089 -0.014430858
-0.40323102 -0.79804742 -0.016848188
-0.40235066 -0.83187848 -0.011728553
-0.40265691 -0.86043501 -0.013373377
-0.40308234 -0.89162707 -0.015691815
-0.40205172 -0.93262523 -0.0097159706
-0.40247136 -0.96955335 -0.011998165
-0.57479322 -2.3624482 -0.98760599
-0.57559937 -2.5136728 -0.99201369
-0.57656455 -2.6824977 -0.99731201
-0.57756156 -2.8711965 -1.0027786
-0.57875013 -3.0855596 -1.0093153
-0.58054805 -3.3360889 -1.0192833
-0.57283568 -3.6508873 -0.97527814
-0.57330626 -3.9822183 -0.9776746
-0.5740822 -4.3811603 -0.9817602
-0.57561833 -4.8784099 -0.99009508
-0.57633734 -5.4794903 -0.99373597
-0.52931672 -9.9544001 -0.72421664
-0.47470626 -10.189508 -0.41449124
-0.42031536 -10.721565 -0.1058286
-0.35808662 -10.744053 0.24694975
-0.26353532 -10.91021 0.78304863
-0.20216134 -10.730476 1.1308649
-0.13886616 -10.758806 1.4895285
-0.072080776 -10.896945 1.867999
-0.0089310966 -10.83938 2.2257516
-0.0036357734 -4.8375664 2.2523975
0.15985303 -6.4639025 3.1796613
0.17089705 -6.0792208 3.2420685
0.17545474 -5.67241 3.2677193
0.18967123 -5.404707 3.3481781
0.18310951 -4.9768305 3.3108284
0.17850412 -4.6112566 3.2846024
0.19138484 -4.2754045 3.3575077
0.16171908 -3.8090594 3.1892493
0.17962922 -3.6956084 3.2907438
0.18614031 -3.515759 3.3276207
0.17922913 -3.2713404 3.2884161
0.1753004 -3.0610237 3.2661312
0.17371958 -2.8764074 3.2571657
0.18250027 -2.6683116 3.3069468
0.18375446 -2.5171561 3.314069
0.16763434 -2.3077922 3.2227173
0.17986283 -2.2120793 3.2920563
0.17192665 -2.0511606 3.2471058
0.16979827 -1.9165127 3.2350795
0.16681474 -1.7851171 3.2182114
0.16607809 -1.6066532 3.2141075
0.16585417 -1.4926744 3.2128913
0.16155058 -1.3740146 3.1885564
0.16493779 -1.2724143 3.2078145
0.16566591 -1.1676617 3.2120051
0.16810586 -1.0665168 3.2259011
0.12525813 -0.9199385 2.9831269
0.16732432 -0.86092597 3.2216165
0.1621224 -0.70754516 3.1922507
0.15844302 -0.60778701 3.1714792
0.15398075 -0.509785 3.1462736
0.15205358 -0.41343331 3.1354389
0.14937159 -0.31796035 3.1203291
0.14819397 -0.22245254 3.1137488
-0.26987523 -0.3921729 0.74448794
-0.27000755 -0.38033035 0.74381578
-0.26988083 -0.36790007 0.74461251
0.13916598 0.78897935 3.0637035
0.13592021 0.89542651 3.0454385
0.13376819 1.0079038 3.0333781
0.13304093 1.1288809 3.0293994
0.13197932 1.2535089 3.0235305
0.13351221 1.3939581 3.032377
0.13212137 1.6027473 3.0247386
0.12382203 1.7155524 2.9778564
0.08979778 1.6983771 2.7851148
0.057556506 1.6758808 2.6024754
0.030824641 1.6712539 2.4510698
0.00045159113 1.6318446 2.2790089
-0.016149784 1.6710694 2.1850419
-0.033785209 1.6991236 2.0852094
-0.063232102 1.7075069 1.9184747
-0.081391521 1.7164159 1.8156621
-0.099956922 1.714733 1.7105423
-0.11567137 1.7345524 1.6215937
-0.26787123 0.23672996 0.75818455
-0.27258143 0.24270949 0.73157567
-0.19504449 1.520362 1.1720039
-0.21472621 1.5317824 1.060612
-0.22771484 1.5368292 0.98709995
-0.24058431 1.5400845 0.91426188
-0.25283077 1.5553033 0.84496349
-0.26524594 1.565096 0.77470487
-0.27780893 1.5674195 0.70360291
-0.29039595 1.5632057 0.6323595
-0.30891341 1.5685714 0.52756035
-0.32126185 1.5680474 0.45767123
-0.33350489 1.5410509 0.3883577
-0.34593895 1.5685692 0.31800506
-0.35846889 1.5775652 0.24709369
-0.37093797 1.5750591 0.17651759
-0.38319525 1.5621274 0.10713259
-0.3964138 1.5781751 0.032323521
-0.41548046 1.5682123 -0.075606316
-0.42861405 1.5666157 -0.14995036
-0.44231841 1.5707619 -0.22752476
-0.45672995 1.5803064 -0.30910301
-0.47087193 1.5790864 -0.38916397
-0.48373729 1.5563773 -0.46200991
-0.4029699 0.18251497 -0.0051224185
-0.40295514 0.13621627 -0.0050061936
-0.402904 0.093900152 -0.004680736
-0.40299511 0.056198563 -0.0051578498
-0.40260842 0.018423941 -0.0029277639
-0.4028264 -0.012779643 -0.0041190824
-0.40276068 -0.043463431 -0.0037025816
-0.40280569 -0.071544699 -0.0039115194
-0.40300438 -0.097187363 -0.0049898513
-0.40298641 -0.12241853 -0.004840177
-0.40384671 -0.15421107 -0.0096393712
-0.40289858 -0.16919029 -0.00424464
-0.40286693 -0.19085954 -0.0040153679
-0.4038727 -0.21827388 -0.0096367886
-0.40376303 -0.23828508 -0.0089646252
-0.40366301 -0.25752386 -0.0083469078
-0.4034242 -0.27644205 -0.0069425609
-0.40337491 -0.29429087 -0.0066117425
-0.40353158 -0.31123626 -0.0074476642
-0.40340978 -0.32832736 -0.0067058406
-0.40334222 -0.34492156 -0.0062714871
-0.40333608 -0.36109591 -0.0061850501
-0.40364736 -0.38454932 -0.0078723133
-0.40373373 -0.40013465 -0.0083108321
-0.40355125 -0.41576129 -0.0072256951
-0.40344581 -0.43116581 -0.0065775672
-0.4037672 -0.44636345 -0.0083494093
-0.40364885 -0.46164954 -0.0076289452
-0.40361157 -0.4769007 -0.0073683793
-0.40382832 -0.49227276 -0.0085486481
-0.40363118 -0.51527232 -0.0073592248
-0.40378314 -0.53095037 -0.0081740385
-0.40400717 -0.54694152 -0.0093984026
-0.40395978 -0.56287795 -0.0090843104
-0.40431443 -0.5796715 -0.01105159
-0.40439084 -0.59643346 -0.011441918
-0.40405172 -0.62137365 -0.0094556725
-0.40417179 -0.63921386 -0.010096734
-0.40432549 -0.65769744 -0.010929968
-0.40481436 -0.67776734 -0.013666826
-0.40484428 -0.69732511 -0.01380148
-0.40454149 -0.72689521 -0.012034179
-0.40507725 -0.75030923 -0.015045002
-0.40485111 -0.77195555 -0.013734058
-0.40500867 -0.79625988 -0.01460397
-0.40426365 -0.83061111 -0.010342692
-0.40430748 -0.8577764 -0.010575072
-0.40498504 -0.89025521 -0.014411092
-0.40559858 -0.92490572 -0.017889405
-0.5812456 -2.3315487 -1.0162413
-0.58206862 -2.4792867 -1.0211565
-0.57600349 -2.6656251 -0.98708332
-0.5765717 -2.8496661 -0.99063766
-0.57854909 -3.0714619 -1.0022633
-0.58023947 -3.3208356 -1.0123248
-0.58152765 -3.6028571 -1.0201806
-0.58271903 -3.9300554 -1.0275899
-0.57344651 -4.3622589 -0.97589874
-0.57593477 -4.8783002 -0.99108279
-0.57228756 -5.3967113 -0.97150302
-0.52532452 -9.8610191 -0.71505445
-0.47295666 -10.216364 -0.41900948
-0.41697481 -10.613715 -0.10257781
-0.35546345 -10.665115 0.24596766
-0.29341227 -10.714131 0.59757918
-0.1973457 -10.922188 1.1416421
-0.0053473096 -10.881072 2.2305739
-0.019429719 -4.8427396 2.1652446
0.16951632 -6.0662961 3.234175
0.17878312 -5.7113342 3.2876267
0.18887119 -5.4025822 3.3456271
0.18058099 -4.9613328 3.299705
0.18590547 -4.6796803 3.3306239
0.18049626 -4.3408356 3.3008008
0.16583732 -3.968339 3.2185977
0.17400594 -3.6685276 3.2657166
0.18570817 -3.5219324 3.3324847
0.1822326 -3.2967591 3.313359
0.17409529 -3.0634341 3.2678144
0.17471273 -2.889662 3.2717791
0.17453995 -2.7219453 3.2712474
0.17690562 -2.5737641 3.285064
0.16266213 -2.2967339 3.2050185
0.18029241 -2.2207048 3.3052273
0.17310458 -2.0617177 3.2648892
0.16835019 -1.9186989 3.2383125
0.167376 -1.7926667 3.2331316
0.16037108 -1.6563032 3.1937761
0.16191107 -1.5455421 3.2028143
0.16374619 -1.3827071 3.2136681
0.16280042 -1.2730356 3.2086046
0.16315652 -1.1677619 3.2109113
0.16539034 -1.0664406 3.2238541
0.1228501 -0.9202491 2.9830279
0.16574307 -0.86195379 3.2264063
0.15935597 -0.75722522 3.1904714
0.15525934 -0.65672481 3.1675124
0.14153948 -0.50909752 3.0901172
0.14844379 -0.41384339 3.1295135
0.14712588 -0.31815627 3.1222923
0.145577 -0.22274858 3.1137586
-0.27214897 -0.39202869 0.7454145
-0.27262324 -0.38063458 0.74282521
-0.2723318 -0.36796126 0.74457937
0.028443871 0.45542186 2.4515331
0.13620207 0.84585953 3.0631893
0.12999631 1.0047511 3.0283642
0.12763263 1.1198859 3.0152142
0.12762654 1.2478268 3.0154488
0.12903053 1.3874161 3.0236938
0.13122429 1.5380374 3.0364308
0.12916768 1.6778973 3.0250499
0.095459476 1.6664747 2.8339784
0.056017444 1.6833376 2.6104717
0.029616823 1.6811546 2.4608457
0.0018742215 1.6591859 2.3035812
-0.020685852 1.659435 2.1757336
-0.035039254 1.7108086 2.094491
-0.059112821 1.683784 1.9580214
-0.077541403 1.6921169 1.8536094
-0.10124914 1.7292047 1.7193377
-0.1162869 1.7572002 1.6341782
-0.19739123 1.5259085 1.1742544
-0.21083306 1.5295823 1.0981101
-0.22425677 1.5283948 1.0220617
-0.24314259 1.5429615 0.91509742
-0.25503898 1.5679908 0.84774429
-0.26788133 1.5660576 0.7749908
-0.28063175 1.5604699 0.70275402
-0.29300442 1.5651821 0.63267249
-0.30539724 1.5654002 0.56247115
-0.31776449 1.5601215 0.4924075
-0.33607647 1.5300559 0.38863808
-0.34853831 1.5685769 0.31809527
-0.36102828 1.5755849 0.24735217
-0.37341115 1.5701122 0.17720035
-0.38601124 1.5710366 0.10582539
-0.39880776 1.5732907 0.033338416
-0.41173786 1.5738401 -0.039907772
-0.43110219 1.5656875 -0.14961319
-0.44468364 1.5679449 -0.22654969
-0.45847282 1.5681301 -0.30466625
-0.47259703 1.5680031 -0.38468254
-0.48616484 1.5555094 -0.46155864
-0.50089735 1.5535014 -0.54502523
-0.40563425 0.18420376 -0.0062333257
-0.40573043 0.13867448 -0.0067544417
-0.40558586 0.095507845 -0.0059071044
-0.4057976 0.058528788 -0.0070723067
-0.40565717 0.02217225 -0.0062393444
-0.40541413 -0.012027372 -0.0048214328
-0.4052279 -0.043430101 -0.0037220069
-0.40566096 -0.069503419 -0.0061273128
-0.40547267 -0.097153105 -0.0050110165
-0.4057295 -0.12115248 -0.0064139976
-0.40550852 -0.14597225 -0.0051082722
-0.40565813 -0.1680363 -0.0059003276
-0.4056344 -0.18976359 -0.0057089105
-0.40559217 -0.21061185 -0.0054111346
-0.40623936 -0.23824784 -0.0089884736
-0.40550494 -0.24987787 -0.0047963141
-0.40590435 -0.27640396 -0.0069665285
-0.40618157 -0.29353553 -0.0084743928
-0.4056873 -0.31184849 -0.0056092013
-0.4058964 -0.32828793 -0.0067294776
-0.40616694 -0.34436399 -0.0081973458
-0.40582764 -0.36105561 -0.0062081567
-0.40589154 -0.37688917 -0.0065036854
-0.40623209 -0.40009323 -0.0083329584
-0.40622532 -0.41561487 -0.0082266936
-0.40612352 -0.43105373 -0.0075810314
-0.4061012 -0.44635561 -0.0073857317
-0.40633351 -0.46160629 -0.0086335344
-0.40612599 -0.47685707 -0.007387476
-0.40634635 -0.49222869 -0.0085669672
-0.40632734 -0.51534945 -0.0083537642
-0.40613937 -0.53074878 -0.0072174962
-0.40636867 -0.54670513 -0.0084468285
-0.40717307 -0.56373161 -0.012936663
-0.4068554 -0.57962501 -0.011064514
-0.40677053 -0.59609413 -0.010511892
-0.40676811 -0.62166804 -0.010390898
-0.4065693 -0.6387912 -0.0091920095
-0.40688965 -0.65764898 -0.010936875
-0.40707245 -0.67684174 -0.011901783
-0.40742072 -0.69727582 -0.013805067
-0.40791339 -0.71910065 -0.016527377
-0.40694255 -0.74753577 -0.010914128
-0.40759405 -0.77247822 -0.014537551
-0.40747872 -0.79560679 -0.01381196
-0.40784946 -0.82219964 -0.015843567
-0.40680823 -0.85705489 -0.0098315766
-0.40712589 -0.88742387 -0.011562646
-0.40933597 -0.93132645 -0.024028484
-0.58298063 -2.322063 -1.0088465
-0.58268458 -2.4598415 -1.0071304
-0.58353633 -2.621212 -1.0119295
-0.57895583 -2.8419232 -0.9859013
-0.5801264 -3.0539424 -0.99252093
-0.58184731 -3.3012071 -1.0022705
-0.58444792 -3.5964873 -1.0170211
-0.5838865 -3.8978133 -1.0138421
-0.57333755 -4.302094 -0.9540143
-0.53265923 -9.9453535 -0.72435349
-0.47810385 -10.180456 -0.41496173
-0.42318535 -10.652603 -0.10357511
-0.36126101 -10.626048 0.24767606
-0.29916677 -10.784032 0.59984022
-0.23590843 -10.851353 0.95862967
-0.17331511 -10.806104 1.3136775
-0.010503727 -10.912417 2.2371528
-0.015990607 -4.9492102 2.2081091
0.15373087 -6.1824889 3.1703532
0.17757632 -5.7434988 3.3058074
0.19583869 -5.509532 3.4095066
0.17603852 -4.9569459 3.2974586
0.17924088 -4.6573696 3.3157775
0.1787267 -4.3566189 3.3130219
0.17543858 -4.0629683 3.2945347
0.15716344 -3.6956027 3.1910849
0.19117156 -3.575701 3.3840721
0.1783448 -3.2944949 3.3114924
0.17401536 -3.0806553 3.287077
0.17293021 -2.8972011 3.2810488
0.17189981 -2.7248511 3.2753277
0.17447253 -2.5771201 3.2900295
0.15255104 -2.3405662 3.1658678
0.17570744 -2.285665 3.2972562
0.17166457 -2.0668883 3.2744989
0.16621314 -1.921263 3.2436986
0.1646653 -1.7933544 3.2350266
0.16122608 -1.6655271 3.2156296
0.15961224 -1.5468233 3.2065792
0.15897679 -1.4338323 3.2030737
0.15940563 -1.3256452 3.2056003
0.16150704 -1.1693101 3.2176538
0.16344209 -1.0673366 3.2287154
0.12043855 -0.92046064 2.9850004
0.16352454 -0.86223179 3.2293596
0.15941744 -0.75876158 3.2061608
0.15276076 -0.6566605 3.1685059
0.13679454 -0.55584759 3.0780702
0.14740883 -0.41355848 3.1383674
0.14507729 -0.31787339 3.1252277
0.14303683 -0.22262479 3.1137366
-0.27425373 -0.39132938 0.74829817
-0.27540416 -0.38080135 0.74186277
-0.2752755 -0.36843783 0.74267834
0.13840479 0.63177747 3.0880506
0.025464712 0.45389059 2.4478679
0.13304646 0.84333128 3.0577855
0.13159184 0.95657343 3.0495906
0.12490008 1.1179221 3.0117285
0.12509118 1.2462875 3.0128546
0.12668996 1.3863615 3.021956
0.12893668 1.5369246 3.0347252
0.12800993 1.6817615 3.0295014
0.09518981 1.675088 2.8435028
0.062779889 1.6565981 2.659833
0.02872698 1.6877062 2.4668677
0.006400079 1.7008758 2.3403523
-0.024349386 1.648018 2.1661074
-0.035836168 1.7195477 2.1010287
-0.059463009 1.6967973 1.9671547
-0.079039641 1.6963295 1.8562351
-0.096337005 1.7085043 1.7582328
-0.11173087 1.7337275 1.6710169
-0.16850555 1.7549435 1.349364
-0.19925348 1.5287695 1.1752044
-0.21282618 1.5305876 1.0983231
-0.22630852 1.5284539 1.0219555
-0.23907794 1.5349559 0.94962573
-0.25089607 1.5611827 0.8826797
-0.26992649 1.5661153 0.7748872
-0.28243738 1.5704299 0.704023
-0.29507086 1.5642446 0.63246864
-0.30739775 1.5694479 0.56264645
-0.31978595 1.5651758 0.49248153
-0.3320927 1.555415 0.42278099
-0.34437957 1.5621854 0.35318419
-0.36306444 1.5746468 0.24734369
-0.37550715 1.5721562 0.1768676
-0.3883363 1.5809729 0.10419363
-0.40099439 1.5772772 0.032496493
-0.41379288 1.5739008 -0.039997019
-0.42690304 1.5736523 -0.11425966
-0.44051421 1.578249 -0.19136629
-0.46053144 1.5681944 -0.30475113
-0.47368169 1.5541606 -0.37923312
-0.48787531 1.5510087 -0.45963821
-0.50159264 1.5373911 -0.53733593
-0.51753151 1.5445358 -0.6276437
-0.40673056 0.19679907 0.0016906312
-0.4083547 0.13954321 -0.0073546036
-0.40855023 0.098719679 -0.0083516156
-0.40834749 0.058588415 -0.0070900316
-0.40845191 0.023718134 -0.0075733243
-0.40798858 -0.011967896 -0.0048360722
-0.40843764 -0.0398972 -0.0072772196
-0.40838477 -0.068774849 -0.0068713133
-0.40860918 -0.094522454 -0.0080395499
-0.40834287 -0.12109318 -0.0064240471
-0.40841168 -0.14473738 -0.0067107095
-0.40843242 -0.16741782 -0.0067249835
-0.40856716 -0.18864454 -0.0073865391
-0.40838853 -0.2100527 -0.0062706
-0.40835151 -0.23010294 -0.0059585562
-0.40832156 -0.2493805 -0.0056866328
-0.40815172 -0.268352 -0.0046215453
-0.40816766 -0.28623572 -0.0046103746
-0.40869948 -0.31113845 -0.0074746804
-0.40875247 -0.32793674 -0.007673895
-0.40869534 -0.34456414 -0.0072483141
-0.40886849 -0.36054695 -0.0081290565
-0.4087705 -0.37663969 -0.0074717323
-0.40857086 -0.39256188 -0.0062379008
-0.40913326 -0.40768272 -0.0093256785
-0.40885258 -0.43099529 -0.0075811553
-0.4088361 -0.44629723 -0.0073855501
-0.40887246 -0.47679877 -0.007386751
-0.40892532 -0.49210072 -0.0075835814
-0.40926701 -0.52320033 -0.0093138209
-0.40937853 -0.53899336 -0.0098418463
-0.40930456 -0.57904941 -0.0091600828
-0.40939522 -0.59574383 -0.0095680403
-0.40989187 -0.63105243 -0.012169042
-0.40938529 -0.65677774 -0.0091352146
-0.40957999 -0.67590725 -0.010129147
-0.40994087 -0.69627911 -0.012063682
-0.41104886 -0.72004253 -0.018230878
-0.41048542 -0.73922014 -0.014924773
-0.41020089 -0.79494739 -0.01302341
-0.41112459 -0.82402962 -0.018137701
-0.4106051 -0.84795982 -0.015073908
-0.40964252 -0.88528264 -0.0094359023
-0.41344914 -0.9384613 -0.030868689
-0.58487105 -2.4508328 -1.000773
-0.58592165 -2.6128113 -1.0064346
-0.58797383 -2.8020699 -1.01774
-0.5805735 -3.022346 -0.97534949
-0.5828743 -3.2725835 -0.98798305
-0.58455634 -3.5528724 -0.99706632
-0.58489227 -3.8608801 -0.99847752
-0.58802289 -4.2657938 -1.0156105
-0.57298011 -5.2466202 -0.92876798
-0.56497449 -9.8482122 -0.87687337
-0.48284706 -10.127577 -0.41053322
-0.42889273 -10.65254 -0.10370789
-0.36719975 -10.693997 0.24636817
-0.30469397 -10.874001 0.60124087
-0.24189983 -10.831387 0.95745283
-0.17913416 -10.806134 1.3135277
-0.11266412 -10.951903 1.6907097
-0.052559767 -10.778116 2.0313876
-0.019119119 -4.9631991 2.2136099
0.010157489 -4.9253178 2.3796523
0.14699498 -6.1556582 3.1573718
0.15691037 -5.7912722 3.2131774
0.17445888 -5.5445104 3.3124282
0.16910817 -4.9319172 3.2813616
0.18298368 -4.7213979 3.3598325
0.17574319 -4.3639359 3.3183591
0.17400289 -4.0801921 3.3081763
0.15104748 -3.6798701 3.1775286
0.17819099 -3.6292918 3.3314564
0.17084785 -3.3729529 3.2895379
0.17472228 -3.1028519 3.3112485
0.17050073 -2.9024546 3.2871075
0.17078181 -2.7354267 3.2885454
0.17121413 -2.5778141 3.2908537
0.14692172 -2.3317165 3.152833
0.17474788 -2.2942464 3.3106487
0.16451851 -2.1207798 3.2524748
0.16033882 -1.9767612 3.2286475
0.16180944 -1.7942903 3.2368445
0.15857193 -1.6667868 3.2183824
0.15716097 -1.5483415 3.2102904
0.15590942 -1.4339143 3.2031078
0.15487455 -1.3230929 3.1971586
0.15679044 -1.2195873 3.2079525
0.15872803 -1.1172718 3.2188709
0.11717889 -0.92017716 2.9830928
0.16095786 -0.86258 3.2313435
0.15515396 -0.75799137 3.1983585
0.15025374 -0.65686315 3.1705024
0.13414474 -0.55594045 3.0790849
0.14364529 -0.46174884 3.1329012
0.14180325 -0.36601734 3.1223943
0.14029738 -0.22267571 3.1137638
-0.27658194 -0.39090067 0.75023705
-0.2776562 -0.38623154 0.74417454
0.13135634 0.62125927 3.0624955
0.13356829 0.73733193 3.0749483
0.13040017 0.84286731 3.0569069
0.12805188 0.9532643 3.0435076
0.12567706 1.0667791 3.0299535
0.12137435 1.241369 3.0054166
0.12132228 1.3743023 3.0050068
0.12408903 1.5260798 3.0205553
0.12447342 1.6760874 3.0225964
0.091562934 1.6685213 2.8360507
0.061486311 1.6620512 2.6655736
0.035468251 1.6660018 2.5180972
0.011084269 1.6694907 2.3798876
-0.032010883 1.6112567 2.1356933
-0.035758719 1.7368923 2.1143351
-0.060923148 1.7032803 1.9717517
-0.079757161 1.7096065 1.8650106
-0.098144956 1.7127583 1.7608043
-0.11320937 1.7415366 1.675408
-0.12947831 1.7545717 1.5832033
-0.15424938 1.7597415 1.4428314
-0.17068569 1.7558824 1.3497013
-0.20140833 1.5306556 1.1758676
-0.21555729 1.5230426 1.0957136
-0.22848128 1.5303856 1.0224853
-0.24134934 1.5349752 0.94957805
-0.25320053 1.5602278 0.88240808
-0.26601332 1.5605654 0.80982018
-0.28472018 1.5694584 0.70383167
-0.29719934 1.5712242 0.63313371
-0.30963996 1.5704627 0.56265795
-0.32202029 1.5681907 0.49252605
-0.33434206 1.5694307 0.42272133
-0.34669352 1.5731936 0.3527447
-0.35894874 1.5624942 0.28333426
-0.37141228 1.5672641 0.21272066
-0.39025441 1.5691307 0.10597509
-0.40313575 1.5743409 0.032991655
-0.41595408 1.571959 -0.039623842
-0.42914027 1.5736573 -0.11433101
-0.44254702 1.5744268 -0.19028758
-0.45635936 1.5769945 -0.26854658
-0.46958932 1.5652621 -0.34348309
-0.48989713 1.5482626 -0.45851329
-0.50359815 1.5346861 -0.53611833
-0.51878637 1.5339286 -0.62217486
-0.40951607 0.20015644 -0.00046985596
-0.40932241 0.15035167 0.00076998601
-0.40955967 0.10867071 -0.00044526052
-0.40949547 0.068458281 4.6911504e-05
-0.40983507 0.03428879 -0.0017591917
-0.40985462 0.00065994763 -0.0017511476
-0.41135788 -0.037119377 -0.010115308
-0.41010404 -0.058494929 -0.0029391975
-0.41116452 -0.09388157 -0.0087957587
-0.41103914 -0.1198642 -0.0079765506
-0.41111529 -0.14356469 -0.0083033768
-0.41099897 -0.16686207 -0.0075393668
-0.41084236 -0.18917847 -0.006548197
-0.411111 -0.20905714 -0.007971948
-0.41092604 -0.22963841 -0.0068225637
-0.41089809 -0.24894756 -0.0065651364
-0.41072997 -0.26795116 -0.0055134585
-0.41074726 -0.28586751 -0.0055146064
-0.41096693 -0.30286083 -0.0066645872
-0.41090846 -0.3200286 -0.0062372596
-0.41127729 -0.34431362 -0.0081870276
-0.4111819 -0.37664905 -0.0074569969
-0.41115221 -0.39241526 -0.0071947211
-0.41131896 -0.4232983 -0.0079532387
-0.41134754 -0.43863672 -0.008021892
-0.41144636 -0.47684634 -0.0083488952
-0.41132376 -0.49211392 -0.0075603458
-0.41166151 -0.52321464 -0.0092881164
-0.41159993 -0.53883463 -0.0088450145
-0.4116911 -0.57091027 -0.009172787
-0.41161427 -0.5954681 -0.0085945465
-0.41194829 -0.63035357 -0.010295485
-0.41233474 -0.64911342 -0.012388298
-0.41274264 -0.66864556 -0.014601719
-0.41216043 -0.69582927 -0.01115362
-0.41270649 -0.73871112 -0.01404523
-0.41228577 -0.79376578 -0.011400864
-0.41283175 -0.84732699 -0.014276246
-0.41287953 -0.87553751 -0.014434807
-0.41604319 -0.93992567 -0.032174155
-0.41252959 -0.95204061 -0.012160445
-0.58638674 -2.3055067 -0.99594653
-0.58531123 -2.4355638 -0.98958647
-0.58713663 -2.602967 -0.99962258
-0.58878821 -2.7877598 -1.0086474
-0.58866233 -2.9773681 -1.0075858
-0.59127069 -3.2207766 -1.0219507
-0.5844323 -3.5221677 -0.98262501
-0.58481985 -3.8278532 -0.98430538
-0.58709151 -4.2164283 -0.99654901
-0.58464485 -4.6048307 -0.98203671
-0.5138312 -10.07661 -0.57201928
-0.45847288 -10.348427 -0.25762671
-0.40059501 -10.699328 0.071169257
-0.30734017 -10.753997 0.60018355
-0.2445457 -10.791387 0.95640296
-0.18155511 -10.796082 1.3136866
-0.11619929 -10.890243 1.684273
-0.052286334 -10.86982 2.0466936
-0.027570117 -4.8740396 2.1785798
0.14052795 -6.1051064 3.1336622
0.15892224 -5.8369665 3.2376516
0.17484051 -5.5702696 3.327605
0.15353253 -4.9842281 3.2060134
0.17270976 -4.814868 3.3145895
0.17539737 -4.3781042 3.329319
0.17483214 -4.1017504 3.3257961
0.14825016 -3.6759081 3.1745307
0.18069166 -3.6583521 3.358547
0.17266233 -3.396101 3.3127213
0.16351126 -3.1486838 3.260556
0.16945846 -2.9080646 3.2940598
0.16908798 -2.7377183 3.2917981
0.17135692 -2.5876405 3.304534
0.14381321 -2.3282073 3.1480525
0.17485353 -2.302567 3.3241251
0.16557325 -2.1316292 3.2713392
0.16099605 -1.9855366 3.2452598
0.15683624 -1.8477638 3.2215595
0.15758878 -1.6697793 3.2257044
0.15570691 -1.5500047 3.2149496
0.15380625 -1.434116 3.2040942
0.15525991 -1.3276521 3.2122757
0.1546841 -1.2197309 3.2089467
0.15645038 -1.1171603 3.2189085
0.11343903 -0.96538478 2.9748521
0.15463303 -0.9096868 3.2084904
0.15424497 -0.75873268 3.2062149
0.14865294 -0.65705252 3.1744494
0.14521082 -0.55854785 3.1548822
0.14273353 -0.46166924 3.1407897
0.13967197 -0.36590725 3.1233861
0.13880832 -0.27026233 3.1184492
0.13771085 -0.17464149 3.1121871
-0.28005767 -0.3864592 0.74320775
0.12880474 0.5668205 3.0613947
0.13200039 0.73939294 3.0794432
0.12756462 0.8415755 3.0542488
0.12598534 0.95422184 3.0452452
0.12104023 1.0592943 3.0171602
0.12201085 1.1879299 3.0226038
0.12441629 1.3282644 3.0361736
0.12140319 1.5248762 3.0189905
0.12111014 1.6716783 3.017251
0.087183319 1.6586723 2.8249154
0.062384397 1.6797695 2.6843154
0.033679884 1.6695209 2.521596
0.0095150415 1.6745906 2.384608
-0.032040507 1.5549015 2.1491115
-0.030223621 1.7158781 2.1593256
-0.060756985 1.7234772 1.98625
-0.082143269 1.7095774 1.8650391
-0.10052796 1.7127279 1.7608348
-0.11541751 1.743237 1.6764263
-0.14247617 1.6397599 1.5231316
-0.14877377 1.7547717 1.4873692
-0.16522706 1.7536979 1.3941222
-0.19826056 1.5095541 1.2070777
-0.21722439 1.5343567 1.0995992
-0.23062265 1.5341792 1.0236769
-0.24324065 1.5446031 0.95216906
-0.25534567 1.565069 0.88356048
-0.26838487 1.5595542 0.80967867
-0.28084767 1.5661124 0.73905385
-0.29332829 1.5691422 0.66833091
-0.31189391 1.5764232 0.5631237
-0.32434446 1.5681674 0.4925811
-0.33666447 1.5604098 0.4227778
-0.34894046 1.5611818 0.35321546
-0.36141694 1.575446 0.28250191
-0.37368596 1.5652611 0.21298854
-0.38658154 1.5823444 0.13989374
-0.40536979 1.5723714 0.033434108
-0.41813296 1.5690333 -0.03889114
-0.43152088 1.5755898 -0.11477064
-0.44478288 1.5734752 -0.18992804
-0.45864099 1.5770037 -0.26847324
-0.47180322 1.5643421 -0.34305602
-0.48536572 1.5543854 -0.41991287
-0.49962956 1.5495845 -0.500754
-0.41210848 0.15526593 -0.0026277304
-0.41205806 0.11106618 -0.0022349067
-0.41200423 0.070789598 -0.0018269307
-0.41224036 0.035798471 -0.003068611
-0.41226536 0.0021232509 -0.0031143483
-0.41234514 -0.028805479 -0.003473443
-0.41227162 -0.058493692 -0.0029642473
-0.41232571 -0.085632727 -0.0031815788
-0.41254956 -0.11039351 -0.0043642041
-0.41242868 -0.13537049 -0.0035911915
-0.41238365 -0.1587058 -0.0032502864
-0.41273177 -0.17943078 -0.005142075
-0.41337806 -0.22869518 -0.0086040199
-0.41335291 -0.24806622 -0.0083800796
-0.41302878 -0.26753965 -0.0064601218
-0.4132067 -0.28511307 -0.007390047
-0.41326496 -0.30251324 -0.0076415422
-0.41304085 -0.32002282 -0.0062911031
-0.41303197 -0.33668876 -0.006162622
-0.41302943 -0.36903152 -0.0059931707
-0.41304493 -0.3847996 -0.0060042706
-0.41326138 -0.42337739 -0.0070414077
-0.41328689 -0.43868065 -0.0071101612
-0.41183108 -0.45408267 0.0012255927
-0.41358024 -0.46919513 -0.0086230934
-0.41350129 -0.48447406 -0.0080997078
-0.41320947 -0.50733435 -0.0063310396
-0.41375917 -0.52320409 -0.0093745003
-0.41369483 -0.53882372 -0.0089342417
-0.41302416 -0.55386341 -0.0050543612
-0.41394863 -0.57114047 -0.01022359
-0.41408625 -0.5877915 -0.010929063
-0.41402656 -0.63034064 -0.010402068
-0.41424966 -0.64870924 -0.011591964
-0.41449901 -0.66778642 -0.012930602
-0.41392028 -0.69487625 -0.0095339175
-0.41447073 -0.73763621 -0.012502795
-0.41420466 -0.75847971 -0.010916419
-0.41490167 -0.78424174 -0.014791942
-0.41434759 -0.84468615 -0.011452897
-0.41504198 -0.87620205 -0.015310802
-0.41667229 -0.91550815 -0.024474852
-0.41420391 -0.94979352 -0.01035447
-0.41445124 -0.98705345 -0.011673288
-0.59161824 -2.3996913 -1.0160235
-0.58699882 -2.5870574 -0.98962325
-0.58715475 -2.7570703 -0.99035722
-0.58831871 -2.9572873 -0.99679506
-0.59068727 -3.1967707 -1.0100477
-0.59401917 -3.4822419 -1.0287424
-0.59474182 -3.7793906 -1.0326272
-0.58707994 -4.1938529 -0.98885006
-0.58477467 -4.5829148 -0.97550851
-0.51600671 -10.15506 -0.58206743
-0.45952982 -10.375297 -0.26145062
-0.40161571 -10.749286 0.067402445
-0.33926764 -10.705614 0.42120102
-0.24460706 -10.872415 0.95848352
-0.18069737 -10.907859 1.3211908
-0.12135072 -10.689013 1.6578516
-0.055719968 -10.778281 2.0303164
0.14140835 -6.1352406 3.1468339
0.15977602 -5.8648248 3.2509668
0.15795965 -5.4191952 3.2404966
0.16563483 -5.1127677 3.2839494
0.17750166 -4.8717327 3.3512177
0.16496161 -4.4561863 3.2799258
0.16536005 -4.1791158 3.2821119
0.14597832 -3.674094 3.1719947
0.18087456 -3.6719921 3.3700466
0.17338611 -3.4121225 3.3274989
0.16569746 -3.1716447 3.2838259
