# .PCD v0.7 - Point Cloud Data file format
VERSION 0.7
FIELDS x y z
SIZE 4 4 4
TYPE F F F
COUNT 1 1 1
WIDTH 1420
HEIGHT 1
VIEWPOINT 0 0 0 1 0 0 0
POINTS 1420
DATA ascii
0.16139939 -0.46156073 -0.0096257962
0.16125865 -0.47691646 -0.010347852
0.16113663 -0.48464078 -0.011002067
0.16125774 -0.50776225 -0.010199307
0.1610548 -0.52349257 -0.011274599
0.16095006 -0.53935492 -0.011792509
0.16094491 -0.55532867 -0.011745195
0.16121033 -0.57932329 -0.010123769
0.16112655 -0.59605157 -0.010522912
0.16082539 -0.61360079 -0.012156122
0.16064516 -0.63142675 -0.013102928
0.16042916 -0.64989269 -0.014252885
0.16097675 -0.67636234 -0.011030401
0.16031881 -0.69770443 -0.014689311
0.16027942 -0.7180602 -0.014837023
0.1599531 -0.74029762 -0.016613705
0.16009219 -0.76184672 -0.0157486
0.16082589 -0.79376233 -0.011470626
0.16044337 -0.82027286 -0.013566835
0.1600298 -0.8486349 -0.01583953
0.15974237 -0.87826097 -0.017396368
0.15927322 -0.92697263 -0.01994776
-0.017515317 -2.2745667 -1.023358
-0.011634852 -2.4354892 -0.98987746
-0.01293255 -2.5987461 -0.99718076
-0.015482025 -2.7919221 -1.0115924
-0.014329436 -2.9720943 -1.0049896
-0.017640004 -3.2233453 -1.0237272
-0.010635828 -3.5239022 -0.98388386
-0.0103936 -3.8222516 -0.98246086
-0.010858891 -4.1846066 -0.98506039
-0.01122219 -4.6179876 -0.98708838
0.045047022 -8.3351336 -0.66765916
0.0936988 -8.3212385 -0.3914355
0.14206812 -8.2874422 -0.11681364
0.33028135 -10.721551 0.95148647
0.39354959 -10.776258 1.3106614
0.42736164 -10.901168 1.5025231
0.48894256 -10.795144 1.8521864
0.58071285 -10.654951 2.3732679
0.63031518 -8.9242306 2.6552162
0.54970521 -4.9251833 2.1983986
0.73577893 -6.1063199 3.2547247
0.74364388 -5.732254 3.2994976
0.74247205 -4.9503589 3.2931018
0.74763143 -4.6673217 3.322504
0.74457639 -4.3463559 3.3052809
0.73697311 -3.8982644 3.2622941
0.74132341 -3.6922407 3.2870936
0.75103945 -3.5319352 3.3423467
0.74408972 -3.2862704 3.3030045
0.73972207 -3.0727348 3.278316
0.73793167 -2.8863807 3.2682536
0.74012405 -2.7292671 3.2807965
0.74806219 -2.5260894 3.3260002
0.73142463 -2.3140981 3.2316587
0.74410856 -2.21961 3.3037496
0.73682588 -2.0601985 3.2625053
0.73319948 -1.9204507 3.2420139
0.73070753 -1.7900668 3.2279608
0.72645694 -1.6605386 3.2039242
0.73143148 -1.5001493 3.2322967
0.72948265 -1.3851175 3.2213237
0.72842133 -1.2749038 3.2153881
0.72915888 -1.1698786 3.2196631
0.7316047 -1.0684596 3.2336342
0.68814719 -0.920883 2.9870381
0.71297252 -0.84783149 3.1280437
0.72375423 -0.70754725 3.1893744
0.71973383 -0.60778326 3.1666384
0.71666682 -0.51008993 3.1493134
0.29288119 -0.42733207 0.74398309
0.27916941 -0.41352904 0.66634691
0.27713811 -0.4028253 0.65493554
0.27619565 -0.39115053 0.64970475
0.27605888 -0.38249907 0.6490078
0.27618963 -0.37309536 0.64982933
0.27689308 -0.36197612 0.65390188
0.27856278 -0.34237623 0.66349882
0.27810752 -0.33297789 0.66099381
0.27713904 -0.32511285 0.65557522
0.27642089 -0.31641483 0.65157777
0.27651024 -0.3044796 0.65216398
0.27597734 -0.28828999 0.64925748
0.27650785 -0.27281684 0.65234768
0.27626476 -0.25284424 0.65108597
0.27670974 -0.23515457 0.65369058
0.27966532 -0.1917447 0.67058563
0.52598953 1.6777606 2.0690126
0.49709111 1.6877756 1.9050804
0.47766799 1.6836462 1.7948984
0.45844194 1.6726793 1.6858349
0.44217423 1.6829052 1.5935639
0.42653039 1.6945784 1.5048342
0.40989953 1.6890157 1.410502
0.39092815 1.6435477 1.3028853
0.36594784 1.4914106 1.1611634
0.34866074 1.5393884 1.0631404
0.33569822 1.5454836 0.98963112
0.32301021 1.5536768 0.91767991
0.31012872 1.5533603 0.84463048
0.29765946 1.5601901 0.77392077
0.28490832 1.5525885 0.7016117
0.26647267 1.5606635 0.59706914
0.25408757 1.5536257 0.52683753
0.24189231 1.5660858 0.45768198
0.22962257 1.5580902 0.38810509
0.21736655 1.5576299 0.31860527
0.2049879 1.5626717 0.24840869
0.19244154 1.5691564 0.17725979
0.17371136 1.5641612 0.071044654
0.16096599 1.5641586 -0.0012338059
0.16098151 1.2645705 -0.0010435974
0.14692983 1.3215581 -0.080742739
0.12304545 1.535642 -0.21627595
0.15928805 0.74685878 -0.010380736
0.1549276 0.68905002 -0.035052244
0.15004197 0.64563292 -0.062706359
0.14162791 0.64842826 -0.11039567
0.1351949 0.62621021 -0.14683622
0.11927131 0.65359694 -0.23712082
0.16039705 0.18008693 -0.0034869378
0.1604178 0.13384813 -0.003286367
0.16026153 0.093170963 -0.0040911632
0.16016772 0.055491153 -0.004541494
0.1602025 0.019968711 -0.0042619985
0.1602104 -0.01272138 -0.0041352296
0.15888083 -0.050344516 -0.01156151
0.15891069 -0.078451313 -0.011310362
0.15878025 -0.10413605 -0.011969507
0.15900356 -0.12999028 -0.010620251
0.15901747 -0.15358007 -0.010459866
0.15907614 -0.17620005 -0.010045558
0.15901603 -0.19737662 -0.010305557
0.15896575 -0.21773218 -0.010509803
0.15922171 -0.23822843 -0.0089754146
0.15931638 -0.25746742 -0.0083568078
0.15938994 -0.27599502 -0.007857997
0.15926987 -0.29351798 -0.008458537
0.15926838 -0.31085479 -0.0083858538
0.15898292 -0.3356269 -0.0098846843
0.15892567 -0.35200283 -0.010128576
0.15897301 -0.36824137 -0.0097785108
0.15895241 -0.3841469 -0.0098142009
0.15885916 -0.39980137 -0.010262266
0.15903473 -0.41549748 -0.0091841994
0.15913375 -0.43097171 -0.0085407421
0.15880688 -0.44623923 -0.010314915
0.15892388 -0.46925706 -0.0095284507
0.15865576 -0.48467582 -0.0109689
0.15865481 -0.50011879 -0.010892618
0.15874796 -0.51558435 -0.01028202
0.15859281 -0.53136623 -0.011080901
0.15863055 -0.55515712 -0.010743641
0.15838738 -0.57167155 -0.012041923
0.15858568 -0.58783931 -0.010833894
0.15855704 -0.60467255 -0.010914053
0.15831411 -0.62234735 -0.012210543
0.15787177 -0.64103466 -0.01463882
0.15832679 -0.66741365 -0.011931397
0.15759534 -0.68859398 -0.016000267
0.15778819 -0.70788229 -0.01482204
0.15767574 -0.72890401 -0.01537661
0.1578714 -0.7497136 -0.014181954
0.15804416 -0.78311855 -0.013074704
0.15757352 -0.83506006 -0.015575981
0.1569012 -0.8657555 -0.019306408
0.15651003 -0.89715165 -0.021440307
0.15782776 -0.93698132 -0.013830447
0.15720886 -0.97555882 -0.017255278
-0.014785886 -2.3695176 -0.99321461
-0.01613887 -2.5258408 -1.0007765
-0.017021516 -2.694958 -1.0056643
-0.017486459 -2.8796477 -1.0081763
-0.019538637 -3.1038048 -1.019689
-0.012346906 -3.3790662 -0.97866601
-0.012200751 -3.6553364 -0.97768271
-0.014841508 -4.018259 -0.99249828
-0.013837039 -4.3932562 -0.98661429
-0.015867567 -4.9011149 -0.99792486
0.066907339 -8.3116426 -0.52658588
0.1161842 -8.2309237 -0.24675259
0.23393343 -10.627616 0.42265135
0.29575542 -10.670401 0.77374852
0.3607704 -10.922087 1.1430331
0.45235911 -10.718612 1.6629574
0.55131978 -10.839556 2.2248051
0.70540386 -6.0323977 3.0985007
0.73070186 -5.84589 3.2421024
0.7370702 -5.4837584 3.2782111
0.74060833 -5.1344233 3.2982605
0.74705839 -4.8456302 3.3348556
0.73801267 -4.4598408 3.283473
0.75156921 -4.1453528 3.3604333
0.71904498 -3.677495 3.1757717
0.7520563 -3.6635487 3.3632047
0.74634576 -3.4145598 3.3307953
0.74081773 -3.1855831 3.2994292
0.73683423 -2.9809482 3.2768371
0.73667628 -2.8077886 3.2759674
0.73796129 -2.6504841 3.283293
0.71427548 -2.328825 3.148886
0.74734938 -2.3105736 3.3366761
0.73688942 -2.1351843 3.2773392
0.73154318 -1.9865276 3.2470345
0.73048508 -1.8574579 3.2410743
0.72737241 -1.7278553 3.223454
0.7300815 -1.5593663 3.2389076
0.72723001 -1.4406688 3.2227752
0.72571337 -1.3282753 3.2142215
0.72612637 -1.2218376 3.2166228
0.72805262 -1.1192188 3.2276146
0.68539625 -0.96751505 2.9855556
0.70342535 -0.89031416 3.0879519
0.72380638 -0.80840588 3.2036982
0.71847773 -0.65700549 3.1735508
0.71623242 -0.55877781 3.1608741
0.71252394 -0.46168727 3.1398938
0.29150003 -0.43250546 0.75042486
0.29006878 -0.42176378 0.74238211
0.27764666 -0.41698503 0.67199862
0.27596468 -0.41429162 0.66249281
0.27496171 -0.40672383 0.65688181
0.27461365 -0.4028247 0.65494704
0.27360854 -0.38682908 0.64940578
0.27360603 -0.37781608 0.64947361
0.27356717 -0.36392793 0.64937639
0.27563575 -0.35382581 0.66115838
0.27581432 -0.3376714 0.662296
0.27532697 -0.32828787 0.65961289
0.27418208 -0.32100472 0.65319777
0.27340296 -0.30671325 0.64890063
0.27419966 -0.29756689 0.6534645
0.27316427 -0.27658901 0.64775586
0.27405262 -0.26555908 0.65284038
0.27397093 -0.24405152 0.65250409
0.27469957 -0.22402109 0.65672553
0.53685606 1.6980262 2.1451688
0.50384778 1.6838573 1.9579777
0.48310414 1.6722909 1.8403457
0.46550548 1.6796733 1.7405674
0.44812718 1.6826345 1.6420398
0.4313269 1.6848047 1.5467931
0.41453841 1.6801888 1.4516128
0.40037975 1.7016413 1.3713646
0.37085056 1.5012203 1.2038269
0.35229945 1.5315294 1.0987041
0.33952901 1.5427939 1.0263336
0.32672307 1.5504055 0.95376152
0.31407219 1.5582541 0.88207048
0.30111009 1.5536686 0.80861002
0.28770688 1.5246325 0.73263842
0.27001697 1.5632422 0.63241571
0.25765246 1.5644511 0.56235141
0.24534242 1.567165 0.49259749
0.23303008 1.5574049 0.42282671
0.22077151 1.5581766 0.35336578
0.20841844 1.563466 0.28337148
0.19602297 1.5642554 0.21313561
0.17726567 1.5641682 0.10685174
0.16444835 1.5684278 0.034225892
0.15166877 1.5660902 -0.038187779
0.15237658 1.2703313 -0.034204587
0.14095338 1.2712536 -0.098921664
0.12891296 1.2781869 -0.16713732
0.15248385 0.7455467 -0.033550758
0.15077229 0.65315944 -0.043212656
0.13898849 0.69850528 -0.10995713
0.13539481 0.64060771 -0.13028197
0.11706883 0.69371575 -0.2340923
0.15797849 0.15443063 -0.0020310287
0.15741393 0.11504366 -0.005166187
0.15777808 0.072328299 -0.003034479
0.15742384 0.038047235 -0.0049748048
0.1561038 -0.0040695141 -0.012355561
0.15623821 -0.035743739 -0.011523155
0.15627229 -0.064774536 -0.011258892
0.15602963 -0.090680093 -0.012563437
0.15614191 -0.11679783 -0.01185464
0.15633386 -0.14181277 -0.010693648
0.15630098 -0.16463616 -0.010807325
0.15659654 -0.18759906 -0.0090580117
0.15647322 -0.20806694 -0.0096839955
0.15650335 -0.22823925 -0.0094394796
0.15652713 -0.24764115 -0.0092308177
0.15685013 -0.26714593 -0.007325036
0.15630202 -0.29277405 -0.010322705
0.15661131 -0.3021839 -0.0085315118
0.15624346 -0.32707366 -0.010506714
0.1566357 -0.34431937 -0.0082079377
0.15612742 -0.35988605 -0.011016924
0.15639676 -0.37627202 -0.0094152233
0.15625606 -0.39194992 -0.01013949
0.15621214 -0.4075748 -0.010314899
0.15643714 -0.42321411 -0.0089649605
0.15617321 -0.44620624 -0.010352124
0.15593992 -0.46156162 -0.011602422
0.15632044 -0.47688228 -0.0093709556
0.15610023 -0.49232358 -0.010547535
0.15528424 -0.50828463 -0.015104435
0.15594518 -0.52349228 -0.011282909
0.15625252 -0.54685146 -0.0094319452
0.15511146 -0.56436175 -0.015834766
0.15576515 -0.57163358 -0.012090756
0.15568916 -0.59663433 -0.012416599
0.15539275 -0.61424965 -0.014028998
0.15521783 -0.63214093 -0.014952705
0.14654857 -0.68159902 -0.064044155
0.15572113 -0.67679727 -0.011927723
0.15537383 -0.69723129 -0.013832292
0.15488239 -0.71905607 -0.016555987
0.15471134 -0.74082315 -0.017462587
0.15534663 -0.77186024 -0.013762916
0.1551827 -0.79616416 -0.014632155
0.15508738 -0.82152587 -0.015113566
0.15520826 -0.84731698 -0.014369497
0.15580578 -0.88668489 -0.010894046
0.15431902 -0.92624664 -0.019282019
-0.017100725 -2.3007119 -0.99259597
-0.017838247 -2.4452033 -0.99683952
-0.019149585 -2.609529 -1.0043588
-0.021145837 -2.798712 -1.0157889
-0.013602464 -3.0180066 -0.97310984
-0.015670769 -3.2663803 -0.98501348
-0.016690286 -3.5393119 -0.99099678
-0.01718571 -3.8498683 -0.99404919
-0.017858433 -4.2191505 -0.99817079
-0.019349739 -4.67661 -1.0070298
0.043343868 -8.2420425 -0.65490967
0.091762073 -8.211833 -0.3802551
0.16218376 -8.2668362 0.019105159
0.20278405 -10.636012 0.24682333
0.32849991 -10.882308 0.95951521
0.39284626 -10.938611 1.3243666
0.42288876 -10.829533 1.4948387
0.51791602 -10.798822 2.0340638
0.5827446 -10.806087 2.4018955
0.62861288 -8.9599314 2.6643767
0.54361153 -4.8973327 2.1871619
0.72778404 -6.0590525 3.2308104
0.73715794 -5.7050977 3.2844832
0.7518335 -5.4401855 3.3681273
0.74120378 -4.9746394 3.3084548
0.73628765 -4.6074796 3.2810802
0.7511636 -4.2875485 3.3659692
0.73019105 -3.8806047 3.2475591
0.73719221 -3.6929443 3.2875793
0.74411225 -3.5160692 3.3271263
0.73989344 -3.2869263 3.3035474
0.7331627 -3.0613205 3.2657154
0.7340641 -2.8889141 3.2711151
0.73418987 -2.7224569 3.2721071
0.74317461 -2.5243311 3.3234301
0.72735006 -2.315696 3.2339928
0.73943895 -2.2190583 3.3027616
0.73211837 -2.0596781 3.2615047
0.72737694 -1.9167832 3.234858
0.7249952 -1.7870735 3.2215803
0.72648799 -1.6136578 3.23037
0.72611505 -1.4987472 3.2284675
0.72364014 -1.3829206 3.2146425
0.72338021 -1.2743194 3.213372
0.72460169 -1.1700879 3.2204976
0.72618306 -1.0675955 3.2296617
0.68266028 -0.92015755 2.9830489
0.70697242 -0.84682584 3.121105
0.71911478 -0.70760369 3.190244
0.71507418 -0.60780537 3.1675127
0.71216166 -0.51009506 3.151176
0.28748143 -0.42741859 0.74295998
0.27420405 -0.42217395 0.66780865
0.27240008 -0.40648216 0.65778804
0.27109665 -0.39084116 0.6506055
0.27103201 -0.38650402 0.65029174
0.27091533 -0.37307847 0.64978844
0.27177432 -0.3615686 0.65476757
0.27327803 -0.34235951 0.66345799
0.27241245 -0.32875863 0.65870631
0.27156389 -0.32047591 0.65399778
0.27081123 -0.31182054 0.64983338
0.27085629 -0.2998479 0.65019524
0.27080384 -0.28767204 0.65000403
0.271191 -0.27280074 0.65230781
0.27106941 -0.25215918 0.65177816
0.27138048 -0.2351387 0.65365106
0.5424962 1.6801834 2.1927726
0.51328123 1.7002381 2.0272057
0.49182832 1.6886122 1.9056046
0.47200555 1.6811472 1.7932509
0.45420867 1.683839 1.6923934
0.43642741 1.6794232 1.5916203
0.42008108 1.6830117 1.4989898
0.40467975 1.6917504 1.4117213
0.3777653 1.6402966 1.2591621
0.35566899 1.5220681 1.1338578
0.34334153 1.5422565 1.0640297
0.33015808 1.5445371 0.98933738
0.31733784 1.5498104 0.91670614
0.30450431 1.5504404 0.84399712
0.29207104 1.5582349 0.7735613
0.2793451 1.5516124 0.70145869
0.26096132 1.5636661 0.59731328
0.24852946 1.5546385 0.52687699
0.23628642 1.5571011 0.45751622
0.22403613 1.5571042 0.38811302
0.21172035 1.5626367 0.31834009
0.19936076 1.5636816 0.24831671
0.18056728 1.5684719 0.14184071
0.16816212 1.5612205 0.071554989
0.15527877 1.5651504 -0.0014394994
0.15535097 1.2645844 -0.0010490185
0.142097 1.3052305 -0.076131888
0.13127017 1.2893289 -0.13746634
0.1536873 0.74687266 -0.010393646
0.14958557 0.68535501 -0.033590034
0.14267017 0.66848582 -0.072732516
0.13494749 0.66102546 -0.11645137
0.12859623 0.63681984 -0.15239573
0.11390212 0.65103954 -0.23560907
0.15510824 0.17761353 -0.001856728
0.15463352 0.13547988 -0.0044664689
0.1552154 0.089244455 -0.0010829327
0.15302292 0.047854017 -0.013387789
0.15328284 0.011610563 -0.011826773
0.15339299 -0.021048075 -0.011113981
0.15342088 -0.051012881 -0.010866645
0.15345328 -0.079093784 -0.010592955
0.15345983 -0.10538115 -0.010465084
0.15341164 -0.12997669 -0.010646951
0.15342362 -0.15356649 -0.010486971
0.15362589 -0.17673117 -0.0092471568
0.15356678 -0.19787814 -0.0094892951
0.15366909 -0.21868834 -0.0088153416
0.15361924 -0.23821492 -0.009004009
0.15355425 -0.25703126 -0.0092782462
0.15378274 -0.27598155 -0.0078872722
0.15315388 -0.30117169 -0.011311468
0.15336742 -0.31881362 -0.010004519
0.15319939 -0.33533779 -0.010861618
0.15330625 -0.35198939 -0.010159127
0.15335087 -0.36822796 -0.0098093506
0.15332745 -0.38413352 -0.0098453155
0.15374704 -0.40020564 -0.0073679709
0.15340412 -0.41548413 -0.0092158644
0.1531539 -0.4308188 -0.010537522
0.15382093 -0.45397273 -0.0066065853
0.15328279 -0.46924376 -0.0095610144
0.15318482 -0.48461023 -0.010018188
0.15352625 -0.49984413 -0.0079824515
0.15309754 -0.51557106 -0.010315322
0.15293917 -0.531353 -0.011114437
0.15306257 -0.57117456 -0.010164911
0.15275401 -0.58810174 -0.011814987
0.15247948 -0.62267619 -0.013170873
0.15235765 -0.64064687 -0.013760788
0.15233232 -0.66824573 -0.013752073
0.15191171 -0.68858081 -0.016036006
0.15198536 -0.7288909 -0.015412902
0.15234534 -0.78310549 -0.013111742
0.15146832 -0.83697528 -0.017876899
0.15241809 -0.87351495 -0.01233061
0.14953993 -0.91979289 -0.028549118
0.152109 -0.93696839 -0.01386925
0.15148595 -0.97554582 -0.017294418
-0.02125497 -2.3742883 -0.99680167
-0.023082048 -2.5348303 -1.0070225
-0.024009425 -2.7050006 -1.0121344
-0.025670383 -2.9019122 -1.0213996
-0.018268688 -3.1386561 -0.9791792
-0.018749235 -3.3853364 -0.98172814
-0.019630875 -3.6754124 -0.98653787
-0.02131214 -4.0265818 -0.99586374
-0.02234385 -4.4345808 -1.0014838
-0.0073812008 -4.908381 -0.91627264
0.015463931 -8.2040586 -0.78511667
0.061471459 -8.2887974 -0.52391326
0.13368967 -8.2525663 -0.11396312
0.29049262 -10.769336 0.77701795
0.35531306 -10.953011 1.1450219
0.48378423 -10.948591 1.8739926
0.54685295 -10.880929 2.2318256
0.53016102 -4.9923306 2.1353712
0.72171509 -6.2912827 3.2226858
0.72178954 -5.8097196 3.2230027
0.73957205 -5.5643325 3.3238611
0.72052366 -5.0004616 3.215668
0.73946965 -4.8282547 3.3231535
0.74230331 -4.3918018 3.3391762
0.74395573 -4.1306243 3.3485265
0.7142939 -3.6828136 3.1801703
0.74486846 -3.6533484 3.3536747
0.73836178 -3.4004569 3.3167441
0.73262376 -3.1713006 3.2841833
0.72908062 -2.9698353 3.2640834
0.73599285 -2.7470608 3.3033237
0.73674643 -2.5900972 3.3076153
0.70975697 -2.3327813 3.1544921
0.74110538 -2.3079696 3.3323882
0.72942591 -2.1287293 3.2661433
0.72388899 -1.9800004 3.2347548
0.72263902 -1.8509284 3.2276924
0.72306961 -1.6718267 3.2301836
0.7224769 -1.554756 3.2268548
0.72074938 -1.4387647 3.2170894
0.71939027 -1.3268635 3.2094154
0.71963102 -1.2203356 3.2108195
0.72189128 -1.1183711 3.2236819
0.67972368 -0.96737266 2.9845006
0.70376539 -0.89568585 3.1209345
0.71947616 -0.75923103 3.2101257
0.71231323 -0.65678149 3.1695347
0.70746738 -0.5581696 3.1420891
0.70584255 -0.46174315 3.1329174
0.28563955 -0.43259871 0.74940151
0.28455412 -0.42164817 0.74331778
0.27191821 -0.42157036 0.6717146
0.27011594 -0.41005501 0.66160303
0.26909092 -0.40258789 0.65586311
0.26852819 -0.39463681 0.65274572
0.26791939 -0.38683444 0.64936703
0.26791826 -0.37782165 0.64943516
0.26804134 -0.36354315 0.65024501
0.26976997 -0.34920081 0.6601243
0.27013314 -0.33767802 0.66225863
0.26923013 -0.32411718 0.65724844
0.26850295 -0.32101157 0.65316117
0.2681956 -0.31075189 0.6514923
0.26801404 -0.29351032 0.65057415
0.26762626 -0.27596733 0.64848614
0.26790553 -0.26086289 0.65014428
0.26855654 -0.24269573 0.65391046
0.26854238 -0.21848042 0.65394104
0.52411526 1.7226551 2.1035182
0.49823388 1.682193 1.9567966
0.47768623 1.6722475 1.8403245
0.45953014 1.6745443 1.7374167
0.44139609 1.6696057 1.6346356
0.42630118 1.6891829 1.5490897
0.40932795 1.6828511 1.4528944
0.38828415 1.7171712 1.333644
0.35940731 1.5147368 1.1699607
0.34705561 1.5352865 1.0999771
0.33405685 1.542771 1.0263255
0.32115868 1.5484529 0.95324498
0.3085956 1.5582352 0.8820653
0.29563025 1.5536517 0.80860609
0.27621177 1.5307983 0.69858801
0.26462263 1.5682027 0.63293022
0.25216499 1.5644412 0.56235218
0.239792 1.5571635 0.49225521
0.22753754 1.5573993 0.42282987
0.21527697 1.5581731 0.35337019
0.20293447 1.5624673 0.28344581
0.18440568 1.559242 0.17847578
0.1717649 1.5641726 0.10686044
0.15887989 1.5703977 0.033860218
0.14620347 1.5651251 -0.037955191
0.14603724 1.2877274 -0.038784966
0.13572542 1.265527 -0.097187072
0.10761628 1.5420074 -0.25656313
0.14715526 0.74182135 -0.032141238
0.14566156 0.64672506 -0.040522717
0.13729356 0.65048099 -0.087903582
0.12980695 0.64062011 -0.13028391
0.11200442 0.68853557 -0.23113774
0.15275162 0.15116143 0.0002169926
0.15230826 0.11105788 -0.0022147931
0.15225628 0.071558662 -0.0024270148
0.15235984 0.03428096 -0.001757342
0.15082923 -0.0062199295 -0.010316566
0.15097442 -0.037820209 -0.0094116433
0.15076101 -0.065436102 -0.010540987
0.15065369 -0.091958195 -0.011068898
0.15090883 -0.11863745 -0.0095411874
0.15096977 -0.14298102 -0.0091151018
0.15094249 -0.16574728 -0.0091896318
0.15065439 -0.18653177 -0.010743625
0.15097475 -0.20855974 -0.0088467887
0.1510067 -0.22870155 -0.0085858433
0.15072006 -0.24719553 -0.010132032
0.15119809 -0.26713884 -0.0073413905
0.15101779 -0.28474426 -0.008284634
0.15075415 -0.32735908 -0.0095819598
0.15081176 -0.34405357 -0.0091763539
0.15030107 -0.35965401 -0.011993855
0.1509092 -0.37645605 -0.0084661059
0.15076864 -0.39209959 -0.0091845775
0.14969057 -0.40695816 -0.015220127
0.15077648 -0.42320737 -0.008983071
0.1505111 -0.44619954 -0.010370498
0.15048289 -0.47691047 -0.01037391
0.15060839 -0.49224731 -0.0095840413
0.15027791 -0.52348572 -0.01130225
0.15041317 -0.54703575 -0.010418384
0.150097 -0.57983285 -0.012056109
0.15034829 -0.59604335 -0.010553359
0.14971814 -0.61424321 -0.014049611
0.14954157 -0.6321345 -0.014973588
0.14102337 -0.6811837 -0.06316594
0.15004081 -0.67679113 -0.011949331
0.14938468 -0.69816387 -0.015593423
0.14919746 -0.71904975 -0.016578296
0.14987525 -0.7485745 -0.012619404
0.14965603 -0.77185416 -0.013786175
0.14962792 -0.79555631 -0.013869291
0.14925586 -0.82214904 -0.01590316
0.14872216 -0.85124689 -0.018854044
0.14985138 -0.88806832 -0.012336516
0.14921199 -0.92264414 -0.015887335
-0.024124017 -2.3085351 -0.99871331
-0.025448753 -2.4580901 -1.0061597
-0.025736092 -2.6144457 -1.0077244
-0.028009024 -2.8062859 -1.0205524
-0.02152483 -3.0371907 -0.98368716
-0.022413034 -3.2734509 -0.98866856
-0.024535788 -3.5600986 -1.0006561
-0.024074102 -3.8590152 -0.99799049
-0.024877876 -4.2302952 -1.0025089
-0.016113346 -4.7583084 -0.95274919
0.035119176 -8.2934952 -0.66224909
0.10733724 -8.2886152 -0.25263879
0.19524951 -10.684014 0.24571958
0.25692245 -10.587071 0.59550178
0.38415617 -10.856994 1.3170518
0.44706675 -10.818964 1.6737908
0.51053214 -10.798934 2.033778
0.57538062 -10.806219 2.4016068
0.61768991 -8.8760405 2.6419675
0.55674666 -4.9474378 2.2972331
0.71186107 -6.460773 3.1767583
0.71274316 -5.9621053 3.1819141
0.72968483 -5.6939077 3.2781119
0.74327242 -5.4189401 3.3552899
0.73600233 -4.9840479 3.3142064
0.74351156 -4.5636568 3.3569767
0.74505264 -4.2877331 3.3658395
0.71455026 -3.8148966 3.1930084
0.73188549 -3.6975839 3.2914188
0.73790205 -3.5148127 3.325649
0.73034358 -3.2669597 3.2829032
0.73598784 -3.0153139 3.3150737
0.73291749 -2.8262861 3.2977717
0.73527277 -2.6723971 3.3112342
0.7351144 -2.5153337 3.3104417
0.72262049 -2.319685 3.2396979
0.73207307 -2.2135715 3.2934034
0.72368389 -2.051127 3.2459331
0.72046387 -1.913326 3.2277744
0.72280121 -1.7362249 3.2411792
0.7211898 -1.6145819 3.2321403
0.71986282 -1.4975532 3.2247138
0.71855646 -1.3840215 3.2174037
0.71698576 -1.2731141 3.2085936
0.71906036 -1.1702615 3.2204554
0.71454507 -1.0602807 3.1949453
0.67727029 -0.87377816 2.9837008
0.70360667 -0.79984629 3.1331513
0.71313339 -0.70751303 3.1872733
0.71032172 -0.60818487 3.1714225
0.70395344 -0.50998276 3.1354005
0.28214562 -0.43313396 0.74348515
0.26846704 -0.41803977 0.66611207
0.26697588 -0.40651163 0.65777624
0.26626712 -0.39873123 0.65383738
0.26568106 -0.39087003 0.65059429
0.26554215 -0.38218534 0.64988714
0.26522729 -0.36909607 0.64822245
0.26637241 -0.36159748 0.65475744
0.26788348 -0.34238875 0.66344851
0.26702443 -0.32878745 0.65869737
0.26645815 -0.32512498 0.65552598
0.26543167 -0.3118487 0.6498251
0.26533911 -0.30044952 0.64938068
0.26503018 -0.28308257 0.64774942
0.26537335 -0.26814562 0.64977622
0.26596916 -0.25084898 0.65323609
0.26615211 -0.23447202 0.65435427
0.53179914 1.7181093 2.1613352
0.50814718 1.7001354 2.0272706
0.48559722 1.6795063 1.8994553
0.46545041 1.6684784 1.7852694
0.44782031 1.6717552 1.6853572
0.43086982 1.6749719 1.5892991
0.41399875 1.6722467 1.4936906
0.39270312 1.7052288 1.3730267
0.36885196 1.5864624 1.2378263
0.35075602 1.5257738 1.1352683
0.33830062 1.5441093 1.0647026
0.32491475 1.5425698 0.988859
0.31227526 1.5517101 0.91724819
0.29943049 1.5523599 0.84447265
0.28049037 1.5532491 0.7371636
0.26810658 1.5572109 0.66700172
0.25577289 1.5606544 0.59712344
0.24348648 1.565604 0.52751315
0.23116848 1.5650843 0.45772317
0.21889743 1.5560926 0.38819924
0.20647994 1.5736142 0.317844
0.18809985 1.559286 0.21370701
0.17569424 1.5575808 0.14341846
0.16290312 1.5651659 0.070942618
0.15003298 1.568095 -0.0019815867
0.15010984 1.266535 -0.0014656191
0.13670442 1.3100511 -0.077426895
0.12354237 1.3349987 -0.152008
0.14820385 0.75158185 -0.012038583
0.14452699 0.68351257 -0.032816038
0.13903563 0.6484012 -0.0638863
0.1271552 0.6424067 -0.13115874
0.11966998 0.63085365 -0.17353936
0.15019511 0.17513691 -0.00018946257
0.14983772 0.13225447 -0.0021377213
0.14979805 0.090831332 -0.002283647
0.14827693 0.044846442 -0.01079364
0.14843754 0.0094277775 -0.0098035336
0.14831661 -0.021743765 -0.010410495
0.14835025 -0.0516834 -0.01014057
0.1483884 -0.079738304 -0.0098450826
0.14556758 -0.092781588 -0.025767244
0.14835824 -0.13056684 -0.0098579805
0.14866029 -0.15527569 -0.0080654481
0.14858371 -0.17726408 -0.0084207542
0.14763729 -0.1952907 -0.013710215
0.14863783 -0.21916132 -0.007955377
0.14843863 -0.23820294 -0.0090061696
0.14853351 -0.25744191 -0.0083887614
0.14804938 -0.28362849 -0.011016074
0.14879814 -0.30286989 -0.0066894484
0.14819874 -0.31880128 -0.010010283
0.14820041 -0.33560109 -0.0099214846
0.14836057 -0.36842346 -0.0088541135
0.14834125 -0.38429469 -0.0088842213
0.14825296 -0.41547146 -0.0092261117
0.14817901 -0.43087587 -0.0095660677
0.14814255 -0.46923086 -0.0095738405
0.14804776 -0.48459724 -0.010031763
0.14796698 -0.51555794 -0.010330423
0.14781189 -0.53133976 -0.011130322
0.14794366 -0.57116121 -0.010182803
0.1476385 -0.58808821 -0.011833739
0.14720772 -0.62300444 -0.014116878
0.14709157 -0.6410076 -0.014695403
0.14723253 -0.66823179 -0.013774971
0.14712489 -0.68765891 -0.014304946
0.14533839 -0.71318716 -0.024358215
0.14674765 -0.72939169 -0.016283181
0.14726582 -0.78309125 -0.013140746
0.14568891 -0.81434619 -0.022004284
0.14626348 -0.83760345 -0.018663261
0.14612305 -0.86572772 -0.019377746
0.14570576 -0.91270709 -0.021621248
0.14622228 -0.94207287 -0.018608572
0.14643234 -0.97553098 -0.017333889
-0.027445581 -2.3830068 -1.003435
-0.028514862 -2.5380402 -1.0094043
-0.028942127 -2.7040951 -1.0117296
-0.031852599 -2.9129872 -1.0281367
-0.026129715 -3.1694925 -0.99551928
-0.025498455 -3.4059424 -0.99182874
-0.027868072 -3.7173686 -1.0051525
-0.029736394 -4.0756545 -1.0156255
-0.017275359 -4.4931898 -0.94475526
-0.015320313 -4.9647393 -0.93351984
0.0079042464 -8.3027706 -0.80096996
0.081339002 -8.2516375 -0.3842254
0.12860246 -8.2754889 -0.11599092
0.22332591 -10.695614 0.42194015
0.28566909 -10.749372 0.7757405
0.34781811 -10.720621 1.1284292
0.41206133 -10.808705 1.4929539
0.54187077 -10.870192 2.2293639
0.53636634 -4.9233627 2.197608
0.7069298 -6.1727686 3.1653929
0.71173555 -5.7524548 3.1926663
0.72725832 -5.4891171 3.2807534
0.71270382 -4.9726 3.1982052
0.74703205 -4.7697682 3.3930132
0.73822951 -4.3975196 3.3431165
0.73619121 -4.1097655 3.3316007
0.70980078 -3.685195 3.1819386
0.74050701 -3.6563971 3.3561945
0.73081487 -3.3850188 3.3012719
0.72649682 -3.1645968 3.2768409
0.73053342 -2.9134307 3.2998435
0.72974569 -2.7410171 3.2954469
0.73213929 -2.5913849 3.3091004
0.70514268 -2.3340044 3.1560297
0.73340327 -2.2980096 3.3164277
0.72511137 -2.1308353 3.2694712
0.72126257 -1.9871465 3.2477214
0.72230309 -1.8023785 3.2537541
0.71748281 -1.6703625 3.2264981
0.71703404 -1.5537778 3.2240434
0.71463454 -1.4365804 3.2105241
0.71292108 -1.324325 3.2008982
0.71481425 -1.2206864 3.2117345
0.71605176 -1.1173368 3.2188532
0.67557216 -0.96840876 2.98931
0.70101762 -0.84872329 3.133817
0.71410245 -0.75910664 3.208154
0.70952606 -0.65777141 3.1822979
0.70484763 -0.55873901 3.1558647
0.70078361 -0.46182108 3.1329186
0.28061923 -0.43260852 0.7493965
0.27953184 -0.42165756 0.74331331
0.2667608 -0.41717073 0.67098409
0.26509154 -0.41006163 0.66159904
0.26406482 -0.40259412 0.65585959
0.2635003 -0.39464274 0.65274262
0.26288968 -0.38684005 0.64936435
0.26261902 -0.37382159 0.64795846
0.26330498 -0.3675957 0.65189421
0.26488939 -0.34878331 0.66101611
0.26509282 -0.33768287 0.66225845
0.26433694 -0.32362166 0.6581018
0.26345861 -0.32101578 0.65316182
0.26314893 -0.31075582 0.65149343
0.26296356 -0.29351389 0.65057606
0.26257187 -0.27597052 0.64848888
0.26297897 -0.26020989 0.65089101
0.26349542 -0.24269857 0.65391463
0.26359677 -0.21776362 0.65463042
0.51778746 1.7155403 2.0981469
0.49246433 1.6789371 1.9545645
0.47193661 1.6689141 1.8382037
0.45425853 1.6753768 1.7380201
0.43585837 1.6678607 1.633731
0.42036232 1.6829909 1.5459328
0.4037303 1.6801451 1.451678
0.38263568 1.7134815 1.3321835
0.35350069 1.5063295 1.1668541
0.34192884 1.5390645 1.1013305
0.32865095 1.5418119 1.0261074
0.3158457 1.549417 0.95356941
0.30288422 1.5494652 0.88013953
0.29020238 1.5516888 0.80829805
0.27082714 1.5298092 0.69851673
0.25911039 1.5602487 0.63217235
0.24667615 1.5544684 0.56172961
0.23441683 1.5561674 0.49228507
0.22216699 1.5564028 0.42289323
0.20985532 1.5661725 0.35315865
0.19757257 1.5614743 0.28357628
0.17885998 1.567187 0.1775769
0.16638757 1.5641776 0.10692012
0.15360032 1.5674579 0.034482576
0.1412551 1.5544119 -0.035461579
0.14011577 1.3002896 -0.042048465
0.1287642 1.2961344 -0.1063505
0.095465347 1.5409462 -0.29488325
0.14352627 0.71755207 -0.022936497
0.14008647 0.65133208 -0.042418208
0.12720637 0.7103036 -0.11533905
0.12197543 0.62270999 -0.14495721
0.10736991 0.68247646 -0.22766447
0.14748184 0.20015045 -0.00043944205
0.14759275 0.15116525 0.00022996463
0.14563943 0.1018683 -0.010768557
0.14594592 0.060883004 -0.0089837443
0.14572123 0.026687158 -0.010206316
0.14605604 -0.0083748987 -0.0082562296
0.14596882 -0.038511768 -0.0086959964
0.14576368 -0.066102274 -0.009802659
0.14539813 -0.091312476 -0.011817419
0.14565344 -0.11801892 -0.010312099
0.1457144 -0.14239049 -0.0099073257
0.14583109 -0.16574472 -0.009185777
0.14584078 -0.1875893 -0.0090701329
0.14586984 -0.20855741 -0.008844018
0.14590487 -0.22869933 -0.0085835643
0.14610216 -0.26713684 -0.0073400149
0.14539456 -0.29240668 -0.011257926
0.14566785 -0.3273575 -0.009581943
0.14572814 -0.34405211 -0.0091766836
0.14555851 -0.36010277 -0.010075406
0.14566047 -0.37626392 -0.0094337678
0.14569303 -0.39209846 -0.0091858637
0.14514907 -0.41514421 -0.012176752
0.14542273 -0.43079218 -0.010561697
0.1456185 -0.44623381 -0.0093885688
0.14486638 -0.46155417 -0.013593138
0.14559589 -0.47687519 -0.0093924878
0.14537758 -0.49231663 -0.01056951
0.1445636 -0.50827771 -0.015126878
0.14522637 -0.5234856 -0.011305763
0.14536624 -0.54703581 -0.010422226
0.14473601 -0.56390566 -0.0139396
0.1452245 -0.57957441 -0.011109115
0.14514554 -0.59633607 -0.011499644
0.14531747 -0.62161791 -0.010439045
0.14467481 -0.63177693 -0.014059134
0.13569193 -0.68199909 -0.064971603
0.14471 -0.67766863 -0.013725236
0.14437088 -0.698165 -0.015599203
0.14403842 -0.71955097 -0.017437238
0.14472774 -0.74912041 -0.013451693
0.14494383 -0.77070862 -0.012179116
0.14436045 -0.79676145 -0.015449224
0.14400266 -0.82340938 -0.017441068
0.14480473 -0.85968298 -0.012829401
0.1446349 -0.88945949 -0.013761177
0.14437456 -0.92192709 -0.015211215
0.14348999 -0.96094239 -0.020213714
-0.029180977 -2.3125091 -1.0017844
-0.030336533 -2.4613612 -1.0085164
-0.031333782 -2.6244297 -1.0143766
-0.02604666 -2.8392549 -0.98464495
-0.026342237 -3.042475 -0.98659921
-0.028543625 -3.2948718 -0.99945092
-0.02950085 -3.5701063 -1.0052881
-0.030445069 -3.8903503 -1.011133
-0.01809172 -4.2662902 -0.94162095
0.056711134 -8.2827702 -0.52408367
0.10395364 -8.328476 -0.25616148
0.25530779 -10.744027 0.59809035
0.31861776 -10.841376 0.95703924
0.44341466 -10.748425 1.6652032
0.51205498 -10.932191 2.0544834
0.55164772 -4.9326262 2.2910473
0.70938671 -6.4751616 3.1833732
0.69652623 -5.8221002 3.1116993
0.71878284 -5.6211996 3.2384562
0.73623651 -5.3896823 3.3380134
0.72989738 -4.9663258 3.3029127
0.73783481 -4.5522237 3.3488455
0.73858237 -4.2718678 3.3536885
0.69925416 -3.7404885 3.1315918
0.73204333 -3.7272143 3.3177514
0.73057061 -3.4981706 3.3098962
0.72484583 -3.2620041 3.277926
0.73128945 -3.0152237 3.3150568
0.72843611 -2.8274579 3.2992868
0.72908807 -2.6662931 3.3033557
0.72685665 -2.5014832 3.2910697
0.71976948 -2.3272321 3.2512491
0.72610575 -2.209888 3.2874849
0.7202369 -2.0559015 3.2545373
0.72038597 -1.8650762 3.2558327
0.7185427 -1.7381905 3.2456722
0.71513951 -1.6122679 3.2266583
0.71425861 -1.4964632 3.221935
0.71291715 -1.3830329 3.2145927
0.71131301 -1.2722281 3.205754
0.7135247 -1.1697206 3.2185464
0.69757241 -0.99592555 3.1284482
0.67355263 -0.87513953 2.9924593
0.70418018 -0.80394548 3.1663911
0.7081688 -0.70764142 3.189244
0.70429504 -0.60793144 3.1674988
0.70068204 -0.51015234 3.147228
0.2767579 -0.42744434 0.74294287
0.26302868 -0.41372535 0.66532123
0.26096612 -0.39872506 0.65383184
0.26042646 -0.3951894 0.65082276
0.26023242 -0.38217992 0.64988142
0.2603564 -0.37274382 0.65069157
0.26056096 -0.35300717 0.65206611
0.26255605 -0.34238452 0.66344303
0.26209584 -0.33298644 0.6609385
0.26084211 -0.32050112 0.65398359
0.26008958 -0.31184581 0.64981955
0.26013443 -0.29987347 0.65018201
0.26022035 -0.28709614 0.65077794
0.26014715 -0.26750126 0.65052563
0.26073331 -0.25017864 0.65396333
0.26090673 -0.23377652 0.65505838
0.52584273 1.716545 2.1601658
0.50095594 1.6889451 2.0190413
0.47967622 1.6778573 1.8983941
0.46086755 1.6785306 1.7917757
0.44192883 1.6700295 1.6844112
0.42482376 1.6714621 1.5874575
0.4017131 1.6899915 1.4564902
0.38699639 1.7052171 1.3730972
0.35745463 1.504863 1.205416
0.34537914 1.5304617 1.1370167
0.33214509 1.5355401 1.0620271
0.319291 1.5435214 0.98919541
0.30664623 1.5526713 0.91755205
0.2936174 1.548439 0.84371895
0.27482358 1.5532418 0.73722994
0.26246178 1.5581973 0.66718882
0.25010797 1.5606489 0.59719092
0.23775044 1.5576109 0.52716774
0.22547631 1.5550827 0.45761836
0.21323039 1.5580906 0.38823369
0.1947086 1.5664583 0.28329259
0.18224005 1.5702274 0.21264614
0.16979347 1.5674871 0.14211962
0.1572749 1.564186 0.071184754
0.14437462 1.5681019 -0.001909642
0.14486644 1.257809 0.00073579024
0.13150832 1.3014085 -0.074924111
0.10109758 1.5146102 -0.24715491
0.1424011 0.7553485 -0.013350271
0.13981505 0.67146713 -0.027989822
0.12277666 0.73025548 -0.12446688
0.12159714 0.6424185 -0.13112807
0.11453262 0.62649363 -0.17112242
0.10351545 0.64764929 -0.23351307
0.1448227 0.22451517 0.00056911568
0.14365104 0.16018136 -0.0059791249
0.14273775 0.12304676 -0.011089822
0.14272541 0.082447648 -0.011091424
0.14292687 0.0094369184 -0.0098047107
0.14305179 -0.023148865 -0.0090208761
0.14274658 -0.079072617 -0.01059435
0.13803032 -0.083329931 -0.037252866
0.1429849 -0.13115896 -0.0090806615
0.14292401 -0.17670935 -0.0092585171
0.14239006 -0.22681962 -0.012071753
0.14255907 -0.24675378 -0.01102617
0.14239836 -0.26510182 -0.011849614
0.14268743 -0.28399241 -0.010121794
0.14283694 -0.31909943 -0.009094853
0.1426713 -0.33558995 -0.0099438252
0.14282696 -0.36841211 -0.0088788047
0.14297625 -0.38445699 -0.0079402532
0.14271195 -0.41545972 -0.0092542842
0.14254554 -0.43852895 -0.010058268
0.14295638 -0.45393053 -0.0076344749
0.14259215 -0.46921864 -0.0096061472
0.14232114 -0.48463705 -0.011048773
0.14266345 -0.49990582 -0.0090125781
0.14240263 -0.52335006 -0.010348966
0.14207837 -0.53148323 -0.01214026
0.14245319 -0.55490983 -0.0098705217
0.14220552 -0.57138991 -0.011178903
0.14206561 -0.58807492 -0.011875637
0.14203571 -0.60494131 -0.011948247
0.14212038 -0.63070732 -0.011321726
0.14189556 -0.64910853 -0.012498807
0.14180201 -0.6677953 -0.012930969
0.14153349 -0.68764472 -0.014355155
0.14216287 -0.71555817 -0.010636583
0.14100015 -0.72989208 -0.017181151
0.14164622 -0.76016694 -0.013366615
0.14151749 -0.78366417 -0.013995891
0.14103477 -0.810022 -0.016632142
0.14192082 -0.844697 -0.011453833
0.14173044 -0.87348545 -0.012430518
0.14118466 -0.90632826 -0.015422102
0.14094706 -0.93986326 -0.016664965
-0.034092918 -2.390105 -1.0089382
-0.035028044 -2.5445027 -1.0141041
-0.029410809 -2.7435007 -0.98203796
-0.030308887 -2.9399669 -0.98697972
-0.032372992 -3.1746979 -0.99852437
-0.034769505 -3.447191 -1.0119429
-0.033510625 -3.7154469 -1.0046248
-0.028360793 -4.1574473 -0.97513205
-0.023326898 -4.4968801 -0.94637513
0.027254064 -8.2588234 -0.65774333
0.075226359 -8.257555 -0.3854939
0.1220246 -8.3223476 -0.11988519
0.15583098 -10.5924 0.072691619
0.2794413 -10.729435 0.7741785
0.37519073 -10.867041 1.3175558
0.40613395 -10.818769 1.4930682
0.5348379 -10.839845 2.2231598
0.53032106 -4.9207549 2.1961014
0.56222141 -4.9209719 2.3771107
0.70658708 -6.2386394 3.1964052
0.70333475 -5.7253361 3.177881
0.72755337 -5.5508714 3.3152719
0.70759666 -4.9796381 3.2019889
0.73353666 -4.706953 3.3491576
0.72917604 -4.3730192 3.3244073
0.72951412 -4.1038055 3.3263278
0.70344543 -3.6816649 3.1784267
0.7338962 -3.6515334 3.3512158
0.72344935 -3.3760755 3.2919645
0.72717029 -3.105155 3.3131166
0.724388 -2.9117484 3.2973633
0.72332418 -2.7381825 3.2913635
0.72598875 -2.589865 3.3065186
0.69899291 -2.3325572 3.1534083
0.72783822 -2.2987807 3.3170946
0.71865636 -2.1285706 3.2650509
0.713422 -1.9808047 3.2354035
0.71520478 -1.7988046 3.2455909
0.71292728 -1.6733257 3.2327216
0.71120626 -1.5536448 3.2230105
0.71242428 -1.4436433 3.2299724
0.70694023 -1.3239605 3.1989172
0.70950973 -1.2214242 3.2135468
0.71351701 -1.0693599 3.2363603
0.67089599 -0.9225269 2.9946501
0.6959241 -0.84935015 3.1366765
0.70695049 -0.75837719 3.1992776
0.70376426 -0.6579107 3.1812603
0.69892156 -0.55887485 3.153847
0.6953879 -0.46202403 3.1338592
0.274452 -0.43291146 0.74642664
0.27388504 -0.42169887 0.7432878
0.2609418 -0.4173806 0.66999006
0.25960118 -0.41433898 0.66242486
0.25841919 -0.40262923 0.65583718
0.2578561 -0.39467749 0.65272105
0.25747418 -0.39090297 0.65059364
0.25724557 -0.37786129 0.64941299
0.25752813 -0.36319172 0.65113139
0.2588993 -0.34461147 0.65902328
0.25945997 -0.33771744 0.66224146
0.25897366 -0.3283335 0.65955991
0.25739035 -0.31698644 0.6506952
0.25705183 -0.30675736 0.64885145
0.25734013 -0.29354712 0.65056247
0.25708729 -0.27537417 0.64924181
0.25749388 -0.25958684 0.65162259
0.25733173 -0.23797241 0.65081495
0.25798985 -0.21779639 0.65462065
0.51063061 1.701249 2.0872593
0.48651281 1.6731743 1.9505378
0.46631169 1.6655049 1.8360255
0.44847357 1.6702017 1.7349122
0.43175659 1.6790366 1.6401563
0.40860385 1.702495 1.508924
0.39198554 1.6979846 1.4147313
0.37674582 1.7042128 1.328354
0.34806475 1.5034732 1.1658107
0.33669001 1.5390123 1.1013454
0.32331473 1.5398511 1.0255451
0.31057161 1.5484066 0.95332718
0.29793319 1.5562449 0.8817026
0.27865413 1.5512856 0.77244836
0.26587537 1.54067 0.7000339
0.25390285 1.5602196 0.63217956
0.2414964 1.5564376 0.56187308
0.2292732 1.5651388 0.4925999
0.21697289 1.5563829 0.42289641
0.19861919 1.5536301 0.31888422
0.18619761 1.562672 0.24848299
0.17385495 1.5592369 0.17853445
0.16111067 1.5681211 0.10630105
0.14843807 1.5674534 0.034477826
0.13632922 1.5485635 -0.034139182
0.13530423 1.291594 -0.039761968
0.12340157 1.2990034 -0.10722189
0.14454141 0.74680507 0.013048552
0.13855477 0.71194685 -0.02082563
0.13466185 0.65224963 -0.04280927
0.11680543 0.71856678 -0.14403971
0.11613275 0.62800783 -0.14773855
0.10298927 0.672952 -0.22225812
0.14230752 0.19762862 0.0011659203
0.13782576 0.16299744 -0.024131536
0.13994823 0.10343862 -0.011983535
0.14045946 0.060876831 -0.0089856163
0.14022763 0.026680794 -0.010207646
0.14046133 -0.038518637 -0.008696096
0.14037937 -0.06677857 -0.0090703228
0.13948104 -0.089391097 -0.01407941
0.14026596 -0.1186422 -0.0095342817
0.14004463 -0.14181037 -0.010701566
0.14044046 -0.16631199 -0.008366202
0.14044876 -0.18812758 -0.0082310569
0.14032616 -0.20856588 -0.00883938
0.14050999 -0.22917759 -0.0077086724
0.13996063 -0.27479634 -0.010609723
0.13999462 -0.29277459 -0.010330441
0.13998792 -0.31017673 -0.010282241
0.14009787 -0.32736742 -0.009572153
0.13998669 -0.34380335 -0.010117274
0.14015007 -0.36033818 -0.0091042826
0.13982476 -0.38394532 -0.010821942
0.13990147 -0.39977327 -0.010300985
0.14006279 -0.4077 -0.0093426416
0.13982816 -0.4308036 -0.010545908
0.13984655 -0.44621047 -0.010355969
0.1397848 -0.46156627 -0.010620852
0.13981606 -0.47692209 -0.010357785
0.13976718 -0.49232894 -0.010549502
0.13981216 -0.50776798 -0.010208556
0.13962777 -0.53133619 -0.01112606
0.13940015 -0.54743034 -0.012331579
0.1397825 -0.56301951 -0.010075847
0.13925457 -0.58010548 -0.01298506
0.13934004 -0.59664214 -0.012413491
0.13904072 -0.61425781 -0.014024991
0.13938348 -0.63987929 -0.011949531
0.13922617 -0.65842706 -0.012754552
0.13904572 -0.67768347 -0.01369055
0.13870014 -0.69818002 -0.015562831
0.13836084 -0.71956623 -0.017399099
0.13889462 -0.74968064 -0.014236847
0.13924898 -0.77072448 -0.012136401
0.13851829 -0.79737931 -0.016190961
0.13802025 -0.8246842 -0.018924778
0.13920821 -0.85903054 -0.012047041
0.13889885 -0.88947642 -0.013708217
0.13850635 -0.92266351 -0.015839648
0.13772859 -0.96095973 -0.020154845
-0.036754817 -2.322768 -1.0095358
-0.036780689 -2.4629951 -1.0095317
-0.038509823 -2.6319072 -1.0191786
-0.033687036 -2.8512726 -0.99157429
-0.033735357 -3.052114 -0.99166322
-0.035975229 -3.304692 -1.0041618
-0.036833175 -3.5782828 -1.0088052
-0.036495328 -3.8802462 -1.0066454
-0.026591642 -4.2907434 -0.95009363
-0.030940557 -4.8268447 -0.97440344
0.046838276 -8.3413544 -0.53054684
0.096253432 -8.2647438 -0.25002849
0.24541931 -10.704051 0.59826905
0.30839464 -10.801445 0.95586717
0.43414694 -10.77821 1.6696935
0.49979892 -10.849229 2.0424592
0.54076838 -4.8865952 2.272249
0.7024647 -6.4905529 3.1910269
0.68202484 -5.7472372 3.0746725
0.72504121 -5.5557652 3.3188498
0.74243796 -5.3287587 3.4175479
0.74308646 -4.9759216 3.4211104
0.72587347 -4.5157895 3.3232284
0.73046821 -4.2655358 3.3492467
0.69289303 -3.7450593 3.1357515
0.72118086 -3.7026594 3.296371
0.73237884 -3.4443865 3.3599038
0.72450399 -3.2007124 3.315146
0.72310787 -3.0079722 3.3071904
0.71974993 -2.8179815 3.288101
0.72151893 -2.6620429 3.2981317
0.71577841 -2.4830887 3.2655239
0.71636474 -2.3386321 3.2688477
0.71805537 -2.2041807 3.278445
0.71741015 -2.0016742 3.2747836
0.71223927 -1.8597713 3.2454295
0.7104159 -1.7332641 3.2350845
0.70719576 -1.6081007 3.2168121
0.70796627 -1.4960741 3.2211988
0.7058422 -1.3811303 3.2091534
0.70560443 -1.2727302 3.2078185
0.70941836 -1.1197891 3.2294939
0.6821053 -0.98518533 3.07446
0.67059344 -0.87775111 3.0091317
0.70606536 -0.8093785 3.2105129
0.70147353 -0.70714909 3.1844661
0.69954157 -0.60818887 3.1735191
0.69509941 -0.51011205 3.148324
0.2713027 -0.4274447 0.74300224
0.25759554 -0.41372693 0.66537851
0.25641945 -0.41068119 0.65873873
0.25554621 -0.39872631 0.65388811
0.25463039 -0.39144987 0.6487608
0.25482523 -0.38218063 0.64993674
0.25467417 -0.36871696 0.64918435
0.25533035 -0.35258433 0.65301228
0.25717175 -0.34238374 0.66349608
0.2563161 -0.32878268 0.65874404
0.25547412 -0.32049981 0.65403521
0.25518164 -0.31589237 0.65240997
0.25492197 -0.29929811 0.651039
0.25501135 -0.28649223 0.65161395
0.25494319 -0.2668559 0.65132821
0.25566226 -0.24883746 0.65547413
0.2550059 -0.22898273 0.65184939
0.52077562 1.7158252 2.1594625
0.49590188 1.6881994 2.0183642
0.47423908 1.6738116 1.895484
0.45537293 1.6735455 1.7884694
0.43692216 1.6692159 1.6838149
0.41334158 1.6909343 1.5500634
0.39675051 1.6891292 1.4559633
0.38219398 1.7061648 1.3733999
0.35326621 1.5150901 1.2093899
0.34108371 1.5398847 1.1402974
0.32721159 1.534613 1.0616326
0.31446984 1.544504 0.9893747
0.301788 1.5526904 0.9174577
0.28273007 1.5575719 0.80938697
0.26996008 1.552267 0.73697782
0.25759283 1.5562221 0.66684878
0.24513835 1.5506946 0.59623051
0.23292279 1.5556184 0.5269618
0.22067831 1.5560848 0.45753166
0.20227003 1.565165 0.35314503
0.18999209 1.561466 0.28352723
0.17765367 1.5602744 0.21356463
0.1650354 1.5674764 0.14200796
0.15225521 1.5730356 0.069533229
0.14006688 1.5563469 0.0004319619
0.13964 1.2674955 -0.001734677
0.12767464 1.2821627 -0.069589965
0.095421061 1.5306565 -0.2527205
0.13725235 0.75909019 -0.014743527
0.13456456 0.67608523 -0.02987342
0.117366 0.73657745 -0.12742627
0.11613277 0.64863324 -0.1342964
0.10659867 0.6579566 -0.1883474
0.13863169 0.16016486 -0.005973672
0.1380275 0.12063399 -0.0093032531
0.13791534 0.080876596 -0.0098397611
0.13824511 0.0072262161 -0.0077710934
0.13813473 -0.023872398 -0.008302832
0.13796484 -0.080401227 -0.0090811402
0.13811369 -0.10726422 -0.0081440294
0.1382153 -0.13237889 -0.0074761282
0.13824181 -0.15585552 -0.0072355513
0.13787615 -0.1767254 -0.0092227655
0.13807261 -0.21916696 -0.0079301791
0.1373558 -0.24633129 -0.011869017
0.13766849 -0.26593137 -0.01000629
0.13764092 -0.2840082 -0.010075983
0.13773803 -0.30184841 -0.0094380975
0.13795693 -0.31942415 -0.0081090862
0.1377943 -0.33588129 -0.0089464067
0.13773769 -0.35222322 -0.0091820126
0.13778551 -0.36842754 -0.0088248746
0.13776521 -0.38429859 -0.008854609
0.13748941 -0.40758383 -0.010292234
0.13753948 -0.42313632 -0.0099227279
0.13751127 -0.43854421 -0.0099975634
0.1374031 -0.45389298 -0.010526262
0.13738793 -0.46925113 -0.010527103
0.13729247 -0.48465222 -0.010983597
0.13741143 -0.50777376 -0.010180302
0.1373788 -0.52336508 -0.010279989
0.13727158 -0.53919291 -0.010802895
0.13709398 -0.55534029 -0.011725114
0.13701965 -0.57164663 -0.012060877
0.13688354 -0.58836532 -0.012747093
0.13685755 -0.60526502 -0.012808032
0.13711049 -0.63072199 -0.01124232
0.13672824 -0.64951384 -0.013324222
0.13711129 -0.66696489 -0.011062837
0.13637587 -0.68811333 -0.015147864
0.13580583 -0.7097944 -0.018293776
0.13667126 -0.73819017 -0.013248974
0.1366508 -0.76018137 -0.013274832
0.13624337 -0.78485411 -0.015495476
0.13604383 -0.81003654 -0.016535737
0.13667053 -0.84602308 -0.012840617
0.13649029 -0.87486351 -0.013768652
0.13632327 -0.90563548 -0.014620184
0.13560951 -0.9420715 -0.018571516
-0.039975181 -2.397377 -1.0140651
-0.04097053 -2.552779 -1.0195323
-0.035287026 -2.7520645 -0.98701757
-0.036313742 -2.9504433 -0.99263239
-0.038648713 -3.18891 -1.0056456
-0.041044995 -3.4625568 -1.0189822
-0.042602833 -3.768517 -1.0275363
-0.033624139 -4.1612663 -0.97617912
-0.032208346 -4.5612564 -0.96778649
0.023002701 -8.2182856 -0.65138483
0.070374385 -8.2347231 -0.38238016
0.11736038 -8.2704954 -0.11555098
0.14978896 -10.689346 0.070315674
0.27415973 -10.769362 0.77654928
0.36884585 -10.816141 1.3142096
0.39980856 -10.778877 1.4900017
0.46312189 -10.774391 1.849444
0.52912945 -10.839676 2.224231
0.52511948 -4.9233699 2.1977451
0.55792701 -4.9354072 2.3840609
0.69916064 -6.2168179 3.1867285
0.71061063 -5.8645992 3.2515614
0.74140376 -5.5379992 3.4262555
0.71773612 -4.9478903 3.2915859
0.72898316 -4.7148819 3.3553553
0.72437871 -4.3783484 3.3290741
0.72247249 -4.0926633 3.3181458
0.69854116 -3.6851895 3.1821091
0.7270993 -3.6432238 3.3442817
0.72721815 -3.3272982 3.3448777
0.72428143 -3.1182773 3.3281569
0.71919876 -2.9127738 3.2992578
0.71856087 -2.7410011 3.2956133
0.71900326 -2.5831375 3.2981117
0.6955964 -2.340138 3.1651678
0.7206412 -2.2921584 3.3074031
0.71668923 -2.0728347 3.2849653
0.71222568 -1.9295601 3.2596271
0.70995855 -1.7989701 3.2467668
0.70481604 -1.6664259 3.2175825
0.70484263 -1.5512384 3.2177548
0.70391846 -1.4371998 3.2125313
0.70155823 -1.3237065 3.1991565
0.70550811 -1.1703824 3.2216294
0.70796555 -1.0688943 3.2356145
0.66504234 -0.92176867 2.9919384
0.6775077 -0.83851892 3.0627527
0.70089 -0.75770372 3.1955488
0.69580239 -0.65660971 3.166703
0.69217384 -0.55834365 3.1461425
0.68916374 -0.46177378 3.1290953
0.26963991 -0.43278238 0.74749988
0.25610206 -0.42173532 0.67080182
0.25447139 -0.41006321 0.66166359
0.25344634 -0.40259588 0.65592414
0.25308684 -0.39873159 0.65392309
0.25250143 -0.3908703 0.65067947
0.25252679 -0.3818599 0.65090299
0.25313923 -0.37131539 0.65445924
0.25443491 -0.34836245 0.6619733
0.25394067 -0.33392745 0.65928692
0.25357896 -0.32412344 0.65731317
0.25241303 -0.316955 0.65077454
0.25207406 -0.30672628 0.64892989
0.25250173 -0.29292828 0.65143651
0.25224236 -0.27471417 0.65008283
0.25277478 -0.25824398 0.65318358
0.25247425 -0.23724729 0.65159589
0.25336751 -0.21560778 0.656744
0.50549042 1.702197 2.0878088
0.48128429 1.6733217 1.95048
0.46129188 1.6673002 1.8370668
0.44317994 1.6694815 1.7343272
0.41886747 1.6881585 1.5964242
0.40232465 1.6901286 1.5025927
0.38660073 1.6953644 1.4134092
0.3721334 1.7116674 1.3313565
0.34331101 1.5091503 1.1678655
0.33196414 1.5457006 1.1035224
0.31820151 1.5399137 1.0254756
0.30537596 1.5465305 0.95274532
0.28634489 1.5543371 0.84482664
0.27347699 1.5483699 0.77185875
