# .PCD v0.7 - Point Cloud Data file format
VERSION 0.7
FIELDS x y z
SIZE 4 4 4
TYPE F F F
COUNT 1 1 1
WIDTH 414
HEIGHT 1
VIEWPOINT 0 0 0 1 0 0 0
POINTS 414
DATA ascii
0.38227591 -0.88788503 0.0027392716
0.30642155 -0.85920006 0.0028045564
0.35810113 -0.85994101 0.0020480396
0.23208252 -0.79533231 0.0020858722
0.22671753 -0.79468471 0.0028970381
0.19760315 -0.77189678 0.0020399236
0.16573754 -0.74960965 0.0023426306
0.17126314 -0.74962109 0.0022732208
0.29081506 -0.84500647 0.0034352557
0.26139289 -0.81831092 0.0039891037
0.20846511 -0.78235614 0.0034790596
0.14196113 -0.72758907 0.0033770094
0.10737853 -0.69772595 0.0032311399
0.37761661 -0.88652313 0.0041680536
0.25662872 -0.81704527 0.0054817609
0.21386293 -0.78121924 0.0051026419
0.14757107 -0.73661929 0.0055722054
0.1237262 -0.71606147 0.005651095
0.38991332 -0.86929131 0.0068400041
0.11865405 -0.70563865 0.0065128217
0.32848883 -0.86872053 0.0075809718
0.34478462 -0.85516393 0.0072355806
0.19046918 -0.76786858 0.0076106973
0.094971322 -0.68601316 0.0070738969
0.33698055 -0.8672781 0.0089283166
0.23833051 -0.80205578 0.0086293118
0.15357175 -0.73445976 0.0089169685
0.26799768 -0.8263467 0.0094817085
0.27301297 -0.82633615 0.0094409548
0.22019875 -0.78916633 0.0098338518
0.22551759 -0.78915679 0.0099339904
0.19628149 -0.76662844 0.0092277341
0.17756373 -0.75533938 0.0097711561
0.12972328 -0.71402514 0.0091334675
0.30526862 -0.85171384 0.010772206
0.34236342 -0.85171354 0.010697427
0.33497623 -0.86454087 0.01193648
0.31620198 -0.86383635 0.012524845
0.32136145 -0.86385328 0.012570704
0.30033916 -0.85027063 0.012099679
0.2842721 -0.83632499 0.012889124
0.2074811 -0.77573389 0.012173575
0.16504458 -0.74230635 0.012870684
0.13570778 -0.72178876 0.012608469
0.10111517 -0.69239795 0.012730027
0.087666832 -0.68317068 0.012238765
0.38698971 -0.87728983 0.013161237
0.20220535 -0.7745375 0.013788457
0.15963861 -0.74175185 0.013619261
0.31143031 -0.86173952 0.01467536
0.27956805 -0.83502001 0.014486638
0.24493966 -0.80940151 0.014660911
0.25002518 -0.80941665 0.014612813
0.1890711 -0.7632001 0.014017859
0.10675312 -0.70112616 0.014224622
0.29533166 -0.84758282 0.015051689
0.35092047 -0.84765977 0.015041618
0.35579613 -0.84696078 0.015771095
0.18375842 -0.76201755 0.015619995
0.11213437 -0.7005806 0.015010771
0.3904101 -0.87377828 0.016678911
0.23206258 -0.79581487 0.016384071
0.21849091 -0.78362995 0.016813453
0.17623107 -0.75016135 0.016958829
0.29078728 -0.84487301 0.017911401
0.21358159 -0.78303254 0.017734433
0.17104425 -0.74954826 0.017737901
0.14190207 -0.72900134 0.017171597
0.1470504 -0.72898513 0.017130222
0.12305606 -0.7088514 0.017474923
0.094403632 -0.68948132 0.017921405
0.26144552 -0.81848043 0.018412266
0.11824013 -0.7083475 0.018383184
0.38372684 -0.88594139 0.019092612
0.32809913 -0.87104577 0.019482126
0.25646347 -0.81784302 0.019145127
0.19519351 -0.76972049 0.020005714
0.15321207 -0.73670036 0.020970084
0.12932928 -0.71651679 0.020990662
0.13441348 -0.71650666 0.020986188
0.30975246 -0.85477227 0.02174544
0.27264988 -0.82825518 0.021639908
0.18229266 -0.75727981 0.021928653
0.15837993 -0.73616958 0.021779459
0.3418448 -0.85410708 0.022475019
0.26763374 -0.82755828 0.022316944
0.23816651 -0.80290544 0.022026956
0.24330325 -0.80293071 0.0220904
0.10011041 -0.69611174 0.022713691
0.30511513 -0.85267425 0.023927821
0.2253869 -0.78948188 0.023975989
0.10591659 -0.6956315 0.023594677
0.32077041 -0.86610073 0.024368795
0.32642224 -0.86613828 0.024380993
0.28889197 -0.83878762 0.024471898
0.25432992 -0.81328285 0.024328412
0.18830951 -0.76617485 0.024725171
0.16447495 -0.74493605 0.024160668
0.11637589 -0.70471984 0.02427261
0.38780347 -0.87872416 0.025858503
0.31583717 -0.86537552 0.025046961
0.33436728 -0.8646664 0.025789242
0.29983935 -0.85055554 0.025989285
0.27843872 -0.83736777 0.025840484
0.24943766 -0.81199712 0.025809145
0.23075867 -0.79971832 0.025916029
0.23626451 -0.79975098 0.025881618
0.20170255 -0.77676642 0.025378807
0.17542695 -0.75435346 0.025972102
0.36649746 -0.86396694 0.026437104
0.28422546 -0.83672911 0.026670739
0.13804528 -0.77620143 0.026112746
0.20700638 -0.77617937 0.026177609
0.19375895 -0.76494825 0.026308069
0.14105934 -0.72304779 0.026306443
0.34030151 -0.86252791 0.027801942
0.29503971 -0.84921342 0.027495805
0.26551712 -0.82289672 0.027483281
0.11166678 -0.70266247 0.027640233
0.093207248 -0.68413329 0.027347023
0.22886224 -0.79715997 0.028987434
0.17031537 -0.75257903 0.028433373
0.35108623 -0.84718627 0.02951513
0.21300223 -0.78506047 0.029299418
0.21812274 -0.78512561 0.02935184
0.19979912 -0.77370983 0.029277069
0.14662629 -0.73054498 0.029919993
0.08565823 -0.68267089 0.029905474
0.27422041 -0.87375414 0.030700559
0.39167538 -0.87373537 0.030735321
0.35590282 -0.84649986 0.03023066
0.2610071 -0.82024038 0.030393496
0.16253906 -0.795847 0.030362079
0.14426994 -0.78379679 0.030847805
0.18384087 -0.77253294 0.030781049
0.12281442 -0.71070063 0.030185798
0.30642763 -0.87304401 0.031454947
0.21853755 -0.80674207 0.03179111
0.24238987 -0.80668074 0.031731728
0.15496622 -0.79518461 0.031116756
0.2159536 -0.79526269 0.031292357
0.14960895 -0.79453218 0.031873025
0.22407624 -0.794599 0.03190371
0.12302951 -0.78322142 0.031624679
0.11760546 -0.77191472 0.031584978
0.12835793 -0.71924746 0.0319933
0.13361141 -0.71981442 0.031274993
0.099218793 -0.69110721 0.0312443
0.32216927 -0.91748005 0.032448869
0.28523111 -0.88654661 0.032587383
0.30388567 -0.88645053 0.032410782
0.32479018 -0.87238783 0.032117847
0.33279449 -0.87239408 0.03208641
0.33852807 -0.87238133 0.03219381
0.38743931 -0.87224656 0.032024432
0.30901137 -0.8582983 0.032091387
0.30395067 -0.85751414 0.032672394
0.26635602 -0.84432358 0.032348949
0.27201477 -0.8312223 0.032353941
0.27703154 -0.83121222 0.032312833
0.18154113 -0.80609846 0.032610059
0.19735715 -0.80602306 0.032490011
0.17104588 -0.79394668 0.03278799
0.18964438 -0.7826097 0.032371804
0.15225175 -0.7391901 0.032220274
0.10462522 -0.69957638 0.032728996
0.33310226 -0.90010679 0.033921141
0.32230389 -0.88582063 0.033139132
0.33576822 -0.88506913 0.033838227
0.24821627 -0.87095648 0.033546805
0.29608995 -0.87089831 0.033535011
0.3198773 -0.87093353 0.033439215
0.35176024 -0.87095529 0.03342763
0.38446632 -0.87082618 0.033423398
0.22437611 -0.84300297 0.033767145
0.27477577 -0.84294009 0.033777393
0.28794602 -0.84297901 0.033809748
0.22136122 -0.8054139 0.033221811
0.22701143 -0.80538046 0.033257436
0.18991405 -0.80477512 0.033977851
0.16615944 -0.78128469 0.033879437
0.2111674 -0.78191137 0.033170756
0.16858724 -0.77065367 0.03315179
0.17920195 -0.77009845 0.033936288
0.18172894 -0.75956517 0.033488233
0.11801987 -0.71814668 0.033696409
0.31745371 -0.91519815 0.034367539
0.30131564 -0.89926028 0.034566212
0.35663709 -0.8993718 0.034561254
0.36165392 -0.89937967 0.034573242
0.2723707 -0.88430184 0.034516208
0.29368263 -0.88431275 0.034478541
0.29873028 -0.88429564 0.034501098
0.34957284 -0.88437158 0.034615129
0.35431921 -0.88437098 0.034493759
0.35906419 -0.88435262 0.03450498
0.36378452 -0.88437521 0.034466263
0.26163074 -0.87017179 0.034089733
0.30125597 -0.8701328 0.03412699
0.35669389 -0.8695249 0.034803681
0.365879 -0.86950845 0.034774907
0.25087214 -0.85622698 0.034130108
0.26419494 -0.85615081 0.034164723
0.28566346 -0.85548836 0.034931369
0.25350899 -0.84234101 0.034539357
0.23523809 -0.82924217 0.034570668
0.26427194 -0.82918227 0.034526151
0.17933151 -0.81629097 0.034848005
0.21658099 -0.81629473 0.034949444
0.25358137 -0.81630725 0.034864388
0.18451327 -0.80408651 0.03470549
0.2084053 -0.79261255 0.034213059
0.15810749 -0.79198939 0.034942001
0.18180583 -0.78136182 0.034017429
0.1977603 -0.78065759 0.034667265
0.20588292 -0.78066075 0.034743018
0.13170007 -0.76945579 0.034683298
0.14742015 -0.76940465 0.034604173
0.16063271 -0.74785852 0.034646269
0.15809892 -0.73748702 0.034681853
0.13961485 -0.72721589 0.034863114
0.11031008 -0.69854331 0.034442216
0.32830653 -0.93049306 0.035293192
0.33332971 -0.93047082 0.035301041
0.33081251 -0.91445673 0.035020083
0.3520591 -0.89862019 0.035211664
0.29650703 -0.89782006 0.035979617
0.31514472 -0.89784294 0.035907723
0.26682031 -0.88355845 0.035146501
0.28004229 -0.88357759 0.035154775
0.33084729 -0.88362229 0.035141665
0.37983274 -0.88359267 0.035218347
0.31772122 -0.88287753 0.035807036
0.34418157 -0.88288468 0.035866521
0.36813614 -0.88288242 0.035805456
0.27256453 -0.85473078 0.035545763
0.23236632 -0.84158987 0.035231575
0.24057418 -0.84086925 0.035820823
0.26195911 -0.84087044 0.035872344
0.19277444 -0.82858074 0.035250507
0.24298462 -0.82850873 0.03518739
0.25107989 -0.82857656 0.035210598
0.2274749 -0.82783842 0.035946164
0.20862865 -0.81554705 0.035579488
0.24862197 -0.81562221 0.035645366
0.20600693 -0.80340225 0.035539184
0.23542607 -0.8034519 0.035550177
0.14267068 -0.79137206 0.03574251
0.17412776 -0.7800495 0.035442054
0.17709315 -0.76885128 0.03549869
0.18724737 -0.76887333 0.035504386
0.19284381 -0.76888031 0.035495434
0.15827204 -0.75768971 0.035748482
0.10802648 -0.7266894 0.03574308
0.11575433 -0.72663826 0.035686571
0.081084087 -0.71709144 0.035377048
0.094583429 -0.69800818 0.035235047
0.32551491 -0.91296059 0.036381491
0.34988138 -0.9129653 0.0364618
0.32041225 -0.89711201 0.036541205
0.34686652 -0.8970933 0.036520403
0.36617473 -0.89712584 0.036509331
0.3123329 -0.8821243 0.036513444
0.37247068 -0.88216972 0.036563512
0.37620273 -0.8821488 0.036500216
0.28338468 -0.8680715 0.036345612
0.31521112 -0.8680439 0.03620128
0.37050495 -0.86807019 0.036222477
0.36207178 -0.8673749 0.036866739
0.36409891 -0.85409695 0.03618937
0.25957209 -0.85334104 0.036940478
0.29917207 -0.85331035 0.036923293
0.27013075 -0.84013408 0.036555089
0.28347817 -0.84023327 0.036778994
0.20619829 -0.82714683 0.036718216
0.2595391 -0.82715487 0.036676746
0.18735766 -0.81495923 0.036332231
0.22483121 -0.81493628 0.036266394
0.24065284 -0.81488681 0.036196135
0.16910774 -0.80274206 0.036234785
0.21420285 -0.8027404 0.036195114
0.17963417 -0.79075915 0.036475293
0.19552383 -0.79074162 0.036448605
0.20364043 -0.79065549 0.036453314
0.16663566 -0.75708121 0.036500689
0.12386971 -0.74671447 0.036300942
0.14281261 -0.73636454 0.036340084
0.15040691 -0.73631179 0.036248267
0.12392217 -0.7261368 0.0365358
0.062858857 -0.71651512 0.036199439
0.11329959 -0.71597171 0.036991086
0.091967128 -0.70640546 0.036809657
0.10824565 -0.70645463 0.036891092
0.11582074 -0.70693368 0.036000572
0.091895081 -0.68808287 0.036308419
0.34190711 -0.92811936 0.037126072
0.34436828 -0.91218668 0.037014138
0.29110369 -0.89638287 0.037274718
0.32866088 -0.89641327 0.037207507
0.34192592 -0.89633822 0.037143845
0.25661764 -0.86662424 0.03755457
0.38183552 -0.86656159 0.037540939
0.35001493 -0.85338616 0.03703244
0.23829348 -0.85267591 0.037611071
0.24599387 -0.85263973 0.037588973
0.35962597 -0.85266024 0.037620582
0.2489178 -0.83954614 0.037423428
0.23826723 -0.82651466 0.037370175
0.19560809 -0.8142665 0.037016671
0.20372637 -0.81417984 0.037019685
0.23270361 -0.81424379 0.037045877
0.16111633 -0.80144614 0.037648238
0.17746966 -0.80147463 0.037742518
0.15614465 -0.76694649 0.03774121
0.16385722 -0.76696599 0.037739944
0.13213924 -0.74611342 0.037087981
0.14786088 -0.74606228 0.037011296
0.11612631 -0.7454809 0.037860382
0.14012752 -0.74549943 0.037852757
0.15617342 -0.74547875 0.037840053
0.16389173 -0.74549812 0.037837975
0.089448221 -0.73578364 0.037085891
0.09774667 -0.73579144 0.037141141
0.10551006 -0.73522466 0.037923858
0.11330144 -0.73579514 0.037093844
0.13463236 -0.73582494 0.037161071
0.11080504 -0.72556472 0.037389468
0.089589737 -0.71541572 0.037809528
0.12662353 -0.71543574 0.037780952
0.073840551 -0.70594543 0.037666112
0.097894773 -0.69647908 0.037817981
0.084017731 -0.68765819 0.037280049
0.31262916 -0.91064811 0.038278669
0.31013218 -0.89486516 0.038575012
0.27040243 -0.86581415 0.038168542
0.27817214 -0.86511922 0.038899112
0.29142317 -0.86519235 0.038985033
0.34718367 -0.8658796 0.038208287
0.37476066 -0.865192 0.038988184
0.28073934 -0.85120296 0.038995717
0.2943674 -0.85191339 0.038293805
0.35500395 -0.85197157 0.038307104
0.21211733 -0.83809251 0.038769171
0.21451826 -0.82577652 0.03806996
0.22220139 -0.82582605 0.038071696
0.23046257 -0.82581204 0.038179081
0.2120855 -0.81288117 0.038504656
0.1933541 -0.80084789 0.038483065
0.18767008 -0.78947985 0.038002256
0.13744116 -0.7775358 0.038498901
0.16127649 -0.77752638 0.038449697
0.17210145 -0.76637781 0.038675305
0.13752744 -0.75530261 0.038886461
0.14570099 -0.7552709 0.038889684
0.17461599 -0.75590116 0.038105119
0.12179969 -0.73466593 0.038737297
0.13751352 -0.73463911 0.038707364
0.14568347 -0.73460752 0.038710881
0.078898318 -0.72501999 0.038152713
0.13234317 -0.72500551 0.038159594
0.065792985 -0.72498816 0.038177434
0.087212667 -0.72441882 0.038941354
0.092179812 -0.72496265 0.038108777
0.10294579 -0.72443324 0.038979534
0.098034114 -0.71487904 0.038690597
0.100491 -0.70537049 0.0385346
0.30784759 -0.90912437 0.039629392
0.33970752 -0.90993583 0.03904403
0.28899744 -0.87848276 0.039893944
0.37880802 -0.86516839 0.039044835
0.24373707 -0.86442393 0.039579164
0.23061061 -0.85124087 0.039092701
0.25697076 -0.83744597 0.03945582
0.24634942 -0.82443309 0.03950993
0.17476372 -0.81223774 0.039210528
0.20152539 -0.80009681 0.039214529
0.12685649 -0.76577073 0.039298344
0.15354335 -0.75466371 0.039638568
0.10301748 -0.7443372 0.039481215
0.11116519 -0.74435025 0.039526116
0.12689486 -0.74435872 0.039437313
0.1296639 -0.73408228 0.03947074
0.095365196 -0.72386712 0.0397842
0.10580201 -0.71434128 0.03949251
0.12194715 -0.71435601 0.039498109
0.079127081 -0.70487314 0.03935669
0.087297373 -0.70483124 0.039330572
0.08182577 -0.69548291 0.039495192
0.08989317 -0.69544101 0.039451346
0.21999645 -0.83677053 0.040196933
0.20169558 -0.82371181 0.04027864
0.14346476 -0.76514298 0.040165864
0.13527612 -0.764561 0.040958773
0.15120043 -0.76447433 0.040847283
0.1220952 -0.7541256 0.04049053
0.16988656 -0.7540741 0.040484194
0.060859099 -0.72337574 0.040721208
0.076896183 -0.71380955 0.040296901
0.10317829 -0.70431578 0.040203348
0.33700436 -0.92353982 0.041002721
0.11401734 -0.75350636 0.041246124
0.13009569 -0.75291204 0.04198819
0.11929532 -0.74317062 0.041077144
0.07164859 -0.73233593 0.041881353
0.10093047 -0.73290938 0.041136138
0.071664073 -0.71268678 0.041895602
0.15399483 -0.77435231 0.042289801
0.1092562 -0.75230885 0.042855967
0.084805131 -0.73238701 0.04201711
0.069024056 -0.72217453 0.042205341
0.074628502 -0.72223675 0.042213768
0.084826134 -0.71273708 0.042026848
0.10135445 -0.7516827 0.043613445
0.09613888 -0.74080354 0.044249702
