# .PCD v0.7 - Point Cloud Data file format
VERSION 0.7
FIELDS x y z
SIZE 4 4 4
TYPE F F F
COUNT 1 1 1
WIDTH 1377
HEIGHT 1
VIEWPOINT 0 0 0 1 0 0 0
POINTS 1377
DATA ascii
-0.074826568 -0.032927722 0.65670985
0.051963732 1.7166289 1.3771899
0.010767655 1.5505458 1.1434398
-0.0027379603 1.5529778 1.0668488
-0.016212055 1.5505369 0.99043477
-0.029014137 1.5568084 0.91783684
-0.047777627 1.5715097 0.81143492
-0.060872816 1.5573709 0.737167
-0.07331226 1.5593374 0.66662407
-0.085512169 1.5717245 0.59744179
-0.098439611 1.5117594 0.52411819
-0.1102577 1.5661368 0.45710793
-0.12870173 1.5661753 0.35251009
-0.14091074 1.5564607 0.28327048
-0.15321746 1.5552558 0.21347655
-0.16575722 1.5604692 0.14235955
-0.17786111 1.545357 0.073715255
-0.19038427 1.5425191 0.002691116
-0.20332567 1.5458118 -0.070707783
-0.14034003 -0.03744036 0.28701633
-0.14142519 -0.066003196 0.28094989
-0.14297597 -0.0833259 0.27224034
-0.14463098 -0.097115599 0.26293936
-0.1473747 -0.11235123 0.24750526
-0.14794676 -0.12080918 0.24430546
-0.15066503 -0.13419457 0.22901641
-0.152454 -0.14294134 0.2189557
-0.15417893 -0.15200026 0.20925874
-0.15604709 -0.15975934 0.19874875
-0.15841314 -0.16400151 0.18541165
-0.16123061 -0.16580801 0.16951138
-0.16617005 -0.16601557 0.14161113
-0.19228424 -0.055245083 -0.0065295608
-0.19262016 -0.081202969 -0.0083377762
-0.19246696 -0.10803925 -0.0073681008
-0.19236153 -0.13312648 -0.0066693192
-0.1924738 -0.1560019 -0.0072063054
-0.19254912 -0.17796174 -0.0075330795
-0.19245307 -0.19956452 -0.0068863644
-0.19249351 -0.21979938 -0.0070144162
-0.19305214 -0.24735765 -0.010033351
-0.19273566 -0.26689404 -0.0081336554
-0.19276005 -0.28490704 -0.0081692059
-0.19282328 -0.30234051 -0.008424974
-0.19276921 -0.31957436 -0.0080143251
-0.19276707 -0.33630759 -0.0078980941
-0.1928242 -0.35261634 -0.0081180148
-0.19243787 -0.36920202 -0.0058195735
-0.19302928 -0.39226764 -0.0090196691
-0.19272146 -0.40034878 -0.0072189532
-0.1927195 -0.41583651 -0.007101791
-0.19305894 -0.43875036 -0.0088690892
-0.19299614 -0.45408195 -0.0084052598
-0.19318752 -0.46938851 -0.0093841199
-0.19311279 -0.48470265 -0.0088515673
-0.19311829 -0.50007612 -0.0087740012
-0.19303684 -0.52324253 -0.0081472769
-0.19314903 -0.53900206 -0.0086738411
-0.1929927 -0.55466527 -0.0076754494
-0.1934123 -0.57132065 -0.0099457502
-0.19355479 -0.58797264 -0.010642147
-0.1933163 -0.61279446 -0.0091181714
-0.19318406 -0.62980551 -0.0082530631
-0.19341679 -0.64811057 -0.0094585158
-0.18864474 -0.65359074 0.017742494
-0.18421252 -0.6582908 0.043013699
-0.18466993 -0.67696971 0.040534403
-0.1852783 -0.6970883 0.037199926
-0.19386575 -0.75922567 -0.011349695
-0.19442427 -0.78443074 -0.014394492
-0.19449465 -0.80897027 -0.014667469
-0.19401687 -0.84553128 -0.011763362
-0.19407839 -0.87366426 -0.011980392
-0.19474892 -0.90721643 -0.015649127
-0.19498461 -0.94077671 -0.016847741
-0.19446549 -0.99031019 -0.013689224
-0.37033048 -2.3948267 -1.0106302
-0.36539474 -2.5786524 -0.98221374
-0.36552668 -2.7476106 -0.98264617
-0.36424756 -2.9224975 -0.97505385
-0.33113295 -2.7744863 -0.78705209
-0.2781671 -2.7483661 -0.48592132
-0.25564995 -2.7670555 -0.35783476
-0.1182096 -2.7395711 0.42389104
-0.1043689 -2.7511432 0.50264251
-0.090530626 -2.7479239 0.58136034
-0.069929838 -2.7333965 0.69862956
-0.048943512 -2.7304072 0.81791693
0.19433139 -4.9298806 2.2030826
0.22928201 -4.9691224 2.4016826
0.35164222 -6.0249314 3.0981381
0.38967943 -5.7518625 3.3138359
0.3850427 -4.9347348 3.2864432
0.39910987 -4.7257218 3.3660862
0.39230698 -4.3713326 3.3270056
0.39027607 -4.0850301 3.3151231
0.36861214 -3.6928928 3.191601
0.3941479 -3.6315656 3.336585
0.3933244 -3.3112986 3.3315458
0.38877067 -3.0947998 3.3054421
0.38503259 -2.8972504 3.283998
0.3839137 -2.7242341 3.277463
0.38736117 -2.5799947 3.2968996
0.36439803 -2.3388226 3.1662266
0.38914809 -2.2897215 3.306766
0.38566041 -2.0719578 3.2867522
0.3793591 -1.9232236 3.2508271
0.37738869 -1.793833 3.2395225
0.37255576 -1.6623737 3.211961
0.37176773 -1.5456263 3.2073891
0.37099335 -1.4323125 3.2029002
0.37028185 -1.3221142 3.1987729
0.37441221 -1.1690773 3.2221136
0.37637082 -1.0669639 3.2331598
0.33431879 -0.92092043 2.9942429
0.37615931 -0.8613078 3.2318075
0.37052786 -0.75684142 3.1997535
0.36009088 -0.65347397 3.1404152
0.36339834 -0.55754256 3.1591306
0.35824928 -0.41255891 3.1297953
-0.062403351 -0.42171893 0.74154216
-0.06320069 -0.40518823 0.73711091
-0.062704287 -0.39886391 0.73996031
-0.072671346 -0.39055449 0.68351519
-0.074800275 -0.38428944 0.67149824
-0.076837927 -0.36902121 0.66006684
-0.077755146 -0.36145499 0.65492815
-0.078398213 -0.35329336 0.65134537
-0.078781083 -0.34435499 0.64923882
-0.079467162 -0.33098611 0.64544451
-0.079279467 -0.32500067 0.64654183
-0.079728164 -0.30994555 0.64409304
-0.07969898 -0.29808256 0.6443221
-0.080580398 -0.28339118 0.63941705
-0.068017773 -0.12486258 0.71092188
-0.072765529 -0.12184049 0.68408149
-0.074862093 -0.11279129 0.67224538
-0.080042116 -0.10361225 0.64298266
-0.077553317 -0.049255397 0.65711737
0.015468149 1.5524396 1.1833775
0.0016570467 1.5526325 1.1050447
-0.012043025 1.5488019 1.0273484
-0.031254612 1.5597357 0.91838086
-0.043989491 1.5643272 0.84615374
-0.05706764 1.5534732 0.77199954
-0.069218159 1.5685812 0.70307624
-0.081678808 1.5703144 0.63241124
-0.094309509 1.5525626 0.56080812
-0.10646257 1.5672194 0.49187225
-0.12490479 1.5631107 0.38729814
-0.13731569 1.5765966 0.31690106
-0.14952439 1.5626372 0.24769022
-0.16192307 1.5621464 0.17738269
-0.17408422 1.5492541 0.10844111
-0.1863073 1.5388527 0.039144818
-0.19952144 1.5522929 -0.035810482
-0.1446318 -0.079784431 0.27838859
-0.14633465 -0.093420111 0.26882124
-0.1480505 -0.10544635 0.25917789
-0.15086138 -0.11904696 0.24336071
-0.15148175 -0.12665245 0.23988998
-0.15422681 -0.13937867 0.22444545
-0.15607527 -0.14743514 0.2140439
-0.15786898 -0.15583532 0.20395379
-0.159926 -0.16220348 0.19236611
-0.16239823 -0.16595906 0.17841765
-0.16568546 -0.16514365 0.15983635
-0.19499931 -0.040752012 -0.0065853307
-0.19532937 -0.067597419 -0.0083404034
-0.19516355 -0.095325761 -0.0072792098
-0.19489405 -0.12186874 -0.0056310929
-0.19509955 -0.1448977 -0.0066843564
-0.19512029 -0.16757818 -0.006689352
-0.19622672 -0.19595568 -0.012808949
-0.19583476 -0.21785501 -0.010472146
-0.19573687 -0.23789646 -0.0098073734
-0.19564827 -0.25716603 -0.0091963336
-0.19558045 -0.2757248 -0.0087043662
-0.19554403 -0.29363787 -0.0083914809
-0.19538464 -0.31129935 -0.0073808911
-0.19543695 -0.32809776 -0.0075733922
-0.19537918 -0.34472501 -0.0071411622
-0.19538242 -0.36093283 -0.0070559052
-0.19528246 -0.37699121 -0.0063850516
-0.19580187 -0.40005723 -0.0091799498
-0.19564116 -0.40796608 -0.0082160588
-0.19570456 -0.43108702 -0.0084223235
-0.19568737 -0.4464238 -0.0082224431
-0.19575071 -0.46170959 -0.0084798438
-0.19572148 -0.4769952 -0.0082117403
-0.1957728 -0.4923321 -0.0084008491
-0.19607581 -0.50791085 -0.010018473
-0.19592014 -0.53116542 -0.0089812297
-0.19581096 -0.54680884 -0.0082589546
-0.19594279 -0.56293589 -0.0089041693
-0.19613869 -0.57947063 -0.009912624
-0.19614583 -0.60447341 -0.0097975815
-0.19623053 -0.62177283 -0.010173821
-0.19635838 -0.63964546 -0.010794296
-0.19366583 -0.65083462 0.0045863329
-0.18796839 -0.65282118 0.037011925
-0.18755275 -0.66872728 0.039473709
-0.18777806 -0.68719047 0.038300514
-0.19687374 -0.74927592 -0.013126539
-0.19680935 -0.77143741 -0.012650384
-0.19698414 -0.79571342 -0.013529181
-0.19653171 -0.83130771 -0.010792115
-0.19671611 -0.85916841 -0.011720855
-0.19690317 -0.88891971 -0.012662232
-0.19766465 -0.92424142 -0.016856993
-0.19691654 -0.97037834 -0.012428154
-0.3730723 -2.3256624 -1.0104423
-0.37380916 -2.4716156 -1.0143516
-0.36821413 -2.6601615 -0.98222321
-0.36954448 -2.8500755 -0.98944467
-0.34223184 -2.7665811 -0.8344394
-0.32406011 -2.7633953 -0.73121572
-0.30598032 -2.7530391 -0.62852377
-0.28875315 -2.744714 -0.53066945
-0.26621655 -2.7668877 -0.40259862
-0.19082908 -2.7533357 0.025689429
-0.12769678 -2.7452304 0.38437355
-0.11387252 -2.7472064 0.46292043
-0.099978462 -2.7523868 0.5418672
-0.079168901 -2.7459121 0.66008604
-0.058339398 -2.7361059 0.77842569
-0.044484239 -2.7260499 0.85713708
0.3756271 -6.3361421 3.2469621
0.38130933 -5.9111524 3.2787452
0.37971446 -5.4637494 3.2691939
0.39318356 -5.2072239 3.3453915
0.39865461 -4.9043322 3.376132
0.38563094 -4.4823375 3.3017428
0.38588679 -4.2021894 3.3029106
0.36414066 -3.6788337 3.1789205
0.39515576 -3.6523287 3.3550034
0.39443842 -3.4326732 3.3507247
0.38461363 -3.1791663 3.294709
0.38336936 -2.9885192 3.2874765
0.38180035 -2.8080924 3.2784142
0.38311157 -2.6507308 3.2857292
0.3741385 -2.3860438 3.2345707
0.38741085 -2.2921224 3.3098571
0.38543001 -2.1462257 3.298501
0.37711063 -1.9874618 3.2511516
0.37452123 -1.8538891 3.236357
0.36935025 -1.7191982 3.2069082
0.36847416 -1.6006852 3.2018573
0.3732405 -1.4416877 3.2288165
0.37075517 -1.3273456 3.2146368
0.37051284 -1.2198735 3.2131968
0.37160262 -1.1162636 3.2193222
0.35177526 -0.99047548 3.1066983
0.33310759 -0.87537247 3.0006709
0.3713342 -0.8091839 3.2176225
0.36606178 -0.70637387 3.187638
0.36260176 -0.55811065 3.1679177
0.35613319 -0.46078739 3.1311514
0.35515252 -0.36495584 3.1255338
-0.063959159 -0.42687321 0.74704909
-0.065569691 -0.41079003 0.73800737
-0.064900406 -0.39850679 0.74186981
-0.065328099 -0.38724068 0.73950762
-0.076608397 -0.38789761 0.67560679
-0.078084268 -0.38084176 0.66730124
-0.079995453 -0.36559904 0.65659451
-0.080613971 -0.35737476 0.65315336
-0.081479557 -0.34482521 0.6483444
-0.081767492 -0.33545074 0.64677793
-0.081972271 -0.32553151 0.64568263
-0.08224982 -0.31553876 0.64417416
-0.082174525 -0.30376843 0.6446659
-0.082584843 -0.28727043 0.64243519
-0.072259218 -0.12442686 0.70129621
-0.076033451 -0.11488461 0.67998272
-0.079741068 -0.062058393 0.65910769
-0.080995604 -0.023558374 0.65205443
0.046170365 1.703801 1.3715361
0.01789275 1.5219001 1.2113787
-0.0077608889 1.5500978 1.0658993
-0.027280573 1.5583336 0.95522201
-0.040050231 1.564278 0.88281858
-0.052944161 1.5626578 0.80972052
-0.065555692 1.5642718 0.73822087
-0.078146666 1.5613124 0.66684443
-0.090695664 1.5517932 0.59571564
-0.10919736 1.5332394 0.4908551
-0.121294 1.5584366 0.42224529
-0.13359974 1.5671809 0.35247195
-0.14583342 1.5584661 0.28313243
-0.15846182 1.5741657 0.21151838
-0.17075953 1.5644492 0.14181724
-0.18298554 1.552274 0.072526567
-0.20121606 1.5309012 -0.030788859
-0.21459359 1.5425905 -0.10664798
-0.14473802 -0.053594887 0.29218233
-0.14626339 -0.073507294 0.28363416
-0.14796577 -0.087947726 0.27407378
-0.15076104 -0.10361531 0.25835308
-0.15245521 -0.11500783 0.24883515
-0.15421525 -0.12488335 0.23894124
-0.15598272 -0.13417654 0.22900435
-0.15767752 -0.14376074 0.21948037
-0.15949701 -0.15198007 0.20924687
-0.16146936 -0.15893951 0.19814406
-0.16383946 -0.16320175 0.18478012
-0.1676759 -0.1688323 0.16313687
-0.17208622 -0.16239248 0.13817899
-0.19732603 -0.056568503 -0.005092199
-0.1976575 -0.08247368 -0.0068551693
-0.19750006 -0.10925595 -0.0058421879
-0.19837895 -0.14192118 -0.010661501
-0.19749796 -0.15710585 -0.00559934
-0.19742334 -0.1795516 -0.0050623999
-0.19825636 -0.20817553 -0.0096269287
-0.19823135 -0.22834793 -0.0093747852
-0.19821253 -0.24774994 -0.0091587696
-0.19789469 -0.26725426 -0.0072455718
-0.1980785 -0.28486013 -0.0081819259
-0.19797951 -0.30263472 -0.0075131748
-0.19792408 -0.31983501 -0.007092345
-0.19792062 -0.33653423 -0.0069671655
-0.19797648 -0.35280862 -0.007179277
-0.19820637 -0.37657267 -0.008327201
-0.19835022 -0.39221659 -0.0090394719
-0.19839758 -0.40780711 -0.009204085
-0.19817635 -0.42341146 -0.0078444863
-0.19820607 -0.43874952 -0.0079092029
-0.19814265 -0.45404565 -0.0074455407
-0.19830771 -0.47695827 -0.0082265157
-0.19818638 -0.49222523 -0.0074341167
-0.19843686 -0.50002068 -0.0088033443
-0.19835438 -0.52318627 -0.0081790006
-0.19863686 -0.53911901 -0.0096770516
-0.1986483 -0.55502409 -0.0096370401
-0.19889624 -0.57150441 -0.010938186
-0.19865039 -0.59586984 -0.0093846796
-0.19879374 -0.61306041 -0.010091079
-0.1988205 -0.63046235 -0.010135571
-0.19856848 -0.64765853 -0.0085982634
-0.19253489 -0.64972675 0.025726752
-0.18997812 -0.65959764 0.040332645
-0.19012243 -0.67739803 0.039621793
-0.18986367 -0.70383018 0.041252051
-0.19946042 -0.7602796 -0.01304308
-0.19987114 -0.78495288 -0.015255237
-0.19901565 -0.81786478 -0.010228538
-0.19932066 -0.84546417 -0.011836328
-0.1996356 -0.8749609 -0.013497575
-0.2012807 -0.91422033 -0.022692591
-0.19906624 -0.94991469 -0.0099493014
-0.37121174 -2.4294391 -0.98438179
-0.37180859 -2.5859044 -0.98744833
-0.37236407 -2.7592728 -0.99025452
-0.36371526 -2.8616538 -0.94093412
-0.33411539 -2.7469239 -0.77304721
-0.30011159 -2.7502387 -0.5799064
-0.27668455 -2.7639832 -0.44681415
-0.12346958 -2.7415597 0.42349771
-0.10959326 -2.7541432 0.50234514
-0.095837124 -2.7409556 0.58047098
-0.082005255 -2.736969 0.6590268
-0.068111293 -2.7331588 0.73791105
-0.054092508 -2.7304621 0.817505
0.26997247 -8.9515076 2.665715
0.18713614 -4.8986373 2.189744
0.36496931 -5.9931531 3.2004306
0.37796247 -5.6806064 3.2737279
0.38382423 -4.9670463 3.3060281
0.38707107 -4.6663918 3.32406
0.38408837 -4.3454328 3.3067229
0.38282275 -3.9402459 3.2990389
0.38341939 -3.7069283 3.302146
0.39194614 -3.5381961 3.3503408
0.38272089 -3.2791026 3.2976923
0.3774592 -3.0611227 3.2675936
0.37630957 -2.8784075 3.2608778
0.37767571 -2.7178967 3.2684696
0.38699099 -2.5211563 3.3211489
0.3678931 -2.3001423 3.2125573
0.38736576 -2.230026 3.3230138
0.3771449 -2.0602715 3.2648637
0.3733964 -1.9200155 3.2434783
0.36967435 -1.7862263 3.2222545
0.36994618 -1.6098142 3.2236753
0.36959928 -1.4951655 3.2216325
0.36781254 -1.3808429 3.2114232
0.36908665 -1.2748553 3.2185941
0.36967984 -1.1694869 3.2219043
0.37214726 -1.0679969 3.2358563
0.32750264 -0.91921318 2.9824381
0.37256154 -0.81187892 3.2380941
0.36522409 -0.70729476 3.1964173
0.36312708 -0.60786813 3.184484
0.35712728 -0.50926042 3.1504087
0.35348317 -0.41294593 3.1297052
-0.06775932 -0.41626173 0.73979306
-0.068250261 -0.40523183 0.73707259
-0.067787856 -0.39309046 0.7397607
-0.07812129 -0.38625875 0.681274
-0.080103204 -0.37993014 0.67009896
-0.081778362 -0.37361389 0.66066468
-0.08265312 -0.36109662 0.65580499
-0.083299041 -0.35290268 0.65220952
-0.084053516 -0.33992374 0.64803278
-0.084375896 -0.3305175 0.64627266
-0.084617235 -0.3205595 0.64497221
-0.084644094 -0.30941775 0.64488798
-0.085128039 -0.29361278 0.64224565
-0.073337026 -0.11448642 0.70952642
-0.077086993 -0.11636108 0.68833059
-0.080955021 -0.12091901 0.66646659
-0.081621028 -0.071414299 0.66281575
-0.083306432 -0.039077658 0.65335375
0.035485495 1.7018256 1.3265972
-0.010127612 1.5567197 1.0681353
-0.023684071 1.5533638 0.99132264
-0.036597673 1.5577275 0.91815376
-0.04926094 1.5642686 0.84640455
-0.062047876 1.5632722 0.77395785
-0.074852489 1.5546761 0.70141476
-0.093337804 1.5617366 0.59668541
-0.10563993 1.5656666 0.52698833
-0.11794339 1.5701226 0.45728379
-0.13023674 1.558108 0.38764387
-0.14258566 1.5666155 0.31768066
-0.15492451 1.5646422 0.24777904
-0.16721995 1.5581971 0.1781258
-0.18541709 1.5384858 0.075045496
-0.19780336 1.5327677 0.0048768674
-0.21103443 1.5439081 -0.070089944
-0.14882104 -0.073517598 0.28364557
-0.15058631 -0.08703085 0.27371523
-0.152289 -0.099851571 0.26413932
-0.15402123 -0.11108837 0.25439525
-0.15581492 -0.12080278 0.24430194
-0.15752745 -0.13080131 0.23466891
-0.15934154 -0.1393673 0.22445908
-0.16118956 -0.14742291 0.21405661
-0.16308472 -0.1550134 0.20338644
-0.16616611 -0.16476539 0.18602666
-0.16886432 -0.16730215 0.17079943
-0.17229199 -0.16617665 0.15143344
-0.19965878 -0.043495692 -0.0037184937
-0.20101766 -0.078543559 -0.011301094
-0.20004587 -0.096577436 -0.005745369
-0.20003673 -0.12183583 -0.0056101414
-0.20076609 -0.15424512 -0.009624213
-0.20070307 -0.17683595 -0.0091848932
-0.20075904 -0.19798286 -0.0094212815
-0.20065345 -0.21879275 -0.0087417038
-0.20054521 -0.23877305 -0.0080475174
-0.20013198 -0.25882521 -0.0056237881
-0.20020962 -0.27686638 -0.0059851231
-0.20032403 -0.29432467 -0.0065556327
-0.20032011 -0.31159571 -0.0064552082
-0.20036629 -0.32836133 -0.0066394936
-0.20081955 -0.35233495 -0.0090948986
-0.20076934 -0.36853927 -0.0087333014
-0.2006163 -0.38458386 -0.0077887848
-0.20070614 -0.4001694 -0.0082224784
-0.20052731 -0.4157958 -0.0071324469
-0.20059864 -0.43113071 -0.0074618976
-0.20092365 -0.44636372 -0.0092308028
-0.20080902 -0.46168458 -0.0085060271
-0.2007235 -0.48460785 -0.0079099629
-0.20089661 -0.50003362 -0.00881855
-0.20080252 -0.51542944 -0.0082117943
-0.20095722 -0.53114235 -0.0090167671
-0.20118381 -0.54716831 -0.010229987
-0.20130803 -0.56336403 -0.010863024
-0.20113175 -0.58765239 -0.009756268
-0.20115945 -0.60445219 -0.0098429052
-0.20107539 -0.62140977 -0.0092960931
-0.20119958 -0.63925016 -0.0099312644
-0.19660071 -0.64552569 0.016229194
-0.19217902 -0.65061307 0.041384604
-0.19190581 -0.67547601 0.043037176
-0.19236645 -0.69498795 0.040490985
-0.20213032 -0.75034732 -0.014842631
-0.20110343 -0.78026712 -0.0089196395
-0.20159936 -0.80645871 -0.011670658
-0.20226623 -0.83514893 -0.015393114
-0.20256947 -0.89307284 -0.016994765
-0.20199099 -0.93706936 -0.013626643
-0.37387112 -2.3650625 -0.98911011
-0.37472606 -2.517168 -0.9939819
-0.37525272 -2.6827159 -0.99700236
-0.37620395 -2.8714149 -1.0024477
-0.34800524 -2.7804976 -0.84239417
-0.30228183 -2.7566478 -0.58289564
-0.28567693 -2.7537985 -0.48865551
-0.26974079 -2.7536895 -0.39821094
-0.18813196 -2.7590373 0.064961962
-0.13192901 -2.7502532 0.38395432
-0.1180657 -2.7502356 0.46263686
-0.097206652 -2.7519643 0.58102208
-0.076399684 -2.7424018 0.69909239
-0.062347583 -2.7410975 0.7788561
-0.048485748 -2.7300353 0.85754824
0.365246 -6.243803 3.2016048
0.37309232 -5.8513474 3.2464769
0.383248 -5.5271883 3.304394
0.36448434 -4.970036 3.1984963
0.38535637 -4.8167014 3.3170547
0.39060467 -4.4006004 3.347259
0.38962466 -4.1205134 3.3419998
0.36058664 -3.6782975 3.1777551
0.39576399 -3.6774192 3.3773248
0.38553017 -3.4017961 3.3195889
0.37669483 -3.1562083 3.2697611
0.37498251 -2.9651308 3.2602859
0.38166815 -2.741971 3.2985051
0.3823562 -2.585201 3.3026183
0.35728654 -2.3359511 3.1607332
0.38512197 -2.298172 3.3187084
0.37559703 -2.1269546 3.2649183
0.37078074 -1.9806406 3.2378125
0.36763048 -1.8462185 3.2201464
0.36893854 -1.6698866 3.2278459
0.36554989 -1.546824 3.208822
0.36654103 -1.4370215 3.214627
0.36647388 -1.3275584 3.2144315
0.36635762 -1.2203442 3.2139573
0.36842465 -1.1180488 3.2258627
0.32450435 -0.9651407 2.9769959
0.36636052 -0.90993708 3.2145281
0.36487642 -0.75804251 3.2063906
0.34434161 -0.650388 3.0901186
0.3559266 -0.55790067 3.1560071
0.35201684 -0.46099007 3.1340199
0.35151568 -0.36494765 3.1313663
-0.069529235 -0.42155534 0.74343991
-0.070679918 -0.41100177 0.73700541
-0.069843769 -0.39856222 0.74184215
-0.070276387 -0.38729605 0.73948157
-0.081801571 -0.38348162 0.67427784
-0.083043374 -0.38089308 0.66727775
-0.08390075 -0.37296456 0.66250455
-0.085107431 -0.36113164 0.65579522
-0.085426077 -0.35701868 0.65403312
-0.086301543 -0.3444218 0.64920384
-0.086211085 -0.33901921 0.64976388
-0.086393215 -0.32905167 0.64882398
-0.086948827 -0.31450006 0.64581221
-0.087521479 -0.29932484 0.64270508
-0.087587789 -0.2873216 0.6424256
-0.073579915 -0.11135162 0.72256297
-0.077496514 -0.11338057 0.70042902
-0.081947394 -0.12132902 0.67525649
-0.084371075 -0.073145136 0.6617859
-0.085382283 -0.051056523 0.65616584
-0.085392714 -0.015664211 0.65624177
0.033689603 1.7201937 1.3344306
-0.0064548268 1.5562831 1.1067029
-0.02004209 1.5553758 1.0297406
-0.033335239 1.5543994 0.95444632
-0.046057846 1.5612884 0.88240039
-0.058879942 1.5616136 0.80978024
-0.077915907 1.5576123 0.70196187
-0.0902915 1.5612974 0.63187999
-0.10260388 1.5664722 0.56215942
-0.1149392 1.5681715 0.49230349
-0.12726392 1.5653931 0.42250067
-0.13957769 1.5661416 0.35276598
-0.15192482 1.5664097 0.28284159
-0.17040934 1.5591627 0.17814793
-0.18258905 1.5472814 0.10915335
-0.19481055 1.536901 0.039924398
-0.20764232 1.5406224 -0.03274174
-0.15069117 -0.063574508 0.28778958
-0.15216394 -0.082606152 0.27948773
-0.1539132 -0.095281161 0.26962841
-0.15568757 -0.10637177 0.25962925
-0.15744002 -0.11682721 0.24975543
-0.15927014 -0.12579517 0.23944351
-0.16102894 -0.1350707 0.22953537
-0.16290466 -0.14295909 0.21896648
-0.1656674 -0.15504006 0.20340095
-0.16762102 -0.16221595 0.19239132
-0.17009398 -0.16597007 0.17844255
-0.17315224 -0.16663864 0.16118024
-0.20349932 -0.065579772 -0.010483937
-0.20319754 -0.094030291 -0.0087418519
-0.20333268 -0.11878165 -0.0094710914
-0.20312238 -0.1437131 -0.0082422169
-0.20299393 -0.1670102 -0.0074748606
-0.2032681 -0.18773703 -0.0089862775
-0.20323469 -0.20870538 -0.0087544173
-0.2031955 -0.22884752 -0.0084884409
-0.20300677 -0.24865691 -0.0073743477
-0.20283137 -0.26769179 -0.0063346336
-0.20353048 -0.2929149 -0.010225777
-0.20320098 -0.31096783 -0.0083112093
-0.20324591 -0.3277998 -0.0085178418
-0.20334829 -0.34420243 -0.0090498021
-0.20317605 -0.36070311 -0.0080248965
-0.20306817 -0.3767961 -0.0073644924
-0.2032018 -0.3924059 -0.0080729863
-0.20358387 -0.40771884 -0.010189979
-0.20318069 -0.42344517 -0.007855162
-0.20320112 -0.43878353 -0.0079220412
-0.20327944 -0.47699299 -0.0082447482
-0.20332177 -0.49233025 -0.0084369462
-0.20346925 -0.52336121 -0.0091789821
-0.20356998 -0.53915483 -0.0097040804
-0.20363596 -0.57947075 -0.0099661471
-0.20371328 -0.59619927 -0.010361576
-0.2034975 -0.63889718 -0.0090336874
-0.20103621 -0.64183235 0.0049560703
-0.19613402 -0.64638358 0.032822911
-0.1949809 -0.66009194 0.039409827
-0.19489966 -0.68619817 0.039929934
-0.20397656 -0.74818957 -0.01156204
-0.20475721 -0.77373606 -0.015968462
-0.20407206 -0.79451346 -0.012052715
-0.20470943 -0.82231122 -0.015652543
-0.20444566 -0.84747314 -0.014137039
-0.20321235 -0.8833667 -0.0071105948
-0.20747663 -0.93935597 -0.031342749
-0.37712803 -2.3066549 -0.99627137
-0.37717867 -2.4464407 -0.99681771
-0.37756607 -2.6033263 -0.99931586
-0.37973133 -2.7940574 -1.0119773
-0.35583404 -2.7473371 -0.87630028
-0.33112487 -2.7722459 -0.73615795
-0.31319398 -2.7647724 -0.63440555
-0.2965534 -2.7658479 -0.53999031
-0.27908054 -2.7472079 -0.44080898
-0.12682576 -2.7476196 0.42313457
-0.10609235 -2.7414663 0.54079956
-0.092049196 -2.7518299 0.62045878
-0.085166745 -2.7449923 0.65948051
-0.071187735 -2.7431304 0.73891234
-0.057151213 -2.7393963 0.81867486
0.26897722 -8.9101028 2.6534252
0.19901589 -4.872293 2.2673428
0.35815331 -6.4336171 3.1663508
0.37139347 -6.0788298 3.2424853
0.37012947 -5.614296 3.2366028
0.38696921 -5.3777294 3.3328469
0.40627214 -5.0074396 3.4434469
0.38836208 -4.5417013 3.3431082
0.38525084 -4.2340198 3.3263247
0.35332993 -3.7565854 3.1465201
0.38039744 -3.7056026 3.300293
0.38239029 -3.4988034 3.3121994
0.37650919 -3.2619019 3.2795081
0.38055667 -3.0032654 3.3032289
0.37949976 -2.8247666 3.29775
0.37858737 -2.6570644 3.2930603
0.37813261 -2.5001075 3.2909365
0.36838865 -2.3160958 3.2361827
0.3756918 -2.2029073 3.2779505
0.36869842 -2.0459003 3.2387266
0.37077245 -1.861653 3.2510266
0.36603776 -1.7276417 3.2245505
0.36352712 -1.6047417 3.2106595
0.36275554 -1.4898663 3.2066092
0.36384535 -1.3816315 3.2130961
0.36255786 -1.2714463 3.2061009
0.36425266 -1.1682096 3.2159986
0.3537268 -1.0006931 3.1567566
0.32353827 -0.87332398 2.9858923
0.36588928 -0.81059581 3.226238
0.36039087 -0.70738387 3.1953242
0.35598865 -0.60731441 3.1706159
0.35080352 -0.50928062 3.1414604
0.34884912 -0.4131037 3.1306157
-0.072863966 -0.41631576 0.73976856
-0.073192768 -0.40511155 0.73801923
-0.072966717 -0.38731289 0.73947364
-0.083427906 -0.38658404 0.68030751
-0.085250631 -0.37997863 0.67008001
-0.087350026 -0.36491239 0.65839243
-0.08813908 -0.35703015 0.65402633
-0.088314459 -0.35252607 0.6530863
-0.089083463 -0.33949944 0.64888799
-0.089415729 -0.33006218 0.64711225
-0.089965865 -0.31559914 0.64415461
-0.090040222 -0.30440235 0.64384156
-0.090065129 -0.29245207 0.64380908
-0.074892931 -0.11449729 0.73051137
-0.086234972 -0.12096041 0.66647363
-0.087399252 -0.060402911 0.66014206
-0.087855414 -0.031244548 0.65766424
-0.0024084593 1.5494673 1.1433269
-0.016025476 1.5499964 1.0661649
-0.029492248 1.547536 0.98985338
-0.042202394 1.555732 0.91783655
-0.061235357 1.5625848 0.80999154
-0.073853552 1.5642066 0.73849303
-0.08630228 1.5682033 0.66795611
-0.098851815 1.5617061 0.59684443
-0.11129668 1.5496633 0.52632535
-0.12347498 1.5631043 0.45732406
-0.13577217 1.5670927 0.38764611
-0.1542411 1.5644379 0.28299624
-0.16656974 1.561232 0.21313873
-0.17874418 1.5495981 0.14415489
-0.19094361 1.5394828 0.075030096
-0.20344178 1.5366982 0.0042124027
-0.21673734 1.5487841 -0.071125977
-0.15220006 -0.062166337 0.29494852
-0.15391056 -0.078216568 0.28534201
-0.1556502 -0.091665924 0.2755709
-0.15746912 -0.10259011 0.26535067
-0.15926403 -0.11288252 0.2552672
-0.16113162 -0.121681 0.24477182
-0.16393493 -0.13417967 0.22901864
-0.16474648 -0.1393598 0.22446486
-0.16755317 -0.15116118 0.2086937
-0.16942874 -0.15893811 0.19815497
-0.17180252 -0.16319847 0.1847906
-0.17451411 -0.16577822 0.16951054
-0.17866562 -0.16030969 0.14606319
-0.20585217 -0.053814292 -0.0079434961
-0.205936 -0.081134565 -0.0083156209
-0.20578428 -0.10797003 -0.007350883
-0.20568039 -0.13305639 -0.0066567543
-0.20579439 -0.15593068 -0.0071979766
-0.20587143 -0.17788944 -0.0075288685
-0.20562811 -0.20000626 -0.0060420688
-0.20581913 -0.21972518 -0.0070182234
-0.20638089 -0.24728128 -0.01004241
-0.20592661 -0.25794208 -0.0074114152
-0.20625304 -0.28445455 -0.0090989405
-0.20599397 -0.30260333 -0.0075196302
-0.20610486 -0.31949437 -0.0080379639
-0.20610459 -0.33622658 -0.0079251966
-0.20616369 -0.35253429 -0.0081485175
-0.2061186 -0.3687039 -0.0077803102
-0.20614205 -0.38454008 -0.0078001972
-0.2060668 -0.40026388 -0.0072596888
-0.2062044 -0.42337707 -0.0078679388
-0.20623656 -0.43871474 -0.0079347482
-0.20617567 -0.45401055 -0.0074731712
-0.20654324 -0.46929857 -0.0094401212
-0.20629728 -0.48455933 -0.0079276171
-0.20647866 -0.49998426 -0.008837074
-0.20656532 -0.51550144 -0.0092085991
-0.20634466 -0.53873396 -0.0077762539
-0.20653178 -0.55477816 -0.0087146619
-0.20678483 -0.57122391 -0.010025617
-0.20693038 -0.58787477 -0.010726007
-0.20656669 -0.62970567 -0.008347284
-0.20648314 -0.6472277 -0.0077442904
-0.20029393 -0.64884526 0.027458096
-0.19832091 -0.65187669 0.038702793
-0.19774741 -0.67590821 0.042148247
-0.19791943 -0.69441915 0.041306589
-0.20698531 -0.75799978 -0.0098436503
-0.20713432 -0.78138226 -0.010544296
-0.20818682 -0.81009161 -0.016358553
-0.20717917 -0.84410805 -0.010425991
-0.20776314 -0.87491649 -0.013576825
-0.20757166 -0.90356648 -0.012332547
-0.20807326 -0.93846709 -0.015006548
-0.20691267 -0.98329908 -0.0081796832
-0.38299051 -2.384856 -1.0040041
-0.38440034 -2.5423877 -1.0115737
-0.38542604 -2.7135713 -1.016933
-0.3783457 -2.9229786 -0.97616976
-0.34450683 -2.7679698 -0.78441489
-0.30946144 -2.7619929 -0.58538967
-0.29192027 -2.746254 -0.48579687
-0.27681887 -2.7582712 -0.39998525
-0.18082432 -2.7593405 0.14537098
-0.13191742 -2.7425637 0.42320916
-0.11801084 -2.7601538 0.50226152
-0.083238229 -2.7483594 0.69973081
-0.062287085 -2.7383962 0.81858087
0.18037321 -4.9248366 2.1995201
0.35982099 -6.0327277 3.2194099
0.37486789 -5.7378359 3.3041036
0.37133011 -4.9313726 3.2823665
0.38364634 -4.7077355 3.3517497
0.37730521 -4.3577986 3.3150897
0.37589103 -4.07654 3.3065155
0.36414802 -3.6367223 3.2390759
0.39215291 -3.5889375 3.3977964
0.37827078 -3.3003256 3.3185368
0.37393466 -3.0855901 3.2935572
0.36936763 -2.8845723 3.2673013
0.37229618 -2.7305899 3.2836423
0.37398192 -2.5784636 3.292944
0.35100836 -2.3373673 3.1622617
0.37903437 -2.2293847 3.3210261
0.37201154 -2.0698617 3.2809503
0.36539724 -1.9203932 3.2432139
0.36169201 -1.7866012 3.2220049
0.35922083 -1.6615982 3.2078125
0.36054617 -1.5496351 3.2151728
0.35931325 -1.4350471 3.2080259
0.36051175 -1.2741271 3.2146118
0.36229399 -1.1705868 3.224587
0.36359364 -1.067542 3.2318294
0.32183859 -0.9218117 2.9948947
0.36529735 -0.8634814 3.2412469
0.35950491 -0.75855386 3.2082841
0.34040654 -0.65137303 3.0998816
0.34979177 -0.55809259 3.1529946
0.34690812 -0.41318476 3.1364963
-0.07558126 -0.42180625 0.74145782
-0.076210432 -0.41085142 0.7379511
-0.076083973 -0.39334127 0.73875725
-0.085525401 -0.39010808 0.68534428
-0.087494001 -0.38348019 0.67425227
-0.088991962 -0.37657118 0.66582817
-0.089707315 -0.36836937 0.66183895
-0.090947665 -0.35660791 0.65490788
-0.091435581 -0.35293344 0.6521759
-0.091464557 -0.34800828 0.6520437
-0.092511401 -0.3305473 0.64624155
-0.092751995 -0.32058907 0.64494222
-0.093393415 -0.30610895 0.64140397
-0.093399413 -0.29424375 0.64143223
-0.089352109 -0.068053119 0.66489857
-0.090035401 -0.042391676 0.66107148
-0.091709338 -0.0053537712 0.65165472
0.0019308727 1.5438354 1.1805972
-0.011398622 1.5515057 1.1051223
-0.024759691 1.5543792 1.0294755
-0.04418356 1.5625142 0.91950279
-0.056885526 1.5691042 0.84758848
-0.069864593 1.5632269 0.77412033
-0.082632244 1.556621 0.70185196
-0.095005639 1.5603102 0.63180524
-0.10735198 1.5624975 0.56191427
-0.11967418 1.5631986 0.49216235
-0.13813782 1.5681126 0.38764182
-0.15047583 1.5676299 0.31780267
-0.16269654 1.556698 0.24864191
-0.17505962 1.5552541 0.17866239
-0.18722713 1.5434004 0.10980451
-0.19969948 1.5409054 0.03920728
-0.21294802 1.5543499 -0.035808906
-0.15585889 -0.070144415 0.29002118
-0.15748861 -0.086290792 0.28088582
-0.15929054 -0.097991861 0.27076879
-0.16112818 -0.10813242 0.26044729
-0.16295473 -0.11766508 0.25018787
-0.16478507 -0.12661543 0.23990615
-0.16663364 -0.13501519 0.22952029
-0.16948318 -0.14656343 0.21350543
-0.17128477 -0.1549814 0.20338555
-0.17345674 -0.16058007 0.19116302
-0.17605385 -0.16361047 0.17652777
-0.18026672 -0.16760013 0.15277617
-0.20824584 -0.041352075 -0.0058283308
-0.20831427 -0.069509968 -0.0061026067
-0.20853512 -0.095231809 -0.0072439751
-0.20840187 -0.12115998 -0.0063784984
-0.20847069 -0.14480463 -0.0066612107
-0.20834728 -0.16804464 -0.0058551664
-0.20945005 -0.19637705 -0.01195373
-0.20844647 -0.21012111 -0.0062102694
-0.20895275 -0.23825823 -0.0089290887
-0.20949045 -0.25580683 -0.011877937
-0.20878994 -0.27602434 -0.007806153
-0.20907491 -0.29318896 -0.0093235467
-0.20863815 -0.32830033 -0.0066525526
-0.20874567 -0.34463575 -0.0071660671
-0.20881778 -0.37671217 -0.0073843584
-0.20899412 -0.40010792 -0.0082426723
-0.20906678 -0.43099955 -0.0084676147
-0.20887491 -0.44637156 -0.007287195
-0.20908047 -0.47690889 -0.0082678264
-0.20903413 -0.4998844 -0.0078676306
-0.2091033 -0.53092372 -0.0080772573
-0.20916417 -0.5467242 -0.0083313463
-0.20965709 -0.57964534 -0.010943728
-0.20957506 -0.59611487 -0.010388513
-0.20974016 -0.62203157 -0.011188932
-0.20954184 -0.63918757 -0.0099751018
-0.20478253 -0.64505976 0.017083725
-0.20036164 -0.65011877 0.042223509
-0.20057377 -0.6677174 0.041110028
-0.20095359 -0.6866197 0.039046533
-0.21020626 -0.74919432 -0.013245624
-0.21042374 -0.77250355 -0.014387835
-0.21031098 -0.79563254 -0.013658967
-0.20958696 -0.82994223 -0.009421614
-0.2099051 -0.85841966 -0.011133573
-0.2107178 -0.89161927 -0.015646849
-0.21073414 -0.92272258 -0.015648238
-0.38632619 -2.1960471 -1.0101441
-0.38637209 -2.32458 -1.0102813
-0.38760599 -2.4745574 -1.0171456
-0.38175651 -2.6615529 -0.98381966
-0.38287342 -2.8497889 -0.99001247
-0.35704404 -2.7820728 -0.84358615
-0.33685166 -2.7578194 -0.72909153
-0.31973079 -2.7591765 -0.6319958
-0.30250481 -2.7518928 -0.53430808
-0.28622058 -2.7498736 -0.44195646
-0.18974575 -2.7580478 0.10520432
-0.14067982 -2.7622395 0.38348731
-0.12674624 -2.7582324 0.46251142
-0.11278789 -2.7604201 0.541677
-0.098869972 -2.7548077 0.62061137
-0.085029267 -2.7454085 0.69918859
-0.071088478 -2.7391613 0.7782836
-0.057097819 -2.732048 0.85766095
0.36612865 -6.3627887 3.2579792
0.36693969 -5.8834867 3.2625399
0.37448832 -5.5301471 3.3053188
0.38106212 -5.205277 3.3425789
0.38755032 -4.9115653 3.3793602
0.37469181 -4.4910116 3.3064537
0.373245 -4.1980453 3.2982585
0.35192126 -3.6786361 3.1773841
0.38226011 -3.647799 3.349412
0.37791735 -3.4078064 3.3248141
0.37233788 -3.1790586 3.2932088
0.3694872 -2.9805627 3.2770774
0.37026983 -2.8118064 3.2815461
0.36963665 -2.6458828 3.2779906
0.35365245 -2.3547297 3.1874323
0.37705493 -2.299578 3.3201349
0.37178117 -2.1422904 3.2902775
0.36416832 -1.9861377 3.2471628
0.36123314 -1.8518084 3.2305653
0.35871887 -1.724213 3.2163551
0.35624009 -1.601599 3.202347
0.35852975 -1.437673 3.21539
0.35948792 -1.3299291 3.2208645
0.3589063 -1.2217027 3.2176113
0.36066768 -1.1188225 3.2276385
0.31675839 -0.96581531 2.9788032
0.32468113 -0.87961662 3.0237553
0.35814282 -0.80922675 3.2134578
0.35336563 -0.70680964 3.1864245
0.35231096 -0.55907983 3.1805112
0.34686407 -0.46129405 3.149683
0.34274119 -0.36542693 3.1263585
-0.077282518 -0.42706025 0.74599922
-0.078572087 -0.41646335 0.73876435
-0.078054942 -0.39858812 0.74180532
-0.078484282 -0.38732147 0.73944551
-0.089351073 -0.3823294 0.67801028
-0.090761721 -0.37998253 0.67005324
-0.092850156 -0.36491585 0.65836632
-0.093805991 -0.35252947 0.65306067
-0.093993284 -0.34802696 0.65203619
-0.094797187 -0.33503029 0.64759129
-0.095155083 -0.3255958 0.64563668
-0.095745012 -0.31114337 0.64240366
-0.095850468 -0.29992536 0.6418789
-0.096045792 -0.28856558 0.6408447
-0.089335531 -0.11575294 0.67938173
-0.091872074 -0.11014757 0.66508019
-0.090917774 -0.074097343 0.67054987
-0.091964051 -0.052695055 0.66468745
-0.093801416 -0.019208342 0.65437424
0.004737719 1.5236017 1.2123802
-0.0078126946 1.5437969 1.1413128
-0.027460193 1.5562826 1.0300617
-0.040673878 1.5572556 0.955244
-0.053454775 1.5632033 0.88287687
-0.066392288 1.5606054 0.8096261
-0.078953698 1.5641938 0.73850405
-0.091432922 1.5672007 0.66784811
-0.10406323 1.5557221 0.59634286
-0.12264679 1.5331991 0.49113879
-0.13476151 1.5674064 0.42253375
-0.14707854 1.5661619 0.35279924
-0.15929635 1.5554638 0.28363183
-0.17165317 1.5562656 0.21367094
-0.18380849 1.5446551 0.14485826
-0.19616936 1.5404773 0.074877009
-0.21548373 1.5484748 -0.034483247
-0.15705441 -0.070725627 0.29767609
-0.15895031 -0.082915202 0.28701419
-0.16079092 -0.094447933 0.27666542
-0.16374867 -0.10724868 0.26002449
-0.16452149 -0.11378235 0.25568646
-0.16741279 -0.12576392 0.23942193
-0.16926496 -0.13418142 0.22900623
-0.17114931 -0.14208736 0.218408
-0.17287998 -0.15116358 0.20868142
-0.17485835 -0.15814227 0.19755
-0.17734449 -0.16164736 0.18353885
-0.18131439 -0.16660033 0.16115792
-0.186106 -0.15807109 0.13407399
-0.2104136 -0.057907425 -0.0036290626
-0.2107334 -0.083760917 -0.0053501879
-0.21083388 -0.10923176 -0.0058283145
-0.21156825 -0.14248462 -0.0098559437
-0.21131185 -0.16639818 -0.0083120512
-0.21189225 -0.18609464 -0.011512998
-0.21154746 -0.22832544 -0.0093799308
-0.21121325 -0.24860439 -0.0073965872
-0.2113629 -0.26682621 -0.0081566172
-0.21122429 -0.28521347 -0.0072827758
-0.22999541 -0.27414033 -0.11355795
-0.21105987 -0.32012367 -0.0061751395
-0.21105191 -0.33678991 -0.006042405
-0.23038942 -0.33547103 -0.11552159
-0.21149847 -0.37655368 -0.008355028
-0.21146832 -0.39235419 -0.0080968365
-0.21146074 -0.4233937 -0.0078791296
-0.21148796 -0.43873215 -0.0079460293
-0.21161073 -0.46929994 -0.0084668761
-0.21163286 -0.4922792 -0.0084608207
-0.21145064 -0.52303171 -0.007252316
-0.21190298 -0.53910398 -0.009727614
-0.21198891 -0.57124799 -0.010037494
-0.2117413 -0.59556371 -0.0085009998
-0.2120724 -0.63044947 -0.010198005
-0.21005756 -0.64334673 0.0013079346
-0.20404252 -0.64506853 0.035477649
-0.20321339 -0.65959162 0.040264782
-0.20350717 -0.67787725 0.038690511
-0.21311557 -0.73986769 -0.01560568
-0.21324186 -0.78553027 -0.016133167
-0.21254131 -0.84545505 -0.011924999
-0.21297967 -0.87563407 -0.014309777
-0.21351096 -0.90855318 -0.017219214
-0.21238835 -0.95065039 -0.010709155
-0.38414899 -2.4269032 -0.98289359
-0.38590905 -2.5932586 -0.9926694
-0.38566086 -2.7600136 -0.9910624
-0.37498298 -2.842499 -0.93040395
-0.34792551 -2.7539053 -0.77703476
-0.32964477 -2.7446957 -0.67335165
-0.30728632 -2.7814133 -0.54648376
-0.28964081 -2.762069 -0.44640818
-0.27436855 -2.7706707 -0.35976312
-0.19252685 -2.7640212 0.10452844
-0.13635924 -2.7566013 0.42318571
-0.12248618 -2.7501943 0.50188953
-0.094482407 -2.7569225 0.66077083
-0.080810115 -2.7381806 0.73827589
-0.066621587 -2.7394028 0.81872094
0.26000914 -8.9874926 2.6740489
0.17687753 -4.9266558 2.2001867
0.35029861 -5.9613767 3.1835334
0.36670077 -5.6870327 3.2763054
0.37246555 -4.9723859 3.3085599
0.37262341 -4.6462255 3.3092816
0.37208933 -4.3457417 3.3061054
0.37077394 -3.9405544 3.2984674
0.37029737 -3.7005503 3.2956691
0.37756875 -3.5248444 3.3368127
0.37246719 -3.28983 3.3078229
0.36787957 -3.0748098 3.2817616
0.36585397 -2.8870683 3.2702365
0.36601958 -2.7206662 3.2711427
0.37562919 -2.5249097 3.3255782
0.35766399 -2.308068 3.2237396
0.37228352 -2.2205555 3.3065958
0.36440128 -2.0591252 3.2619233
0.35922751 -1.9148753 3.232609
0.35592356 -1.7827284 3.2138987
0.35547334 -1.6630909 3.2113671
0.35722688 -1.4954703 3.2213438
0.35476106 -1.3799117 3.2074018
0.35568103 -1.2735072 3.2126515
0.3574312 -1.1700343 3.2226098
0.35852891 -1.0668497 3.2288744
0.31550819 -0.92001724 2.9851367
0.35992408 -0.81206518 3.2369082
0.3529073 -0.70768613 3.1972046
0.35061955 -0.60817152 3.1843026
0.34285936 -0.50938779 3.1403942
0.34162846 -0.41317421 3.1334884
-0.080855355 -0.4163343 0.7397337
-0.081348762 -0.40530419 0.73701471
-0.08088778 -0.39316314 0.73970431
-0.090336211 -0.38988119 0.68628025
-0.092641383 -0.3838053 0.67329562
-0.094693363 -0.36840263 0.66182458
-0.095458254 -0.36037979 0.65756911
-0.09661293 -0.34848067 0.65114492
-0.097030833 -0.3395184 0.64885658
-0.097770363 -0.3261269 0.64478642
-0.098047286 -0.31616378 0.64329815
-0.097781278 -0.3094818 0.64484656
-0.098268859 -0.29367661 0.64220643
0.22132106 1.6751094 2.454273
-0.092250109 -0.078565069 0.67716819
-0.094924808 -0.056999911 0.66214883
-0.095737122 -0.031270865 0.65764397
0.020834597 1.6842042 1.319483
-0.010146964 1.551304 1.1440251
-0.023742629 1.5528092 1.067106
-0.037056349 1.5542265 0.99178481
-0.049870092 1.5615171 0.91930133
-0.062649138 1.5661402 0.84701324
-0.075616993 1.5602401 0.77364796
-0.088324882 1.5555958 0.70175689
-0.10683337 1.5636688 0.59706819
-0.11915796 1.568609 0.52735788
-0.13151622 1.5670763 0.45745191
-0.14382671 1.5610676 0.38781321
-0.15620491 1.5685798 0.31780314
-0.16851282 1.5626239 0.2481799
-0.18066391 1.549245 0.17943849
-0.199168 1.541431 0.074766278
-0.2115171 1.5337435 0.0049088569
-0.22494531 1.5487647 -0.071039625
-0.15877068 -0.061902158 0.30240557
-0.16168301 -0.080124885 0.28601238
-0.16353919 -0.091695309 0.27556738
-0.16535576 -0.10261987 0.26534718
-0.16722462 -0.11201395 0.254832
-0.16909544 -0.12082865 0.24430613
-0.17089565 -0.12996028 0.23417979
-0.17280826 -0.13769524 0.22341794
-0.1745702 -0.14661685 0.21350804
-0.17647162 -0.15422627 0.20280924
-0.17875443 -0.15905851 0.18995301
-0.18238345 -0.16581149 0.16950883
-0.18630032 -0.16180573 0.14740613
-0.21441045 -0.050437298 -0.011533518
-0.21450531 -0.077887997 -0.012021999
-0.21679786 -0.093531959 -0.024945842
-0.21426855 -0.13008253 -0.010582156
-0.21424878 -0.15367216 -0.010418865
-0.21403836 -0.17683648 -0.0091758929
-0.21394078 -0.19849831 -0.0085709412
-0.2138276 -0.21927798 -0.0078770891
-0.21386707 -0.23877364 -0.008046967
-0.2136829 -0.27647656 -0.0068964171
-0.21363355 -0.29432538 -0.0065627317
-0.21440537 -0.31860912 -0.010851366
-0.21350203 -0.32865426 -0.0057094987
-0.21394816 -0.35257715 -0.0081543364
-0.21389286 -0.36874747 -0.0077872686
-0.21373482 -0.38475788 -0.0068384632
-0.21382028 -0.40030888 -0.0072689466
-0.2139827 -0.41569194 -0.0081356959
-0.21387766 -0.43113121 -0.0074879248
-0.2140258 -0.44639879 -0.0082747014
-0.21424778 -0.46934676 -0.0094547216
-0.21399002 -0.48460823 -0.0079435343
-0.2139865 -0.49994659 -0.0078732744
-0.21440671 -0.51567382 -0.010204573
-0.21421276 -0.53114259 -0.0090569481
-0.21426509 -0.54697746 -0.0093057193
-0.21424001 -0.57103473 -0.0090937195
-0.21437342 -0.5876525 -0.0098045981
-0.21423167 -0.60414314 -0.0089571141
-0.21447164 -0.62175202 -0.010274736
-0.21169013 -0.63287991 0.0055345437
-0.20775834 -0.64023936 0.027866125
-0.20554797 -0.65105689 0.040439691
-0.20511171 -0.6754815 0.042973615
-0.20527017 -0.69396287 0.04211279
-0.21533096 -0.75034678 -0.014914811
-0.21443498 -0.78085506 -0.009793248
-0.21464731 -0.8058427 -0.010975454
-0.21544412 -0.83514827 -0.015478048
-0.2154588 -0.86249804 -0.015547509
-0.21560709 -0.89237726 -0.016380066
-0.21514039 -0.93706882 -0.013727163
-0.2151733 -0.97187275 -0.013919498
-0.38771281 -2.3713505 -0.99412477
-0.38828802 -2.5219808 -0.99766779
-0.38911581 -2.6910005 -1.0026878
-0.38942826 -2.8747404 -1.0048277
-0.35993212 -2.7707894 -0.83748829
-0.31570128 -2.7648098 -0.58685434
-0.29934481 -2.7667296 -0.49417821
-0.28283185 -2.7592871 -0.40059477
-0.26810393 -2.7746978 -0.31717584
-0.14446402 -2.7562931 0.3834489
-0.12351844 -2.7652245 0.50210804
-0.10969518 -2.7500308 0.58047158
-0.088754289 -2.7474377 0.69928062
-0.074694782 -2.7451293 0.77905935
-0.060907815 -2.7311058 0.85732359
0.35386518 -6.2414355 3.1993005
0.36273223 -5.8613915 3.2506144
0.373294 -5.5413814 3.3113735
0.35369527 -4.9771452 3.2018611
0.37350535 -4.8145514 3.3146131
0.37703982 -4.3865652 3.3358645
0.37874535 -4.1270671 3.3462756
0.34822071 -3.6755989 3.1745598
0.38067594 -3.6580145 3.3585742
0.37319544 -3.4000082 3.316927
0.36529052 -3.1599448 3.2728279
0.36944315 -2.9102945 3.2971032
0.3688325 -2.7392211 3.2941508
0.37030688 -2.5861158 3.3029635
0.34413949 -2.3329089 3.1554241
0.37374684 -2.3016784 3.3233092
0.36509216 -2.1332746 3.2747688
0.35781085 -1.9790808 3.2339718
0.35461405 -1.8447802 3.2162626
0.35779041 -1.673326 3.2347786
0.35422614 -1.5496435 3.2149558
0.35372877 -1.4366822 3.2124774
0.35330245 -1.3267001 3.2103918
0.35416636 -1.2211715 3.2156007
0.35537201 -1.1176846 3.2227376
0.31153312 -0.96504408 2.9748461
0.35779351 -0.86292815 3.2371993
0.35261175 -0.75855678 3.2081485
0.33168662 -0.6506812 3.0899355
0.34483838 -0.55851251 3.1646895
0.33952007 -0.46128586 3.1348414
0.3383112 -0.36534756 3.1282618
-0.08250653 -0.42719766 0.74500275
-0.083787784 -0.4109033 0.73792428
-0.082955986 -0.39842942 0.74275619
-0.083639733 -0.38151115 0.7390613
-0.09420412 -0.38689694 0.67931974
-0.096126519 -0.37564567 0.66859967
-0.097343527 -0.36842063 0.66181791
-0.098114572 -0.36039722 0.65756291
-0.09859667 -0.35665876 0.65488791
-0.099327907 -0.34355944 0.65091521
-0.09939532 -0.33859533 0.65059036
-0.10000365 -0.32459682 0.64731407
-0.10075802 -0.31061503 0.64320993
-0.1008743 -0.29936823 0.64266586
-0.10189298 -0.28538761 0.63706338
-0.095834151 -0.12536556 0.67226732
-0.093938611 -0.083960406 0.68314976
-0.096638694 -0.063008465 0.66802478
-0.097714484 -0.040703241 0.66205287
-0.0058515035 1.554077 1.1845385
-0.019761119 1.5533671 1.1058242
-0.033141341 1.5562605 1.0301124
-0.046363104 1.557233 0.9552958
-0.059075262 1.5651287 0.88337272
-0.071866676 1.5674533 0.8109948
-0.090925962 1.565495 0.70314652
-0.10350408 1.5612649 0.63197017
-0.1158266 1.5664464 0.56225085
-0.12837248 1.534173 0.49123079
-0.14050752 1.561381 0.42259425
-0.15283883 1.5671353 0.35282567
-0.16516575 1.5644158 0.2830742
-0.18328603 1.5403156 0.18052599
-0.19563754 1.5384103 0.11063667
-0.20811749 1.5369253 0.040020615
-0.22143123 1.5523454 -0.035303727
-0.16308193 -0.034165714 0.29404843
-0.16340777 -0.076807901 0.29226416
-0.1653078 -0.088202976 0.28158933
-0.16716626 -0.098957397 0.27115083
-0.16907233 -0.10817745 0.26044416
-0.17097858 -0.11681915 0.24973729
-0.17281516 -0.12578586 0.239425
-0.17475982 -0.13334596 0.2285019
-0.17655748 -0.14210866 0.21841088
-0.17933752 -0.15421742 0.20280245
-0.18151686 -0.15983716 0.19055244
-0.18401051 -0.16365562 0.17652367
-0.18720552 -0.16364799 0.15852493
-0.21710882 -0.065545373 -0.010492626
-0.21694905 -0.09335307 -0.00950664
-0.21682245 -0.11936229 -0.0087067373
-0.21675768 -0.14367799 -0.0082553299
-0.21649338 -0.16753393 -0.0066727847
-0.21692015 -0.18770127 -0.009001676
-0.21655692 -0.2297499 -0.0067667947
-0.21668348 -0.24862038 -0.0073927701
-0.2165162 -0.26765504 -0.006353959
-0.21706569 -0.2932356 -0.0093266694
-0.23515877 -0.27480575 -0.11169033
-0.21695989 -0.3277618 -0.0085395873
-0.21673477 -0.34468147 -0.0071696495
-0.21697797 -0.37656665 -0.0083547654
-0.21694958 -0.39236677 -0.0080969883
-0.21705894 -0.43104371 -0.0084711043
-0.21704176 -0.44638059 -0.0082747331
-0.21707638 -0.47695217 -0.0082708839
-0.21712817 -0.49228913 -0.0084633613
-0.21656764 -0.50734437 -0.0051874975
-0.21712297 -0.52318013 -0.0082307067
-0.21740602 -0.53911269 -0.0097311391
-0.21741758 -0.55501777 -0.0096935714
-0.21749805 -0.57942784 -0.0099935783
-0.21742007 -0.59586352 -0.0094473762
-0.21756382 -0.61305404 -0.010156276
-0.21807784 -0.63153142 -0.012961278
-0.21301697 -0.63709927 0.015805041
-0.2087751 -0.64296079 0.039933339
-0.20889167 -0.66005129 0.039380509
-0.20897906 -0.68665719 0.039047975
-0.21795057 -0.74814379 -0.011589261
-0.21760884 -0.76910019 -0.0095425844
-0.21779902 -0.79326326 -0.01050675
-0.21832716 -0.82037598 -0.013383239
-0.21848528 -0.847426 -0.01416317
-0.21765052 -0.88540393 -0.0092612999
-0.21831426 -0.91988212 -0.012899913
-0.2185324 -0.95436758 -0.014013651
-0.39306608 -2.3136206 -1.0017079
-0.39274323 -2.4503589 -0.9996897
-0.39309758 -2.6065152 -1.0014937
-0.39516735 -2.7956252 -1.0129926
-0.36501884 -2.7795155 -0.84204507
-0.3468163 -2.7774851 -0.73881656
-0.32832664 -2.7637668 -0.63396811
-0.31195828 -2.7685173 -0.54112417
-0.29501355 -2.7583268 -0.44502386
-0.27987656 -2.7687724 -0.35915047
-0.19780609 -2.7501526 0.10640971
-0.14895335 -2.7632542 0.38358247
-0.13503852 -2.7522445 0.46251988
-0.12111235 -2.7554345 0.54153174
-0.10725899 -2.7478385 0.62012285
-0.10013003 -2.7549338 0.66051805
-0.086199373 -2.7470946 0.7394641
-0.072161935 -2.7413752 0.81901622
0.18705459 -4.9239511 2.2888854
0.34547788 -6.4791036 3.1871519
0.35292217 -6.0522799 3.2290416
0.35960394 -5.669569 3.2666497
0.37077668 -5.3727679 3.3297532
0.37853527 -4.9023471 3.373431
0.37340704 -4.5434961 3.3441944
0.37069342 -4.2373457 3.3286712
0.33945298 -3.7628741 3.1515026
0.36384892 -3.6938829 3.2896571
0.36915374 -3.5068834 3.3196292
0.36094335 -3.2558153 3.2730305
0.35692766 -3.0460591 3.2502148
0.36369014 -2.8173773 3.2884529
0.36601746 -2.6638427 3.3015966
0.36540231 -2.5054264 3.2980776
0.35533452 -2.3195159 3.2410173
0.36258084 -2.2056355 3.2820458
0.35658622 -2.0513816 3.2480741
0.35630503 -1.8596097 3.2464688
0.35431823 -1.7326658 3.2352126
0.35124877 -1.60788 3.2178288
0.35120326 -1.4941099 3.2175763
0.34823602 -1.3777555 3.2007797
0.34964979 -1.2724104 3.2087986
0.35173663 -1.1695549 3.2206316
0.34042022 -1.0512699 3.1565614
0.31076768 -0.87391418 2.9886701
0.35337815 -0.81121403 3.2299964
0.34722424 -0.70751208 3.1951725
0.34320337 -0.6075443 3.1724305
0.33752817 -0.50938594 3.1403234
0.33578119 -0.41322428 3.1304622
-0.086646348 -0.41647103 0.73873758
-0.086796328 -0.40512773 0.73796332
-0.086335786 -0.39295232 0.740646
-0.09619303 -0.38522002 0.68498665
-0.098352551 -0.37906599 0.67283618
-0.10032142 -0.36839971 0.6618039
-0.10140706 -0.35623175 0.65577257
-0.10174002 -0.35211876 0.6539259
-0.10250603 -0.3390457 0.64970464
-0.10324994 -0.32560858 0.64560854
-0.10352972 -0.31561577 0.6441018
-0.10374112 -0.30499303 0.64298213
-0.10389584 -0.29367328 0.64218348
-0.096710727 -0.12273026 0.68343312
-0.098363653 -0.068240166 0.67426759
-0.099717669 -0.049280498 0.66667968
-0.10205044 0.019274471 0.6536656
0.0035318362 1.621891 1.2513824
-0.015406368 1.552254 1.144259
-0.029175026 1.5509166 1.066395
-0.042578816 1.5503902 0.99059725
-0.055415794 1.5566735 0.91800821
-0.074296877 1.5694288 0.8112449
-0.087145947 1.5651675 0.73858976
-0.099838056 1.5592439 0.66682386
-0.11219303 1.563673 0.59696603
-0.1245584 1.5646178 0.52705002
-0.13691294 1.5580798 0.45719638
-0.14921451 1.565068 0.387642
-0.16772847 1.5644131 0.28296295
-0.17991941 1.5522566 0.21403688
-0.19196881 1.5366999 0.14591254
-0.2045394 1.5404421 0.074836671
