# .PCD v0.7 - Point Cloud Data file format
VERSION 0.7
FIELDS x y z
SIZE 4 4 4
TYPE F F F
COUNT 1 1 1
WIDTH 1425
HEIGHT 1
VIEWPOINT 0 0 0 1 0 0 0
POINTS 1425
DATA ascii
0.98269677 -2.0773232 3.2940159
0.97627711 -1.9278435 3.257412
0.97417665 -1.7977735 3.2453825
0.97112375 -1.6703774 3.2279391
0.96892655 -1.549819 3.2153661
0.97128683 -1.442392 3.2287183
0.96682435 -1.3245372 3.2032654
0.9713046 -1.1717377 3.2286434
0.97276682 -1.0687646 3.2368913
0.93009871 -0.92180532 2.994163
0.9729172 -0.86310798 3.2376118
0.9645474 -0.75674915 3.1899474
0.9634546 -0.65747207 3.1836679
0.95812273 -0.55826873 3.1532834
0.53421557 -0.43313733 0.74271578
0.52187335 -0.42592409 0.67254126
0.52021891 -0.42291331 0.66313571
0.51924247 -0.41952983 0.65758508
0.51880407 -0.40711424 0.65509653
0.51778024 -0.3999534 0.6492781
0.51792061 -0.38211313 0.65008074
0.51854765 -0.37160099 0.65364742
0.5224241 -0.34725711 0.67568529
0.52201712 -0.33749089 0.67337257
0.52001601 -0.33244538 0.66199857
0.51935953 -0.32354996 0.65826768
0.51921368 -0.30687207 0.65743876
0.51902688 -0.30162027 0.65637696
0.51835042 -0.28581923 0.65253174
0.51820582 -0.27338216 0.6517086
0.51835132 -0.25882643 0.65253365
0.51795363 -0.238563 0.65026993
0.5181461 -0.22128853 0.65135986
0.73888755 1.4651848 1.9052933
0.75195336 1.713948 1.9794036
0.73069191 1.6997982 1.8585209
0.71077091 1.687447 1.7452592
0.68685943 1.7119186 1.6092808
0.66958266 1.707195 1.5110496
0.65276814 1.7000262 1.4154488
0.63614172 1.6869372 1.3209221
0.6104371 1.5279337 1.1748881
0.59646809 1.5221694 1.0954672
0.58369625 1.5314081 1.0228418
0.57059771 1.5302055 0.948367
0.55183965 1.5397531 0.84170568
0.53939611 1.5435294 0.77095169
0.52711785 1.549693 0.70113558
0.51467532 1.544407 0.63039482
0.50251508 1.5495435 0.56125081
0.4903554 1.5552227 0.49210966
0.47815713 1.56445 0.42274639
0.45984331 1.5556785 0.31862614
0.4474794 1.5627124 0.24832278
0.43530169 1.5533112 0.1790915
0.42352346 1.5296203 0.11214317
0.41085935 1.5370314 0.040132619
0.39776763 1.5485617 -0.034312498
0.38467893 1.5523895 -0.10873431
0.36553034 1.5394539 -0.21759696
0.35125247 1.5512499 -0.29878697
0.33689129 1.5569053 -0.38044557
0.3224501 1.557359 -0.46255496
0.30897084 1.5409343 -0.53918093
0.2930657 1.5480075 -0.62961984
0.28801155 1.3650419 -0.65819943
0.40240636 0.18508993 -0.0067528943
0.40240455 0.1387316 -0.0067170141
0.40233383 0.097140908 -0.0070764846
0.402336 0.058585823 -0.0070239422
0.40236083 0.022972384 -0.0068450435
0.40247989 -0.010531642 -0.0061317263
0.40241036 -0.040594358 -0.0064936313
0.40209475 -0.067439169 -0.0082574347
0.40228438 -0.12047992 -0.0071176663
0.40235874 -0.16742022 -0.0066382624
0.40112597 -0.19528076 -0.013611475
0.40152794 -0.21721099 -0.011298609
0.40148211 -0.2368294 -0.011533833
0.4021332 -0.27595663 -0.007780869
0.401862 -0.29312071 -0.0092996508
0.40186876 -0.31048968 -0.0092374906
0.40199175 -0.32764673 -0.0085146362
0.40206978 -0.36054927 -0.0080250036
0.40201163 -0.37645116 -0.0083330134
0.4016951 -0.4153496 -0.010077133
0.40163121 -0.43078828 -0.010418194
0.40166098 -0.44619477 -0.010226522
0.40178397 -0.46155018 -0.0095048631
0.40148029 -0.4769406 -0.011209267
0.40161604 -0.49231216 -0.010415034
0.40164977 -0.51553714 -0.010189488
0.40167651 -0.53116208 -0.010014732
0.40145966 -0.54722166 -0.011224638
0.40134501 -0.56345093 -0.011853204
0.40116704 -0.58008695 -0.012841552
0.40126371 -0.59662318 -0.012268273
0.401122 -0.62263846 -0.01303753
0.40085343 -0.64098328 -0.014539398
0.40103135 -0.6588136 -0.013502863
0.40070927 -0.67853981 -0.015307644
0.40053403 -0.6986289 -0.016277209
0.40085217 -0.72833496 -0.014428206
0.40061837 -0.75074828 -0.015728498
0.40042213 -0.77414382 -0.016814403
0.40027872 -0.79856074 -0.017599104
0.39979991 -0.82592058 -0.020288041
0.40088525 -0.86101437 -0.014071565
0.40047491 -0.89223135 -0.016367899
0.39974958 -0.92767513 -0.02045132
0.40111867 -0.97021645 -0.012614576
0.22467008 -2.3299439 -1.0147103
0.22336805 -2.4808767 -1.0219694
0.222822 -2.6411097 -1.0249215
0.22728118 -2.8650656 -0.99935055
0.2274878 -3.0644364 -0.99798745
0.22524877 -3.318135 -1.0104821
0.22278711 -3.6128004 -1.0242057
0.23270181 -3.9561219 -0.96750599
0.23146117 -4.3594103 -0.97418886
0.30951506 -8.3175535 -0.52673918
0.35816559 -8.2766895 -0.25012803
0.45135453 -8.7832594 0.28023925
0.50178325 -8.8222466 0.56703275
0.60239637 -10.88106 1.1410036
0.69798058 -10.890171 1.6845343
0.76571274 -11.015917 2.0698032
0.80239153 -4.886342 2.2729337
0.95805681 -6.4195209 3.1594534
0.98268902 -5.9533849 3.2991037
0.98333848 -5.5251021 3.3024163
0.99733853 -5.2690353 3.3817956
1.000367 -4.9407401 3.3987243
0.98656642 -4.5097742 3.3198698
0.98549736 -4.2179008 3.3135316
0.95252067 -3.7317019 3.1255925
0.99522638 -3.6684396 3.3683639
0.99142843 -3.4298887 3.3465567
0.98527801 -3.1962695 3.311378
0.98152959 -2.9918766 3.2898831
0.98039168 -2.8132277 3.2832544
0.98242778 -2.6586843 3.2946942
0.95372707 -2.3869576 3.1312635
0.98207831 -2.3535347 3.2924352
0.98281872 -2.1459594 3.2964599
0.97681051 -1.9942853 3.2621627
0.97489399 -1.8620571 3.2511473
0.97184187 -1.7321074 3.2336776
0.97088838 -1.6122543 3.2281487
0.96974891 -1.4957323 3.221565
0.97052395 -1.3315623 3.2258234
0.96997845 -1.2231691 3.2226236
0.97142953 -1.1196718 3.2307799
0.92768884 -0.96654117 2.9819522
0.96589339 -0.90793049 3.1991105
0.96882588 -0.80964744 3.2156928
0.94786918 -0.69896853 3.0964434
0.96027708 -0.60748577 3.166903
0.95541859 -0.46146962 3.1391451
0.53501815 -0.43834758 0.74902546
0.52062821 -0.43104035 0.66722566
0.51926816 -0.41913736 0.65949982
0.51831919 -0.40729409 0.65411162
0.51763105 -0.39964941 0.650204
0.51810384 -0.39452717 0.65289271
0.51825911 -0.38076586 0.65377998
0.51920146 -0.36940593 0.6591385
0.52238387 -0.34105968 0.67722648
0.52039224 -0.33575046 0.66591078
0.51930195 -0.32818308 0.65971684
0.51842195 -0.30269453 0.65471804
0.51878721 -0.29516801 0.65679312
0.51804125 -0.27926916 0.65255415
0.51797664 -0.26609734 0.65218532
0.51818734 -0.25072843 0.65337914
0.51781362 -0.22957325 0.65125096
0.74338967 1.5718335 1.9318068
0.74009776 1.6994302 1.9129646
0.71988779 1.6888573 1.7980884
0.6944297 1.7027024 1.6533557
0.67763364 1.7061404 1.5578741
0.66060662 1.7001029 1.4610903
0.64502978 1.7045192 1.3725398
0.61687136 1.5236022 1.2126617
0.60371822 1.5334685 1.1378855
0.58905828 1.512894 1.0545759
0.57700741 1.5331185 0.98605555
0.55624431 1.4969838 0.86807263
0.54538649 1.5420007 0.80630881
0.53282315 1.539556 0.73490047
0.52060574 1.5454278 0.66545027
0.50850606 1.5567898 0.59666383
0.49619094 1.5517364 0.52667058
0.47790977 1.5564991 0.42275679
0.46569452 1.5572686 0.35332599
0.4533385 1.5665468 0.28308636
0.44110608 1.5593679 0.21356724
0.42904964 1.5447825 0.14505701
0.41676518 1.539629 0.075240932
0.40437573 1.534899 0.0048277983
0.38533953 1.532171 -0.1033653
0.37106401 1.5553471 -0.18452911
0.35752219 1.5562375 -0.26149762
0.34365475 1.5569019 -0.34031621
0.32983667 1.5516455 -0.41884744
0.31526253 1.5514115 -0.50168145
0.29988521 1.5548501 -0.58908463
0.27984297 1.5182372 -0.70295399
0.40258563 0.15696375 -0.003696868
0.40200999 0.11751511 -0.0069120373
0.40236071 0.074735448 -0.0048575206
0.40233749 0.038122807 -0.0049353032
0.40218952 0.0051091039 -0.0057261754
0.40222338 -0.026623519 -0.0054847649
0.40203947 -0.055022791 -0.0064848131
0.40210435 -0.082947381 -0.0060711065
0.40187386 -0.10781504 -0.0073396126
0.40226457 -0.13410532 -0.0050754952
0.40174353 -0.15520255 -0.0079995953
0.40111744 -0.18593377 -0.01150299
0.40189552 -0.21957125 -0.0070213601
0.40168035 -0.26666346 -0.0081561301
0.40150639 -0.28430104 -0.0091108736
0.40151551 -0.3190324 -0.0089912396
0.40169382 -0.33607385 -0.0079441201
0.40153751 -0.36834368 -0.0087670991
0.40130186 -0.39187422 -0.010058165
0.40109366 -0.40737718 -0.011209494
0.40132511 -0.42305115 -0.0098613966
0.40113345 -0.43840629 -0.010918763
0.39808959 -0.45349273 -0.028187992
0.40120232 -0.46916479 -0.010462813
0.40119508 -0.49224776 -0.010455483
0.40021545 -0.50831348 -0.01599038
0.4012264 -0.52327728 -0.010212218
0.40112877 -0.53910482 -0.010734128
0.40079126 -0.55545974 -0.012618677
0.40089595 -0.57155776 -0.011990064
0.40099585 -0.59626615 -0.011371286
0.4008683 -0.61352271 -0.012061238
0.400372 -0.63206512 -0.014845427
0.40048718 -0.64981401 -0.014154932
0.40009579 -0.66940945 -0.016341282
0.40015858 -0.68847615 -0.015947001
0.40051219 -0.71748036 -0.013880283
0.40033656 -0.73915768 -0.014837551
0.40018782 -0.7617662 -0.015640968
0.39979994 -0.78652442 -0.017800737
0.40041882 -0.82082063 -0.014219402
0.40053824 -0.84658498 -0.013494499
0.4001168 -0.87681496 -0.015838033
0.39972535 -0.90907615 -0.018008485
0.40063107 -0.95269579 -0.012785008
0.2234461 -2.2683258 -1.0181868
0.22250113 -2.4101312 -1.0233635
0.22749299 -2.5954027 -0.99473375
0.22645871 -2.7740865 -1.0003713
0.22608259 -2.9677362 -1.0022491
0.22433577 -3.2012441 -1.0118673
0.22086282 -3.4885955 -1.0312283
0.22065197 -3.7794535 -1.0320441
0.22889321 -4.1845751 -0.98466849
0.23036964 -4.5858078 -0.9757551
0.28922248 -8.1172209 -0.6367197
0.33331451 -8.2754211 -0.38590446
0.38094351 -8.2753868 -0.11518747
0.47547063 -8.9644785 0.42295685
0.56825846 -10.721408 0.95254952
0.63250035 -10.846826 1.3178366
0.66388625 -10.829391 1.4962053
0.73095173 -10.970233 1.8775426
0.78907382 -10.737986 2.2075794
0.78812271 -4.9147816 2.1948819
0.96802557 -6.0330057 3.2187333
0.97285855 -5.6322951 3.2457035
1.0002867 -5.4948339 3.4014168
0.98521435 -4.9836578 3.3151236
0.98965317 -4.6916485 3.3399909
0.98548007 -4.3596873 3.315866
0.97359574 -4.0037775 3.2478874
0.98040819 -3.6905122 3.2862225
0.99652517 -3.5683794 3.377672
0.98775285 -3.3096495 3.327502
0.98281932 -3.0912335 3.2991991
0.97987032 -2.8977153 3.2822061
0.98013026 -2.7308791 3.2834826
0.98278373 -2.5828688 3.2983856
0.96561128 -2.363924 3.2005291
0.98400724 -2.2198935 3.3049061
0.98087329 -2.0735457 3.2869215
0.97536808 -1.9270346 3.255461
0.97233236 -1.7944914 3.2380521
0.97054625 -1.6704758 3.2277558
0.9686833 -1.550634 3.2170277
0.970339 -1.386443 3.2262447
0.9683252 -1.2744098 3.2146692
0.9704408 -1.171355 3.226572
0.97191137 -1.0684512 3.2348094
0.92837626 -0.92067599 2.9872303
0.97224945 -0.86307257 3.2364912
0.96509051 -0.75747758 3.1956849
0.96245408 -0.65736407 3.1805866
0.95891625 -0.51007551 3.1603107
0.53365934 -0.43298271 0.74362063
0.52096421 -0.42599112 0.67149132
0.51930892 -0.42299706 0.66208869
0.51836896 -0.41530395 0.65675288
0.51789242 -0.40293443 0.6540519
0.51717883 -0.38204062 0.6500085
0.51796812 -0.37117061 0.65449512
0.52247798 -0.34515345 0.6801129
0.5208109 -0.33873585 0.67064655
0.51950544 -0.33708608 0.66323382
0.51861835 -0.32347924 0.65819818
0.51832688 -0.30734622 0.65654409
0.51793706 -0.29686248 0.65433079
0.5176084 -0.28574884 0.65246427
0.51759857 -0.27268264 0.65240723
0.51774061 -0.25810042 0.65321088
0.51733685 -0.23779856 0.65091342
0.51752579 -0.22049969 0.65197998
0.73845583 1.4651608 1.9052989
0.75104368 1.7098732 1.9765276
0.72266436 1.7156661 1.815273
0.70353997 1.7079718 1.7066214
0.6858238 1.7057925 1.6059653
0.66912365 1.7071984 1.5110784
0.65200239 1.6964111 1.4138144
0.63198817 1.6372477 1.3001739
0.60998005 1.5288948 1.1752671
0.59599435 1.5231479 1.0958154
0.57696986 1.5388945 0.98771077
0.56434774 1.5470237 0.91599011
0.55156708 1.5476297 0.84337854
0.53882426 1.5435861 0.77098835
0.52648842 1.5477744 0.7009002
0.51413953 1.5474577 0.63074386
0.50192761 1.550613 0.56136167
0.48364332 1.5562234 0.45747864
0.47140729 1.5652251 0.38795242
0.45911348 1.5667535 0.31810775
0.44686759 1.5608153 0.24854521
0.43473318 1.5494416 0.1796235
0.42251015 1.5425659 0.11019252
0.40386161 1.537885 0.0042550294
0.39126426 1.5344529 -0.067306794
0.37728727 1.5552853 -0.14673954
0.36364824 1.5605081 -0.22423127
0.34982502 1.5626637 -0.30276534
0.33616191 1.5570488 -0.38037941
0.32149854 1.5602498 -0.46368843
0.30100352 1.5371071 -0.58009171
0.28574157 1.534466 -0.66679382
0.2864216 1.3729221 -0.66270316
0.40206373 0.18105815 -0.0040249969
0.40187749 0.13641791 -0.0050089583
0.40181595 0.094890095 -0.0052885474
0.40149349 0.058699023 -0.0070574307
0.40197679 0.020112788 -0.004244735
0.40198892 -0.01257682 -0.0041171322
0.40155444 -0.040481534 -0.0065333135
0.40174934 -0.070002988 -0.005371206
0.40066999 -0.12924165 -0.011386393
0.40162775 -0.16786721 -0.0058694701
0.40079632 -0.21758345 -0.01048809
0.40105882 -0.23807923 -0.0089534316
0.40147442 -0.25816306 -0.0065494594
0.40124112 -0.27584487 -0.0078356713
0.40129027 -0.29372576 -0.0075166719
0.40129828 -0.31102926 -0.0074321888
0.40109086 -0.32753524 -0.0085728839
0.40133214 -0.36066303 -0.0071258806
0.40085328 -0.38399357 -0.0097917849
0.4007788 -0.41523859 -0.010141362
0.40071216 -0.43067735 -0.010483493
0.40195176 -0.44632861 -0.0034030699
0.40068632 -0.46143952 -0.010557188
0.40072629 -0.47679508 -0.010293523
0.40113303 -0.49970046 -0.0079278704
0.40071592 -0.51542687 -0.010260805
0.40039754 -0.53136462 -0.012032649
0.40052027 -0.54711151 -0.011298222
0.40023386 -0.56356573 -0.012887551
0.40058893 -0.58767962 -0.010813828
0.40056798 -0.60451239 -0.010894286
0.40016979 -0.62252867 -0.013116588
0.3997373 -0.64124799 -0.015532923
0.39991483 -0.65911067 -0.0144843
0.39959204 -0.67886841 -0.016275993
0.39984003 -0.70771939 -0.014804283
0.39973462 -0.72874057 -0.015359273
0.39935508 -0.75172812 -0.017468978
0.39944634 -0.77403444 -0.016904661
0.40005392 -0.80743694 -0.013383759
0.39966151 -0.83489442 -0.015560742
0.39925277 -0.86425108 -0.01782798
0.39910838 -0.8942064 -0.018592486
0.39827037 -0.93044329 -0.023289705
0.39943376 -0.97463632 -0.016596569
0.22815634 -2.3621283 -0.98789316
0.22694087 -2.5166273 -0.99457729
0.22550966 -2.6897216 -1.0024625
0.22499032 -2.8742993 -1.0051515
0.22279266 -3.0992248 -1.0173231
0.22224084 -3.3366494 -1.0201268
0.22991033 -3.651474 -0.9761079
0.23064525 -3.9652009 -0.97149974
0.22835208 -4.3855286 -0.9839555
0.22673123 -4.8837838 -0.99248844
0.30901426 -8.2598333 -0.52042264
0.35548398 -8.3403177 -0.25627381
0.47484466 -8.8374577 0.42259008
0.52804804 -9.2681084 0.72545707
0.59969223 -10.800257 1.134553
0.6954565 -10.849526 1.678712
0.76151359 -10.921183 2.0540905
0.96801126 -6.2876315 3.2211108
0.97668052 -5.8988442 3.2698531
0.98741639 -5.5755391 3.3304224
0.9839682 -5.1539087 3.3102844
0.99823636 -4.9301782 3.3910525
0.98195475 -4.4800477 3.2979741
0.98179555 -4.1968317 3.2967052
0.96097249 -3.6797359 3.1777475
0.99433661 -3.6679237 3.3672764
0.9909175 -3.4315174 3.3475528
0.98225617 -3.1842041 3.2980359
0.98079991 -2.9920869 3.2895222
0.97927099 -2.8115499 3.2806115
0.98061752 -2.6540813 3.2880666
0.95202649 -2.3831394 3.1253068
0.98764288 -2.3047345 3.3275497
0.9820022 -2.145674 3.2953119
0.97461969 -1.989802 3.2531848
0.97237146 -1.8570075 3.2402542
0.97166884 -1.7335385 3.2361164
0.96912265 -1.6098422 3.2215064
0.97070402 -1.4432634 3.2302959
0.96973366 -1.3314818 3.2246542
0.96935958 -1.2233815 3.2224052
0.97098637 -1.1201106 3.2315292
0.92824072 -0.96806771 2.9885285
0.97333437 -0.91549867 3.2446373
0.96736729 -0.80925202 3.2106216
0.96314698 -0.70719755 3.1865342
0.96161854 -0.55936456 3.17769
0.95447844 -0.46167859 3.1370242
0.53373617 -0.4384619 0.74697107
0.52174419 -0.42954615 0.67886901
0.51940763 -0.42682073 0.66560256
0.51786321 -0.41095164 0.65685022
0.51719409 -0.40317073 0.6530599
0.51648134 -0.39559627 0.64902222
0.51710433 -0.39013523 0.65256464
0.51746619 -0.38040766 0.65462881
0.51844108 -0.36407697 0.66017741
0.52142787 -0.34103003 0.67714697
0.51927888 -0.33617383 0.66495448
0.51849294 -0.32766742 0.66050029
0.51824862 -0.31150767 0.65912437
0.51745784 -0.30266368 0.65464252
0.51731241 -0.2910167 0.65382361
0.51707482 -0.27923855 0.65248084
0.51654166 -0.26137611 0.649463
0.51670092 -0.24596277 0.65037096
0.51708889 -0.22812925 0.65257525
0.75048566 1.6316247 1.9763376
0.73238862 1.7220949 1.8734826
0.71230525 1.7102712 1.7594455
0.6932044 1.6982974 1.6509901
0.67600965 1.6972455 1.5533503
0.65886652 1.6892618 1.4560118
0.64411688 1.7035582 1.3722453
0.61586863 1.5217168 1.2120166
0.60229635 1.5249882 1.1349498
0.58262205 1.5323839 1.0232339
0.56999546 1.5418255 0.95153356
0.55526692 1.496013 0.8679527
0.5444032 1.541029 0.80622935
0.53202307 1.5454991 0.73593599
0.51956421 1.5424743 0.66520375
0.50746912 1.5538322 0.59652346
0.48910734 1.556311 0.49227419
0.47688624 1.566548 0.42288089
0.46459082 1.5683179 0.35307461
0.45217824 1.5755885 0.28259805
0.44005701 1.5584437 0.21380122
0.42796883 1.54486 0.145189
0.40958697 1.5342362 0.040844403
0.39707693 1.5311825 -0.030172864
0.38398558 1.5371044 -0.10450003
0.37123135 1.5305945 -0.1768997
0.3563607 1.5563577 -0.26135013
0.34247771 1.5570306 -0.34016588
0.32837376 1.5554647 -0.42023391
0.30790493 1.5357721 -0.5364157
0.29298434 1.5323569 -0.62111819
0.28465301 1.4577793 -0.66833013
0.40138024 0.20617723 -0.0041769482
0.40164933 0.15541704 -0.0025759705
0.40149832 0.11281475 -0.0033690832
0.40133157 0.074049771 -0.0042553367
0.40142515 0.03670473 -0.0036646917
0.40144837 -0.028653847 -0.0034242359
0.40127555 -0.056977823 -0.0043557407
0.40008685 -0.091798849 -0.011038803
0.40113097 -0.10961215 -0.0050810678
0.40027419 -0.14223398 -0.0098817926
0.40010613 -0.16446958 -0.010792563
0.40025938 -0.1869027 -0.0098786782
0.40028873 -0.20790064 -0.0096698571
0.40032449 -0.22807308 -0.0094256373
0.40052414 -0.26657325 -0.008211405
0.40050963 -0.28458554 -0.0082550645
0.40068558 -0.31956071 -0.0071793469
0.40016186 -0.34363613 -0.010098313
0.40016466 -0.35994563 -0.010045525
0.40027127 -0.37610677 -0.009403605
0.40030861 -0.39194125 -0.0091554457
0.40010008 -0.40740967 -0.010303783
0.40033147 -0.42304918 -0.0089540444
0.4003123 -0.43842196 -0.0090273656
0.40002477 -0.4613969 -0.010607325
0.40006474 -0.47675246 -0.010345118
0.40002465 -0.49215901 -0.010537741
0.40007836 -0.5075978 -0.010197724
0.3998827 -0.52332789 -0.011273633
0.39995602 -0.53901637 -0.010822264
0.39961752 -0.55537122 -0.012708829
0.39955336 -0.57171124 -0.01303789
0.39982077 -0.59617805 -0.011466689
0.39952853 -0.61376017 -0.013090069
0.39935738 -0.63161868 -0.014025858
0.39931026 -0.64972603 -0.014257164
0.39955622 -0.67707205 -0.012806244
0.39952326 -0.69659841 -0.012956426
0.39888343 -0.71889246 -0.016550178
0.39886409 -0.74012977 -0.016621953
0.3985779 -0.76335591 -0.018207422
0.39933687 -0.79539931 -0.013841073
0.39924109 -0.82073361 -0.014344102
0.39896795 -0.84846604 -0.015852619
0.39855886 -0.87877369 -0.018131107
0.39818043 -0.91111004 -0.020234123
0.39899155 -0.95558172 -0.015563584
0.22119358 -2.2751155 -1.0240459
0.22645721 -2.4409244 -0.99400461
0.22488812 -2.6068072 -1.0027696
0.22255461 -2.798476 -1.0158566
0.2220806 -2.995245 -1.0183833
0.22885112 -3.255455 -0.97972345
0.22725205 -3.5336401 -0.98858136
0.2269769 -3.8395088 -0.98990411
0.22601333 -4.2105136 -0.99509007
0.22484881 -4.6593556 -1.0013632
0.28567538 -8.22995 -0.6534335
0.33206621 -8.3041334 -0.3899999
0.37984902 -8.3102055 -0.11871357
0.50031769 -8.8291922 0.56558359
0.56942636 -10.882222 0.9593417
0.6316967 -10.806058 1.3128031
0.66447079 -10.870264 1.4988972
0.7298488 -10.927796 1.8700969
0.78997642 -10.7687 2.2113392
0.86482632 -8.848897 2.6349611
0.78614849 -4.8936405 2.1856413
0.97041821 -6.0627222 3.2325387
0.97179025 -5.6238632 3.240037
1.0000769 -5.4951687 3.4005365
0.98475945 -4.9823046 3.3132422
0.986884 -4.6714954 3.3251009
0.9831835 -4.3448367 3.3038816
0.97520536 -3.8937452 3.2583008
0.98084646 -3.6960382 3.2902007
0.99062002 -3.53562 3.3455851
0.9821192 -3.2807987 3.2971668
0.97840631 -3.0708129 3.2759593
0.97730738 -2.8877532 3.2696087
0.97926897 -2.7293568 3.2806497
0.98021889 -2.5743775 3.2859497
0.97095084 -2.3152778 3.2331827
0.98307168 -2.2186773 3.3019369
0.97642463 -2.0612645 3.2641113
0.97268134 -1.9210008 3.2427812
0.97022253 -1.7905862 3.22875
0.96919739 -1.6688429 3.2228634
0.96971858 -1.4978555 3.2257297
0.96943331 -1.386147 3.2240505
0.9675706 -1.2744554 3.2134175
0.96967757 -1.1714363 3.2253251
0.97096932 -1.06836 3.2326052
0.92805594 -0.92131788 2.9889209
0.96905142 -0.86130863 3.2216136
0.96255398 -0.75664735 3.1846781
0.96094131 -0.60836548 3.1754518
0.95842093 -0.51041102 3.1610978
0.53538346 -0.43757373 0.75967169
0.53270859 -0.4329108 0.74449331
0.51953936 -0.42175195 0.66976583
0.51787347 -0.41894105 0.66031665
0.51722622 -0.41530854 0.65664935
0.5165627 -0.3988497 0.65290892
0.51619381 -0.38171959 0.65084058
0.51698023 -0.37081748 0.65531671
0.52132952 -0.34516203 0.68001771
0.51950353 -0.33918157 0.66966724
0.51812136 -0.33238128 0.66183561
0.51731181 -0.32398534 0.6572535
0.51748222 -0.31204835 0.65823245
0.51677608 -0.29686862 0.65424275
0.51658404 -0.28515318 0.65316439
0.5165686 -0.27205962 0.65308797
0.5167048 -0.25745094 0.65387154
0.5162915 -0.23711039 0.65154213
0.51573473 -0.21574984 0.64839804
0.7366907 1.4602652 1.9017904
0.74079931 1.7164276 1.9250128
0.71978968 1.7004144 1.8057868
0.70189947 1.7035428 1.7042582
0.6844418 1.7039126 1.6051869
0.66741717 1.7017338 1.5085753
0.65067697 1.6953982 1.4135804
0.62813967 1.6021788 1.2857237
0.60851198 1.526018 1.1743737
0.588615 1.5337608 1.0614668
0.57574373 1.5407643 0.98842824
0.5629254 1.54504 0.91569161
0.5501048 1.5446615 0.84294486
0.53748578 1.5445461 0.77134258
0.52495861 1.5418171 0.70026326
0.50666475 1.551832 0.59645903
0.49442351 1.5537686 0.52700186
0.48220849 1.5572388 0.45769289
0.46997645 1.5572509 0.3882896
0.45769772 1.5607953 0.31861991
0.44535345 1.5628502 0.24857946
0.43344578 1.5395675 0.18102868
0.41499496 1.5348182 0.076344967
0.40218276 1.541872 0.0036480918
0.38963023 1.5364771 -0.067569241
0.37552607 1.5592246 -0.14760475
0.36206028 1.5606122 -0.22400746
0.34821951 1.5627781 -0.30253816
0.33421543 1.5618097 -0.38199398
0.31382871 1.543468 -0.49765435
0.29910389 1.5399312 -0.58119857
0.2841433 1.5337534 -0.66607946
0.4010748 0.17781609 -0.0018191797
0.40101513 0.13244677 -0.0021186541
0.40076879 0.092600226 -0.0034798763
0.40084991 0.018700406 -0.002948713
0.40063351 -0.012502753 -0.0041439626
0.39948505 -0.078886852 -0.010584859
0.39946383 -0.12976891 -0.010645139
0.39969921 -0.17652273 -0.0092512844
0.39976448 -0.21847911 -0.0088249967
0.39972597 -0.23800525 -0.0090163099
0.39982969 -0.2572439 -0.0084006805
0.39991239 -0.2757712 -0.007904781
0.39997321 -0.31095579 -0.0075071249
0.39953759 -0.33540133 -0.0099411197
0.39954638 -0.36801499 -0.0098404149
0.39953518 -0.3839201 -0.0098788207
0.39963645 -0.41526997 -0.0092542646
0.3995719 -0.43067396 -0.0095959483
0.39954975 -0.46136653 -0.0096724983
0.39947361 -0.48439404 -0.01006783
0.3998276 -0.49962786 -0.0080346223
0.39941177 -0.51535404 -0.010370166
0.39926621 -0.53113538 -0.011171971
0.39921945 -0.54703867 -0.011412989
0.39925325 -0.57119781 -0.011184914
0.39912608 -0.58788252 -0.01188234
0.39910889 -0.60474867 -0.011955646
0.39871439 -0.62279773 -0.014169829
0.39876869 -0.6404261 -0.013837406
0.39862677 -0.65903789 -0.014618301
0.39897409 -0.68654329 -0.012610883
0.39840627 -0.70813137 -0.015808122
0.39845526 -0.72866797 -0.015505315
0.39822394 -0.75111073 -0.016792869
0.3978883 -0.77510858 -0.01867212
0.39837515 -0.80921131 -0.015872059
0.39813054 -0.83610737 -0.017234286
0.39786243 -0.86484748 -0.018729389
0.39747646 -0.89621729 -0.020892708
0.39809242 -0.94039834 -0.017358264
0.39807472 -0.97531873 -0.017431417
0.22576936 -2.3707049 -0.99479753
0.22423238 -2.5287049 -1.003462
0.22242939 -2.7062838 -1.0136316
0.22132614 -2.8980875 -1.019828
0.2211614 -3.1042609 -1.0206963
0.22822168 -3.3813496 -0.98054284
0.22775249 -3.6658838 -0.98312294
0.22667633 -4.0076432 -0.98913521
0.22524419 -4.4200873 -0.99715275
0.2238614 -4.9197135 -1.0048724
0.30874607 -8.2646542 -0.52243268
0.35662749 -8.2595234 -0.25074065
0.4749915 -8.9304485 0.42102206
0.53124779 -9.7528505 0.74039567
0.600941 -10.850227 1.1360614
0.6968897 -10.880466 1.6804786
0.76298219 -10.943135 2.0555029
0.96743685 -6.2772298 3.2147171
0.97557819 -5.8842239 3.2608461
0.9828859 -5.5283012 3.3022528
0.97071099 -5.0304737 3.2330918
0.98790187 -4.8410363 3.3306072
0.97894114 -4.4561667 3.2797062
0.99183106 -4.1371903 3.3528023
0.96074182 -3.6793575 3.1763368
0.99437529 -3.6690578 3.3671796
0.98698974 -3.409992 3.3252428
0.98080987 -3.1777749 3.2901518
0.98058754 -2.9924777 3.2888725
0.97821647 -2.8081625 3.2754021
0.98564935 -2.598078 3.3175614
0.95915121 -2.3420415 3.1671872
0.98761362 -2.3061893 3.3286879
0.97818774 -2.1345596 3.2751944
0.97315353 -1.9868982 3.246623
0.97117227 -1.8551965 3.2353768
0.9694832 -1.7294431 3.2257898
0.96995485 -1.5557926 3.2284639
0.97119528 -1.4455973 3.2355018
0.96988362 -1.3330305 3.2280598
0.96849108 -1.2232412 3.2201598
0.97060621 -1.1207144 3.2321634
0.92778581 -0.96860385 2.9892042
0.97309512 -0.91619188 3.2462916
0.96739399 -0.75996292 3.2139504
0.96318775 -0.65855646 3.1900897
0.95870608 -0.55927777 3.1646674
0.95674658 -0.46204618 3.1535561
0.53221625 -0.43864003 0.74488646
0.51821566 -0.42684886 0.66548818
0.51666695 -0.41097867 0.65673935
0.51547617 -0.39964211 0.65001172
0.51557195 -0.39074612 0.65057433
0.51666391 -0.37497047 0.65679812
0.51773417 -0.3579593 0.66289914
0.52006739 -0.34148249 0.67615592
0.51768494 -0.33192909 0.66266787
0.51687115 -0.3235023 0.65806997
0.5176357 -0.31523249 0.66241723
0.51624429 -0.30269089 0.65455228
0.51623738 -0.29045627 0.65453243
0.51543236 -0.27459273 0.64999413
0.51545179 -0.26074693 0.65012389
0.51560479 -0.2453078 0.65101159
0.51538998 -0.22268035 0.64982224
0.75212622 1.7322482 1.9929998
0.73060542 1.7177612 1.8709235
0.71061927 1.7067057 1.7575545
0.69152027 1.6946744 1.6492189
0.6746543 1.6970991 1.5535526
0.65741771 1.6882297 1.4557842
0.64251423 1.7006955 1.3712525
0.61434591 1.5197614 1.2114642
0.59473699 1.5353298 1.1002485
0.58139557 1.5361323 1.0245802
0.56859601 1.5427245 0.95198631
0.55443954 1.511546 0.87169397
0.54296529 1.5419624 0.80661976
0.5304569 1.5424973 0.73567843
0.51806724 1.5424445 0.66541088
0.49980953 1.5535969 0.56186438
0.48757699 1.5563037 0.49248907
0.47534159 1.5575497 0.42309755
0.46309403 1.5583345 0.35363722
0.45063174 1.5736128 0.28295955
0.43853122 1.5554886 0.21433339
0.42049569 1.5327648 0.11204839
0.40794727 1.5352684 0.04088236
0.39549747 1.5302676 -0.029724181
0.38167986 1.5516633 -0.10808953
0.3697398 1.5278037 -0.17580476
0.3545855 1.5583378 -0.26175249
0.34073973 1.5580635 -0.34027773
0.32052386 1.5412477 -0.45493004
0.30619913 1.5358958 -0.53617215
0.29102036 1.5351405 -0.62225908
0.29074648 1.3799666 -0.62379593
0.40044704 0.20203821 -0.0014753086
0.40065014 0.15219447 -0.00030424332
0.40031657 0.11127184 -0.0021775172
0.40027472 0.071772456 -0.0023957691
0.40016067 0.036004175 -0.003023589
0.40020344 -0.029307047 -0.0027426111
0.40016627 -0.058288094 -0.0029343017
0.39846241 -0.090458192 -0.012570955
0.39872003 -0.11719212 -0.011090486
0.3987838 -0.1415917 -0.010709418
0.39904755 -0.16553411 -0.0091940854
0.39891687 -0.18684869 -0.0099161221
0.39894977 -0.20784678 -0.0097103175
0.39914221 -0.22848906 -0.0085995262
0.39919528 -0.26651996 -0.0082602426
0.39934474 -0.28490722 -0.0073933918
0.39929661 -0.3023074 -0.0076472247
0.39877963 -0.32685488 -0.010551577
0.39918104 -0.34410131 -0.0082554575
0.39902043 -0.36011803 -0.0091477484
0.39913112 -0.37624523 -0.008500956
0.39900076 -0.39188886 -0.0092216302
0.39896697 -0.40747938 -0.009394628
0.39902893 -0.42299706 -0.0090244673
0.398839 -0.43831742 -0.010083327
0.39872843 -0.46134493 -0.010682884
0.39877105 -0.47670063 -0.010422752
0.39890668 -0.4920378 -0.0096349847
0.39878985 -0.50754625 -0.010279503
0.39859664 -0.52327633 -0.011357489
0.39874712 -0.54682678 -0.010476826
0.39850637 -0.55511212 -0.011833598
0.39861906 -0.57936543 -0.011167694
0.39854676 -0.59612709 -0.011560277
0.39825711 -0.61370915 -0.013185969
0.39808869 -0.63156766 -0.014124123
0.39788467 -0.65006566 -0.015264495
0.39813909 -0.67745966 -0.013795884
0.39780539 -0.69795579 -0.015672388
0.39777875 -0.71834201 -0.015807113
0.39761242 -0.74007916 -0.016734727
0.39704177 -0.76442325 -0.019956453
0.39781705 -0.79655266 -0.015534666
0.3978675 -0.8213129 -0.015233353
0.39734024 -0.85038376 -0.01821034
0.39835337 -0.88786232 -0.012441056
0.39820674 -0.91956121 -0.01325949
0.39742488 -0.95776123 -0.017683126
0.22436742 -2.3089771 -0.99963558
0.22356854 -2.4545081 -1.0041802
0.2227864 -2.6149282 -1.0086337
0.22052971 -2.8067863 -1.0214596
0.21952826 -3.0097961 -1.027168
0.22687238 -3.2659817 -0.98553944
0.22537753 -3.5443497 -0.99406606
0.22555184 -3.8457868 -0.99313056
0.22486675 -4.2140822 -0.997087
0.22142754 -5.2378254 -1.0168087
0.28455439 -8.2644863 -0.65940565
0.33247492 -8.2692347 -0.38757026
0.4031398 -8.3535156 0.013264441
0.44946691 -8.8691339 0.27592969
0.50052345 -8.9022045 0.56554252
0.56811237 -10.701535 0.94848073
0.63161212 -10.776282 1.3086609
0.66229838 -10.729172 1.4827296
0.76056725 -10.849391 2.0401711
0.82266295 -10.766105 2.3924613
0.79841143 -4.8518186 2.2565918
0.9672907 -6.5444117 3.2141738
0.97065526 -6.0666165 3.2334127
0.96811289 -5.5874538 3.2191436
0.99912846 -5.4878001 3.3951402
0.99162096 -5.0455523 3.3526959
0.98710656 -4.6759295 3.3272116
0.99283123 -4.2809205 3.359832
0.96230698 -3.8082576 3.1868258
0.97960615 -3.6911657 3.2850192
0.98788285 -3.5222857 3.3320434
0.98150414 -3.2804341 3.2959495
0.97891349 -3.0764949 3.2813342
0.97502452 -2.8797204 3.259352
0.98534346 -2.6780949 3.3179848
0.98295236 -2.5115974 3.3044918
0.97321534 -2.3264942 3.2493308
0.98077935 -2.213336 3.2922983
0.97498119 -2.0591609 3.259474
0.97088999 -1.9181401 3.2363296
0.96996385 -1.7921712 3.2311363
0.97106016 -1.6171057 3.2374432
0.96926737 -1.4988543 3.2273316
0.96632653 -1.3821309 3.2107062
0.9667564 -1.2747672 3.213201
0.9685114 -1.1712644 3.223212
0.96231365 -1.0590969 3.1881087
0.92784661 -0.92229915 2.9926379
0.96896082 -0.81171453 3.2259529
0.94604307 -0.69965887 3.0959947
0.95880497 -0.60830086 3.1684461
0.95678705 -0.51064152 3.1570516
0.5326224 -0.43824542 0.75077742
0.51815271 -0.42194495 0.66874593
0.51651961 -0.41477236 0.65950418
0.51517373 -0.39914349 0.65191543
0.51496911 -0.38175467 0.65080184
0.51602441 -0.37498942 0.65680146
0.51958334 -0.34108004 0.67705464
0.51827365 -0.3392188 0.66963553
0.51688945 -0.33241776 0.66180539
0.51592761 -0.32452115 0.65637201
0.5162465 -0.31208453 0.65820599
0.5156796 -0.29633114 0.65502596
0.51534343 -0.285189 0.65314269
0.51546085 -0.27146637 0.65383393
0.51496285 -0.25275186 0.65104556
0.51460123 -0.2317106 0.64903128
0.51424646 -0.21724778 0.64704388
0.72948402 1.4860278 1.8687112
0.73873138 1.710533 1.92126
0.71803218 1.6969106 1.803843
0.69997478 1.6982611 1.7014178
0.68270874 1.7002852 1.6034819
0.66506749 1.6909232 1.503414
0.64911944 1.6934754 1.4129549
0.61859071 1.4916326 1.2397165
0.60093981 1.5370739 1.1396179
0.58623016 1.516567 1.0561775
0.57403135 1.5349282 0.98699278
0.56145257 1.5440078 0.91564918
0.54830819 1.5348254 0.84109157
0.53595495 1.5415436 0.77102649
0.51760525 1.5543333 0.66695106
0.50516731 1.5488116 0.5964011
0.49303988 1.5617325 0.52761757
0.48074177 1.5552202 0.45786032
0.468512 1.5572385 0.38849258
0.4561747 1.5667809 0.31851625
0.44392651 1.5598619 0.24904096
0.42598835 1.5320195 0.14728597
0.41336662 1.5397582 0.07569427
0.40073723 1.5409158 0.0040570288
0.38806215 1.5384465 -0.067840919
0.37394056 1.561183 -0.1479398
0.36040634 1.563508 -0.22471164
0.34660456 1.5647066 -0.30300248
0.32647231 1.5491425 -0.41720736
0.31225425 1.5444405 -0.49786261
0.29752162 1.5408955 -0.58143753
0.28246951 1.5355834 -0.66682631
0.40012506 0.17451951 0.0004402069
0.39998794 0.1300392 -0.00032978176
0.39997396 0.088679202 -0.00040032985
0.3999196 0.051131427 -0.00069882686
0.39976078 0.017233092 -0.0015892215
0.39833358 -0.022236824 -0.0096682105
0.39830455 -0.079523928 -0.0098087369
0.39792308 -0.10389582 -0.011959864
0.39843479 -0.13095422 -0.0090438602
0.39860904 -0.15506124 -0.0080418605
0.39825219 -0.17595974 -0.010052471
0.39861909 -0.21894653 -0.0079426402
0.39858538 -0.23844206 -0.0081192888
0.39869368 -0.25764966 -0.0074900943
0.39862093 -0.27575436 -0.0078880852
0.39823946 -0.31858546 -0.010014648
0.39825192 -0.33538514 -0.0099287583
0.39843363 -0.36820745 -0.0088670868
0.3984251 -0.38407856 -0.00889997
0.39835837 -0.41525504 -0.0092473403
0.39846838 -0.43072924 -0.008607625
0.39867264 -0.44610167 -0.0074328547
0.39811227 -0.4690311 -0.010589273
0.39802852 -0.48443219 -0.011048811
0.39821145 -0.49978808 -0.0099952286
0.39797047 -0.5154621 -0.011347048
0.39782712 -0.53127819 -0.01214502
0.39805284 -0.55491275 -0.010840943
0.39782062 -0.57142669 -0.012143319
0.39786324 -0.58786994 -0.011886097
0.39768243 -0.60504514 -0.012897143
0.39729139 -0.62312722 -0.015101206
0.39774305 -0.64890349 -0.012515497
0.39782125 -0.6671679 -0.012056887
0.39756471 -0.68698579 -0.013498256
0.39730501 -0.70763546 -0.014957776
0.39690632 -0.7296865 -0.017206332
0.39757419 -0.75996184 -0.013394874
0.39732009 -0.78404665 -0.014823584
0.39699319 -0.80981654 -0.016665781
0.39688736 -0.83609724 -0.017253565
0.39772671 -0.87328053 -0.012470863
0.39731967 -0.90541607 -0.014769538
0.39709374 -0.9389267 -0.016040819
0.22308263 -2.382601 -1.0038413
0.22202958 -2.5376329 -1.0098411
0.22114621 -2.7078795 -1.014882
0.22679678 -2.9318602 -0.98284954
0.22463624 -3.167321 -0.99515551
0.22527559 -3.4037392 -0.99157274
0.22510558 -3.6868162 -0.99259537
0.22242717 -4.0539207 -1.0078752
0.22302881 -4.4397426 -1.0045462
0.23728035 -4.9289618 -0.92377365
0.30604497 -8.3579102 -0.53435719
0.37826866 -8.375001 -0.12446316
0.47429219 -8.8904743 0.42037705
0.53579396 -10.611384 0.76896751
0.6009751 -10.902177 1.1388202
0.72752661 -10.845819 1.8570662
0.79275751 -10.870404 2.227272
0.78901786 -4.9513917 2.2077718
0.95989072 -6.2001371 3.177201
0.97478843 -5.8870897 3.2618551
0.98546833 -5.5648994 3.3225758
0.9671334 -5.0077872 3.2186987
0.98581839 -4.8329654 3.3248096
0.98700017 -4.3835821 3.3316755
0.98684287 -4.1102057 3.3308821
0.9609164 -3.6886261 3.1838875
0.99151701 -3.6590383 3.3575816
0.98454386 -3.4031379 3.3181036
0.9779253 -3.1691227 3.2806323
0.97580278 -2.9749746 3.2686656
0.98247689 -2.7506938 3.3066416
0.9828251 -2.5918269 3.3086872
0.95641989 -2.3366544 3.1589317
0.98410332 -2.2984548 3.3160737
0.9752211 -2.129271 3.2657392
0.97152358 -1.9861705 3.2448211
0.96781147 -1.8497052 3.2238183
0.97062385 -1.6766583 3.239866
0.96730292 -1.5531334 3.2210801
0.96589267 -1.4379874 3.2131352
0.96568942 -1.328265 3.2120388
0.96576911 -1.221377 3.2125473
0.96870971 -1.1202478 3.22929
0.92656535 -0.968988 2.990186
0.97126859 -0.86489952 3.2439501
0.96338958 -0.75859797 3.1992927
0.96107304 -0.65848166 3.1862011
0.95641035 -0.55930525 3.1597946
0.53061736 -0.43306679 0.74350625
0.51669824 -0.42702949 0.66455519
0.51531863 -0.4110198 0.65678298
0.51430935 -0.40372145 0.65108377
0.51455188 -0.39020258 0.65250361
0.51491088 -0.38047546 0.6545704
0.517335 -0.35565788 0.66838753
0.51870728 -0.34152472 0.67620581
0.51655692 -0.33669752 0.66403025
0.51592201 -0.32773647 0.66045624
0.51508391 -0.31369519 0.65574342
0.51502198 -0.30217266 0.65542209
0.51486951 -0.29049698 0.65458667
0.51419711 -0.27400401 0.65081525
0.51421088 -0.26013145 0.65092409
0.51435798 -0.24466641 0.65178996
0.51401365 -0.22272062 0.64988202
0.75090224 1.734551 1.9949456
0.7284987 1.7126718 1.8678242
0.70864004 1.7023574 1.7551486
0.68991888 1.6937063 1.648929
0.67289895 1.6943545 1.5523669
0.65002978 1.7142789 1.4226292
0.6343658 1.716174 1.3337628
0.60695678 1.5352329 1.1781858
0.59319514 1.5343167 1.1001142
0.57996398 1.5370255 1.0250543
0.56693673 1.5388025 0.95115131
0.5541746 1.5416958 0.87875313
0.54165727 1.5468208 0.80774498
0.52300274 1.5516573 0.70192116
0.51053971 1.5473971 0.63121819
0.49829757 1.5495723 0.5617708
0.48609826 1.5532753 0.49256688
0.47388405 1.5575237 0.42327872
0.46163958 1.5583128 0.3538177
0.44926473 1.5666122 0.28361914
0.43106282 1.5475081 0.1803564
0.41902626 1.5337454 0.11207071
0.40650827 1.5352656 0.04105781
0.39363265 1.540988 -0.031983647
0.38020265 1.5526356 -0.10816926
0.36815944 1.530683 -0.17649524
0.34694132 1.5477988 -0.29686382
0.33322129 1.5442579 -0.37470025
0.31875655 1.5458428 -0.45676136
0.30456099 1.538624 -0.53729761
0.28855589 1.5466571 -0.62809837
0.27997506 1.4735498 -0.67679143
0.39942899 0.19868231 0.00075557025
0.39955345 0.14973588 0.0014728155
0.39871302 0.11286885 -0.0032818671
0.39931738 0.068662532 0.00016039838
0.39750195 0.026898332 -0.010115978
0.39788514 -0.038996045 -0.0079094367
0.39781925 -0.06723024 -0.008266069
0.39680344 -0.089172341 -0.014011522
0.39760023 -0.11842418 -0.0094724772
0.39781153 -0.14335608 -0.0082549257
0.39765382 -0.16553454 -0.0091307228
0.39767009 -0.18737926 -0.0090190275
0.39785612 -0.20884778 -0.0079439608
0.39790079 -0.22895934 -0.0076704486
0.39811692 -0.26733461 -0.0064036222
0.39742374 -0.29255539 -0.010306279
0.39759198 -0.31028327 -0.0093309032
0.39754868 -0.32714814 -0.009555798
0.39778352 -0.34410205 -0.0082023144
0.39762241 -0.36011878 -0.00909549
0.39756218 -0.37605494 -0.0094162272
0.39760166 -0.39188966 -0.0091710947
0.39739504 -0.40735802 -0.010322345
0.39752179 -0.43065339 -0.009571271
0.39737779 -0.44599015 -0.010367455
0.39750025 -0.46134606 -0.0096512437
0.39736867 -0.47670153 -0.010376717
0.39733052 -0.49210823 -0.010572208
0.39721361 -0.50765145 -0.011214522
0.39719239 -0.52327722 -0.011313877
0.39734182 -0.54682779 -0.01043441
0.39722514 -0.56302297 -0.011075782
0.39704484 -0.57962501 -0.012078309
0.39713952 -0.59612817 -0.011520391
0.39668524 -0.61403543 -0.01407828
0.39635628 -0.63228482 -0.015925122
0.39689821 -0.65820467 -0.012819196
0.39657298 -0.67789882 -0.014645432
0.39624149 -0.69842595 -0.016507432
0.39591655 -0.7198422 -0.018332619
0.39661756 -0.7494573 -0.014325194
0.39655691 -0.77222157 -0.014650991
0.39640331 -0.79655373 -0.015505039
0.39591366 -0.82383037 -0.01826714
0.39566347 -0.85169649 -0.019670468
0.39681223 -0.88855809 -0.013124687
0.39630774 -0.92243904 -0.015973482
0.39600778 -0.95776242 -0.017661858
0.22261073 -2.3120754 -1.0021304
0.22142437 -2.4609258 -1.0088898
0.22010097 -2.6264791 -1.0164329
0.21791761 -2.8186028 -1.0288658
0.22503568 -3.0446677 -0.98851162
0.22334164 -3.2908747 -0.99818707
0.22214846 -3.5678585 -1.0050311
0.22287545 -3.8641429 -1.0009853
0.22106197 -4.2513695 -1.0113891
0.30565247 -8.3410044 -0.53261679
0.35507539 -8.2644606 -0.25208625
0.44815615 -8.8421555 0.27599561
0.49896273 -8.8552437 0.56434631
0.56731224 -10.771495 0.9515714
0.63152099 -10.867011 1.3159504
0.69464833 -10.83894 1.6742401
0.75792402 -10.809005 2.0333786
0.86506373 -8.8831158 2.6421876
0.79973459 -4.8915286 2.2729633
0.960724 -6.4838562 3.1860626
0.96899825 -6.0667939 3.2331939
0.96830505 -5.6068749 3.2294481
0.98583668 -5.376534 3.3290498
0.99753839 -4.9400477 3.3956504
0.98648757 -4.5317526 3.3331039
0.98912585 -4.26613 3.3481944
0.95171756 -3.7471342 3.1361034
0.97746921 -3.688374 3.2822924
0.98403668 -3.5095181 3.3196509
0.978082 -3.2708886 3.2859643
0.97491819 -3.0646284 3.2681048
0.98099935 -2.8311532 3.3027334
0.98241919 -2.6728611 3.3108697
0.97359991 -2.4807947 3.2609088
0.97547221 -2.3413877 3.271606
0.9777652 -2.2088819 3.284688
0.97300446 -2.058373 3.2577453
0.96859998 -1.916504 3.2328207
0.96970659 -1.7358676 3.2391977
0.96520579 -1.6075399 3.2137218
0.96743429 -1.4986932 3.2264285
0.96498805 -1.3829299 3.2126079
0.96525484 -1.2752239 3.2141814
0.96633774 -1.1707191 3.2203851
0.94740784 -1.0430354 3.1130209
0.93094379 -0.87998909 3.0196738
0.9659161 -0.81091934 3.2181919
0.94300175 -0.69913411 3.0882096
0.95956898 -0.60921735 3.1822832
0.95182961 -0.51048285 3.1384163
0.53093201 -0.43835434 0.74984682
0.51658303 -0.4264856 0.66846329
0.51509702 -0.42338455 0.66004241
0.51401794 -0.40733951 0.65396851
0.51349324 -0.39943525 0.65101564
0.51292264 -0.39167401 0.64780229
0.51336312 -0.38646054 0.65031523
0.51427937 -0.36602882 0.65556622
0.5180679 -0.34111434 0.67710841
0.51660258 -0.33969072 0.66880387
0.51497507 -0.32823238 0.65960509
0.51384079 -0.32094762 0.65319258
0.51427048 -0.30796564 0.65565735
0.51365578 -0.29227069 0.65220749
0.51396656 -0.28461981 0.65398461
0.51408005 -0.27086964 0.65465522
0.51293355 -0.24808626 0.64820075
0.51308519 -0.23174238 0.6490885
0.51261204 -0.21801049 0.64642978
0.74159443 1.5905182 1.9465569
0.73676103 1.7071483 1.9191833
0.71608812 1.6934549 1.8018782
0.69832486 1.6973087 1.7010913
0.68005955 1.6888276 1.5974514
0.65749949 1.7159573 1.4694592
0.6408065 1.7078805 1.3747423
0.61124307 1.5076033 1.2069265
0.59928805 1.5351336 1.1391091
0.58454007 1.5136584 1.055427
0.57260126 1.5367992 0.98770016
0.55862856 1.5138841 0.90841722
0.54678917 1.5347831 0.841254
0.52811706 1.5384877 0.73531979
0.51603061 1.5513248 0.66675198
0.50378013 1.5567544 0.5972513
0.49145287 1.5527226 0.52731186
0.47923639 1.5542027 0.4580029
0.46700644 1.5592245 0.38861847
0.45465079 1.569768 0.31852221
0.4362956 1.5574692 0.21438153
0.42425656 1.5419247 0.14607459
0.41215011 1.5309014 0.077386349
0.39921609 1.541906 0.0040079169
0.38649565 1.5404036 -0.068162128
0.3723653 1.5631272 -0.14832659
0.35892937 1.5635347 -0.22455662
0.33888754 1.5534397 -0.33826855
0.32486585 1.5510235 -0.41782364
0.3106392 1.5462984 -0.49854252
0.29605576 1.5409459 -0.58128649
0.28285682 1.5163944 -0.65617847
0.39891693 0.17204545 0.0021596288
0.39670622 0.12246756 -0.010367277
0.39703509 0.079558015 -0.0084906938
0.39721683 0.041300762 -0.0074478849
0.39681843 0.009656758 -0.0096954489
0.39707586 -0.023636363 -0.0082214493
0.3969309 -0.080164798 -0.009015237
0.3970921 -0.10702793 -0.0080854995
0.39706731 -0.1315406 -0.0082107941
0.39738646 -0.15619309 -0.0063838526
0.39703578 -0.17703345 -0.0083575724
0.39695832 -0.21844515 -0.0087636122
0.39641011 -0.24609341 -0.011848774
0.39718327 -0.25763309 -0.0074528474
0.39687902 -0.2841455 -0.0091531891
0.39689171 -0.31887749 -0.0090456028
0.39690521 -0.33564368 -0.0089509953
0.39691865 -0.36818978 -0.0088385139
0.39690942 -0.38406068 -0.0088726664
0.39682731 -0.39968023 -0.0093203541
0.3967112 -0.42289793 -0.0099516055
0.396694 -0.43830571 -0.01003074
0.39677033 -0.45367199 -0.0095790671
0.39659265 -0.46901226 -0.010568853
0.39668149 -0.48436114 -0.010046123
0.39651749 -0.49985579 -0.010958415
0.39662209 -0.52312589 -0.010336873
0.39669681 -0.53878021 -0.0098942723
0.39635935 -0.55510062 -0.011790935
0.39629614 -0.57140672 -0.012131261
0.39617115 -0.58812511 -0.012822151
0.39615634 -0.60502476 -0.012887821
0.39576453 -0.6231066 -0.015093346
0.39605519 -0.64927322 -0.013416392
0.396135 -0.66756934 -0.012945322
0.39572564 -0.68787205 -0.015250818
0.39547077 -0.70858312 -0.016679704
0.39522603 -0.73017955 -0.018051324
0.39589736 -0.76049912 -0.014214653
0.3955054 -0.78519976 -0.016422393
0.39545831 -0.80979431 -0.016672753
0.3950856 -0.83735991 -0.018771842
0.39593542 -0.87462175 -0.013923789
0.39553571 -0.90680712 -0.01617712
0.3950806 -0.94182831 -0.018745331
0.22058749 -2.389694 -1.0092952
0.21907692 -2.5490046 -1.0178813
0.21778697 -2.7237163 -1.0252187
0.22375202 -2.9464872 -0.99138123
0.222165 -3.1769378 -1.0004168
0.22110794 -3.4341996 -1.0064503
0.2208356 -3.7214317 -1.0080371
0.21667033 -4.1131568 -1.0317402
0.23102322 -4.5059357 -0.95033646
0.32956076 -8.3039989 -0.39179555
0.37791571 -8.2642403 -0.11733495
0.47257745 -8.8704805 0.41981176
0.53475291 -10.729343 0.77229077
0.59858477 -10.85036 1.1345526
0.66162121 -10.829743 1.4923102
0.7839182 -10.639097 2.1864514
0.78952092 -4.9821272 2.2196369
0.81789863 -4.9312267 2.3807213
0.95593911 -6.1733727 3.1638761
0.96766734 -5.8281307 3.2305377
0.98519862 -5.5789714 3.3301115
0.97605926 -4.9300737 3.2784266
0.99136239 -4.7319264 3.3653445
0.98588866 -4.3877892 3.3343825
0.98663425 -4.1205235 3.3386993
0.96020818 -3.6948667 3.1888466
0.98800468 -3.6475463 3.3466344
0.98963594 -3.3397796 3.3560004
0.9814707 -3.1028783 3.3097401
0.97947067 -2.9134343 3.2984581
0.97882557 -2.741663 3.294862
0.98136842 -2.5926235 3.3093531
0.95612347 -2.341887 3.1661646
0.98001063 -2.2896492 3.3017683
0.97378391 -2.1299753 3.2664928
0.97231281 -1.9297702 3.258229
0.97051263 -1.8004791 3.2480683
0.96824706 -1.6749041 3.2352657
0.96588945 -1.5536914 3.22194
0.9656322 -1.440793 3.2205324
0.96528029 -1.3305119 3.2185869
0.96642333 -1.1720201 3.2251503
0.96854997 -1.0699855 3.2372696
0.92920208 -0.92637724 3.0140185
0.96884799 -0.86440068 3.2390618
0.96217573 -0.75900298 3.201246
0.95674658 -0.65755403 3.1704841
0.95502919 -0.55953246 3.1607871
0.529082 -0.4330903 0.7435199
0.51681417 -0.43024519 0.67392188
0.51475382 -0.41867033 0.66226876
0.51345468 -0.40712062 0.65493602
0.51273108 -0.39512867 0.65086961
0.51279521 -0.38615721 0.65126061
0.5132882 -0.37605327 0.65408611
0.5167625 -0.35333273 0.67384666
0.51664841 -0.33750594 0.67324066
0.51502693 -0.3367143 0.66405064
0.51397878 -0.32355952 0.65814275
0.51384938 -0.31265193 0.65743613
0.51363754 -0.30162957 0.6562615
0.51334172 -0.29051262 0.65461022
0.51323402 -0.27809075 0.65402704
0.51281536 -0.25949082 0.65169317
0.5130859 -0.24331802 0.65325755
0.51333058 -0.2260914 0.65467536
0.73454928 1.4709858 1.9106864
0.74675453 1.7134172 1.9800421
0.72496611 1.6951703 1.8564059
0.70687062 1.6997255 1.7537338
0.68790573 1.6884303 1.6461236
0.66453046 1.7104102 1.5135038
0.6476602 1.7033397 1.4177823
0.63179249 1.7013888 1.327752
0.6050933 1.5295835 1.1762059
0.59097123 1.5219833 1.096081
0.5782221 1.5322064 1.0237522
0.56544966 1.5387694 0.95129043
0.5526886 1.5416676 0.87889218
0.53398722 1.5503629 0.77279401
0.52171284 1.5595627 0.70315939
0.50902116 1.5453966 0.63115007
0.49685279 1.5525581 0.56211632
0.48463038 1.5552716 0.49277464
0.47240523 1.558526 0.42341736
0.46010149 1.5683138 0.35361561
0.44167829 1.5618601 0.24909148
0.42960879 1.5465343 0.18061276
0.41738918 1.539695 0.11128403
0.40496904 1.5372567 0.040818073
0.39212191 1.5419948 -0.032069366
0.37819374 1.564265 -0.11108792
0.36013517 1.529317 -0.21355076
0.34535563 1.5497283 -0.29740196
0.33156061 1.5470943 -0.37567168
0.31729227 1.545903 -0.45662731
0.30302191 1.5395885 -0.53759581
0.28693172 1.5484948 -0.62888914
0.27157363 1.5429202 -0.71603113
0.39613572 0.18947773 -0.0093731079
0.39641756 0.14059144 -0.0077613187
0.39622205 0.061125726 -0.0088420995
0.39623457 0.025443386 -0.0087556504
0.39598012 -0.0059737149 -0.010183165
0.39675918 -0.041048981 -0.0057459595
0.39631858 -0.067198373 -0.0082287733
0.39370775 -0.081423298 -0.023025893
0.39637262 -0.11962403 -0.0078865476
0.39644009 -0.16662137 -0.0074667125
0.39631566 -0.18787736 -0.0081537664
0.39650464 -0.20931594 -0.0070622759
0.39670536 -0.22986673 -0.0059038689
0.39642996 -0.25761348 -0.0074373749
0.3967734 -0.26770946 -0.0054784827
0.39608368 -0.29288158 -0.0093628475
0.39625391 -0.31057668 -0.0083767073
0.39621246 -0.32740828 -0.0085919136
0.3962813 -0.34406951 -0.0081810746
0.39628926 -0.36031142 -0.0081156809
0.39623028 -0.3762134 -0.0084301354
0.39589837 -0.39952049 -0.010283277
0.39623725 -0.40756959 -0.0083498005
0.39601955 -0.43062049 -0.0095548648
0.39587551 -0.44595715 -0.010351897
0.39582443 -0.46131268 -0.010621337
0.39586639 -0.47666845 -0.010362846
0.39582822 -0.49207506 -0.010559179
0.3957113 -0.50761819 -0.011202341
0.39588702 -0.53092563 -0.010174741
0.39583948 -0.54679447 -0.01042435
0.39572278 -0.56298953 -0.011066598
0.39537483 -0.57984996 -0.0130214
0.39513925 -0.59697068 -0.014338716
0.39501873 -0.61432689 -0.015003122
0.39538094 -0.63999778 -0.012917583
0.39539558 -0.65817088 -0.012815121
0.39475831 -0.67874098 -0.016413067
0.39489189 -0.69792271 -0.015635794
0.39550349 -0.72655475 -0.012135748
0.39496887 -0.74996758 -0.015152133
0.3950536 -0.77218735 -0.014652989
0.39462259 -0.79772252 -0.017081855
0.39538425 -0.83219779 -0.01273194
0.39522222 -0.8601107 -0.013634977
0.39505813 -0.88991261 -0.014550195
0.39444125 -0.9245618 -0.018036643
0.39345747 -0.96441388 -0.023606993
0.21949242 -2.3237991 -1.0113196
0.21827388 -2.4737732 -1.0182545
0.21790016 -2.6321871 -1.0203968
0.22249575 -2.8541584 -0.99434102
0.22266404 -3.0533199 -0.99341869
0.22086106 -3.3014719 -1.0036988
0.21782066 -3.6021996 -1.0210173
0.21732761 -3.9183517 -1.0238822
0.23066504 -4.2817531 -0.94825047
