# .PCD v0.7 - Point Cloud Data file format
VERSION 0.7
FIELDS x y z
SIZE 4 4 4
TYPE F F F
COUNT 1 1 1
WIDTH 1405
HEIGHT 1
VIEWPOINT 0 0 0 1 0 0 0
POINTS 1405
DATA ascii
0.6584534 -4.9149742 3.2698512
0.67300594 -4.7124438 3.352478
0.66932869 -4.3842087 3.3316734
0.6665979 -4.0931935 3.3162413
0.64197856 -3.6822329 3.17662
0.67354929 -3.6596611 3.3558135
0.67393851 -3.3447957 3.3581247
0.66573203 -3.1080644 3.3116336
0.66302949 -2.9155681 3.2963719
0.66150862 -2.7404015 3.2878158
0.66425842 -2.5930047 3.3034914
0.63735634 -2.3366015 3.1509309
0.66674757 -2.3052061 3.3177648
0.65603369 -2.130187 3.2570536
0.65196884 -1.9866719 3.2340679
0.65386242 -1.8054687 3.2449291
0.65251762 -1.6825607 3.2373779
0.64997554 -1.5611233 3.2230344
0.64723355 -1.4435055 3.2075567
0.64666551 -1.3335956 3.2044146
0.64855576 -1.2300223 3.2152202
0.6501292 -1.1271887 3.2242291
0.60658771 -0.97485489 2.9772656
0.63643402 -0.90891749 3.1466899
0.64783961 -0.76874894 3.2115273
0.64395726 -0.66776466 3.1895828
0.63997602 -0.56880468 3.1670778
0.63348544 -0.47168028 3.1303351
0.2134915 -0.43193707 0.74762064
0.20038266 -0.42785844 0.67335904
0.19905776 -0.42043737 0.6659196
0.19801018 -0.40863964 0.66009253
0.1977549 -0.40016025 0.65872216
0.19702779 -0.38799623 0.65471363
0.19680391 -0.37926316 0.65352142
0.19762903 -0.37254494 0.65824229
0.19846593 -0.35012048 0.66314739
0.19854388 -0.34456301 0.66362882
0.19775681 -0.33066922 0.65928042
0.19761059 -0.32553187 0.65848988
0.19677424 -0.31118807 0.653862
0.19729148 -0.29016882 0.65691471
0.19761533 -0.27509564 0.658831
0.19844878 -0.25632811 0.66363913
0.19797836 -0.24324545 0.66104871
0.19771895 -0.21947075 0.65969527
0.43934536 1.688593 2.0310876
0.41751185 1.6736374 1.9072833
0.39829355 1.6710763 1.7983186
0.3795208 1.6643289 1.6918812
0.36315006 1.6737057 1.5990739
0.34023723 1.6961483 1.4691874
0.32472044 1.7024913 1.3812244
0.30545351 1.6496443 1.2719772
0.28371593 1.5391835 1.1487054
0.27004915 1.5387709 1.0712378
0.25673518 1.5391932 0.995772
0.24410115 1.549356 0.92416471
0.23150253 1.5578827 0.85275799
0.21857634 1.5529875 0.77949095
0.19912744 1.5242271 0.66924948
0.18755598 1.5684204 0.60367322
0.17506558 1.5624182 0.53287762
0.16271286 1.5628961 0.46286359
0.15037394 1.5618925 0.39292723
0.13796365 1.5683986 0.32258642
0.12578546 1.5514661 0.2535598
0.11357784 1.5420672 0.18436664
0.095082588 1.5342385 0.079533666
0.083136491 1.5157773 0.011822525
0.069028392 1.5483326 -0.068151973
0.042182479 1.5539185 -0.22033274
0.040183496 1.3680855 -0.23161823
0.069150671 0.65731925 -0.067164987
0.087211251 0.21840572 0.035503373
0.079968341 0.18063372 -0.0054484052
0.083294474 0.10743856 0.013494345
0.081741206 0.078213446 0.0047531892
0.085110813 -0.016268933 0.024016367
0.085517086 -0.049564 0.0263942
0.08111687 -0.053633582 0.0014999363
0.082357623 -0.088405572 0.0086128889
0.081796035 -0.11185645 0.005499328
0.08142639 -0.13505074 0.0034749147
0.079138547 -0.14912416 -0.0094338413
0.079520471 -0.17376827 -0.0071935705
0.079368241 -0.19520016 -0.0079842089
0.079380222 -0.21631797 -0.0078429794
0.078692049 -0.24436885 -0.011638098
0.078764513 -0.26388979 -0.011153558
0.078977339 -0.28309467 -0.0098725194
0.079002716 -0.30123457 -0.0096551739
0.079152435 -0.31912613 -0.0087322202
0.078925617 -0.33586475 -0.0099459607
0.079142265 -0.35301948 -0.0086431718
0.079133265 -0.36946464 -0.0086209206
0.07905855 -0.38557163 -0.008971584
0.07908459 -0.40157813 -0.008750529
0.079037838 -0.41734153 -0.0089426013
0.079087839 -0.43303272 -0.0085855871
0.078995377 -0.45632157 -0.009000577
0.07893575 -0.4718169 -0.0092659211
0.078796573 -0.48734713 -0.0099827666
0.078924961 -0.50285834 -0.0091811605
0.078802064 -0.51854092 -0.0098057864
0.078775704 -0.53430533 -0.0098825945
0.078504965 -0.55047929 -0.011346508
0.078630239 -0.57461911 -0.010526686
0.078616865 -0.59113199 -0.010530222
0.078378327 -0.60835397 -0.011811826
0.078419544 -0.62548447 -0.011505807
0.07825087 -0.64347452 -0.012391197
0.077887729 -0.66249317 -0.014380599
0.077819437 -0.68143493 -0.014696696
0.077972941 -0.71030772 -0.013718512
0.077949621 -0.73081607 -0.013779902
0.078081727 -0.75161326 -0.012959344
0.077653557 -0.77545774 -0.01531935
0.077562556 -0.79921234 -0.015765876
0.077927887 -0.83493358 -0.013587731
0.077936128 -0.86151469 -0.013471918
0.07741303 -0.8926087 -0.016372867
0.077420704 -0.92294979 -0.016261401
0.07835643 -0.96674961 -0.010848577
-0.098264232 -2.2795293 -1.0134786
-0.098341405 -2.4149683 -1.0138801
-0.093745641 -2.6033418 -0.98773915
-0.093470223 -2.7700965 -0.98614872
-0.094151333 -2.9660399 -0.98999518
-0.096408144 -3.2046108 -1.0027965
-0.097046435 -3.4585807 -1.0064167
-0.070211045 -3.396136 -0.85402417
-0.020580251 -3.421874 -0.57217109
0.48422626 -4.934258 2.2937772
0.63948435 -6.4514117 3.1744611
0.65047395 -6.0688939 3.2370024
0.67236185 -5.4285865 3.3615332
0.66147923 -4.9618368 3.299983
0.66105908 -4.6328897 3.2977655
0.6726917 -4.2871451 3.3639851
0.65216523 -3.883569 3.2476952
0.65845144 -3.691654 3.2834971
0.66713583 -3.5259237 3.3329005
0.66057646 -3.2835886 3.2958245
0.65663809 -3.0731955 3.2736135
0.6550476 -2.8885002 3.264719
0.65609229 -2.726789 3.270772
0.66690016 -2.5364964 3.3322756
0.64311534 -2.297806 3.1974554
0.66442269 -2.2351177 3.3184645
0.65336645 -2.0632632 3.2558558
0.65061885 -1.9266762 3.2403858
0.64809716 -1.7965481 3.2261968
0.64685321 -1.6747038 3.2192566
0.64442092 -1.5542753 3.2055736
0.64678401 -1.3925197 3.2191582
0.64520025 -1.28175 3.2102895
0.64726084 -1.1790335 3.2220995
0.64901692 -1.0768869 3.232183
0.61287767 -0.9370442 3.0272326
0.63017642 -0.85661817 3.1255116
0.6430707 -0.76737583 3.1988003
0.63865608 -0.66663772 3.1738701
0.63362324 -0.5680294 3.1454313
0.63120627 -0.42375177 3.1318996
0.21084359 -0.43203479 0.74663687
0.1992418 -0.4310936 0.68087834
0.19708936 -0.41530451 0.66883063
0.19606261 -0.41225469 0.66304535
0.19553339 -0.40861577 0.66008377
0.19471638 -0.39667681 0.65557319
0.19480351 -0.39200377 0.65610993
0.19434895 -0.37447622 0.65369958
0.19497843 -0.36315539 0.65735805
0.19598141 -0.35009882 0.66313714
0.19581117 -0.3399002 0.66225702
0.1955671 -0.32961807 0.66095811
0.19419713 -0.31743169 0.65331149
0.19406514 -0.30601361 0.6526497
0.19423515 -0.2861197 0.65374744
0.19542763 -0.26642275 0.66060746
0.19553904 -0.25080183 0.66133052
0.19526416 -0.23630291 0.65986085
0.42707866 1.6931753 1.9770291
0.40582731 1.6787664 1.8565208
0.38683873 1.6746503 1.7488607
0.36942765 1.6777138 1.6501579
0.35283825 1.682629 1.5561196
0.33600044 1.6781504 1.4606655
0.32136673 1.6942502 1.3777343
0.2915121 1.4892259 1.2082642
0.2744967 1.5450217 1.1118968
0.26102391 1.5460329 1.0355426
0.24782176 1.5470141 0.96072483
0.23516756 1.5558929 0.88902313
0.22255382 1.5631416 0.81755042
0.20970874 1.5589155 0.7447561
0.19704135 1.5540148 0.67297012
0.18475676 1.563454 0.60336864
0.16616002 1.5629882 0.49799153
0.15381081 1.5622288 0.42801636
0.1414737 1.5609902 0.35810995
0.12912735 1.5592704 0.28815126
0.11720787 1.5321926 0.22059266
0.10502723 1.5256023 0.15157072
0.091973498 1.546104 0.077620044
0.079446979 1.5412618 0.0066385306
0.062503099 1.4890652 -0.089400969
0.042526249 1.3880736 -0.20264614
0.068850547 0.6807096 -0.053771906
0.063672043 0.64118463 -0.083100729
0.076904617 0.21007858 -0.0080918688
0.076596946 0.16308275 -0.0097979074
0.080107547 0.091278017 0.010133422
0.081311211 0.0082360832 0.017048581
0.082108915 -0.029289857 0.02162054
0.079025298 -0.09780331 0.0043078586
0.078818366 -0.12248359 0.0031919221
0.076597169 -0.13714638 -0.0093412045
0.076597154 -0.1608766 -0.0092828097
0.076642632 -0.18364049 -0.0089656133
0.076718807 -0.20547938 -0.0084736152
0.076507829 -0.22547023 -0.0096089467
0.076598436 -0.24566577 -0.0090338495
0.076218829 -0.27326474 -0.01109334
0.076902315 -0.28420117 -0.007186594
0.076935925 -0.30224356 -0.0069332845
0.076143973 -0.32682171 -0.011329753
0.076302968 -0.34413013 -0.010364912
0.076407634 -0.36094952 -0.0097079538
0.076451108 -0.37735733 -0.0093979025
0.076427579 -0.39343342 -0.0094677797
0.076504312 -0.4093987 -0.0089689512
0.076507285 -0.42512807 -0.0088885278
0.07643342 -0.4407056 -0.0092439828
0.076627828 -0.45628631 -0.0080778534
0.076228358 -0.47951224 -0.010249129
0.076311067 -0.49503496 -0.0097170863
0.076314852 -0.51061642 -0.0096329665
0.076241419 -0.52634192 -0.0099872779
0.076093607 -0.54229581 -0.010764005
0.076045744 -0.55837065 -0.010974094
0.076099135 -0.5745455 -0.010610121
0.075751998 -0.5915755 -0.012519415
0.076270223 -0.61605263 -0.0094891237
0.07571274 -0.63454258 -0.012593944
0.075769968 -0.65230089 -0.01221114
0.075790502 -0.67063427 -0.01203741
0.075316295 -0.69092494 -0.01467278
0.075729042 -0.71947646 -0.012247773
0.075630561 -0.74058807 -0.012753552
0.07584098 -0.76148576 -0.011507087
0.07535927 -0.786057 -0.0141916
0.075083874 -0.81116015 -0.015706807
0.075734526 -0.84648114 -0.011943367
0.075721711 -0.87388301 -0.011972894
0.07545051 -0.90450704 -0.013472655
0.074736752 -0.94002432 -0.017489439
0.074595012 -0.97484255 -0.018261181
-0.098544292 -2.3297915 -1.0019711
-0.098748431 -2.4715507 -1.0032452
-0.099949531 -2.6362758 -1.0102068
-0.10229079 -2.8300779 -1.0236768
-0.094537772 -3.0500362 -0.97989547
-0.096299127 -3.2970369 -0.99015456
-0.093956314 -3.5304434 -0.97711957
-0.062353242 -3.402555 -0.79762769
0.4729282 -10.849831 2.2286372
0.64575398 -6.2800164 3.2168958
0.64603418 -5.8041291 3.2193093
0.66745716 -5.2083664 3.3419628
0.67098969 -4.8907886 3.3625882
0.66172266 -4.5017266 3.3107016
0.6604085 -4.2103348 3.3037879
0.62838697 -3.7338121 3.1229317
0.66868716 -3.6563272 3.3518474
0.66611069 -3.4270105 3.3376756
0.66103011 -3.2006834 3.3092911
0.65753394 -2.9984887 3.2898588
0.65587854 -2.81811 3.2808361
0.65739191 -2.662008 3.2897546
0.65052605 -2.4795167 3.2511716
0.64995766 -2.3319404 3.2482643
0.65418005 -2.2076774 3.2725015
0.65248096 -2.0029438 3.263309
0.64923275 -1.8673301 3.2451761
0.64591831 -1.73735 3.2266574
0.64390326 -1.6156645 3.2154977
0.64216959 -1.4987333 3.2059259
0.63946342 -1.3835869 3.1908329
0.64164549 -1.2801555 3.2034543
0.64538258 -1.1277195 3.2250113
0.64816391 -1.0272418 3.2410235
0.60282677 -0.88307607 2.984112
0.62792605 -0.80845797 3.1266985
0.63828534 -0.71697539 3.185684
0.63562214 -0.61794353 3.1708
0.63253003 -0.52028453 3.1534796
0.62780744 -0.42413628 3.126905
0.1955893 -0.42293501 0.67541742
0.19406402 -0.41576859 0.6668722
0.19320485 -0.41251013 0.6620515
0.19241554 -0.40044188 0.65773612
0.19177577 -0.3926672 0.65421456
0.19200982 -0.3876434 0.65559745
0.19226134 -0.37775415 0.65713412
0.19254647 -0.35736558 0.65897125
0.19318861 -0.34502333 0.66272587
0.1928276 -0.33528045 0.66078639
0.19208537 -0.32091504 0.65673798
0.19161291 -0.31688341 0.65411085
0.19178587 -0.29785532 0.65525812
0.19217229 -0.28298384 0.65756273
0.19295214 -0.25765842 0.66215777
0.19248487 -0.24462669 0.65961653
0.1923909 -0.22864303 0.65919548
0.44542971 1.6967261 2.0967252
0.42108402 1.6671714 1.958654
0.39426315 1.6835248 1.8066161
0.37639511 1.6864961 1.7053206
0.35946587 1.6919649 1.6093527
0.34267122 1.6924175 1.5141435
0.32627627 1.6906196 1.4211994
0.31169826 1.7060896 1.3385763
0.28466669 1.5307156 1.1851542
0.27097157 1.5317448 1.1075298
0.25768211 1.5345237 1.0322071
0.2388681 1.554181 0.92558819
0.22620313 1.5617771 0.85380983
0.21346371 1.5638107 0.78160447
0.20047922 1.5503454 0.7079978
0.18827629 1.5640087 0.63884223
0.17580011 1.5612626 0.56812507
0.16344476 1.5629911 0.49809539
0.15109861 1.5662361 0.4281179
0.13260356 1.5594549 0.32328048
0.1205117 1.54056 0.2547313
0.10818037 1.5401421 0.18483308
0.095844686 1.5362256 0.11490741
0.085031703 1.4846419 0.05359637
0.070354708 1.5413123 -0.029584877
0.06967219 1.2775556 -0.033517364
0.048443936 1.4609628 -0.15381262
0.034281258 1.3757111 -0.23411116
0.064476267 0.70282924 -0.062959582
0.060264315 0.64936894 -0.08680217
0.083172202 0.23320173 0.043187462
0.075690798 0.14753911 0.000965168
0.077090658 0.092894912 0.0089787077
0.079516239 0.0014613707 0.022892846
0.076609194 -0.072772019 0.0066462019
0.076711506 -0.10041185 0.0073107737
0.062202297 -0.072788343 -0.074886128
0.073304117 -0.14728315 -0.011808595
0.073528849 -0.17145424 -0.010446517
0.073654838 -0.19406337 -0.0096439151
0.073657513 -0.21524121 -0.0095402701
0.073667422 -0.23559718 -0.0093949633
0.073672034 -0.25518623 -0.0092790714
0.073818199 -0.2744745 -0.0083592795
0.073780514 -0.29268 -0.0084823202
0.073868215 -0.31065065 -0.0078933034
0.073748335 -0.32774034 -0.0084818602
0.073907591 -0.34494928 -0.0074857818
0.073843569 -0.36142623 -0.0077565098
0.07343325 -0.38530627 -0.0099456329
0.073454425 -0.4013474 -0.0097318823
0.073575176 -0.41726753 -0.0089526046
0.073621236 -0.43295899 -0.0085968934
0.073589787 -0.4485063 -0.0086807804
0.073479168 -0.46399474 -0.0092136841
0.073462352 -0.47949263 -0.0092138993
0.073439866 -0.50278562 -0.0091980733
0.07348524 -0.51836389 -0.008844492
0.073453784 -0.53409392 -0.0089267092
0.073177695 -0.55023342 -0.010397234
0.073173761 -0.56634444 -0.010322626
0.073103063 -0.58278692 -0.010626652
0.072804622 -0.59991622 -0.012223185
0.072785646 -0.616983 -0.012233025
0.073050879 -0.64268684 -0.010579939
0.072837934 -0.66125005 -0.011689998
0.07275714 -0.68009639 -0.012049492
0.072657093 -0.69964898 -0.012517934
0.072245762 -0.72093797 -0.014752989
0.072823167 -0.75048375 -0.011324688
0.072526537 -0.77371043 -0.012907524
0.072559625 -0.79679167 -0.01261821
0.071959384 -0.82390487 -0.015923433
0.071994707 -0.84970582 -0.015620269
0.073222369 -0.88503826 -0.008496318
0.072931573 -0.9165175 -0.010042671
0.07233993 -0.95224673 -0.013295814
-0.099858202 -2.3828435 -0.99037117
-0.10129399 -2.5400681 -0.99838877
-0.10234362 -2.7109597 -1.0042089
-0.10304413 -2.8983502 -1.008041
-0.10437433 -3.1156852 -1.0154389
-0.096564576 -3.383805 -0.97087336
-0.083254814 -3.4891562 -0.89516842
0.21857296 -3.306916 0.82036996
0.49772814 -10.816217 2.4080644
0.54367137 -8.962327 2.6683688
0.45928821 -4.8954172 2.1880746
0.63141698 -6.1720066 3.1658957
0.65762228 -5.7598104 3.3146226
0.6605708 -5.3782859 3.3312929
0.65558809 -4.967134 3.3029249
0.66627985 -4.7289948 3.3636065
0.66157734 -4.3915644 3.3368564
0.6574927 -4.0902519 3.3136275
0.6338082 -3.6854091 3.1790903
0.66301489 -3.6481304 3.3449566
0.66444576 -3.340106 3.3530729
0.65739238 -3.1095731 3.3130167
0.65511233 -2.9189522 3.3000736
0.653898 -2.7448819 3.2931876
0.65528011 -2.5914137 3.301049
0.62883383 -2.3367636 3.1508906
0.65850556 -2.3064413 3.3193986
0.64901948 -2.135359 3.2655551
0.64377272 -1.9877819 3.2357874
0.64568835 -1.8064871 3.2467046
0.64260322 -1.6792172 3.2292163
0.64086193 -1.5598629 3.2193604
0.64009118 -1.4462832 3.2150164
0.63987964 -1.3366932 3.2138488
0.63928121 -1.2289034 3.2104862
0.64153153 -1.1271405 3.2232978
0.59819543 -0.97501332 2.977299
0.62289184 -0.904396 3.1175485
0.63771856 -0.76788217 3.2017815
0.63332278 -0.6670354 3.1768656
0.63056189 -0.5687722 3.161232
0.6258176 -0.47185543 3.1343396
0.20518397 -0.4320462 0.74667025
0.19225483 -0.42784014 0.67338461
0.19075042 -0.41177619 0.66499066
0.18988563 -0.4086208 0.66011822
0.18946545 -0.40043387 0.65780622
0.18890591 -0.38797751 0.65473968
0.18896361 -0.38325554 0.65510374
0.1888698 -0.36442736 0.6547175
0.19019237 -0.35055718 0.66229743
0.1900274 -0.34038919 0.66143394
0.1896401 -0.33065209 0.65930855
0.18903893 -0.32145202 0.6559692
0.18865991 -0.31117091 0.65389067
0.18917874 -0.29015225 0.65694445
0.18902645 -0.2703622 0.65618891
0.18967316 -0.25216895 0.65993154
0.18916455 -0.23913419 0.65711719
0.18949366 -0.2201867 0.6590569
0.43220302 1.6956775 2.0366142
0.40963763 1.6751826 1.9086025
0.39032337 1.6718308 1.7990428
0.37137464 1.6633961 1.69156
0.34816003 1.6896526 1.5598946
0.33204749 1.6942936 1.4685099
0.31661916 1.7015277 1.3810092
0.29788247 1.6560937 1.2747401
0.27557248 1.5372739 1.1482022
0.26202977 1.5387472 1.0714076
0.24881661 1.5410982 0.99648404
0.23613417 1.5503151 0.92457223
0.22342637 1.5559211 0.8525176
0.2044837 1.5608876 0.74511278
0.19098419 1.51729 0.66857421
0.17940067 1.5574784 0.60289681
0.16707137 1.5614419 0.53299314
0.15472841 1.5619247 0.46301299
0.14236608 1.5719256 0.39292178
0.13008904 1.5574548 0.32331926
0.11803982 1.5365704 0.25501129
0.10558727 1.543113 0.18440998
0.086936451 1.5402102 0.078669891
0.074487649 1.5344315 0.0080929818
0.060524069 1.5610229 -0.071086243
0.0438748 1.3828169 -0.16539584
0.0201777 1.5589372 -0.29984233
0.061065339 0.6583091 -0.067475796
0.078905277 0.2210703 0.034079753
0.071824022 0.18153302 -0.0059492001
0.073202528 0.1236877 0.0019611055
0.076854937 0.018518915 0.022861538
0.076933526 -0.015458534 0.02339007
0.07377588 -0.085660413 0.0057113292
0.07281021 -0.13251905 0.00039212179
0.071489468 -0.1508175 -0.0070237592
0.071160764 -0.17257993 -0.0088089453
0.07144177 -0.19566023 -0.0071336273
0.071455285 -0.21674816 -0.0069767539
0.070614755 -0.24429871 -0.011627568
0.070842989 -0.26424238 -0.010252412
0.07073734 -0.28263402 -0.010772395
0.071083017 -0.30152315 -0.0087309843
0.070905276 -0.31873083 -0.0096604452
0.070841208 -0.33579499 -0.009944791
0.0710565 -0.35294992 -0.0086437985
0.070877112 -0.3691701 -0.009582866
0.070970185 -0.38550213 -0.0089756753
0.070994943 -0.40150869 -0.0087563396
0.071119145 -0.41739404 -0.0079726689
0.070709825 -0.44063625 -0.010177721
0.070727892 -0.45621732 -0.0099965734
0.071013957 -0.47174764 -0.0082945731
0.070873417 -0.48724297 -0.0090137571
0.070827119 -0.5027892 -0.0091980947
0.070702948 -0.51847172 -0.0098244697
0.070675313 -0.53423619 -0.0099030416
0.070403263 -0.55040997 -0.011368765
0.070695676 -0.57432508 -0.0095920954
0.070344254 -0.59132171 -0.011508352
0.070437923 -0.60799247 -0.010898774
0.070311815 -0.62541538 -0.01153652
0.069979697 -0.64376372 -0.013343346
0.070518054 -0.66982794 -0.010171445
0.070503086 -0.68874091 -0.010178626
0.070011742 -0.70976913 -0.01288921
0.069833599 -0.73074698 -0.013822472
0.069669761 -0.75260413 -0.014674646
0.069534101 -0.7753886 -0.015366905
0.069300875 -0.79973096 -0.016612902
0.069803953 -0.83486468 -0.013641946
0.06967923 -0.86210191 -0.014272417
0.069411725 -0.89185768 -0.01571315
0.069044814 -0.92429495 -0.017718064
0.070222877 -0.96668124 -0.010917376
-0.10574127 -2.273912 -1.0093333
-0.10648847 -2.4139919 -1.0134945
-0.10113693 -2.5957055 -0.98300916
-0.10165485 -2.7690737 -0.98587054
-0.10226821 -2.9641323 -0.98927408
-0.104308 -3.2000186 -1.0007727
-0.10567559 -3.461998 -1.0084577
-0.079516694 -3.4087644 -0.85994208
-0.028327381 -3.4122889 -0.56928062
0.47224545 -4.8856511 2.2729418
0.63524592 -6.5042486 3.1980212
0.64176637 -6.0664954 3.2351251
0.6357075 -5.5516558 3.2008407
0.66312116 -5.4211545 3.356503
0.6575135 -5.0015287 3.3247728
0.66131377 -4.5509334 3.346473
0.66389585 -4.2842665 3.3612127
0.64114588 -3.8654425 3.2321947
0.64988846 -3.6904278 3.2818909
0.65941781 -3.5297832 3.3360505
0.65376973 -3.2921817 3.3040786
0.64808953 -3.072109 3.2719231
0.64730126 -2.89132 3.2675278
0.64823562 -2.7288826 3.272907
0.65765178 -2.5327299 3.3264546
0.63764518 -2.3083885 3.2129948
0.65336585 -2.2255738 3.3022795
0.6481849 -2.0731943 3.2729506
0.64179432 -1.9250904 3.2367566
0.63927293 -1.7950842 3.2225182
0.63739079 -1.6718013 3.2119069
0.63721931 -1.5566458 3.2110021
0.63829565 -1.3921189 3.2172101
0.63721967 -1.28224 3.21117
0.63946086 -1.1797303 3.2239523
0.6414004 -1.077722 3.2350216
0.60014933 -0.93254721 3.0010054
0.62155795 -0.8563984 3.1225505
0.63463432 -0.76736796 3.1968114
0.62953794 -0.66641575 3.1679521
0.62416816 -0.56794226 3.1375403
0.62263691 -0.42399174 3.1289368
0.2025768 -0.43216714 0.74565965
0.19114596 -0.43109933 0.68087953
0.18899514 -0.41530913 0.66883373
0.18718453 -0.40014043 0.65871793
0.18619059 -0.38397118 0.65323555
0.18625996 -0.37447932 0.65370715
0.18689124 -0.36315864 0.65736645
0.18789639 -0.35010231 0.6631465
0.18731523 -0.33577165 0.65996516
0.18704174 -0.32551393 0.65849054
0.18626136 -0.31687504 0.65414
0.18598746 -0.306016 0.65266246
0.18686105 -0.28953585 0.6576938
0.18748851 -0.26576927 0.66136551
0.18691452 -0.24600776 0.65822113
0.18647376 -0.23223148 0.65579474
0.18696015 -0.21167108 0.65862614
0.41911814 1.6906807 1.9753342
0.39827031 1.6795354 1.857111
0.37891102 1.6720526 1.7473327
0.36212766 1.6811297 1.6521631
0.34519556 1.6825863 1.5561531
0.329503 1.6915947 1.467173
0.3136636 1.6933035 1.3773631
0.28344685 1.4836379 1.2060773
0.26661405 1.5412198 1.1106383
0.25342265 1.5469731 1.0358527
0.24017394 1.5470014 0.96074492
0.22748682 1.5549089 0.88881963
0.21485177 1.5611719 0.81719065
0.20180397 1.5490351 0.74322939
0.18964607 1.564932 0.67430258
0.17704317 1.5574785 0.60286343
0.15854464 1.5629936 0.49799833
0.14620031 1.5652366 0.4280211
0.13386147 1.5619998 0.35807815
0.12162159 1.5513021 0.28870115
0.10956807 1.5341951 0.22038557
0.09735468 1.5285888 0.15115629
0.071357474 1.5549747 0.0037643285
0.054776844 1.4919837 -0.090175688
0.052139141 1.298377 -0.10495275
0.035312239 1.3814771 -0.20041388
0.063489892 0.64758843 -0.039916564
0.055353224 0.64754647 -0.086010844
0.047354158 0.6429072 -0.13132133
0.080604665 0.23549178 0.057654526
0.068563856 0.16391538 -0.010347461
0.070692971 0.10247181 0.0018537755
0.073683389 0.041168604 0.018942919
0.074359164 0.0014549529 0.022883987
0.070628628 -0.0958253 0.0021031296
0.069864057 -0.11806894 -0.0021392035
0.068582989 -0.13713755 -0.0093142251
0.068434194 -0.16029467 -0.010061256
0.06861528 -0.18363267 -0.0089360606
0.068685144 -0.20547207 -0.008442753
0.06862013 -0.22594824 -0.0087155085
0.068707623 -0.24611349 -0.0081229042
0.068786509 -0.26550907 -0.0075794766
0.068845294 -0.28419587 -0.0071503986
0.068873391 -0.30223879 -0.0068957196
0.068697117 -0.31938091 -0.0078011001
0.068800062 -0.33667111 -0.0071218591
0.068326779 -0.36094651 -0.009665519
0.068195194 -0.3771469 -0.010317315
0.068336159 -0.39343143 -0.0094223786
0.068407588 -0.40939721 -0.008922019
0.068232678 -0.42502251 -0.0098194694
0.068153001 -0.44063535 -0.010176358
0.06834168 -0.45625141 -0.009010395
0.068281181 -0.47949564 -0.0092102885
0.068358146 -0.49498397 -0.0086777294
0.068183012 -0.51061821 -0.0095752878
0.06810388 -0.52634424 -0.009927786
0.067950241 -0.54229867 -0.010702644
0.067896418 -0.55837405 -0.010910811
0.067943722 -0.57454938 -0.010544861
0.067789562 -0.59964246 -0.011272051
0.067768633 -0.61667573 -0.011291903
0.067534372 -0.63454831 -0.012521184
0.067584604 -0.65230709 -0.012136078
0.067280605 -0.67145437 -0.013759331
0.067271776 -0.69049388 -0.013707604
0.066940203 -0.71117705 -0.015485271
0.067409702 -0.74059659 -0.012666836
0.067174464 -0.76312858 -0.013895368
0.067262046 -0.78549302 -0.01329209
0.066834025 -0.81117028 -0.015610686
0.074319981 -0.80151218 0.026939727
0.067445152 -0.87389427 -0.011868081
0.067286044 -0.90382421 -0.012655278
0.067035995 -0.93644023 -0.01395529
0.06627588 -0.97485554 -0.018142933
-0.10756718 -2.3314128 -1.002934
-0.10751577 -2.4707885 -1.002399
-0.10879203 -2.6354952 -1.0093682
-0.11149722 -2.8318245 -1.0244089
-0.10416573 -3.055335 -0.98241884
-0.1059226 -3.3015447 -0.99201792
-0.10203835 -3.5150902 -0.96964157
-0.071037129 -3.3943186 -0.7937699
0.46320269 -10.953146 2.2480409
0.6379934 -6.3149347 3.2345545
0.63585883 -5.8075261 3.2219164
0.62545002 -5.28091 3.1623197
0.6556766 -5.193809 3.3337667
0.65907669 -4.8748965 3.3527577
0.64948589 -4.4829822 3.2979691
0.65000892 -4.2054701 3.3006923
0.61783838 -3.7267909 3.1177151
0.65930295 -3.6569219 3.3529861
0.65732604 -3.4304104 3.3415942
0.65135455 -3.1985035 3.3075371
0.64833045 -2.9983566 3.2902386
0.64743054 -2.8211255 3.2850189
0.64806366 -2.6606739 3.2885168
0.6419822 -2.4811089 3.2539032
0.64192629 -2.3350806 3.2535119
0.64429039 -2.2039435 3.2668679
0.64356881 -2.0023472 3.2626884
0.64084446 -1.8680812 3.2471778
0.63790798 -1.7388529 3.2304709
0.63402385 -1.6125443 3.2083926
0.63476795 -1.5010055 3.2125885
0.63245386 -1.3862474 3.1994328
0.63352704 -1.2805861 3.2055054
0.63594049 -1.1785201 3.219187
0.63930267 -1.0265483 3.2382503
0.59487814 -0.8832798 2.986167
0.61483884 -0.80492985 3.0994296
0.62971032 -0.7166841 3.1838117
0.62639034 -0.6175136 3.1649776
0.62281263 -0.5200128 3.1446848
0.61951363 -0.42404109 3.1259766
0.1999431 -0.42640668 0.74591005
0.18767264 -0.42273679 0.67643172
0.18530369 -0.41666126 0.66307998
0.18361206 -0.38832104 0.65378749
0.18366969 -0.38361546 0.65415758
0.18389508 -0.37370053 0.65552241
0.18467745 -0.36189345 0.66004604
0.18497987 -0.3454864 0.66189051
0.18462536 -0.33577418 0.65996623
0.18418431 -0.32036448 0.65759426
0.18356767 -0.31687757 0.65414053
0.18277586 -0.30206203 0.64977962
0.18427277 -0.28234872 0.65835327
0.18505418 -0.2569834 0.66291177
0.18446162 -0.24462095 0.65963691
0.18437211 -0.22863737 0.65921402
0.43863347 1.7023013 2.1008306
0.41342291 1.6664163 1.9579396
0.39290646 1.6563276 1.841664
0.36864409 1.6848258 1.704172
0.3507925 1.6806351 1.6030124
0.33524334 1.6942358 1.5149056
0.31868246 1.6906523 1.4210687
0.304032 1.7051988 1.3380609
0.27714765 1.5326066 1.1857437
0.26383004 1.5402755 1.1103002
0.25043076 1.542192 1.0343963
0.23724587 1.5431378 0.95970976
0.21853043 1.5617887 0.85369676
0.20545055 1.5529869 0.77961129
0.19305415 1.5612446 0.70939595
0.18057838 1.5640125 0.63873309
0.16814159 1.5652542 0.56829232
0.15571645 1.5609913 0.49792036
0.14337382 1.5662327 0.42801294
0.12489045 1.556452 0.32333282
0.1128493 1.5345736 0.25514668
0.10037544 1.5421157 0.18449515
0.076546721 1.5052402 0.049559154
0.061976012 1.5559098 -0.033000555
0.061700888 1.280435 -0.034358997
0.047057778 1.3394891 -0.11733259
0.037194513 1.3010966 -0.17316052
0.05532426 0.71937948 -0.069928698
0.075352095 0.23143691 0.044122692
0.06715326 0.20085758 -0.0021774557
0.067585208 0.14834177 0.00038512322
0.069704838 0.088086672 0.012521854
0.072128251 0.031833325 0.026379744
0.072404422 -0.0045921593 0.028052274
0.07191503 -0.063049741 0.025483472
0.067369096 -0.080315545 -0.000153556
0.066887274 -0.10472524 -0.0027851425
0.067564644 -0.13314331 0.0011588507
0.065400787 -0.14788724 -0.011016191
0.065338984 -0.17091121 -0.011266713
0.065312475 -0.19301952 -0.011317553
0.065457478 -0.21475717 -0.010396007
0.06546285 -0.23514362 -0.010267005
0.06561932 -0.25520205 -0.0092813494
0.0656057 -0.27408347 -0.0092609944
0.065564528 -0.292321 -0.0093973083
0.065812282 -0.3106662 -0.0078950878
0.065691531 -0.32775584 -0.0084835663
0.065850191 -0.34496468 -0.0074874624
0.065285377 -0.36895531 -0.010547614
0.065656498 -0.37757403 -0.0083948402
0.065395303 -0.40136263 -0.0097336937
0.065515965 -0.41728264 -0.0089545436
0.065389037 -0.43288684 -0.0095800562
0.065530583 -0.44852126 -0.0086830417
0.065420046 -0.46400961 -0.0092161326
0.065403469 -0.47950745 -0.0092165712
0.065307468 -0.49504817 -0.0096678268
0.065306149 -0.51063019 -0.0095823277
0.065396592 -0.53410846 -0.0089303497
0.065292008 -0.55007428 -0.0094313258
0.064778261 -0.56677461 -0.01225344
0.064879633 -0.58304316 -0.011586831
0.064917378 -0.59965491 -0.011281445
0.065176509 -0.62477642 -0.0096753277
0.065000027 -0.64270091 -0.010585987
0.064948209 -0.66087335 -0.010789931
0.064709142 -0.68011039 -0.012056409
0.064765453 -0.69920892 -0.011647842
0.064049192 -0.72143662 -0.015622142
0.06492921 -0.74996752 -0.010498215
0.064775325 -0.77260578 -0.011283797
0.064523071 -0.79680526 -0.012628028
0.064198792 -0.82268715 -0.014381564
0.07247474 -0.80858189 0.032652106
0.078025952 -0.80431986 0.064229339
0.064663924 -0.91794485 -0.011448225
0.064321451 -0.9522599 -0.013309199
-0.10961626 -2.2622843 -1.0000093
-0.10781728 -2.3820765 -0.98975861
-0.1097398 -2.543376 -1.0006292
-0.10971113 -2.7051206 -1.0004363
-0.11051582 -2.8932383 -1.0049808
-0.11151659 -3.1069701 -1.0106488
-0.10420072 -3.3802397 -0.96913558
-0.091163993 -3.4891844 -0.89516234
0.21072309 -3.292062 0.81822127
0.4898397 -10.765154 2.3980596
0.53119802 -8.8319054 2.6337371
0.45280993 -4.9037519 2.1912308
0.62757498 -6.2061453 3.1820836
0.63565379 -5.8198557 3.2281654
0.64949268 -5.5354962 3.3068702
0.64358431 -4.921834 3.2737553
0.65935987 -4.7289853 3.3633995
0.65418589 -4.388361 3.3342838
0.6539706 -4.1151152 3.3332617
0.62705064 -3.6876698 3.1808412
0.65700138 -3.6547101 3.3508084
0.64893162 -3.3936245 3.3052285
0.65281224 -3.1229579 3.3274686
0.64712322 -2.9150991 3.295366
0.64736605 -2.7479658 3.2968891
0.64916784 -2.5961235 3.307246
0.62182617 -2.3378909 3.1523557
0.65226406 -2.3101616 3.3250721
0.64442241 -2.1443717 3.2807379
0.63690376 -1.9892043 3.2382312
0.63469493 -1.8575647 3.2258284
0.63555264 -1.680017 3.23087
0.63477188 -1.56275 3.2265587
0.63367438 -1.4482584 3.2204485
0.63213181 -1.3361317 3.2118127
0.63235533 -1.2297049 3.2131894
0.6347695 -1.1280671 3.2269874
0.595469 -0.98038405 3.0042288
0.6068328 -0.8966018 3.0687737
0.63151342 -0.81860775 3.2088358
0.62651783 -0.66734856 3.1806576
0.6228776 -0.56877285 3.1601133
0.61863965 -0.47189254 3.136178
0.19751206 -0.4376131 0.7482295
0.18429871 -0.42332602 0.67350727
0.18276569 -0.41179499 0.66493976
0.18186104 -0.40426058 0.65989363
0.18124692 -0.39639175 0.65649498
0.18068892 -0.37926459 0.65349835
0.18135418 -0.3729378 0.65731305
0.18209514 -0.35606349 0.66164082
0.18227394 -0.34503651 0.66273856
0.1816386 -0.33067375 0.65926069
0.18118078 -0.32092935 0.65674776
0.180654 -0.31119317 0.65384376
0.18076004 -0.29202193 0.65456998
0.18162708 -0.27445987 0.65957016
0.18178794 -0.25151074 0.66060686
0.18127297 -0.23845115 0.6577692
0.18135929 -0.22094245 0.65834147
0.42393455 1.6924268 2.0342131
0.40146837 1.6726708 1.9068816
0.38253012 1.6726165 1.799557
0.36355942 1.6642022 1.6920487
0.3469291 1.6709642 1.5978123
0.32532549 1.7086263 1.475409
0.30873594 1.7023951 1.3814044
0.29062888 1.6662481 1.2787957
0.26764524 1.538172 1.1485367
0.25408506 1.5396581 1.0717126
0.24085471 1.542021 0.99675918
0.22815543 1.5512484 0.92481726
0.21535859 1.5549077 0.85232252
0.2022927 1.5450765 0.77830303
0.18322225 1.5311545 0.6702708
0.17148355 1.5674111 0.60377514
0.15900147 1.5624133 0.53306699
0.14663915 1.5618993 0.463038
0.13430859 1.5579045 0.39318955
0.12209731 1.5444512 0.32401872
0.10995074 1.5345588 0.25521499
0.097690195 1.532178 0.18576454
0.079273641 1.5244399 0.081444018
0.066260487 1.5363766 0.0077250944
0.052735351 1.552282 -0.068897262
0.050792605 1.3267666 -0.079811603
0.036231581 1.3733016 -0.16231042
0.020883091 1.4179802 -0.24927439
0.052123781 0.66835046 -0.071866438
0.070579186 0.22279042 0.033091456
0.063469581 0.18318087 -0.0070539759
0.064531989 0.12772231 -0.00093860814
0.069053106 0.052265923 0.02479306
0.069253154 0.014676917 0.026016356
0.068656325 -0.01472695 0.022719946
0.067964874 -0.041595504 0.018886838
0.068134017 -0.071637571 0.019934513
0.065221161 -0.08366368 0.0035029382
0.064091593 -0.13006674 -0.0027262827
0.063315608 -0.15082772 -0.0070385858
0.063273013 -0.17370862 -0.007191665
0.06228295 -0.20290802 -0.012673603
0.063276671 -0.21675837 -0.0069939233
0.063142054 -0.23655301 -0.0076688076
0.063308306 -0.25651807 -0.0066374275
0.062552251 -0.28264403 -0.010791849
0.062734328 -0.30117479 -0.0096705845
0.062716767 -0.31874087 -0.0096812863
0.06265083 -0.335805 -0.0099662729
0.062864438 -0.35295999 -0.0086659789
0.062683009 -0.36918011 -0.0096056508
0.062774234 -0.38551214 -0.0089991204
0.06279704 -0.40151873 -0.0087804282
0.062746964 -0.41728213 -0.0089748362
0.062793702 -0.43297341 -0.0086201793
0.062696122 -0.45626226 -0.0090386746
0.062633023 -0.47175756 -0.0093063721
0.062663838 -0.48725292 -0.0090413876
0.062615246 -0.50279915 -0.0092263892
0.062488656 -0.51848161 -0.009853431
0.062458634 -0.53424609 -0.0099326978
0.062354967 -0.55024624 -0.010429244
0.062351756 -0.56635708 -0.010355953
0.062454093 -0.59081399 -0.0096380059
0.062043477 -0.60829461 -0.011873587
0.062080629 -0.62542516 -0.011570321
0.061907526 -0.64341509 -0.012458569
0.061539564 -0.66243339 -0.014450963
0.061309226 -0.68179774 -0.015662678
0.061920196 -0.70930934 -0.012057483
0.061585143 -0.73075652 -0.013861362
0.061270319 -0.75314343 -0.015549839
0.061566379 -0.77427983 -0.013775072
0.062038779 -0.8075695 -0.010951191
0.067616008 -0.80655831 0.020756204
0.070984058 -0.81422466 0.039942358
0.075640447 -0.80231506 0.066380054
0.060888093 -0.9235971 -0.017070541
0.062053628 -0.96594781 -0.0103097
-0.11442094 -2.2746294 -1.0100454
-0.1152863 -2.4155285 -1.01478
-0.10984249 -2.5964754 -0.98367125
-0.11010148 -2.7673178 -0.98494762
-0.11179402 -2.9727311 -0.9943307
-0.11291432 -3.1990738 -1.0004553
-0.1140931 -3.4583399 -1.0068901
-0.087791793 -3.4032307 -0.85769969
0.46358874 -4.8830705 2.2714677
0.63388205 -6.0729818 3.2378507
0.64390099 -5.7242107 3.2945082
0.66247535 -5.4951291 3.3997486
0.64535695 -4.9673905 3.3024423
0.64811289 -4.6637168 3.3179572
0.65132856 -4.252202 3.336055
0.63923591 -3.9085808 3.2673645
0.63978571 -3.6780307 3.2704234
0.65276337 -3.538655 3.3440011
0.64643961 -3.2965846 3.308085
0.64131969 -3.0790317 3.2790103
0.63979226 -2.8941195 3.2703249
0.63966537 -2.7266462 3.2695918
0.64908737 -2.5306621 3.3230269
0.6281994 -2.3031588 3.2045496
0.6459915 -2.2278552 3.3054721
0.64159185 -2.0777755 3.2805281
0.63585365 -1.9312061 3.2479975
0.63400525 -1.8024801 3.2375326
0.63169396 -1.6774801 3.2244463
0.62880701 -1.5557756 3.2080989
0.63137305 -1.3941761 3.2226934
0.62931263 -1.2824402 3.2110398
0.63122475 -1.179445 3.221916
0.63282913 -1.0770874 3.2310486
0.59240758 -0.93290335 3.0018673
0.61263198 -0.85575014 3.1165926
0.62640786 -0.76734811 3.1947491
0.62217736 -0.66681111 3.1708014
0.61975932 -0.56882417 3.1571319
0.61518341 -0.47204363 3.1312284
0.19458464 -0.43209866 0.74660236
0.18317863 -0.42632613 0.68204886
0.1811628 -0.41942689 0.67069829
0.17996264 -0.41206503 0.66397268
0.17906033 -0.40456349 0.6589359
0.17884332 -0.40048006 0.65774518
0.17853659 -0.39205411 0.65608525
0.17821877 -0.37891528 0.65440196
0.17872827 -0.36809981 0.65736961
0.17987615 -0.34969428 0.6639955
0.17940052 -0.34043381 0.66137785
0.17871828 -0.32608864 0.65762824
0.17808442 -0.31691942 0.65411341
0.17795059 -0.30547228 0.65343314
0.17825338 -0.28490704 0.65526694
0.17931117 -0.26581281 0.66134101
0.17942123 -0.25016564 0.66204244
0.17902149 -0.23634808 0.65985382
0.17843185 -0.21394266 0.65662688
0.41280413 1.7043464 1.9851962
0.39097998 1.6860855 1.861539
0.37119538 1.6753675 1.7494437
0.35385507 1.6793249 1.6512033
0.33740845 1.6860491 1.5580291
0.32129934 1.6906308 1.466769
0.3057344 1.6959826 1.3785939
0.2737242 1.4613307 1.1972468
0.26470569 1.5315812 1.1461701
0.24523424 1.5469241 1.0358812
0.23192893 1.5459893 0.96051943
0.21919717 1.5529165 0.88840687
0.20669554 1.5630935 0.81759781
0.19354323 1.5480083 0.7431069
0.18057342 1.526186 0.6696527
0.1688792 1.5634209 0.60341197
0.15651943 1.5693984 0.53340697
0.13791862 1.5652063 0.42805612
0.12558754 1.5589731 0.35821661
0.11350066 1.5363114 0.28976667
0.10131143 1.5311861 0.22073007
0.088768944 1.5394576 0.1496854
0.07526961 1.5717039 0.073206462
0.063159399 1.5510408 0.0046212645
0.051810417 1.5144304 -0.059642661
0.049227059 1.3065699 -0.074144371
0.029716827 1.3351276 -0.18467084
0.016826235 1.3421921 -0.25769305
0.057615727 0.66959596 -0.026127227
0.04490884 0.67380935 -0.098066755
0.071752302 0.24164972 0.054418344
0.059978765 0.1663505 -0.012043228
0.066979557 0.048316076 0.027816363
0.067425892 0.0093046511 0.030440202
0.065850049 -0.029302031 0.021636009
0.062358376 -0.095848612 0.0020951629
0.060453244 -0.13776286 -0.0085365409
0.060309675 -0.16089186 -0.0092638489
0.060350448 -0.18365638 -0.0089458497
0.060273308 -0.20498082 -0.0092971306
0.060206972 -0.22548735 -0.0095874621
0.060293425 -0.24568354 -0.0090114325
0.060371466 -0.26511061 -0.0084834145
0.060269766 -0.28343865 -0.0089752171
0.0604572 -0.3019048 -0.0078272317
0.060444709 -0.31940544 -0.0078134891
0.060549535 -0.33669576 -0.0071345395
0.060433712 -0.35323244 -0.0077073434
0.060118869 -0.3773798 -0.0093672648
0.060263 -0.39363018 -0.0084660025
0.06016545 -0.40942243 -0.0089357337
0.060165159 -0.42515239 -0.0088539571
0.060261257 -0.44080037 -0.0082256123
0.060105722 -0.45627695 -0.0090246713
0.06004408 -0.47177243 -0.0092912773
0.059902865 -0.48730281 -0.010009367
0.059856165 -0.50288403 -0.010191455
0.059878163 -0.52637035 -0.009942729
0.059898473 -0.5421685 -0.0097450083
0.059505295 -0.55859113 -0.011892728
0.059556536 -0.57480079 -0.011519766
0.059542663 -0.59134769 -0.011516234
0.060053155 -0.61577547 -0.0084975678
0.059489723 -0.63423318 -0.011611385
0.05938001 -0.65233409 -0.012151792
0.059238002 -0.67107481 -0.012875447
0.059074089 -0.69052112 -0.013723465
0.058899581 -0.71073508 -0.014631646
0.058726687 -0.73177415 -0.015530775
0.059136264 -0.76261163 -0.013085474
0.059082653 -0.78552079 -0.013308226
0.058936886 -0.80999464 -0.014053822
0.066146903 -0.80153942 0.026923448
0.068566956 -0.81358266 0.040731441
0.058887143 -0.93646872 -0.013971662
0.057902284 -0.97637057 -0.019477321
-0.11540267 -2.3306777 -1.0023453
-0.11532663 -2.4700332 -1.0018382
-0.11589395 -2.6289177 -1.0049809
-0.11859944 -2.8250959 -1.0202527
-0.11111076 -3.0466444 -0.97766364
-0.11247528 -3.2882364 -0.985331
-0.10972556 -3.5151472 -0.96966165
-0.080294006 -3.4155428 -0.80264026
0.45444351 -10.859535 2.2317777
0.61746347 -6.4153528 3.1574047
0.62350839 -5.7500482 3.1918457
0.6544686 -5.2488437 3.3676701
0.65337336 -4.888072 3.3615508
0.64704382 -4.5217285 3.3257365
0.64432007 -4.2179928 3.3103762
0.61134422 -3.7336063 3.1233952
0.64090669 -3.7007542 3.2911911
0.65050173 -3.4345684 3.3457558
0.64488918 -3.2045586 3.314003
0.6423853 -3.0068038 3.299885
0.64042145 -2.8241916 3.2888298
0.64118028 -2.6642044 3.2932205
0.63864034 -2.4988117 3.2788963
0.6316734 -2.3257442 3.2394564
0.63827342 -2.210047 3.2769835
0.6328454 -2.0580907 3.2462735
0.63360441 -1.8697598 3.2507048
0.63081372 -1.7408129 3.2349558
0.62724113 -1.6150943 3.214771
0.62781835 -1.5029861 3.2181282
0.6281383 -1.3929753 3.2200258
0.62606275 -1.2813429 3.2083328
0.62728566 -1.1774826 3.2153525
0.63022846 -1.0770279 3.2321296
0.58605474 -0.92901123 2.9816036
0.61110747 -0.80791283 3.1238551
0.62408048 -0.71783876 3.1975353
0.61867225 -0.61755389 3.1669335
0.6156022 -0.52003694 3.1495972
0.6122905 -0.42389184 3.1308892
0.19185084 -0.42640975 0.74590182
0.17990333 -0.42697841 0.67819852
0.17823292 -0.41980162 0.6688
0.1772047 -0.41226673 0.66304469
0.17650819 -0.40888646 0.65913224
0.17602545 -0.39637932 0.65651059
0.17542668 -0.38397929 0.65323073
0.1756558 -0.37409666 0.65460855
0.17644189 -0.36232138 0.65914625
0.17690374 -0.34549168 0.66188341
0.17612574 -0.33168912 0.65758646
0.17627716 -0.3255218 0.6584844
0.17515656 -0.31232521 0.65224379
0.17498459 -0.30086398 0.65134597
0.17593506 -0.2836127 0.65681601
0.17698784 -0.25698864 0.66290534
0.17627206 -0.2453209 0.65892214
0.17606753 -0.23008135 0.65783948
0.43048415 1.7031134 2.1014273
0.40548342 1.668864 1.9596666
0.38593069 1.6671232 1.8488137
0.36756372 1.6678327 1.7446877
0.3440848 1.6963911 1.6115968
0.32718423 1.6960286 1.5157899
0.31076673 1.6942865 1.4227234
0.29616794 1.7098082 1.3399745
0.26934013 1.5382123 1.1878513
0.25509045 1.530823 1.1070837
0.24190804 1.5354992 1.0323706
0.22908561 1.5431377 0.95969939
0.21649642 1.5529584 0.88835138
0.19748877 1.5588924 0.78062665
0.18489417 1.5602498 0.70924789
0.17244992 1.5640068 0.63872182
0.15996008 1.5602596 0.56793731
0.14759745 1.5599842 0.49787435
0.13526829 1.5622236 0.42800102
0.1229754 1.55399 0.35833374
0.11086692 1.5363222 0.28971303
0.092383757 1.5381335 0.18496244
0.080193423 1.5292852 0.11587667
0.068124361 1.5160249 0.04747903
0.053962875 1.5549207 -0.032792814
0.047245916 1.4185486 -0.070819013
0.040807031 1.306003 -0.10726863
0.024487782 1.3795593 -0.19978476
0.052969214 0.64296299 -0.038001571
0.043172091 0.6638363 -0.093510829
0.071870513 0.24281727 0.069412164
0.06689328 0.23667257 0.041250825
0.058359265 0.20839342 -0.0070119896
0.059647605 0.14832969 0.00037813908
0.063217945 0.038816303 0.020795759
0.064937279 -0.0076223058 0.030630689
0.063693248 -0.031493563 0.023651255
0.063633054 -0.060939375 0.023388874
0.060245607 -0.097814232 0.0043267398
0.059091017 -0.11808961 -0.0021453241
0.057224963 -0.14672209 -0.012614735
0.057303872 -0.17036226 -0.012088075
0.057424929 -0.1930296 -0.011322322
0.057423163 -0.21426708 -0.011253462
0.057429094 -0.23468383 -0.011140963
0.057742197 -0.25521156 -0.0092856018
0.057573359 -0.27368605 -0.010164745
0.057854965 -0.29270479 -0.0084881429
0.057781834 -0.3103331 -0.0088242823
0.057827357 -0.3277646 -0.0084871752
0.057655368 -0.34442195 -0.0093842223
0.057759069 -0.36120802 -0.008717034
0.057801407 -0.37758225 -0.0083979806
0.057776604 -0.39362445 -0.0084598949
0.057679925 -0.4094165 -0.0089295823
0.057543971 -0.43289441 -0.0095826611
0.057688192 -0.44852865 -0.0086854808
0.057580352 -0.46401682 -0.009218418
0.057566389 -0.47951448 -0.0092186965
0.057472963 -0.49505499 -0.0096697947
0.057474136 -0.51063687 -0.0095841326
0.057570323 -0.52624094 -0.008959352
0.057465978 -0.55008048 -0.0094327126
0.057294209 -0.56636488 -0.010328118
0.057226628 -0.58280712 -0.010632327
0.056931227 -0.59993619 -0.01222903
0.056915473 -0.61700273 -0.012239088
0.056686722 -0.6349082 -0.013457506
0.057455406 -0.66009694 -0.0089770537
0.057055932 -0.67969263 -0.011163877
0.056801945 -0.69966751 -0.012525155
0.056545705 -0.7204715 -0.013899106
0.056300163 -0.74215901 -0.015212214
0.056827661 -0.77316892 -0.012099311
0.056860954 -0.79622132 -0.011830126
0.056670871 -0.82145947 -0.012828059
0.064008586 -0.81179929 0.028881844
0.068161219 -0.81502914 0.052521568
0.053182069 -0.93916053 -0.03233749
0.056759011 -0.9508 -0.011963128
-0.1149118 -2.3764842 -0.98560739
-0.11598268 -2.5302672 -0.99158746
-0.11632961 -2.6942148 -0.99345845
-0.11730421 -2.8829491 -0.99888766
-0.1188892 -3.1017184 -1.0077763
-0.11960801 -3.3407776 -1.0117476
-0.10607374 -3.5796199 -0.93480784
0.20322926 -3.3148451 0.8214035
0.47792074 -10.674865 2.3808763
0.52603173 -8.9072714 2.6537097
0.44703215 -4.9389997 2.2053094
0.62038583 -6.2205448 3.1890743
0.63380253 -5.8905106 3.2652333
0.62055206 -4.960578 3.1901302
0.64132208 -4.8077297 3.308032
0.64845347 -4.4075408 3.3485825
0.64619178 -4.1182337 3.3358138
0.61660081 -3.6725833 3.1679881
0.65024287 -3.6634936 3.3589385
0.64175719 -3.399287 3.310868
0.63720685 -3.177352 3.2851288
0.63441187 -2.9799778 3.269352
0.63674116 -2.8192298 3.2826509
0.63553005 -2.6510372 3.2758653
0.61417997 -2.3395658 3.1548655
0.64461625 -2.3117468 3.3276403
0.63664466 -2.1453662 3.282505
0.63190025 -1.9985871 3.2556815
0.62772411 -1.8606248 3.2320836
0.62598783 -1.7351891 3.2223303
0.622702 -1.6106687 3.2037868
0.62578619 -1.4485701 3.221437
0.62491167 -1.3375784 3.216578
0.62464124 -1.2302059 3.215148
0.62688816 -1.128274 3.2280025
0.60601014 -1.0011673 3.109653
0.5895378 -0.88813245 3.0163007
0.60916293 -0.80846739 3.1277597
0.61832815 -0.7163381 3.1798735
0.61481434 -0.61725515 3.1600494
0.61041218 -0.47186545 3.1352446
0.60923421 -0.37610129 3.1286778
0.19001278 -0.4373956 0.75020176
0.17679672 -0.42293593 0.67545301
0.17527351 -0.41576996 0.66690654
0.17441534 -0.41251177 0.66208524
0.17323309 -0.39669138 0.65557039
0.17322604 -0.38764557 0.65562749
0.17302676 -0.36928496 0.65469158
0.17395993 -0.36190206 0.66003609
0.17386168 -0.34136909 0.65967506
0.17405298 -0.33528292 0.66081005
0.17345868 -0.32037324 0.6575858
0.17264181 -0.31175494 0.65304905
0.17288548 -0.29200971 0.65458196
0.17348288 -0.27573282 0.65807331
0.17457426 -0.2556541 0.6643694
0.17397116 -0.24324062 0.66104811
0.17311428 -0.22312286 0.65633827
0.41815403 1.7108375 2.047869
0.39418852 1.6800838 1.9119871
0.37483013 1.6768491 1.8022585
0.35682011 1.6779541 1.7001827
0.33935028 1.677123 1.601171
0.32382256 1.6906582 1.5131861
0.30736002 1.68792 1.4198887
0.28506529 1.7033663 1.2935653
0.25956175 1.5391406 1.1488832
0.2465319 1.5501469 1.0750691
0.23280831 1.5439694 0.99730909
0.22001284 1.551273 0.92482293
0.20732398 1.5578653 0.85294133
0.19466262 1.5618396 0.7812143
0.18202092 1.5622246 0.70959675
0.16955926 1.5659921 0.6390028
0.15081467 1.557436 0.53280777
0.1384948 1.5609136 0.46301824
0.12617122 1.5569171 0.3932029
0.11394058 1.5464586 0.32391083
0.1018446 1.5325749 0.25538042
0.08936321 1.5411174 0.18467748
0.07671468 1.5480593 0.11302532
0.064728022 1.5287955 0.045111224
0.044516388 1.5542212 -0.069385953
0.041246653 1.3556029 -0.087964423
0.032258201 1.3000646 -0.13889433
0.010091844 1.4602592 -0.26444405
0.046901256 0.74470842 -0.055989593
0.044022709 0.66926205 -0.072273083
0.06463483 0.23055892 0.044611253
0.054422721 0.19230072 -0.013112592
0.055436138 0.13662215 -0.0073064081
0.060232047 0.058571566 0.019943114
0.060680125 -0.074415088 0.022769049
0.057527173 -0.085001469 0.0049674092
0.056545317 -0.10665534 -0.00052489131
0.055322826 -0.12637235 -0.0073812678
0.055089097 -0.14965205 -0.0086308029
0.055041701 -0.17259011 -0.0088231796
0.055028915 -0.19461054 -0.0088187838
0.055036582 -0.21575828 -0.0086979438
0.055051345 -0.23608355 -0.0085364729
0.055060647 -0.25564128 -0.0084056556
0.054619588 -0.28264427 -0.010789682
0.054641362 -0.3008166 -0.010587639
0.054787721 -0.31874111 -0.0096787931
0.054889645 -0.33609769 -0.0090218456
0.054938972 -0.3529602 -0.0086631747
0.054759439 -0.36918041 -0.0096027274
0.055022895 -0.38570327 -0.0080293184
0.054877173 -0.401519 -0.0087772096
0.054829057 -0.41728246 -0.0089714862
0.054877751 -0.43297374 -0.0086166859
0.054848984 -0.44852084 -0.0087015079
0.054722399 -0.47175795 -0.0093025584
0.054755416 -0.48725334 -0.0090374341
0.054709181 -0.50279957 -0.0092223054
0.054757707 -0.5183776 -0.0088697998
0.054557648 -0.53424656 -0.0099283578
0.054456729 -0.55024678 -0.010424777
0.054286577 -0.56656545 -0.011314654
0.054220904 -0.58304179 -0.011612164
0.054487903 -0.6077106 -0.0099850157
0.05436058 -0.62510031 -0.010634039
0.05402723 -0.64341587 -0.012453357
0.052545708 -0.66516912 -0.020791572
0.053752124 -0.68095356 -0.01387207
0.054513823 -0.7079019 -0.0094429953
0.053874832 -0.73025751 -0.013002555
0.053856771 -0.75155485 -0.01303813
0.053716555 -0.77428079 -0.01376881
0.053478789 -0.79856592 -0.015055227
0.06054911 -0.79128736 0.025161162
0.060654864 -0.81436485 0.025824767
0.068816237 -0.79695857 0.07224381
0.053447209 -0.92147714 -0.014973843
-0.12107357 -2.1471686 -1.006523
-0.12113652 -2.2708063 -1.0069529
-0.12156054 -2.4084041 -1.0094509
-0.12200224 -2.5597312 -1.0120687
-0.11655416 -2.7614439 -0.98129666
-0.11743173 -2.9589386 -0.9864524
-0.11847625 -3.1841283 -0.99259412
-0.1191243 -3.4368343 -0.99652547
-0.095380187 -3.4124219 -0.86170131
-0.053135071 -3.3998117 -0.6218487
0.16636543 -3.3298073 0.62452185
0.4438754 -4.9214253 2.1979983
0.63297004 -6.1360593 3.2696459
0.63673818 -5.7187777 3.291698
0.63766897 -4.9605031 3.2981997
0.64306647 -4.6799259 3.3292987
0.64100111 -4.3668885 3.3180888
0.63613003 -4.0623579 3.2909424
0.62705863 -3.6436856 3.2401519
0.64943147 -3.5629559 3.367296
0.6404267 -3.3047686 3.3166208
0.63735372 -3.097621 3.2995353
0.63507903 -2.908119 3.2869539
0.63580287 -2.7437468 3.291352
0.63699394 -2.5897484 3.2983856
0.61203712 -2.3413332 3.1571696
0.6370272 -2.2938247 3.2991018
0.63369167 -2.0776532 3.2805583
0.62930608 -1.9351755 3.2559242
0.62681526 -1.8044806 3.2420249
0.6241619 -1.6785437 3.2271955
0.62270814 -1.5599724 3.219161
0.61977327 -1.4421612 3.2027204
0.61950946 -1.3330045 3.2014225
0.62154561 -1.2297946 3.2131641
0.62259233 -1.1263574 3.2192907
0.58148295 -0.93004525 2.9863799
0.60252202 -0.85414082 3.1058974
0.62040496 -0.76863223 3.207516
0.61442828 -0.66694921 3.173784
0.61077559 -0.56861693 3.1532316
0.60722166 -0.4719806 3.1332359
0.18648444 -0.43207878 0.74660063
0.17323612 -0.41920167 0.67165786
0.17203352 -0.41180649 0.66492409
0.17112842 -0.40427187 0.65987813
0.17067876 -0.39609396 0.6574164
0.16991213 -0.3840031 0.65320057
0.17046361 -0.36849284 0.65646476
0.17151341 -0.35563639 0.66251242
0.17113703 -0.34090641 0.66051131
0.17045717 -0.32660729 0.65678763
0.17058557 -0.32039574 0.65756142
0.1695527 -0.3066377 0.65183413
0.17056373 -0.28957033 0.65766323
0.17154646 -0.27125716 0.66333216
0.17129439 -0.2501578 0.66203803
0.17077008 -0.23704785 0.65915316
