# .PCD v0.7 - Point Cloud Data file format
VERSION 0.7
FIELDS x y z
SIZE 4 4 4
TYPE F F F
COUNT 1 1 1
WIDTH 1193
HEIGHT 1
VIEWPOINT 0 0 0 1 0 0 0
POINTS 1193
DATA ascii
0.20429862 -0.69530576 0.0022141912
0.19395971 -0.69460583 0.0028604732
0.19141528 -0.66123086 0.0024524957
0.21932748 -0.65387744 0.0021125469
0.20214213 -0.64664644 0.0020953952
0.16665258 -0.63879955 0.0029361052
0.21614911 -0.62569493 0.0023335449
0.23043045 -0.61926609 0.0023712148
0.15254354 -0.6065529 0.0029742306
0.12253056 -0.57893312 0.0025637252
0.05357147 -0.55454564 0.002579591
0.045447353 -0.54544199 0.0025048503
0.072219141 -0.54545993 0.0025029427
0.10367113 -0.54550546 0.0025162282
0.077218436 -0.54114819 0.0021811868
0.045218032 -0.53650618 0.002916266
0.050392412 -0.53647405 0.0028866045
0.058399655 -0.53648204 0.0029018007
0.08483164 -0.53647584 0.0028687168
0.036175188 -0.52814299 0.0029450948
0.068259344 -0.52805138 0.0028027575
0.020006737 -0.52424556 0.0020291663
0.028199255 -0.52431273 0.0021478143
0.054697718 -0.52388978 0.0029115246
0.05976256 -0.52386832 0.0028833244
0.068097204 -0.52385813 0.0028976083
0.01970193 -0.52001935 0.0021352386
0.072746314 -0.52007896 0.0021709185
0.027142026 -0.51600021 0.0025830069
0.032770541 -0.5160017 0.0026171741
0.040469997 -0.51603007 0.0026330291
0.051196747 -0.51598388 0.0024870499
0.064209871 -0.51593792 0.0024371869
0.01872346 -0.5116089 0.0026388471
0.026828097 -0.511823 0.0028754247
0.045181364 -0.51191854 0.0029711947
0.031522136 -0.50813192 0.002487178
0.037150882 -0.50813341 0.0025222243
0.050352816 -0.5081377 0.0024328609
0.055575557 -0.50811362 0.0023919917
0.031164614 -0.5040049 0.0029599154
-0.00098820811 -0.50399995 0.0029130017
0.0017486655 -0.50392324 0.0028436908
0.0044164821 -0.50386065 0.0028021717
0.0096981535 -0.50382763 0.0027666839
0.017896654 -0.50372058 0.0026805082
0.023056591 -0.50378847 0.0027238815
0.0038507006 -0.50019121 0.0025386231
0.0093386946 -0.50007981 0.0024452787
0.014583331 -0.50003248 0.0024145455
0.016905012 -0.50003082 0.0024003158
0.027621627 -0.50013202 0.0024723627
0.035826653 -0.5003379 0.0027370935
0.049156021 -0.50036705 0.0027878969
0.0086072693 -0.49640328 0.0022727391
0.013891273 -0.49637157 0.002237333
0.03536012 -0.49654877 0.0024285046
-7.051634e-05 -0.49282104 0.0022403097
0.018752148 -0.49259019 0.0020444847
0.045625076 -0.4928987 0.0024001433
-0.011202859 -0.48909146 0.0021575035
0.012748013 -0.48897994 0.0020594078
0.015616453 -0.48867804 0.0029737963
0.018034361 -0.48894951 0.0020240785
0.026277062 -0.48858652 0.0029057679
0.028746331 -0.48860878 0.0029108438
0.03590063 -0.48528728 0.0020397042
0.02522395 -0.48495188 0.002944936
-0.020394815 -0.48175809 0.0022900738
-0.0071180682 -0.48171264 0.0022552847
0.0011255848 -0.48173666 0.0022889401
0.011435578 -0.48174399 0.0022599283
0.030318648 -0.48145908 0.0020381417
0.035477355 -0.48152536 0.0020750391
-0.020791193 -0.47809798 0.0024560546
0.018853679 -0.47793129 0.0023222119
0.021678738 -0.47788045 0.0022702145
0.0043901694 -0.47096574 0.0020210983
0.0096507622 -0.47093794 0.0020126274
-0.018492481 -0.46363068 0.0028000979
-0.013605768 -0.46024439 0.002410434
-0.010889417 -0.46026054 0.0024210492
-0.0089243883 -0.45678574 0.0020349573
-0.0064900634 -0.45678607 0.0020335407
0.20386206 -0.6767717 0.0030665277
0.20929207 -0.67607147 0.003739693
0.23461612 -0.64526236 0.0033877054
0.20418574 -0.63805866 0.0035844613
0.19812663 -0.62517792 0.0031513993
0.116703 -0.61807567 0.003873409
0.15371731 -0.6180352 0.0038585449
0.14465371 -0.60594976 0.0036853312
0.10270471 -0.6002413 0.0035464799
0.13592054 -0.58349019 0.003911084
0.10171866 -0.56813669 0.003956629
0.10185488 -0.56327093 0.0039474475
0.10442625 -0.56326383 0.0039559812
0.10724616 -0.56371355 0.0030693621
0.040482733 -0.54931146 0.0038104954
0.053889245 -0.5492869 0.0037979274
0.061782919 -0.54938376 0.0038571428
0.040436815 -0.54502684 0.0034143988
0.053616568 -0.54500091 0.0033987556
0.066795483 -0.54507631 0.0034249674
0.079963915 -0.54030776 0.0039552189
0.026470646 -0.53616363 0.0039998293
0.03148086 -0.53657842 0.0030451454
0.039886385 -0.53611553 0.0038326369
0.071725525 -0.53613687 0.0038208014
0.079899989 -0.53604227 0.0037653542
0.026438508 -0.53191197 0.0038766549
0.039442863 -0.53195387 0.0037681621
0.044593383 -0.53190613 0.0037417114
0.071488887 -0.53194368 0.0037589967
0.031152325 -0.52775615 0.0039142324
0.044565149 -0.52770519 0.0037474318
0.050043009 -0.52767521 0.003727173
0.076406598 -0.52772909 0.0037353623
0.022813842 -0.52355015 0.0039480743
0.036140993 -0.52358037 0.0039977068
0.049225748 -0.52354574 0.0038532203
0.06300395 -0.52346706 0.0038010213
0.014431152 -0.5191316 0.0038259628
0.035627596 -0.51981378 0.0032945697
0.05969217 -0.51969856 0.0030800323
0.013884649 -0.51531774 0.0031514186
0.035510514 -0.51564837 0.0035532713
0.059252311 -0.515607 0.0033953963
0.013659542 -0.51120216 0.0035293093
0.021285895 -0.51134557 0.0036300132
0.047400929 -0.50783771 0.003441069
0.052871183 -0.50785089 0.0033575164
0.044372391 -0.50411004 0.0031140146
0.03859007 -0.50004244 0.0037087584
-0.0066145658 -0.49995556 0.0035713399
0.0011854586 -0.49997234 0.0035596031
0.025229676 -0.49975985 0.0033712599
0.0060034958 -0.49618489 0.0032706151
0.011491393 -0.49607307 0.0031779895
0.02461932 -0.49600217 0.0031148689
0.029773526 -0.49612537 0.0032037245
0.037979916 -0.49633157 0.0034681838
-0.015773755 -0.49252713 0.0031518869
-0.010145906 -0.49253237 0.0031832131
-0.0077257743 -0.49256685 0.0032187055
-0.0024629468 -0.49254254 0.0032093015
0.005337121 -0.49256086 0.003195493
0.010128625 -0.48879105 0.003065102
0.0016358203 -0.48516899 0.0031600122
0.014834804 -0.48504665 0.0030405531
0.024933051 -0.4812808 0.0030510398
0.16026983 -0.65930283 0.004579708
0.17900023 -0.65930706 0.0045203441
0.18826507 -0.65196657 0.0042271833
0.16354027 -0.6440531 0.004870425
0.17648534 -0.64473373 0.0042003114
0.16576804 -0.63031936 0.0046808994
0.21643151 -0.63031608 0.0047201668
0.09704762 -0.60532796 0.0044439291
0.14752309 -0.60536611 0.0045146216
0.11599134 -0.59961003 0.0042265668
0.13244794 -0.59403002 0.0042526149
0.090364262 -0.58848405 0.0044366359
0.10353307 -0.58847255 0.004432796
0.10412223 -0.58292693 0.0047200741
0.10950679 -0.5828836 0.0046512056
0.10989651 -0.57250595 0.0049091144
0.096841969 -0.567581 0.0047569503
0.11006545 -0.56760502 0.0047748894
0.051707152 -0.56279862 0.0048111482
0.09692876 -0.56271887 0.0047335331
0.04880698 -0.55839241 0.0040557655
0.056696061 -0.55848604 0.004116538
0.10202332 -0.55837888 0.0040439167
0.048754819 -0.55358899 0.0043028696
0.061933354 -0.55366385 0.0043314304
0.03512146 -0.54461014 0.0043158783
0.061862607 -0.54462266 0.0043078484
0.093395643 -0.54457885 0.0042948765
0.034719545 -0.54040581 0.0040526032
0.039871275 -0.54035795 0.0040239729
0.066762641 -0.54039496 0.0040424773
0.06149574 -0.5398705 0.0048749498
0.075093247 -0.53987515 0.0048580221
0.029300481 -0.53573626 0.0048746634
0.034807757 -0.53571659 0.0047703204
0.053027947 -0.53142923 0.0045933826
0.039470695 -0.52733374 0.0046993038
0.038730811 -0.52320015 0.0048755892
0.065653816 -0.52310485 0.0047358214
0.043927029 -0.51941645 0.004093098
0.037997663 -0.51533359 0.0045129955
0.056884069 -0.51524925 0.0043278825
0.062061533 -0.51521772 0.0042994502
0.0084338542 -0.51498735 0.0040984396
0.011526009 -0.51494843 0.0040748557
0.032277353 -0.51121169 0.0048496393
0.037846677 -0.51121163 0.0048722462
0.042910039 -0.51124012 0.0048814369
0.010663469 -0.51090378 0.0044890642
0.042070437 -0.50376034 0.0040322687
0.020140933 -0.4993968 0.0042817146
-0.0097328834 -0.495987 0.0043180622
-0.021818988 -0.48861337 0.0041052061
0.14832543 -0.66592276 0.0056393761
0.15032186 -0.65789711 0.0057925512
0.18734673 -0.65791708 0.0058351364
0.13829876 -0.63618404 0.0056862924
0.15270227 -0.6297071 0.005473244
0.1455372 -0.62324989 0.0052567814
0.15405893 -0.62257457 0.0059967344
0.098615848 -0.61612356 0.0059824362
0.10398804 -0.6166715 0.0051996592
0.12524395 -0.61684984 0.0053696828
0.13845815 -0.61680675 0.0052864621
0.091186367 -0.61047411 0.0055982783
0.10530374 -0.60409933 0.0059305057
0.11861029 -0.60476154 0.0052380641
0.084383532 -0.59912664 0.0051047951
0.097551167 -0.59911478 0.0051008156
0.12429294 -0.59912461 0.0050558634
0.092767872 -0.59852439 0.0058611692
0.11905807 -0.59847212 0.0057925195
0.13281925 -0.59851319 0.00584719
0.12490468 -0.59347761 0.0050525567
0.093310848 -0.5928508 0.0057968074
0.098451994 -0.59292305 0.0058769681
0.085518196 -0.58788449 0.0051988047
0.085952297 -0.5823471 0.0054614218
0.1174705 -0.5822928 0.0054192818
0.09135253 -0.5773983 0.0051186001
0.11781289 -0.57737511 0.0051002298
0.099661671 -0.57685679 0.0059252274
0.10479153 -0.57688481 0.0059512756
0.10496362 -0.57190919 0.0056563285
0.091352269 -0.5671348 0.0056059384
0.096704923 -0.55747426 0.0057637948
0.043295007 -0.55311877 0.0051488183
0.057015359 -0.55318445 0.0051972312
0.064759478 -0.55313694 0.0051757121
0.096771583 -0.55316299 0.0051867319
0.043229464 -0.54413033 0.0051682983
0.056634545 -0.54410446 0.0051554884
0.069764212 -0.54412627 0.0051667537
0.088459283 -0.5442 0.0052511808
0.048126001 -0.53524357 0.0055976533
0.061528645 -0.53521532 0.005584388
0.07465744 -0.53523827 0.0055955411
0.0611737 -0.53103077 0.0055116937
0.069259793 -0.53109986 0.0055380133
0.029027872 -0.52693093 0.0057031014
0.01486259 -0.52258772 0.0055157291
0.0034316019 -0.51470011 0.0050918832
0.0062139346 -0.51464051 0.0050427783
0.1655679 -0.67336142 0.0063923658
0.16749272 -0.66531277 0.0063945525
0.14389209 -0.66452026 0.0069051743
0.17601112 -0.65001285 0.0063509811
0.13884221 -0.64990181 0.0062144268
0.15208706 -0.64990431 0.0062097968
0.13213095 -0.64267933 0.0062017171
0.15371302 -0.64203274 0.0068798838
0.15873259 -0.64270198 0.006207319
0.1254883 -0.63553935 0.0064690653
0.14683774 -0.63549078 0.0064022033
0.16008091 -0.63549298 0.0063981162
0.12657604 -0.6290502 0.0061456328
0.13973768 -0.62902355 0.0061076614
0.14768063 -0.62837327 0.0068231146
0.16130416 -0.62839758 0.0068108765
0.10595011 -0.62190986 0.0066567999
0.11970081 -0.62194824 0.0067090178
0.12758963 -0.62195861 0.0067304787
0.14055035 -0.62197781 0.0067180879
0.13371126 -0.61622703 0.0061170054
0.14963081 -0.6156202 0.0068038111
0.12646729 -0.60985094 0.0063231345
0.13435194 -0.60986018 0.0063448795
0.087289952 -0.60351974 0.006720542
0.12691125 -0.60355598 0.0067473068
0.13515314 -0.60356164 0.0067537595
0.079800762 -0.59792358 0.0066202772
0.10625691 -0.59789771 0.0065991133
0.11985119 -0.59226364 0.0065564578
0.12790246 -0.5923599 0.0066101444
0.094074138 -0.58675808 0.0067785727
0.11244328 -0.58674109 0.0067696809
0.1205358 -0.58663666 0.0066741453
0.099431545 -0.58175886 0.0062521873
0.11269414 -0.58179301 0.0063215448
0.044147462 -0.55691981 0.0066013923
0.046588834 -0.55262935 0.0060117431
0.070647433 -0.55215323 0.006860367
0.046067454 -0.54790902 0.0063958438
0.075496726 -0.5479151 0.0063808393
0.030221177 -0.54373646 0.0061176326
0.08310505 -0.54367679 0.0060448605
0.064721107 -0.53906387 0.0066780383
0.021894507 -0.53486472 0.0066478075
0.023596928 -0.5265376 0.0065913
0.042161591 -0.52657884 0.0065035569
0.028018719 -0.5186764 0.0060125883
0.15674073 -0.68896216 0.0078904126
0.15391707 -0.68009514 0.0079704691
0.15876612 -0.68081635 0.0073937308
0.16422839 -0.68008703 0.0079838717
0.16066554 -0.67267597 0.0070363283
0.19793434 -0.67263323 0.0070131556
0.14234284 -0.67192298 0.0076033743
0.15546077 -0.67197073 0.007691789
0.13602826 -0.66384804 0.0075597502
0.18130085 -0.66389048 0.0076141548
0.18677211 -0.66386253 0.0075673484
0.14562656 -0.65652901 0.007105465
0.16959277 -0.65659922 0.0071949265
0.13232027 -0.65582782 0.0077832085
0.16437541 -0.65591449 0.0078764455
0.18323646 -0.65589476 0.0078538451
0.12566765 -0.64859211 0.0075652236
0.17143779 -0.64865905 0.0076557309
0.14039052 -0.64135092 0.0075834151
0.12067541 -0.63420576 0.0078155892
0.13334388 -0.63487107 0.00709918
0.15508822 -0.6342451 0.0078788158
0.11340467 -0.62772274 0.007500513
0.13477416 -0.62775004 0.0075536519
0.14902304 -0.62133318 0.0074393442
0.094139576 -0.61493486 0.007558255
0.10717767 -0.6148864 0.0074656131
0.1205079 -0.61494178 0.0075181616
0.12874945 -0.61494863 0.0075243558
0.14188208 -0.61496961 0.0075726509
0.09992063 -0.60921347 0.0070514199
0.11297457 -0.6092062 0.0070211426
0.086942419 -0.60865206 0.0078392336
0.10828134 -0.60850847 0.0077072363
0.12153675 -0.60868013 0.0078586871
0.088136524 -0.59733188 0.007381557
0.10121395 -0.59732485 0.0073586446
0.11460038 -0.59721291 0.0072774133
0.12785605 -0.5973857 0.0074262512
0.10705289 -0.59174103 0.0074354308
0.08871749 -0.58625281 0.007609555
0.094096452 -0.58129513 0.0071363105
0.1074919 -0.58073616 0.0079382192
0.094509661 -0.57584047 0.0075915391
0.11317548 -0.57577938 0.0075317943
0.12364713 -0.570849 0.00728055
0.035579082 -0.54750508 0.0073215184
0.054265276 -0.53854567 0.0075201974
-0.0080998261 -0.5064348 0.0070693889
0.16326581 -0.66323441 0.0083022546
0.1392684 -0.66250235 0.0089359637
0.15286696 -0.66252095 0.0089261578
0.12118078 -0.64722997 0.0088797044
0.13416411 -0.64790857 0.0082369857
0.14742519 -0.64794642 0.008318834
0.16619696 -0.64798319 0.0083770463
0.11986511 -0.64073282 0.0083140507
0.12749331 -0.64070702 0.0082893781
0.14912948 -0.6400587 0.0089616152
0.113074 -0.63354671 0.0084984554
0.14211999 -0.63355893 0.0085001439
0.1219306 -0.62709373 0.0082226144
0.15639648 -0.62712264 0.0082494356
0.10063856 -0.62639201 0.0088792667
0.10869934 -0.62648988 0.0089415992
0.10973792 -0.62007123 0.0088901734
0.10234986 -0.61425841 0.0081655756
0.11550581 -0.61436796 0.0082649384
0.089770027 -0.60805762 0.0086100111
0.12980284 -0.60808361 0.0086280871
0.10899597 -0.60230106 0.0081824791
0.082793012 -0.59680265 0.0081920736
0.10945366 -0.59611839 0.0088677853
0.11522748 -0.59110755 0.00808769
0.096852057 -0.5906291 0.0089974599
0.12314072 -0.59057605 0.0089274924
0.089612238 -0.57525361 0.0083509963
0.054914974 -0.56561923 0.008140835
0.060235538 -0.56075716 0.0081666587
0.06595815 -0.56022221 0.0089706481
0.049524419 -0.54697126 0.0081385113
0.078482546 -0.54698056 0.0081230765
0.15252726 -0.68682969 0.009734313
0.14902939 -0.67867357 0.009265379
0.13799796 -0.6698193 0.009503332
0.15134487 -0.66984355 0.0095608216
0.16974451 -0.66988289 0.0096168676
0.14108144 -0.65449542 0.0091116214
0.15990652 -0.65451872 0.0091578485
0.17830651 -0.65455949 0.0092168236
0.12807487 -0.65384024 0.0097696306
0.15464348 -0.65383089 0.0098167444
0.14287576 -0.64661604 0.0096922787
0.16795014 -0.64007944 0.0090050707
0.16267428 -0.63941306 0.0096922759
0.10791592 -0.63294172 0.0092376778
0.11590969 -0.63294339 0.0092512481
0.12912494 -0.63290203 0.0091683427
0.1305439 -0.62587416 0.0097538764
0.14471546 -0.61945468 0.0096405651
0.13733871 -0.61377394 0.009104955
0.13826138 -0.60747063 0.00938698
0.055290088 -0.56936502 0.0098508084
0.060906082 -0.56453425 0.0097644953
0.063560255 -0.55974877 0.0098292548
0.08430136 -0.54656053 0.0090643419
0.013095623 -0.52515334 0.0090375775
0.14452374 -0.67724514 0.010445932
0.17562023 -0.66916633 0.010226499
0.18099332 -0.66845953 0.010845897
0.13473901 -0.66113067 0.010257698
0.1719773 -0.66116047 0.01025172
0.13255537 -0.66039497 0.010829294
0.10315274 -0.63160646 0.010608563
0.096398324 -0.62446976 0.010987214
0.050252017 -0.56891167 0.010727384
0.068777338 -0.55924684 0.010657545
0.074039094 -0.55449826 0.010854762
0.16908485 -0.67585498 0.011709261
0.17425898 -0.67583096 0.011692551
0.18948889 -0.66774094 0.011479298
0.12652405 -0.65177566 0.011782554
0.1199301 -0.64460629 0.011711748
0.11556324 -0.63805884 0.011009699
0.18086468 -0.63105083 0.011410784
0.0948347 -0.61753005 0.011782183
0.083130419 -0.60560018 0.011568892
0.14065561 -0.58341753 0.011562102
0.080935955 -0.59944981 0.01213172
0.047928698 -0.56300133 0.012288272
0.076983653 -0.55354822 0.012602233
0.12823468 -0.65765595 0.013427066
0.12161461 -0.65042174 0.013127159
0.19770226 -0.64325851 0.01300839
0.040158171 -0.55303836 0.013433254
0.026012355 -0.54017293 0.013255965
0.1493613 -0.68181783 0.01403924
0.16821918 -0.6818006 0.01401318
0.14356545 -0.67297983 0.014182248
0.10881463 -0.63476074 0.01446203
0.107137 -0.62839448 0.014118872
0.17219929 -0.62139851 0.014734562
0.090654142 -0.61503196 0.014682246
0.15363351 -0.68852711 0.01595637
0.18171808 -0.67156923 0.015403467
0.11606438 -0.64123082 0.01504666
0.051449258 -0.57051414 0.015766786
0.085593253 -0.54752642 0.01560924
0.18509197 -0.67010766 0.016651943
0.11132255 -0.63992608 0.016431697
0.10253719 -0.6263867 0.016191458
0.090717703 -0.54288697 0.016018528
0.16266504 -0.68633544 0.017683925
0.14595954 -0.6782099 0.017053207
0.14015171 -0.66942543 0.017273923
0.19627936 -0.6687476 0.017902514
0.043964826 -0.55992264 0.01729691
0.072983168 -0.55524623 0.017415253
0.094138838 -0.54647976 0.017224226
0.018022284 -0.52980834 0.017356768
0.17563316 -0.67678893 0.018282337
0.098742217 -0.62370777 0.018938527
0.086654127 -0.6119436 0.018392425
0.084938407 -0.60566825 0.018590335
0.068157494 -0.55890816 0.018935768
0.075749926 -0.55476928 0.018299865
0.15051852 -0.68417317 0.01950155
0.13556583 -0.66735035 0.019224027
0.12958106 -0.65865415 0.019753568
0.1892529 -0.62394446 0.019209128
0.050062146 -0.56312656 0.019781008
0.04130229 -0.55425453 0.019119004
0.033954352 -0.55378008 0.019996991
0.028025132 -0.54974473 0.019492278
0.15658976 -0.69153756 0.020926274
0.079214029 -0.55378991 0.020019744
0.0037594489 -0.51640886 0.020119291
0.17024782 -0.68125081 0.021860853
0.13172144 -0.66452932 0.021745363
0.19270946 -0.66446811 0.021642229
0.1253731 -0.65660924 0.021661546
0.1190863 -0.64871413 0.021882046
0.11091569 -0.6352098 0.021136858
0.092723228 -0.61497194 0.021864248
4.0251405e-05 -0.50839108 0.021866493
0.14668621 -0.68054605 0.022538245
0.11286071 -0.64092129 0.022408295
0.09079054 -0.60817969 0.022755593
0.08073321 -0.60266697 0.022369424
0.061373413 -0.56614447 0.022231327
0.0098756738 -0.51912093 0.022588039
0.20362256 -0.6402775 0.023150243
0.09560287 -0.54724735 0.023724254
0.034031671 -0.54323024 0.023316609
0.020485219 -0.53921849 0.023135837
0.14231838 -0.66891301 0.02498088
0.12114317 -0.65380776 0.024225891
0.11534252 -0.64600301 0.024584914
0.10699391 -0.63191271 0.024566492
0.016191604 -0.52241528 0.024432648
0.05705585 -0.56867528 0.025627954
0.051474206 -0.56410462 0.025585098
0.046151839 -0.55939811 0.025525836
0.026131386 -0.54231858 0.025148274
0.15230826 -0.68422747 0.02675847
0.14358388 -0.67619127 0.026060022
0.10256559 -0.62987024 0.026566565
-0.0033550872 -0.49961418 0.026821248
0.19432093 -0.66604501 0.027467728
0.13220373 -0.65813392 0.027303699
-0.0092255548 -0.49593428 0.02756816
-0.019595986 -0.48588544 0.027261706
0.094721176 -0.61473769 0.028890993
0.077813812 -0.59770328 0.028257746
0.19616094 -0.6718381 0.029653423
0.13388157 -0.66389614 0.029259885
0.083401248 -0.60188031 0.029996784
0.026254497 -0.53211892 0.029102979
0.018478235 -0.5316385 0.029930275
0.14888185 -0.67982686 0.030283414
0.12826645 -0.65461522 0.030420888
0.12190052 -0.64682966 0.030646782
0.098861866 -0.62579656 0.030568469
0.097251542 -0.61957079 0.030275602
0.085456245 -0.60735685 0.030453702
0.079286695 -0.55177951 0.030700792
0.16051763 -0.68783075 0.031101638
0.16355489 -0.68707103 0.031675927
0.13596074 -0.66964167 0.031381954
0.090598434 -0.61215574 0.031694964
-0.01530383 -0.49136475 0.031174628
0.1558069 -0.68634707 0.03225252
0.12444725 -0.65179223 0.032943569
0.11779062 -0.64477473 0.03261571
0.061681598 -0.56372368 0.032865163
0.069068857 -0.55972773 0.032019492
0.087183446 -0.54631644 0.032673258
0.0057525383 -0.51481193 0.03261441
0.14589019 -0.67540306 0.033744231
0.11128553 -0.63707447 0.033067655
0.10267389 -0.62315613 0.033307754
0.079196081 -0.59879869 0.033675496
0.040546007 -0.55864733 0.033665679
0.033953775 -0.54582995 0.033531226
0.19688034 -0.67389309 0.034861874
0.10496499 -0.62875777 0.034403287
0.064561807 -0.56264859 0.034473769
0.080276564 -0.55372304 0.034700923
0.090063386 -0.54529655 0.034354892
0.01014748 -0.52154356 0.034042556
0.00046317893 -0.51037443 0.034822579
0.19130927 -0.66454649 0.035565335
0.1137058 -0.64195436 0.035116993
0.10703015 -0.63427263 0.035612263
0.086956099 -0.60831344 0.03598766
0.046183143 -0.56210512 0.035314303
0.093819618 -0.55315787 0.035455655
0.15054439 -0.68117851 0.036259852
0.14171521 -0.6724658 0.036072347
0.13583177 -0.66388214 0.036251139
0.085157879 -0.60220146 0.036122575
0.070239663 -0.56156474 0.036126651
0.026950788 -0.54435033 0.036108967
0.014512007 -0.52799392 0.036862571
0.11752238 -0.63989204 0.037071515
0.055004425 -0.56497395 0.037827808
0.044159088 -0.55598027 0.037760176
0.020758906 -0.53138685 0.037936833
0.15705065 -0.68763882 0.038363956
0.15227553 -0.68691117 0.038956575
0.13839261 -0.66878289 0.03895697
0.19419071 -0.66880995 0.038959652
0.13203607 -0.66099024 0.038662612
0.125632 -0.6532023 0.038444009
0.11928802 -0.64543456 0.038529903
0.094512843 -0.61779338 0.038713127
0.052583754 -0.56446123 0.038643181
0.036369525 -0.55544031 0.038562592
-0.0034722677 -0.50217462 0.038716014
0.09702085 -0.62319189 0.03962405
0.16404413 -0.68462723 0.040560842
0.16654101 -0.68462604 0.040541712
0.1979714 -0.6666286 0.040773928
0.12784952 -0.65804905 0.040978499
0.12145469 -0.65032876 0.040900312
0.024556104 -0.53805751 0.040094364
0.14338914 -0.67375398 0.041938063
0.10905883 -0.63497955 0.041495714
0.090701967 -0.61516041 0.041524205
0.088434167 -0.60913974 0.041481081
0.04841537 -0.56221861 0.041827638
0.054069664 -0.57113898 0.042212669
0.012076578 -0.52105659 0.04290073
0.0064465357 -0.51727217 0.042946152
0.14480588 -0.68015444 0.043958772
0.11143142 -0.63978583 0.043561518
0.10305124 -0.62604314 0.043468051
0.079179592 -0.60184532 0.0430259
0.077364862 -0.59586942 0.043332107
0.090786569 -0.54787058 0.043674815
0.028805111 -0.54417437 0.043257579
0.0022029397 -0.51014829 0.043597247
0.13976595 -0.67003024 0.044743549
0.10491369 -0.63223422 0.044089317
0.096490234 -0.61849713 0.044292703
0.032726079 -0.55172086 0.044303503
-0.0087886117 -0.49656847 0.044958182
0.15939957 -0.68730491 0.045504242
0.1213211 -0.64531356 0.045211926
0.098471425 -0.62391758 0.045356203
0.083053708 -0.5998593 0.045092981
0.038307749 -0.55497676 0.045768864
0.016671056 -0.52723694 0.045743477
0.1547112 -0.6857897 0.046597593
0.17563374 -0.67712021 0.04605861
0.12361304 -0.65082991 0.046971712
0.020976262 -0.53413922 0.046912346
0.15022628 -0.6842888 0.047687847
0.1358749 -0.66705632 0.047007199
0.19219567 -0.66631961 0.047632478
0.13004155 -0.65853733 0.047154911
0.092658103 -0.61515385 0.047712803
0.063306853 -0.5626384 0.047410883
0.038212851 -0.54580647 0.047003597
0.088758461 -0.54528189 0.047834966
0.026449578 -0.53787708 0.047150336
0.083072111 -0.60851461 0.048309352
0.078919068 -0.59667242 0.048651043
0.050349321 -0.56214464 0.048288461
0.042315438 -0.55277288 0.048992205
0.030689875 -0.54479164 0.048683096
-0.0014387261 -0.50167358 0.048273802
0.13181441 -0.66409534 0.049300335
0.1258477 -0.65561926 0.049479339
0.1132187 -0.64031231 0.049493238
0.10470465 -0.62665069 0.049163438
0.053379934 -0.56590706 0.049204338
0.042699005 -0.56149167 0.049012169
0.1465425 -0.68049872 0.050412267
0.17044772 -0.68047476 0.050365005
0.10684452 -0.63201571 0.05044695
0.064474046 -0.56472051 0.050711136
0.084560402 -0.54798794 0.050021473
0.092629366 -0.54798013 0.050030086
-0.012503381 -0.48846689 0.050265562
0.19727093 -0.67035562 0.051060177
0.13548586 -0.66190177 0.051079579
0.11574258 -0.64507979 0.051824402
0.10921467 -0.63748282 0.051970165
0.088930838 -0.6117745 0.051032476
0.086856313 -0.60585332 0.051044501
0.069739684 -0.55979377 0.051376116
0.080021597 -0.55122352 0.051516674
0.0061480701 -0.50655061 0.051739078
-0.022974355 -0.47332519 0.051706709
0.075570352 -0.59273899 0.052823264
0.018747322 -0.52713376 0.052752875
0.0086002713 -0.5161621 0.052564111
0.14328773 -0.67668885 0.053074174
0.13777789 -0.66737515 0.053285766
0.19393924 -0.66665405 0.053845402
0.13173683 -0.65894246 0.053378295
0.12564492 -0.65052831 0.053577274
0.11925603 -0.64286906 0.053510182
0.022836156 -0.53388643 0.053965569
0.013049972 -0.52298087 0.053418361
0.15722078 -0.68454117 0.054231036
0.16526464 -0.68452084 0.054183096
0.1524556 -0.683797 0.054794095
0.096862033 -0.62093854 0.054174721
0.055475239 -0.57111835 0.054398917
0.044464413 -0.56182009 0.054613531
0.038410138 -0.54894567 0.054633882
0.032233208 -0.54532152 0.05411344
-0.017009109 -0.48134112 0.054068297
0.1395523 -0.67290103 0.055771332
0.12760313 -0.65593594 0.055582359
0.12116867 -0.64831781 0.055337448
0.11560855 -0.64001107 0.055995915
0.098755896 -0.62635201 0.055429876
0.090520389 -0.61297071 0.055897575
0.088197559 -0.60706931 0.055756301
0.078805789 -0.55272639 0.055405192
0.094487399 -0.54844409 0.05547417
0.088582948 -0.54421556 0.055723794
0.027148398 -0.54061949 0.055330034
0.148405 -0.68149459 0.056328718
0.092529252 -0.61821479 0.05677538
-0.006839239 -0.49547628 0.056388177
0.19393642 -0.66140926 0.057786081
0.11115601 -0.63780206 0.057723071
0.081516981 -0.60497719 0.057682246
0.078914769 -0.59985137 0.057153147
0.071841002 -0.58890712 0.057113901
0.16053984 -0.68774146 0.058643386
0.10494284 -0.62962425 0.05869925
0.096426025 -0.61611086 0.058659248
0.048880529 -0.5675633 0.058968898
0.054461136 -0.56750888 0.058921352
0.14471808 -0.67766571 0.059006616
0.19557703 -0.66762686 0.059585948
0.098479271 -0.62138623 0.059791494
0.085025787 -0.60299999 0.059741758
0.064814076 -0.56258982 0.05938182
0.01065839 -0.51616269 0.059490003
0.0061432519 -0.50931376 0.059979688
-0.00086861837 -0.50348765 0.059102006
0.15937512 -0.68467838 0.060690321
0.10728046 -0.63491249 0.060134698
0.067906477 -0.56142068 0.060946889
0.041016996 -0.55773079 0.060027223
0.073343225 -0.55718303 0.060842566
0.040076483 -0.5492906 0.060069166
0.08283063 -0.54932982 0.060110066
0.095944643 -0.54933619 0.06008397
0.024893567 -0.53392863 0.060075972
0.019378442 -0.52986461 0.060684845
0.015089648 -0.52281159 0.060413551
0.14142561 -0.67383766 0.061571829
0.13582201 -0.66457921 0.06168678
0.12995411 -0.65615386 0.061641824
0.12348461 -0.64854932 0.061294001
0.10129277 -0.62601483 0.061727364
0.075659074 -0.59581125 0.061196987
0.091155417 -0.5440129 0.061883282
0.029051015 -0.54054064 0.061484788
0.15024765 -0.68160218 0.062756166
0.073460124 -0.58943266 0.062219076
0.044458494 -0.55598444 0.062348872
0.033223331 -0.54763472 0.06248815
-0.010625433 -0.48730361 0.062652498
0.16901173 -0.68079722 0.063235238
0.13180752 -0.66155493 0.063864931
0.12580819 -0.65317041 0.063851804
0.11937197 -0.6455918 0.0635897
0.11310315 -0.63806146 0.063541479
0.058651537 -0.56814998 0.063753538
0.045354296 -0.56392932 0.063481249
0.13788673 -0.67000026 0.064160131
0.10671048 -0.62983829 0.06430681
0.086541593 -0.60407937 0.064402752
-0.004595906 -0.4951387 0.064944327
0.14662336 -0.67773736 0.065332554
0.1157091 -0.64266485 0.06592083
0.10914791 -0.63516253 0.065906644
0.1003841 -0.62169546 0.065357439
0.090976529 -0.61507195 0.065477878
0.04865269 -0.56213534 0.06576129
0.01243251 -0.51646054 0.065514199
0.0012285158 -0.50355291 0.065824814
0.11890627 -0.64114547 0.066952623
0.10281726 -0.62698531 0.066713758
0.094116442 -0.61363548 0.066678911
0.031151086 -0.54078776 0.066771187
0.026851533 -0.53382236 0.066124238
0.021438535 -0.5298115 0.066747092
0.017023353 -0.52294832 0.06650617
0.15330948 -0.68469048 0.067153558
0.16391298 -0.68467426 0.067128539
0.14304417 -0.67462504 0.067335315
0.13751318 -0.66539276 0.067311123
0.19368745 -0.6646561 0.06784194
0.096758276 -0.61875981 0.067740582
0.08701738 -0.61225742 0.067973524
0.082997717 -0.60058147 0.067589462
0.054900974 -0.5699228 0.067130178
0.046376307 -0.55606896 0.067805551
0.035072859 -0.54780287 0.067856252
0.093002148 -0.54428625 0.067276008
0.12089016 -0.6464538 0.068868257
0.13936618 -0.67076415 0.069884747
0.19523424 -0.67073047 0.069845021
0.13342598 -0.6623764 0.06948889
0.078179881 -0.60432839 0.069634624
0.075806312 -0.59859854 0.069618605
0.073890708 -0.59281468 0.069692455
0.096346051 -0.5426141 0.06964916
0.0072805029 -0.51118356 0.069115885
0.1482507 -0.67925614 0.070647165
0.079041623 -0.59721643 0.070931546
0.071717128 -0.55845976 0.070251159
0.039433606 -0.55426651 0.070075572
0.076457635 -0.55435419 0.070181698
0.15928589 -0.68770981 0.071630642
0.12974271 -0.65932232 0.071613342
0.12364347 -0.65099734 0.071443886
0.11124718 -0.63522118 0.071539156
0.066859186 -0.56138617 0.071935534
0.02314879 -0.53015578 0.071962237
0.018987911 -0.5233773 0.071648009
0.0029366552 -0.50390214 0.071680441
0.15452072 -0.68615973 0.072624147
0.13917483 -0.66614622 0.072932966
0.10501228 -0.62711489 0.072330073
0.067013673 -0.59014565 0.07243114
0.06456168 -0.58448017 0.07276617
0.042724594 -0.55249542 0.072379254
0.036980353 -0.54840487 0.072396249
0.084621653 -0.54842716 0.072426036
0.089933328 -0.54434747 0.07253921
0.027508086 -0.53696907 0.072452411
-0.016214762 -0.48101789 0.072971255
0.14976884 -0.6853925 0.073142007
0.14461818 -0.67535478 0.073175758
0.12568559 -0.65622485 0.073644362
0.11365143 -0.64048272 0.073368385
0.10706365 -0.63300472 0.0732674
0.089122795 -0.6124236 0.073391072
0.05215732 -0.56911957 0.073407665
0.048949867 -0.56498176 0.073016368
0.03118681 -0.54383725 0.073376045
-0.0041844943 -0.49730241 0.073770307
0.13537954 -0.66304964 0.074963078
0.10107604 -0.62415224 0.074634589
0.055318065 -0.56782568 0.074826926
0.057746321 -0.5678429 0.074823536
0.080618836 -0.55075306 0.074692525
0.013551008 -0.51846671 0.074025668
0.008959013 -0.51174241 0.074127324
-0.0098060975 -0.48878166 0.074076347
0.15390757 -0.68223298 0.075013869
0.14138328 -0.6714561 0.07559222
0.094821945 -0.61604929 0.07559634
0.063031808 -0.56304044 0.075140342
0.14986065 -0.67988926 0.076467633
0.19765775 -0.67063922 0.076059282
0.12538721 -0.65165913 0.076795414
0.1192876 -0.64341146 0.076890513
0.096941769 -0.62116796 0.076904595
0.085176997 -0.60888553 0.076462068
0.068416551 -0.59173268 0.07616505
0.038638681 -0.54893363 0.076940067
0.029175032 -0.53763062 0.076853283
0.0048846793 -0.50447237 0.076557815
0.19342457 -0.66833574 0.077580892
0.13140915 -0.65996569 0.07702367
0.088769406 -0.60742307 0.077629305
0.064181991 -0.57982987 0.07752879
0.050944231 -0.56530702 0.077731721
0.045508355 -0.5612182 0.077389292
0.033550177 -0.54435515 0.077843554
0.096731067 -0.54495943 0.077050708
0.025222961 -0.53033984 0.077097706
0.15687566 -0.68595111 0.078992479
0.16205461 -0.6859318 0.078977138
0.14629336 -0.67595434 0.078892916
0.12173545 -0.64860392 0.078920923
0.11530303 -0.64117616 0.078563474
0.10908099 -0.63300526 0.078923933
0.10024463 -0.61973125 0.078098528
0.090795472 -0.61319637 0.078080468
0.071789458 -0.58967084 0.078101143
0.019816145 -0.5259375 0.078530282
-0.0023181576 -0.49794364 0.078555323
0.12785661 -0.65686852 0.079078324
0.10273901 -0.62489307 0.079536781
0.093964815 -0.61172581 0.079226933
0.08181747 -0.60531002 0.079515688
0.062104318 -0.56401336 0.079124205
0.04323677 -0.55521119 0.079325169
0.09304966 -0.55120981 0.079226717
0.08773157 -0.54714209 0.079230569
0.092869952 -0.54718864 0.079265699
0.015473672 -0.5188297 0.079148173
0.16580699 -0.68355083 0.080375887
0.14275548 -0.67278755 0.080775924
0.17990687 -0.67277825 0.080767289
0.11140306 -0.63812244 0.080677263
0.084717564 -0.60460424 0.080147333
0.072472796 -0.59816247 0.080538318
0.065197788 -0.58756733 0.080044255
0.065258943 -0.56275618 0.080595851
0.083788097 -0.55397105 0.080792114
0.088260874 -0.55059183 0.080012731
0.082956657 -0.54997206 0.080747008
0.096641108 -0.54994106 0.080687694
0.092675485 -0.54261535 0.080181181
0.011123939 -0.51173145 0.080015495
0.15123692 -0.68122065 0.08186195
0.16990322 -0.68116069 0.081730939
0.12057609 -0.64480394 0.081549212
0.10501404 -0.62996447 0.081084758
0.090292849 -0.60886556 0.081717268
0.073839709 -0.5662142 0.081743255
0.07844875 -0.55804366 0.081011802
0.073587731 -0.55747515 0.081813633
0.078478083 -0.55340087 0.08157032
0.031223765 -0.53812432 0.08122436
-0.007915901 -0.48853981 0.081600204
0.19179831 -0.6704427 0.082228631
0.1331636 -0.66055721 0.082564257
0.10870945 -0.62848175 0.082219549
0.078378357 -0.60171324 0.082550526
0.063684605 -0.57518709 0.082344584
0.060888458 -0.57033259 0.082280546
0.068985693 -0.57035387 0.082296424
0.068987325 -0.56562328 0.082520425
0.047396161 -0.56154114 0.082078747
0.073929384 -0.56150347 0.082043827
0.069163404 -0.56086165 0.082776651
0.035339568 -0.54479402 0.0823064
0.1571151 -0.68959481 0.083091155
0.18472618 -0.67800361 0.083595902
0.13913271 -0.66885811 0.083174482
0.18770269 -0.6680665 0.083662063
0.19500192 -0.66882527 0.083135024
0.095137261 -0.61884356 0.083996616
0.064533204 -0.56903499 0.083696455
0.044835374 -0.55615854 0.08318349
0.039638754 -0.55150455 0.083750211
0.025562502 -0.5331375 0.083290808
0.021890927 -0.52602863 0.083613768
0.0052898317 -0.50670123 0.083725922
-0.022023071 -0.47041225 0.08308398
0.1480455 -0.67725354 0.084150873
0.17498203 -0.67637122 0.084531844
0.18036032 -0.67558539 0.084977776
0.12952255 -0.65744495 0.084569246
0.12340366 -0.64919925 0.08418908
0.051524296 -0.56835026 0.084329478
0.056543875 -0.56834811 0.084312871
0.017448166 -0.5190658 0.08424589
-0.000295067 -0.49804431 0.084249198
0.15357083 -0.68562561 0.085378051
0.17273563 -0.68478638 0.085771248
0.13561344 -0.66569895 0.08506351
0.11342436 -0.63871002 0.085816063
0.098229133 -0.61741328 0.085183159
0.086723253 -0.60456038 0.085317984
0.074474365 -0.59818983 0.085653976
0.072524294 -0.59251153 0.085522123
0.067170471 -0.58765757 0.085053898
0.06467621 -0.58208746 0.085296564
0.049141467 -0.56237209 0.08598192
0.037152793 -0.54571587 0.085977964
-0.01399713 -0.47948968 0.085225828
0.16458301 -0.69474792 0.08635211
0.14446507 -0.67328441 0.086527154
0.19219509 -0.66415578 0.08603242
0.12551361 -0.65429115 0.08648169
0.10082828 -0.62249935 0.08666829
0.060439266 -0.57592469 0.086427532
0.057463687 -0.57111156 0.086300418
0.031304758 -0.54126227 0.086909972
0.011637629 -0.51421964 0.086571351
0.13525268 -0.66100466 0.087951586
0.12933351 -0.65274203 0.087480947
0.10943998 -0.63561934 0.087856032
0.094568394 -0.61444926 0.087426402
0.080132954 -0.60233611 0.087044857
0.083049141 -0.60166472 0.087703921
0.060358543 -0.5704605 0.087018549
0.041310642 -0.55238819 0.087549284
0.02792852 -0.53356898 0.087543182
0.023587985 -0.52656764 0.087879084
0.16098128 -0.69078463 0.088581011
0.1408904 -0.67011094 0.088324741
0.11580198 -0.64299947 0.088253841
0.11283354 -0.63410538 0.088946007
0.10320959 -0.6275695 0.088278361
0.068696305 -0.58903468 0.088720068
0.061114084 -0.57870609 0.088634424
0.0077422606 -0.50694346 0.088593721
0.001656055 -0.49887335 0.088127561
-0.0060627735 -0.48848966 0.088167332
0.13093492 -0.65864933 0.089409612
0.12527795 -0.64963883 0.089454047
0.066956915 -0.58275145 0.089486301
0.053604286 -0.56842989 0.089016452
0.1552548 -0.68679172 0.090779588
0.13706023 -0.66692907 0.090145707
0.12128592 -0.64730322 0.090962395
0.11520551 -0.63918394 0.0909243
0.090942264 -0.61078799 0.09036839
0.076308459 -0.59878677 0.090115473
0.079640746 -0.59802449 0.090669706
0.045782726 -0.55848366 0.090210088
0.033563163 -0.54211366 0.090517059
0.018097633 -0.52174038 0.09011741
0.013919017 -0.51487452 0.090765364
0.10897058 -0.63107854 0.091079205
0.043197472 -0.55318218 0.091329239
0.029529093 -0.5345152 0.091048405
0.16109923 -0.69511265 0.092375368
0.15185168 -0.68276966 0.092969954
0.11728442 -0.64419478 0.092964545
0.087084696 -0.60783577 0.092642985
0.070377588 -0.5896185 0.092999861
0.062668011 -0.58000582 0.09208291
0.049622405 -0.56512034 0.09245111
0.037637152 -0.54800272 0.092630908
0.0094714565 -0.50759035 0.09261059
0.0033187126 -0.49964556 0.092066586
0.15684606 -0.6927073 0.093686529
0.098625943 -0.61994779 0.093617931
0.072935037 -0.59513998 0.093082093
0.068374343 -0.58408511 0.093112975
0.055270314 -0.56912035 0.093013465
0.024083847 -0.52957308 0.093136221
0.020152653 -0.52270567 0.093482293
-0.0053065959 -0.49148369 0.093045808
0.16064632 -0.69027114 0.094944507
0.14825824 -0.67956448 0.094721459
0.092357233 -0.61198407 0.094385892
0.047527067 -0.55920798 0.094087996
0.035508107 -0.54229426 0.094875358
0.015627207 -0.51593125 0.094100624
0.13881247 -0.66724235 0.095705025
0.11660986 -0.64030111 0.095391542
0.11060051 -0.63220608 0.095448866
0.10118017 -0.62496287 0.095244996
0.095109411 -0.61685324 0.095718086
0.083457984 -0.60417408 0.095563501
0.059568953 -0.57582587 0.095939636
0.039685022 -0.54934841 0.095612071
0.14436667 -0.676337 0.096478716
0.14775051 -0.67554504 0.096905231
0.12921688 -0.6558578 0.096753657
0.10351916 -0.62988466 0.096980497
0.074384108 -0.59638941 0.096892573
0.069979459 -0.58533281 0.096699603
0.051810779 -0.56573534 0.096361011
0.030192645 -0.53729999 0.096551307
0.025785347 -0.53041917 0.096540429
0.16227639 -0.69692785 0.097565688
0.15289782 -0.68462938 0.097936735
0.13533258 -0.6640321 0.097471237
0.11311709 -0.63722181 0.097470209
0.10686347 -0.62912709 0.097514912
0.10050725 -0.62112141 0.097888105
0.089111827 -0.60827458 0.097262509
0.049100049 -0.56048506 0.097224146
0.043618187 -0.55585653 0.097490072
0.010050675 -0.51064873 0.097291969
0.0041048401 -0.50225317 0.097256981
0.14129239 -0.67229193 0.098613694
0.12525424 -0.65265137 0.098545104
0.080104358 -0.60041684 0.098340213
0.020691618 -0.5255509 0.098619744
0.16204764 -0.6920737 0.099994563
0.14939137 -0.68140608 0.099653259
0.13175182 -0.66007787 0.099796355
0.063472465 -0.58173478 0.099752069
0.060974624 -0.57706773 0.099429794
0.055559356 -0.57231009 0.099067032
0.041489441 -0.55001038 0.099327847
0.031563547 -0.53862971 0.09934181
0.016340703 -0.51831686 0.099894285
0.12164322 -0.64952844 0.10040252
0.075986877 -0.59752172 0.10069829
0.053716641 -0.56626242 0.10027351
0.036187004 -0.54489279 0.10062733
0.011729219 -0.51162452 0.10052811
-0.0025015124 -0.50863719 0.10066905
0.0072902907 -0.50562191 0.10082516
0.0056062234 -0.50323862 0.10030994
-0.0032263848 -0.50044096 0.10078926
0.15530509 -0.68965048 0.10127573
0.045822047 -0.55647635 0.10130239
0.026812503 -0.53307754 0.10185287
0.014411343 -0.52631044 0.10196605
0.01903739 -0.52326488 0.1017514
0.0099673448 -0.52013361 0.10141088
0.017817829 -0.52023542 0.10158902
0.003679937 -0.51639932 0.10195222
0.01330166 -0.51413596 0.10135836
0.0042763446 -0.51098239 0.10124795
0.0028175304 -0.5080719 0.10144235
-0.0031763017 -0.50520813 0.10173954
0.0020583631 -0.50516468 0.10170675
0.13730031 -0.66425681 0.10293396
0.11770492 -0.64634883 0.10227639
0.083580434 -0.60714769 0.10290363
0.081685632 -0.60157353 0.10226815
0.03434588 -0.54300386 0.10279962
0.033677991 -0.53987688 0.10213041
0.025043417 -0.53617847 0.10234537
0.024049437 -0.53247869 0.10266513
0.023288339 -0.52939653 0.10230845
0.022339094 -0.52633643 0.10201627
0.013661488 -0.52268755 0.10250409
0.012782229 -0.51962239 0.10228521
0.0088752238 -0.51650852 0.10205258
0.0080309566 -0.51346636 0.102019
0.0069580674 -0.51046914 0.10208102
0.00086524943 -0.50232083 0.10207893
0.15511347 -0.68477714 0.10370041
0.14277074 -0.67328614 0.1038521
0.12767632 -0.6528632 0.10380454
0.10156085 -0.62789047 0.1034183
0.10442121 -0.62706524 0.10386302
0.08686424 -0.60636121 0.1033894
0.070440464 -0.58761054 0.10390442
0.073498808 -0.58756262 0.10386254
0.06556616 -0.58284855 0.10326485
0.057510212 -0.57278597 0.10311107
0.05518372 -0.56744099 0.10354263
0.049804185 -0.56285554 0.10357859
0.038959641 -0.55375195 0.10398338
0.030057173 -0.54614735 0.1035691
0.037625935 -0.54612577 0.10353617
0.029066382 -0.54239732 0.1035428
0.028758423 -0.53865027 0.10360948
0.019778855 -0.53556287 0.1031856
0.028042687 -0.53496897 0.10381059
0.019124204 -0.53186947 0.10347641
0.018464835 -0.52878004 0.10306266
0.13361381 -0.66102791 0.10465817
0.11715779 -0.64237964 0.1046323
0.11121497 -0.63432258 0.1043728
0.095482923 -0.61905736 0.10410467
0.089333095 -0.61117864 0.1047212
0.073027402 -0.59305215 0.10409553
0.068360843 -0.58688033 0.10451276
0.047379073 -0.55766982 0.10443048
0.041958302 -0.55308485 0.1046625
0.038883857 -0.54925919 0.10438795
0.024206484 -0.54179525 0.1042899
0.15134247 -0.68151259 0.10532869
0.139259 -0.67004091 0.10546323
0.12368341 -0.64968014 0.10559355
0.11535338 -0.64079243 0.10550626
0.098150074 -0.62396711 0.10587128
0.091159396 -0.61751288 0.10508881
0.078367092 -0.59780997 0.10502101
0.063013904 -0.5916025 0.10528243
0.059274234 -0.57461286 0.10590847
0.042988535 -0.56082994 0.10556323
0.04260302 -0.55625445 0.10570738
0.033960111 -0.55241716 0.10532568
0.033692282 -0.5486064 0.10508105
0.14778922 -0.6782611 0.10695431
0.12757286 -0.65702724 0.10692621
0.12974527 -0.6578114 0.1064142
0.12143846 -0.6489104 0.10604701
0.11364811 -0.63924515 0.10654598
0.10487181 -0.6311751 0.10628343
0.10741565 -0.63120908 0.10632525
0.10107752 -0.62321508 0.10636257
0.094617762 -0.6159296 0.10611122
0.067119919 -0.58394325 0.10686085
0.061695114 -0.5792712 0.10629646
0.05940311 -0.57857645 0.1069568
0.051491424 -0.56923234 0.10620429
0.046320908 -0.56855452 0.10687024
0.043613456 -0.56402338 0.10683525
0.046213731 -0.564008 0.10680588
0.051464543 -0.56465739 0.10611881
0.037920121 -0.56009221 0.10618079
0.15718928 -0.68973136 0.10712364
0.1379586 -0.66678089 0.10712481
0.12013796 -0.646487 0.10741574
0.11752151 -0.64570534 0.10785921
0.07173413 -0.59482628 0.10726414
0.074584648 -0.59411824 0.10784341
0.054299355 -0.57780635 0.10747886
0.054654889 -0.57243675 0.10767496
0.15082134 -0.68646675 0.10872392
0.14393902 -0.6749872 0.10858503
0.13410689 -0.66433311 0.10834545
0.10099176 -0.62807155 0.10824385
0.090513423 -0.61290336 0.10819987
0.07963077 -0.59954 0.10825604
0.062618069 -0.58173317 0.10859592
0.049736723 -0.57634819 0.10863349
0.16101867 -0.69708592 0.10955908
0.14693113 -0.68401891 0.10992461
0.12405999 -0.65296865 0.10903047
0.074314244 -0.60432047 0.10947556
0.082002714 -0.60435247 0.10952496
0.074827023 -0.59809113 0.10941381
0.06301669 -0.58639503 0.10923267
0.057780627 -0.58569211 0.10983966
0.14049637 -0.67170095 0.1101586
0.13016559 -0.66112709 0.11009307
0.086966917 -0.60984844 0.1103434
0.15708847 -0.69383401 0.11109638
0.14344732 -0.68072712 0.11143426
0.11057176 -0.63933736 0.11152077
0.092463657 -0.62327814 0.11103394
0.08145421 -0.61462122 0.11181037
0.082098246 -0.6083383 0.11137438
0.070214428 -0.60131425 0.11162537
0.065550245 -0.59507602 0.11156876
0.15328005 -0.69136292 0.11223521
0.13872871 -0.67907137 0.11225217
0.10630029 -0.63690889 0.11280679
0.095858052 -0.62173355 0.11202388
0.077798918 -0.60679519 0.11239037
0.13483708 -0.6766035 0.11334746
0.084306411 -0.61860305 0.11397376
