# .PCD v0.7 - Point Cloud Data file format
VERSION 0.7
FIELDS x y z
SIZE 4 4 4
TYPE F F F
COUNT 1 1 1
WIDTH 1381
HEIGHT 1
VIEWPOINT 0 0 0 1 0 0 0
POINTS 1381
DATA ascii
0.41192833 -2.3416231 3.167722
0.43700591 -2.293546 3.3100035
0.43307152 -2.1411157 3.2876194
0.42624199 -1.9873991 3.2488115
0.42255184 -1.8508152 3.227828
0.42020646 -1.7237211 3.2144816
0.41774029 -1.6011711 3.2004547
0.4165203 -1.4856265 3.1935031
0.41984695 -1.3276234 3.2123411
0.41943157 -1.2199585 3.2099617
0.42186865 -1.118251 3.223768
0.40510106 -0.99569446 3.1286187
0.3811298 -0.87492156 2.992609
0.41902524 -0.80882555 3.2075827
0.39817652 -0.69851053 3.0892956
0.40851524 -0.60664386 3.147933
0.40441597 -0.50951082 3.1246676
0.40302855 -0.41387194 3.1167867
-0.016256215 -0.41655213 0.73872137
-0.015891472 -0.40468752 0.74085802
-0.025810115 -0.40023291 0.68470967
-0.028286347 -0.38942763 0.6707716
-0.030334905 -0.3789503 0.65925974
-0.031198224 -0.37133589 0.65443438
-0.031935036 -0.35874018 0.6503613
-0.032439511 -0.35029826 0.64757067
-0.032844234 -0.34145975 0.64534551
-0.032856856 -0.33114442 0.64534312
-0.03309558 -0.31568107 0.64409286
-0.032253932 -0.30674785 0.64889807
-0.031237515 -0.28410873 0.65476084
-0.022828341 -0.17738667 0.70267737
-0.02601538 -0.17641576 0.6846773
-0.027898241 -0.16806167 0.67406815
-0.029279092 -0.15622532 0.6663034
-0.031314582 -0.13722786 0.65485817
-0.031859621 -0.11676402 0.6518265
0.11975829 1.7061802 1.5104589
0.099146716 1.6527766 1.3936713
0.088397525 1.7153544 1.33272
0.060007829 1.5203506 1.1719421
0.047681525 1.5419129 1.1020826
0.034389276 1.5446862 1.0267612
0.021661034 1.5542455 0.95463282
0.0027271667 1.5670359 0.8473407
-0.010167705 1.5631224 0.77427953
-0.022972332 1.5545431 0.70173448
-0.035487488 1.5492803 0.63082838
-0.047768626 1.5504435 0.56124377
-0.059988391 1.5541278 0.49200508
-0.072222188 1.5633565 0.42268169
-0.08452379 1.5651209 0.35298049
-0.10297482 1.5606312 0.24844299
-0.11587558 1.5839936 0.17532343
-0.1277732 1.5562029 0.1079407
-0.14083903 1.5693424 0.033894118
-0.1534308 1.562122 -0.037444863
-0.16651124 1.5629361 -0.11156315
-0.17888997 1.5456389 -0.18168458
-0.18779142 1.4691043 -0.23202772
-0.10405445 -0.073743194 0.24459888
-0.10482693 -0.098112203 0.24031809
-0.10601654 -0.11529335 0.23366469
-0.10739549 -0.12906173 0.22593409
-0.10893238 -0.14043175 0.21730548
-0.11057326 -0.15036468 0.2080856
-0.11255575 -0.15736222 0.19692536
-0.11584616 -0.16594908 0.17838693
-0.11878739 -0.16735679 0.16178326
-0.12332916 -0.16023868 0.13609305
-0.14822394 -0.056534979 -0.005095013
-0.14842308 -0.083095789 -0.0061218073
-0.14839488 -0.10922231 -0.0058594616
-0.14828347 -0.13425419 -0.0051260935
-0.14838979 -0.15707235 -0.0056297476
-0.14860471 -0.17842902 -0.0067508514
-0.14944567 -0.20714112 -0.011377046
-0.14927194 -0.22784412 -0.010294189
-0.14909853 -0.24771568 -0.0092139663
-0.14909625 -0.2664071 -0.0091055017
-0.14896175 -0.28482622 -0.0082472833
-0.1490245 -0.30225903 -0.008508808
-0.14880465 -0.31980145 -0.0071672662
-0.14896674 -0.33622512 -0.0079933209
-0.14902294 -0.35253322 -0.0082187736
-0.14880504 -0.36891124 -0.0068893945
-0.14899507 -0.3845399 -0.0078746611
-0.1489165 -0.40026423 -0.0073362328
-0.14891312 -0.41575143 -0.0072245221
-0.14898801 -0.43108594 -0.0075570024
-0.14918599 -0.45399493 -0.0085416147
-0.1492022 -0.46928307 -0.0085412925
-0.14929916 -0.48461428 -0.0089990515
-0.14930275 -0.49998719 -0.0089271497
-0.14921258 -0.51538289 -0.0083233844
-0.14932841 -0.53891176 -0.0088415248
-0.14916976 -0.55457467 -0.0078490889
-0.13818125 -0.56180108 0.05460652
-0.14034408 -0.58709878 0.042478368
-0.14037496 -0.60220802 0.042395145
-0.14046445 -0.61784858 0.041979857
-0.14968094 -0.66660714 -0.010139085
-0.14964679 -0.68545443 -0.0098501435
-0.15023533 -0.7069506 -0.013091129
-0.15005837 -0.72688144 -0.011991336
-0.15075172 -0.75084001 -0.015824752
-0.15039152 -0.77194142 -0.013684577
-0.14981814 -0.80517548 -0.010285195
-0.15010192 -0.83188188 -0.011793035
-0.15015222 -0.85909963 -0.011976195
-0.15058824 -0.89024013 -0.014343758
-0.14957526 -0.9311648 -0.0084443614
-0.32680637 -2.3268518 -1.0123613
-0.32200631 -2.5029571 -0.98486388
-0.3214376 -2.6572695 -0.98142648
-0.32251069 -2.8445544 -0.98727351
-0.29639274 -2.7732499 -0.83910626
-0.24125139 -2.7315962 -0.52612591
-0.22529398 -2.7320991 -0.43553108
-0.080969743 -2.7232914 0.38390201
-0.067287304 -2.7192922 0.46158844
-0.053545065 -2.7255299 0.5396229
-0.039958343 -2.7130373 0.61675912
-0.033028383 -2.7162185 0.6561476
-0.012535186 -2.703691 0.77249098
0.0018585905 -2.7154553 0.85422045
0.31600052 -8.8690748 2.6414211
0.42333838 -6.3442755 3.2483749
0.42987353 -5.9279985 3.2851577
0.42350826 -5.4317904 3.2487118
0.44716802 -5.2718019 3.3828402
0.44700456 -4.9160938 3.3816922
0.43749076 -4.5213223 3.3274841
0.43380168 -4.209455 3.3063834
0.40067458 -3.7234917 3.1181827
0.4318746 -3.7010467 3.2952011
0.44246116 -3.4393075 3.3551574
0.43658733 -3.2067249 3.3217413
0.43182594 -2.9966946 3.2946551
0.43163943 -2.8222642 3.2935462
0.43246821 -2.6619201 3.2982085
0.43113288 -2.5007501 3.2905982
0.42207444 -2.3189049 3.2391703
0.43019712 -2.2081821 3.2852457
0.42362064 -2.0518639 3.2479181
0.41841325 -1.9081028 3.2183669
0.41977665 -1.7290822 3.2261064
0.41733444 -1.6061149 3.2122583
0.41613594 -1.4901471 3.2054713
0.41496569 -1.37762 3.1988485
0.41537383 -1.2706904 3.2011838
0.41694075 -1.1673824 3.2100956
0.41972369 -1.0667207 3.2259083
0.37606683 -0.91925609 2.9782863
0.41792834 -0.86029148 3.2157826
0.4116998 -0.70669538 3.1805029
0.4073334 -0.60714275 3.1557727
0.40322718 -0.50973064 3.1325214
0.40096316 -0.41390026 3.1197214
-0.01873826 -0.42215744 0.73943281
-0.018170819 -0.40433946 0.74278283
-0.018737808 -0.39324045 0.73965514
-0.030529557 -0.3935723 0.6729123
-0.031981066 -0.38650203 0.66476971
-0.033675294 -0.37097436 0.65534073
-0.03412525 -0.36724055 0.65283388
-0.034747805 -0.35429639 0.64943826
-0.035648689 -0.34192613 0.64446455
-0.035265967 -0.33559099 0.64668
-0.035176698 -0.32464147 0.64727634
-0.035348166 -0.30842283 0.64643931
-0.034490179 -0.29294753 0.65139478
-0.02736011 -0.1782238 0.69227463
-0.030367019 -0.16655178 0.67535961
-0.031052897 -0.16058768 0.67151552
-0.03314162 -0.14218864 0.65980721
-0.03392376 -0.12415215 0.65546232
-0.035253502 -0.10940097 0.64801264
0.12379692 1.6909494 1.5499797
0.1069585 1.6864443 1.4545876
0.085736126 1.7190065 1.3343796
0.057961501 1.5333977 1.1769927
0.044811066 1.5428382 1.1025151
0.031912472 1.5532758 1.0294662
0.01871925 1.5542315 0.95474797
0.0059584915 1.5601649 0.88248217
-0.0069915578 1.5565755 0.80914432
-0.019744277 1.5522493 0.7369259
-0.032128025 1.5562019 0.66679943
-0.05068627 1.5554346 0.56170946
-0.062919267 1.5631288 0.49243829
-0.07521598 1.5593659 0.42280704
-0.08751861 1.5641342 0.35314178
-0.099746004 1.5554466 0.28390434
-0.1124997 1.57814 0.21168029
-0.12456755 1.5575352 0.14334863
-0.13733551 1.5641316 0.071045123
-0.15639198 1.5602052 -0.036867768
-0.16915351 1.5542779 -0.10913393
-0.18189053 1.544722 -0.18126105
-0.19236434 1.4946754 -0.24055219
-0.10738485 -0.067381129 0.24169794
-0.10675646 -0.092220761 0.24530947
-0.10900174 -0.11352573 0.23271914
-0.11030288 -0.12818584 0.22543529
-0.11184639 -0.13957387 0.2167768
-0.11349402 -0.14952587 0.20752782
-0.1153791 -0.15734202 0.19693205
-0.1175435 -0.16319737 0.18475221
-0.12025466 -0.16577436 0.16947176
-0.12507862 -0.16668957 0.14225686
-0.15184695 -0.052411579 -0.009399469
-0.15180707 -0.080440171 -0.0090798326
-0.15179318 -0.10667354 -0.0089079114
-0.15211159 -0.1300099 -0.01062055
-0.15181527 -0.15474644 -0.0088474452
-0.15189749 -0.17676343 -0.0092212316
-0.15180765 -0.19842504 -0.008619504
-0.15170208 -0.2192045 -0.007928743
-0.15174875 -0.23869979 -0.0081015537
-0.15149592 -0.25832963 -0.0065761325
-0.15157914 -0.27640224 -0.0069566262
-0.15169898 -0.29389235 -0.0075449734
-0.15137188 -0.31184712 -0.0055990387
-0.15215299 -0.33564165 -0.0098924199
-0.1520436 -0.35225907 -0.0091815721
-0.15199657 -0.36846316 -0.0088246632
-0.15184672 -0.38450769 -0.0078848014
-0.15193982 -0.40009272 -0.0083230119
-0.15193692 -0.41561455 -0.0082169082
-0.15201208 -0.43098375 -0.0085538635
-0.15199369 -0.44632068 -0.0083605424
-0.15205589 -0.46160644 -0.0086244699
-0.15197538 -0.48452932 -0.0080351131
-0.1521519 -0.49995446 -0.0089482116
-0.15240589 -0.51559377 -0.010300902
-0.15221936 -0.53106242 -0.0091555603
-0.15210855 -0.5467062 -0.0084400056
-0.15325393 -0.56418246 -0.014849635
-0.1214052 -0.53149748 0.1658774
-0.14346392 -0.59509081 0.040936965
-0.14343995 -0.6103304 0.041158881
-0.14267294 -0.62415195 0.045595005
-0.15267529 -0.67640561 -0.011015253
-0.15302837 -0.69680864 -0.012935173
-0.15367623 -0.71910298 -0.016528158
-0.15270847 -0.74753851 -0.010916457
-0.15321936 -0.77190751 -0.013734542
-0.15297055 -0.79440624 -0.012243896
-0.15361996 -0.82220268 -0.015850175
-0.15349841 -0.84802073 -0.015083829
-0.15264985 -0.88603824 -0.010156362
-0.15619498 -0.93780333 -0.030199274
-0.32655123 -2.4452384 -0.99680912
-0.32700056 -2.602103 -0.99937195
-0.32868779 -2.7877226 -1.0089747
-0.30481577 -2.7409148 -0.87349367
-0.26199374 -2.7545118 -0.63047254
-0.24392806 -2.7352073 -0.52793598
-0.22844091 -2.7432373 -0.44003996
-0.076482058 -2.7266324 0.42248806
-0.062786445 -2.722261 0.50023007
-0.049107481 -2.7181349 0.57787728
-0.035383344 -2.7152381 0.65574682
-0.021421909 -2.7194691 0.73497581
-0.00784426 -2.7050567 0.81204289
0.24945165 -4.8811312 2.2696381
0.41084662 -6.4752169 3.1835325
0.41736716 -6.0395694 3.2209089
0.4251374 -5.6702332 3.2653217
0.43873543 -5.3974495 3.3427029
0.44435477 -4.9071836 3.3750572
0.44612524 -4.6032438 3.3854094
0.44220001 -4.2845244 3.3634822
0.41843352 -3.8585148 3.2291474
0.4281109 -3.689357 3.284229
0.43599093 -3.5183587 3.329123
0.42879826 -3.2724688 3.2886198
0.42431793 -3.0594442 3.2634699
0.42482013 -2.8851895 3.2665408
0.43321228 -2.6747594 3.3144193
0.4348993 -2.5250416 3.3241918
0.41427484 -2.2984004 3.2075248
0.4329741 -2.225893 3.3136947
0.42524293 -2.0646653 3.2700803
0.42007127 -1.9201001 3.2409658
0.41645393 -1.7867899 3.2206564
0.41439983 -1.6629888 3.209204
0.41080943 -1.5402093 3.1890409
0.41345522 -1.3796631 3.2043178
0.41317925 -1.27143 3.2029393
0.41539809 -1.1690227 3.2157032
0.41731521 -1.0671176 3.2267578
0.37532046 -0.92133886 2.9888597
0.41873783 -0.86326402 3.2351973
0.41012779 -0.75686443 3.186568
0.40517721 -0.65615505 3.1586857
0.40238479 -0.55834466 3.1430395
0.3989107 -0.41400975 3.1236231
-0.021244531 -0.42193323 0.74136984
-0.021878973 -0.41097763 0.73786622
-0.021554664 -0.39907733 0.73980051
-0.032712016 -0.39255226 0.67670339
-0.034271464 -0.39026609 0.66790408
-0.036367025 -0.37062979 0.65624899
-0.03760213 -0.35430971 0.64942908
-0.038138483 -0.34588695 0.64648014
-0.038043655 -0.34053096 0.64706564
-0.038330302 -0.32568452 0.6455822
-0.03817565 -0.31405756 0.64655626
-0.038051277 -0.29589948 0.6474086
-0.036908615 -0.2781885 0.65399384
-0.029394731 -0.17320485 0.69707441
-0.032117754 -0.1696028 0.68172222
-0.03382102 -0.15983634 0.67216116
-0.036023617 -0.14220253 0.65982187
-0.036908224 -0.12498485 0.65491402
-0.037668817 -0.105221 0.65071338
0.12054237 1.6917633 1.5506518
0.10589903 1.713344 1.4677523
0.089337379 1.7070284 1.373935
0.060308158 1.5141164 1.2091449
0.047868818 1.5351413 1.1387416
0.03491703 1.545982 1.0654178
0.015495042 1.5561316 0.95545584
0.0027582317 1.5630608 0.88334602
-0.010111454 1.5624423 0.81047142
-0.023007993 1.5542061 0.7374329
-0.035197027 1.5680983 0.66844076
-0.047888327 1.5526543 0.59655493
-0.060073394 1.5645748 0.52758288
-0.072417863 1.5550554 0.45767322
-0.08466316 1.5550625 0.38834122
-0.10313511 1.5604428 0.28376263
-0.11555849 1.5632344 0.21342598
-0.12784928 1.5555712 0.14382434
-0.14054774 1.5602131 0.071931489
-0.15347025 1.5651321 -0.0012309203
-0.16572295 1.5488706 -0.070630506
-0.17887968 1.5503464 -0.14512633
-0.19172691 1.5413584 -0.21788462
-0.20571911 1.5475048 -0.29710925
-0.10953105 -0.057828054 0.24572484
-0.10998668 -0.08771652 0.24317484
-0.11093827 -0.10843522 0.23782799
-0.11220134 -0.12386359 0.23072393
-0.11368722 -0.13596208 0.22236218
-0.11536034 -0.14574818 0.21294259
-0.11716276 -0.15418392 0.20279211
-0.11922948 -0.16058899 0.19114663
-0.12272753 -0.16802488 0.17142566
-0.12615363 -0.16686922 0.15208605
-0.15368918 -0.043403469 -0.003686754
-0.15399112 -0.070146158 -0.0053622513
-0.15406321 -0.09648402 -0.0057342285
-0.15418488 -0.12112647 -0.0063847541
-0.15396175 -0.14594662 -0.0050810385
-0.15396523 -0.16857015 -0.0050585787
-0.15505029 -0.19685683 -0.011137615
-0.15494579 -0.21772714 -0.010500575
-0.15483847 -0.23776907 -0.0098464396
-0.15458322 -0.25746182 -0.0083531877
-0.15450414 -0.27598912 -0.0078570321
-0.15445694 -0.29387015 -0.0075407382
-0.15461557 -0.31084812 -0.0083899414
-0.15466179 -0.32767981 -0.0086019738
-0.15442976 -0.3445999 -0.0072367922
-0.15476379 -0.36035785 -0.009079094
-0.15448783 -0.3766759 -0.0074643875
-0.15465397 -0.40007117 -0.0083295014
-0.15602674 -0.41475597 -0.016060056
-0.15471321 -0.43096238 -0.0085634291
-0.15468834 -0.44629943 -0.0083716298
-0.15470707 -0.47687119 -0.0083770147
-0.15475065 -0.49220821 -0.008574184
-0.1547067 -0.5308854 -0.0082022194
-0.15500262 -0.5390318 -0.0098565174
-0.15507181 -0.57934707 -0.010131703
-0.14886706 -0.57735616 0.025091253
-0.14576314 -0.59442222 0.042773422
-0.14589888 -0.60995454 0.042050894
-0.14592662 -0.6256972 0.041939922
-0.15496269 -0.67550915 -0.0092782071
-0.15531342 -0.69585001 -0.011231274
-0.15568957 -0.73820114 -0.013297751
-0.15497042 -0.79198003 -0.0091421055
-0.15697254 -0.82595861 -0.020490056
-0.15577114 -0.84668946 -0.013646804
-0.15568021 -0.87419182 -0.013114851
-0.16049443 -0.93180549 -0.040460721
-0.15472794 -0.9468568 -0.0076861866
-0.15508921 -0.98479128 -0.0097435545
-0.33151674 -2.3957572 -1.0130935
-0.32616255 -2.5771692 -0.98305738
-0.32620493 -2.7461064 -0.98362392
-0.31877288 -2.8603599 -0.9416917
-0.27121642 -2.7390456 -0.67167175
-0.23777226 -2.7340519 -0.48193055
-0.078402944 -2.7286348 0.42225927
-0.064670905 -2.7272635 0.50017262
-0.050906599 -2.7271221 0.57826561
-0.023356466 -2.7184951 0.73461217
-0.0094905747 -2.713939 0.81335711
0.23601164 -4.932735 2.2007406
0.41188666 -5.9906716 3.1958435
0.42812616 -5.7140784 3.2887378
0.42680016 -4.9362926 3.283345
0.4347626 -4.6781659 3.3292375
0.43279338 -4.3657188 3.318933
0.43065682 -4.0803781 3.3076088
0.41837516 -3.6389215 3.2391698
0.44343621 -3.5738583 3.3815458
0.43337736 -3.3086967 3.3252292
0.42892537 -3.0936737 3.3005857
0.42611796 -2.9013596 3.2852108
0.42504954 -2.7288449 3.2796471
0.42646599 -2.5762432 3.2881248
0.4028725 -2.3335817 3.1549807
0.42847049 -2.2880816 3.3003321
0.42619607 -2.0749393 3.2880487
0.42027646 -1.9274544 3.2548976
0.41745949 -1.7957538 3.2393014
0.41303009 -1.6654189 3.2145555
0.41169924 -1.5474621 3.2073491
0.41086432 -1.434111 3.2029417
0.40942961 -1.3227053 3.1951256
0.41077635 -1.2184914 3.2030625
0.41315347 -1.1170218 3.2168329
0.37038678 -0.96567088 2.9747267
0.41626042 -0.86334032 3.2351632
0.40918902 -0.75787991 3.1953545
0.39660445 -0.65378118 3.1242795
0.40073195 -0.55858976 3.147943
0.39716104 -0.46195012 3.1279552
-0.023345532 -0.42738402 0.74395698
-0.024446921 -0.41098368 0.73786175
-0.024123484 -0.39908317 0.73979664
-0.034778636 -0.39178011 0.67955393
-0.036674455 -0.38999423 0.66884756
-0.037812099 -0.38255075 0.66248941
-0.039549805 -0.36725685 0.65282106
-0.040173005 -0.35431212 0.64942741
-0.04051248 -0.35031062 0.64754862
-0.040995654 -0.33657554 0.64494914
-0.04104976 -0.32620123 0.64473718
-0.041037221 -0.31514826 0.64490372
-0.040543437 -0.30162856 0.64780217
-0.039888319 -0.28003651 0.65166569
-0.030996429 -0.16745196 0.70254964
-0.034334011 -0.16737434 0.68370086
-0.036272556 -0.15907075 0.67279565
-0.037721552 -0.14724101 0.66467053
-0.03875098 -0.13157757 0.65892881
-0.039337553 -0.11097313 0.65570372
0.10283688 1.7061452 1.4643027
0.081395969 1.6357684 1.3426837
0.067662418 1.6541106 1.2648705
0.046263993 1.548293 1.1434562
0.033189345 1.5583432 1.0693705
0.019433625 1.5511899 0.99140364
0.0066174818 1.5575016 0.91877854
-0.0060798288 1.5630896 0.84682584
-0.018977314 1.5581732 0.77372688
-0.037770744 1.5581759 0.66721982
-0.05025759 1.5516616 0.59644711
-0.062791236 1.522637 0.52538794
-0.074726693 1.5630592 0.45778462
-0.087006107 1.562067 0.388192
-0.099320844 1.5646024 0.31840166
-0.11165796 1.5636544 0.24848092
-0.12389906 1.5552521 0.17909794
-0.13645741 1.5582287 0.10792496
-0.15576184 1.5661178 -0.0014806918
-0.16839001 1.5585815 -0.073059298
-0.18072931 1.5426638 -0.14300621
-0.19330432 1.5299532 -0.21428731
-0.20685719 1.5305971 -0.29110461
-0.11287345 -0.046858486 0.24091005
-0.11278865 -0.084114626 0.24143955
-0.11259244 -0.1025326 0.2425773
-0.1148751 -0.12212484 0.22973096
-0.11618755 -0.1359555 0.22235389
-0.11786065 -0.14574158 0.21293433
-0.11956068 -0.15498643 0.2033626
-0.12162187 -0.1613705 0.19174449
-0.12409922 -0.1651419 0.17776772
-0.12805645 -0.1705199 0.15543483
-0.15696885 -0.067463525 -0.0083045326
-0.15679486 -0.095192619 -0.0072571924
-0.15692814 -0.11988936 -0.0079502231
-0.15671663 -0.14476536 -0.0066869315
-0.15673101 -0.16744612 -0.0067030997
-0.15715432 -0.1876131 -0.0090366676
-0.1568256 -0.20958158 -0.0071049966
-0.15693925 -0.22919309 -0.0076806988
-0.15690936 -0.24853317 -0.0074414909
-0.15673938 -0.26756826 -0.0064069359
-0.15691601 -0.28514186 -0.0073370123
-0.15691301 -0.31974277 -0.0071747503
-0.15711179 -0.34433645 -0.0081912735
-0.1570103 -0.37667155 -0.0074656
-0.15714933 -0.39228103 -0.0081780907
-0.15713942 -0.42332014 -0.0079681035
-0.15716559 -0.43865836 -0.0080388039
-0.15725885 -0.47686747 -0.0083708856
-0.15730745 -0.49220455 -0.0085667865
-0.15729605 -0.52309602 -0.0083409902
-0.15757558 -0.53902841 -0.0098450305
-0.13736583 -0.54803836 0.10498839
-0.14858088 -0.58735639 0.041503172
-0.14860867 -0.60249871 0.041429687
-0.14837296 -0.61742294 0.042851388
-0.15821896 -0.66781878 -0.012863459
-0.15863989 -0.68812209 -0.01516367
-0.15790252 -0.7366094 -0.010760075
-0.15807694 -0.75907183 -0.011658967
-0.15821064 -0.78251189 -0.012325785
-0.15829355 -0.83246958 -0.012609532
-0.15852654 -0.87487203 -0.013787193
-0.15795708 -0.90140176 -0.010460427
-0.15881619 -0.93842345 -0.015232111
-0.15920167 -0.9755379 -0.017315913
-0.33202916 -2.3742185 -0.99689454
-0.33306718 -2.5282068 -1.002604
-0.33423313 -2.6998975 -1.0090256
-0.33414617 -2.879555 -1.00833
-0.29824165 -2.8048484 -0.80451936
-0.25870833 -2.7481315 -0.58005702
-0.089063056 -2.7252731 0.3836543
-0.075353816 -2.7292795 0.46154907
-0.061639942 -2.7265239 0.53946555
-0.047965799 -2.7200127 0.61715406
-0.034191255 -2.7177038 0.69537604
0.22923629 -4.9094815 2.1921391
0.40319613 -6.2033644 3.1801515
0.40741614 -5.7736821 3.203841
0.41988525 -5.4778938 3.2744315
0.40385038 -4.9480405 3.1831465
0.43727964 -4.7403131 3.3727543
0.42928052 -4.3759894 3.3271866
0.42725328 -4.0895925 3.3155568
0.40295213 -3.6799438 3.1774802
0.43421793 -3.6549673 3.3549156
0.42785877 -3.40273 3.318742
0.42011774 -3.1625819 3.2747395
0.41849765 -2.9712925 3.2654979
0.41788957 -2.7966444 3.2620103
0.42507938 -2.5867119 3.3027802
0.39923549 -2.3340328 3.1560793
0.42852855 -2.301748 3.3223236
0.42027754 -2.1343637 3.2754884
0.41600597 -1.9890518 3.2512448
0.4113827 -1.8497409 3.2250113
0.40838996 -1.7211124 3.2080359
0.40654528 -1.6002835 3.1975796
0.40899301 -1.4369308 3.2114918
0.40696281 -1.3240566 3.1999905
0.40869945 -1.2201923 3.2098646
0.41096154 -1.11826 3.2227218
0.3894169 -0.99038309 3.1005092
0.37123966 -0.87591517 2.9974093
0.40826979 -0.80905521 3.2075267
0.38879994 -0.69942641 3.0970986
0.39896202 -0.60723305 3.1547806
0.39458165 -0.46184069 3.1299789
0.39341855 -0.36607525 3.1234138
-0.025547594 -0.42705148 0.74690968
-0.027011238 -0.41655764 0.73869699
-0.026839167 -0.39906445 0.73980767
-0.038834181 -0.39383391 0.67195296
-0.040118124 -0.38650441 0.66476196
-0.041046657 -0.37408638 0.65963274
-0.042101756 -0.36686763 0.65374011
-0.042243347 -0.36239734 0.65298277
-0.043224998 -0.35029638 0.64755255
-0.043112297 -0.34496716 0.64823729
-0.043649603 -0.33114251 0.64532679
-0.043893848 -0.31567916 0.64407796
-0.043198258 -0.30730549 0.64806753
-0.042876065 -0.28771833 0.65002954
-0.016421385 -0.091401048 0.8003251
-0.035658237 -0.16910446 0.69139159
-0.03781762 -0.16202536 0.6792354
-0.039458018 -0.15156315 0.67002136
-0.041542444 -0.13237365 0.65833223
-0.042315796 -0.1134475 0.65403187
0.10841464 1.70166 1.5083808
0.08378949 1.598344 1.3688487
0.077306531 1.713462 1.3321069
0.050679974 1.5445842 1.1812587
0.036672831 1.540934 1.1019022
0.017331343 1.5550604 0.9923256
0.0044041071 1.5594643 0.91909063
-0.0083088409 1.5650653 0.84707063
-0.021436609 1.5532652 0.77270722
-0.03369857 1.5644418 0.70324236
-0.04625833 1.5602211 0.63209683
-0.058718849 1.5524447 0.56151617
-0.070910715 1.5631332 0.49244919
-0.083203413 1.5633721 0.42281598
-0.10160208 1.5576079 0.31859854
-0.11382806 1.5516927 0.24934709
-0.12581548 1.534398 0.18145506
-0.13901076 1.5651288 0.10668461
-0.15186964 1.5703652 0.033836488
-0.16446985 1.5631423 -0.037537571
-0.1769314 1.5504292 -0.1081221
-0.18943898 1.5370868 -0.17896767
-0.19912484 1.3698741 -0.23367313
-0.11477531 -0.076436915 0.24585059
-0.11561216 -0.099868923 0.24121355
-0.11670932 -0.11789175 0.23509687
-0.11816433 -0.13075034 0.22694734
-0.11969352 -0.14208305 0.21837611
-0.12142649 -0.15115744 0.20864762
-0.12432928 -0.16217117 0.19233266
-0.12669435 -0.16668749 0.17901583
-0.1295179 -0.16881472 0.16309685
-0.13417463 -0.16092829 0.13677323
-0.16042376 -0.064140201 -0.011989985
-0.16027834 -0.092001155 -0.01105326
-0.16030191 -0.11744944 -0.011076574
-0.15940212 -0.13361543 -0.0059152367
-0.16014852 -0.16523245 -0.0099874772
-0.16029742 -0.18657674 -0.010724151
-0.1599547 -0.22874747 -0.0085644405
-0.15993387 -0.24811883 -0.0083394842
-0.1597726 -0.26718575 -0.0073181069
-0.15979642 -0.28516635 -0.0073473388
-0.15969607 -0.30290893 -0.0066723302
-0.15996966 -0.31945857 -0.0081193903
-0.15963517 -0.336743 -0.0061165639
-0.15981157 -0.36887845 -0.0069080624
-0.16006359 -0.39230683 -0.0081814975
-0.16006294 -0.42334634 -0.0079696476
-0.16009355 -0.43868476 -0.0080394549
-0.15951028 -0.45403394 -0.0046268567
-0.1603965 -0.46926984 -0.0095508313
-0.16032204 -0.48458394 -0.0090247868
-0.16015482 -0.49987009 -0.0079727182
-0.16041203 -0.51547509 -0.0093283486
-0.16018766 -0.53870898 -0.0079005323
-0.16020206 -0.55454594 -0.0078788092
-0.14200799 -0.55064881 0.095481336
-0.15174541 -0.58031529 0.040348962
-0.15141751 -0.60218304 0.042363126
-0.15134802 -0.61744934 0.042860094
-0.16859359 -0.68770915 -0.054803059
-0.16069303 -0.68542814 -0.0098869
-0.16113113 -0.70643973 -0.012267681
-0.16125649 -0.72737068 -0.012874435
-0.16180217 -0.75081444 -0.01586492
-0.16064118 -0.78019136 -0.0091229621
-0.16100904 -0.80576664 -0.011104125
-0.16128996 -0.83250046 -0.012591739
-0.16189452 -0.89160579 -0.015807806
-0.16086997 -0.93260461 -0.0098367855
-0.33837843 -2.3315165 -1.0161289
-0.33322534 -2.5053532 -0.98669666
-0.33291501 -2.6622412 -0.98479068
-0.33376491 -2.8479235 -0.98945779
-0.30957422 -2.7968111 -0.85214812
-0.09195777 -2.7292876 0.38366786
-0.078243323 -2.7252915 0.46156186
-0.064522348 -2.7255328 0.53949422
-0.050774951 -2.7240007 0.61757606
-0.037094127 -2.715718 0.6952123
-0.023345036 -2.7096279 0.77328795
-0.0090821646 -2.71645 0.85428202
0.40719721 -6.2805438 3.2174573
0.41615844 -5.8962965 3.2682683
0.41762552 -5.4812374 3.2765555
0.42455029 -5.1633353 3.3158324
0.43039864 -4.8672638 3.3490083
0.42229292 -4.4874249 3.3029978
0.41997656 -4.1882596 3.2898536
0.39893645 -3.6715319 3.1704662
0.43370068 -3.6687472 3.3677683
0.4286311 -3.4231236 3.3390198
0.42200857 -3.1877065 3.3014636
0.41842815 -2.9849617 3.2811751
0.41788864 -2.8097534 3.278146
0.41987836 -2.6553757 3.2894714
0.411953 -2.4681287 3.2445376
0.41186085 -2.3222458 3.2440543
0.4165723 -2.1994989 3.2708297
0.41434205 -1.9927073 3.2582402
0.41082388 -1.8562187 3.2383235
0.4064346 -1.7234565 3.2134657
0.40540147 -1.6043097 3.2076519
0.40402347 -1.488162 3.1998825
0.40481725 -1.3795408 3.2044365
0.40423015 -1.2707562 3.2011561
0.40596089 -1.1676896 3.2110271
0.41100594 -1.0177809 3.2397289
0.36880222 -0.87630415 3.0003371
0.40772498 -0.81067538 3.2212198
0.40071034 -0.70684403 3.1814761
0.3975563 -0.60762197 3.163636
0.39327702 -0.50991213 3.1394122
0.39101171 -0.41383645 3.1266153
-0.029940758 -0.41655672 0.73869121
-0.029235223 -0.40434512 0.74276847
-0.029799664 -0.39324594 0.73964107
-0.041249208 -0.39305878 0.67480028
-0.042943694 -0.38160998 0.66530037
-0.044559658 -0.37061951 0.65624607
-0.045462925 -0.35833362 0.65123481
-0.045788679 -0.3542996 0.64942449
-0.046531998 -0.34145972 0.64532059
-0.046695862 -0.33164442 0.6444661
-0.046637096 -0.32068592 0.64487439
-0.046853513 -0.30448449 0.64375901
-0.046317346 -0.29012731 0.64687496
-0.037825212 -0.16471751 0.69541204
-0.040463969 -0.16051725 0.68051803
-0.042219881 -0.15078747 0.67063141
-0.043411423 -0.13660088 0.66394562
-0.045374379 -0.11510727 0.65292037
0.089409932 1.7043908 1.4175292
0.074607797 1.7171545 1.3336264
0.047976103 1.5483258 1.1826521
0.034347892 1.55134 1.1054115
0.020543128 1.5456188 1.0271713
0.0077655776 1.554226 0.95475531
-0.0049858852 1.5601605 0.88248795
-0.017993039 1.5546087 0.80877256
-0.036762096 1.558499 0.70240426
-0.048988931 1.5701641 0.63311172
-0.061491705 1.5634148 0.56225783
-0.073867403 1.5541347 0.49212545
-0.086100154 1.5533675 0.42280197
-0.098386891 1.5631369 0.35316971
-0.11062314 1.5564471 0.28382757
-0.12351724 1.5870941 0.21074456
-0.13541335 1.5575393 0.14333719
-0.15433899 1.5585775 0.036079988
-0.16733013 1.563134 -0.037547965
-0.17960592 1.5465567 -0.10711268
-0.19213465 1.5342089 -0.17811346
-0.20524828 1.5296675 -0.25243461
-0.11796764 -0.071003586 0.24334411
-0.11859592 -0.097200319 0.23986281
-0.11962032 -0.11614682 0.2341325
-0.12099203 -0.12989737 0.22643059
-0.122522 -0.1412484 0.21783018
-0.12415623 -0.15116134 0.20863798
-0.12602799 -0.15893646 0.1980976
-0.12828833 -0.16397162 0.18535197
-0.1311046 -0.16577139 0.1694515
-0.13604255 -0.16596715 0.14155202
-0.16292277 -0.05104382 -0.010863177
-0.16262729 -0.080436572 -0.0091031482
-0.16733199 -0.084642299 -0.035717312
-0.1625122 -0.13181208 -0.0082844365
-0.16256481 -0.17730491 -0.0084186019
-0.16261874 -0.19842194 -0.0086427219
-0.16235958 -0.21968639 -0.0070905662
-0.16240153 -0.23915093 -0.0072471956
-0.16293965 -0.28404233 -0.0100977
-0.16217683 -0.29460663 -0.0057289694
-0.16233627 -0.311519 -0.006552794
-0.16278332 -0.335915 -0.0089682424
-0.16267066 -0.3524988 -0.0082483487
-0.1629601 -0.36825302 -0.0098100938
-0.16263883 -0.3845056 -0.0079067592
-0.16255832 -0.40022999 -0.0073695695
-0.16272563 -0.41561267 -0.0082384748
-0.16279913 -0.43098196 -0.0085752169
-0.16282107 -0.45396078 -0.0085792141
-0.16318248 -0.46928376 -0.010549464
-0.16275707 -0.48452792 -0.0080555817
-0.16275918 -0.49986604 -0.007987339
-0.16318461 -0.51559252 -0.010320803
-0.16299683 -0.53106129 -0.0091751274
-0.16305518 -0.54689592 -0.0094259446
-0.16369039 -0.56373173 -0.012949357
-0.15968573 -0.57393277 0.0098507414
-0.15465905 -0.58089465 0.038448889
-0.15423767 -0.59509003 0.040919598
-0.15405054 -0.6099714 0.042061333
-0.16360056 -0.67684364 -0.011916338
-0.16379711 -0.69680846 -0.012950542
-0.16380872 -0.72736269 -0.012894939
-0.1637679 -0.74862778 -0.012582194
-0.16341884 -0.76961356 -0.010520604
-0.16401647 -0.79561007 -0.013829309
-0.16438913 -0.8222031 -0.015861632
-0.16348022 -0.857728 -0.010582418
-0.16367105 -0.8874281 -0.011582439
-0.16407435 -0.92054105 -0.013787339
-0.16439842 -0.95579338 -0.015542364
-0.33837935 -2.3133621 -1.002247
-0.3393735 -2.4606171 -1.0077838
-0.33897164 -2.6112304 -1.0053998
-0.34090266 -2.7996037 -1.0162445
-0.30864677 -2.761797 -0.83312756
-0.25441223 -2.7287703 -0.52519482
-0.23909742 -2.7385752 -0.43822506
-0.087523796 -2.7246301 0.42256239
-0.073750623 -2.7362492 0.50078672
-0.060029771 -2.729104 0.57871085
-0.046387762 -2.7182167 0.65613484
-0.03246716 -2.7204533 0.73519439
-0.01831905 -2.724746 0.81554484
0.30541798 -8.9175005 2.6534731
0.23230162 -4.8056207 2.2382925
0.39229903 -6.3936076 3.1463671
0.40634826 -6.0493312 3.2260971
0.42440349 -5.5731187 3.3285728
0.44263235 -5.3525386 3.4320362
0.42700002 -4.5441389 3.3433743
0.42341563 -4.2316818 3.3230674
0.3951779 -3.7780335 3.1628692
0.41658878 -3.6893141 3.2844079
0.42256263 -3.5068042 3.3183506
0.41834202 -3.2779827 3.2944486
0.41872379 -2.9988189 3.2966905
0.41745415 -2.8192725 3.2895391
0.4197745 -2.6656864 3.3027596
0.4210059 -2.5146706 3.309803
0.40619338 -2.3103397 3.2258139
0.41886553 -2.2160602 3.2977746
0.41156459 -2.0568614 3.2564096
0.4073036 -1.9155139 3.2322948
0.40321353 -1.7812492 3.2091506
0.40517712 -1.6096308 3.2203872
0.40366432 -1.4926847 3.2118685
0.40200558 -1.3789982 3.2025228
0.4025808 -1.2722101 3.2058523
0.40414888 -1.1687331 3.2148156
0.40625307 -1.0670695 3.2268214
0.36362481 -0.92059928 2.985033
0.40616789 -0.86196202 3.2264738
0.39913055 -0.75681597 3.1866157
0.3954058 -0.6078006 3.1655872
0.39147195 -0.51005524 3.1433384
0.38798961 -0.41396114 3.123652
-0.031952754 -0.42192221 0.74136156
-0.032413125 -0.4108102 0.73882997
-0.03208749 -0.39887539 0.74075782
-0.043240495 -0.39228311 0.67764395
-0.04503024 -0.38562918 0.66757083
-0.046616793 -0.37442994 0.65869087
-0.047345579 -0.36649466 0.65463704
-0.04828725 -0.35429925 0.64941591
-0.048666704 -0.34542251 0.64734405
-0.048953574 -0.33607823 0.64579743
-0.049008377 -0.32567382 0.64556742
-0.04885105 -0.31404674 0.64654082
-0.04886283 -0.29647622 0.64659542
-0.048123255 -0.28063971 0.65087205
-0.038351931 -0.16312248 0.70662975
-0.041599132 -0.16215964 0.68828899
-0.04367939 -0.1544622 0.67656851
-0.046030384 -0.13739891 0.66335267
-0.047038987 -0.12087719 0.65771192
-0.048220981 -0.059808072 0.65120924
0.094595999 1.700789 1.4615772
0.078968331 1.7052276 1.3730017
0.05095955 1.5271199 1.2141881
0.03803958 1.5417411 1.140974
0.018678717 1.5589972 1.0312618
0.0053234794 1.5571164 0.95557916
-0.0074863955 1.562104 0.88299054
-0.020208552 1.5654036 0.81089979
-0.033034414 1.5601474 0.73822099
-0.045606796 1.557194 0.66698027
-0.058045045 1.553663 0.59650075
-0.07025139 1.5625889 0.52733707
-0.088689305 1.5633757 0.42286336
-0.10099649 1.5661455 0.35312799
-0.11330091 1.5634423 0.28340846
-0.12600459 1.5811414 0.21142426
-0.13805868 1.5595363 0.143125
-0.1506802 1.5612005 0.071607053
-0.17589407 1.5508109 -0.071263023
-0.18847857 1.5407318 -0.14257072
-0.20796901 1.5315864 -0.25301328
-0.12117215 -0.062832534 0.23960426
-0.12032823 -0.090406395 0.24443229
-0.12135018 -0.1101946 0.23871641
-0.12260608 -0.12558921 0.23167342
-0.12408395 -0.13765186 0.2233713
-0.12574854 -0.1474001 0.21400988
-0.12764427 -0.15498689 0.20333733
-0.13072656 -0.16473293 0.18597449
-0.13331145 -0.16801929 0.1713925
-0.13685349 -0.16613257 0.15138087
-0.16548146 -0.051022194 -0.010855373
-0.16452797 -0.070144251 -0.0054057916
-0.16813782 -0.092801891 -0.025761662
-0.16520897 -0.13118851 -0.0090656895
-0.16547252 -0.15357415 -0.010479531
-0.16526845 -0.17673847 -0.0092406534
-0.1653256 -0.19788501 -0.0094836773
-0.16522127 -0.21869484 -0.0088106198
-0.1651143 -0.23867504 -0.0081226844
-0.16494124 -0.27637765 -0.0069787051
-0.16505933 -0.29386783 -0.0075674755
-0.16494246 -0.32826233 -0.0067425393
-0.16488019 -0.34485635 -0.0063082757
-0.16555583 -0.36013034 -0.010060123
-0.16494565 -0.37686425 -0.0065177907
-0.1652896 -0.40006858 -0.0083476799
-0.16632107 -0.41496274 -0.014118313
-0.16535884 -0.4309597 -0.0085790297
-0.16533902 -0.44629669 -0.0083859311
-0.16536793 -0.47686839 -0.0083887028
-0.16541664 -0.49220535 -0.0085845497
-0.1653859 -0.53088242 -0.008209195
-0.1654454 -0.5466826 -0.0084665148
-0.16625112 -0.56370902 -0.012957151
-0.17364894 -0.59150445 -0.054844648
-0.15663381 -0.59474325 0.041841865
-0.15661086 -0.60995007 0.042051971
-0.15680405 -0.62608331 0.041035857
-0.16569296 -0.67550582 -0.0092721144
-0.16651072 -0.69725484 -0.013832062
-0.16640337 -0.71708006 -0.013143895
-0.16644232 -0.7381978 -0.013285913
-0.16569382 -0.76844352 -0.0089214053
-0.16643678 -0.79498518 -0.013057956
-0.16667774 -0.8209213 -0.014346863
-0.16682622 -0.8479979 -0.015111344
-0.16699149 -0.87691599 -0.015971432
-0.16578618 -0.91548282 -0.009017474
-0.16660489 -0.95354068 -0.01358585
-0.33800617 -2.4298253 -0.98585486
-0.33865932 -2.5871387 -0.98950326
-0.33842906 -2.7537601 -0.98814219
-0.31850052 -2.7434735 -0.87501419
-0.24164049 -2.7394733 -0.43866193
-0.089977823 -2.7326181 0.42247328
-0.076213472 -2.7342405 0.50062895
-0.06255082 -2.7231109 0.57820976
-0.048740551 -2.7221897 0.65645176
-0.034870833 -2.721441 0.73523676
-0.020719014 -2.7257299 0.8156209
0.23556805 -4.8811445 2.2696586
0.39838159 -5.9843512 3.1932354
0.41476759 -5.708746 3.2863679
0.43844599 -5.529489 3.4208453
0.41735891 -4.9638882 3.3014622
0.42030224 -4.6616988 3.3183372
0.41793305 -4.3464684 3.3050766
0.42214188 -3.9795845 3.3291955
0.406409 -3.6395872 3.2401261
0.42437321 -3.5320528 3.3421633
0.41916007 -3.296114 3.3127458
0.41264734 -3.0708447 3.2759521
0.41243336 -2.8922846 3.2748795
0.4127402 -2.7263081 3.2767575
0.41419399 -2.5738187 3.2851384
0.39341378 -2.3419013 3.1674044
0.42096347 -2.2320971 3.323863
0.41192135 -2.0661414 3.272702
0.40600139 -1.9192127 3.2392473
0.40506849 -1.7931507 3.2340789
0.40114713 -1.6641808 3.2119572
0.39806423 -1.5423791 3.1945894
0.39789224 -1.4307908 3.1937325
0.39796761 -1.3223503 3.194277
0.40034935 -1.2197242 3.2079034
0.40364766 -1.0671353 3.2267852
0.36134669 -0.92100596 2.9869425
0.40647045 -0.86439538 3.2430236
0.39805639 -0.75782233 3.195405
0.39035523 -0.65568155 3.1518292
0.38983074 -0.55856967 3.1489632
0.38784948 -0.46189725 3.1378322
-0.034496564 -0.42179817 0.74233484
-0.03530407 -0.41096419 0.73785347
-0.034810215 -0.39887309 0.74075431
-0.045253489 -0.39608225 0.68166053
-0.047431853 -0.38504037 0.66945153
-0.048924629 -0.37829542 0.66108221
-0.049634535 -0.37025663 0.65715379
-0.050390437 -0.36239427 0.65296441
-0.050705936 -0.35832867 0.65122396
-0.051217604 -0.34985483 0.64841998
-0.051706221 -0.33607349 0.64579588
-0.051912878 -0.326184 0.64472193
-0.051900953 -0.31513113 0.64488786
-0.052047376 -0.29823461 0.64420444
-0.051436558 -0.28309745 0.64776742
-0.025613166 -0.084059827 0.79459608
-0.043913957 -0.15918384 0.69092774
-0.046127047 -0.15216045 0.67847061
-0.047725812 -0.14092107 0.66949809
-0.048895892 -0.12589867 0.66295713
-0.051462322 -0.10855885 0.64854324
-0.050333537 -0.069057211 0.65504152
0.093047343 1.7151518 1.4685318
0.076552816 1.7097801 1.3750507
0.054886572 1.622605 1.2522377
0.035441726 1.5445514 1.1420262
0.022013545 1.5478981 1.0659395
0.0087007256 1.5483222 0.99050742
-0.0039734519 1.5575172 0.91869724
-0.016708847 1.5621269 0.84654003
-0.035765238 1.5621247 0.73856956
-0.048181664 1.5671233 0.66822135
-0.060848594 1.5526725 0.59645432
-0.0733786 1.5256474 0.52546555
-0.085334718 1.5640734 0.45772398
-0.097603016 1.5560822 0.38821718
-0.10984843 1.5546304 0.31883931
-0.12234015 1.5676538 0.24806187
-0.14097573 1.5645055 0.14247739
-0.15353788 1.5631897 0.071302056
-0.16589165 1.5524387 0.0013104426
-0.17823246 1.5401608 -0.068607621
-0.19113632 1.537873 -0.1417215
-0.20411704 1.5328226 -0.21527106
-0.21478365 1.4873865 -0.27568555
-0.12331515 -0.053238701 0.24368562
-0.12342967 -0.087695032 0.2431393
-0.12438983 -0.10841366 0.23779328
-0.12565961 -0.12384193 0.23068981
-0.1270591 -0.13678849 0.2228502
-0.12863484 -0.14738457 0.2140103
-0.13043156 -0.15578018 0.2039163
-0.13249202 -0.16214313 0.19232576
-0.13598025 -0.16951227 0.17268425
-0.13904239 -0.17050406 0.15540992
-0.16736431 -0.041990981 -0.0051473896
-0.16768584 -0.068784624 -0.0068684965
-0.1675114 -0.096460938 -0.0057755057
-0.16764398 -0.12110337 -0.0064247581
-0.16771291 -0.14474775 -0.0067130243
-0.1678777 -0.16686912 -0.007545203
-0.16801596 -0.1881253 -0.0082269572
-0.16769046 -0.2100637 -0.00627732
-0.16780703 -0.22964458 -0.0068361149
-0.16778018 -0.24895345 -0.0065811072
-0.16761333 -0.26795682 -0.0055318223
-0.16832396 -0.29312992 -0.009409884
-0.16822276 -0.32765648 -0.0086303586
-0.16800006 -0.34457657 -0.0072641037
-0.16807605 -0.37665251 -0.0074896691
-0.16821979 -0.39226186 -0.0082021896
-0.16861178 -0.40757385 -0.010323141
-0.16821912 -0.42330074 -0.0079923179
-0.16824979 -0.43863887 -0.0080631115
-0.16818735 -0.45393524 -0.0076055066
-0.16835396 -0.47684768 -0.0083955238
-0.1684068 -0.49218467 -0.0085915979
-0.16853884 -0.50765842 -0.0092368266
-0.16857561 -0.52321494 -0.0093414439
-0.16868725 -0.53900814 -0.0098705022
-0.16869971 -0.55491334 -0.0098367259
-0.16878021 -0.57115144 -0.010188733
-0.15949142 -0.59439856 0.042764813
-0.15931286 -0.60921437 0.04388243
-0.15935527 -0.62489229 0.043746926
-0.16920173 -0.66737509 -0.011998981
-0.16947412 -0.68719298 -0.013437285
-0.16915175 -0.7160598 -0.011447721
-0.16920209 -0.73711765 -0.011625272
-0.16923256 -0.75905013 -0.01168958
-0.16979098 -0.78425318 -0.014747485
-0.1688066 -0.81649625 -0.0089994874
-0.16898827 -0.8433857 -0.0099187978
-0.1691881 -0.87212211 -0.010940016
-0.16962089 -0.90420753 -0.013281223
-0.16889338 -0.9483189 -0.0089837993
-0.16882037 -0.9832353 -0.0084534883
-0.34497383 -2.3877485 -1.0070449
-0.34572962 -2.5404468 -1.0111567
-0.33914524 -2.7299716 -0.973553
-0.33839521 -2.9088311 -0.9691062
-0.25294727 -2.7395914 -0.48397574
-0.10027409 -2.737258 0.38334098
-0.08651197 -2.734268 0.46152705
-0.065927342 -2.7270961 0.57847261
-0.045348927 -2.7186923 0.69538707
-0.031389132 -2.7195077 0.77464354
0.22083637 -4.9475393 2.2070704
0.38414016 -6.1081581 3.13416
0.41242751 -5.7236643 3.2944951
0.43319365 -5.514966 3.412236
0.40889087 -4.9211597 3.2741222
0.42396337 -4.7215481 3.3595772
0.41803461 -4.3744683 3.3258276
0.41730154 -4.0974407 3.3215902
0.3915551 -3.6777515 3.1753938
0.42103693 -3.6418786 3.3426797
0.41447067 -3.3893697 3.3053739
0.40765902 -3.155154 3.2666879
0.41189978 -2.905823 3.2907281
0.41217551 -2.7386599 3.292284
0.41414696 -2.5873759 3.3034687
0.38628456 -2.326834 3.1453676
0.41774511 -2.3028848 3.3238964
0.407392 -2.128438 3.2651632
0.40216243 -1.9806744 3.2355084
0.39779845 -1.8427994 3.2107699
0.39959896 -1.6681174 3.2210267
0.39768925 -1.5485003 3.2102227
0.39756733 -1.4363534 3.2095656
0.39553061 -1.3235455 3.1980479
0.39759666 -1.2202663 3.2098095
0.39917958 -1.1174343 3.2188327
0.35598564 -0.96544391 2.9738252
0.37418556 -0.88881952 3.0771279
0.39594892 -0.80827564 3.2006462
0.37659389 -0.65136838 3.0909219
0.3873359 -0.55869222 3.1519177
0.38380164 -0.46191305 3.1319251
0.38211402 -0.36618203 3.1224105
-0.037002832 -0.42726153 0.74492747
-0.038118709 -0.41655871 0.73867422
-0.037943181 -0.39906564 0.73978579
-0.049817067 -0.38887569 0.67262179
-0.051123958 -0.38160786 0.66528624
-0.052137982 -0.37408561 0.65961224
-0.052740622 -0.37061697 0.65623283
-0.053330898 -0.36239648 0.65296292
-0.05450445 -0.3458741 0.64646333
-0.054408237 -0.34051812 0.64704871
-0.054578576 -0.33064178 0.64616162
-0.054526713 -0.31962356 0.64653528
-0.054754239 -0.30333486 0.64536417
-0.054762382 -0.28494725 0.64543808
-0.046118747 -0.15472884 0.69488126
-0.048802927 -0.15063214 0.67973608
-0.050622288 -0.14092483 0.66949749
-0.051891997 -0.12671153 0.66237766
-0.052990619 -0.11013213 0.6562289
0.073706508 1.6128222 1.375591
0.064001516 1.685827 1.3206483
0.032847896 1.5501888 1.1440468
0.01922242 1.5507501 1.066852
0.0058424422 1.5502428 0.99104983
-0.0068459115 1.5594552 0.91917342
-0.019595435 1.56408 0.84694946
-0.032715529 1.5522754 0.77261978
-0.045141801 1.5565168 0.70222998
-0.057362881 1.5681762 0.63300645
-0.076073185 1.5555987 0.52701563
-0.088336073 1.5540667 0.45755211
-0.10060693 1.5660714 0.38804764
-0.11300656 1.5745924 0.31781211
-0.12524369 1.5626608 0.2484924
-0.13759193 1.5592237 0.17854522
-0.15028931 1.5661303 0.10662115
-0.16275735 1.5595829 0.035993896
-0.17501807 1.5456212 -0.033459891
-0.19398507 1.5349691 -0.14090364
-0.20678993 1.5270944 -0.21344157
-0.21860906 1.5005193 -0.28039524
-0.12727036 -0.038636308 0.23728117
-0.12510325 -0.084585026 0.24959639
-0.12627909 -0.10342406 0.24300122
-0.127602 -0.1187573 0.23557305
-0.1289576 -0.13245548 0.22795984
-0.13047205 -0.14375103 0.21944645
-0.13322999 -0.15579769 0.20392011
-0.13518029 -0.16294925 0.19293594
-0.13753736 -0.16744329 0.17964576
-0.14058593 -0.16806082 0.16243502
-0.1710016 -0.066132203 -0.0097902045
-0.17123599 -0.091985703 -0.011050325
-0.17125252 -0.11743408 -0.011074984
-0.17105645 -0.14242187 -0.0098939091
-0.17065343 -0.16689509 -0.0075392635
-0.17093325 -0.18762164 -0.0090560447
-0.17056529 -0.22967173 -0.0068298103
-0.17084482 -0.24810408 -0.0083448635
-0.17067723 -0.26717111 -0.0073245163
-0.1706949 -0.28515181 -0.0073547154
-0.17075157 -0.3025524 -0.0076060649
-0.17069089 -0.31975329 -0.0071920073
-0.17051536 -0.33672875 -0.0061267461
-0.17056462 -0.35296983 -0.0063363491
-0.17095555 -0.37649217 -0.0084490711
-0.17092294 -0.39229283 -0.0081947269
-0.17113674 -0.40772727 -0.0093381219
-0.17091024 -0.42333254 -0.0079846168
-0.17093483 -0.43867105 -0.0080552911
-0.17086619 -0.45396781 -0.0075975703
-0.17087847 -0.4692215 -0.0075990618
-0.17097166 -0.4845182 -0.0080597531
-0.17102285 -0.50758797 -0.0082490202
-0.17122261 -0.5154618 -0.0093486151
-0.17115973 -0.53886944 -0.0088920286
-0.17116655 -0.55474073 -0.0088647092
-0.15363337 -0.55193263 0.090702064
-0.16216107 -0.58706218 0.042422336
-0.16218758 -0.60217184 0.042337384
-0.16227253 -0.61781275 0.041920301
-0.17147574 -0.66656792 -0.01020436
-0.17189987 -0.68677747 -0.012550146
-0.17201808 -0.70691204 -0.013161084
-0.17228132 -0.72838831 -0.014596242
-0.17106317 -0.75629425 -0.0075971251
-0.1716291 -0.78135478 -0.010753439
-0.1721174 -0.80760145 -0.013470938
-0.17237754 -0.83441669 -0.014895434
-0.1711845 -0.86943585 -0.0080483276
-0.17149931 -0.90071434 -0.0097884778
-0.17199716 -0.93551826 -0.012570746
-0.17250337 -0.9732942 -0.015403983
-0.34377778 -2.3622813 -0.98805827
-0.344942 -2.5167813 -0.99475443
-0.34414244 -2.670588 -0.99031484
-0.34632173 -2.8701694 -1.0028204
-0.31728846 -2.7705383 -0.83799273
-0.10210073 -2.7402878 0.38329646
-0.088320285 -2.7332945 0.46151656
-0.074605733 -2.7265375 0.53936255
-0.060811926 -2.7269981 0.61764908
-0.046973497 -2.7256544 0.69623059
-0.033086125 -2.7224805 0.77511054
-0.019012723 -2.7213731 0.85504329
0.21369053 -4.8621688 2.1731505
0.38819587 -6.1655655 3.1618013
0.4015955 -5.8398566 3.2383051
0.39853474 -5.0115981 3.2221074
0.41370648 -4.8068109 3.3085108
0.42020771 -4.4014955 3.3459992
0.41780093 -4.1113019 3.3327682
0.3873387 -3.6602716 3.1605582
0.42179805 -3.6563773 3.3561354
0.41733295 -3.4154069 3.3311613
0.41035405 -3.1789 3.2919183
0.4068045 -2.9771471 3.2720878
0.40617776 -2.8022585 3.2688053
0.41237074 -2.587836 3.3042881
0.39178565 -2.3557951 3.1878421
0.41280401 -2.2921565 3.3072157
0.40866032 -2.1393132 3.2839465
0.40207639 -1.9866537 3.2468317
0.39974242 -1.8540752 3.2338014
0.39467758 -1.7198424 3.2052798
0.39520949 -1.6047301 3.2084832
0.39201525 -1.4847858 3.1905529
0.39342934 -1.3777295 3.1987472
0.3950018 -1.2196249 3.2079194
0.39740676 -1.117985 3.2217219
0.38673723 -1.0023602 3.1613748
0.35642028 -0.87461799 2.9895947
0.39481521 -0.80900532 3.207494
0.39036807 -0.7069664 3.1824207
0.38546428 -0.60718423 3.1547527
0.38238257 -0.50990945 3.1374149
0.38010275 -0.41390231 3.1246216
-0.040607143 -0.41656104 0.73868626
-0.03990316 -0.40434933 0.74276412
-0.040523198 -0.38741896 0.73937339
-0.051976729 -0.38832945 0.67452711
-0.053618204 -0.38161293 0.6652981
-0.055235911 -0.37062219 0.65624446
-0.055826787 -0.36240163 0.65297437
-0.05680551 -0.35030058 0.64754456
-0.057058621 -0.34099248 0.64618999
-0.057226412 -0.33114651 0.64531922
-0.057318989 -0.32068783 0.64487505
-0.057203513 -0.3089866 0.64561093
-0.057279009 -0.29133245 0.64530349
-0.046622179 -0.1530174 0.70616269
-0.049902868 -0.15221664 0.6876294
-0.052905556 -0.1393501 0.67071235
-0.053268641 -0.13021262 0.66869164
-0.055583 -0.11096258 0.65567869
-0.058114108 -0.10631248 0.6413967
-0.055356022 -0.049417213 0.657121
0.070728756 1.6065139 1.3725864
0.063920192 1.7180772 1.3340219
0.036854804 1.5427266 1.1805434
0.023092987 1.5428329 1.1025337
0.010205355 1.5532715 1.0294822
-0.0031113306 1.5513307 0.95399678
-0.021941127 1.5660466 0.84726363
-0.035096142 1.553267 0.77269495
-0.047302868 1.5664229 0.70350373
-0.059902731 1.5602204 0.63208342
-0.072354674 1.5524427 0.56150228
-0.084600292 1.5531361 0.49209049
-0.096824102 1.5643674 0.42280087
-0.1091269 1.5661347 0.35306403
-0.121439 1.5644265 0.28327459
-0.13949043 1.5383592 0.18095815
-0.15262233 1.5661062 0.10651277
-0.16534704 1.5674087 0.034381635
-0.17733569 1.5455906 -0.033569563
-0.19004165 1.5407556 -0.10559305
-0.20303996 1.5380281 -0.1792756
-0.21634355 1.5362786 -0.25469017
-0.12763087 -0.083693884 0.24917603
-0.12881279 -0.1025483 0.24255112
-0.13014138 -0.11789803 0.23509353
-0.13150248 -0.13161384 0.22745141
-0.1331166 -0.14208937 0.21837321
-0.13474576 -0.15198299 0.20920974
-0.13671704 -0.15893911 0.19810472
-0.13897741 -0.16397454 0.18535927
-0.14269024 -0.1703078 0.16441256
-0.14697281 -0.16453224 0.14019147
-0.17279218 -0.083067626 -0.0061239987
-0.17303108 -0.10793564 -0.0073936898
-0.17292471 -0.13302276 -0.0067039765
-0.17381415 -0.16412301 -0.011621958
-0.17381853 -0.18605568 -0.011560426
-0.17301281 -0.19945951 -0.0069450694
-0.17290013 -0.22017877 -0.0062191477
-0.17278539 -0.24006666 -0.0054814923
-0.17329042 -0.26678714 -0.0082168933
-0.17347413 -0.28442508 -0.0091721481
-0.17321171 -0.30257475 -0.0075958394
-0.17315392 -0.31977537 -0.0071803257
-0.17331508 -0.33619919 -0.0080069359
-0.17320202 -0.35274941 -0.0072773332
-0.17315181 -0.3688857 -0.0069040288
-0.17334117 -0.38451454 -0.0078897374
-0.17326204 -0.40023905 -0.0073517263
-0.17325817 -0.41572645 -0.0072403983
-0.17333266 -0.43106115 -0.0075732297
-0.17335662 -0.45398784 -0.0075736423
-0.17337263 -0.46924129 -0.0075736362
-0.17346968 -0.48453778 -0.0080328053
-0.17364663 -0.49996316 -0.0089446343
-0.17355651 -0.5153591 -0.0083410786
-0.1735439 -0.5309152 -0.0081765568
-0.1739464 -0.54709715 -0.010365775
-0.1737638 -0.57096356 -0.0091883587
-0.1648749 -0.56540298 0.041271161
-0.16485523 -0.58738655 0.041523799
-0.16512895 -0.59542507 0.040018972
-0.16497266 -0.61820221 0.04104872
-0.17447148 -0.65847552 -0.012715259
-0.17399609 -0.68543243 -0.009868891
-0.17428192 -0.7059592 -0.011387282
-0.17455897 -0.72737473 -0.012854281
-0.17466776 -0.74918455 -0.013365745
-0.17474619 -0.77192003 -0.013703318
-0.17519575 -0.79742795 -0.016142603
-0.17432806 -0.83121824 -0.011057165
-0.17438455 -0.85840988 -0.011262767
-0.17495221 -0.89021957 -0.014362125
-0.17510356 -0.92199284 -0.01509879
-0.17471984 -0.97028983 -0.01273657
-0.3509261 -2.3244445 -1.0105795
-0.35065603 -2.4622865 -1.0087737
-0.34487084 -2.6480029 -0.97556251
-0.346019 -2.8350852 -0.9817301
-0.31945574 -2.7583447 -0.83102226
-0.26590407 -2.733408 -0.52692026
-0.25069204 -2.7451425 -0.44049442
-0.098727167 -2.7336268 0.42278308
-0.078211457 -2.7195308 0.53932041
-0.057392828 -2.7301364 0.65759689
-0.036555309 -2.7254167 0.77589047
-0.022589326 -2.720361 0.85517114
0.28970999 -8.8488111 2.6361265
0.39676264 -6.3263245 3.2397981
0.40047631 -5.880343 3.260247
0.40289006 -5.4751153 3.2733872
0.42223927 -5.2718258 3.382895
0.41766357 -4.8779798 3.3564126
0.41143319 -4.5116353 3.3205886
0.40793857 -4.2015944 3.3003693
0.37516108 -3.7181463 3.1137962
0.40586719 -3.6928892 3.2879987
0.41764033 -3.438617 3.3545065
0.41065136 -3.1999199 3.3145821
0.4066622 -2.9940841 3.2917237
0.40540501 -2.8147254 3.2844028
0.40579471 -2.652905 3.2864506
0.40584815 -2.4978929 3.2866027
0.39941606 -2.3259954 3.249944
0.40477028 -2.2051005 3.2802165
0.39834896 -2.0494475 3.2436454
0.40026039 -1.8640459 3.2543392
0.39515001 -1.7286806 3.2252376
0.39304447 -1.6064936 3.2132006
0.39219069 -1.4911765 3.2082753
0.39120746 -1.3788583 3.2026215
0.39063698 -1.2701404 3.1993153
0.39339414 -1.1685922 3.2148967
