# .PCD v0.7 - Point Cloud Data file format
VERSION 0.7
FIELDS x y z
SIZE 4 4 4
TYPE F F F
COUNT 1 1 1
WIDTH 1378
HEIGHT 1
VIEWPOINT 0 0 0 1 0 0 0
POINTS 1378
DATA ascii
-0.25519967 -2.5371666 -1.0088658
-0.25561771 -2.7032018 -1.0112283
-0.2427159 -2.8542721 -0.93805802
-0.19373743 -2.7156518 -0.66026622
-0.16135404 -2.7210453 -0.47658592
-0.12979443 -2.7117188 -0.29756805
-0.050556865 -2.698771 0.1519305
-0.036928687 -2.7040155 0.22924143
-0.023340574 -2.7115026 0.30632436
-0.0028724291 -2.703604 0.42244449
0.010703838 -2.7012477 0.49946478
0.024287794 -2.699158 0.57652855
0.044781294 -2.6978419 0.69284052
0.058156863 -2.6819677 0.76876307
0.48987728 -6.2771301 3.2151141
0.49053586 -5.8037663 3.2191544
0.50521845 -5.528192 3.3025982
0.50143003 -5.108397 3.2814069
0.50963891 -4.8367782 3.3281534
0.51144278 -4.3920341 3.3387182
0.51218516 -4.1246381 3.3431392
0.48114944 -3.66869 3.1675181
0.51627773 -3.6682069 3.3667271
0.50760627 -3.402097 3.3177867
0.501459 -3.1708403 3.2831383
0.49801189 -2.9700546 3.2637808
0.49830624 -2.7998667 3.2656167
0.50576943 -2.590905 3.3081486
0.47800693 -2.3307509 3.1509933
0.50803477 -2.3012984 3.3212979
0.49868834 -2.1304426 3.2684872
0.49390203 -1.9839666 3.2415121
0.49109283 -1.8502594 3.2257373
0.49133068 -1.6708606 3.2272973
0.48909178 -1.5503006 3.2147479
0.48830536 -1.4366879 3.2104278
0.48891038 -1.3285273 3.2139912
0.48864132 -1.221054 3.2125995
0.48970711 -1.1174458 3.2187712
0.44764879 -0.96679097 2.9805408
0.49143246 -0.91325355 3.2288082
0.48739704 -0.75900763 3.2061284
0.48229259 -0.65753162 3.1773241
0.47795334 -0.55874294 3.1528552
0.47388351 -0.4619292 3.1299117
0.052339073 -0.42767245 0.74103391
0.052270066 -0.41049019 0.74079412
0.041164503 -0.40654024 0.6779995
0.039458144 -0.40404826 0.66837806
0.038225904 -0.39667138 0.6614939
0.037055504 -0.38499805 0.65501004
0.036153056 -0.36835676 0.65009469
0.035538703 -0.35555634 0.64676213
0.035473254 -0.34586596 0.64649087
0.035793588 -0.33461371 0.64840633
0.03617321 -0.32257387 0.65065777
0.03645388 -0.31022477 0.6523484
0.037244618 -0.28882623 0.65697998
0.037075941 -0.26969236 0.65617323
0.04131693 -0.22610413 0.68036234
0.040714234 -0.22089233 0.67699581
0.038558431 -0.20699008 0.66492504
0.03755239 -0.19484676 0.65932184
0.037008896 -0.17896508 0.65634048
0.03634306 -0.15176453 0.65271533
0.2285025 1.6820987 1.7422422
0.21108802 1.6851217 1.6436296
0.19425207 1.6873507 1.5482957
0.17757994 1.6845876 1.4538898
0.15215461 1.6600486 1.3099152
0.13002327 1.5529665 1.1845609
0.1152765 1.5380818 1.1010671
0.10138509 1.5293459 1.0224217
0.088737138 1.5387604 0.95082486
0.074462406 1.5046164 0.87000567
0.063371196 1.5457729 0.80723321
0.044903848 1.5594949 0.70269698
0.032475214 1.5612239 0.63234216
0.020122388 1.56343 0.56241697
0.0077514653 1.5571529 0.4923889
-0.0045130895 1.5553918 0.42296374
-0.016759425 1.5541713 0.35364178
-0.029027198 1.553488 0.28419819
-0.047658451 1.5582528 0.17873131
-0.060085952 1.5552894 0.10838219
-0.072894149 1.5605906 0.035875119
-0.085794404 1.5622141 -0.037153818
-0.099291079 1.5717309 -0.11356355
-0.033592854 -0.070374228 0.25923514
-0.036405116 -0.070968255 0.24339196
-0.038061995 -0.085581072 0.23409815
-0.04059292 -0.10478167 0.21989903
-0.042107645 -0.11812364 0.21141115
-0.044184893 -0.12582152 0.19973466
-0.046010021 -0.13554667 0.18948735
-0.048407063 -0.1408585 0.17599821
-0.051459242 -0.14213631 0.15879546
-0.057406489 -0.13758305 0.12523142
-0.075301655 -0.070467629 0.023940548
-0.078973934 -0.10416794 0.0033224605
-0.078923374 -0.12910068 0.0037083472
-0.081192993 -0.14297676 -0.0090575852
-0.081223823 -0.16574335 -0.00913285
-0.081221007 -0.18758816 -0.009017325
-0.081048273 -0.20905659 -0.0079385201
-0.081016988 -0.22916822 -0.0076614767
-0.080836274 -0.2489468 -0.0065373024
-0.081413262 -0.27517772 -0.0096579893
-0.081703894 -0.29240662 -0.011205328
-0.081386745 -0.31049293 -0.0093074804
-0.081443578 -0.32735795 -0.0095293624
-0.081221975 -0.34431174 -0.0081728986
-0.081396759 -0.3603287 -0.009063174
-0.081129491 -0.37664691 -0.0074476623
-0.08127299 -0.39225638 -0.0081603751
-0.081320107 -0.40781248 -0.0083266422
-0.081385136 -0.43093377 -0.0085438257
-0.08136899 -0.44627094 -0.008351176
-0.081433535 -0.46155691 -0.0086157415
-0.081405386 -0.47684294 -0.0083548045
-0.081631251 -0.4922497 -0.0095334239
-0.081762545 -0.50775838 -0.010175862
-0.081798278 -0.52334964 -0.010276505
-0.081670865 -0.5468486 -0.0094011342
-0.081633516 -0.56278497 -0.0090870494
-0.081830882 -0.5793196 -0.010103059
-0.082251899 -0.59663242 -0.012386388
-0.082226023 -0.61359704 -0.012136606
-0.082411431 -0.63142306 -0.013084032
-0.082059197 -0.65760398 -0.010932116
-0.082404263 -0.67723536 -0.012783577
-0.082295746 -0.69629264 -0.012064033
-0.078436278 -0.70355964 0.0099132014
-0.074142911 -0.70797521 0.034349184
-0.073922254 -0.72662038 0.035704661
-0.072695531 -0.75224054 0.042814724
-0.083201967 -0.82278633 -0.016616354
-0.083213143 -0.84928733 -0.016571691
-0.082485251 -0.88807732 -0.012283653
-0.082769029 -0.92049569 -0.013781621
-0.083796546 -0.96020639 -0.019492535
-0.25740689 -2.3140459 -1.002893
-0.25779453 -2.4564683 -1.0049356
-0.25820583 -2.6136136 -1.0071062
-0.25301179 -2.8272173 -0.97742891
-0.22640008 -2.7494597 -0.82650751
-0.20641513 -2.7246256 -0.71312934
-0.17263061 -2.7194917 -0.52141684
-0.15686488 -2.7217026 -0.43194398
-0.14105093 -2.7165775 -0.34220049
-0.026757708 -2.7085145 0.30650774
-0.013112692 -2.7022665 0.38395759
0.00046404239 -2.7042761 0.46102399
0.014029991 -2.7005551 0.53802687
0.02761942 -2.6980944 0.61516351
0.034298055 -2.6893713 0.65305692
0.048005458 -2.6897557 0.7308507
0.061646648 -2.6833887 0.80826622
0.38179269 -8.8152227 2.6260195
0.32030815 -4.8968463 2.2761366
0.48163658 -5.9808688 3.1913536
0.49889082 -5.7140799 3.2891376
0.50391316 -4.9891372 3.3174605
0.50376445 -4.6593294 3.3165555
0.51225632 -4.2862186 3.3646541
0.48736134 -3.8517313 3.2234139
0.49854586 -3.6924443 3.2868278
0.50660312 -3.5220723 3.3325071
0.49923569 -3.2746675 3.2907102
0.49584723 -3.0669196 3.2714863
0.49270868 -2.8743746 3.253685
0.5018869 -2.6682549 3.3057368
0.50499278 -2.524585 3.3233538
0.48732692 -2.3088624 3.2231863
0.50000632 -2.2146769 3.2950945
0.49482813 -2.0623558 3.2657442
0.48952213 -1.9174894 3.2356722
0.4862363 -1.785212 3.2170572
0.48631522 -1.6086663 3.21753
0.48545688 -1.4931864 3.2126813
0.48512962 -1.3819398 3.210844
0.48522955 -1.2740248 3.2114289
0.48681754 -1.1703465 3.2204502
0.48894098 -1.0684803 3.2325063
0.44253224 -0.91796625 2.9694345
0.48761353 -0.81140226 3.2250242
0.46831605 -0.70123094 3.1156504
0.47693607 -0.60790879 3.164531
0.47161913 -0.51005667 3.1344085
0.46936005 -0.41415471 3.1216187
0.050026938 -0.42726848 0.74493462
0.05045918 -0.41531417 0.7474584
0.037147097 -0.40316108 0.67219836
0.035577457 -0.39616594 0.66337818
0.034476567 -0.3888458 0.65721458
0.033738047 -0.37648284 0.65314215
0.033022523 -0.36874294 0.64916241
0.032739203 -0.35996106 0.64763165
0.032553919 -0.35073724 0.6466561
0.032611534 -0.3405216 0.6470564
0.032777194 -0.32413036 0.64810503
0.032780789 -0.31295913 0.64819807
0.0334084 -0.29875046 0.65182561
0.034455355 -0.27510172 0.6578629
0.038180634 -0.21885903 0.67913514
0.036422204 -0.21133327 0.6692425
0.035220943 -0.20055488 0.66250521
0.034397986 -0.18693325 0.65790963
0.033109106 -0.16535455 0.65070635
0.21642382 1.6768306 1.688432
0.19960327 1.6819052 1.5931524
0.18457785 1.7006975 1.5080355
0.16124469 1.7115687 1.3758693
0.1414333 1.6513126 1.2636963
0.11940596 1.5360656 1.1390142
0.10591523 1.5374113 1.0626131
0.092515185 1.5348423 0.98672962
0.079791389 1.5410028 0.91467106
0.06693285 1.5396135 0.84185588
0.054925814 1.5591593 0.77384722
0.036151845 1.561159 0.6675328
0.02368113 1.5576471 0.59691781
0.011519 1.5745767 0.52803189
-0.00092120044 1.5550747 0.45760554
-0.013196213 1.5660839 0.38808542
-0.025455242 1.5586308 0.31867421
-0.037870914 1.5646741 0.24836156
-0.056369487 1.556597 0.143618
-0.069130182 1.5632067 0.071348906
-0.081887104 1.5632187 -0.00089207839
-0.095347017 1.575116 -0.077130228
-0.034787256 -0.073098361 0.26816952
-0.037564363 -0.073329054 0.25250819
-0.040143564 -0.076899685 0.23797226
-0.04149523 -0.094276071 0.23040938
-0.044097681 -0.1118556 0.21579719
-0.04573952 -0.12359408 0.2065838
-0.047682017 -0.13227738 0.19566296
-0.049774639 -0.13972446 0.18388991
-0.052371547 -0.14371945 0.16925462
-0.055881187 -0.14232674 0.14943963
-0.078805648 -0.052133039 0.019554226
-0.075925797 -0.082266942 0.035952471
-0.081664413 -0.09152773 0.0035546117
-0.082399838 -0.13776764 -0.00040017109
-0.084050812 -0.15410548 -0.009659037
-0.083993629 -0.1766962 -0.0092279175
-0.083906502 -0.19835792 -0.008627872
-0.083651677 -0.21962249 -0.007077449
-0.083852641 -0.23863286 -0.0081130099
-0.083759591 -0.25784016 -0.0074815317
-0.084407754 -0.28360325 -0.011002703
-0.084315829 -0.30147591 -0.010378613
-0.084101766 -0.31908458 -0.0090622855
-0.084102519 -0.33585069 -0.0089644194
-0.08416228 -0.35219243 -0.0092013823
-0.083947599 -0.36860469 -0.0078823799
-0.083969854 -0.38444129 -0.0079068849
-0.084065251 -0.40002635 -0.0083461571
-0.08406464 -0.41554824 -0.0082411012
-0.084142193 -0.43091747 -0.0085790725
-0.084343866 -0.45387858 -0.0095695695
-0.084188528 -0.46918437 -0.0085870363
-0.084287755 -0.48451549 -0.0090472307
-0.084466681 -0.49997541 -0.009958853
-0.084378093 -0.51540595 -0.0093539199
-0.084538475 -0.53115273 -0.010159642
-0.084338665 -0.55468386 -0.0088717155
-0.084589295 -0.57112968 -0.010187581
-0.084565237 -0.58750522 -0.0099462774
-0.084930815 -0.60492241 -0.011912011
-0.084523827 -0.62997168 -0.0094462559
-0.084755078 -0.64830786 -0.010648793
-0.084855422 -0.66693062 -0.01110863
-0.084976554 -0.6862632 -0.011685113
-0.084346585 -0.70394325 -0.0080060754
-0.078675874 -0.70464182 0.024222752
-0.076302581 -0.71534783 0.037774347
-0.076307997 -0.73514193 0.037855253
-0.085954249 -0.81000072 -0.016592521
-0.085945554 -0.83563864 -0.016422505
-0.085011527 -0.8721 -0.010949187
-0.085078657 -0.90206432 -0.011202038
-0.086059541 -0.93984103 -0.016622867
-0.086671412 -0.97851104 -0.019950258
-0.25942355 -2.374095 -0.99698943
-0.26128754 -2.5346346 -1.0072274
-0.26177907 -2.7006104 -1.0096759
-0.26001188 -2.864001 -0.99932265
-0.20059317 -2.7200894 -0.6624819
-0.18361793 -2.7160668 -0.56616849
-0.16816919 -2.7256351 -0.47848743
-0.13596873 -2.7059774 -0.29579774
-0.02302397 -2.7062302 0.34519586
-0.0094224317 -2.7036126 0.42238799
0.0041487105 -2.7012613 0.49940822
0.017739277 -2.7001741 0.57654059
0.038106795 -2.6919124 0.6920644
0.05167732 -2.6839738 0.76901358
0.065242872 -2.6742766 0.84593225
0.48376238 -6.2952871 3.2236714
0.4861671 -5.8375006 3.236645
0.49344802 -5.4842038 3.2774181
0.49211767 -5.0890708 3.2693341
0.51603895 -4.7872663 3.4045293
0.5052374 -4.3978071 3.3427947
0.50425476 -4.1170468 3.3368726
0.47560212 -3.6764076 3.1739089
0.50936675 -3.666925 3.3653152
0.50102383 -3.4022739 3.3177187
0.49406821 -3.1662395 3.2780302
0.49197164 -2.9721949 3.2659442
0.49813214 -2.7456067 3.3006513
0.50045109 -2.5951924 3.3136613
0.4735162 -2.337625 3.1607273
0.50168365 -2.3009393 3.3204007
0.49374247 -2.1346107 3.2752485
0.48856694 -1.9864789 3.2457993
0.48964569 -1.8018045 3.2517965
0.48612711 -1.6729763 3.2317722
0.48280177 -1.5497432 3.2128534
0.48220959 -1.4365206 3.2094421
0.48035336 -1.3240043 3.1988702
0.48193374 -1.2199155 3.2077911
0.48522127 -1.1194028 3.2263963
0.44117242 -0.96616918 2.976624
0.48677194 -0.86347067 3.2351213
0.481653 -0.75915962 3.2060823
0.47622806 -0.65754133 3.1753149
0.4720864 -0.55885524 3.1518281
0.46751866 -0.46207374 3.1259308
0.046637882 -0.42205608 0.74034947
0.046694927 -0.41050947 0.74074155
0.03558654 -0.40181559 0.67792106
0.032623656 -0.39218894 0.66123551
0.031258363 -0.38090718 0.65360552
0.03061055 -0.36837023 0.65004241
0.030325361 -0.35955602 0.64849865
0.030137924 -0.35030034 0.64750898
0.030267926 -0.33462647 0.64835483
0.030503452 -0.32310146 0.64976239
0.030466201 -0.30619085 0.64966083
0.031736065 -0.28883871 0.65692973
0.031844568 -0.26844615 0.65765429
0.036931563 -0.22875127 0.68655211
0.034855332 -0.2143517 0.67489725
0.033194736 -0.20628278 0.66556138
0.032188497 -0.19411519 0.65993339
0.030772382 -0.17410183 0.6520201
0.030769307 -0.15257378 0.6520763
0.2228785 1.6794968 1.74069
0.20565212 1.6842026 1.6431513
0.18922809 1.6908336 1.5501602
0.16583069 1.7043052 1.4176944
0.14856473 1.6839428 1.3199379
0.12447286 1.5501343 1.1835129
0.10974085 1.5352175 1.1001159
0.095915556 1.5274092 1.0218567
0.083007812 1.5310123 0.94879639
0.069011979 1.5026505 0.8695733
0.058197919 1.5516479 0.80837429
0.039722823 1.567407 0.70380843
0.027134933 1.563206 0.63256258
0.013856065 1.4906044 0.55740559
0.0024196615 1.5651467 0.49267989
-0.0098953359 1.5643934 0.42298025
-0.022210255 1.5651695 0.35328081
-0.034546576 1.5644685 0.28346002
-0.053026512 1.5572715 0.17886768
-0.065422736 1.5533282 0.10870674
-0.078187682 1.5576624 0.03645568
-0.091189139 1.5622336 -0.037136097
-0.10464269 1.5707873 -0.11329043
-0.039176658 -0.067603685 0.25803843
-0.041855887 -0.070052385 0.24293311
-0.044415317 -0.09073709 0.22854498
-0.045875493 -0.1056373 0.22034721
-0.046240602 -0.11613501 0.21831653
-0.048043497 -0.12610357 0.20817621
-0.051063176 -0.13796233 0.19117823
-0.053335425 -0.14399879 0.17837742
-0.056253862 -0.14595422 0.16191435
-0.062043905 -0.14195788 0.12921505
-0.079567187 -0.062735781 0.029985085
-0.084179096 -0.10479294 0.0040324447
-0.084667854 -0.1272355 0.0013352318
-0.086522572 -0.14295851 -0.009103559
-0.086548708 -0.16572511 -0.0091798119
-0.086541124 -0.18756992 -0.009065249
-0.086363517 -0.20903839 -0.0079873996
-0.086327307 -0.22915004 -0.0077112676
-0.086297736 -0.24849017 -0.0074730339
-0.085969053 -0.26793224 -0.0055399081
-0.086143292 -0.28547367 -0.0064574815
-0.08619795 -0.30284142 -0.0066977004
-0.086725451 -0.32733977 -0.0095838439
-0.086666204 -0.34403464 -0.0091793947
-0.086498372 -0.36053565 -0.0081598368
-0.086565301 -0.37643784 -0.0084713567
-0.086704135 -0.39208171 -0.0091908639
-0.086573839 -0.40779439 -0.0083852783
-0.08680325 -0.43084577 -0.0095860949
-0.086781345 -0.44621781 -0.0093961265
-0.08666607 -0.46153885 -0.0086773401
-0.086805239 -0.47685966 -0.009401489
-0.08667773 -0.49216202 -0.0086144144
-0.086975701 -0.50774032 -0.010240131
-0.086811528 -0.53099585 -0.0092150914
-0.086937204 -0.53898591 -0.009896622
-0.086991832 -0.5629918 -0.010114242
-0.087012611 -0.5793016 -0.010171648
-0.087093793 -0.59602988 -0.010572445
-0.087228231 -0.61325359 -0.01127614
-0.087209634 -0.63947701 -0.011084572
-0.087046966 -0.65717942 -0.010105953
-0.087229803 -0.67634082 -0.011088016
-0.087578051 -0.69674397 -0.013009718
-0.083108522 -0.70204246 0.012395479
-0.078966759 -0.70689857 0.03594289
-0.079031669 -0.72660339 0.035626605
-0.078657776 -0.74544656 0.037798177
-0.088140368 -0.82213908 -0.015935507
-0.088274941 -0.84926933 -0.01665807
-0.087529764 -0.88805938 -0.012372703
-0.08743839 -0.91832 -0.011820227
-0.0881152 -0.95573002 -0.015632069
-0.26213905 -2.3147981 -1.0036849
-0.26155597 -2.4499612 -1.0004991
-0.26243871 -2.6110914 -1.0056601
-0.264321 -2.7994642 -1.0165269
-0.23111384 -2.7520518 -0.82815677
-0.21103182 -2.726378 -0.71423906
-0.19439472 -2.7308478 -0.6198895
-0.17659825 -2.7130225 -0.51893783
-0.1453045 -2.7137182 -0.34145439
-0.037920244 -2.7070954 0.26761988
-0.024284672 -2.7092197 0.34495765
-0.0038389624 -2.7112632 0.46092284
0.0097222989 -2.7015424 0.53785777
0.023234753 -2.6931031 0.61451453
0.03010283 -2.6953285 0.65345377
0.043671954 -2.688756 0.73049647
0.057635784 -2.6932285 0.80975991
0.3813926 -8.8558006 2.6360965
0.3184492 -4.9207821 2.2857974
0.48038667 -6.0040412 3.2025759
0.49726069 -5.7324519 3.298785
0.49864787 -4.9748802 3.3080232
0.5007956 -4.6658835 3.3207755
0.50953633 -4.2948856 3.371052
0.48309794 -3.8501949 3.2219071
0.4947972 -3.694669 3.2885761
0.50389421 -3.530699 3.3404999
0.49499467 -3.2746599 3.2905123
0.4923116 -3.0709262 3.2756934
0.49112996 -2.8878651 3.2693548
0.49729946 -2.6676407 3.3047957
0.50049442 -2.5245714 3.3232093
0.48553056 -2.3191979 3.2387457
0.49585155 -2.2162061 3.297503
0.48865634 -2.0574889 3.2570179
0.48575234 -1.9201952 3.2408316
0.48572925 -1.7362829 3.2410855
0.48328617 -1.6127664 3.2274883
0.48192364 -1.4959003 3.2200065
0.48008808 -1.3816062 3.209837
0.4798165 -1.2731718 3.2085254
0.48119661 -1.1693512 3.2165709
0.48345053 -1.0678275 3.2295654
0.43819967 -0.91863346 2.9732687
0.48237696 -0.81124848 3.2240102
0.4633947 -0.70128614 3.1166
0.47094187 -0.60761255 3.1595876
0.46611503 -0.50998664 3.1324184
0.46452057 -0.41408405 3.1235723
0.044963673 -0.42725694 0.74489832
0.044205658 -0.40468973 0.74078512
0.032250948 -0.40292546 0.6731236
0.030678643 -0.39589655 0.66429573
0.029630627 -0.39300215 0.65839636
0.028762678 -0.38089442 0.65360689
0.028233234 -0.37275976 0.6506927
0.027664728 -0.35995054 0.64760113
0.027814945 -0.35471243 0.6484977
0.027746232 -0.34495932 0.64819682
0.027961669 -0.32863513 0.64955276
0.028146626 -0.31696737 0.65069151
0.028318182 -0.29873985 0.6517995
0.030202406 -0.27808338 0.66258109
0.035181247 -0.22480336 0.69101691
0.03344807 -0.21680208 0.68127441
0.031675957 -0.20920119 0.67131054
0.030341087 -0.19908144 0.66382796
0.029392146 -0.18616779 0.65853578
0.028883714 -0.16942962 0.65574431
0.028699217 -0.13722065 0.65484059
0.031720165 -0.071656913 0.67213863
0.1940514 1.6836891 1.594148
0.17870171 1.6989485 1.5071803
0.15539268 1.7097719 1.3751048
0.13678803 1.6661744 1.2696344
0.11358641 1.533271 1.1380317
0.099690557 1.5269727 1.059291
0.086887158 1.5348626 0.98675478
0.075048357 1.5613971 0.91970086
0.06149656 1.5445207 0.84290242
0.049280122 1.5581892 0.7736969
0.030735195 1.5701028 0.66863263
0.018202841 1.5656258 0.59762228
0.0058951448 1.5715877 0.52789229
-0.0064969487 1.5580788 0.4576709
-0.018770903 1.5640861 0.38813147
-0.031008912 1.5566331 0.31878716
-0.043407258 1.5626791 0.24854149
-0.061947782 1.5575802 0.14348698
-0.074588157 1.5602425 0.07186579
-0.087464675 1.5641847 -0.0010942497
-0.10054739 1.5673379 -0.075224489
-0.040344875 -0.066611543 0.26557356
-0.0431589 -0.066938482 0.24969074
-0.045087926 -0.078702703 0.23882101
-0.047531772 -0.099495001 0.22506547
-0.049091503 -0.11271957 0.21628983
-0.050723441 -0.12444016 0.20710564
-0.052357897 -0.13556227 0.19790761
-0.054636229 -0.1413306 0.18506069
-0.057001848 -0.14683792 0.17171894
-0.060376905 -0.14611135 0.15265526
-0.084809244 -0.074871302 0.014353187
-0.086990401 -0.090233706 0.0020529348
-0.087865293 -0.13598098 -0.0027745182
-0.088809587 -0.15527271 -0.0080606844
-0.089030109 -0.17671634 -0.0092425933
-0.089085303 -0.19786321 -0.0094863623
-0.088979051 -0.21867336 -0.0088140164
-0.088715553 -0.23910803 -0.0072493427
-0.088771418 -0.25786152 -0.0074948887
-0.088693969 -0.27635723 -0.0069839037
-0.088648513 -0.29420617 -0.006653815
-0.088929489 -0.31941631 -0.008137716
-0.089257196 -0.33559784 -0.0099225733
-0.08897651 -0.35245773 -0.0082569253
-0.088925436 -0.3686282 -0.0078929327
-0.088942856 -0.38446513 -0.0079169357
-0.08903347 -0.40005055 -0.008355693
-0.089028165 -0.41557273 -0.0082500968
-0.089189112 -0.43858996 -0.0090489313
-0.089295723 -0.45390397 -0.009577156
-0.089135893 -0.46921003 -0.0085940026
-0.08940392 -0.48459372 -0.010037015
-0.089231804 -0.49991474 -0.0089834845
-0.089311711 -0.5154326 -0.0093589639
-0.089080855 -0.53866661 -0.0079325074
-0.089354053 -0.54685837 -0.009442688
-0.089338191 -0.57091576 -0.0092345309
-0.089644887 -0.58780897 -0.010894746
-0.089838453 -0.60495102 -0.011913014
-0.089916267 -0.62231678 -0.012274384
-0.090036839 -0.64025474 -0.012877923
-0.089588501 -0.66653788 -0.010214012
-0.089706972 -0.68583941 -0.010804606
-0.087404668 -0.69815683 0.0023344974
-0.082963437 -0.70261049 0.027604675
-0.081038095 -0.71483123 0.038606454
-0.080351837 -0.74194831 0.042622879
-0.090258934 -0.80757064 -0.013479167
-0.090391971 -0.83374304 -0.014148883
-0.089467227 -0.87008685 -0.0087760463
-0.090153493 -0.9035114 -0.012581254
-0.09064205 -0.93841219 -0.015264205
-0.090455532 -0.97175354 -0.014117781
-0.26422924 -2.3773918 -0.99931967
-0.26543784 -2.5331006 -1.0060509
-0.26703647 -2.7091017 -1.0149871
-0.26464495 -2.8675349 -1.0012919
-0.20554614 -2.7273622 -0.66587001
-0.18818498 -2.718884 -0.5673008
-0.15617836 -2.7158554 -0.38556099
-0.14062442 -2.7107913 -0.29724017
-0.034303293 -2.7075245 0.30657929
-0.013893752 -2.7046187 0.42249751
-0.00030846306 -2.7052591 0.4996582
0.013200429 -2.6961782 0.57638228
0.033594597 -2.6918981 0.69218308
0.047097139 -2.681978 0.76882732
0.47752756 -6.269896 3.2119436
0.4844847 -5.8646474 3.2513156
0.49748614 -5.5671163 3.3250101
0.49270862 -5.1346374 3.2978232
0.50062704 -4.8582811 3.342701
0.5025847 -4.4119444 3.3537478
0.50272167 -4.1385689 3.3544981
0.47094101 -3.6761813 3.1741595
0.50467795 -3.6666811 3.3655715
0.49825048 -3.4133477 3.3291028
0.49030393 -3.171458 3.2840238
0.48794031 -2.9758937 3.2706263
0.48667595 -2.7979107 3.2634706
0.4945704 -2.5908329 3.3082912
0.46786803 -2.3345971 3.1568356
0.49525681 -2.2953925 3.3122427
0.48981437 -2.1378675 3.2814023
0.48386925 -1.9871762 3.247714
0.47891518 -1.8471118 3.219651
0.48042941 -1.6711701 3.2283056
0.47902071 -1.5523688 3.2203605
0.47727731 -1.4366035 3.2105191
0.47540548 -1.3240542 3.1999512
0.47780827 -1.2212247 3.2136321
0.47939506 -1.1182559 3.2226863
0.4356851 -0.96556306 2.9748049
0.47978082 -0.91253334 3.2249854
0.47645158 -0.75891167 3.206188
0.46876398 -0.65638757 3.1626422
0.46686277 -0.55861068 3.1519196
0.46263209 -0.46183094 3.1279852
0.041652057 -0.4220407 0.74038774
0.041708078 -0.41049412 0.74077928
0.031126866 -0.4059234 0.68087327
0.028895373 -0.39946884 0.66829038
0.026443938 -0.38057524 0.65457183
0.025631733 -0.36836433 0.65007693
0.02502434 -0.35556394 0.64674389
0.024808554 -0.34632742 0.64559484
0.025135811 -0.33510581 0.64752603
0.025089985 -0.31909281 0.64737874
0.025340525 -0.30674472 0.64887512
0.026752494 -0.28883281 0.65695935
0.027719369 -0.27140263 0.66251916
0.032382682 -0.2180801 0.6891219
0.03011553 -0.21295509 0.67633843
0.028447464 -0.20483786 0.66695315
0.027432725 -0.19262338 0.66127384
0.02665651 -0.17820506 0.65694767
0.026610861 -0.15746929 0.65676576
0.031836871 -0.079099178 0.68652648
0.20032786 1.6834468 1.6425264
0.1840858 1.6918166 1.5504868
0.16800813 1.6963178 1.4593794
0.1502151 1.6723615 1.3585401
0.11844207 1.5371258 1.1784379
0.1043124 1.5305425 1.0983778
0.090934791 1.5303218 1.0225842
0.078155838 1.5368438 0.95018679
0.064295128 1.5124214 0.87165022
0.053230383 1.5555949 0.80898011
0.034687247 1.5693964 0.70393145
0.022099135 1.5651959 0.63261533
-0.0026115656 1.5681298 0.49262491
-0.01493334 1.5683702 0.42281991
-0.027188258 1.5571431 0.35339236
-0.039440498 1.5544535 0.28398117
-0.058066737 1.5592053 0.17845957
-0.07062652 1.56117 0.10730453
-0.083195798 1.5585759 0.036094781
-0.096308917 1.5660542 -0.038198028
-0.10963949 1.5716668 -0.1137246
-0.044640467 -0.060283985 0.25496534
-0.047962215 -0.073344633 0.23623607
-0.048036493 -0.089183055 0.23584962
-0.049528614 -0.10390422 0.2274593
-0.051062264 -0.11704234 0.2188336
-0.053775411 -0.13166642 0.2035552
-0.055662252 -0.14044349 0.19292681
-0.057917576 -0.14641874 0.18020891
-0.060707565 -0.14907661 0.16445902
-0.065375566 -0.14058352 0.13805948
-0.084820941 -0.060689207 0.027896736
-0.089457832 -0.1029433 0.0017746417
-0.089135557 -0.12916201 0.0036713693
-0.091398694 -0.14303961 -0.0090936441
-0.091423832 -0.16580658 -0.0091670109
-0.091415346 -0.18765172 -0.00904964
-0.091237016 -0.20912042 -0.0079689818
-0.091200076 -0.22923239 -0.0076901931
-0.091325909 -0.24813442 -0.0083345072
-0.091157995 -0.26720148 -0.0073128785
-0.091014326 -0.28555691 -0.0064287693
-0.091543995 -0.31055889 -0.0093289735
-0.091428988 -0.32771668 -0.0086075421
-0.091367774 -0.34437829 -0.0081912465
-0.091367468 -0.36062068 -0.0081205079
-0.091434129 -0.37652329 -0.0084297042
-0.091401204 -0.392324 -0.0081741856
-0.091442361 -0.40788049 -0.0083389571
-0.091387942 -0.42336389 -0.0079617258
-0.091649696 -0.44630495 -0.0093439668
-0.091708191 -0.4616262 -0.0096076438
-0.091673791 -0.47694749 -0.0093445601
-0.091719732 -0.49231982 -0.0095374342
-0.091671959 -0.5077244 -0.0091989134
-0.091702014 -0.52328146 -0.0093021439
-0.091806836 -0.53907526 -0.0098297819
-0.091692984 -0.56285673 -0.0090838838
-0.091715783 -0.57913297 -0.0091469511
-0.092131242 -0.59641284 -0.011438022
-0.09210033 -0.61334461 -0.01119712
-0.091922037 -0.63919401 -0.010088059
-0.091921322 -0.65727121 -0.010019543
-0.092261128 -0.67687148 -0.011883536
-0.092607632 -0.69730628 -0.01378623
-0.087536782 -0.70063227 0.015048874
-0.083259881 -0.70486587 0.039379932
-0.083107121 -0.73350871 0.040340845
-0.084063753 -0.75832862 0.034974072
-0.09329506 -0.82349294 -0.017351903
-0.093031056 -0.84870893 -0.015795857
-0.092046157 -0.88607103 -0.010121647
-0.092331998 -0.9184159 -0.011689279
-0.093708389 -0.96028566 -0.019448737
-0.26630273 -2.3095171 -0.9991101
-0.26627806 -2.4485788 -0.99898845
-0.26767227 -2.6138155 -1.0069325
-0.26983404 -2.8047917 -1.0192477
-0.23517065 -2.742645 -0.82249522
-0.21626236 -2.7292495 -0.7151711
-0.18263413 -2.7270019 -0.52429551
-0.16663939 -2.7265062 -0.43350574
-0.150575 -2.7176478 -0.34231552
-0.043087874 -2.7101505 0.26785877
-0.029433746 -2.7102702 0.34537187
-0.0090023344 -2.7102978 0.46135941
0.0045244312 -2.69857 0.53815854
0.01808491 -2.6951077 0.6151433
0.024938405 -2.6963298 0.65401357
0.0385039 -2.6897416 0.73109001
0.052371785 -2.6912425 0.80987591
0.37720504 -8.8970528 2.6485755
0.2991477 -4.9510508 2.208987
0.47454092 -6.0036783 3.203618
0.49253237 -5.7434459 3.3059888
0.48855719 -4.935925 3.2842197
0.49509257 -4.6655059 3.3215923
0.50333577 -4.2905612 3.3687754
0.47872534 -3.8582594 3.2295482
0.49129945 -3.7076745 3.30109
0.49855879 -3.53176 3.3424935
0.49170017 -3.2867935 3.3038452
0.48717907 -3.072566 3.2784357
0.48456642 -2.8823569 3.2638354
0.48507538 -2.7180181 3.2669258
0.49545634 -2.5259202 3.3260846
0.48009554 -2.3188381 3.2391655
0.49191052 -2.2209888 3.3063476
0.48567742 -2.0648844 3.2711754
0.47850254 -1.9143891 3.2306552
0.478163 -1.7903315 3.2288942
0.47567219 -1.6071669 3.2150064
0.47576043 -1.4938366 3.215661
0.4754138 -1.3824908 3.2138462
0.47465971 -1.2730966 3.2097166
0.4758828 -1.1689998 3.2167983
0.47831571 -1.0676827 3.2307396
0.43310228 -0.91849077 2.9744215
0.47796023 -0.81150728 3.2290661
0.45796302 -0.70086396 3.115768
0.46690264 -0.60763842 3.1666062
0.46139476 -0.50970286 3.1354904
0.45911613 -0.41376716 3.12269
0.039664906 -0.43314236 0.74355006
0.038958047 -0.41641119 0.7396912
0.039145209 -0.40468594 0.74085325
0.027360246 -0.40270606 0.67414999
0.025617156 -0.39590338 0.66436124
0.024735237 -0.39273417 0.65940791
0.024025803 -0.38025165 0.65553206
0.023166126 -0.37276855 0.65075409
0.022594681 -0.35995981 0.64766032
0.022405216 -0.35073617 0.64668399
0.022673238 -0.34496856 0.64825362
0.022735493 -0.32914424 0.648754
0.022921761 -0.31750625 0.6499086
0.023095742 -0.29932231 0.6510421
0.025536709 -0.27628538 0.66498667
0.03180109 -0.2162782 0.70071715
0.028744053 -0.21476112 0.68347174
0.026712269 -0.20850047 0.67204219
0.02537163 -0.19835752 0.66453314
0.024416961 -0.18542129 0.6592133
0.023793697 -0.16943824 0.6557731
0.023302294 -0.13965653 0.65312779
0.18902475 1.68293 1.5934247
0.17368506 1.6981616 1.5064844
0.1507428 1.7135123 1.3764554
0.13243958 1.6745911 1.2727087
0.10840423 1.5295668 1.1364578
0.094639763 1.5251145 1.0584559
0.081994005 1.5358585 0.98679823
0.070489787 1.5701554 0.92161244
0.056776077 1.5504048 0.84390038
0.044134449 1.5513016 0.77226692
0.025824945 1.5710882 0.66851723
0.013256741 1.5646127 0.5973013
0.00086553866 1.5605769 0.527089
-0.011427017 1.5580437 0.45743611
-0.023711454 1.5680414 0.38782656
-0.035937682 1.5565802 0.31855184
-0.048349697 1.5636132 0.24821904
-0.066850722 1.5565147 0.14338768
-0.079574488 1.5621276 0.071286611
-0.092461787 1.5660468 -0.0017418121
-0.10542943 1.566264 -0.075225048
-0.046017386 -0.059253506 0.26263082
-0.048525732 -0.064259246 0.24849765
-0.05024723 -0.078765422 0.23883133
-0.051505461 -0.096994512 0.23179455
-0.053017415 -0.11091171 0.22331731
-0.054586533 -0.12328099 0.21451552
-0.057437398 -0.13644907 0.19849086
-0.059400938 -0.14459433 0.18745057
-0.061860003 -0.14924017 0.17359808
-0.065109618 -0.14920333 0.15525925
-0.092570998 -0.08835721 -0.00016671
-0.093203686 -0.13547128 -0.0035441797
-0.094157055 -0.15479174 -0.0088478224
-0.094095804 -0.17735367 -0.0083939182
-0.094302505 -0.19795583 -0.0094605517
-0.094050422 -0.2192506 -0.0079238582
-0.094099313 -0.2387462 -0.0080950027
-0.094006203 -0.25795361 -0.0074603804
-0.094493248 -0.28409225 -0.010064251
-0.094056599 -0.29393959 -0.0075334762
-0.094348714 -0.31919912 -0.0090309791
-0.094349779 -0.33596539 -0.0089302752
-0.094409905 -0.35230744 -0.0091644581
-0.094365582 -0.3685118 -0.0088059073
-0.094389483 -0.38438287 -0.0088342382
-0.094314426 -0.40014189 -0.0083009517
-0.094314419 -0.41566396 -0.0081931772
-0.094392553 -0.43103349 -0.0085284496
-0.094421513 -0.45401257 -0.0085302219
-0.094614163 -0.46931842 -0.0095143151
-0.09454044 -0.4846324 -0.0089870701
-0.094547004 -0.50000554 -0.0089148525
-0.094804518 -0.51564521 -0.010265669
-0.094793186 -0.5312705 -0.010091087
-0.094594665 -0.55480176 -0.0087988451
-0.094845816 -0.57124805 -0.010111745
-0.094989419 -0.58789945 -0.010814097
-0.095023289 -0.60473245 -0.010893451
-0.095271751 -0.6224072 -0.01218906
-0.09485466 -0.64803654 -0.0096523389
-0.09495794 -0.66662776 -0.010122713
-0.09523689 -0.68638331 -0.011588197
-0.092785165 -0.69824511 0.0024300853
-0.088050909 -0.70166558 0.029389191
-0.086282872 -0.71437037 0.039530311
-0.086010993 -0.73295957 0.041189823
-0.095530592 -0.80704463 -0.012592969
-0.096073262 -0.83511823 -0.015543984
-0.095146157 -0.87153977 -0.010097996
-0.095339864 -0.90218639 -0.011065627
-0.096081711 -0.9385016 -0.015136617
-0.096358739 -0.97486162 -0.016570034
-0.26919824 -2.3728025 -0.99544495
-0.27105692 -2.5333035 -1.0057111
-0.27211213 -2.7042732 -1.0114057
-0.27129725 -2.8771658 -1.0064864
-0.2121294 -2.7383108 -0.67068446
-0.19435354 -2.7254303 -0.56973988
-0.17827657 -2.7267742 -0.47841761
-0.146529 -2.7147155 -0.29809409
-0.033258628 -2.7132852 0.34542289
-0.019629356 -2.712657 0.42285833
-0.0060354844 -2.7072875 0.50008732
0.0075177429 -2.7011871 0.57708478
0.027874555 -2.6928983 0.69266295
0.041572131 -2.6898789 0.77041757
0.055060871 -2.6771855 0.84697598
0.47165751 -6.2732267 3.2144816
0.47868508 -5.8679113 3.253921
0.49113706 -5.5642433 3.3242478
0.48428285 -5.1123176 3.2849109
0.49365285 -4.8497162 3.3378136
0.49736279 -4.4172606 3.3584569
0.49571007 -4.1305246 3.3488243
0.4643915 -3.6713998 3.1707466
0.49526352 -3.6444683 3.3458824
0.49045107 -3.4017668 3.3183885
0.48487478 -3.1732419 3.2865808
0.48071223 -2.9684176 3.2628207
0.48777625 -2.7463343 3.3027573
0.49022815 -2.5964496 3.3165791
0.46071169 -2.3287606 3.1489584
0.49174964 -2.3030815 3.3250525
0.48381591 -2.1366119 3.2799582
0.47818705 -1.986925 3.2479568
0.475431 -1.8530015 3.2322683
0.47589719 -1.6736584 3.234854
0.47289565 -1.5510485 3.2177901
0.47279826 -1.4386394 3.217211
0.46995431 -1.3241055 3.2010529
0.47203273 -1.2207245 3.2128282
0.47396556 -1.1182394 3.2237806
0.43095344 -0.96630085 2.9797549
0.47042805 -0.9088524 3.203696
0.4710567 -0.75877964 3.2072592
0.46580285 -0.6572023 3.177458
0.46044418 -0.55820686 3.1470668
0.4570888 -0.46160477 3.1280425
0.036116332 -0.42204407 0.7404384
0.036343303 -0.41034099 0.7418012
0.025758678 -0.40572444 0.681885
0.023524836 -0.39923707 0.66929352
0.022271717 -0.39191678 0.66226459
0.020806897 -0.37614807 0.65411371
0.019793192 -0.36436114 0.64848268
0.019480158 -0.35557601 0.64678603
0.019613951 -0.35030687 0.64758402
0.019821065 -0.33959049 0.64883697
0.01954288 -0.31910476 0.64741671
0.019792682 -0.30675653 0.64891171
0.020528508 -0.285321 0.65320158
0.022444472 -0.2701818 0.66410398
0.027221616 -0.21608081 0.69134468
0.025573866 -0.21613255 0.68204141
0.023258567 -0.2026899 0.66903126
0.021997126 -0.19189081 0.66195738
0.020340715 -0.17333142 0.65268326
0.020950815 -0.1582683 0.65618056
0.02618641 -0.079926759 0.68597507
0.19540207 1.6887156 1.6453255
0.17855412 1.6909983 1.5498694
0.16164064 1.6855886 1.4540448
0.14056441 1.7199633 1.3346493
0.11265872 1.5324903 1.1765364
0.098327212 1.5220585 1.0953571
0.085455067 1.5303413 1.0224497
0.072852664 1.5407207 0.95107204
0.059237063 1.5231462 0.87395573
0.047807019 1.5575597 0.80922192
0.035375793 1.5650871 0.73881721
0.016581988 1.5641886 0.63238019
-0.0081305709 1.5661073 0.4924258
-0.020444665 1.5533413 0.42269096
-0.032691691 1.5551095 0.35333374
-0.04506905 1.5633917 0.28323638
-0.063592635 1.5591574 0.17833455
-0.076156631 1.5611167 0.10718041
-0.088962145 1.5653888 0.034656331
-0.10173048 1.5630671 -0.037655693
-0.11513755 1.5706315 -0.11359144
-0.050316993 -0.059404127 0.25459391
-0.052458562 -0.069233924 0.24253613
-0.05357153 -0.090115756 0.23631261
-0.054892488 -0.10657021 0.22890881
-0.05754355 -0.12244716 0.21400437
-0.059203688 -0.13336793 0.20467605
-0.061082948 -0.14210555 0.1941047
-0.06322398 -0.14882748 0.18204853
-0.066002101 -0.15142038 0.16637903
-0.070077561 -0.14657591 0.14335175
-0.0920422 -0.065718748 0.018955629
-0.095058799 -0.076924674 0.0019340926
-0.095497966 -0.10107113 -0.00047056843
-0.095052853 -0.12798648 0.0021392733
-0.097044848 -0.14309594 -0.0090725487
-0.09692847 -0.16642179 -0.0083278073
-0.09691906 -0.18823744 -0.0081900777
-0.097040713 -0.20867591 -0.0087959999
-0.096855663 -0.22928755 -0.0076629245
-0.096983731 -0.24818937 -0.0083059343
-0.096659347 -0.26766279 -0.0063833478
-0.096676446 -0.28561121 -0.0063976874
-0.097373515 -0.31028745 -0.010227435
-0.097262412 -0.32747811 -0.0095155146
-0.097037144 -0.34443179 -0.0081563927
-0.09703882 -0.3606739 -0.0080846567
-0.097107448 -0.37657624 -0.0083928928
-0.097076446 -0.39237672 -0.0081364401
-0.097119503 -0.40793294 -0.0083003091
-0.097239926 -0.42332894 -0.0089032426
-0.097331494 -0.44635677 -0.0093031609
-0.097218141 -0.46167776 -0.0085811606
-0.097185619 -0.47696385 -0.008317885
-0.097406857 -0.4923709 -0.0094941808
-0.09736079 -0.50777519 -0.0091548758
-0.097392552 -0.52333194 -0.009257325
-0.097259492 -0.54677927 -0.0083869407
-0.097676091 -0.55523884 -0.010711473
-0.097915158 -0.57995915 -0.011953182
-0.097829141 -0.59646231 -0.011389702
-0.09812808 -0.61404502 -0.013010339
-0.098305687 -0.63190407 -0.013943359
-0.097783037 -0.65772641 -0.010868173
-0.097653657 -0.67604291 -0.010061389
-0.097700566 -0.69547641 -0.010255405
-0.092792384 -0.6991784 0.017659934
-0.088819951 -0.70438051 0.040267419
-0.089623518 -0.72673529 0.035779569
-0.089358449 -0.7565673 0.037388083
-0.098873176 -0.82291049 -0.016528582
-0.098876089 -0.84941155 -0.016480135
-0.097761564 -0.8861168 -0.010061302
-0.1009415 -0.93572646 -0.028045658
-0.27246204 -2.3127661 -1.0013995
-0.272212 -2.4502931 -1.0000045
-0.27330288 -2.6130826 -1.0062335
-0.2746394 -2.796407 -1.0138726
-0.24845996 -2.7272463 -0.86529905
-0.22300069 -2.7409117 -0.72083533
-0.2054069 -2.7347322 -0.62099475
-0.18874826 -2.7325933 -0.52646047
-0.17290254 -2.734972 -0.43654007
-0.14095831 -2.7137926 -0.25524721
-0.048750855 -2.7091804 0.26805225
-0.035069682 -2.7042975 0.34570089
-0.014690625 -2.7033169 0.46135893
-0.0011290821 -2.6995831 0.53832775
0.012532771 -2.7020922 0.61585987
0.019280434 -2.6963391 0.65412921
0.033047974 -2.6976695 0.73229909
0.046668466 -2.6892755 0.80964345
0.37189433 -8.8969784 2.6488807
0.29257914 -4.9352369 2.2028713
0.46713424 -5.9804258 3.1921625
0.48549312 -5.7258654 3.2965951
0.50800788 -5.5342417 3.4245408
0.48753741 -4.9744182 3.3090169
0.49090889 -4.6752515 3.3284831
0.48607293 -4.3405089 3.3014305
0.47477019 -3.8681414 3.2378607
0.48356736 -3.6927352 3.2879858
0.49496263 -3.5424731 3.352823
0.48628429 -3.28672 3.303905
0.48485586 -3.0885539 3.2960532
0.48020312 -2.88743 3.269917
0.4812867 -2.7253385 3.2762787
0.48917025 -2.5224125 3.3212771
0.4724668 -2.3106072 3.226804
0.486321 -2.2204118 3.305527
0.4790152 -2.0609472 3.2643042
0.47552633 -1.9215961 3.2447102
0.47207728 -1.7885866 3.2253361
0.47230473 -1.6119847 3.2268844
0.47013307 -1.4934448 3.2147405
0.46879029 -1.3802797 3.2072918
0.46918947 -1.2730502 3.2097163
0.47108427 -1.1699226 3.220618
0.47301081 -1.0678474 3.2316978
0.42795059 -0.91880125 2.9763565
0.47015116 -0.86017269 3.2157903
0.45264363 -0.70091587 3.11674
0.46158332 -0.6076563 3.1675789
0.45676509 -0.50975776 3.1404021
0.45413503 -0.41368437 3.1256313
0.034288827 -0.42725748 0.74497855
0.033478547 -0.42203996 0.74042839
0.033701964 -0.40451735 0.74183053
0.021915358 -0.40248689 0.67511708
0.020172318 -0.39565036 0.66531968
0.019066518 -0.38826406 0.65913624
0.018499726 -0.3847042 0.65596563
0.01755869 -0.3727743 0.65076041
0.016989857 -0.35996547 0.64766616
0.017139964 -0.35472721 0.64856172
0.016703637 -0.34099549 0.64621919
0.016571624 -0.32567966 0.64560306
0.01732365 -0.31751162 0.64991337
0.017993424 -0.30339804 0.65380174
0.019776585 -0.27017885 0.66409636
0.027750114 -0.21738988 0.70942271
0.023533477 -0.21272005 0.6856367
0.021367528 -0.20709117 0.67343909
0.020019246 -0.19689967 0.66588056
0.018942641 -0.18467134 0.65986365
0.018315487 -0.16866578 0.65639722
0.017511547 -0.14127916 0.65197468
0.18341511 1.6837946 1.5939378
0.16822216 1.7008245 1.5078639
0.15168411 1.697176 1.4141523
0.13352981 1.6637959 1.3112618
0.10240652 1.5248598 1.1348159
0.089042753 1.5270087 1.0591089
0.076428942 1.5387349 0.98765898
0.06502673 1.5759702 0.92309129
0.051492117 1.5621365 0.84640837
0.038715549 1.5611444 0.77403003
0.019929679 1.5631438 0.66761339
0.0075275088 1.56461 0.59735954
-0.0049026744 1.5565809 0.52694291
-0.017141491 1.5650424 0.45761859
-0.029407637 1.5540447 0.38813129
-0.041725218 1.5615762 0.31836021
-0.053943601 1.5536554 0.24914543
-0.072552629 1.5545409 0.14373283
-0.08502689 1.5522879 0.073069848
-0.098256744 1.5670354 -0.0018709259
-0.11106581 1.5633657 -0.074432671
-0.1254546 1.5877702 -0.15594141
-0.054218236 -0.062424604 0.24770373
-0.055642739 -0.08055491 0.23970118
-0.056967895 -0.097868763 0.23226246
-0.058384374 -0.11263451 0.22430699
-0.059847917 -0.12581527 0.21608531
-0.061680924 -0.13500103 0.20577012
-0.063651472 -0.14288864 0.19467558
-0.067061365 -0.15155922 0.17546017
-0.070182048 -0.15220883 0.15784645
-0.076934017 -0.14297085 0.11968596
-0.098239444 -0.087680876 -0.00090247131
-0.098731011 -0.13544981 -0.0035396025
-0.099822372 -0.15419598 -0.0096511329
-0.099759392 -0.1767863 -0.0092179524
-0.099815622 -0.19793256 -0.0094600944
-0.099710353 -0.21874203 -0.0087861978
-0.099602543 -0.23872189 -0.0080974773
-0.099504605 -0.25792882 -0.007464298
-0.099587947 -0.27603307 -0.0078585548
-0.10004952 -0.30156419 -0.010357614
-0.099216312 -0.31186819 -0.005594051
-0.099427819 -0.32830757 -0.0067140767
-0.099883057 -0.3522796 -0.0091760745
-0.099834144 -0.36848345 -0.0088189617
-0.09968245 -0.38452768 -0.0078788986
-0.099773847 -0.40011251 -0.0083169062
-0.099769272 -0.41563407 -0.0082105994
-0.099842876 -0.43100303 -0.0085473489
-0.099822991 -0.44633973 -0.008353821
-0.10005307 -0.46928659 -0.0095370105
-0.099801235 -0.48454776 -0.0080278562
-0.099976569 -0.49997264 -0.0089407228
-0.10022945 -0.51561177 -0.010293166
-0.10021336 -0.53123653 -0.010120257
-0.10010049 -0.5469144 -0.0093984939
-0.10008533 -0.57097083 -0.0091896979
-0.10022558 -0.58758789 -0.0099027976
-0.100091 -0.60407805 -0.0090574669
-0.10066471 -0.62237012 -0.012228282
-0.10094666 -0.6406821 -0.013744529
-0.10742084 -0.68560535 -0.050331976
-0.10061107 -0.68634444 -0.011634784
-0.09754625 -0.69626737 0.0058270963
-0.093563296 -0.70214301 0.02849534
-0.091786683 -0.71487749 0.038652785
-0.091363467 -0.73292172 0.041135993
-0.10141899 -0.80946517 -0.015757941
-0.1014073 -0.83507562 -0.015607868
-0.1005332 -0.90143561 -0.010441162
-0.10127112 -0.93772578 -0.014541001
-0.101772 -0.9755711 -0.017296439
-0.27434054 -2.3726912 -0.99564672
-0.27617007 -2.5331903 -1.0059302
-0.27662626 -2.6991265 -1.008425
-0.27634612 -2.8770499 -1.0067433
-0.23955515 -2.7925453 -0.7979899
-0.18361579 -2.7313266 -0.48052225
-0.15227392 -2.727958 -0.30262116
-0.10082332 -2.7242584 -0.01056099
-0.045026869 -2.7165334 0.30618516
-0.024526853 -2.7096357 0.42256182
-0.010935458 -2.7052736 0.49971917
0.0026272959 -2.7001805 0.57671386
0.023182804 -2.7018318 0.6934365
0.036746465 -2.6918612 0.77041769
0.050280578 -2.6801438 0.84723103
0.46985361 -6.3013172 3.2270923
0.47730461 -5.8990479 3.2693748
0.47765014 -5.472681 3.2713673
0.48893631 -5.1956687 3.3354063
0.48924568 -4.8499618 3.3372011
0.48408464 -4.4948144 3.3079782
0.48159024 -4.1938839 3.29388
0.46046218 -3.6761649 3.1741471
0.495866 -3.6769054 3.3749554
0.4881351 -3.4154572 3.3311703
0.4832359 -3.1898646 3.3034439
0.47900644 -2.9837613 3.2795167
0.47859067 -2.8092365 3.2772155
0.48071384 -2.6554894 3.2893116
0.45833671 -2.3385162 3.1625159
0.48855489 -2.3091791 3.3339171
0.48123106 -2.1443784 3.2924492
0.47424379 -1.9900061 3.2528903
0.46976849 -1.8510731 3.2275755
0.46835852 -1.7264198 3.2196417
0.46540752 -1.6025525 3.2029707
0.46786439 -1.4389083 3.2169931
0.46766374 -1.329054 3.2159171
0.46707428 -1.2209967 3.2126367
0.46848947 -1.1178396 3.2207224
0.43430522 -0.9759053 3.0269654
0.44365054 -0.88925081 3.0800145
0.46847126 -0.76052433 3.2208359
0.45992172 -0.65713155 3.1724243
0.45715499 -0.55883372 3.1568
0.45205483 -0.46188137 3.1279459
0.031187458 -0.42758155 0.74199021
0.031449594 -0.41587001 0.74355102
0.018470915 -0.39899302 0.67019266
0.017428821 -0.39591014 0.66432208
0.015585661 -0.37614399 0.65405983
0.014868269 -0.36837152 0.65006757
0.014260526 -0.35557094 0.64673442
0.01422014 -0.33559749 0.64665508
0.01417902 -0.31962952 0.64653403
0.014901496 -0.3113279 0.65066713
0.015568417 -0.29060307 0.65455967
0.016908096 -0.26467198 0.66226578
0.023542315 -0.2169431 0.69994867
0.02074543 -0.21408601 0.68416715
0.018291404 -0.2012489 0.67036623
0.016905678 -0.19114432 0.66258448
0.016120488 -0.17667997 0.65820688
0.015638277 -0.15905203 0.65554661
0.015402805 -0.12579559 0.65432107
0.17347825 1.6917636 1.5505487
0.15663417 1.6872814 1.4551262
0.13782911 1.6494796 1.3485906
0.11339534 1.5169015 1.2101564
0.093219139 1.522947 1.0958792
0.080290362 1.5302943 1.0226537
0.067733072 1.5416495 0.95153385
0.05442423 1.531889 0.87615627
0.042742442 1.5604872 0.80999792
0.030103127 1.5611292 0.738415
0.017539561 1.5591754 0.66726208
-0.013360349 1.5551424 0.492266
-0.025606567 1.56438 0.42291117
-0.037859648 1.5561584 0.35352007
-0.05012178 1.5544734 0.28407687
-0.062595762 1.5622572 0.21343139
-0.081154294 1.5552775 0.1083304
-0.093890503 1.5586156 0.036199249
-0.10681225 1.561228 -0.036983442
-0.11980304 1.5601279 -0.11055695
-0.053706829 -0.043354966 0.26462916
-0.057707131 -0.068258196 0.24210645
-0.058824908 -0.089153998 0.23584889
-0.060066372 -0.106498 0.2288896
-0.061496641 -0.12043975 0.22085944
-0.064181671 -0.13494925 0.20575398
-0.066050351 -0.14364477 0.19523764
-0.068074167 -0.15111051 0.1838416
-0.07083758 -0.15363462 0.16825189
-0.074434027 -0.15169023 0.14793882
-0.10022853 -0.076811962 0.0019210349
-0.098769426 -0.097450159 0.010234612
-0.10035905 -0.12725703 0.0013421958
-0.10235471 -0.14239198 -0.0098926444
-0.10238563 -0.16518673 -0.0099877166
-0.1023827 -0.18706042 -0.0098909847
-0.10220968 -0.20855835 -0.008830023
-0.10217787 -0.22870009 -0.0085697873
-0.10199643 -0.24850936 -0.0074613546
-0.10214541 -0.2667304 -0.0082263099
-0.10253672 -0.29276508 -0.010325442
-0.10206467 -0.30251721 -0.0076093748
-0.10200576 -0.31971744 -0.0071959095
-0.10199896 -0.33641648 -0.0070778807
-0.10227688 -0.37645388 -0.0084550465
-0.10224613 -0.39225388 -0.0082013272
-0.10223728 -0.42329222 -0.0079924902
-0.10226386 -0.43863004 -0.0080638155
-0.10255899 -0.46921381 -0.0095782494
-0.10240643 -0.49217483 -0.0085942606
-0.10256694 -0.52320457 -0.009345307
-0.1026744 -0.53899747 -0.0098749911
-0.10292561 -0.57957071 -0.011100028
-0.10284249 -0.59603995 -0.010549058
-0.10332622 -0.63141418 -0.013131444
-0.10249178 -0.65637475 -0.0082812943
-0.10299651 -0.67634898 -0.011062214
-0.10288937 -0.69534367 -0.01037454
-0.097377226 -0.69705099 0.020951219
-0.094152547 -0.70478624 0.039310284
-0.094379663 -0.72493261 0.038103186
-0.094161667 -0.7442773 0.039419346
-0.10421368 -0.82340288 -0.017436171
-0.10408537 -0.84927422 -0.016627114
-0.10285085 -0.88528544 -0.0095066205
-0.10664778 -0.9384625 -0.030944776
-0.27723855 -2.3069146 -0.99753886
-0.2772533 -2.4459114 -0.99751824
-0.27791515 -2.6044533 -1.0011623
-0.27933905 -2.787585 -1.0091219
-0.25467026 -2.7329941 -0.86920679
-0.19413736 -2.7295835 -0.52577454
-0.17830659 -2.7319405 -0.43595222
-0.14750654 -2.7317665 -0.26119256
-0.040655818 -2.7072232 0.34511188
-0.027046578 -2.7046041 0.4223378
-0.0066381455 -2.705543 0.53814662
0.006985466 -2.7030728 0.6154536
0.013716929 -2.6963317 0.65363854
0.027389336 -2.693718 0.7312606
0.041049469 -2.6873317 0.80881232
0.28573889 -4.9235048 2.1971881
0.47237977 -6.1101651 3.2558939
0.48256898 -5.7596569 3.3137007
0.4975509 -5.4928155 3.3986957
0.47448453 -4.912066 3.2679009
0.48779917 -4.6987481 3.3434494
0.4825432 -4.3586326 3.3136797
0.4806028 -4.0742636 3.3027182
0.47009024 -3.6434839 3.243171
0.49629864 -3.5847616 3.3918481
0.48442301 -3.3081126 3.324553
0.48057854 -3.0957928 3.3028045
0.4766711 -2.8976142 3.2807007
0.47579294 -2.7258794 3.2757764
0.47796118 -2.576359 3.2881274
0.4574928 -2.3454385 3.1721191
0.48599273 -2.2384729 3.3338103
0.47532731 -2.066817 3.2733912
0.47127828 -1.9253057 3.2504897
0.46834621 -1.7933402 3.2339218
0.46443582 -1.6643695 3.211807
0.46249875 -1.5450771 3.2008812
0.46505374 -1.3835821 3.2154524
0.46415499 -1.2738457 3.2104125
0.46506163 -1.1692334 3.2156076
0.46768224 -1.0681621 3.2305191
0.42400679 -0.92048764 2.9829571
0.46641007 -0.86180568 3.2234113
0.44986865 -0.75100154 3.1296847
0.45686811 -0.65713227 3.1694167
0.4503262 -0.51011717 3.1324036
0.4485836 -0.41423297 3.1225724
0.028134651 -0.42217025 0.73936808
0.028360279 -0.41050214 0.74073786
0.017257955 -0.40654811 0.67794287
0.015160886 -0.39538485 0.66619378
0.013071296 -0.3805739 0.65453315
0.011807057 -0.35995486 0.64759558
0.011733335 -0.34541738 0.64731348
0.011501572 -0.33063871 0.64613491
0.011994029 -0.3180311 0.64901483
0.012524202 -0.30450657 0.65210772
0.014599365 -0.27017131 0.66404074
0.018874086 -0.20998926 0.6884715
0.016566725 -0.2049644 0.67548305
0.015086521 -0.19542983 0.66718036
0.01388716 -0.18390813 0.66046816
0.013037893 -0.16943347 0.65573823
0.013005274 -0.14777656 0.65563226
0.016978873 -0.076971255 0.67824709
0.17992941 1.6958625 1.60086
0.1635538 1.7006663 1.5081028
0.14708221 1.6979426 1.4148073
0.13244513 1.7124596 1.3318977
0.10392781 1.515582 1.1704736
0.084355131 1.5278903 1.0596275
0.071589373 1.5367573 0.98733199
0.059823982 1.5652552 0.92069072
0.046599679 1.558197 0.84580868
0.033993449 1.5621161 0.7744211
0.021357575 1.5604779 0.70287019
-0.009663689 1.5576147 0.52721411
-0.02192709 1.5610915 0.45776999
-0.034221902 1.5661051 0.38814631
-0.046472389 1.5576571 0.31878611
-0.058747891 1.5547403 0.24927905
-0.071241446 1.5602732 0.17852794
-0.083812408 1.562245 0.10734116
-0.10295066 1.564238 -0.0010358338
-0.1158311 1.5625461 -0.07397373
-0.12925865 1.5677485 -0.15001996
-0.059732698 -0.058681626 0.24608429
-0.060958698 -0.079566114 0.23924926
-0.062052328 -0.099543594 0.23316407
-0.063464716 -0.11427408 0.22526674
-0.065107726 -0.12572108 0.21605879
-0.06784007 -0.13961785 0.20072548
-0.069681995 -0.14847709 0.19038753
-0.071901023 -0.15456671 0.17790897
-0.075006232 -0.15512335 0.1604007
-0.079575635 -0.14777903 0.13458316
-0.10185724 -0.10861167 0.0085542994
-0.10638148 -0.12508157 -0.016934037
-0.10540861 -0.15291294 -0.011292637
-0.10521524 -0.17610615 -0.010075162
-0.10528271 -0.19728209 -0.010338381
-0.10503659 -0.21860701 -0.008823243
-0.10509117 -0.23813297 -0.0090146111
-0.10477688 -0.27628952 -0.0069967881
-0.10473951 -0.29413801 -0.0066678934
-0.10490778 -0.31108284 -0.0075056022
