# .PCD v0.7 - Point Cloud Data file format
VERSION 0.7
FIELDS x y z
SIZE 4 4 4
TYPE F F F
COUNT 1 1 1
WIDTH 334
HEIGHT 1
VIEWPOINT 0 0 0 1 0 0 0
POINTS 334
DATA ascii
-0.091716334 -0.69920886 0.0046461578
-0.0065471823 -0.69647908 0.0059503643
-0.052905373 -0.6959489 0.0077939602
0.16458556 -0.69278222 0.0061785951
0.16775009 -0.71049565 0.0076222522
0.16193283 -0.68854105 0.0071774018
0.01933874 -0.69615537 0.011909612
-0.08374548 -0.69871128 0.014364902
0.16935445 -0.69751984 0.012976701
-0.072856516 -0.69467485 0.015248153
0.0075799101 -0.69206512 0.015432032
0.16808993 -0.70854193 0.014328219
0.16686799 -0.67999697 0.014611611
0.16513923 -0.70393032 0.015329792
0.16664779 -0.70612633 0.015349977
0.1655639 -0.69095087 0.015854226
0.16873398 -0.69564438 0.015884921
-0.04379696 -0.69552797 0.02043118
-0.019760322 -0.69547158 0.021516813
-0.066359349 -0.69531476 0.022671295
0.026112616 -0.69698 0.022679618
0.076103218 -0.69294769 0.026007267
0.16646202 -0.67627811 0.025328191
-0.037652425 -0.6963104 0.028049238
0.16202402 -0.74806672 0.026918218
0.16529424 -0.67401332 0.027260259
-0.013670959 -0.69662786 0.029343387
0.0089788809 -0.69721943 0.029603723
0.17065439 -0.74578345 0.029774072
0.16786847 -0.74142396 0.030751765
0.041318767 -0.69539183 0.032765672
-0.056460004 -0.69707584 0.033343296
0.050203227 -0.7381587 0.033088587
0.051638935 -0.74021697 0.033081841
0.053037934 -0.69740546 0.033437014
0.16383012 -0.73466939 0.032665886
0.164929 -0.67200851 0.032082908
-0.080063567 -0.69759512 0.034641001
-0.07652922 -0.70148021 0.035391241
-0.00022303313 -0.74344075 0.034853611
0.16577421 -0.73706925 0.033619683
0.16721037 -0.73912972 0.033569816
-0.0072452659 -0.73231632 0.035599794
0.081359148 -0.69441825 0.035191644
-0.05675808 -0.7470938 0.037362505
-0.073733613 -0.70343101 0.037017763
-0.072315171 -0.70544064 0.036987904
-0.066309594 -0.71451789 0.037092056
-0.064777546 -0.71686083 0.037147027
-0.063247167 -0.71915215 0.037173137
-0.052868605 -0.69848973 0.036651772
-0.049835797 -0.70313609 0.036724571
-0.048305213 -0.70547652 0.036776971
-0.046769548 -0.70777535 0.036801267
-0.042348478 -0.7142005 0.036771514
-0.04066661 -0.71674085 0.036881931
-0.0021552872 -0.73885608 0.036531534
0.014883383 -0.73032415 0.037085366
0.016425245 -0.73249549 0.037046306
-0.068787083 -0.70965773 0.03781854
-0.061169896 -0.7211597 0.03795008
-0.050515562 -0.73672432 0.037957288
-0.04909065 -0.73885971 0.038015857
-0.044718035 -0.70979619 0.037598465
-0.043301798 -0.71184444 0.037610967
-0.028957516 -0.69891816 0.037296131
-0.025537454 -0.70296061 0.038132552
-0.01779335 -0.71430582 0.038140737
-0.013198556 -0.72091919 0.03813101
-0.0059016477 -0.69930679 0.037920084
0.029638501 -0.70440674 0.037472207
0.16970357 -0.72842133 0.036720581
0.16463104 -0.67018479 0.03698384
-0.069677331 -0.70726883 0.038602337
-0.066611074 -0.71192324 0.038672496
-0.059197392 -0.72299492 0.038766928
-0.05602799 -0.72769648 0.03886262
-0.049645476 -0.70038712 0.039167292
-0.038162097 -0.71845943 0.038501464
-0.033529822 -0.7251662 0.038426284
-0.031569462 -0.72710836 0.039306149
-0.030099785 -0.7292217 0.039322302
-0.028401224 -0.73158526 0.0392389
-0.026929587 -0.73370057 0.039219707
-0.024021888 -0.73797596 0.039299022
-0.022290563 -0.74041694 0.039229382
-0.014382982 -0.71838355 0.039052982
-0.011213786 -0.72286201 0.038954064
-0.0083035119 -0.72714025 0.039030865
-0.0041333996 -0.73418432 0.038219519
-0.0022234407 -0.70373726 0.038686547
0.0038449075 -0.7124691 0.038660552
0.014441864 -0.72794241 0.038757674
0.015119049 -0.6980021 0.038360763
0.025459347 -0.69757575 0.03834616
0.02693042 -0.6997661 0.038439754
0.049677458 -0.73276389 0.038398068
0.10267707 -0.69630408 0.037794199
0.16700259 -0.7240957 0.037660126
-0.05715286 -0.724944 0.039551131
-0.052600678 -0.73170245 0.039662588
-0.053478867 -0.72937804 0.040442429
-0.050368719 -0.73385179 0.040380578
-0.036190197 -0.72038007 0.039345391
-0.033980373 -0.72254843 0.04008488
-0.022829462 -0.70515347 0.039920256
-0.02139681 -0.70725644 0.039896019
-0.019959304 -0.70937037 0.03991634
-0.018285442 -0.7117312 0.039835509
-0.015342385 -0.71609372 0.039878797
-0.0060635936 -0.72940218 0.039804138
-0.0032484296 -0.70135981 0.039557301
-0.00030854094 -0.70571768 0.039600331
0.010355912 -0.72107852 0.039527524
0.019630145 -0.73457444 0.039658982
0.024184152 -0.74116111 0.039570548
0.048903771 -0.7014572 0.039157432
0.065376595 -0.69624352 0.039645009
0.066928327 -0.69843185 0.039614182
0.070120379 -0.70306724 0.039598104
0.09136188 -0.7338599 0.039630972
0.094618574 -0.73860878 0.03970281
0.084317297 -0.69621706 0.038849719
0.10608491 -0.71386337 0.039182067
0.15373707 -0.72992271 0.03921115
0.15091892 -0.7128545 0.039312962
0.1626772 -0.73035628 0.038347479
0.16367581 -0.6682176 0.03890403
-0.019839581 -0.74207497 0.040873136
-0.025488697 -0.70027465 0.040670324
-0.0087174587 -0.72470504 0.040736742
-0.00097603817 -0.73601866 0.04076878
0.0018294081 -0.7400617 0.040780224
0.0124169 -0.72330862 0.040480532
0.014035915 -0.72566348 0.040506244
0.0033526274 -0.71004492 0.04039311
0.0094601093 -0.71887255 0.040385798
0.021598881 -0.73654991 0.040464222
0.031238446 -0.71976018 0.040154997
0.025706824 -0.71084243 0.040901095
0.039534293 -0.73092324 0.040943421
0.055421393 -0.71011651 0.040067025
0.059973132 -0.71670014 0.039984174
0.066040307 -0.72550809 0.039982595
0.071965516 -0.70503467 0.04047288
0.07360772 -0.70745331 0.040476508
0.075135976 -0.70968181 0.040491991
0.076499932 -0.71167046 0.040496215
0.077980466 -0.71380216 0.040475152
0.081221238 -0.71843833 0.040462423
0.088704675 -0.72932702 0.040518492
0.090351984 -0.73171091 0.040527716
0.093275562 -0.7359252 0.040491182
0.10601033 -0.72705001 0.039792132
0.10918514 -0.73165947 0.039833888
0.12032127 -0.73403084 0.040159967
0.12166959 -0.73601234 0.04015908
0.12308936 -0.73804867 0.04015879
0.12328489 -0.72502327 0.03967784
0.12474583 -0.72721982 0.039692175
0.11620106 -0.70107991 0.040321946
0.13570398 -0.72943807 0.040345263
0.13891532 -0.73408198 0.04030586
0.14038903 -0.73623312 0.040361688
0.14184144 -0.73831844 0.04034967
0.1390416 -0.72118968 0.040183362
0.14039278 -0.72317469 0.040181991
0.12206665 -0.68350631 0.040106643
0.12529272 -0.68811983 0.040098425
0.12675242 -0.69021642 0.040092777
0.12982389 -0.69473159 0.040158667
0.131274 -0.69679022 0.040111847
0.14791131 -0.72102714 0.040155578
0.15259483 -0.72781962 0.040172134
0.12376922 -0.67299926 0.040221766
0.14951189 -0.71036124 0.040246956
0.12645671 -0.66439998 0.039537277
0.12790366 -0.66646296 0.039506547
0.14923117 -0.69738019 0.039528809
0.15096697 -0.69995868 0.039634645
0.16591361 -0.7216506 0.039557435
0.002146441 -0.7075299 0.041330211
0.0067852298 -0.71419781 0.041332953
0.0082271453 -0.71628881 0.041309346
0.026703939 -0.74309915 0.041304436
0.022599848 -0.70636117 0.040964279
0.028895542 -0.71557802 0.041017924
0.030281425 -0.71754998 0.040986843
0.018678823 -0.69982612 0.041781582
0.033249311 -0.72180307 0.040993031
0.036456823 -0.72646201 0.040977955
0.04153695 -0.73302948 0.041834865
0.042893626 -0.73500812 0.041840971
0.041512724 -0.70353657 0.041371323
0.044518262 -0.70786422 0.041364618
0.04749082 -0.71212411 0.041371949
0.050692052 -0.71677327 0.041356448
0.061934184 -0.71882921 0.040897232
0.063295335 -0.72081399 0.040902194
0.064773448 -0.72294194 0.040880926
0.068018585 -0.72758484 0.040866815
0.069888875 -0.72954744 0.041757271
0.071556821 -0.73201799 0.04179956
0.074416533 -0.73613018 0.041773919
0.075497448 -0.73846674 0.040923703
0.077147558 -0.74085444 0.040932547
0.058178909 -0.6985321 0.041543704
0.062881589 -0.70532346 0.0415853
0.080080509 -0.71617854 0.041385196
0.083070815 -0.72042799 0.041366719
0.087597132 -0.72700864 0.041383944
0.088243343 -0.70073318 0.040714245
0.089610174 -0.70272571 0.040717747
0.091092996 -0.70486104 0.040696904
0.092787497 -0.70731944 0.040697001
0.095778801 -0.71157092 0.040679369
0.10181726 -0.72038603 0.040740792
0.10346176 -0.7227661 0.040750377
0.10813429 -0.72958106 0.04083376
0.11099835 -0.73367214 0.040709678
0.12495478 -0.74017817 0.041113082
0.12666759 -0.7426402 0.041047279
0.10542977 -0.69863033 0.040598772
0.12077625 -0.72089159 0.040733427
0.12220512 -0.72290522 0.040658861
0.13754569 -0.73159111 0.041309047
0.1148075 -0.68552577 0.041098189
0.13159388 -0.70979828 0.041100774
0.13476157 -0.71439588 0.041139323
0.13619271 -0.71646917 0.041093979
0.13765714 -0.71867007 0.041107543
0.15142345 -0.73866206 0.041115336
0.157455 -0.74742186 0.041108266
0.12407188 -0.68594676 0.041058011
0.12872064 -0.69265467 0.041082956
0.13310447 -0.69901824 0.0411014
0.14680298 -0.71897453 0.041105226
0.14972879 -0.72320378 0.041127753
0.15143526 -0.72565728 0.0410669
0.15602659 -0.73236018 0.041130394
0.11594778 -0.66171068 0.040291056
0.11952122 -0.66641802 0.041248765
0.12558553 -0.67520821 0.041189019
0.14691426 -0.70608157 0.041232456
0.14834395 -0.70815337 0.04118811
0.13272575 -0.67310679 0.040480841
0.13743864 -0.67986202 0.040453818
0.13890237 -0.68196499 0.040448364
0.14055452 -0.68441188 0.040488575
0.14494126 -0.69077939 0.040506463
0.14657658 -0.69314706 0.040517192
0.14799567 -0.69521594 0.040526569
0.16474152 -0.71956277 0.040526431
0.16332771 -0.70467567 0.040889654
0.16610576 -0.70870763 0.040887717
0.13709997 -0.6541993 0.04046075
0.1385531 -0.65628856 0.040418442
0.1416467 -0.66077626 0.040390451
0.14315921 -0.66298223 0.040402915
0.14453763 -0.66499048 0.040403374
0.14603084 -0.66714197 0.040383592
0.14772049 -0.66959101 0.040386651
0.14924882 -0.67174315 0.040377781
0.15071641 -0.67385226 0.040372524
0.1523658 -0.6762951 0.040412381
0.15492977 -0.65499842 0.040837388
0.1563105 -0.65700996 0.040837195
-0.05108273 -0.7479105 0.042825263
0.028208558 -0.71295464 0.042742446
0.035913743 -0.7240696 0.042778432
0.038826652 -0.72823942 0.0426878
0.05364554 -0.73460782 0.04280724
0.058305003 -0.74132812 0.042829685
0.040386878 -0.70104516 0.042170979
0.04638543 -0.70982832 0.042295739
0.052572668 -0.71870703 0.042208441
0.072972268 -0.73408294 0.041828383
0.085140429 -0.72281009 0.042319257
0.086555995 -0.72487485 0.042347264
0.1084189 -0.7426737 0.042392395
0.087097228 -0.69844556 0.041622538
0.094708338 -0.70942682 0.041608751
0.097819932 -0.71396893 0.041644067
0.099235758 -0.71603346 0.041671276
0.10525651 -0.72476846 0.041686404
0.12383571 -0.75113821 0.042595457
0.10877505 -0.70284063 0.04151658
0.1193869 -0.71825838 0.041553341
0.10767435 -0.70071018 0.042457163
0.13957274 -0.74708378 0.042503022
0.11829684 -0.7030775 0.042227842
0.12898526 -0.70554304 0.042077873
0.13366012 -0.7123602 0.04215673
0.15325886 -0.74085009 0.04211504
0.15469992 -0.74293303 0.042104252
0.15634607 -0.7453385 0.042104784
0.1593394 -0.74968398 0.042098042
0.13647373 -0.7034446 0.042071708
0.11810945 -0.6639117 0.042176198
0.12874983 -0.67935497 0.042124324
0.13619372 -0.67771345 0.04142135
0.14225741 -0.68648314 0.041471321
0.14370871 -0.68854445 0.04142604
0.16185224 -0.71497303 0.041489162
0.16355564 -0.71742243 0.041430686
0.1589984 -0.69792885 0.041863561
0.16189766 -0.70220882 0.041832302
0.1649553 -0.7066831 0.04184958
0.14026043 -0.65838224 0.041354295
0.15404166 -0.67838657 0.041401856
0.15549414 -0.68045026 0.041358069
0.15701428 -0.68269438 0.041395247
0.15864706 -0.68505865 0.04140627
0.16006704 -0.68712831 0.04141473
0.16332474 -0.69187856 0.041479833
0.15803722 -0.65921336 0.041789394
0.15972559 -0.66166002 0.041793104
0.16125116 -0.66380835 0.041784771
0.16272253 -0.6659236 0.041779701
-0.022782382 -0.73492634 0.043435697
0.10708876 -0.74008816 0.043286923
0.12276682 -0.74899673 0.043531615
0.11551978 -0.71156883 0.04344622
0.11680851 -0.7139886 0.042521533
0.11822519 -0.71605557 0.042533331
0.13809207 -0.74495894 0.04254207
0.14108345 -0.7492978 0.042559501
0.14287417 -0.75133216 0.043483235
0.12008564 -0.70510077 0.043119356
0.16069922 -0.70001709 0.04278218
0.16185042 -0.68933326 0.042342879
0.025484297 -0.73782432 0.044714455
0.091530174 -0.74471182 0.044273924
0.030506961 -0.74430478 0.045601945
