# .PCD v0.7 - Point Cloud Data file format
VERSION 0.7
FIELDS x y z
SIZE 4 4 4
TYPE F F F
COUNT 1 1 1
WIDTH 1422
HEIGHT 1
VIEWPOINT 0 0 0 1 0 0 0
POINTS 1422
DATA ascii
0.3278954 -0.2337777 0.6550687
0.3289412 -0.20199507 0.6611402
0.57106239 1.7106727 2.0347693
0.54825348 1.6886568 1.9054646
0.52843302 1.6811846 1.7931118
0.50947648 1.6727269 1.6856608
0.49285975 1.6794482 1.5914822
0.47667348 1.6848131 1.499746
0.46097037 1.6899524 1.410751
0.44041839 1.6233203 1.2942581
0.41144237 1.5117302 1.1300277
0.39966384 1.5403492 1.0632951
0.38496131 1.5118451 0.97998279
0.3724674 1.5197185 0.90919548
0.36046776 1.5377079 0.84121078
0.34720799 1.5158679 0.7660836
0.32970664 1.5582054 0.66693121
0.31739688 1.5636376 0.59719026
0.30511925 1.5715834 0.5276314
0.29275206 1.5670648 0.45756701
0.28047109 1.5570666 0.38799277
0.2682189 1.5556058 0.31858113
0.25562948 1.5745962 0.24725351
0.23726717 1.5575312 0.14323041
0.22450487 1.5641246 0.070925295
0.2116753 1.5660754 -0.0017602197
0.20218877 1.4857595 -0.05546787
0.19477639 1.3801538 -0.097404674
0.18826745 1.2788103 -0.13421653
0.17746828 1.2627134 -0.19537897
0.20548917 0.69179362 -0.036236018
0.19966212 0.66021115 -0.069189794
0.1122687 1.5066143 -0.56493729
0.21195917 0.22360083 0.0010250527
0.21229984 0.17010483 0.003063251
0.21156043 0.13057888 -0.0010276119
0.21152671 0.089198209 -0.0011150554
0.20978642 0.044789284 -0.01083371
0.20994329 0.0093711736 -0.0098406002
0.2099414 -0.022507066 -0.0097486246
0.21010251 -0.053103127 -0.0087321158
0.21014509 -0.081105679 -0.0083883628
0.20975676 -0.10542428 -0.010489307
0.20984553 -0.13062112 -0.0098838722
0.21000168 -0.15475573 -0.0088962233
0.20991802 -0.17677268 -0.009269123
0.21015514 -0.19894926 -0.0078223646
0.20995854 -0.21872878 -0.0088361958
0.21021684 -0.23916283 -0.0072694551
0.21015599 -0.25791591 -0.0075131659
0.20966992 -0.28405398 -0.01011831
0.2097646 -0.30189389 -0.0094798272
0.20965086 -0.31885117 -0.010023475
0.2098157 -0.33592618 -0.0089870347
0.20975634 -0.35226783 -0.0092221238
0.20997131 -0.36867979 -0.0079012169
0.20977841 -0.38434261 -0.0088937581
0.20985433 -0.4001013 -0.0083614197
0.20954542 -0.42317975 -0.0099607371
0.20977797 -0.43099222 -0.0085908398
0.20940319 -0.45393586 -0.010563406
0.2095587 -0.46927631 -0.0095791938
0.20946003 -0.48464224 -0.010036413
0.20945492 -0.50004989 -0.0099628931
0.20937143 -0.51560205 -0.0103337
0.20942634 -0.53906065 -0.0098679131
0.20924446 -0.55517358 -0.010796226
0.21034522 -0.56975228 -0.0044503831
0.21770558 -0.5737983 0.03739246
0.216757 -0.59047359 0.032116275
0.21544009 -0.6086818 0.024752058
0.21538968 -0.62494135 0.02457002
0.21608663 -0.63976341 0.028626164
0.21703419 -0.65405762 0.034103453
0.21793813 -0.67735273 0.039385974
0.21807733 -0.69492447 0.04028054
0.21834861 -0.71269065 0.041924257
0.20832825 -0.78430432 -0.014726548
0.20743765 -0.8125369 -0.019666852
0.20759709 -0.83764035 -0.01865311
0.20867909 -0.87353641 -0.012353037
0.20506115 -0.92405641 -0.032749727
0.20777532 -0.9406454 -0.017250575
0.032997061 -2.3886859 -1.0074681
0.031748965 -2.5455003 -1.0143635
0.037554018 -2.7428272 -0.98118418
0.065063335 -2.65609 -0.82510853
0.084675819 -2.63187 -0.71378756
0.2123422 -2.6113694 0.011110961
0.25243458 -2.5954623 0.23878005
0.2718749 -2.5973155 0.34918264
0.28480828 -2.5936198 0.42262879
0.29768142 -2.587327 0.49573132
0.31057468 -2.5864367 0.56895071
0.32987449 -2.5777378 0.67850488
0.34271285 -2.5693593 0.75138563
0.35606641 -2.575079 0.82719582
0.61504656 -4.9473181 2.2976699
0.76786464 -5.9271698 3.1650064
0.78336501 -5.6464863 3.25283
0.79929012 -5.397315 3.3430798
0.81229299 -4.9692278 3.4166949
0.79869473 -4.5383854 3.3394146
0.80129141 -4.2717829 3.3540676
0.76628423 -3.7687566 3.1553364
0.79032612 -3.697403 3.2917137
0.7932291 -3.4959273 3.3081388
0.78795892 -3.26192 3.2781961
0.79319638 -3.0085764 3.3078675
0.79172736 -2.8273716 3.2995098
0.79299915 -2.6686134 3.3067074
0.79098928 -2.5042639 3.2952914
0.78660589 -2.3396735 3.2704151
0.78964353 -2.2097995 3.287642
0.78322572 -2.0538745 3.2512331
0.78405756 -1.8649879 3.2559538
0.78147018 -1.736068 3.2412815
0.78019547 -1.6151768 3.2340577
0.7780714 -1.4963746 3.2220178
0.7767731 -1.3829441 3.2146637
0.77671283 -1.2746201 3.2143331
0.77746224 -1.1696305 3.2185953
0.76838762 -1.0034728 3.1671484
0.73792958 -0.87537092 2.9944258
0.76256335 -0.79983222 3.1341472
0.77279532 -0.70781153 3.1921892
0.76861101 -0.60789275 3.1684747
0.76260144 -0.50983399 3.1344101
0.34049559 -0.4276697 0.74098206
0.32859787 -0.42127791 0.67362565
0.32660875 -0.41431692 0.66241878
0.32490057 -0.39900318 0.65287721
0.32425612 -0.37784272 0.64940244
0.32451656 -0.36798626 0.65095031
0.326451 -0.35344681 0.66198772
0.3271623 -0.3410871 0.66609031
0.32639292 -0.33253443 0.66179913
0.32527125 -0.32513893 0.6555109
0.32424688 -0.31186312 0.649809
0.32407689 -0.29470807 0.64894956
0.32426059 -0.28125051 0.6500594
0.3243283 -0.26751769 0.65051132
0.32479358 -0.25086376 0.65321559
0.32513818 -0.22546664 0.65526819
0.3259404 -0.19410872 0.65991145
0.56587923 1.6897951 2.0194173
0.54338831 1.668893 1.8919662
0.52538687 1.6760558 1.7899539
0.49996477 1.6895002 1.6458936
0.48344043 1.6953398 1.5522584
0.46734041 1.6999038 1.4610304
0.45178464 1.7052395 1.3728881
0.42296275 1.5160033 1.2096556
0.4094539 1.5201366 1.1331221
0.39784053 1.5526668 1.0673171
0.38252887 1.5137275 0.98059106
0.36430639 1.5377487 0.87735093
0.35219508 1.5546081 0.80873328
0.3398402 1.5640994 0.73873985
0.32715484 1.5571941 0.66688406
0.31486553 1.5636239 0.59726471
0.30252281 1.5645843 0.52734637
0.28406224 1.5673722 0.42277148
0.27176943 1.5631429 0.35314003
0.25941977 1.5654323 0.28318152
0.2470452 1.5642283 0.21308444
0.23448683 1.5674517 0.14194185
0.22169431 1.5730104 0.069469646
0.20906211 1.5680594 -0.0020854429
0.19024613 1.5523666 -0.10866164
0.18567733 1.3888628 -0.13437402
0.18042867 1.2687145 -0.16397333
0.20371157 0.73992354 -0.0314743
0.19869746 0.69272083 -0.059796572
0.13832597 1.3356426 -0.40254903
0.17717488 0.7430582 -0.18172991
0.20789163 0.2101793 -0.0069152704
0.20802927 0.16014054 -0.0060201678
0.20794536 0.11661638 -0.0063861548
0.20818336 0.074634954 -0.0049277111
0.20780918 0.040286351 -0.0069464077
0.20763774 0.0072023156 -0.0078162756
0.20801702 -0.026724853 -0.00556246
0.20782286 -0.055124339 -0.0065645035
0.20774709 -0.082393147 -0.0068960688
0.20777193 -0.10854647 -0.0066577815
0.20674922 -0.14066391 -0.01231643
0.20791288 -0.15702605 -0.0056663556
0.20699073 -0.18656652 -0.010756479
0.20685773 -0.20709452 -0.011417309
0.20718516 -0.22826722 -0.0094665447
0.2070497 -0.24723099 -0.010142409
0.20720835 -0.26636091 -0.0091502275
0.20750418 -0.28515485 -0.0073803025
0.20711762 -0.30187091 -0.0094816275
0.20750096 -0.31975561 -0.0072160144
0.20700529 -0.33562785 -0.0099365506
0.20695601 -0.36014107 -0.010079984
0.20705338 -0.37630236 -0.0094372462
0.20708135 -0.39213702 -0.0091882544
0.20686309 -0.40760565 -0.010335703
0.20708531 -0.42324528 -0.008985172
0.20688319 -0.43856582 -0.010041096
0.20642677 -0.45387939 -0.012539115
0.20693159 -0.46925515 -0.0095860669
0.20683494 -0.48462126 -0.010043745
0.20674561 -0.52338606 -0.010323805
0.20680839 -0.53904027 -0.0098769097
0.21346228 -0.56151026 0.028028926
0.21492924 -0.57405728 0.036435768
0.21421403 -0.59800982 0.032517176
0.21312051 -0.61605275 0.026409388
0.21312368 -0.63234562 0.026519135
0.21418515 -0.64628083 0.032628089
0.21471119 -0.6618067 0.035702232
0.21534237 -0.67733747 0.039372671
0.21619305 -0.70165098 0.044334408
0.21551166 -0.72329938 0.040567253
0.20616101 -0.79439569 -0.012278069
0.20523702 -0.82345062 -0.017414367
0.20575584 -0.84735435 -0.014373303
0.20520066 -0.87829226 -0.017416462
0.20375653 -0.93275791 -0.025440654
0.027427509 -2.2753501 -1.0239609
0.033190425 -2.4371133 -0.99101919
0.032067459 -2.5987518 -0.99716437
0.03132531 -2.7749672 -1.0011368
0.063743167 -2.6421621 -0.81734407
0.083034299 -2.6203275 -0.70789009
0.2563 -2.5954101 0.27557746
0.26927096 -2.593329 0.34920922
0.28218457 -2.5936363 0.42251799
0.2950983 -2.5933447 0.49582678
0.31440565 -2.584547 0.60542363
0.32741252 -2.5847197 0.67923701
0.34032249 -2.5772991 0.75251198
0.35999495 -2.5715463 0.86417383
0.78034961 -6.3526192 3.2516806
0.79150033 -5.9856482 3.3146677
0.78202116 -5.4536915 3.2605305
0.79341274 -5.1787691 3.3249693
0.80074584 -4.8939638 3.3663878
0.79049271 -4.4948711 3.3079841
0.78729039 -4.1884212 3.2896447
0.76754904 -3.6799865 3.1773887
0.80320489 -3.6820738 3.3796721
0.79713327 -3.429646 3.3451135
0.78993571 -3.1905885 3.3041825
0.78822398 -2.996923 3.2944002
0.78588378 -2.8124197 3.2810628
0.78831989 -2.6597362 3.2948391
0.76443803 -2.336307 3.1592722
0.79243028 -2.2991364 3.3180749
0.78641933 -2.1394017 3.2839463
0.78233236 -1.9942532 3.2607412
0.77836514 -1.8563532 3.2382219
0.77557141 -1.7276559 3.2223663
0.77360588 -1.6059376 3.2112136
0.77676243 -1.443151 3.2291234
0.7751019 -1.3302302 3.2197094
0.77503181 -1.2228129 3.2193205
0.77663469 -1.1196412 3.2284238
0.73379081 -0.96769536 2.985419
0.76127213 -0.89910781 3.1413147
0.76311052 -0.80213225 3.1517608
0.76744503 -0.65740055 3.1763749
0.76399332 -0.55882078 3.1568196
0.76011693 -0.46186665 3.1348574
0.33895451 -0.43289241 0.7464475
0.3380428 -0.42192358 0.74135292
0.32557636 -0.42175567 0.67073309
0.32377461 -0.4102909 0.66063207
0.32275021 -0.40285721 0.65490073
0.32218844 -0.39493939 0.65179294
0.32174593 -0.38686097 0.64936167
0.3223258 -0.36724183 0.65280509
0.3245402 -0.34669107 0.6654768
0.32426816 -0.33679539 0.66401142
0.32332006 -0.32880417 0.65871292
0.32203528 -0.31644303 0.65154415
0.32231072 -0.30968654 0.65314394
0.32169673 -0.29412127 0.64977801
0.32187551 -0.28063533 0.65086764
0.321466 -0.2621972 0.64865983
0.32212532 -0.24408162 0.6524725
0.32260668 -0.21706326 0.65531272
0.584894 1.694049 2.1420455
0.55292183 1.6878198 1.9608504
0.5330146 1.6838206 1.8480358
0.5141387 1.6804498 1.7410698
0.49692017 1.6851654 1.6434988
0.48042196 1.6909225 1.5500124
0.46358654 1.686422 1.4546185
0.44867855 1.6988462 1.3701468
0.42061961 1.5197155 1.2111903
0.40047893 1.5267583 1.0970856
0.38915792 1.5647478 1.0329425
0.37396201 1.5242884 0.94686395
0.36174038 1.5387321 0.87762481
0.34929016 1.5457835 0.80709267
0.33717954 1.5621346 0.73848122
0.31847239 1.5642104 0.63250548
0.30601284 1.558442 0.56192577
0.29377925 1.5681425 0.49261877
0.28145668 1.5643849 0.42281389
0.26914096 1.5671532 0.35304371
0.25679159 1.5674403 0.28308359
0.24442375 1.5652357 0.21301925
0.22589761 1.5562545 0.10807011
0.21292852 1.5664542 0.034587663
0.20011967 1.565107 -0.037980519
0.19029349 1.4953868 -0.093595952
0.18349035 1.3812228 -0.13204202
0.17795384 1.2668337 -0.16330421
0.16622238 1.2646202 -0.22976354
0.19768441 0.67155981 -0.05091824
0.18301149 0.75106359 -0.134105
0.17226548 0.71804559 -0.19491978
0.16603495 0.68677962 -0.23016393
0.20616923 0.1544179 -0.0020362067
0.20632966 0.10944001 -0.0010221153
0.20639339 0.069206342 -0.00055913412
0.20582505 0.036524277 -0.0036854434
0.20463289 -0.0062414804 -0.010304948
0.2047756 -0.037841979 -0.0093987342
0.204689 -0.066127315 -0.009795066
0.20458356 -0.092623316 -0.010299245
0.20470361 -0.11865997 -0.0095246397
0.20462221 -0.14241593 -0.00989406
0.20473351 -0.16577028 -0.009170698
0.20459095 -0.18708503 -0.0098884376
0.20491259 -0.20908326 -0.0079726391
0.20494585 -0.22919478 -0.0076938388
0.20481649 -0.24809636 -0.008338145
0.20498082 -0.26716301 -0.0073165074
0.20459132 -0.29314995 -0.0093933502
0.20442234 -0.3101936 -0.010263765
0.20469809 -0.32767659 -0.0086111687
0.20475599 -0.34433776 -0.0081948759
0.20458391 -0.36035469 -0.0090836771
0.20468315 -0.37648183 -0.0084333513
0.20454139 -0.39212564 -0.0091505693
0.20449619 -0.40771624 -0.0093201008
0.20471969 -0.42332113 -0.0079654204
0.20427971 -0.44622651 -0.010331913
0.20404431 -0.46158215 -0.011581037
0.20442267 -0.47690308 -0.0093483627
0.20437349 -0.49227497 -0.0095412759
0.20338216 -0.50830603 -0.015079368
0.20421275 -0.52337486 -0.010281332
0.20417438 -0.5470643 -0.010370396
0.20320131 -0.56438416 -0.015805064
0.21156944 -0.56795841 0.031753596
0.21240684 -0.5814563 0.036589447
0.21118979 -0.59897327 0.029770337
0.2104286 -0.61639822 0.025537373
0.21091475 -0.63155133 0.028380463
0.21221963 -0.65315169 0.03591074
0.21248706 -0.66955942 0.037513018
0.21317203 -0.68508363 0.041484024
0.21307978 -0.70375663 0.041045882
0.20326158 -0.77245939 -0.014521914
0.20323581 -0.79619008 -0.014582382
0.20286633 -0.82281071 -0.016592357
0.20359325 -0.88810104 -0.012253332
0.20295262 -0.9226774 -0.01580072
0.029347586 -2.183609 -1.0003766
0.02815883 -2.3196707 -1.0070212
0.028429393 -2.4573865 -1.0053866
0.026870955 -2.6245008 -1.0141245
0.034500401 -2.7258322 -0.97074562
0.071631879 -2.6279852 -0.75997859
0.20042276 -2.6174166 -0.028606348
0.24085756 -2.6027925 0.20104529
0.25398365 -2.5973737 0.27559865
0.27341828 -2.596267 0.38598669
0.28633624 -2.5952692 0.45936128
0.29918894 -2.5866799 0.53236496
0.31215686 -2.5894699 0.6060245
0.31852385 -2.5819197 0.64215636
0.33137739 -2.5748334 0.71517074
0.34434283 -2.5700774 0.78881997
0.35720518 -2.5597332 0.86188281
0.59233946 -4.9204817 2.1967449
0.77339894 -6.2948666 3.2244041
0.77143818 -5.7911658 3.2132897
0.79438776 -5.5989637 3.3435547
0.77129745 -4.9953628 3.2125392
0.80313188 -4.7696271 3.3932474
0.79276359 -4.3854022 3.3344433
0.79163635 -4.1049681 3.3280854
0.76533794 -3.681294 3.1788909
0.79767179 -3.662847 3.3624198
0.78900379 -3.3969119 3.3132782
0.78285569 -3.1658354 3.2784388
0.78730506 -2.9165211 3.3037615
0.78694898 -2.7458208 3.3017926
0.78726774 -2.5871501 3.303654
0.76183808 -2.3361282 3.1594141
0.79069799 -2.3021324 3.3232265
0.78078282 -2.1292217 3.2670217
0.77601033 -1.9828099 3.2399983
0.77843606 -1.8022701 3.2538483
0.77585787 -1.6757275 3.2392778
0.77301508 -1.5533155 3.2232068
0.77258825 -1.4400604 3.2208445
0.77222878 -1.3297812 3.2188644
0.77197951 -1.2221415 3.21751
0.77599001 -1.0698762 3.2403553
0.7364558 -0.9260602 3.0161119
0.77593577 -0.86380875 3.2401686
0.77046323 -0.75912112 3.2091811
0.76485592 -0.65733474 3.1774292
0.76209193 -0.55886358 3.1618094
0.75855708 -0.46173877 3.1418169
0.33580378 -0.43311438 0.74354261
0.32260549 -0.42203289 0.66882402
0.32097676 -0.41046438 0.65970409
0.32012206 -0.4028236 0.65493536
0.31917873 -0.3911491 0.64970398
0.31927824 -0.3774741 0.65038884
0.31971613 -0.36236584 0.65299308
0.32185835 -0.34149891 0.6652661
0.3216356 -0.33676526 0.66404241
0.32027155 -0.32461256 0.65642446
0.31954962 -0.31588474 0.65240902
0.31900227 -0.30043775 0.6494242
0.31934357 -0.29291856 0.65140027
0.31908378 -0.27470505 0.65004653
0.3192232 -0.26020336 0.65091735
0.31919041 -0.23793383 0.65085113
0.32081187 -0.21200374 0.66012859
0.57320881 1.7076844 2.0920403
0.54874963 1.6773399 1.9533653
0.52833116 1.6681033 1.8376125
0.50928217 1.6618245 1.7296292
0.48696014 1.7003795 1.6031148
0.46922776 1.6901065 1.5026025
0.45378682 1.698969 1.4150882
0.43915159 1.7134891 1.3321445
0.41086277 1.5194045 1.1717645
0.39690024 1.5135403 1.0926399
0.3817499 1.4777437 1.0067803
0.37122691 1.5252708 0.94716436
0.35295442 1.5484618 0.84363133
0.3406561 1.5601834 0.77394867
0.32816097 1.5634763 0.70315069
0.31568331 1.5632296 0.63245261
0.29093334 1.5551636 0.49222332
0.27253109 1.5690912 0.38796037
0.26028875 1.5586334 0.31860027
0.24784823 1.5666636 0.24811518
0.23554176 1.560233 0.17839204
0.22281431 1.5681219 0.10628054
0.21010478 1.568433 0.034271732
0.18472803 1.4234737 -0.10945245
0.18021245 1.2817283 -0.13497223
0.17016891 1.2533855 -0.19185504
0.20085369 0.64549017 -0.017681161
0.19248357 0.65113503 -0.065074369
0.17961542 0.70597619 -0.13798405
0.16875589 0.72689539 -0.19949779
0.20248874 0.18673986 -0.0078754565
0.2024688 0.14034125 -0.0079020243
0.20270021 0.096344203 -0.0065031033
0.20258655 0.058576919 -0.0070619327
0.20283446 0.021476824 -0.0055699605
0.20307378 -0.012699257 -0.0041269031
0.20250756 -0.039909288 -0.0072533172
0.20269288 -0.069456339 -0.006116882
0.20260867 -0.095820598 -0.0065094098
0.2023387 -0.1198744 -0.0079557803
0.20254661 -0.14475028 -0.0066915448
0.20267288 -0.16799022 -0.0058904537
0.20157419 -0.19632117 -0.011995206
0.20182067 -0.21770653 -0.010512524
0.20161195 -0.23684026 -0.011611789
0.20154056 -0.25575033 -0.011932182
0.20208298 -0.27557757 -0.0087711727
0.20195973 -0.29313251 -0.0093858074
0.20211953 -0.31082737 -0.0083950488
0.20206749 -0.32765904 -0.0086058574
0.20195812 -0.34406129 -0.0091418969
0.20165135 -0.36800456 -0.010755423
0.20179981 -0.38411769 -0.0098291691
0.20187767 -0.39991105 -0.0093033221
0.20188072 -0.41546756 -0.0092018768
0.20180587 -0.43087164 -0.0095422054
0.20199828 -0.44627848 -0.0083668986
0.20176318 -0.46156424 -0.0096160751
0.20162098 -0.47691983 -0.010338495
0.20184252 -0.49991256 -0.0089559611
0.20158912 -0.51555192 -0.010309045
0.20160468 -0.53117704 -0.010136766
0.20171702 -0.54685527 -0.009415633
0.2010808 -0.56369096 -0.012939787
0.20894404 -0.56794226 0.031738855
0.20981754 -0.58888304 0.03681834
0.20849413 -0.60692573 0.029396705
0.20811413 -0.62377149 0.027325498
0.20896591 -0.63809097 0.03223991
0.20928217 -0.65401232 0.034117196
0.2094018 -0.67095172 0.034879398
0.21024618 -0.68606782 0.03975166
0.20958914 -0.71645838 0.036151219
0.20006394 -0.77473414 -0.017782312
0.20162539 -0.80387002 -0.0088013392
0.20053817 -0.83437824 -0.014882859
0.1989575 -0.86973006 -0.023762546
0.20008978 -0.8929438 -0.017257422
0.20077744 -0.93620974 -0.013231664
0.20015343 -0.97476321 -0.016686143
0.028828457 -2.3622041 -0.98805207
0.027631417 -2.5167027 -0.9947502
0.026411399 -2.6881192 -1.0015783
0.050599542 -2.636097 -0.86432636
0.069543555 -2.6217861 -0.75681299
0.16974913 -2.6234169 -0.18802576
0.19786882 -2.6154387 -0.028403345
0.25783464 -2.6016612 0.31200543
0.2708365 -2.5932827 0.38581365
0.28374317 -2.5922918 0.4590815
0.29663 -2.5887065 0.53223628
0.31600887 -2.5849433 0.64223087
0.32893473 -2.5798316 0.71562213
0.34205654 -2.578994 0.79012507
0.36068034 -2.5438993 0.89587456
0.67181528 -8.9456139 2.6603615
0.59038007 -4.9271483 2.1988664
0.62422866 -4.951931 2.3909056
0.78159267 -6.1644068 3.2834163
0.78839117 -5.7744098 3.3220618
0.80577606 -5.5295548 3.4207406
0.78111535 -4.9320788 3.2809901
0.79334569 -4.7084575 3.35044
0.78803158 -4.3672976 3.3204
0.78405654 -4.067924 3.2979541
0.78079247 -3.6842408 3.279588
0.79831165 -3.5709636 3.3790309
0.7867192 -3.2968698 3.3133893
0.78434813 -3.092989 3.3000398
0.78068227 -2.8962016 3.2793479
0.78129351 -2.7312937 3.2829108
0.78404838 -2.5838723 3.2986298
0.76592118 -2.3615334 3.1959312
0.78814965 -2.2311263 3.3221288
0.77880144 -2.06426 3.2692144
0.77581382 -1.9260814 3.2523692
0.77193534 -1.7915165 3.2304718
0.77152455 -1.6712722 3.2282393
0.76913452 -1.5503211 3.2147832
0.77139264 -1.3874651 3.2277339
0.77050924 -1.277294 3.222821
0.77008003 -1.1703058 3.2204843
0.77286857 -1.0692706 3.2363944
0.72885954 -0.92105567 2.9869244
0.77056056 -0.86166424 3.2235
0.76506811 -0.7575618 3.19245
0.76342106 -0.60886133 3.1832552
0.75792277 -0.51032859 3.1521719
0.33278298 -0.43332717 0.74156052
0.31957695 -0.42237854 0.66686118
0.31827337 -0.41489452 0.65956372
0.31723672 -0.39874905 0.65387511
0.31631595 -0.39147228 0.6487484
0.31658444 -0.38655058 0.65031844
0.31634903 -0.36873919 0.6491735
0.31765175 -0.36083391 0.65660846
0.3191517 -0.34152997 0.66525692
0.31868786 -0.33206925 0.66272134
0.31740904 -0.32514253 0.65556419
0.31637868 -0.31186613 0.64986342
0.31706223 -0.30339077 0.65378726
0.31637555 -0.2877174 0.65003532
0.31676522 -0.27284613 0.65233982
0.31638882 -0.25354245 0.65034741
0.31708559 -0.23448931 0.65439355
0.31916639 -0.20555912 0.66628796
0.56659663 1.6784192 2.0697031
0.53785747 1.6901145 1.9068658
0.51849186 1.6868895 1.7971383
0.49913383 1.6751473 1.687454
0.4825789 1.6828082 1.5936652
0.46612826 1.685578 1.5004677
0.45056033 1.6925567 1.4122758
0.43032312 1.6305848 1.2976058
0.40564188 1.4820092 1.1577361
0.38815099 1.525064 1.0586841
0.37382308 1.5021745 0.97752416
0.3623921 1.533253 0.91279107
0.35030553 1.5513612 0.84434032
0.33644471 1.5128827 0.76582938
0.3251752 1.5545367 0.70201093
0.30669904 1.5626317 0.59737051
0.29445085 1.5735795 0.52800232
0.28205851 1.5660723 0.45781717
0.26977381 1.5580822 0.3882423
0.25733981 1.5756028 0.31781951
0.24506395 1.5656633 0.24829441
0.23252666 1.5701578 0.17728592
0.21385522 1.562209 0.071536079
0.20081787 1.5700506 -0.0023091959
0.19957577 1.2985555 -0.0092486199
0.18429843 1.3754207 -0.095800646
0.17760262 1.2779367 -0.13367712
0.1563589 1.4272515 -0.25407007
0.19484048 0.69093168 -0.035703201
0.18937109 0.65479857 -0.066626586
0.21067205 0.18621781 0.054481022
0.20106539 0.22535655 9.0348025e-05
0.20149361 0.1709929 0.0026153766
0.20054556 0.13306536 -0.0026655956
0.20039102 0.092409492 -0.0034462009
0.20052209 0.053219657 -0.0026070029
0.19899961 0.010893319 -0.011098632
0.20046544 -0.014132877 -0.0027370849
0.19901608 -0.050998222 -0.010814203
0.19904718 -0.079078883 -0.010542411
0.19621913 -0.092148252 -0.026486902
0.1991421 -0.13056318 -0.0098134801
0.19907048 -0.1761706 -0.010029225
0.19870989 -0.19631664 -0.011979244
0.19941001 -0.21915694 -0.0079132961
0.19936259 -0.23865244 -0.0080871731
0.19929987 -0.25743714 -0.0083477776
0.19953059 -0.27635539 -0.0069442238
0.19973414 -0.29456267 -0.0056947353
0.19940779 -0.31114945 -0.0074506486
0.19895382 -0.3355954 -0.0098828729
0.19927816 -0.36862543 -0.0078533078
0.19925718 -0.38446218 -0.0078773741
0.19899221 -0.41546482 -0.009190144
0.1989989 -0.43858644 -0.0090097189
0.19904555 -0.46920618 -0.0085550752
0.19877435 -0.4845897 -0.0099982582
0.19868797 -0.51555002 -0.010298075
0.19874462 -0.53900903 -0.0098341899
0.19882344 -0.57091075 -0.009197006
0.20586693 -0.56820053 0.030798702
0.20673996 -0.58919179 0.035892893
0.20541659 -0.60726744 0.028482422
0.20535879 -0.62339693 0.028249796
0.20620614 -0.63768446 0.033150874
0.20710154 -0.66041601 0.038372118
0.20666009 -0.67924744 0.035963699
0.20725943 -0.69539565 0.039458286
0.20505953 -0.72244895 0.027076853
0.19752546 -0.78484344 -0.015509805
0.19664073 -0.81310362 -0.020431943
0.1972051 -0.83630657 -0.017135261
0.19815098 -0.87280709 -0.011626802
0.19784817 -0.90421075 -0.013248049
0.19748078 -0.93840432 -0.01523551
0.19709606 -0.97551864 -0.017320963
0.023494715 -2.3805597 -1.0016942
0.02141219 -2.5437214 -1.0134029
0.021112459 -2.709074 -1.0149997
0.05427568 -2.658567 -0.82676393
0.073658079 -2.6370571 -0.7167362
0.15332834 -2.6080654 -0.26438221
0.25483531 -2.6006677 0.31207684
0.27427408 -2.603617 0.42247763
0.28723058 -2.6013219 0.49606302
0.30012295 -2.59343 0.56928468
0.31948102 -2.5847054 0.67919999
0.33249238 -2.5812376 0.75309086
0.34571522 -2.581001 0.82818133
0.60262305 -4.9207768 2.2861607
0.64130771 -4.9988556 2.5056915
0.76680893 -6.0334325 3.2177613
0.7771163 -5.6904526 3.2762899
0.78961706 -5.4052691 3.3472629
0.77944744 -4.9455113 3.2896228
0.79713464 -4.6098208 3.3900492
0.79073447 -4.2720189 3.3537972
0.7645157 -3.8294995 3.2051144
0.78066158 -3.7035778 3.2967696
0.78455007 -3.507668 3.3188882
0.78070736 -3.2809045 3.297148
0.77437872 -3.057534 3.2613053
0.78026497 -2.8238204 3.2947869
0.78233534 -2.6688385 3.3065913
0.77988857 -2.5027661 3.2927709
0.77592206 -2.3398938 3.2703295
0.77835548 -2.2079597 3.2841923
0.77358717 -2.0574858 3.2572026
0.76994866 -1.9179225 3.2366211
0.77138382 -1.7379092 3.2448499
0.76898468 -1.6142647 3.2312987
0.76815248 -1.4982955 3.2266352
0.76718777 -1.3853167 3.2212205
0.76546484 -1.2740006 3.2115035
0.76704544 -1.1703217 3.2205255
0.7601608 -1.0574287 3.1815288
0.72751081 -0.87587214 2.9964137
0.74420995 -0.79466206 3.0911891
0.76149827 -0.70775062 3.1893041
0.75713485 -0.60788119 3.1646068
0.75233579 -0.51008159 3.1374378
0.32962009 -0.42779464 0.74006695
0.31806844 -0.42113718 0.67466259
0.31522587 -0.41509441 0.65861648
0.31436649 -0.39875841 0.65389407
0.31399617 -0.39494699 0.65183163
0.31388447 -0.38625112 0.65127367
0.31393489 -0.37241787 0.65167272
0.31527007 -0.3546809 0.65935713
0.31607804 -0.33680603 0.664051
0.31584004 -0.33207914 0.66273856
0.31413835 -0.32104686 0.65319997
0.31368548 -0.31133169 0.65070587
0.31387526 -0.2987566 0.65185565
0.31382152 -0.28652421 0.65162432
0.31361896 -0.26753059 0.65058488
0.31408334 -0.25087675 0.65329021
0.31418103 -0.22689371 0.65395147
0.31639361 -0.19617347 0.66656625
0.55525738 1.691293 2.0208206
0.53356028 1.6769931 1.8978304
0.51466107 1.6768105 1.7907037
0.49581903 1.6691321 1.6839049
0.4727115 1.6961546 1.5529314
0.45661008 1.7007407 1.4616716
0.44112337 1.7070104 1.3738977
0.41204268 1.5141032 1.2091111
0.39854848 1.5182165 1.1326406
0.3863036 1.5393158 1.0632483
0.37174952 1.5136961 0.98078007
0.35983551 1.5351804 0.91326404
0.34125629 1.5496792 0.80798143
0.32825255 1.5344524 0.73430222
0.31643119 1.5591669 0.66730994
0.30393475 1.5526576 0.59650397
0.29179963 1.5685745 0.52773619
0.27946466 1.5680603 0.45784327
0.26104727 1.5581516 0.35349101
0.24868301 1.5644443 0.28342855
0.23629968 1.5642419 0.21326141
0.22393689 1.5595467 0.14321323
0.21095505 1.5730318 0.069644324
0.19825427 1.5700407 -0.0023217178
0.18563977 1.5615041 -0.07379514
0.18172774 1.3754113 -0.095812134
0.16982071 1.2668567 -0.16318095
0.19707415 0.74123526 -0.0082753496
0.1881901 0.68998665 -0.058525067
0.18088229 0.67676294 -0.099892519
0.16882969 0.71635973 -0.16820166
0.19681239 0.213558 -0.008972018
0.19762737 0.15770641 -0.0042405557
0.19682826 0.11983463 -0.0086739529
0.19737542 0.075435326 -0.0054673883
0.1971111 0.0403095 -0.0068685813
0.19705857 0.0064938855 -0.0070689465
0.19695194 -0.024580508 -0.0075775762
0.19649179 -0.051691223 -0.010093411
0.19691995 -0.081714474 -0.0075689526
0.19707607 -0.10852413 -0.0065890714
0.19704597 -0.13298194 -0.0066666827
0.19721752 -0.15700407 -0.0056005535
0.19585426 -0.18495443 -0.013197852
0.19706526 -0.22013815 -0.0061893379
0.19604312 -0.24633251 -0.011852152
0.19635524 -0.26593274 -0.0099905301
0.19648777 -0.28438434 -0.0091481507
0.19664134 -0.31942576 -0.0080962712
0.19664457 -0.33615866 -0.0079878531
0.19635877 -0.37628207 -0.009383982
0.19621517 -0.39196035 -0.010108469
0.19639039 -0.42322549 -0.0089343367
0.19618818 -0.43854615 -0.0099910367
0.19623625 -0.46923581 -0.0095375068
0.19621269 -0.49226716 -0.009535037
0.1960496 -0.52336723 -0.010277768
0.19594112 -0.53919512 -0.010801441
0.19568655 -0.5716489 -0.012060964
0.20356284 -0.57514298 0.032693077
0.20345075 -0.59044045 0.03214911
0.20262514 -0.60762244 0.027559906
0.20322385 -0.63037634 0.031093618
0.20395762 -0.64499742 0.035347018
0.20432046 -0.66088331 0.037497859
0.20479353 -0.67683738 0.040274091
0.20388888 -0.6979838 0.035240892
0.19472675 -0.76242048 -0.016549395
0.19461222 -0.78603214 -0.017098552
0.19548108 -0.81902951 -0.012021805
0.19505395 -0.84733802 -0.0143393
0.19487959 -0.87623024 -0.015222457
0.19447286 -0.90846652 -0.017420353
0.19535816 -0.95205146 -0.012239444
0.023118297 -2.4322128 -0.98756611
0.021671534 -2.5962183 -0.99553657
0.021372247 -2.7681372 -0.99699026
0.051568139 -2.6568434 -0.8257398
0.072333187 -2.6202912 -0.70791119
0.24546623 -2.6023879 0.2750909
0.25844476 -2.6053188 0.34879196
0.27142879 -2.5986352 0.42251503
0.28435165 -2.5953445 0.49589413
0.2972708 -2.5924518 0.56925243
0.31681225 -2.5926657 0.68019831
0.32957777 -2.5782943 0.75266892
0.34281781 -2.5790577 0.82784677
0.76717794 -6.3266211 3.2391117
0.77524579 -5.9283223 3.2845786
0.78215671 -5.5646191 3.3235173
0.79449004 -5.2899418 3.3933003
0.79115069 -4.9056416 3.3740795
0.7811808 -4.5078855 3.3172357
0.77880937 -4.206615 3.3035858
0.75423884 -3.664201 3.1638296
0.79144508 -3.6770232 3.3749809
0.78718889 -3.4353716 3.3506989
0.77901703 -3.1906559 3.3042023
0.77639329 -2.9923968 3.2892218
0.77672637 -2.8206685 3.291039
0.77685839 -2.6573951 3.2917244
0.7571404 -2.3503528 3.1797187
0.78432548 -2.3092732 3.333981
0.7765764 -2.1429679 3.2899575
0.77220839 -1.9966658 3.2651329
0.76794773 -1.8577325 3.2409241
0.76469046 -1.7277194 3.2224152
0.76272893 -1.6060005 3.2112646
0.76687407 -1.4451681 3.2347643
0.76423299 -1.3302929 3.2197657
0.76416647 -1.2228752 3.2193785
0.76560342 -1.1194786 3.2275243
0.7231155 -0.96794319 2.9864461
0.74133587 -0.89087117 3.0898256
0.7489903 -0.79987484 3.1332536
0.75645459 -0.70649326 3.1756008
0.75471765 -0.55919564 3.1657453
0.75084758 -0.4619267 3.1437902
0.32849088 -0.4385733 0.74792498
0.32726771 -0.42768985 0.74105799
0.31503096 -0.42160642 0.67175603
0.31335762 -0.41876137 0.66230148
0.31221405 -0.40698823 0.65592563
0.31186724 -0.40310585 0.65399551
0.31103319 -0.38686776 0.64941216
0.31115612 -0.36357573 0.65029216
0.31386089 -0.35183176 0.66566676
0.313559 -0.33680266 0.66406256
0.312612 -0.32881138 0.65876406
0.31162012 -0.32104293 0.65321141
0.31055573 -0.30786923 0.64728284
0.31099248 -0.29412845 0.64982933
0.31117246 -0.28064257 0.65091908
0.31136942 -0.26623943 0.65210444
0.31129849 -0.24477091 0.65180385
0.31265035 -0.22123054 0.65953237
0.5756762 1.7041157 2.1501808
0.55054492 1.6737761 2.0077116
0.52326864 1.6912514 1.8530661
0.50370926 1.6821183 1.7421861
0.48640063 1.6860056 1.644062
0.46965942 1.6891327 1.5491571
0.45284137 1.684602 1.4538231
0.43816406 1.6997389 1.3706144
0.40937904 1.5104262 1.2075647
0.38989979 1.5267425 1.0971481
0.37879083 1.5685582 1.034156
0.36352992 1.5271729 0.94768888
0.35149372 1.546515 0.87945664
0.339169 1.5585338 0.80959409
0.32663259 1.562125 0.73853797
0.31402904 1.5581897 0.66710776
0.29561579 1.5694083 0.5627358
0.28326628 1.5701357 0.49274024
0.27093717 1.5653803 0.42286536
0.25868627 1.5571561 0.35343707
0.24628444 1.567438 0.28313255
0.2338149 1.5712014 0.21244968
0.21540508 1.556255 0.108116
0.20234469 1.5694007 0.03406867
0.19002962 1.5553657 -0.035722297
0.17985865 1.4944243 -0.093298905
0.17406628 1.3611439 -0.12595496
0.16509558 1.3065507 -0.17672801
0.1368825 1.5484426 -0.33700129
0.18780738 0.66235673 -0.047028851
0.1729847 0.74472266 -0.13115136
0.17232455 0.64951235 -0.13472243
0.19517104 0.15769558 -0.0042535122
0.19530815 0.11263546 -0.0033506881
0.19556762 0.07076139 -0.00175657
0.19521509 0.036524873 -0.0036434885
0.19281605 0.0009529427 -0.017103964
0.19403557 -0.037146848 -0.010065252
0.1951623 -0.057840582 -0.0036103202
0.19383118 -0.091980271 -0.011011754
0.19394527 -0.11804412 -0.010258797
0.19441949 -0.14417945 -0.0074619958
0.19410804 -0.16577038 -0.0091287345
0.19411092 -0.18761519 -0.0090113105
0.19398321 -0.20808345 -0.0096363369
0.19416207 -0.22872569 -0.0085212607
0.19418864 -0.26675683 -0.0081739761
0.19416404 -0.28476942 -0.0082163196
0.19389361 -0.32738513 -0.0095105125
0.19378084 -0.34382111 -0.010054857
0.19394259 -0.36035591 -0.0090410775
0.19404037 -0.37648314 -0.008390652
0.19389731 -0.39212707 -0.0091077834
0.19402294 -0.40783969 -0.0082997335
0.1938999 -0.42323554 -0.008903468
0.19380422 -0.44626322 -0.0093045346
0.1935676 -0.46158406 -0.010552931
0.19377081 -0.47690508 -0.0093049323
0.19372016 -0.49227706 -0.0094977077
0.19359057 -0.5077858 -0.010138507
0.1935564 -0.52337712 -0.010237467
0.19344763 -0.53920501 -0.010759618
0.1935557 -0.56303734 -0.010003277
0.19336158 -0.57960588 -0.011009148
0.2012431 -0.58233654 0.033809211
0.20117901 -0.59767455 0.033540387
0.20056997 -0.61461002 0.030179992
0.20104288 -0.62960142 0.032958951
0.20170182 -0.65271711 0.036842052
0.201664 -0.66134316 0.036675915
0.20264435 -0.68458766 0.04238363
0.20019099 -0.71170878 0.028564852
0.19300345 -0.77074242 -0.012054524
0.19254792 -0.79619384 -0.014534835
0.19217511 -0.82281452 -0.016544405
0.19177154 -0.85128361 -0.018726591
0.19301784 -0.88741058 -0.011495714
0.19260974 -0.9205237 -0.013698671
0.19193186 -0.95800549 -0.017428562
0.018406821 -2.3117855 -1.0009011
0.017485034 -2.4581904 -1.0059061
0.01658746 -2.6195216 -1.0107579
0.017628588 -2.7809491 -1.004604
0.057454281 -2.6620922 -0.77853298
0.1550732 -2.6094368 -0.22394851
0.20287722 -2.6212718 0.047730155
0.22990967 -2.6008112 0.20133816
0.24293053 -2.6023698 0.27534363
0.25590426 -2.6042945 0.3490828
0.27533349 -2.5982792 0.4595055
0.28825104 -2.5956786 0.53292298
0.30110049 -2.5874894 0.60594881
0.30750978 -2.5829258 0.64235932
0.3204138 -2.5778165 0.7156831
0.33348316 -2.5759985 0.78994828
0.34637827 -2.5656147 0.86321455
0.58568394 -4.9900379 2.2245929
0.75764334 -6.2481465 3.2021835
0.76223218 -5.8185549 3.2278395
0.76900452 -5.4621449 3.265969
0.75970256 -4.9953775 3.2127383
0.77969354 -4.8324032 3.3261082
0.78355426 -4.4029846 3.3476691
0.78061557 -4.1080871 3.3307443
0.75452852 -3.685077 3.1822889
0.78687531 -3.666512 3.365948
0.77827549 -3.4004545 3.3169227
0.77180779 -3.1672051 3.2800357
0.76826644 -2.9658945 3.2597938
0.77557629 -2.7452078 3.3011622
0.7767579 -2.5900903 3.3077791
0.75010198 -2.3338919 3.1562805
0.7792359 -2.3010712 3.3216896
0.77054685 -2.1322198 3.2722671
0.76489788 -1.9828066 3.2401218
0.7671929 -1.8018422 3.2530744
0.7646324 -1.6753305 3.2384856
0.76229262 -1.5540249 3.2251561
0.76008296 -1.4371214 3.2125709
0.75988871 -1.327432 3.2114334
0.76014441 -1.2208363 3.2128539
0.76275539 -1.1192529 3.2276497
0.72209984 -0.9225738 2.9968021
0.76533061 -0.86407191 3.242208
0.75970393 -0.75920945 3.2102451
0.75497884 -0.65773636 3.1834047
0.750844 -0.55877548 3.1599178
0.74610895 -0.46171919 3.1330271
0.32520089 -0.43880421 0.74402082
0.31192628 -0.42203331 0.66885883
0.31029981 -0.41046453 0.65973783
0.30944648 -0.40282357 0.65496838
0.30888569 -0.39490619 0.65185928
0.30844408 -0.38682818 0.6494267
0.3088614 -0.38152063 0.65183133
0.30947298 -0.37094346 0.65537465
0.31139573 -0.34623623 0.66642994
0.31096715 -0.3367635 0.66407067
0.30945474 -0.3251105 0.6555987
0.30873716 -0.31641242 0.65160012
0.30882758 -0.3044771 0.6521852
0.30868089 -0.29291588 0.651425
0.30898964 -0.27875885 0.65324795
0.30856389 -0.26020005 0.65093982
0.30853331 -0.23793015 0.65087217
0.31039786 -0.21056105 0.66151667
0.56316817 1.7116545 2.0950418
0.53858858 1.6806046 1.9556491
0.51786512 1.6689595 1.8381294
0.49881691 1.6626986 1.7301152
0.48206601 1.6704971 1.6351305
0.45876464 1.6910203 1.5030075
0.44310349 1.6971781 1.4142113
0.42882454 1.7162713 1.3332522
0.39976388 1.5110202 1.1685452
0.38647884 1.5154477 1.093237
0.37294543 1.5102725 1.0165261
0.36083564 1.5281826 0.94788092
0.34286919 1.5602115 0.84603715
0.33020139 1.5621639 0.77423704
0.31752804 1.5585344 0.70240968
0.30515668 1.5622432 0.63229239
0.28044292 1.5571678 0.49223185
0.26819342 1.5674018 0.42280495
0.24971303 1.5676223 0.31807211
0.23738703 1.5646707 0.24822028
0.22507399 1.5592384 0.1784441
0.21241032 1.5651546 0.10667276
0.19955665 1.5703902 0.033824462
0.19763233 1.2961863 0.023142586
0.18015271 1.4287448 -0.076021902
0.16987522 1.2788645 -0.13412398
0.15166979 1.3802341 -0.23738743
0.19336359 0.65778726 -0.00038905899
0.18193285 0.65112633 -0.065114237
0.16618417 0.74012035 -0.15443172
0.19151135 0.19004911 -0.010100666
0.18983687 0.15651514 -0.01949973
0.19082236 0.10579376 -0.013798201
0.19198732 0.058569923 -0.0070804385
0.19165203 0.025185816 -0.0088820653
0.19202588 -0.04061095 -0.0065605682
0.19156852 -0.066786654 -0.0090590008
0.18934003 -0.082970992 -0.021611335
0.19186331 -0.1204971 -0.0071932641
0.19207311 -0.14534508 -0.0059076841
0.1917697 -0.16687864 -0.0075355582
0.19192758 -0.18919475 -0.0065460945
0.19196062 -0.21007313 -0.0062657804
0.19130158 -0.23775548 -0.0098675303
0.19114137 -0.27480304 -0.010593904
0.19133662 -0.29313952 -0.0093951402
0.19133127 -0.31050873 -0.0093351007
0.1914424 -0.32766604 -0.0086143995
0.19166748 -0.34458604 -0.0072475714
0.1914964 -0.36056906 -0.0081288954
0.19142605 -0.37647113 -0.0084388908
0.19145527 -0.39227137 -0.0081841908
0.19125134 -0.41547456 -0.0092084687
0.19117583 -0.43087864 -0.0095484518
0.19119404 -0.4462505 -0.0093570147
0.1911319 -0.46157125 -0.0096216099
0.19098917 -0.47692686 -0.010343671
0.19103687 -0.50000662 -0.0099416561
0.19112827 -0.51543713 -0.0093357842
0.19079956 -0.53134042 -0.011113296
0.19108286 -0.54686224 -0.0094190361
0.19078469 -0.56324828 -0.011023569
0.1905933 -0.57985055 -0.01202238
0.1986461 -0.5823223 0.033745617
0.19850898 -0.6055631 0.033096865
0.1981201 -0.62227857 0.030976878
0.19896191 -0.6364693 0.035837933
0.1986434 -0.65401727 0.034116957
0.19952926 -0.6686095 0.039227512
0.19915561 -0.6875723 0.037193727
0.18992123 -0.75022769 -0.015056766
0.18985292 -0.77302086 -0.015358084
0.19030291 -0.80695498 -0.01267662
0.1900329 -0.83374268 -0.014122101
0.18973885 -0.8623777 -0.015703892
0.18970114 -0.89156187 -0.015831759
0.19073084 -0.93256032 -0.0098626073
0.1901983 -0.9702425 -0.012796975
0.013365619 -2.3306684 -1.0155764
0.018222015 -2.5069308 -0.98788607
0.016752826 -2.679791 -0.99611968
0.039006617 -2.6455774 -0.86981332
0.058341712 -2.6279545 -0.7600621
0.15888155 -2.6282396 -0.18928443
0.18691187 -2.6242497 -0.030146826
0.26016891 -2.6022654 0.38576072
0.2731258 -2.6002703 0.45932138
0.2860961 -2.6006651 0.53295732
0.30549052 -2.5918736 0.64305514
0.31831402 -2.5807862 0.7158637
0.33147243 -2.5809236 0.79057223
0.35038796 -2.5526221 0.89797211
0.65572309 -8.8285828 2.6300166
0.5780316 -4.902916 2.1895304
0.61561531 -4.9782867 2.4027777
0.74800831 -6.1484346 3.1537924
0.7771228 -5.7680926 3.3190339
0.77043724 -4.9318857 3.281255
0.78067482 -4.6918764 3.3393962
0.77557737 -4.3535237 3.3105583
0.77665758 -4.0910444 3.3167608
0.7553851 -3.7017334 3.1961796
0.78811747 -3.5736396 3.381954
0.78029156 -3.3202915 3.3376439
0.77380472 -3.0934606 3.3009295
0.76987857 -2.8953619 3.2787399
0.77130783 -2.7341747 3.2869272
0.77366036 -2.5848491 3.3003514
0.75410485 -2.3568664 3.1895137
0.77688748 -2.2288647 3.3188596
0.77087069 -2.0727887 3.2848146
0.76484203 -1.9249754 3.2507026
0.76300567 -1.795969 3.2403696
0.75958669 -1.6679484 3.22106
0.75977349 -1.5529916 3.2222037
0.75572914 -1.4326038 3.1993477
0.75968689 -1.2768198 3.2219234
0.76077336 -1.172043 3.2281709
0.76187485 -1.0686544 3.234504
0.71924174 -0.9219135 2.9927688
0.76128405 -0.8625778 3.2313249
0.75441808 -0.75736314 3.1924665
0.75138539 -0.60824347 3.1753948
0.74762315 -0.51016653 3.1541419
0.32258984 -0.43311572 0.74350065
0.30891395 -0.4180257 0.66612607
0.30759081 -0.41067266 0.65870053
0.30690596 -0.40282384 0.65489548
0.30596271 -0.39114904 0.64966452
0.30606636 -0.38651958 0.65029246
0.30648237 -0.38119552 0.65269214
0.30728489 -0.36533728 0.65736431
0.30900738 -0.34581441 0.6672551
0.3080284 -0.3325069 0.66182202
0.30662769 -0.32049081 0.65399677
0.30633414 -0.31588337 0.65237153
0.30592898 -0.29986256 0.65019381
0.30588102 -0.28768662 0.6500023
0.30555463 -0.26941764 0.64827174
0.30653149 -0.25757712 0.65385377
0.30647388 -0.2351529 0.65364844
0.30892196 -0.20408867 0.66761774
0.55780834 1.6919463 2.0798609
0.53395361 1.6652259 1.9446293
0.50809127 1.6886793 1.7980578
0.48989207 1.688109 1.6949093
0.47225389 1.6855304 1.5949427
0.4557927 1.6883428 1.5016528
0.44006687 1.6935486 1.4125345
0.42180005 1.6582768 1.3089967
0.39540881 1.486744 1.1593547
0.37755835 1.524173 1.0582297
0.36285967 1.4935775 0.97493124
0.35219827 1.5410646 0.91454536
0.33988792 1.5543402 0.84480071
0.32616663 1.5207999 0.76704556
0.31465867 1.5545709 0.70185518
0.3025791 1.5731802 0.63342017
0.27156669 1.5690876 0.45770979
0.25924742 1.5680912 0.38791168
0.2470116 1.5576329 0.3185851
0.23459204 1.5646671 0.24821895
0.22206518 1.5691599 0.17724362
0.20334965 1.5631803 0.071202286
0.19038287 1.5690533 -0.0022686187
0.19008687 1.2762185 -0.0039163311
0.17398806 1.3725104 -0.095138676
0.16747901 1.2722007 -0.13199763
0.18915501 0.74310452 -0.0090532694
0.18364497 0.70203573 -0.04023613
0.17846715 0.66116852 -0.069534577
0.16599412 0.71045184 -0.14019907
0.1926183 0.20752664 0.010973237
0.18995425 0.18092139 -0.0040644743
0.18987004 0.13547167 -0.0044715609
0.19034724 0.090024367 -0.0016942384
0.18971586 0.056262933 -0.0052032657
0.19009632 0.018488156 -0.0029735519
0.18987343 -0.012715463 -0.0041651861
0.18841767 -0.049656387 -0.012312207
0.18844491 -0.077789031 -0.012084587
0.18358901 -0.081472956 -0.039552264
0.18867153 -0.12998386 -0.010652342
0.18889226 -0.17673808 -0.0092527643
0.18868768 -0.19736989 -0.010339144
0.18894222 -0.21869501 -0.0088212034
0.18905056 -0.2386755 -0.008132522
0.18899173 -0.25746036 -0.0083919028
0.18922628 -0.27637866 -0.0069871009
0.18844306 -0.3011778 -0.011318028
0.18866032 -0.31881961 -0.010011262
0.18866295 -0.33561936 -0.0099218898
0.1887752 -0.35223714 -0.009210689
0.18865523 -0.36823362 -0.0098166894
0.18880671 -0.38431272 -0.0088829976
0.18871546 -0.39993262 -0.0093261758
0.18872036 -0.41548941 -0.0092238784
0.18882059 -0.43096355 -0.0085809426
0.18866815 -0.44626591 -0.0093713822
0.18843994 -0.46926603 -0.010554569
0.18851979 -0.48461497 -0.010027376
0.18851966 -0.50002301 -0.0099540772
0.1884412 -0.51557559 -0.010325103
0.18811581 -0.53151375 -0.012097212
0.18849686 -0.55494022 -0.0098248543
0.18810816 -0.56349069 -0.011993192
0.18828502 -0.58783007 -0.010879611
0.19651251 -0.58921421 0.035871129
0.19584604 -0.6059227 0.032163616
0.19562265 -0.62229657 0.030969758
0.19646665 -0.63648742 0.0358315
0.19642818 -0.66180074 0.035722785
0.19691053 -0.67781627 0.038532287
0.19616573 -0.69850868 0.034378871
0.18788792 -0.75963932 -0.012481457
0.18776155 -0.78310817 -0.013127781
0.18769173 -0.80759156 -0.013453549
0.18702979 -0.836335 -0.017139856
0.1881097 -0.87215334 -0.010908462
0.18756272 -0.90494627 -0.013944115
0.18708706 -0.93989575 -0.016576042
0.18694505 -0.97554779 -0.017315464
0.014431844 -2.3734872 -0.99625671
0.012720206 -2.5331893 -1.0059441
0.011521473 -2.7058363 -1.0127268
0.037952613 -2.6336217 -0.8626886
0.063601755 -2.6380315 -0.71707433
0.23163635 -2.6153753 0.23703673
0.2448546 -2.6026669 0.31210271
0.26431394 -2.6016095 0.42260787
0.27724749 -2.5973101 0.4960562
0.29020172 -2.5964015 0.56962103
0.30947644 -2.5826898 0.67909044
0.32228348 -2.5723112 0.75183517
0.33568332 -2.5789936 0.82793623
0.59007227 -4.8828554 2.2706988
0.63330907 -5.0204062 2.5159996
0.74964821 -5.9485168 3.1756918
0.76859623 -5.7024231 3.283349
0.78991193 -5.5009913 3.4044209
0.77119356 -4.9586525 3.2985227
0.77200842 -4.6393762 3.3033476
0.78282744 -4.2859182 3.3649786
0.75341344 -3.8208013 3.1983855
0.77181971 -3.7099848 3.3029244
0.77512455 -3.5102611 3.3218338
0.77077585 -3.2806215 3.2973402
0.76519811 -3.0612686 3.2658713
0.76505685 -2.8837192 3.2652266
0.7745555 -2.6781812 3.3193202
0.7747072 -2.5219827 3.3203306
0.76166195 -2.3238142 3.2464979
0.76934445 -2.2112784 3.2902112
0.76290858 -2.0552619 3.2538557
0.76063371 -1.9199091 3.2410958
0.76143014 -1.7380307 3.2458231
0.75966096 -1.6158533 3.2359285
0.75751829 -1.4969845 3.2239144
0.75603652 -1.3831774 3.2156477
0.75462073 -1.2726132 3.2077546
0.75651658 -1.1695514 3.2186444
0.75368881 -1.06172 3.2027423
0.71727824 -0.87560642 2.9964201
0.73964888 -0.79840863 3.1234462
0.75123423 -0.70746398 3.1892984
0.74772155 -0.60785812 3.1695104
0.74585843 -0.51018327 3.1590796
0.31951946 -0.42765117 0.74101079
0.30796263 -0.42094848 0.67559886
0.30579722 -0.41410977 0.66341311
0.30478957 -0.40650815 0.65779537
0.30348849 -0.39086717 0.65061164
0.30309075 -0.37816828 0.64850366
0.30347136 -0.37274602 0.65071267
0.30464405 -0.35546327 0.6575157
0.30598626 -0.34150809 0.66523129
0.30536824 -0.33251709 0.66182506
0.3038137 -0.32101631 0.65315509
0.30335623 -0.31130135 0.65066016
0.30368298 -0.29815254 0.65261567
0.30293643 -0.28246436 0.64853179
0.3032715 -0.26750013 0.65053558
0.30372977 -0.25084597 0.65323961
0.30369577 -0.22756985 0.65320259
0.30637705 -0.19394712 0.66852641
0.54501748 1.695466 2.0235903
0.52239889 1.6738838 1.8953778
0.50398767 1.6778052 1.7910469
0.48513746 1.6701335 1.6842189
0.46819505 1.6733072 1.5882196
0.4448325 1.689177 1.4558628
0.43018669 1.7052944 1.3728994
0.40089273 1.5086331 1.2067145
0.38778242 1.5183012 1.1324571
0.37531397 1.5355885 1.0618455
0.36064023 1.5070354 0.97869617
0.3498469 1.5536765 0.91760606
0.33075798 1.5585629 0.80948633
0.31702232 1.5186905 0.73165113
0.30562317 1.5592002 0.66712224
0.29313788 1.5536791 0.59640247
0.28096989 1.5675935 0.52749592
0.2686328 1.5660703 0.45762005
0.25631174 1.5700706 0.38783926
0.23794191 1.5564535 0.28378898
0.22551009 1.5612396 0.21338117
0.21306373 1.5605103 0.14288746
0.20036989 1.5641332 0.070993282
0.18779013 1.5592374 -0.00025952555
0.18639845 1.2936493 -0.0082371114
0.17113921 1.37055 -0.09463039
0.15895312 1.2677392 -0.16366886
0.18108165 0.69736356 -0.038414583
0.16519985 0.73833603 -0.12831526
0.16397172 0.65036052 -0.13524511
0.19639744 0.19656122 0.048485715
0.1885902 0.1925451 0.0043476792
0.18674934 0.16011836 -0.0060197371
0.18677801 0.11579523 -0.0057925852
0.18626282 0.079275139 -0.008644674
0.18632257 0.041772593 -0.0082367258
0.18638457 0.007178836 -0.0078141103
0.18664661 -0.026041357 -0.0062561915
0.18607131 -0.052420273 -0.0094425017
0.18624559 -0.081105337 -0.0083792573
0.18613136 -0.10668305 -0.008950186
0.18637063 -0.13242719 -0.0075165494
0.18639933 -0.155904 -0.0072755539
0.18532316 -0.18500262 -0.013257469
0.186276 -0.19895126 -0.0078160977
0.18638682 -0.21970089 -0.0071077249
0.18567501 -0.24681933 -0.01102223
0.1858332 -0.26598108 -0.0100443
0.18596765 -0.28443274 -0.0092005935
0.18606797 -0.30224049 -0.0085500712
0.18612474 -0.31947428 -0.0081461985
0.18612958 -0.33620733 -0.0080365818
0.18607515 -0.35251576 -0.0082629798
0.18595514 -0.36847833 -0.0088610984
0.18587698 -0.3921662 -0.0091805495
0.1858325 -0.40775707 -0.0093502738
0.18571079 -0.42318785 -0.0099579142
0.18585652 -0.43864828 -0.0090489909
0.18574902 -0.45396236 -0.0095761977
0.18573442 -0.46928582 -0.0095767351
0.1855402 -0.49238712 -0.010555056
0.18563777 -0.50006032 -0.0099606207
0.18572594 -0.52327865 -0.0093378928
0.18544751 -0.5392459 -0.010835681
0.18561034 -0.55497777 -0.0098309098
0.18536578 -0.57145816 -0.011137304
0.18522914 -0.58814341 -0.011832018
0.19329248 -0.58986825 0.033991665
0.1929549 -0.60595888 0.032157578
0.19289123 -0.62195826 0.031876948
0.19394889 -0.6437754 0.037997846
0.19353294 -0.66183698 0.035717215
0.19371064 -0.6788221 0.036804147
0.19251795 -0.71068972 0.030152764
0.18455932 -0.76135522 -0.01493472
0.18416223 -0.78608555 -0.017115066
0.18490341 -0.81971174 -0.012801311
0.18461801 -0.84739137 -0.014351386
0.18432392 -0.87696588 -0.015952755
0.18405242 -0.90852058 -0.01742799
0.1837178 -0.94286007 -0.019264054
0.013491809 -2.4299698 -0.98572177
0.011794224 -2.5964038 -0.99541676
0.012196385 -2.762387 -0.99320447
0.041800819 -2.6561408 -0.82512337
0.061980367 -2.6257372 -0.71056455
0.16097721 -2.6262724 -0.1485723
0.20216051 -2.62467 0.085242905
0.2354247 -2.6183655 0.27410761
0.24866192 -2.5943322 0.34928644
0.261581 -2.6006315 0.42263034
0.27451044 -2.5963299 0.49604326
0.28751025 -2.5994105 0.5698474
0.30683628 -2.5866721 0.67959094
0.31991538 -2.5851605 0.75385702
0.33299738 -2.5799818 0.8281427
0.58740455 -4.879128 2.2692049
0.63821816 -5.1100774 2.5572453
0.74772233 -5.9520049 3.1775341
0.78962296 -5.3260274 3.415997
0.78451842 -4.9251628 3.3875237
0.77473068 -4.528554 3.332484
0.77056003 -4.213346 3.3092186
0.73864561 -3.7364681 3.1287673
0.77015221 -3.7151163 3.3075454
0.77808291 -3.437135 3.3529041
0.77174556 -3.2025819 3.3172646
0.76939011 -3.0051723 3.3041697
0.76704317 -2.8203251 3.2911093
0.76795441 -2.6606653 3.2965012
0.7548945 -2.452518 3.222707
0.76531917 -2.3471751 3.2819955
0.7683295 -2.1481361 3.2993581
0.76195186 -1.9954005 3.2634027
0.75998318 -1.8631104 3.25243
0.7557655 -1.7302502 3.2287028
0.75378263 -1.6083105 3.2176378
0.75224245 -1.4914631 3.2090771
0.75187939 -1.3803488 3.2071855
0.75111014 -1.2711891 3.2029872
0.75555593 -1.1194004 3.2284305
0.73005772 -0.98694122 3.0840237
0.72177881 -0.8821407 3.0372345
0.73970944 -0.80032074 3.139045
0.74801987 -0.70716447 3.1863122
0.74415582 -0.60756016 3.1645491
0.73922426 -0.4616487 3.1368015
0.31683359 -0.42756745 0.74197286
0.30471143 -0.42587632 0.67331713
0.30276912 -0.4143236 0.66243005
0.30176485 -0.40675643 0.65681958
0.30122441 -0.39875174 0.65383947
0.30063745 -0.39089108 0.65059549
0.30040658 -0.3778505 0.64941299
0.30066451 -0.3679941 0.65096062
0.30243692 -0.35386088 0.66109812
0.30276978 -0.33725312 0.66311365
0.30227894 -0.32783934 0.66041476
