# .PCD v0.7 - Point Cloud Data file format
VERSION 0.7
FIELDS x y z
SIZE 4 4 4
TYPE F F F
COUNT 1 1 1
WIDTH 1406
HEIGHT 1
VIEWPOINT 0 0 0 1 0 0 0
POINTS 1406
DATA ascii
1.1394674 1.5163848 0.03386667
1.1332206 1.5258775 0.15086764
1.1217074 1.5190303 0.22890028
1.1205568 1.5307556 0.30685046
1.1117655 1.5287364 0.3845762
1.1050133 1.530445 0.46270001
1.0911875 1.5263224 0.57958472
1.0801623 1.5202799 0.65721887
1.0760679 1.527325 0.73856133
1.0641233 1.5197943 0.81710553
1.0548233 1.5174267 0.89802164
1.051021 1.5258807 0.98436898
1.0386229 1.5181174 1.0661985
1.0673802 1.6000721 1.2379122
1.1011186 1.6854292 1.3783556
1.0897031 1.6825241 1.4776891
1.0796814 1.6830548 1.5823154
1.0711107 1.6873305 1.6934006
1.0639814 1.6955538 1.8121887
1.042444 1.6873916 1.98445
1.0316447 1.6908637 2.1135962
0.93067771 1.5014081 2.0663464
0.97537482 1.6267416 2.3216944
0.99008906 1.6910515 2.536082
0.95694077 1.6699436 2.7529066
0.94805926 1.68923 2.9520278
0.87723881 1.5657538 2.9721031
0.79857749 1.421363 2.95344
0.72457445 1.2853762 2.9350517
0.66504091 1.1833051 2.9616854
0.60302609 1.0733278 2.9687791
0.51993418 0.93216181 3.0132797
0.46111587 0.82666779 3.0133035
0.4060812 0.73049009 3.0276315
0.35302392 0.63924021 3.0497694
0.29317969 0.52180094 2.992651
0.2491516 0.46206138 3.1013899
0.19444604 0.35868046 3.0716476
0.1176644 0.22199644 3.0774896
0.067032881 0.12802956 3.059659
0.017583005 0.037933487 3.0517318
-0.031486731 -0.048625559 3.0599501
-0.081997827 -0.13117905 3.1054389
-0.13023604 -0.22063169 3.0888605
-0.20394859 -0.35171595 3.0952392
-0.25334683 -0.43951645 3.0997696
-0.30301332 -0.52789503 3.1037526
-0.35410312 -0.61753356 3.1150475
-0.40679604 -0.70913571 3.1314991
-0.46245897 -0.80415505 3.158752
-0.54491794 -0.94861305 3.1782212
-0.5970456 -1.0435649 3.1699982
-0.63130999 -1.1205841 3.0819921
-0.71877986 -1.2543436 3.2127972
-0.77994013 -1.3622279 3.2230623
-0.83957386 -1.4695551 3.2209933
-0.90732867 -1.5878881 3.2390621
-0.99863285 -1.7550004 3.2201447
-1.0748801 -1.8877941 3.2425816
-0.92742336 -1.7219908 2.6844797
-1.1528003 -2.0564888 3.0789499
-1.1495908 -2.08163 2.9042041
-1.1494707 -2.1090505 2.747905
-1.2934645 -2.356128 2.8112373
-1.2890387 -2.3762305 2.6526473
-1.0937879 -2.1106133 2.1741943
-1.1848187 -2.2682245 2.2062457
-1.0865617 -2.1394897 1.9375637
-1.1534978 -2.2612026 1.9282166
-1.2395293 -2.4140639 1.9364167
-0.68484098 -1.6536043 0.61017561
-0.67472786 -1.6496329 0.53001976
-0.65651077 -1.62686 0.47399503
-0.56349015 -1.5029588 0.23099859
-0.54734033 -1.4813864 0.18915306
-0.54604429 -1.4902997 0.12556984
-0.5378986 -1.4829817 0.084305145
-0.51218694 -1.5054823 -0.30392763
-0.1382167 -0.78163493 -0.0040159542
-0.12389861 -0.75593573 -0.0039458917
-0.11138343 -0.73356593 -0.0044157105
-0.099532962 -0.71223211 -0.0040019192
-0.088673949 -0.69265133 -0.0034445063
-0.078122221 -0.67339927 -0.0016291226
-0.070041694 -0.65920329 -0.0033392983
-0.064422131 -0.6485436 -7.2556126e-05
-0.056677941 -0.63470411 -0.00038726759
-0.04741022 -0.61888599 -0.0049782069
-0.040328085 -0.60604805 -0.0042410493
-0.035899043 -0.59743297 -0.00046090086
-0.029868282 -0.58670294 -0.00097922399
-0.021787833 -0.57266939 -0.003619276
-0.016433168 -0.56321895 -0.0045158574
-0.013344336 -0.55734336 -0.0026327521
-0.0081779771 -0.54810041 -0.0027928906
-0.0031213791 -0.5389753 -0.0025056857
0.0036931266 -0.52725512 -0.0053866501
0.012939544 -0.51062971 -0.0052088737
0.017393012 -0.50260782 -0.0050427434
0.019621085 -0.49848667 -0.004350035
0.02803383 -0.48394644 -0.0075075603
0.040517088 -0.46154979 -0.007540375
0.042544648 -0.45780686 -0.0069504301
0.044512238 -0.45398241 -0.0052913539
0.050652564 -0.44323602 -0.0068342984
0.052751709 -0.439652 -0.0078692315
0.056892417 -0.43237251 -0.0087250071
0.063056551 -0.42135218 -0.0089609874
0.065189533 -0.41762906 -0.0095528048
0.07148008 -0.40639824 -0.0098811509
0.077768609 -0.39504883 -0.0095188115
0.0822675 -0.38714895 -0.010500085
0.088549487 -0.37559986 -0.008942781
0.091370635 -0.37097639 -0.011423863
0.098384425 -0.35842881 -0.011643396
0.10518185 -0.34595799 -0.010102943
0.11063956 -0.33642974 -0.011602581
0.11397323 -0.33086327 -0.013950291
0.12365359 -0.31291142 -0.010669407
0.12994985 -0.30187818 -0.012164989
0.13599516 -0.29104486 -0.01224606
0.14279662 -0.27903518 -0.013344847
0.15994406 -0.24815971 -0.012738014
0.16853231 -0.23302427 -0.014286419
0.18018518 -0.21179746 -0.012486642
0.19188207 -0.19149461 -0.016347734
0.20502003 -0.16730264 -0.012845472
0.21875294 -0.14320819 -0.015919164
0.23442192 -0.11574344 -0.019573914
0.23588832 -0.1089874 0.0037223487
0.27375832 -0.045202844 -0.019751597
0.298747 0.00045430739 -0.015080893
0.32758743 0.051371872 -0.019723665
0.35992599 0.10877354 -0.023185324
1.1730235 1.4844567 -0.49186894
1.1656282 1.486276 -0.40659961
1.0488157 1.3010381 -0.26920021
1.1483223 1.491581 -0.20114358
1.0895832 1.4032646 -0.1047511
1.0950311 1.425822 -0.03249127
1.1389955 1.5164224 0.033833303
1.1343485 1.5218987 0.1119047
1.130325 1.5284693 0.18983996
1.1230197 1.5291622 0.26782688
1.1112951 1.5287793 0.38454184
1.1026374 1.526997 0.46225134
1.0950292 1.5271816 0.54043752
1.0860702 1.524949 0.61865902
1.0808328 1.5297836 0.69909018
1.0700246 1.5243454 0.7779429
1.0512499 1.5115438 0.89595145
1.0448853 1.5150175 0.98012435
1.0360185 1.5140175 1.0643805
1.0234274 1.5060886 1.1472355
1.1088678 1.692104 1.3323704
1.0931993 1.6804916 1.4256124
1.0761395 1.6768978 1.5782954
1.0601895 1.6660279 1.6785929
1.0541054 1.6761786 1.797677
1.0517985 1.6954472 1.9300061
1.0528549 1.7234367 2.0775318
0.97355443 1.5813385 2.078397
0.95263708 1.5780754 2.2720864
0.97797126 1.665226 2.5078795
0.96752995 1.6765563 2.6778369
0.94842529 1.6708817 2.839519
0.91603678 1.6367843 2.9752302
0.83062214 1.4775947 2.9414797
0.73298258 1.3074348 2.9696965
0.66636932 1.1878631 2.9692569
0.60564786 1.0814416 2.9834142
0.54635316 0.977139 2.9950807
0.48843232 0.87490237 3.0044949
0.4314363 0.77348387 3.0091555
0.35325965 0.6414119 3.0553305
0.30088586 0.5516963 3.0792835
0.24450943 0.44436347 3.0442197
0.19498697 0.36326754 3.0879929
0.14258659 0.26648828 3.0722764
0.09171132 0.17361815 3.0631948
0.041824434 0.081315517 3.0472975
-0.0073435954 -0.005124541 3.057261
-0.081613339 -0.13300061 3.0875492
-0.1305743 -0.22059961 3.0888622
-0.17957024 -0.30799833 3.0916641
-0.23007877 -0.39538178 3.1098986
-0.27974778 -0.48382163 3.1136439
-0.33008608 -0.57303989 3.1197784
-0.38288695 -0.66435164 3.1390584
-0.46192288 -0.80351651 3.1538785
-0.51983839 -0.90195274 3.1847608
-0.58058608 -1.0047238 3.2198639
-0.59704387 -1.0647787 3.0472126
-0.69147164 -1.2041285 3.2171474
-0.75319475 -1.3121362 3.2325394
-0.83875036 -1.4683005 3.2173872
-0.90419382 -1.5837661 3.2283518
-0.9697699 -1.7007824 3.2318947
-1.0475932 -1.8349862 3.2624931
-1.1191229 -1.9627668 3.2655687
-1.1358107 -2.01758 3.1249027
-1.1638914 -2.1013443 2.9361002
-1.1401906 -2.0956569 2.7278175
-1.264323 -2.3000884 2.8311
-1.2818561 -2.3524632 2.7128007
-1.2569703 -2.3413026 2.5234468
-1.1553782 -2.2129843 2.2184181
-1.0980188 -2.1470323 2.0094545
-1.1412294 -2.2420568 1.9104723
-1.2191309 -2.3820875 1.908932
-2.7203825 -5.0102639 2.2773826
-0.84550691 -1.9042778 0.82039547
-0.69439757 -1.6694746 0.6151275
-0.67367065 -1.6430391 0.5543294
-0.66967934 -1.6449208 0.50318694
-0.5506196 -1.494403 0.14637671
-0.54089212 -1.4842283 0.10521355
-0.53805465 -1.4984026 -0.003754447
-0.51599002 -1.5077444 -0.2805025
-0.14371583 -0.79033905 -0.00063501147
-0.1281656 -0.7622723 0.00029623206
-0.11557858 -0.73986918 -0.00073662918
-0.10434853 -0.71994704 -0.0020321619
-0.093384594 -0.7002731 -0.0020314967
-0.083040215 -0.6815992 -0.0014009019
-0.073303632 -0.66392344 -0.00024815122
-0.065353446 -0.64986825 -0.0014454175
-0.057582367 -0.63598704 -0.0018097832
-0.05000769 -0.62231416 -0.0013596908
-0.03671841 -0.59858173 -0.0020215204
-0.030657938 -0.5878042 -0.0025820914
-0.022734387 -0.57420826 -0.0061169281
-0.019145843 -0.56719077 -0.00285156
-0.013862676 -0.55782109 -0.0034877188
-0.0065166247 -0.54504561 -0.0058034491
-0.001460913 -0.53589135 -0.0053504268
0.0010869579 -0.53116894 -0.0045053605
0.016979868 -0.50290489 -0.0059895567
0.019216277 -0.4987691 -0.0053019379
0.02556183 -0.48777682 -0.0075520468
0.029804666 -0.4801293 -0.0073730727
0.031913895 -0.4761329 -0.0061836452
0.0339875 -0.47236028 -0.005894023
0.042167559 -0.45768723 -0.0059538013
0.046243735 -0.45047334 -0.0065364814
0.054431602 -0.43600488 -0.0078321891
0.05645274 -0.43235809 -0.0077260872
0.060582794 -0.4250443 -0.0082903951
0.066846378 -0.41394004 -0.0090765357
0.068984777 -0.41017947 -0.0095166769
0.077416547 -0.39504445 -0.0095170503
0.079751581 -0.39103338 -0.010535754
0.084277175 -0.38305283 -0.011342299
0.088836648 -0.37494993 -0.011800668
0.09754049 -0.35896987 -0.0097822398
0.10429272 -0.34658474 -0.0082820961
0.10781657 -0.34088537 -0.011814948
0.11303999 -0.33157387 -0.012174816
0.12049232 -0.31791368 -0.010567167
0.12642954 -0.30742151 -0.011492228
0.1349529 -0.29196894 -0.010614998
0.1413763 -0.28050172 -0.010958964
0.15038256 -0.26394987 -0.0087646479
0.1588167 -0.24925554 -0.01125972
0.16699053 -0.23474248 -0.012138912
0.17859665 -0.21361582 -0.010451355
0.18687634 -0.19984463 -0.016589986
0.20083213 -0.17453732 -0.015100209
0.21531594 -0.14796661 -0.011822999
0.23048419 -0.12133227 -0.015120272
0.23495139 -0.11132611 -0.0038783085
0.24609977 -0.090574116 0.00034498985
0.29127967 -0.012822 -0.018384898
0.31725082 0.033157155 -0.021891149
0.35378331 0.099268317 -0.01871426
1.1535943 1.4455777 -0.52012473
1.1128519 1.3977568 -0.37720838
1.1174972 1.4191586 -0.30332732
1.1129578 1.4247965 -0.22540428
1.0903312 1.3989451 -0.14204228
1.0737684 1.3830907 -0.063671619
1.1405841 1.5132903 -0.0053074001
1.1375896 1.5217038 0.072637491
1.1303408 1.5294148 0.1897641
1.1172101 1.5196207 0.26758534
1.1100821 1.5205405 0.34509051
1.1073862 1.5295701 0.42349011
1.0776796 1.4890912 0.49596363
1.0888551 1.5238329 0.57902867
1.0739315 1.5177722 0.69614393
1.0695772 1.5244181 0.77788836
1.057405 1.5165039 0.85661423
1.0509118 1.5196075 0.94002801
1.0389211 1.5124348 1.0211035
1.0318115 1.5150104 1.1077852
1.1084307 1.6921836 1.3323133
1.0903666 1.6757865 1.4228458
1.0207545 1.5559373 1.4513485
1.0700821 1.6762341 1.6311452
1.0629648 1.683862 1.7464727
1.0584713 1.6980451 1.8722512
1.0406189 1.6985184 2.0560262
0.99525028 1.6287671 2.1218612
0.94088346 1.5390669 2.1661787
0.99208695 1.6810715 2.449698
0.98232877 1.692983 2.6160409
0.9514997 1.6596379 2.7402363
0.92136449 1.6502715 2.9929798
0.83817995 1.4966995 2.9684751
0.76047915 1.3531662 2.9451039
0.69394863 1.2344805 2.9489131
0.63488072 1.1329391 2.9739597
0.57194471 1.0196021 2.9715457
0.48881319 0.8770743 3.0089431
0.43342727 0.78063953 3.0255091
0.37906936 0.68593997 3.0414572
0.32648197 0.59583396 3.0654178
0.25862017 0.44514954 2.9017808
0.22094896 0.41058859 3.0885084
0.16748019 0.3101972 3.0632467
0.091542535 0.17533663 3.0710089
0.041413773 0.075120673 3.0128529
-0.007650503 -0.005223379 3.056268
-0.057439525 -0.088835344 3.0885558
-0.10644981 -0.17674449 3.0886428
-0.15544568 -0.26419106 3.0911989
-0.20558889 -0.35131776 3.1072028
-0.27995127 -0.4837589 3.1126575
-0.32989633 -0.57279992 3.1158242
-0.38163811 -0.66343296 3.128216
-0.43559271 -0.75662029 3.1486118
-0.49331558 -0.854173 3.1825514
-0.55311537 -0.95537317 3.2169352
-0.59713793 -1.064525 3.0462799
-0.69063127 -1.2028662 3.2124596
-0.74666321 -1.3044379 3.2065148
-0.81259847 -1.4184027 3.230958
-0.85828269 -1.5094866 3.1793394
-0.9441126 -1.6505851 3.2521782
-1.0287982 -1.810142 3.2090144
-1.110754 -1.9511982 3.2427857
-1.1013699 -1.9703947 3.0390029
-1.1599053 -2.0806813 3.0091691
-1.1206027 -2.0541632 2.7603722
-1.1959946 -2.1879616 2.7685912
-1.2783247 -2.3334718 2.7809708
-1.2874718 -2.3859327 2.577069
-1.1296604 -2.1739192 2.1749423
-1.2191182 -2.3301172 2.1991928
-1.1205173 -2.2001262 1.9339358
-1.1802281 -2.3113749 1.9105821
-1.2954932 -2.5107417 1.9525343
-0.67839408 -1.646069 0.58139086
-0.67141235 -1.6429061 0.52842367
-0.58523029 -1.502386 0.44870692
-0.55175978 -1.4920065 0.16769286
-0.5465076 -1.4938244 0.10409565
-0.54425782 -1.5052665 0.016522059
-0.50410289 -1.5029219 -0.37778005
-0.11920101 -0.74660009 -0.0057394933
-0.10851631 -0.7261827 0.0013129559
-0.097475827 -0.70646149 0.00080900802
-0.087049335 -0.68772632 0.0009582924
-0.074914716 -0.66663504 -0.0029077991
-0.066313401 -0.65118581 -0.0028238911
-0.058798905 -0.63790101 -0.0039539407
-0.05145169 -0.62478042 -0.0043152468
-0.03756237 -0.59972703 -0.0035870203
-0.0339172 -0.59290034 -0.0019724434
-0.027929919 -0.58220226 -0.0022362522
-0.022082668 -0.57165587 -0.0019373646
-0.014581358 -0.55877191 -0.0052095298
-0.0093668252 -0.54945087 -0.0054207873
-0.0042614243 -0.54024595 -0.0051814578
0.00059684605 -0.53156757 -0.0054125767
0.0052502076 -0.52334934 -0.0061667804
0.014434877 -0.50677109 -0.0056351703
0.018857148 -0.49877477 -0.0052997279
0.025203114 -0.4877829 -0.0075500072
0.0294856 -0.47971919 -0.0054153865
0.035692029 -0.46877462 -0.0065117627
0.041874591 -0.45793071 -0.0079370979
0.043891154 -0.45419413 -0.0072734216
0.04786345 -0.44679058 -0.0057225162
0.054076754 -0.43601224 -0.0078308554
0.062236831 -0.42139059 -0.0079645077
0.066359945 -0.41401225 -0.0080865053
0.070626847 -0.40649712 -0.0088938475
0.072926633 -0.40259397 -0.010161771
0.077239186 -0.39491236 -0.010490895
0.083728381 -0.3832463 -0.010379081
0.090223446 -0.37143871 -0.0095269391
0.093073346 -0.36674458 -0.011902724
0.099862233 -0.35438541 -0.010912386
0.10692185 -0.34155574 -0.010008234
0.11211756 -0.33230048 -0.01039865
0.11765924 -0.32249892 -0.011209949
0.12544094 -0.30828461 -0.0098018115
0.13175766 -0.29716787 -0.011038925
0.13850421 -0.28531569 -0.012477716
0.14751756 -0.2688219 -0.010675001
0.15705653 -0.25260592 -0.015766161
0.16547222 -0.23648123 -0.0099882903
0.17491096 -0.21992591 -0.012144411
0.18488799 -0.20233802 -0.013922489
0.19666719 -0.18177158 -0.017140385
0.21375583 -0.15129548 -0.01819483
0.22452582 -0.13163115 -0.016276663
0.23868532 -0.1048723 -0.0086368704
0.23841809 -0.10234901 0.0083225295
0.28338042 -0.026825542 -0.020764323
0.3107695 0.023086451 -0.016412722
0.34015241 0.075228684 -0.019666957
1.1159743 1.3830113 -0.49511591
1.1016924 1.3726152 -0.40904966
1.1588585 1.483232 -0.36351314
1.0549176 1.319172 -0.23679549
1.0579487 1.3370467 -0.16650115
1.0764152 1.3882194 -0.064521231
1.1402766 1.513265 -0.0053220992
1.1358079 1.519075 0.072833322
1.1334327 1.5285822 0.15065511
1.1199679 1.5182501 0.22879545
1.1178533 1.5282289 0.30664238
1.1056349 1.526933 0.42321754
1.0934845 1.5187286 0.50005627
1.0899441 1.5264286 0.57948059
1.0789216 1.5203886 0.65711552
1.0743713 1.5265765 0.73823446
1.0628871 1.5199087 0.81700301
1.0435455 1.5061021 0.93509901
1.0416178 1.518278 1.0234717
1.0280942 1.5084027 1.1047915
1.09226 1.6515599 1.2632995
1.100693 1.6871781 1.3791188
1.057669 1.6209638 1.4411418
1.0667142 1.6700755 1.6270314
1.0633622 1.6853807 1.7475438
1.0531465 1.6876975 1.8642451
1.0477595 1.7012916 1.9957258
1.0201532 1.669161 2.0940683
0.93266177 1.5084335 2.0727818
0.97532463 1.6449138 2.4116461
0.9714486 1.6694251 2.5895278
0.95682406 1.6725929 2.7557638
0.94865525 1.6935798 2.9572647
0.87364596 1.5602297 2.9641597
0.79153526 1.407303 2.932405
0.69581878 1.2401272 2.9580913
0.6373238 1.140255 2.9867566
0.57397628 1.026072 2.9837329
0.51788312 0.92971212 3.0078943
0.45848256 0.8223356 3.0033188
0.40534171 0.73177642 3.0303321
0.35161462 0.63832396 3.0469346
0.28294575 0.48819652 2.8946629
0.22127667 0.41370642 3.0990372
0.1676207 0.3129943 3.0738747
0.11638531 0.22033182 3.0696721
0.065402105 0.11789463 3.0076451
0.016541572 0.038205452 3.052706
-0.032559622 -0.048255004 3.0619235
-0.10675439 -0.17681621 3.087646
-0.15712009 -0.26302433 3.1111202
-0.20469318 -0.3517099 3.0922589
-0.25563133 -0.43947881 3.1127172
-0.30538961 -0.52822524 3.1156809
-0.35626891 -0.61804122 3.1239703
-0.43388084 -0.7551825 3.135855
-0.48930043 -0.85066175 3.1581843
-0.54907888 -0.95145303 3.1946974
-0.58375365 -1.0297129 3.1039474
-0.64993507 -1.1389152 3.15786
-0.71990961 -1.2545666 3.213789
-0.80722612 -1.411756 3.2107773
-0.85067481 -1.4999009 3.1531467
-0.93580317 -1.6398298 3.2255387
-0.97626823 -1.7252405 3.1531036
-1.081681 -1.8956552 3.2589014
-0.92466986 -1.717157 2.6753616
-1.1437339 -2.0429842 3.0553665
-1.1639255 -2.1147125 2.8546345
-1.1777782 -2.1615365 2.7304108
-1.2877587 -2.3467727 2.7987525
-1.277274 -2.3578408 2.6298084
-1.0869645 -2.099283 2.1611307
-1.1954978 -2.2831812 2.2223604
-1.0907456 -2.1446824 1.9427865
-1.1735588 -2.3006573 1.9009813
-1.2745569 -2.4776042 1.9250796
-0.68160987 -1.6511228 0.5828408
-0.67512625 -1.6488554 0.52987802
-0.6761167 -1.6593363 0.48065841
-0.55299258 -1.4937848 0.1675892
-0.54982466 -1.4956124 0.12510926
-0.50769812 -1.4997271 -0.32560566
-0.14109766 -0.785514 -0.0065574786
-0.12304901 -0.75218242 -0.0012153098
-0.11059417 -0.72989017 -0.0015419848
-0.099493973 -0.7100848 -0.0021866746
-0.089005619 -0.69126093 -0.0021744492
-0.079118356 -0.6734184 -0.0016129542
-0.070428543 -0.65788609 -0.001965787
-0.062545404 -0.64388317 -0.0027821972
-0.054572098 -0.62944365 -0.0020451925
-0.048147336 -0.61829644 -0.0042131455
-0.040832397 -0.60489738 -0.0026803552
-0.0366599 -0.59687573 0.00033635722
-0.028450971 -0.58274156 -0.0030521324
-0.022588545 -0.57217032 -0.0027726805
-0.017250212 -0.56274432 -0.0036512543
-0.012008594 -0.55340964 -0.0040655979
-0.0047120554 -0.54066885 -0.0060766684
-0.0019875646 -0.53549016 -0.0044449228
0.0028088724 -0.52688372 -0.004460555
0.011932916 -0.5106374 -0.0052003874
0.016385999 -0.50261492 -0.0050346241
0.022753648 -0.49162436 -0.0075192284
0.027054192 -0.48372915 -0.0065258886
0.031238006 -0.47633171 -0.0071626958
0.035390712 -0.46893677 -0.0074981558
0.03743165 -0.46502051 -0.0060702274
0.041502323 -0.4576923 -0.0059519392
0.043501388 -0.45398587 -0.005285474
0.049640395 -0.44323874 -0.006828899
0.053766251 -0.43600956 -0.0078304354
0.057901792 -0.4287115 -0.0085407626
0.062041752 -0.4213534 -0.0089565553
0.070313647 -0.40649328 -0.0088932198
0.074434854 -0.39900967 -0.008409353
0.078721255 -0.39134762 -0.0085924035
0.083215006 -0.38342676 -0.0094157858
0.087743089 -0.37538308 -0.0098933205
0.092527553 -0.36698356 -0.010959642
0.097362295 -0.35842583 -0.01164168
0.10415833 -0.34595418 -0.010101752
0.11151031 -0.33265263 -0.0095096538
0.11703738 -0.32287833 -0.010337204
0.12105703 -0.31631529 -0.014018771
0.12924904 -0.30143124 -0.013001616
0.13530576 -0.29057112 -0.013063699
0.14430183 -0.27417961 -0.011681063
0.16005309 -0.24649048 -0.014963425
0.17083846 -0.22677785 -0.012956491
0.18118119 -0.20873517 -0.015890855
0.19380982 -0.18561062 -0.013293652
0.21989496 -0.13978232 -0.018857157
0.23767933 -0.10742211 -0.016348088
0.23438244 -0.1096948 0.004227493
0.27931771 -0.032818098 -0.017016653
0.30238682 0.008145812 -0.019467449
0.33221969 0.060770374 -0.024608918
1.0863423 1.3274388 -0.51359975
1.1703176 1.4821185 -0.49101913
1.1642839 1.493304 -0.36661571
1.0480939 1.3083035 -0.23387434
1.0978653 1.4067659 -0.1821436
1.0834286 1.3948201 -0.10325704
1.1361407 1.5000569 -0.043061003
1.1392307 1.519148 0.033495754
1.1331102 1.5220267 0.11182968
1.1263304 1.5305561 0.2287834
1.1120752 1.5186874 0.30626395
1.105257 1.5201694 0.38377911
1.1018825 1.5280049 0.46228084
1.0933276 1.5264469 0.5402258
1.0839089 1.5233511 0.61824101
1.0693403 1.5180461 0.73599488
1.0624324 1.5199841 0.81699795
1.0562413 1.5235528 0.89994889
1.0449731 1.5176797 0.98102379
1.0369387 1.5183153 1.0660914
1.0113171 1.484899 1.1370589
1.0977968 1.6824372 1.3764945
1.0812916 1.6693006 1.4696312
1.0768317 1.680951 1.5807066
1.0626962 1.6738262 1.6837912
1.0583076 1.6875653 1.8059499
1.0390372 1.6840192 1.9813391
1.0306228 1.6925219 2.1147332
0.9325251 1.5091947 2.0734262
0.98621762 1.6543664 2.349422
0.98520851 1.6841893 2.5282228
0.97769022 1.7024376 2.7076192
0.967996 1.7188686 2.8988137
0.88306445 1.5837241 2.9963219
0.79898882 1.426544 2.9605925
0.72507876 1.2908516 2.9432178
0.66521084 1.1880261 2.9692028
0.60324943 1.0782845 2.9773269
0.54407907 0.97415739 2.988879
0.46124977 0.83176094 3.0240734
0.40420899 0.72954416 3.0248244
0.35132208 0.63872278 3.0478582
0.29451951 0.53235781 3.0227447
0.24712192 0.45986837 3.093729
0.19359361 0.36178115 3.0821974
0.14123222 0.26469567 3.0644927
0.065702438 0.12952659 3.0665061
0.016208388 0.037578247 3.0487578
-0.03265522 -0.049698487 3.0510235
-0.082470775 -0.13332689 3.0835702
-0.13141216 -0.22073656 3.0858748
-0.18042298 -0.30800653 3.0896738
-0.23107211 -0.39530978 3.1099043
-0.30547771 -0.52814788 3.1136987
-0.35618475 -0.61784118 3.1210072
-0.40836108 -0.70925421 3.1334989
-0.46420583 -0.8044669 3.1617239
-0.52114719 -0.90221739 3.1867266
-0.58251101 -1.0056086 3.2247045
-0.61257893 -1.0998834 2.9967513
-0.72065991 -1.2550964 3.2156723
-0.7813431 -1.3625013 3.2240589
-0.84044057 -1.469234 3.2201619
-0.90872133 -1.5882388 3.2400446
-0.97505701 -1.7063682 3.2451465
-1.0743668 -1.8857597 3.2384152
-0.94720489 -1.7471198 2.7322221
-1.1562172 -2.0598075 3.0847816
-1.1520346 -2.0836601 2.907506
-1.147952 -2.1055036 2.7426009
-1.2782923 -2.3190622 2.8575039
-1.2691406 -2.3327377 2.6873546
-1.0960364 -2.1125 2.1763899
-1.1800687 -2.2596369 2.1970336
-1.0884448 -2.1408739 1.938965
-1.1519405 -2.2573414 1.9246603
-1.231768 -2.4005551 1.9248307
-2.7017193 -4.9784331 2.2632351
-0.84443682 -1.9010887 0.81915051
-0.68941307 -1.6595337 0.61207241
-0.6735813 -1.6414081 0.55392581
-0.65815413 -1.6278152 0.47425416
-0.54803455 -1.4806108 0.18926327
-0.55008644 -1.4918336 0.14662354
-0.53860295 -1.4822125 0.084502146
-0.5458048 -1.5278133 -0.10027067
-0.51129186 -1.501526 -0.30182686
-0.13989088 -0.78244382 -0.0044969693
-0.12519786 -0.75597161 -0.0039159511
-0.11474238 -0.73615032 0.0020619293
-0.10152654 -0.71370995 -0.0051728701
-0.090645373 -0.69409204 -0.0046715089
-0.084018089 -0.68161684 -0.0013870641
-0.07397107 -0.66326278 0.00043129537
-0.065737106 -0.64856893 -4.934653e-05
-0.057710312 -0.6340909 0.00035128
-0.048466086 -0.6183036 -0.0042053419
-0.041648731 -0.60606939 -0.0042204782
-0.035240229 -0.59458929 -0.0043509938
-0.031417243 -0.58726996 -0.0017654792
-0.023315307 -0.57319874 -0.004435956
-0.019937739 -0.56670457 -0.0019966913
-0.012502206 -0.55387563 -0.0049298378
-0.0073502273 -0.54462302 -0.004906367
-0.0045967204 -0.53941101 -0.0033844707
0.0023627812 -0.52726877 -0.0053709457
0.015988888 -0.50291497 -0.0059811445
0.020377805 -0.49494663 -0.005477346
0.026698601 -0.48395592 -0.0074945269
0.028792601 -0.48034671 -0.0083431927
0.03917795 -0.46155691 -0.0075288499
0.041172773 -0.45769525 -0.00594672
0.045199107 -0.45039299 -0.0055346899
0.049309302 -0.44324124 -0.0068240208
0.051407617 -0.43965688 -0.0078591984
0.059584331 -0.42505071 -0.0082842372
0.061591581 -0.42138919 -0.0079595996
0.067842968 -0.41026476 -0.0085242093
0.072119728 -0.40270123 -0.009175851
0.074431419 -0.39876062 -0.010361729
0.082877725 -0.38342744 -0.0094122179
0.085240476 -0.37932011 -0.010173723
0.090011455 -0.37097457 -0.011418297
0.0970226 -0.3584258 -0.011638612
0.10163973 -0.35002482 -0.011009252
0.10680835 -0.34088734 -0.011811033
0.11231819 -0.33121651 -0.013059152
0.12009747 -0.31711423 -0.012290153
0.12605995 -0.30656767 -0.013179689
0.13427936 -0.29150182 -0.011428826
0.14106625 -0.27951658 -0.012548745
0.15817918 -0.24869937 -0.011998926
0.16714577 -0.23300958 -0.014289065
0.17879473 -0.21178077 -0.012490489
0.19007152 -0.19210763 -0.015698593
0.20319195 -0.16794413 -0.012237923
0.21735011 -0.14318535 -0.015926881
0.2321236 -0.11711918 -0.018467795
0.23256028 -0.11347003 -0.0022943495
0.27187645 -0.045914713 -0.01928114
0.29397705 -0.0067333858 -0.022012122
0.32377574 0.047508396 -0.017712876
0.3584801 0.10881889 -0.023206931
1.1718305 1.4854304 -0.49227685
1.1634622 1.4856068 -0.4064233
1.054037 1.3129064 -0.27267167
1.1476715 1.4866142 -0.24061093
1.0866896 1.3947699 -0.14121062
1.0805718 1.4035776 -0.029410115
1.1383052 1.5183281 0.033560939
1.133656 1.5238142 0.11170197
1.1281648 1.5277747 0.1897611
1.116009 1.519727 0.26754662
1.1137016 1.529394 0.34556672
1.101447 1.5280547 0.46225998
1.0914769 1.5238845 0.53979129
1.0830067 1.5225343 0.61804843
1.0727202 1.517889 0.69610602
1.0679089 1.5236793 0.77761
1.0575322 1.5191785 0.85739857
1.0518942 1.5239495 0.94152677
1.0343629 1.5142151 1.0642905
1.0230311 1.5087494 1.1483126
1.1071879 1.6923239 1.3322724
1.0915225 1.6807127 1.4255157
1.0880921 1.6941473 1.5362201
1.057398 1.6639642 1.6769161
1.0531572 1.677904 1.7986958
1.047325 1.6898292 1.9252309
1.0488149 1.7186767 2.0731461
0.98229843 1.6038502 2.0987859
0.97113389 1.60764 2.2334249
0.97339278 1.6589959 2.5007486
0.96808511 1.6818209 2.6835718
0.94623703 1.6699264 2.8379261
0.91239363 1.6323785 2.9689517
0.83225662 1.4856679 2.9525342
0.75596648 1.3452803 2.9328353
0.66594726 1.191071 2.9742591
0.60407311 1.0816479 2.9833543
0.54479349 0.97733635 2.9950259
0.48703358 0.875512 3.0053399
0.43003547 0.77405792 3.0100205
0.37676251 0.68238539 3.0322039
0.32483393 0.59424603 3.0607214
0.24018611 0.43268067 3.0060871
0.19351354 0.36341444 3.0879674
0.1413103 0.26781541 3.0771081
0.09032248 0.17437309 3.0661113
0.040393934 0.08179453 3.0492525
-0.008516877 -0.0075337049 3.0404422
-0.083222732 -0.13237935 3.092515
-0.13202739 -0.22042862 3.0898581
-0.18080516 -0.30799192 3.0896752
-0.23145166 -0.39529723 3.109906
-0.28089258 -0.4837068 3.1116672
-0.33156145 -0.57301861 3.1207843
-0.38351732 -0.66388965 3.1341436
-0.46274558 -0.80308795 3.1509678
-0.5200538 -0.90097493 3.1789629
-0.58326858 -1.0059806 3.2266338
-0.59640974 -1.0628146 3.0386698
-0.69365937 -1.2050821 3.2209556
-0.75323242 -1.3107526 3.2279308
-0.83892512 -1.46703 3.2137945
-0.90345603 -1.5813565 3.2221351
-0.96980357 -1.6993046 3.2284324
-1.0386232 -1.8218057 3.2340713
-1.1225516 -1.9657869 3.2715523
-1.1359828 -2.016259 3.1224923
-1.1451676 -2.0592029 2.9729092
-1.1413581 -2.0957115 2.7278879
-1.2530676 -2.2822983 2.8063493
-1.2822205 -2.3514068 2.7114215
-1.2747843 -2.3660636 2.5531335
-1.1540942 -2.2093997 2.214411
-1.1216692 -2.1812067 2.044848
-1.1268711 -2.2087128 1.9421241
-1.213706 -2.3719547 1.9002168
-1.3119901 -2.5457125 1.9150167
-2.7005188 -4.9761147 2.2621648
-0.84429157 -1.9003022 0.81882751
-0.69906181 -1.6753775 0.61698562
-0.67687643 -1.6464782 0.55527586
-0.67239743 -1.6475428 0.50380635
-0.54996204 -1.4909759 0.14669243
-0.54501599 -1.4895375 0.10463241
-0.54785573 -1.502484 0.060241453
-0.54421204 -1.503612 0.016886171
-0.51558048 -1.5045401 -0.2789093
-0.50477248 -1.4976093 -0.34939349
-0.1458368 -0.79192042 -0.0016126357
-0.11729947 -0.74063981 -0.0012772214
-0.10641012 -0.72143167 -0.0031869265
-0.095086537 -0.70100766 -0.0026296063
-0.084731959 -0.68231457 -0.0020266331
-0.074984632 -0.66461867 -0.00090067612
-0.066724554 -0.64988512 -0.0014321816
-0.059239872 -0.63664031 -0.0025131966
-0.051923167 -0.6235612 -0.002827212
-0.038578466 -0.59973764 -0.003579187
-0.032263491 -0.58836484 -0.0033763277
-0.028512742 -0.58113992 -0.00059713016
-0.020723272 -0.56770122 -0.003685354
-0.017408701 -0.56129032 -0.0010827804
-0.0079025952 -0.54505593 -0.005793273
-0.0049949475 -0.53940952 -0.0033839238
0.0018420772 -0.52764732 -0.0062872116
0.011382641 -0.50999081 -0.00330995
0.015729669 -0.50232089 -0.0040753568
0.022115432 -0.49112096 -0.0055795442
0.028428858 -0.47992751 -0.0063867196
0.032588724 -0.47254473 -0.006869664
0.034653187 -0.46877372 -0.0065053175
0.040738285 -0.45757386 -0.0049533956
0.046878688 -0.44686043 -0.0067120073
0.051005792 -0.4396534 -0.0078582671
0.057167761 -0.42870986 -0.0085352352
0.059183072 -0.42504692 -0.008283237
0.063439518 -0.41762784 -0.0095432019
0.067583911 -0.41018102 -0.0095098522
0.074031115 -0.39875624 -0.010360588
0.078349158 -0.3910335 -0.010529339
0.084840797 -0.37931529 -0.010172466
0.089390613 -0.37119922 -0.010469241
0.096135244 -0.35896748 -0.0097764684
0.10098193 -0.35032168 -0.010090416
0.10613629 -0.34121242 -0.010906243
0.11163219 -0.33156943 -0.012169546
0.11719991 -0.32171178 -0.012948304
0.12501934 -0.30741513 -0.011487376
0.13136002 -0.29624468 -0.012686734
0.1399633 -0.28049323 -0.010954549
0.14681169 -0.26828611 -0.01144498
0.15560819 -0.25312665 -0.015009176
0.16557254 -0.23473041 -0.012135184
0.17463729 -0.21870476 -0.013525102
0.1854544 -0.19982994 -0.016586747
0.19940722 -0.1745206 -0.015097312
0.21266772 -0.15126628 -0.018190693
0.22816227 -0.12271243 -0.014002712
0.23351867 -0.11130424 -0.0038762197
0.24053441 -0.097168416 0.0048353774
0.28936732 -0.013552014 -0.017931083
0.31390944 0.030094588 -0.020204188
0.35136566 0.097717822 -0.017966991
1.1364659 1.419718 -0.5097416
1.1062274 1.3826499 -0.41255382
1.110478 1.4100791 -0.30068463
1.1108381 1.4240836 -0.22521192
1.0891966 1.3999307 -0.14223088
1.0716488 1.3823645 -0.063546844
1.138938 1.5134341 -0.0053231725
1.13594 1.5218495 0.072621875
1.1238066 1.5208367 0.18992922
1.1213799 1.530259 0.26777112
1.1122822 1.5276868 0.34548768
1.1057249 1.5297222 0.42347553
1.0764955 1.4901133 0.49607053
1.0881281 1.5257257 0.57932508
1.0768698 1.5265597 0.6981954
1.0656345 1.5202856 0.77667296
1.0543903 1.514107 0.85577917
1.0487963 1.518922 0.93970793
1.0419952 1.5217819 1.0248325
1.0288614 1.5126927 1.106655
1.1059011 1.6907395 1.3314588
1.0878562 1.674366 1.4219292
1.0178907 1.5537496 1.4498894
1.0691229 1.6779513 1.6321576
1.0652877 1.6923521 1.7524232
1.0556773 1.6960052 1.8705257
1.0378748 1.6965556 2.0541754
0.99352705 1.6289423 2.1218498
0.93636525 1.5331377 2.1601727
0.98945314 1.6792786 2.4476116
0.97745502 1.6861548 2.608151
0.95489162 1.6715205 2.7542849
0.91713345 1.6446239 2.9852304
0.83902144 1.5030198 2.9772141
0.76008326 1.3565341 2.94999
0.69064111 1.230534 2.9422238
0.63376784 1.1345326 2.9765141
0.57182461 1.0238717 2.9793792
0.48673791 0.87592393 3.0062525
0.43206447 0.78153139 3.0273244
0.377574 0.68640202 3.0423768
0.32488653 0.59592128 3.0654144
0.25760677 0.44739512 2.9084098
0.21994318 0.41319218 3.0971239
0.16624588 0.31202513 3.0700104
0.090168625 0.17705102 3.0788305
0.039889965 0.074446134 3.0089159
-0.0091083366 -0.0056373705 3.0533004
-0.059056513 -0.088338889 3.0925248
-0.10792494 -0.17672974 3.0886421
-0.15690665 -0.26418486 3.0911984
-0.20736831 -0.35121188 3.1111867
-0.28105125 -0.4837184 3.1096754
-0.33118159 -0.57277524 3.1148331
-0.38232517 -0.66306835 3.1232822
-0.43397006 -0.75457358 3.129967
-0.49415684 -0.85380578 3.1796267
-0.55446249 -0.95543712 3.2169344
-0.59846294 -1.0645994 3.0462792
-0.69239336 -1.2034446 3.2143431
-0.74916983 -1.3059056 3.2111652
-0.81282914 -1.4173054 3.2272868
-0.8570714 -1.5066309 3.1712079
-0.93958807 -1.6435447 3.2344151
-1.0036765 -1.7593826 3.2298093
-1.1148158 -1.9552099 3.2503891
-1.1038687 -1.9723783 3.0423043
-1.1610469 -2.080863 3.0091646
-1.1260453 -2.0603943 2.7697935
-1.1937802 -2.1833923 2.7617133
-1.2813199 -2.3364449 2.7846689
-1.2694539 -2.3453398 2.6140237
-1.1258812 -2.1667881 2.1667774
-1.2193602 -2.3290596 2.1978779
-1.1135294 -2.1879246 1.9220073
-1.17913 -2.3082166 1.9075748
-1.2899035 -2.5005965 1.9439462
-0.67709726 -1.6420076 0.58017766
-0.6715827 -1.6413394 0.52800298
-0.58936197 -1.5076126 0.44974452
-0.56215018 -1.5012265 0.20973174
-0.55341077 -1.4929868 0.16763607
-0.55024606 -1.4948145 0.12519071
-0.54635102 -1.5071074 0.016171314
-0.50941283 -1.5014144 -0.32645226
-0.50404948 -1.5006289 -0.37643227
-0.12368699 -0.75144082 -0.00067316007
-0.1105352 -0.72768295 0.00017100468
-0.099130325 -0.70720291 0.00020999595
-0.088363439 -0.68774247 0.00095852377
-0.079498529 -0.67205191 -0.00030605658
-0.070837572 -0.65655696 -0.00060710742
-0.062692419 -0.64194548 -0.00066928787
-0.055318054 -0.6288209 -0.0013161249
-0.048383258 -0.61648428 -0.0019576878
-0.039133154 -0.60030395 -0.0043708305
-0.033028953 -0.58945495 -0.0049943398
-0.02904501 -0.58167017 -0.0014194576
-0.023417717 -0.57165825 -0.0019362258
-0.018096548 -0.56225652 -0.0027963098
-0.012872309 -0.55294675 -0.0031931698
-0.0075990628 -0.54331177 -0.0022493775
-0.0028865293 -0.53507876 -0.0035407834
0.0017705858 -0.52687907 -0.0044590174
0.013088216 -0.50676519 -0.0056334338
0.0174466 -0.49904931 -0.0062554306
0.021710236 -0.49161667 -0.0075174309
0.023926569 -0.48729897 -0.0056067994
0.034343861 -0.46892732 -0.0074960808
0.038435653 -0.46141043 -0.0065412149
0.046560939 -0.44685012 -0.0067155696
0.048655342 -0.44328502 -0.0078226859
0.052713886 -0.43599778 -0.0078280205
0.058863204 -0.42503619 -0.0082861651
0.060987022 -0.42134058 -0.0089539802
0.067262679 -0.41017005 -0.009512363
0.073542736 -0.39887026 -0.0093846498
0.079808287 -0.38747332 -0.0085604293
0.082352452 -0.38322625 -0.010375304
0.087108649 -0.37493742 -0.011796151
0.09363886 -0.36296603 -0.010409633
0.10039693 -0.35061243 -0.0091740116
0.10335842 -0.34561992 -0.011008714
0.11072984 -0.33227536 -0.010394023
0.11626936 -0.32247284 -0.011205163
0.12404791 -0.30825722 -0.009796802
0.13036229 -0.29713938 -0.01103374
0.13675986 -0.28576523 -0.011665948
0.14394318 -0.27314883 -0.013247658
0.15602766 -0.25203189 -0.016512651
0.16230123 -0.24032208 -0.013989281
0.17309779 -0.22048904 -0.011445518
0.18306172 -0.20292132 -0.01324876
0.19398609 -0.18365788 -0.015210733
0.21276517 -0.15058088 -0.018787578
0.22309777 -0.13158694 -0.016269041
0.23613536 -0.10810041 -0.01579815
0.23465444 -0.10748336 0.0026931604
0.28053871 -0.029025635 -0.019350326
0.30836788 0.021597488 -0.015559706
0.3372553 0.072929673 -0.018486867
1.0808511 1.327175 -0.47266346
1.1004921 1.373637 -0.40931278
1.1566623 1.4826069 -0.36322457
1.0537299 1.3202016 -0.23699273
1.0592194 1.3423303 -0.16761804
1.079649 1.3969994 -0.065886348
1.1400406 1.5160562 -0.0056071305
1.135077 1.5210081 0.072722152
1.1326969 1.5305196 0.15061326
1.1187425 1.5193143 0.22882341
1.1156555 1.5275433 0.30663675
1.1088027 1.5290222 0.38449919
1.096513 1.5276322 0.50129175
1.0872928 1.5248699 0.57919765
1.0762824 1.5188346 0.65676373
1.0717434 1.5250304 0.73781437
1.0611752 1.5200809 0.81702965
1.0413961 1.5054257 0.93481779
1.0399063 1.5184439 1.0234977
1.027231 1.510217 1.1055623
1.0843111 1.6395034 1.2572566
1.0993577 1.6881536 1.379582
1.0815992 1.6725527 1.4715339
1.0782486 1.6864799 1.5842239
1.0546371 1.6711854 1.7372699
1.0496253 1.6841581 1.8614161
1.0453274 1.700003 1.9945529
1.0220579 1.6770741 2.1009846
0.9303112 1.507198 2.0714979
0.98044771 1.6601859 2.4275773
0.96998966 1.6702046 2.5902674
0.9631862 1.6912105 2.7779858
0.94664884 1.6931227 2.9565241
0.87287951 1.5626397 2.9673197
0.79050666 1.4090593 2.9348412
0.72046673 1.2825096 2.9300349
0.63565797 1.140345 2.9867723
0.57352263 1.0293765 2.9898448
0.51377654 0.92283624 2.9937086
0.45700166 0.82280731 3.0042334
0.40276352 0.72879094 3.0230081
0.34981191 0.63766807 3.0450845
0.25781041 0.44954953 2.9150472
0.22027592 0.41627121 3.1076622
0.16625375 0.31402847 3.0777476
0.11499055 0.22146472 3.0745492
0.064079583 0.1213866 3.0253084
0.015017885 0.038537558 3.054682
-0.034036644 -0.048389353 3.060935
-0.10828803 -0.17673817 3.0886419
-0.15740401 -0.26407656 3.0931895
-0.20648879 -0.35162315 3.0962429
-0.25718421 -0.43950963 3.1137104
-0.30694884 -0.52829224 3.1166708
-0.35796785 -0.61820883 3.1259444
-0.43577164 -0.75555962 3.1387942
-0.49001002 -0.85015404 3.1542802
-0.55104548 -0.95202321 3.1975913
-0.5884344 -1.0329771 3.1192665
-0.64156795 -1.1288794 3.1161509
-0.72103697 -1.2543844 3.2128429
-0.78318024 -1.363433 3.2268088
-0.85693359 -1.5059446 3.1693933
-0.93367833 -1.6356214 3.21487
-0.98240471 -1.7315252 3.1670375
-1.0804642 -1.8924577 3.2520518
-0.92237532 -1.7124087 2.6661544
-1.1494429 -2.0491626 3.0659654
-1.1652013 -2.1148291 2.8546188
-1.1753477 -2.156363 2.7227588
-1.2886322 -2.3463471 2.7979946
-1.2789179 -2.358542 2.6305087
-1.0910501 -2.1035807 2.1659648
-1.1930484 -2.2777088 2.2163408
-1.0903286 -2.1422186 1.9402095
-1.1572747 -2.2640266 1.9307595
-1.2740291 -2.4749582 1.9227759
-0.68291873 -1.6511804 0.58283556
-0.67348558 -1.6438383 0.52862626
-0.6611774 -1.6312473 0.47492322
-0.55431843 -1.4938281 0.16758665
-0.54971546 -1.4930334 0.12536545
-0.55246264 -1.5057696 0.081218787
-0.51525229 -1.507233 -0.30468205
-0.14059138 -0.78167093 -0.0039912951
-0.12480752 -0.75294638 -0.001753947
-0.11269905 -0.7313773 -0.0026801911
-0.10123261 -0.71081448 -0.0027819504
-0.090733506 -0.69197232 -0.0027970076
-0.080516554 -0.67342365 -0.0016088807
-0.071828216 -0.6578908 -0.0019615942
-0.063654974 -0.64323974 -0.0020738561
-0.055974495 -0.62944728 -0.0020407822
-0.050993688 -0.61986148 0.0016087861
-0.042237177 -0.60490018 -0.0026757545
-0.035859071 -0.59346628 -0.0027631749
-0.030075999 -0.58327937 -0.0038631314
-0.024199059 -0.57268339 -0.0036030544
-0.018845867 -0.563232 -0.0045000059
-0.013247679 -0.55295044 -0.0031895284
-0.010430394 -0.54766446 -0.0018982505
-0.0033991241 -0.53549099 -0.0044397879
0.0013964804 -0.52688438 -0.0044553559
0.010518968 -0.51063764 -0.0051950668
0.017011467 -0.49933779 -0.0072092973
0.023554498 -0.48730674 -0.0056031407
0.029820893 -0.47633132 -0.007157125
0.031902581 -0.47254366 -0.006870382
0.038042784 -0.46128628 -0.0055469577
0.042083453 -0.45398492 -0.00527984
0.048222139 -0.44323745 -0.0068232678
0.052347779 -0.4360081 -0.0078248028
0.056483094 -0.42870983 -0.0085351253
0.062630117 -0.41767725 -0.0085519701
0.066899888 -0.41018143 -0.0095094051
0.071035519 -0.40269756 -0.0091741541
0.075330943 -0.39504564 -0.0095098382
0.081794828 -0.38342378 -0.0094100703
0.084157862 -0.37931648 -0.010171477
0.091106854 -0.36698014 -0.010953868
0.097871713 -0.35466379 -0.0099816266
0.10300312 -0.34563357 -0.011006318
0.10600152 -0.34055296 -0.012711092
0.11372675 -0.32666883 -0.012618495
0.12151849 -0.31248692 -0.011517889
0.12749839 -0.30186626 -0.012159535
0.13388249 -0.29056564 -0.013057499
0.14287795 -0.27417368 -0.011674747
0.16002294 -0.2431629 -0.010342081
0.1690159 -0.22735839 -0.012244844
0.17894113 -0.20994748 -0.014524067
0.19322458 -0.18431859 -0.014568381
0.20297801 -0.16661625 -0.013458337
0.21966994 -0.13644606 -0.012263902
0.23490256 -0.10954055 -0.014710679
0.23295222 -0.10968476 0.0042353519
0.27695519 -0.034308899 -0.016071327
0.30001193 0.006625636 -0.018583598
0.3274577 0.055319112 -0.021758312
1.085831 1.329096 -0.51425767
1.1678616 1.4805311 -0.49037534
1.1588806 1.4866898 -0.36452073
1.0456296 1.3066636 -0.23339985
1.115079 1.4390876 -0.18936539
1.0834181 1.3974333 -0.10370024
1.1179092 1.4708014 -0.038883206
1.1372434 1.5183284 0.033611327
1.1335729 1.5255538 0.11164679
1.1185014 1.5192468 0.22882038
1.111058 1.5196075 0.30632666
1.1042347 1.5210891 0.38387668
1.1013304 1.529796 0.46251681
1.092293 1.5273621 0.54039294
1.0838007 1.5259976 0.61878729
1.070576 1.5232531 0.73736507
1.0600191 1.5183172 0.816513
1.0494033 1.5134223 0.89649045
1.0430225 1.5168812 0.98072982
1.0345666 1.5166943 1.0654083
1.0148281 1.4947854 1.1417528
1.0950528 1.6800677 1.3752185
1.08134 1.6725055 1.4715322
1.0760666 1.6825458 1.5817345
1.0663867 1.6845493 1.6912075
1.0556836 1.6853594 1.8043131
1.0521803 1.7022411 1.9352288
1.0313972 1.6974949 2.1191521
0.94085968 1.5305225 2.0937045
0.98161775 1.6477202 2.3426645
0.97928327 1.6745051 2.5176952
0.97280324 1.6949456 2.6989141
0.96538109 1.7164748 2.8958411
0.87740976 1.5740364 2.9830134
0.79811376 1.4282053 2.9630387
0.72668749 1.2987199 2.9556293
0.66386259 1.1885366 2.9700725
0.59992319 1.0735594 2.9687254
0.54221904 0.97326839 2.9871421
0.48080218 0.86073714 2.9740367
0.40341225 0.73182482 3.0303433
0.34990427 0.6390717 3.0488045
0.29484794 0.53916442 3.0425377
0.24588926 0.46104288 3.0975525
0.19218913 0.36230364 3.0841334
0.13990808 0.26587048 3.0693552
0.064232811 0.13008915 3.0694566
0.014641887 0.03935679 3.0596149
-0.034360629 -0.048520051 3.0599444
-0.08481402 -0.13118537 3.1044428
-0.13313185 -0.22047275 3.0898573
-0.18228211 -0.30782458 3.0946541
-0.2317307 -0.39544854 3.1009393
-0.30683869 -0.52814996 3.1127
-0.35685864 -0.61749315 3.1150649
-0.40923268 -0.70891607 3.1295521
-0.46534151 -0.80426079 3.1597548
-0.52370542 -0.90319598 3.1925373
-0.58298206 -1.0047328 3.2198741
-0.61137468 -1.0971773 2.9853592
-0.72069168 -1.2535992 3.2100303
-0.78027505 -1.3596812 3.214793
-0.84135163 -1.4686631 3.2183127
-0.90679467 -1.584166 3.229264
-0.97501945 -1.7045733 3.2407122
-1.0477252 -1.8322597 3.2564697
-1.1354373 -1.9981219 3.2086656
-1.1583155 -2.060816 3.0863712
-1.1562682 -2.0876694 2.9138308
-1.147174 -2.1024749 2.7379088
-1.2774407 -2.3158946 2.8529398
-1.2763379 -2.3412862 2.698241
-1.0876755 -2.087522 2.2189293
-1.1835177 -2.2628095 2.2003212
-1.0894132 -2.1402941 1.938279
-1.1528952 -2.2567437 1.9239982
-1.2318336 -2.3985775 1.92302
-2.6943452 -4.9641576 2.2566731
-0.84338713 -1.8970675 0.81748593
-0.69030124 -1.6587316 0.61178058
-0.67643172 -1.6439621 0.5545671
-0.65866148 -1.6220692 0.49804986
-0.54940933 -1.4806297 0.18923388
-0.55145979 -1.4918518 0.1465937
-0.54139745 -1.4848458 0.084110022
-0.54672015 -1.5269724 -0.10004497
-0.50860864 -1.5032278 -0.35247633
-0.5015198 -1.5096872 -0.46090981
-0.13016061 -0.76152986 0.00083020137
-0.11686396 -0.73764485 0.00093960384
-0.10567182 -0.71777016 -0.00027047904
-0.092044562 -0.69408977 -0.0046794945
-0.084767945 -0.68022168 -0.00011485404
-0.075371437 -0.66325986 0.0004241651
-0.06743627 -0.64922339 -0.00074771175
-0.059396118 -0.63472456 -0.00037127367
-0.052121628 -0.62170923 -0.00061373779
-0.043299206 -0.60664761 -0.0049999272
-0.036642738 -0.59458464 -0.0043562599
-0.030829068 -0.58434987 -0.0054970849
-0.027120832 -0.5771749 -0.0025667809
-0.019349463 -0.56371689 -0.0053560231
-0.016253617 -0.55782777 -0.0034819485
-0.011072525 -0.54855776 -0.0036592993
-0.0038539912 -0.53589654 -0.0053446982
0.00095821673 -0.52726239 -0.0053743469
0.01458362 -0.50290793 -0.0059838528
0.018918402 -0.49520636 -0.0064420141
0.021111906 -0.49111614 -0.0055825883
0.025321016 -0.48372534 -0.006522275
0.031585749 -0.47253966 -0.0068722735
0.035711631 -0.46516418 -0.0070552193
0.041765641 -0.45398054 -0.0052815764
0.045875199 -0.44685546 -0.0067139147
0.052029047 -0.43600333 -0.0078263897
0.056164004 -0.42870492 -0.0085366517
0.060069796 -0.42141441 -0.0069672307
0.062435616 -0.41762292 -0.0095443223
0.070715196 -0.40269217 -0.0091754617
0.076980501 -0.39133927 -0.0085879229
0.08127556 -0.38360325 -0.0084486892
0.086001143 -0.37537402 -0.0098886536
0.090555921 -0.36721849 -0.010012626
0.095374979 -0.35868952 -0.010706441
0.10023641 -0.35001493 -0.011007167
0.10730916 -0.33710432 -0.0098050889
0.11281442 -0.3274076 -0.010859161
0.11838674 -0.31750396 -0.011423844
0.12465742 -0.30655718 -0.013176171
0.13287705 -0.29149118 -0.011424813
0.13931152 -0.27999765 -0.011748239
0.14617176 -0.26776573 -0.012216986
0.15639614 -0.24924125 -0.011252647
0.16574404 -0.23299818 -0.014283068
0.1769862 -0.21237917 -0.011803841
0.18742087 -0.19399017 -0.013728829
0.19967961 -0.17256141 -0.016974814
0.21376003 -0.14658193 -0.012987118
0.22938599 -0.11920793 -0.016784791
0.23115873 -0.11345769 -0.002284256
0.26908857 -0.048131503 -0.01781789
0.29117179 -0.0089965267 -0.020639557
0.31999749 0.043619081 -0.01566796
0.35659713 0.10804021 -0.022815067
1.1713789 1.4871107 -0.49282515
1.1630149 1.4873052 -0.40690526
1.0516337 1.311268 -0.27212641
1.1516542 1.4959532 -0.24282813
1.0911732 1.4050376 -0.14322956
1.0691936 1.3797752 -0.06308651
1.1368768 1.5183569 0.03362976
1.1332071 1.5255808 0.1116653
1.1277111 1.5295436 0.18979394
1.1189481 1.5276157 0.26776576
1.1117887 1.5285385 0.34558386
1.1057062 1.5314454 0.42369232
1.08014 1.5056083 0.53696066
1.0815747 1.5225446 0.61811626
1.0726696 1.5204865 0.69679314
1.0664757 1.5236845 0.7776776
1.0552038 1.5174783 0.8569178
1.0508999 1.5247933 0.94190139
1.0325005 1.5133805 1.0640008
1.0211769 1.5079222 1.1479902
1.1065665 1.6939324 1.3331861
1.0888819 1.6783067 1.4242326
1.0410688 1.602343 1.479844
1.0700433 1.6817535 1.6347649
1.0502658 1.6748874 1.7965406
1.04203 1.681753 1.9188662
1.0450037 1.7136427 2.0689282
0.98800164 1.6191348 2.1129324
0.96563339 1.5987937 2.2248325
0.99682963 1.6976314 2.4670196
0.96219325 1.671742 2.6719899
0.93873215 1.6559544 2.8207107
0.91391808 1.6393089 2.9783058
0.83547109 1.4967961 2.9685025
0.75517106 1.3468249 2.9353397
0.69167662 1.2355818 2.9506068
0.60370046 1.0844222 2.9885769
0.5435127 0.97771657 2.9959486
0.48471403 0.87291801 3.0000088
0.43041289 0.779504 3.0227954
0.37577647 0.68378079 3.0359306
0.32358906 0.5948512 3.0626228
0.260488 0.4625442 2.9548433
0.19170201 0.36147159 3.0812528
0.13973054 0.26679003 3.0732427
0.088891409 0.17429851 3.0661252
0.038986329 0.083325982 3.0581183
-0.010048287 -0.00656927 3.0473709
-0.059609614 -0.090152718 3.0776393
-0.10989262 -0.17509532 3.1075454
-0.18200654 -0.3081961 3.0866823
-0.23278482 -0.39538708 3.1089029
-0.28123227 -0.48359796 3.101717
-0.33248422 -0.57290047 3.1168065
-0.38380671 -0.66333169 3.1262321
-0.43929812 -0.7575655 3.1564498
-0.52001786 -0.89981365 3.1711693
-0.58231366 -1.0038403 3.2150528
-0.59804189 -1.0631065 3.0395904
-0.69691312 -1.2071189 3.2284553
-0.75343275 -1.309467 3.2232373
-0.81625456 -1.4200286 3.2355182
-0.90179098 -1.5776443 3.2122295
-0.96975166 -1.6975224 3.2239757
-1.0397358 -1.8214869 3.2331469
-1.1185113 -1.9586101 3.2571163
-1.1297171 -2.005909 3.1034181
-1.1462373 -2.0587971 2.972033
-1.1413128 -2.0937104 2.7247183
-1.2356961 -2.2553093 2.7686543
-1.2871125 -2.3565543 2.7179027
-1.2837375 -2.3772905 2.5664465
-1.1522424 -2.2045705 2.2088969
-1.1347286 -2.1989338 2.0630903
-1.1244427 -2.2028856 1.9364028
-1.2019546 -2.3417795 1.937541
-1.3071564 -2.5359452 1.9071226
-0.8456549 -1.8946731 0.85049266
-0.70190388 -1.6778805 0.61770868
-0.6777575 -1.6456397 0.55499995
-0.67426085 -1.6483936 0.50394589
-0.55276674 -1.4935898 0.14644079
-0.54733133 -1.4912734 0.10438045
-0.55063289 -1.5050848 0.05978192
-0.54603982 -1.5044663 0.016668336
-0.51255059 -1.5054209 -0.32857382
-0.1471853 -0.79191148 -0.0016312893
-0.11973201 -0.7428748 -0.0029638177
-0.10810642 -0.7221548 -0.0037881115
-0.096769817 -0.7017138 -0.0032578148
-0.086076908 -0.68230647 -0.0020412575
-0.077576265 -0.66732067 -0.0035794324
-0.068963222 -0.65185058 -0.0035205504
-0.060867392 -0.63726985 -0.0032424149
-0.05380613 -0.62478554 -0.0043196608
-0.046387639 -0.61126548 -0.0031663948
-0.042141948 -0.60314882 -0.00036249275
-0.033604082 -0.58835763 -0.0033875671
-0.029853037 -0.58113289 -0.00060811121
-0.024240598 -0.57114589 -0.0011052663
-0.016764361 -0.55829871 -0.0043498618
-0.011566958 -0.54900295 -0.004543968
-0.0066252206 -0.54024476 -0.0051838332
-0.0016380618 -0.5311718 -0.0045047835
0.0050296942 -0.51978499 -0.007802844
0.012146925 -0.50645721 -0.0046893642
0.018587746 -0.49520507 -0.0064468286
0.022944087 -0.48706448 -0.0046391706
0.035381198 -0.46516356 -0.0070597278
0.041475479 -0.45408329 -0.0062797801
0.043462642 -0.45038444 -0.0055401116
0.049671199 -0.43964824 -0.0078641251
0.053718694 -0.43235624 -0.0077243191
0.055832762 -0.42870495 -0.0085406415
0.060088761 -0.42131266 -0.0099488329
0.070225365 -0.40280271 -0.0081977975
0.078795172 -0.38748065 -0.0085622529
0.083298355 -0.37951171 -0.0092179794
0.085882567 -0.37516016 -0.010844803
0.092863806 -0.36271533 -0.01134752
0.099385902 -0.35062116 -0.0091752829
0.10479909 -0.34120983 -0.010908095
0.1100074 -0.3319259 -0.01128303
0.11586259 -0.32170966 -0.012949378
0.12336059 -0.30784053 -0.010642621
0.12968849 -0.29669669 -0.011860472
0.13644569 -0.28481796 -0.013278912
0.14329526 -0.27265599 -0.014033097
0.15389535 -0.25366768 -0.014255193
0.16384368 -0.23530732 -0.011415729
0.17289858 -0.2193047 -0.012829606
0.18329473 -0.2010731 -0.015248784
0.19466883 -0.18110509 -0.017772604
0.21133274 -0.15126923 -0.018185126
0.22386664 -0.12883885 -0.018554198
0.23244564 -0.11237545 -0.012536
0.23644681 -0.10158566 0.00783516
0.28280228 -0.023786832 -0.022623565
0.31116268 0.02776481 -0.01892685
0.34295371 0.083930083 -0.023938056
1.1221271 1.3977559 -0.50090218
1.0942477 1.3645082 -0.40606824
1.1538281 1.4791952 -0.3621546
1.0945872 1.3916621 -0.25606182
