# .PCD v0.7 - Point Cloud Data file format
VERSION 0.7
FIELDS x y z
SIZE 4 4 4
TYPE F F F
COUNT 1 1 1
WIDTH 1419
HEIGHT 1
VIEWPOINT 0 0 0 1 0 0 0
POINTS 1419
DATA ascii
0.77079785 -1.0618885 3.2038133
0.73362476 -0.92181331 2.9928916
0.7692101 -0.80727297 3.1948984
0.76909727 -0.70786822 3.1942966
0.7669912 -0.60850942 3.1823845
0.75959551 -0.50982428 3.1404557
0.33717194 -0.43311036 0.74356347
0.32318616 -0.41390699 0.66443276
0.32184297 -0.40672123 0.65688813
0.32055271 -0.39114794 0.64972103
0.32058024 -0.38217109 0.6499542
0.32070923 -0.3727347 0.65076286
0.32172927 -0.35585886 0.65666538
0.32339022 -0.34105879 0.66616541
0.32236776 -0.32780355 0.66047931
0.32107171 -0.32100561 0.65320277
0.32107446 -0.31535339 0.65325648
0.32094955 -0.29814211 0.65266246
0.32061425 -0.28708521 0.65083641
0.32100302 -0.27218637 0.65311778
0.32062536 -0.25284329 0.65108919
0.32061753 -0.22968131 0.65115798
0.32248986 -0.20125099 0.66185391
0.56368935 1.7042377 2.0301461
0.54182094 1.689435 1.9061469
0.52218932 1.6836642 1.794838
0.503043 1.6735516 1.6862845
0.48625714 1.6785451 1.5911216
0.47000164 1.6830062 1.4989688
0.45438686 1.6890244 1.4104519
0.42769539 1.6402869 1.2591438
0.40410635 1.4985648 1.125422
0.39203611 1.5203702 1.0570152
0.37932563 1.5291439 0.98498011
0.36643538 1.5303907 0.91192758
0.35437414 1.5484695 0.84357548
0.3405382 1.5099645 0.76516861
0.32939082 1.5555577 0.70199674
0.31088561 1.5616573 0.59713238
0.29849491 1.5556208 0.52692062
0.28627929 1.5680828 0.45769876
0.27400637 1.5540881 0.38815865
0.26172945 1.5576276 0.31859279
0.24931154 1.5646617 0.24822724
0.236976 1.5602217 0.1783324
0.21810137 1.5621907 0.071383446
0.20524967 1.5651362 -0.0014388238
0.20541897 1.2616597 -0.00032840171
0.18903233 1.365778 -0.093224227
0.1818064 1.2788552 -0.13411139
0.20506658 0.72336751 -0.0019595001
0.19720243 0.71779543 -0.046485063
0.19390243 0.65111732 -0.065106347
0.18050382 0.71224827 -0.1410398
0.16334899 0.65531826 -0.23812649
0.20447938 0.18174976 -0.0045894696
0.20469229 0.13385324 -0.0032881638
0.20421353 0.095540702 -0.0059123565
0.2041038 0.057795361 -0.0064434526
0.20458776 0.019232003 -0.0036067741
0.2045985 -0.013433807 -0.0034555697
0.20441061 -0.042703304 -0.0044318833
0.20422485 -0.070140652 -0.0053964108
0.20427704 -0.097121313 -0.0050114132
0.20312499 -0.12937932 -0.011414292
0.20422888 -0.1459408 -0.0051078796
0.20407379 -0.16800499 -0.0058996673
0.20342092 -0.19788122 -0.0094715441
0.20322053 -0.21772124 -0.010520778
0.20332077 -0.23776302 -0.0098647764
0.20341164 -0.25703293 -0.0092621781
0.2036414 -0.2759828 -0.0078718401
0.20352004 -0.29350528 -0.0084733171
0.20368154 -0.31116724 -0.0074704965
0.20363103 -0.32796565 -0.0076703667
0.20352297 -0.34433427 -0.0081967209
0.20321779 -0.36822656 -0.0097978264
0.20319608 -0.38413161 -0.009834596
0.20344554 -0.40006411 -0.0083333123
0.20310362 -0.41537672 -0.010186227
0.20320112 -0.43088531 -0.0095469588
0.20321964 -0.44625711 -0.0093556643
0.20298411 -0.46157771 -0.010605191
0.20306563 -0.48460528 -0.010013413
0.20323622 -0.49992588 -0.008959773
0.20281009 -0.51568699 -0.01129012
0.20282614 -0.53134656 -0.011112859
0.20310965 -0.54686838 -0.0094188135
0.20247303 -0.56370407 -0.012942723
0.2024523 -0.5801152 -0.012973865
0.20254172 -0.62232512 -0.012250662
0.20242 -0.64026278 -0.012854294
0.19575976 -0.67551571 -0.050534233
0.20193088 -0.67856854 -0.015454322
0.20204629 -0.72836411 -0.014582412
0.20165533 -0.75132203 -0.016711885
0.20173573 -0.77359951 -0.016168503
0.20273826 -0.8051132 -0.010352808
0.2023232 -0.83246219 -0.012618212
0.20060056 -0.86840409 -0.022296648
0.20147417 -0.89295578 -0.017254977
0.20110367 -0.92626607 -0.019266525
0.025091182 -2.3322215 -1.0168202
0.029560139 -2.5118227 -0.99131197
0.029630074 -2.6713812 -0.99079651
0.028481849 -2.8606944 -0.99718291
0.027236577 -3.0748451 -1.004115
0.026250351 -3.3153744 -1.0095732
0.023266984 -3.6163354 -1.0263444
0.033060219 -3.9625282 -0.97061753
0.029091064 -4.8838916 -0.99277484
0.11136462 -8.2946939 -0.52517897
0.15982781 -8.264739 -0.25032148
0.2472043 -10.704035 0.24569665
0.30941552 -10.744064 0.59850389
0.40539524 -10.933115 1.1428277
0.46802548 -10.859447 1.4979591
0.59416741 -10.778639 2.2132206
0.60625839 -4.9087567 2.2812102
0.77139837 -6.0333548 3.2178299
0.7800321 -5.6728802 3.2668021
0.79512 -5.4137592 3.3523853
0.79341769 -5.0284638 3.3427556
0.79593664 -4.5636196 3.3570907
0.79674262 -4.2821794 3.361702
0.76890087 -3.8278866 3.2038634
0.78411525 -3.6960621 3.2901919
0.7912178 -3.5198123 3.3305228
0.78519738 -3.2801244 3.2964411
0.78144187 -3.070164 3.2752059
0.77990705 -2.8852007 3.2665665
0.7873618 -2.6705563 3.3089385
0.78933227 -2.5221825 3.3201814
0.77586442 -2.3223751 3.2438827
0.78444517 -2.213022 3.2926121
0.77894276 -2.0598216 3.2614853
0.77500415 -1.919196 3.2392271
0.77187544 -1.7872154 3.2215629
0.77437115 -1.6160482 3.2358322
0.77175003 -1.4961523 3.2210491
0.77192485 -1.385535 3.2221215
0.77036518 -1.2744609 3.2133591
0.77110189 -1.1695036 3.2176194
0.77252948 -1.0669055 3.2257981
0.72936165 -0.91994226 2.981102
0.76899761 -0.85907984 3.205941
0.76620561 -0.70774406 3.190239
0.76183498 -0.60784 3.1655424
0.76136929 -0.5104444 3.1629901
0.33489147 -0.42725119 0.74493355
0.32065123 -0.41393086 0.6643877
0.31947583 -0.40651941 0.65780425
0.31859908 -0.39899766 0.65291423
0.31806204 -0.39547858 0.64990985
0.31787711 -0.38251829 0.64898413
0.3178871 -0.36872882 0.64916384
0.31935078 -0.36043265 0.65750527
0.32085028 -0.34108064 0.66613221
0.31982619 -0.32782459 0.66044843
0.3189559 -0.32513154 0.65555429
0.3185311 -0.31537354 0.65322787
0.31826264 -0.29873529 0.65182948
0.31792986 -0.2877062 0.65002525
0.317736 -0.26879427 0.64905035
0.31794819 -0.25353098 0.65033698
0.31864685 -0.23447761 0.65438288
0.32072926 -0.20554698 0.66627675
0.56822503 1.6792625 2.0702498
0.53987712 1.6942607 1.9096311
0.51944643 1.6819055 1.7938608
0.5008356 1.6769059 1.6884103
0.48410207 1.68285 1.5936071
0.46765193 1.6856171 1.5004097
0.45193765 1.6907808 1.4113852
0.43293545 1.6453456 1.3037078
0.40717444 1.482038 1.1576841
0.38946888 1.5212859 1.0574137
0.37669739 1.5291128 0.98507535
0.36392635 1.5332747 0.91273856
0.35184017 1.5513808 0.84428757
0.3380422 1.5148695 0.76612002
0.32692939 1.5634644 0.70319289
0.31442958 1.5622249 0.63239181
0.29583564 1.5566126 0.52707213
0.28358108 1.5600809 0.45766139
0.27128571 1.5680859 0.38801965
0.25902843 1.5596278 0.31859064
0.24660879 1.5656643 0.2482428
0.23424222 1.5622159 0.17819375
0.22185305 1.5572556 0.10801572
0.20258462 1.5641745 -0.0011325454
0.2032408 1.2500321 0.0026150239
0.18610001 1.3706039 -0.09448988
0.17879532 1.2845826 -0.13585012
0.20223992 0.72620237 -0.0029117181
0.19487827 0.71317649 -0.044582926
0.19146883 0.64839411 -0.06385006
0.17640556 0.72934616 -0.14918256
0.096992478 1.4110452 -0.59930992
0.16384839 0.66947949 -0.2202497
0.20167467 0.18342231 -0.0056572766
0.20188145 0.1354855 -0.0044141063
0.20160995 0.095554769 -0.0058821011
0.20172663 0.056277122 -0.0051485803
0.20175825 0.020732047 -0.0048968699
0.20188367 -0.012700993 -0.0041128732
0.20144433 -0.040605824 -0.0065310043
0.20150687 -0.069458291 -0.0061029955
0.20129162 -0.095179819 -0.0072498634
0.20143026 -0.12110805 -0.0063898754
0.20066403 -0.14181326 -0.010660995
0.20046414 -0.1750882 -0.011683391
0.20054744 -0.19683883 -0.011136816
0.20064697 -0.21770921 -0.010498066
0.20074949 -0.2377512 -0.009842257
0.19974098 -0.25406244 -0.015487321
0.20091476 -0.27558059 -0.0087560611
0.20079328 -0.29313561 -0.0093704322
0.20079072 -0.31050491 -0.0093105035
0.20090464 -0.32766238 -0.0085898954
0.20079704 -0.34406471 -0.0091256145
0.20113313 -0.36079067 -0.0071449229
0.20064323 -0.38412142 -0.0098120095
0.20089483 -0.40005413 -0.0083105778
0.2005551 -0.41536689 -0.010163318
0.20048156 -0.43080583 -0.010506283
0.20084898 -0.44628266 -0.0083481167
0.20044218 -0.46156842 -0.010581644
0.2004755 -0.47692424 -0.010318818
0.20087284 -0.49983001 -0.0079544978
0.20027617 -0.51567835 -0.011265635
0.20029455 -0.53133816 -0.01108807
0.20040993 -0.54705089 -0.010360467
0.20011552 -0.56347114 -0.011957743
0.19992815 -0.58010733 -0.012948116
0.2001871 -0.62197578 -0.011298581
0.19974408 -0.64063007 -0.013740402
0.19245814 -0.67754179 -0.055006057
0.19957784 -0.67812341 -0.014541379
0.19996175 -0.70639712 -0.01225752
0.19969356 -0.72784281 -0.013709419
0.19944848 -0.75022674 -0.015030757
0.19938327 -0.77302003 -0.015332131
0.19922532 -0.79738075 -0.016160458
0.19970427 -0.83309942 -0.013341915
0.1992469 -0.89156151 -0.015806537
0.19899327 -0.92410338 -0.017182117
0.023489516 -2.3274944 -1.0131799
0.022701595 -2.474319 -1.0176481
0.027905818 -2.667191 -0.98811275
0.026221797 -2.8615551 -0.99768931
0.026188424 -3.0634801 -0.9979071
0.023589984 -3.3216164 -1.0127044
0.022591397 -3.5991228 -1.0184374
0.021010846 -3.9299469 -1.0274996
0.11011538 -8.2827902 -0.52373755
0.15768507 -8.3055859 -0.2538344
0.24617581 -10.626041 0.24706446
0.30813313 -10.744052 0.59853667
0.4032127 -10.861266 1.137941
0.46629897 -10.839525 1.4959741
0.59269667 -10.778594 2.2133019
0.60287595 -4.8930664 2.2747521
0.63904816 -4.9425588 2.4800267
0.77006745 -6.0430999 3.2228391
0.78317422 -5.7288017 3.2974453
0.79193622 -5.4051309 3.3474064
0.78559607 -4.979763 3.3117421
0.78722847 -4.6657343 3.3212488
0.79463905 -4.2844901 3.3636105
0.77090538 -3.8584807 3.2292688
0.78197926 -3.6982412 3.2922559
0.78870952 -3.5197628 3.33061
0.78341532 -3.2842445 3.3007772
0.77888924 -3.0701172 3.275291
0.77653718 -2.8812981 3.2621243
0.77937412 -2.7274818 3.2783766
0.78828311 -2.5284488 3.3291373
0.77425617 -2.3261464 3.2497451
0.78418422 -2.2212222 3.3061984
0.77674377 -2.0612364 3.264149
0.77311152 -1.9214276 3.2436926
0.77203113 -1.7947865 3.2377057
0.77264386 -1.6182601 3.2413871
0.77051604 -1.4991963 3.2294536
0.76822227 -1.3836465 3.2165768
0.76881319 -1.2763581 3.2200599
0.76887846 -1.1701977 3.2205596
0.77115089 -1.0685384 3.2335773
0.7266292 -0.9199146 2.9811718
0.76813763 -0.86058289 3.2167399
0.76396382 -0.70797867 3.1932523
0.75889581 -0.60776162 3.1646285
0.75738233 -0.5102967 3.1561663
0.33208409 -0.427351 0.74399513
0.31816339 -0.41821757 0.66520911
0.31700933 -0.41069081 0.6587534
0.31632251 -0.40284196 0.65494829
0.31542483 -0.39547572 0.64994681
0.31547901 -0.38653773 0.65034527
0.31579933 -0.37680817 0.65225357
0.31654727 -0.36082113 0.65663373
0.31820333 -0.34107879 0.66616648
0.31758413 -0.33205652 0.66274506
0.31587857 -0.32102463 0.65320599
0.31542274 -0.31130958 0.6507116
0.31532472 -0.29988146 0.65024745
0.31527478 -0.2877056 0.65005618
0.31552964 -0.27346364 0.65159464
0.31579009 -0.25825241 0.6531651
0.31573555 -0.23586693 0.65299505
0.31715599 -0.20200132 0.6611957
0.56606019 1.683989 2.0739398
0.5432747 1.6651531 1.9447711
0.51693863 1.6844189 1.7955185
0.49804977 1.6769029 1.6884575
0.4813208 1.6828467 1.5936533
0.4647963 1.6847225 1.5000076
0.44945818 1.6944017 1.4130948
0.43044028 1.6490232 1.3052903
0.40479288 1.4876351 1.1598424
0.39282957 1.5116225 1.0920783
0.37394801 1.5291083 0.9851141
0.36117947 1.53327 0.91277665
0.34938353 1.5592011 0.84596395
0.33524063 1.5128953 0.76581424
0.32423666 1.5654403 0.70350355
0.31163636 1.5592369 0.6321184
0.29919609 1.5524569 0.56164122
0.28085855 1.5640763 0.45776486
0.26856783 1.5630834 0.38813898
0.25632414 1.5566283 0.31877831
0.24389328 1.564665 0.2483615
0.23151261 1.5622134 0.17822623
0.21912439 1.5572535 0.10804775
0.20594788 1.5733391 0.033405818
0.200352 1.2539119 0.0016899961
0.1831374 1.3754097 -0.095817976
0.17612758 1.2836313 -0.13551866
0.19875649 0.73841727 -0.0072690095
0.19210178 0.7141028 -0.044932213
0.18854578 0.65113407 -0.065033086
0.17285438 0.73923331 -0.15391123
0.17386171 0.6288842 -0.14814569
0.16078621 0.67294455 -0.22220126
0.19857694 0.18673724 -0.0078494744
0.19876316 0.13872033 -0.0067200311
0.19868524 0.097129352 -0.0070863836
0.19856822 0.059340019 -0.0076731755
0.19881289 0.022216951 -0.006208431
0.19904891 -0.01198313 -0.0047916146
0.19872887 -0.040607363 -0.0065265885
0.198661 -0.068790652 -0.0068312441
0.19564642 -0.081038341 -0.023842607
0.19857369 -0.12049387 -0.0071640429
0.1984839 -0.16687565 -0.0075089983
0.19767316 -0.19632527 -0.011981867
0.19776796 -0.21722591 -0.011361123
0.19802064 -0.23775281 -0.0098448331
0.19802245 -0.27519143 -0.009666699
0.19805898 -0.29313725 -0.0093753589
0.19821872 -0.31083226 -0.0083851013
0.19833261 -0.32795653 -0.0076546082
0.19822471 -0.34432533 -0.0081816642
0.19822192 -0.36056736 -0.0081124939
0.19772707 -0.38394937 -0.010790966
0.1979757 -0.39991659 -0.009295716
0.19780576 -0.41536862 -0.010174017
0.19773008 -0.43080756 -0.010517752
0.19792186 -0.44624943 -0.0093445983
0.19785997 -0.46157029 -0.0096098818
0.19771741 -0.476926 -0.010332621
0.1976683 -0.49233282 -0.010525377
0.19754039 -0.50787628 -0.011164916
0.19769983 -0.53118366 -0.010131933
0.19764133 -0.54705274 -0.010377846
0.19717517 -0.56369781 -0.01293549
0.19715445 -0.58010912 -0.012967115
0.19723988 -0.59664583 -0.012396789
0.1972439 -0.62231958 -0.0122451
0.19712223 -0.64025742 -0.012849222
0.19601542 -0.66127712 -0.019040445
0.19678943 -0.67812526 -0.014565082
0.1973211 -0.70591432 -0.011421212
0.19704683 -0.72732973 -0.012891197
0.19664975 -0.75022858 -0.015057695
0.19658139 -0.77302188 -0.015360042
0.19628145 -0.7979843 -0.016975949
0.19676133 -0.83374405 -0.014126839
0.19659629 -0.86171001 -0.014978056
0.19642957 -0.89156342 -0.015839195
0.19593072 -0.92554373 -0.018584298
0.19704092 -0.96948981 -0.012161931
0.021378132 -2.3211653 -1.0083786
0.019109793 -2.4791467 -1.021175
0.025289157 -2.663811 -0.98602504
0.023925982 -2.8546722 -0.99369341
0.023665771 -3.0582068 -0.99510896
0.022039017 -3.3046613 -1.0042803
0.019373711 -3.6009078 -1.0193486
0.019270981 -3.9115095 -1.0198874
0.030641498 -4.3048072 -0.9553324
0.10511489 -8.3582087 -0.53305751
0.15377448 -8.3404465 -0.25703862
0.3048104 -10.804066 0.59929502
0.36875346 -10.933311 0.96194851
0.52808774 -10.89723 1.865832
0.59627855 -11.007149 2.2526803
0.58625305 -4.9234214 2.1974511
0.63874221 -4.9761615 2.4953129
0.76550049 -6.0262527 3.2142241
0.77962065 -5.7236357 3.2944691
0.78287566 -4.9823551 3.3132594
0.78244984 -4.651062 3.3109996
0.78044033 -4.3392906 3.2997527
0.77454793 -3.9037459 3.2665493
0.77846563 -3.6945879 3.2889035
0.78723431 -3.5284564 3.3387659
0.77988029 -3.2808282 3.297188
0.7761187 -3.0708401 3.2759805
0.77644038 -2.8948491 3.2779276
0.77676588 -2.7287614 3.2798941
0.78612322 -2.5313611 3.3331416
0.76833677 -2.3147476 3.2323759
0.78073347 -2.2191999 3.302799
0.77541459 -2.0661197 3.2727413
0.76996154 -1.9205511 3.24192
0.76982641 -1.7965058 3.2412596
0.76688671 -1.6696235 3.2246895
0.76786083 -1.4995598 3.2303669
0.76623571 -1.3852104 3.2212489
0.76483887 -1.2744435 3.2134237
0.76641548 -1.1706944 3.2224619
0.76852691 -1.0687562 3.2345324
0.72418326 -0.92026943 2.9831038
0.76673192 -0.86170095 3.2245338
0.76020628 -0.75693518 3.1876082
0.75734431 -0.60812563 3.1715045
0.75566536 -0.51039624 3.1620657
0.329404 -0.43305692 0.74453336
0.31555194 -0.41805145 0.6661796
0.31422776 -0.41069797 0.65875477
0.31335011 -0.39874256 0.65390527
0.31281209 -0.39520666 0.65089637
0.31245947 -0.38252169 0.64902413
0.31285894 -0.37715584 0.65133232
0.3139177 -0.36536112 0.65742201
0.31527478 -0.34152141 0.6652869
0.31465963 -0.33252993 0.66188163
0.31368667 -0.32463402 0.65644693
0.31250915 -0.31185746 0.64989316
0.31290579 -0.30450001 0.65218365
0.31237173 -0.28830996 0.64927781
0.31276745 -0.27346581 0.65160298
0.31303021 -0.25825417 0.65317345
0.31297922 -0.23586814 0.65300351
0.31507146 -0.20698635 0.66494501
0.56461906 1.6919144 2.0799105
0.54107225 1.6676233 1.9464141
0.51472312 1.6869752 1.7970304
0.49680716 1.6889411 1.6954603
0.47883108 1.6828828 1.5935522
0.46254876 1.6874294 1.5012459
0.44683385 1.6926212 1.4121566
0.43020371 1.679428 1.3178849
0.40348095 1.5053967 1.1664524
0.39017284 1.5088083 1.0910169
0.37152055 1.5300881 0.98528194
0.35892141 1.5381376 0.91386217
0.34678054 1.5553024 0.84503508
0.33323565 1.527678 0.76827145
0.32152593 1.5545558 0.70188123
0.30923539 1.561231 0.63220829
0.29686269 1.5604393 0.56207329
0.27841541 1.5560749 0.45750517
0.26617232 1.5580781 0.38810056
0.25381392 1.5686028 0.31803396
0.24150047 1.5646518 0.24823233
0.22902316 1.5671592 0.17749482
0.21677524 1.5562451 0.10806829
0.20368341 1.5703691 0.033831976
0.20326793 1.2581638 0.031792909
0.18018498 1.3869117 -0.099200606
0.1733629 1.2902528 -0.13776766
0.18778397 0.74003303 -0.055327352
0.18631855 0.64744699 -0.063491277
0.17037407 0.73919463 -0.15398231
0.1711181 0.63149434 -0.14959344
0.15813249 0.67463279 -0.22325303
0.19617599 0.18504857 -0.0067622862
0.1963643 0.13707155 -0.005571486
0.19575606 0.099462464 -0.0089100329
0.19584197 0.060074769 -0.008306684
0.19619207 0.022185478 -0.0062046554
0.1961818 -0.010576089 -0.006152052
0.19597389 -0.039944742 -0.0072237942
0.19576888 -0.067484707 -0.0082802456
0.19301316 -0.081072204 -0.0238265
0.19593167 -0.12052675 -0.0071426989
0.19583519 -0.1669091 -0.0074813855
0.1947237 -0.19532935 -0.013638494
0.19602302 -0.21010433 -0.0062078917
0.19606012 -0.23015516 -0.0058944998
0.1953586 -0.2752265 -0.0096230861
0.19555442 -0.293531 -0.008409475
0.19538553 -0.3105422 -0.0092669008
0.19549495 -0.3276999 -0.0085442131
0.19555065 -0.34436139 -0.0081266705
0.19537647 -0.36037871 -0.0090142526
0.19547339 -0.37650615 -0.0083626537
0.19512185 -0.39981452 -0.010206196
0.19512153 -0.41540608 -0.010106418
0.19504353 -0.43084532 -0.010447293
0.19523273 -0.44628733 -0.0092711998
0.194995 -0.4616085 -0.010518375
0.19502361 -0.47696456 -0.010253355
0.19497204 -0.49237168 -0.010443104
0.1949845 -0.51559758 -0.010217045
0.19499701 -0.53122312 -0.010041911
0.19493581 -0.5470925 -0.010284625
0.19463624 -0.56351316 -0.011879432
0.19461112 -0.57989091 -0.01191598
0.19469176 -0.59639424 -0.01135168
0.19405913 -0.6146282 -0.014833841
0.19423902 -0.64067352 -0.013649995
0.19408292 -0.6592859 -0.01442569
0.19405992 -0.67816752 -0.01444493
0.19356 -0.69916505 -0.017168472
0.19430684 -0.72737253 -0.012760597
0.1939052 -0.75027186 -0.014922433
0.19397415 -0.77249187 -0.014413307
0.19366537 -0.79742658 -0.016044298
0.19316229 -0.82473189 -0.018774556
0.19382651 -0.86175454 -0.014819446
0.19377781 -0.89091361 -0.014966011
0.19362904 -0.92271179 -0.015676353
0.19319317 -0.95877922 -0.018009827
0.018543545 -2.3205421 -1.0074015
0.018070756 -2.4639428 -1.0097775
0.016318744 -2.6328762 -1.0193756
0.020840179 -2.8548393 -0.99322128
0.020778229 -3.0557513 -0.99316645
0.018833412 -3.3048322 -1.0037241
0.017487433 -3.5838618 -1.0108304
0.018758148 -3.8730237 -1.003058
0.027742492 -4.295579 -0.95121533
0.10071719 -8.3414545 -0.52946812
0.14974296 -8.2887268 -0.25100994
0.23686498 -10.675058 0.24801214
0.29902607 -10.80403 0.60139984
0.36193004 -10.831366 0.95884258
0.42658451 -10.938567 1.3263682
0.5219813 -10.897018 1.8680111
0.58437699 -10.818788 2.2222021
0.58144224 -4.9166851 2.1958687
0.63447261 -4.9776917 2.497155
0.76419479 -6.0659738 3.2355623
0.7751165 -5.7258778 3.2970567
0.7962718 -5.5205407 3.4168804
0.77599108 -4.9610095 3.3008559
0.78278929 -4.6900048 3.3390591
0.77725965 -4.3477035 3.3071535
0.7775954 -3.9531741 3.3084948
0.77399451 -3.6919951 3.2876792
0.78315622 -3.5280893 3.3394859
0.77800316 -3.2922773 3.3099031
0.77528155 -3.0865448 3.2941761
0.77177244 -2.8906407 3.2739959
0.77403802 -2.7333372 3.2866657
0.78278321 -2.5327303 3.3360865
0.7645064 -2.3138659 3.2320318
0.77870238 -2.2245224 3.3125498
0.77271003 -2.0686922 3.2783444
0.76639616 -1.9202207 3.2423267
0.76331389 -1.7881489 3.2246838
0.76196343 -1.665784 3.2168899
0.76491225 -1.500266 3.2334719
0.76316315 -1.3855122 3.2234297
0.76146984 -1.2741308 3.213711
0.76290661 -1.1701413 3.2217753
0.76555264 -1.0688623 3.2367103
0.72197372 -0.92103064 2.9891424
0.76450783 -0.86223251 3.2306008
0.75784814 -0.75716072 3.1927025
0.75312626 -0.60752028 3.1657753
0.75199306 -0.51005602 3.1592672
0.32671684 -0.42721212 0.7450462
0.31281033 -0.41801772 0.66624624
0.31132278 -0.4064905 0.65790671
0.31063825 -0.40305847 0.65405631
0.31028092 -0.39922822 0.65206295
0.3101981 -0.39055726 0.65166175
0.31038725 -0.38118818 0.6528039
0.31041294 -0.35747886 0.65312034
0.3125537 -0.34148952 0.66533256
0.31194124 -0.33249858 0.66192478
0.31082061 -0.32510331 0.65563482
0.310251 -0.31587556 0.65247059
0.30984905 -0.29985482 0.65028977
0.31018975 -0.29232115 0.65225476
0.30992788 -0.27406582 0.65086663
0.31019703 -0.258881 0.65245634
0.31015596 -0.2365339 0.65231699
0.31147364 -0.2034352 0.65987706
0.5633958 1.7022961 2.087647
0.53846651 1.6677489 1.94627
0.51908797 1.6665539 1.8363596
0.49359453 1.6830449 1.6917623
0.47650388 1.6856019 1.594837
0.46100065 1.6990999 1.5069095
0.44441122 1.6945138 1.4128401
0.4283171 1.6887057 1.3215847
0.40109429 1.5082588 1.1673771
0.38771525 1.5107548 1.0915238
0.37497598 1.5198656 1.0192946
0.35627237 1.5362396 0.91324973
0.34418166 1.5543621 0.84469336
0.33136946 1.550361 0.77206916
0.31918323 1.5634962 0.70297831
0.30649045 1.5513092 0.63104337
0.29434973 1.5644487 0.56221259
0.28204381 1.5671587 0.49245733
0.26359016 1.5640856 0.38786384
0.2513276 1.5596197 0.31836507
0.23896176 1.5626603 0.24827205
0.22662 1.559216 0.17832407
0.21414724 1.5582141 0.10763051
0.20107415 1.5713406 0.033514604
0.2007115 1.2571795 0.031905431
0.1833028 1.3939332 -0.066955693
0.17145589 1.2778715 -0.13391976
0.19733621 0.74487257 0.013598554
0.18850438 0.75297856 -0.036442935
0.18375175 0.64652103 -0.063161984
0.16773726 0.73917836 -0.15405826
0.1687188 0.62883008 -0.1482764
0.15436152 0.68587285 -0.22972699
0.1932238 0.18752797 -0.0084633175
0.19135746 0.15567157 -0.018933272
0.19212934 0.10654748 -0.014413116
0.19306204 0.060834214 -0.0089845667
0.19328971 0.023665616 -0.0075665452
0.19330034 -0.039950062 -0.0072666258
0.19309397 -0.067489654 -0.008322807
0.19100091 -0.084291205 -0.020097081
0.1932545 -0.12053084 -0.0071850251
0.19219907 -0.14008868 -0.013068517
0.19301242 -0.16635321 -0.0083404575
0.19301762 -0.18816862 -0.0082032783
0.19304226 -0.2091068 -0.007956882
0.19307296 -0.22921823 -0.0076772613
0.19267656 -0.27522761 -0.0096681463
0.19254825 -0.29281494 -0.010294023
0.19270305 -0.31054246 -0.0093133608
0.19264649 -0.32740736 -0.0095332591
0.19270049 -0.344102 -0.0091260085
0.1926939 -0.36037773 -0.009063228
0.19279097 -0.37650475 -0.0084125735
0.19261149 -0.3999517 -0.0092823403
0.19226703 -0.41529918 -0.011138314
0.1925351 -0.43091229 -0.0095184036
0.19220482 -0.44621435 -0.011294373
0.19231443 -0.46160489 -0.010574263
0.1921702 -0.47699544 -0.011294713
0.19229276 -0.49236724 -0.010501495
0.19233577 -0.50780606 -0.010159877
0.1923199 -0.53121763 -0.010103676
0.19208929 -0.54727745 -0.011314518
0.1921303 -0.56328195 -0.010984462
0.19176956 -0.58014303 -0.0129334
0.19185323 -0.59667951 -0.012361208
0.19201778 -0.62201107 -0.011281236
0.1920532 -0.63954163 -0.010982539
0.19189174 -0.65805715 -0.011800274
0.1915509 -0.67772019 -0.013635174
0.19120352 -0.6982168 -0.015506609
0.19086243 -0.71960294 -0.017341981
0.19124825 -0.75026149 -0.01500462
0.19131999 -0.77248108 -0.014497614
0.1907368 -0.79861891 -0.017703783
0.19091931 -0.82283229 -0.01656734
0.19170049 -0.85906577 -0.011984498
0.19138947 -0.88951164 -0.013644257
0.19135731 -0.92054075 -0.013721832
0.19068068 -0.95802253 -0.017451426
0.016502852 -2.3165803 -1.0044941
0.01561788 -2.4631104 -1.0093307
0.014467622 -2.6270483 -1.0156617
0.013078579 -2.8115432 -1.0233349
0.01932787 -3.0452282 -0.98760384
0.016646655 -3.30213 -1.0025631
0.017018195 -3.5602674 -1.0002055
0.016156109 -3.8766739 -1.0048101
0.015169697 -4.2519369 -1.0100842
0.075713024 -8.3114538 -0.66361374
0.15085936 -8.1243286 -0.23737042
0.36092108 -10.791425 0.95602578
0.42466542 -10.846931 1.3176817
0.49389702 -11.11063 1.7105674
0.58365989 -10.808977 2.219698
0.5796535 -4.913012 2.1939635
0.61587614 -4.9699492 2.3995538
0.76688373 -6.1096935 3.2569537
0.77767521 -5.7652969 3.3180456
0.79439884 -5.5146041 3.4128439
0.77386576 -4.954361 3.2961164
0.7810747 -4.6876082 3.3369319
0.77807087 -4.3653331 3.3197823
0.76854622 -4.0263705 3.2656324
0.77296197 -3.6957688 3.2906058
0.78429091 -3.5446923 3.3548617
0.77781481 -3.3006706 3.3180611
0.77535951 -3.0959692 3.3040926
0.77040404 -2.8926244 3.2759423
0.77402031 -2.7413962 3.2964473
0.77530664 -2.587033 3.3037338
0.75521243 -2.3567061 3.1896913
0.77815318 -2.229212 3.3198717
0.76987761 -2.0658362 3.2729118
0.76583368 -1.9243584 3.2499695
0.76400679 -1.7953843 3.2396111
0.76155627 -1.6697415 3.2257171
0.75998276 -1.550681 3.2168024
0.75889176 -1.4363517 3.2106273
0.76306379 -1.2802435 3.234324
0.76148582 -1.1711574 3.22539
0.76378161 -1.0693263 3.2384353
0.72048724 -0.92176801 2.9928348
0.7609846 -0.86116612 3.2226098
0.75515866 -0.75689298 3.1895821
0.75058484 -0.6562205 3.1636591
0.75007701 -0.55869025 3.1608033
0.74612451 -0.41346601 3.1384201
0.32426199 -0.43292761 0.74548531
0.31041348 -0.41784272 0.667117
0.30908993 -0.41045582 0.65968424
0.30787727 -0.39896798 0.65291816
0.30745983 -0.39084828 0.65062511
0.30728912 -0.37308544 0.64980602
0.30799389 -0.36196592 0.65387744
0.30997834 -0.34148872 0.66524273
0.30975601 -0.33675507 0.66401875
0.30839312 -0.32460251 0.6564002
0.30767196 -0.31587479 0.65238428
0.30712608 -0.30042768 0.64939857
0.30708283 -0.28827998 0.64922631
0.30734482 -0.27406526 0.65078455
0.30748159 -0.25953662 0.65163225
0.30812487 -0.24131735 0.65535128
0.30942577 -0.20911461 0.66283321
0.56083184 1.7030659 2.0882173
0.53629589 1.6717778 1.9491299
0.51629877 1.6657101 1.835777
0.49836823 1.6695443 1.7341422
0.47378635 1.6855906 1.5948107
0.45756343 1.6910706 1.5028616
0.44204339 1.6990366 1.4148988
0.4274084 1.7135513 1.3319532
0.39854607 1.5110534 1.1684123
0.38503024 1.5116949 1.0918225
0.37232929 1.5217735 1.0198501
0.3597405 1.5311022 0.9485147
0.3417781 1.5641407 0.84672499
0.32887143 1.5592222 0.7735936
0.31621286 1.5555724 0.70186913
0.30402052 1.5682154 0.63278109
0.29158831 1.5664437 0.5623396
0.27922255 1.562162 0.49227655
0.26693872 1.5573953 0.42267829
0.24854547 1.5576239 0.31846187
0.23614225 1.5636584 0.24818109
0.22376992 1.5612034 0.1780799
0.2113627 1.5572287 0.1077816
0.19825718 1.5713435 0.033513058
0.19754039 1.2669259 0.029680189
0.1799179 1.4064935 -0.070274115
0.1734001 1.2979935 -0.10711196
0.18571602 0.75391459 -0.036816649
0.18455097 0.65312403 -0.043295104
0.16508396 0.73828214 -0.15364535
0.16608441 0.62794936 -0.14783521
0.15206932 0.68154508 -0.22728331
0.18819495 0.15971726 -0.021859776
0.18969686 0.10497189 -0.01323322
0.19042207 0.060834382 -0.0090179043
0.19077082 0.02292241 -0.006941204
0.19017462 -0.037171904 -0.010134201
0.19021338 -0.066152073 -0.0098204492
0.18904494 -0.087505996 -0.016358487
0.19022898 -0.11868499 -0.0095469765
0.19042882 -0.14361668 -0.008321587
0.19040361 -0.16635475 -0.008373946
0.19026473 -0.18764041 -0.0090717971
0.19028926 -0.20860878 -0.0088428399
0.19031991 -0.22875096 -0.0085796369
0.19008337 -0.27523032 -0.009700194
0.18995757 -0.29281786 -0.010325723
0.18995087 -0.31022006 -0.010275901
0.19006087 -0.32741073 -0.0095642395
0.18994963 -0.34384677 -0.010107869
0.19011307 -0.36038151 -0.0090934122
0.19004208 -0.37631798 -0.0094090467
0.19007085 -0.39215276 -0.0091588441
0.18985347 -0.40762165 -0.010305115
0.18979107 -0.43084729 -0.010528997
0.1898095 -0.44625419 -0.010337792
0.18992136 -0.46161005 -0.0096166367
0.18977909 -0.47696593 -0.010337138
0.18973023 -0.49237284 -0.010527639
0.18977529 -0.5078119 -0.010185497
0.18957072 -0.52354246 -0.011259185
0.18970421 -0.54709297 -0.010372069
0.18957677 -0.56328851 -0.011008153
0.18938567 -0.57989103 -0.012005248
0.18930361 -0.59668654 -0.012383743
0.18916853 -0.61397678 -0.013062775
0.18882649 -0.63219416 -0.014915393
0.18934901 -0.6580649 -0.011820718
0.18916617 -0.67728978 -0.012769848
0.1886647 -0.69822496 -0.015525795
0.18847598 -0.71911138 -0.01650768
0.18886009 -0.74972552 -0.014196269
0.18907274 -0.77134287 -0.01290116
0.18862322 -0.79682267 -0.015360517
0.1885267 -0.8222124 -0.015817598
0.18930513 -0.85840631 -0.011267173
0.18886727 -0.88952154 -0.013658073
0.18883738 -0.92055082 -0.013734925
0.18839562 -0.9565466 -0.016145904
0.014883361 -2.310293 -0.99965298
0.014171346 -2.4550378 -1.0035508
0.013270948 -2.6162889 -1.0085104
0.010811901 -2.8098657 -1.0222976
0.0093676168 -3.0172615 -1.030323
0.016348444 -3.2780921 -0.9904955
0.013940374 -3.5684438 -1.0039532
0.014363477 -3.8684092 -1.0013474
0.013154824 -4.246356 -1.007965
0.029456466 -5.1987181 -0.91489697
0.073764876 -8.2995911 -0.66194504
0.14844404 -8.1353035 -0.23828654
0.23393841 -10.645061 0.24787879
0.29599825 -10.764039 0.60003394
0.35902098 -10.821388 0.95762503
0.42310828 -10.887775 1.3212583
0.48616871 -10.849587 1.6790578
0.54867041 -10.787878 2.0336227
0.57754409 -4.9167175 2.1954503
0.61224091 -4.9535012 2.3923521
0.76874292 -6.1569071 3.2806559
0.77534908 -5.7652884 3.318048
0.79617608 -5.5540252 3.4361758
0.77028191 -4.9434519 3.2891402
0.77871019 -4.6876025 3.3369269
0.77548522 -4.3637314 3.3185902
0.77390981 -4.0815449 3.3096278
0.75499254 -3.7083611 3.2022676
0.78296685 -3.5511658 3.3610067
0.77988946 -3.3256788 3.3435514
0.7722854 -3.0926249 3.3004189
0.7706247 -2.905483 3.2910156
0.7695232 -2.7321649 3.2847908
0.7729944 -2.5876255 3.3045142
0.75145203 -2.3516796 3.1823268
0.77761716 -2.2359145 3.330828
0.76754993 -2.0663295 3.2737551
0.76427436 -1.9270918 3.2552161
0.76151216 -1.7953948 3.2395928
0.7595337 -1.6709254 3.2284184
0.75714964 -1.5499767 3.2149451
0.75670415 -1.4370165 3.2124715
0.75870287 -1.2772266 3.2238925
0.75895357 -1.1711736 3.2253718
0.76090336 -1.0689275 3.2364907
0.72152549 -0.92543268 3.013185
0.76066703 -0.86299455 3.2352707
0.75328898 -0.75733125 3.1934831
0.75096136 -0.65742761 3.1803441
0.7442053 -0.55804932 3.1420879
0.74232346 -0.4136118 3.1315134
0.32179549 -0.43285912 0.74646008
0.30776453 -0.4178617 0.6671105
0.30626801 -0.40628347 0.6587624
0.30558029 -0.40283453 0.65490854
0.30505222 -0.39924631 0.65196013
0.30457035 -0.38683999 0.64936733
0.30472901 -0.37748539 0.65036047
0.30546615 -0.36647257 0.65463465
0.30714631 -0.34194791 0.66435045
0.30668524 -0.33251882 0.66182894
0.30555987 -0.32512373 0.65554011
0.30483836 -0.31642613 0.65154183
0.30429214 -0.30102298 0.64858454
0.30424884 -0.28890374 0.64843255
0.30451083 -0.27471676 0.65001202
0.30464774 -0.26021507 0.65088195
0.30461106 -0.2379456 0.65081435
0.30659217 -0.20985703 0.66214257
0.55845231 1.7061795 2.0906699
0.53419787 1.6774035 1.9532102
0.51377112 1.6681603 1.8374584
0.49462214 1.6610276 1.7289538
0.47856265 1.675714 1.6379699
0.45479906 1.6919267 1.5033423
0.43926665 1.6999084 1.4153496
0.42461887 1.7144381 1.332374
0.39575636 1.5119549 1.1687977
0.38222873 1.512609 1.0921766
0.36951527 1.522699 1.0201727
0.35722867 1.5387994 0.95058966
0.34499261 1.5553133 0.88129359
0.32577154 1.5523001 0.77243531
0.31334239 1.5565351 0.70204592
0.30082819 1.5522761 0.63117498
0.28854704 1.5554444 0.56162578
0.27631477 1.5631362 0.49235377
0.26401883 1.5543712 0.42272192
0.2517412 1.5601395 0.35319337
0.23323616 1.5616442 0.24839912
0.22089073 1.5582051 0.17848727
0.20841381 1.5572094 0.10782985
0.19533357 1.5703437 0.033750754
0.18323821 1.5504504 -0.034741707
0.17799595 1.3842609 -0.064365737
0.17141248 1.2798079 -0.10159807
0.18280303 0.75389773 -0.036791071
0.18171021 0.65218681 -0.042887904
0.16284367 0.73017842 -0.14973351
0.16128978 0.64824265 -0.15844581
0.14818338 0.69105852 -0.23267399
0.18459158 0.16536319 -0.025906043
0.18723737 0.1018023 -0.010804523
0.18720075 0.063114963 -0.010915113
0.1873035 0.026620602 -0.010235568
0.18753678 -0.038578823 -0.0087194461
0.18732508 -0.066169687 -0.0098236389
0.18721928 -0.092665873 -0.010327383
0.18733899 -0.11870265 -0.0095524006
0.18725696 -0.1424588 -0.0099215191
0.18736766 -0.16581328 -0.0091979057
0.18737151 -0.18765815 -0.0090803262
0.18754524 -0.20912655 -0.0079995058
0.18757758 -0.22923821 -0.0077206069
0.18760322 -0.24857837 -0.007479718
0.18776913 -0.2676135 -0.0064435527
0.18774959 -0.28556189 -0.0064590978
0.18721299 -0.31056345 -0.0093593746
0.18715738 -0.32742855 -0.0095798019
0.18721236 -0.34412345 -0.0091730841
0.18720663 -0.36039943 -0.0091108046
0.18730459 -0.37652668 -0.0084606549
0.1871614 -0.3921707 -0.0091780601
0.18694246 -0.40763956 -0.010325233
0.18699104 -0.42319208 -0.0099554826
0.18678784 -0.4385477 -0.011013532
0.18700516 -0.46162805 -0.0096400436
0.1868614 -0.4769839 -0.010361501
0.18663786 -0.49246058 -0.011535377
0.18668205 -0.50793445 -0.011191235
0.1864768 -0.52369958 -0.012261769
0.18695073 -0.54692024 -0.0094342101
0.1868207 -0.56308162 -0.010078574
0.18645912 -0.57990903 -0.012036313
0.18620978 -0.5969969 -0.013357714
0.18623962 -0.61399484 -0.01309613
0.18589647 -0.6322121 -0.014949962
0.1862589 -0.6584897 -0.012756784
0.18607773 -0.67774624 -0.013692717
0.18573153 -0.69824296 -0.015564906
0.18554214 -0.71912938 -0.016548224
0.18507203 -0.74195671 -0.019123927
0.1861376 -0.77136105 -0.01294542
0.18582657 -0.79623896 -0.01462001
0.18572626 -0.82160115 -0.015099994
0.18544897 -0.84936082 -0.016584298
0.18643206 -0.88676119 -0.010876841
0.18602388 -0.91984975 -0.013105467
0.18546265 -0.95656478 -0.016203033
0.012575706 -2.3063335 -0.99674809
0.011445176 -2.4542089 -1.0031081
0.010652776 -2.6146102 -1.0075554
0.0093987025 -2.7971239 -1.0146282
0.016730621 -3.0181141 -0.97298211
0.014315588 -3.2700524 -0.98666185
0.013136758 -3.5448585 -0.99334043
0.012567846 -3.8564212 -0.99657375
0.011701822 -4.2285957 -1.0015126
0.010493105 -4.681448 -1.0084226
0.071344577 -8.3114653 -0.66411966
0.12389982 -8.0776682 -0.36596712
0.19123895 -8.3368263 0.015881781
0.29425669 -10.764085 0.59931213
0.35712934 -10.801477 0.95586097
0.42096317 -10.856973 1.3178519
0.48605767 -10.921145 1.6869439
0.54845393 -10.839348 2.0408847
0.57504493 -4.9149771 2.1943717
0.61016989 -4.9572768 2.393611
0.74780619 -6.1897621 3.1737053
0.77314395 -5.7654467 3.3176501
0.78777677 -5.4950418 3.4007976
0.7696805 -4.9587035 3.2984521
0.77667707 -4.6902165 3.3382967
0.77353275 -4.3670807 3.3206573
0.77325594 -4.0941329 3.3192594
0.75128692 -3.7002072 3.1949022
0.77533919 -3.6292462 3.3313847
0.77678043 -3.3223569 3.3397753
0.77080679 -3.0981274 3.3060551
0.76769406 -2.9037023 3.2885463
0.76793218 -2.7366211 3.2900274
0.7705729 -2.5883598 3.3051248
0.74626642 -2.3417547 3.1674609
0.76928186 -2.2862647 3.2980533
0.76721627 -2.0737443 3.2865212
0.7621125 -1.9285946 3.2577038
0.75918859 -1.7963793 3.2412412
0.75704414 -1.6714541 3.2291954
0.75497609 -1.5511886 3.217581
0.7535426 -1.4361755 3.2095625
0.75464714 -1.3289247 3.2159314
0.75626653 -1.1713076 3.225271
0.75821024 -1.069061 3.2363954
0.71606988 -0.9227789 2.9975827
0.7577886 -0.8629871 3.234211
0.75091875 -0.75766987 3.1953635
0.74841231 -0.65762556 3.1812537
0.74390501 -0.5586645 3.1557987
0.73983961 -0.46174785 3.1328487
0.31889781 -0.43290707 0.74642831
0.30517158 -0.42208835 0.66876829
0.30369726 -0.41472718 0.66049147
0.30268577 -0.40287927 0.65488011
0.30212304 -0.39496216 0.6517719
0.30167961 -0.38688439 0.64934009
0.30209649 -0.38157693 0.65174508
0.30211791 -0.36281213 0.65203148
0.30426428 -0.34199247 0.66432559
0.30404252 -0.33727446 0.66310954
0.30309629 -0.32931486 0.65782678
0.30196193 -0.31647009 0.65151858
0.30190668 -0.30509415 0.65128791
0.30176163 -0.29356176 0.65054816
0.30150646 -0.27538973 0.64922553
0.30178034 -0.2602587 0.6508615
0.30174661 -0.23798913 0.65079492
0.30360916 -0.21062008 0.66143996
0.55613726 1.7100416 2.093729
0.53114069 1.675711 1.9520795
0.51101238 1.6689183 1.8380365
0.49194795 1.6626557 1.7300254
0.47500753 1.6687206 1.634059
0.45201451 1.6927558 1.5038189
0.43610805 1.6962236 1.4137146
0.42175221 1.7143805 1.3324046
0.39282915 1.5109675 1.1684706
0.37958908 1.5163392 1.0934854
0.36675021 1.5245613 1.0207752
0.35463083 1.5445462 0.95214629
0.34208524 1.5542921 0.88109976
0.32284236 1.5502858 0.77212107
0.31044888 1.5555015 0.70193696
0.29797673 1.553229 0.63130611
0.28577384 1.5633847 0.56220394
0.27345031 1.5640967 0.4924168
0.2611481 1.5653334 0.42275086
0.24888843 1.5571048 0.35332519
0.23036459 1.5616096 0.24842815
0.2179977 1.5591642 0.17839636
0.20532401 1.5650786 0.10662685
0.1924603 1.5703125 0.033780407
0.18020873 1.5543178 -0.035598323
0.17575875 1.3707079 -0.06077214
0.16793987 1.2912543 -0.10502932
0.17996356 0.75386697 -0.036779344
0.17887592 0.652156 -0.042878278
0.16023433 0.72745246 -0.14842658
0.15902731 0.64203244 -0.15519942
0.14552127 0.6892978 -0.23167767
0.18400688 0.17072822 -0.013366658
0.18574731 0.1125612 -0.0034260559
0.18440545 0.063082591 -0.01091657
0.18416284 0.028817598 -0.012214365
0.18435964 -0.0055968533 -0.011021093
0.18450148 -0.037222277 -0.010138933
0.18441361 -0.065533459 -0.010558502
0.1844399 -0.092698917 -0.010330665
0.18428881 -0.11750444 -0.011107949
0.18476459 -0.14366771 -0.0083318176
0.18445306 -0.16528749 -0.010018148
0.18460375 -0.18769172 -0.009084248
0.1844794 -0.20816018 -0.0097092213
0.18466198 -0.22880256 -0.0085941702
0.18468757 -0.24817395 -0.0083689205
0.18453619 -0.26642734 -0.0091465637
0.18483432 -0.28522149 -0.0073762271
0.18413387 -0.30994669 -0.011225569
0.18424314 -0.3271707 -0.010525403
0.18446678 -0.34415814 -0.0091768429
0.18429422 -0.36020926 -0.010074019
0.18439338 -0.37637082 -0.0094308509
0.18442306 -0.39220577 -0.0091814194
0.18420638 -0.40767476 -0.01032841
0.18443036 -0.42331463 -0.008977429
0.18422979 -0.43863553 -0.010032874
0.18410335 -0.46166369 -0.010627292
0.18413545 -0.4770197 -0.010363732
0.18408731 -0.49242675 -0.010554953
0.18413311 -0.50786597 -0.010213543
0.18392913 -0.52359664 -0.011287942
0.18382347 -0.53945923 -0.01180497
0.18381751 -0.55543321 -0.011756788
0.18391424 -0.57968688 -0.011085341
0.18366502 -0.59674138 -0.012415851
0.18353057 -0.61403173 -0.013095658
0.18335128 -0.63189083 -0.014029661
0.18329625 -0.64999866 -0.014259178
0.183687 -0.67690694 -0.01192047
0.18333672 -0.69734156 -0.013823351
0.18284193 -0.71916699 -0.016545245
0.18252034 -0.74146456 -0.018285217
0.18329889 -0.77197254 -0.013747855
0.18326999 -0.79567528 -0.013828591
0.18303198 -0.82163936 -0.015094443
0.18288666 -0.84874314 -0.015834766
0.18247049 -0.87905151 -0.018110158
0.18357413 -0.91844982 -0.011729177
0.18288784 -0.9558605 -0.015535078
0.010280505 -2.3024361 -0.99367642
0.0097311614 -2.445353 -0.99669719
0.0086815106 -2.607193 -1.0025524
0.0071875681 -2.7912316 -1.0109245
0.0069417865 -2.9852417 -1.0122206
0.012461578 -3.2585144 -0.98078853
0.010901669 -3.5367475 -0.98952758
0.010807192 -3.8408186 -0.98995829
0.0097600855 -4.2137051 -0.99578387
0.0092799524 -4.652184 -0.99839103
0.067576408 -8.3352776 -0.66723794
0.12192714 -8.0130692 -0.35910758
0.16535683 -8.2356882 -0.11284313
0.22855915 -10.744115 0.24569313
0.35368037 -10.781537 0.9550584
0.4183324 -10.897844 1.3215991
0.48217046 -10.890398 1.6834611
0.54553139 -10.849242 2.0426605
0.57254994 -4.9186921 2.1959524
0.60714275 -4.9536247 2.3921154
0.74914247 -6.2382851 3.1971512
0.76922596 -5.7531848 3.3110919
0.78774434 -5.5207367 3.4161334
0.76349097 -4.9276514 3.2787158
0.77849084 -4.7270546 3.3638172
0.77412212 -4.3918133 3.3391256
0.77018285 -4.0909972 3.3168709
0.74695778 -3.6888602 3.1852927
0.78417963 -3.5886922 3.396409
0.7748127 -3.3257959 3.3433914
0.76990247 -3.1067905 3.3156381
0.76711637 -2.9133067 3.2999265
0.7667352 -2.7427387 3.2978487
0.7684359 -2.5900815 3.3075726
0.7448656 -2.3461878 3.1740446
0.76806182 -2.2909884 3.3056204
0.76361459 -2.0703025 3.2805381
0.76128161 -1.9335394 3.2673986
0.75697404 -1.7971739 3.2430661
0.75531805 -1.6733553 3.2337646
0.75277829 -1.5518514 3.2194538
0.75315899 -1.4403522 3.2216983
0.74963933 -1.3244811 3.201833
0.75409228 -1.1717304 3.227206
0.75536186 -1.0685819 3.2344899
0.71390027 -0.92306823 2.9995403
0.75614476 -0.86361593 3.2391026
0.74841577 -0.7576021 3.1953759
0.74625742 -0.65769583 3.1832275
0.74123096 -0.5585593 3.1548212
0.73768765 -0.46167639 3.1348217
0.31650755 -0.43282413 0.74742383
0.30260631 -0.42209396 0.66878337
0.30114585 -0.41031706 0.66062707
0.30012032 -0.40288383 0.65489525
0.29972455 -0.39469054 0.65273362
0.29887417 -0.38288233 0.64803547
0.2995528 -0.36281398 0.65204626
0.30190581 -0.34671628 0.6654672
0.30147797 -0.33727467 0.66312367
0.30026734 -0.32466748 0.65638322
0.29939729 -0.31646922 0.65153253
0.29905412 -0.30621105 0.64966875
0.2991972 -0.29355967 0.65056151
0.29894224 -0.27538681 0.64923847
0.29908523 -0.26091117 0.65013069
0.29905796 -0.23867927 0.6500982
0.30092546 -0.21133383 0.66076636
0.55438673 1.7156305 2.0978851
0.52904642 1.6790149 1.9543084
0.50889587 1.6722982 1.8401526
0.48944083 1.6627154 1.7299386
0.47371492 1.6809013 1.6408647
0.45691106 1.6830335 1.5456796
0.43418416 1.7035223 1.4169537
0.4190369 1.7116643 1.3311583
0.39037326 1.5119392 1.1687421
0.37701392 1.5154289 1.0930823
0.36428216 1.52555 1.0209796
0.35202229 1.5426441 0.95155126
0.33941042 1.5504212 0.88012719
0.32655329 1.5477368 0.80731243
0.30817258 1.5654231 0.70321876
0.29558611 1.5602063 0.63193733
0.28322056 1.5604043 0.56190735
0.27090991 1.5601084 0.49218789
0.2586329 1.5673394 0.42265832
0.24636199 1.5591062 0.35316348
0.23397294 1.5663841 0.28299722
0.21544459 1.5611432 0.17806077
0.20286947 1.5630933 0.10683812
0.19001982 1.5683354 0.03405793
0.17785987 1.5504026 -0.034810495
0.17383394 1.358132 -0.057545792
0.16573493 1.2854953 -0.10338494
0.15620486 1.248768 -0.15734154
0.17737606 0.75478375 -0.037181359
0.17655215 0.6493777 -0.041766617
0.16361524 0.70927578 -0.11504845
0.15979405 0.65297449 -0.1366332
0.14256962 0.69359994 -0.23418766
0.18116994 0.17317224 -0.01507283
0.18320778 0.11254875 -0.0034335831
0.18358426 0.069897816 -0.0012164252
0.1829004 0.03794761 -0.0050125853
0.18310191 0.0027395629 -0.0037880463
0.18326603 -0.029627709 -0.0027756921
0.18296523 -0.057244942 -0.0044000181
0.18176611 -0.092067279 -0.011078329
0.18188493 -0.11813095 -0.010323331
0.18180218 -0.14191486 -0.01071154
0.18205628 -0.16585693 -0.0091895266
0.18191576 -0.18717176 -0.0099055395
0.18193884 -0.20816986 -0.0096937725
0.18196817 -0.22834246 -0.0094466684
0.18199116 -0.24774465 -0.0092354603
0.18215479 -0.26684284 -0.0082268054
0.18229437 -0.28522992 -0.0073545864
0.1822363 -0.30263022 -0.0076032849
0.18229556 -0.31983072 -0.0071865893
0.18176025 -0.34390691 -0.010101533
0.18192504 -0.36044154 -0.0090864673
0.18185531 -0.37637785 -0.0094014807
0.18188533 -0.39221251 -0.0091506466
0.18184149 -0.40780312 -0.0093188332
0.18189341 -0.4233208 -0.0089438604
0.18186678 -0.43869379 -0.0090144593
0.18156764 -0.4616693 -0.010590226
0.18160018 -0.477025 -0.01032523
0.18155253 -0.49243182 -0.010515004
0.1815988 -0.50787073 -0.010172123
0.18139543 -0.52360117 -0.011245037
0.18146135 -0.53928983 -0.010790704
0.18157375 -0.56312191 -0.010032472
0.18138243 -0.57969046 -0.011036988
0.18129997 -0.59645236 -0.011424066
0.18100014 -0.61403495 -0.013043963
0.18098365 -0.63153541 -0.013056854
0.18076718 -0.65000141 -0.014203932
0.18084657 -0.67778587 -0.013632716
0.18096261 -0.69687408 -0.012893868
0.18031549 -0.71916902 -0.016483115
0.18014209 -0.74093646 -0.017385755
0.17999636 -0.76363319 -0.018131418
0.18088463 -0.79507422 -0.012972194
0.18064386 -0.82101065 -0.01425656
0.18023349 -0.84939969 -0.016502719
0.17994954 -0.87905186 -0.018031877
0.18105385 -0.91844916 -0.011646686
0.18071759 -0.95363033 -0.013472143
0.0024650558 -2.2763693 -1.0242932
0.0076504298 -2.4430149 -0.99475884
0.0068821111 -2.6023083 -0.99903113
0.0049952934 -2.7896264 -1.0096457
0.0045705489 -2.985333 -1.0119669
0.0023966944 -3.2253623 -1.0242062
0.0088349916 -3.5332117 -0.98755485
0.0092680734 -3.8298621 -0.98500353
0.0093445648 -4.1848545 -0.98447084
0.0086409906 -4.623909 -0.98835719
0.066000365 -8.3056288 -0.66233766
0.12018277 -7.980278 -0.35494274
0.1626367 -8.2646208 -0.11403196
0.35185751 -10.851335 0.95976394
0.41723454 -10.990346 1.3307067
0.47961947 -10.890219 1.6845682
0.54208618 -10.818411 2.0389845
0.57053649 -4.9286728 2.2005119
0.60361332 -4.9433422 2.3882122
0.74098092 -6.175065 3.1675589
0.7452153 -5.7485204 3.1916242
0.78308862 -5.503274 3.4065468
0.76545686 -4.9701171 3.3065729
0.77821243 -4.7480421 3.378984
0.76895648 -4.3739395 3.3265305
0.76862824 -4.1000228 3.324723
0.74262398 -3.6787634 3.1772664
0.77175635 -3.6406202 3.3425801
0.77256793 -3.3289762 3.3472707
0.7666496 -3.1044958 3.3137579
0.76318896 -2.9078817 3.2941873
0.76359946 -2.7412271 3.2965763
0.76557398 -2.5898032 3.3078372
0.74173075 -2.3448048 3.172652
0.76697004 -2.2970743 3.3158786
0.75822216 -2.1284382 3.2663202
0.75827658 -1.9328226 3.2667224
0.75475764 -1.7986058 3.2468247
0.75215554 -1.6723192 3.2321284
0.74977696 -1.5512421 3.2186999
0.75114268 -1.4417311 3.2265096
0.74647444 -1.3236521 3.2000942
0.74870479 -1.2205642 3.2128084
0.75287205 -1.0687577 3.2365396
0.71383089 -0.92562443 3.0151658
0.7538361 -0.86379838 3.2421343
0.74680686 -0.75810415 3.2023287
0.74257761 -0.6571216 3.1784046
0.73981076 -0.5586167 3.1627753
0.73471022 -0.4614591 3.1339097
0.31391245 -0.43276197 0.74745655
0.30005607 -0.41750881 0.6690647
0.2985594 -0.41026181 0.66065496
0.2975347 -0.40282932 0.65492201
0.2971395 -0.39463663 0.65275931
0.29642278 -0.37345824 0.64889115
0.29696912 -0.36276159 0.65206808
0.29916418 -0.34708628 0.66459531
0.29865721 -0.33251134 0.6618377
0.29810065 -0.32877839 0.65872061
0.29666817 -0.31694871 0.65071434
0.29618487 -0.30727962 0.6480518
0.29661626 -0.29351014 0.65057629
0.29679057 -0.27999651 0.65164304
0.29650536 -0.26086271 0.65014261
0.29647875 -0.23863144 0.65010846
0.29798415 -0.21344407 0.65872288
0.55205166 1.7181009 2.0996449
0.52660501 1.6807318 1.9554081
0.50625879 1.6723907 1.8400948
0.48837611 1.6772195 1.738752
0.47109234 1.6809833 1.6408067
0.45347983 1.6742811 1.5409987
0.4378143 1.6820498 1.4522314
0.41670701 1.7154132 1.3326389
0.38790479 1.5138665 1.169396
0.37448218 1.5164311 1.0933514
0.36185056 1.5284727 1.0217919
0.34966716 1.5475243 0.95277393
0.33714706 1.5582641 0.88184774
0.32417998 1.5536716 0.80838895
0.31153092 1.552284 0.73673373
0.29287705 1.552289 0.63106471
0.28067195 1.5614387 0.56192714
0.26837021 1.5631411 0.49224272
0.25607768 1.5663719 0.42261076
0.24380919 1.5591367 0.35311684
0.23144668 1.5644178 0.28308871
0.21909593 1.5622141 0.21312849
0.20051402 1.5562043 0.10787307
0.18810537 1.549708 0.037586156
0.1751612 1.5543224 -0.035738505
0.17151546 1.3533245 -0.05630805
0.16283672 1.2922107 -0.10543546
0.15343632 1.2525707 -0.15865742
0.17476627 0.75574034 -0.037558101
0.17380022 0.65216225 -0.042942736
0.16055419 0.71564198 -0.11798432
0.15764032 0.64854193 -0.13441847
0.14019594 0.69188952 -0.23322368
0.18020971 0.16009066 -0.0060483473
0.1806531 0.11257349 -0.0034468248
0.18091959 0.070699841 -0.0018490878
0.18034442 0.037972637 -0.0050252671
0.18090056 0.00057079643 -0.0017855717
0.18034035 -0.027481118 -0.0048773154
0.17892759 -0.06351199 -0.012761833
0.17894121 -0.090756036 -0.012599715
0.17932545 -0.11810508 -0.01033593
0.17924206 -0.14188884 -0.01072429
0.17935155 -0.16527157 -0.010018943
0.17935437 -0.18714541 -0.0099187167
0.17922641 -0.2076434 -0.0105601
0.17940551 -0.22831582 -0.0094604213
0.17942788 -0.24771784 -0.0092495512
0.17943223 -0.26640919 -0.0091409357
0.1795688 -0.28482822 -0.0082825841
0.17934471 -0.30191898 -0.0094694197
0.17913793 -0.32715112 -0.010516258
0.17902564 -0.34362045 -0.011069258
0.17935754 -0.3604137 -0.0091034537
0.17928712 -0.37634984 -0.0094190091
0.17931649 -0.39218435 -0.0091687459
0.17927197 -0.40777481 -0.0093375249
0.17915019 -0.4232052 -0.0099442406
0.17912245 -0.43861288 -0.010017872
0.17899565 -0.46164042 -0.010611185
0.17920107 -0.47696105 -0.0093627088
0.17897911 -0.49240261 -0.010537404
0.17902467 -0.50784135 -0.010195283
0.17882052 -0.52357167 -0.01126898
0.1788857 -0.53926015 -0.010815465
0.17887837 -0.55519944 -0.010773129
0.17880484 -0.57966042 -0.011063922
0.17872158 -0.59642208 -0.011451926
0.17858508 -0.61367887 -0.012141639
0.1785657 -0.63114637 -0.012167285
0.17818613 -0.64997059 -0.014234795
0.17842036 -0.67731649 -0.012780094
0.17837942 -0.69684291 -0.012927521
0.17788158 -0.71863759 -0.015665162
