# .PCD v0.7 - Point Cloud Data file format
VERSION 0.7
FIELDS x y z
SIZE 4 4 4
TYPE F F F
COUNT 1 1 1
WIDTH 1407
HEIGHT 1
VIEWPOINT 0 0 0 1 0 0 0
POINTS 1407
DATA ascii
0.040734798 -0.48004013 -0.00746811
0.049025476 -0.46492541 -0.0061667822
0.053222831 -0.45806977 -0.010018152
0.057171337 -0.45038265 -0.0066307117
0.059204143 -0.44676536 -0.0068138023
0.063331135 -0.43955833 -0.0079596862
0.071508482 -0.42495212 -0.0083838757
0.073632583 -0.42125657 -0.009051607
0.079767786 -0.41016614 -0.0086229853
0.084044822 -0.40260255 -0.0092741931
0.090310484 -0.39124992 -0.0086863423
0.097372338 -0.37902117 -0.011228629
0.11138286 -0.35399255 -0.011928038
0.11356702 -0.34992602 -0.011104547
0.12092061 -0.33667079 -0.01079788
0.12643991 -0.32694626 -0.011835972
0.13202597 -0.31701535 -0.012383557
0.13985039 -0.3026517 -0.010584302
0.14654922 -0.29093674 -0.012337239
0.15370108 -0.27843386 -0.014232148
0.16351637 -0.26067448 -0.013434734
0.17087239 -0.24749458 -0.013570041
0.18122867 -0.2284389 -0.010929109
0.19072676 -0.21168225 -0.012577856
0.20200357 -0.19200875 -0.015784888
0.21727255 -0.16453412 -0.015392235
0.22928326 -0.1430866 -0.016010405
0.24450213 -0.11631963 -0.019107539
0.24856706 -0.10690761 -0.0071324972
0.28750607 -0.039867707 -0.023227802
0.31207636 0.0051879212 -0.017795872
0.33808681 0.051510882 -0.019814759
0.37185368 0.11130017 -0.024397828
1.1832221 1.4847707 -0.49196747
1.1201515 1.3921866 -0.37532133
1.144896 1.4478474 -0.31158063
1.1374589 1.4486854 -0.23125774
1.1008416 1.4052432 -0.10515493
1.0826683 1.386438 -0.026967028
1.1473078 1.5132182 0.034095161
1.1441481 1.5212826 0.11187112
1.1386738 1.5252253 0.1898272
1.1347893 1.5320227 0.26779401
1.1261789 1.5303166 0.34563234
1.1148872 1.5307066 0.46258616
1.1020838 1.5212945 0.53939348
1.0983053 1.5286199 0.61927247
1.0925959 1.5325657 0.69963533
1.0813272 1.5262445 0.77835071
1.0625516 1.5134093 0.89646214
1.0561838 1.5168583 0.98070282
1.0473133 1.5158311 1.065026
1.0376517 1.5136168 1.1506681
1.1213683 1.6962912 1.3344107
1.1044669 1.6822158 1.4264556
1.1010311 1.69561 1.5372236
1.0706966 1.6661295 1.678537
1.0653522 1.6777644 1.7987367
1.0591869 1.6889418 1.9246887
1.0573313 1.7106445 2.0664506
0.99355817 1.6015838 2.0969067
0.95713758 1.5647558 2.2584598
0.98888814 1.6658902 2.5085421
0.97706699 1.6740501 2.674885
0.96041143 1.67389 2.8432403
0.9215126 1.6245183 2.9589438
0.84320205 1.4820271 2.9478066
0.76743662 1.3428566 2.9296088
0.67634666 1.1857985 2.9658415
0.61695772 1.0827818 2.9859645
0.55860716 0.98107588 3.0029573
0.49791837 0.87101591 2.9963992
0.44264445 0.77455831 3.0118461
0.38945353 0.68319511 3.0349755
0.3120946 0.55286205 3.0830107
0.25039902 0.42352352 2.9774957
0.20549044 0.36125275 3.0812159
0.15355229 0.26681101 3.0741746
0.10261352 0.1734595 3.0631509
0.052748758 0.082043335 3.0521722
0.0036087551 -0.005592511 3.0552373
-0.070711635 -0.1330809 3.088496
-0.11967935 -0.22071661 3.0898097
-0.16875648 -0.30810994 3.0936074
-0.2193782 -0.39555049 3.1128354
-0.26919568 -0.48410711 3.117568
-0.31934029 -0.57335538 3.1217077
-0.37187886 -0.66457641 3.1390042
-0.45040002 -0.80337608 3.1508877
-0.50770676 -0.90126508 3.1788776
-0.5691362 -1.0046076 3.2178802
-0.58493763 -1.0639452 3.0423858
-0.68039793 -1.2043949 3.2170851
-0.73820412 -1.3080329 3.2175894
-0.80119717 -1.4187236 3.2308638
-0.87401623 -1.560599 3.1673708
-0.95805752 -1.700334 3.230063
-1.0238276 -1.8188868 3.22703
-1.1086128 -1.9639362 3.2671824
-1.1066355 -1.9933985 3.0802009
-1.1488097 -2.0814953 3.0098515
-1.1174347 -2.0660722 2.7783124
-1.217137 -2.2484245 2.758785
-1.285428 -2.3742089 2.7404132
-1.2796196 -2.3915277 2.5832717
-1.1276588 -2.1881981 2.190443
-1.1931701 -2.3082733 2.1761546
-1.1108826 -2.2029583 1.9363037
-1.178424 -2.32639 1.9236373
-1.2998424 -2.5458183 1.9148244
-0.67370868 -1.6615808 0.5591628
-0.66826957 -1.6610802 0.50669897
-0.57279944 -1.503916 0.42653319
-0.53799814 -1.4908818 0.14653827
-0.52876961 -1.4815803 0.10540968
-0.53684598 -1.5041208 0.059809584
-0.53273052 -1.5043693 0.016557416
-0.49887833 -1.5044831 -0.32826838
-0.13578376 -0.79571015 -0.0042172023
-0.11829184 -0.76372552 -0.00085672847
-0.10713159 -0.74428165 -0.0041738972
-0.0972322 -0.7271868 -0.0079804007
-0.083106793 -0.7009114 -0.0027408628
-0.075351417 -0.68778896 -0.007256438
-0.06593027 -0.66921109 0.002205452
-0.055636812 -0.6517632 -0.0036154673
-0.049812492 -0.64055908 0.00063877372
-0.042742621 -0.62810367 -0.00068745733
-0.026833028 -0.60021484 -0.0044693425
-0.022713803 -0.59225744 -0.0012743613
-0.014545772 -0.57813293 -0.0043168967
-0.011114588 -0.57157117 -0.0020336108
-0.0036146983 -0.55868602 -0.0053051976
0.0017617979 -0.54891706 -0.0046365741
0.0068501215 -0.53973812 -0.0043810057
0.0095580993 -0.53458649 -0.002734015
0.014199307 -0.52641457 -0.0036377823
0.020994347 -0.51441765 -0.0047761481
0.025397126 -0.50668216 -0.005728323
0.027653569 -0.50252551 -0.0051276307
0.03406591 -0.49128225 -0.006645157
0.038320739 -0.48363936 -0.006618029
0.042515319 -0.4760485 -0.0062734117
0.044586275 -0.47245413 -0.0069676354
0.054929249 -0.45430818 -0.0093515553
0.058877688 -0.44677103 -0.0068081841
0.065032206 -0.43591928 -0.007920213
0.067144752 -0.43228412 -0.0088096941
0.073307477 -0.42126292 -0.0090456
0.079443239 -0.41017279 -0.0086168153
0.081729054 -0.40630782 -0.009965661
0.089986883 -0.39125705 -0.0086798985
0.094480515 -0.38333607 -0.0095028803
0.096843563 -0.37922877 -0.010264098
0.10911555 -0.35778761 -0.013588244
0.11542368 -0.34586334 -0.010186906
0.12059967 -0.33667925 -0.010790696
0.12611945 -0.32695496 -0.011828666
0.13389154 -0.31281447 -0.010753044
0.13953102 -0.30266097 -0.010576699
0.14805976 -0.2871331 -0.0093330042
0.15484999 -0.27509746 -0.010191502
0.16319886 -0.26068473 -0.013426652
0.1701743 -0.24805823 -0.012821014
0.17915237 -0.23234524 -0.015086418
0.19041127 -0.21169358 -0.012569262
0.20293789 -0.19012594 -0.017738439
0.21652946 -0.16520879 -0.014769297
0.22897054 -0.1430994 -0.016001157
0.24463578 -0.11563245 -0.019655704
0.24975026 -0.10306247 -0.00046829978
0.28673542 -0.040626135 -0.022734102
0.31129894 0.0044055707 -0.017348051
0.3363561 0.049151771 -0.018586461
0.37155041 0.11128226 -0.024386482
1.1839477 1.4863579 -0.49256214
1.125762 1.4020776 -0.37860262
1.1417021 1.442778 -0.31010935
1.1411394 1.4554057 -0.23289846
1.1000916 1.4043443 -0.10497782
1.0888079 1.3975997 -0.028533043
1.1465589 1.512308 0.03420366
1.1433991 1.5203695 0.11194474
1.1398774 1.5278008 0.18979388
1.1340417 1.5311071 0.26779777
1.123764 1.533336 0.38482565
1.1098562 1.5219361 0.46157077
1.1003995 1.5186434 0.53899902
1.0961683 1.5251118 0.61860234
1.0914016 1.5308022 0.69924146
1.0810522 1.5262085 0.77836972
1.0667111 1.5218514 0.8993879
1.0541589 1.5134661 0.97942603
1.0466028 1.5149682 1.0646877
1.0390427 1.5168676 1.1522409
1.1198553 1.6938304 1.3331677
1.1093796 1.6925516 1.4323468
1.100352 1.6947956 1.5367589
1.0704026 1.6661018 1.6785543
1.0654173 1.6784859 1.7993102
1.0602874 1.691843 1.9270459
1.0614191 1.7199072 2.074435
0.98772484 1.5897263 2.0860429
0.97777265 1.5959107 2.222157
0.9853642 1.6587508 2.5008121
0.9792437 1.6796749 2.6814535
0.95929617 1.6720629 2.8409994
0.92341828 1.6297514 2.9659221
0.84403425 1.4848169 2.9517956
0.76622456 1.3407097 2.9263573
0.67755932 1.189787 2.9726088
0.61714464 1.0842031 2.9885619
0.55760247 0.97928995 2.9994485
0.49887919 0.8748095 3.0044649
0.44202378 0.7737785 3.0100343
0.38976869 0.68540335 3.040524
0.33739856 0.59599662 3.0663407
0.2772333 0.47537312 2.9946027
0.20532991 0.36233732 3.0850701
0.15309893 0.26635459 3.0722384
0.10232986 0.17452072 3.0680449
0.052391749 0.084027551 3.0629997
0.0033085418 -0.0064587216 3.0493081
-0.046352267 -0.089865714 3.081567
-0.12042037 -0.22025169 3.0957863
-0.17019887 -0.30748808 3.1075578
-0.21996352 -0.39549449 3.1148286
-0.26927611 -0.48401648 3.1145875
-0.31987363 -0.57336867 3.122699
-0.37115812 -0.66390049 3.1311109
-0.45148075 -0.80383605 3.1547999
-0.50812715 -0.90122199 3.1788769
-0.5699569 -1.0049325 3.2198038
-0.58535922 -1.0639009 3.0423846
-0.67968386 -1.2031235 3.2123713
-0.73985845 -1.3093497 3.2222388
-0.80215269 -1.4192749 3.2326956
-0.87473691 -1.5608888 3.1682632
-0.95968127 -1.7017665 3.2335792
-1.0252012 -1.8200268 3.229615
-1.1087466 -1.9634453 3.2663321
-1.1014074 -1.9856287 3.0661485
-1.1489143 -2.0809541 3.0090404
-1.113577 -2.0599604 2.768883
-1.2130775 -2.2418694 2.7497525
-1.2878122 -2.3769701 2.7440538
-1.2772881 -2.3873522 2.5783329
-1.1280885 -2.1881464 2.1904409
-1.1740348 -2.2785389 2.1454089
-1.1138566 -2.2068238 1.9400673
-1.1853545 -2.3364229 1.9326369
-1.3016093 -2.5478671 1.9164951
-0.67603648 -1.6649305 0.56006783
-0.66764659 -1.6593658 0.50632393
-0.57463139 -1.5064725 0.42700982
-0.538342 -1.4908755 0.14654702
-0.52863526 -1.4807017 0.1055222
-0.53765875 -1.5049869 0.059680663
-0.53167033 -1.5017627 0.017084038
-0.5004338 -1.5069149 -0.32951865
-0.13648698 -0.79649502 -0.0047028959
-0.12293414 -0.7707991 0.0030886699
-0.10708692 -0.74354202 -0.0036050514
-0.098248929 -0.72865826 -0.0091383606
-0.083760552 -0.70163453 -0.0033413921
-0.074066147 -0.68271971 0.0052548484
-0.064877033 -0.66791987 -0.0043283124
-0.055951178 -0.65177292 -0.0036028044
-0.047854487 -0.63719267 -0.0033242677
-0.040792599 -0.62470865 -0.0044011683
-0.026904596 -0.59965438 -0.0036716233
-0.020814203 -0.5888297 -0.0042737182
-0.016836599 -0.58105779 -0.00068834936
-0.0092404867 -0.5681181 -0.0046202778
-0.0059170788 -0.56169516 -0.002026408
0.0014510697 -0.54892862 -0.0046232482
0.006539722 -0.53974986 -0.004367616
0.011251138 -0.53149205 -0.005493483
0.013889374 -0.52642655 -0.0036243
0.018468769 -0.51830161 -0.0041615115
0.025088023 -0.50669456 -0.0057146815
0.029447418 -0.4989793 -0.0063363216
0.033802886 -0.49104267 -0.0056648212
0.040098123 -0.48005787 -0.0074491403
0.046342507 -0.46869653 -0.006589063
0.048418876 -0.4652406 -0.0081251115
0.054459225 -0.45390937 -0.0053620902
0.062622063 -0.43953568 -0.0069435043
0.070874773 -0.42497236 -0.0083636623
0.07299912 -0.42127702 -0.0090313051
0.079134926 -0.4101871 -0.0086024283
0.081420831 -0.40632224 -0.0099512348
0.089678742 -0.39127177 -0.0086653363
0.0941725 -0.383351 -0.009488238
0.098486997 -0.37552243 -0.0090122893
0.10880812 -0.35780323 -0.013573326
0.11319692 -0.34964755 -0.011999887
0.12029254 -0.33669534 -0.010775549
0.12581259 -0.32697135 -0.011813405
0.13139938 -0.31704098 -0.012360752
0.13922472 -0.30267799 -0.010561154
0.1455842 -0.29143006 -0.011497325
0.15272486 -0.27895343 -0.013412344
0.1632641 -0.26017389 -0.014174201
0.16986988 -0.24807684 -0.012804801
0.18060869 -0.22846901 -0.010904227
0.19010821 -0.21171327 -0.012552596
0.20221956 -0.19077785 -0.017067395
0.21579884 -0.16589221 -0.014138171
0.22867052 -0.14312121 -0.015983636
0.24433717 -0.11565516 -0.019637845
0.24795683 -0.10694391 -0.0071049482
0.28644049 -0.040651202 -0.022715317
0.31100604 0.004379177 -0.017328704
0.3360655 0.049123969 -0.018566569
0.36982512 0.10887033 -0.023244472
1.1837518 1.4862794 -0.49252561
1.1367949 1.4210464 -0.38489667
1.1370833 1.4351673 -0.30789864
1.1429 1.4587137 -0.23369303
1.0981457 1.3947675 -0.14115374
1.0816984 1.3854644 -0.026788853
1.1483126 1.5157008 0.033891242
1.1417141 1.5176872 0.11214048
1.1386842 1.5259839 0.18986753
1.134793 1.5327843 0.26786909
1.1266568 1.5319549 0.34579363
1.1129643 1.5279797 0.46233344
1.0978103 1.5142223 0.53834653
1.0959352 1.5250454 0.61864036
1.090705 1.5298735 0.69907302
1.0808131 1.5261439 0.77840781
1.0620285 1.5133121 0.89651871
1.054347 1.514244 0.97978783
1.047635 1.5173991 1.0657953
1.0371115 1.5135257 1.1507239
1.1200129 1.6945767 1.3336284
1.109123 1.6924897 1.4323869
1.1004807 1.6955196 1.5372815
1.0701334 1.666044 1.6785938
1.0658672 1.6799247 1.8004631
1.0593081 1.6903248 1.925915
1.0604594 1.7184244 2.0732486
0.98970705 1.5945504 2.0905607
0.97903293 1.5992495 2.2255259
0.98592979 1.6606474 2.5029621
0.97337615 1.6670991 2.6669261
0.95476002 1.6623429 2.8290119
0.92556804 1.6355388 2.9736974
0.84252262 1.4819871 2.9478531
0.76718056 1.343895 2.9312842
0.67582941 1.1862742 2.9667263
0.61730617 1.085605 2.9911776
0.55754429 0.98017061 3.0012341
0.49848729 0.87479937 3.0044897
0.44227335 0.77574152 3.014607
0.3890202 0.68430191 3.0377748
0.33678833 0.59532142 3.0644886
0.25109294 0.42975599 2.9975235
0.20505416 0.3631492 3.0879724
0.15272759 0.26684484 3.0741935
0.10185744 0.17433126 3.0670793
0.051928904 0.083871529 3.0620263
0.0027675629 -0.0056908443 3.0542607
-0.046669956 -0.090426564 3.0766115
-0.12171578 -0.21919736 3.10973
-0.16987711 -0.30791247 3.0966005
-0.22028786 -0.39547339 3.1128373
-0.2696836 -0.48394889 3.1135917
-0.31977326 -0.57306904 3.1177409
-0.37126762 -0.6636036 3.128145
-0.44970471 -0.80201846 3.1410968
-0.50959921 -0.90192819 3.1837199
-0.57310581 -1.0072641 3.2323024
-0.58657002 -1.0644698 3.0452285
-0.68188131 -1.2047478 3.2189476
-0.74144077 -1.3103516 3.2259378
-0.80251181 -1.4188743 3.2317531
-0.87536645 -1.560784 3.1682346
-0.95767957 -1.6982982 3.2256267
-1.0258622 -1.8199065 3.2295792
-1.1084616 -1.9620355 3.2637565
-1.1110992 -1.9977436 3.0884197
-1.1475126 -2.0779479 3.0041602
-1.1145978 -2.0603392 2.769628
-1.2156379 -2.2444391 2.753469
-1.2896686 -2.3785205 2.7461917
-1.2843299 -2.3966141 2.5895627
-1.1279205 -2.1868031 2.1890395
-1.1821848 -2.289777 2.1571386
-1.1132156 -2.2047462 1.9381436
-1.1794972 -2.3262124 1.9235909
-1.3018367 -2.547025 1.9158862
-0.67654151 -1.6648616 0.56004679
-0.66765618 -1.6584486 0.50611252
-0.57511199 -1.506415 0.42699397
-0.53928804 -1.4916964 0.14646336
-0.5295741 -1.4815226 0.10540433
-0.5344637 -1.5060475 0.016207127
-0.4984172 -1.502009 -0.32700935
-0.13571455 -0.79415488 -0.0032023641
-0.11936081 -0.7644909 -0.0013635152
-0.10782412 -0.74428564 -0.0041524144
-0.098622233 -0.72865516 -0.0091285147
-0.087509342 -0.70877594 -0.0094600171
-0.071809754 -0.67874658 0.0010869268
-0.064308234 -0.66588867 -0.0023177175
-0.058307048 -0.65447307 0.0013543461
-0.050491162 -0.64057148 0.0006642809
-0.041155156 -0.62471241 -0.0043877582
-0.027264573 -0.59965986 -0.0036573093
-0.023385581 -0.59227407 -0.0012467854
-0.015004808 -0.57762748 -0.0034629833
-0.0095971171 -0.56812572 -0.0046047769
-0.0064600487 -0.56218928 -0.0028644025
0.00093369617 -0.54938507 -0.005486453
0.0061860429 -0.53975958 -0.0043510166
0.011028312 -0.5311085 -0.0045665647
0.013537048 -0.52643722 -0.0036071751
0.020333933 -0.51444149 -0.0047449479
0.024737932 -0.50670677 -0.0056967316
0.026994914 -0.50255048 -0.0050958437
0.031368084 -0.49461195 -0.0045815455
0.035581082 -0.48724377 -0.0056683715
0.041860677 -0.47607607 -0.0062402803
0.043934699 -0.47230369 -0.0059503382
0.052116089 -0.45763156 -0.0060088644
0.058226321 -0.44680122 -0.0067738066
0.064382106 -0.43595043 -0.0078853751
0.06851837 -0.42865294 -0.008595028
0.070642695 -0.42497173 -0.0093365628
0.076798879 -0.4138869 -0.009127792
0.083074257 -0.40264353 -0.0092316605
0.089341633 -0.39129215 -0.0086431708
0.098151438 -0.37554383 -0.0089896023
0.11042044 -0.35403913 -0.011882706
0.11478368 -0.34590247 -0.010148195
0.11996083 -0.33671921 -0.010751576
0.12548189 -0.32699582 -0.011789105
0.13106968 -0.31706607 -0.012336123
0.13889623 -0.30270395 -0.010536076
0.14559729 -0.29099035 -0.012288332
0.1542186 -0.27514285 -0.010149649
0.16331017 -0.25967345 -0.014911296
0.16992809 -0.2475531 -0.013518688
0.1802873 -0.22849941 -0.010876721
0.18978859 -0.2117447 -0.012524522
0.2019024 -0.19081062 -0.017038586
0.21378474 -0.16993289 -0.019522367
0.22792013 -0.14383851 -0.015367187
0.24358222 -0.1163929 -0.019048899
0.24868548 -0.10384971 9.4899442e-05
0.28567675 -0.041436367 -0.022197932
0.31070843 0.0043348894 -0.017293382
0.33529738 0.048296299 -0.018123964
0.36953884 0.10881974 -0.023205562
1.1831664 1.4853182 -0.49212655
1.1264167 1.403523 -0.37903073
1.1379434 1.4367056 -0.30829471
1.142283 1.4577323 -0.23339817
1.0989908 1.3963435 -0.14141685
1.0820398 1.3862 -0.026828302
1.1466951 1.5129691 0.034239884
1.1430354 1.5201662 0.11206806
1.1390171 1.526727 0.18993485
1.1351173 1.5335305 0.26797065
1.1260061 1.5309545 0.34582597
1.1127855 1.5278566 0.46241611
1.0995108 1.5175847 0.53898042
1.0962093 1.5257934 0.61889386
1.0905062 1.5297556 0.69915348
1.0806071 1.5260282 0.77848738
1.0706553 1.5223529 0.85865039
1.0532507 1.5124543 0.97921741
1.0469762 1.5164596 1.0655153
1.0368735 1.5134189 1.1507996
1.1201891 1.6952727 1.3341291
1.1028807 1.6804173 1.425689
1.0936052 1.6820753 1.529157
1.0691227 1.664413 1.6776149
1.0637854 1.6760828 1.7977554
1.0611285 1.6946119 1.9295011
1.0628734 1.7240384 2.078227
0.9861539 1.5874952 2.0842314
0.97404158 1.5889987 2.2156017
0.98618728 1.6618532 2.5044396
0.97303927 1.6670123 2.6669943
0.95493758 1.663469 2.8305821
0.92247325 1.6290513 2.9652491
0.84354883 1.4852713 2.9526854
0.76657552 1.3432944 2.9305239
0.67542517 1.1862183 2.9667766
0.61545998 1.0817684 2.9843242
0.55663037 0.97878402 2.9986391
0.4980517 0.87476027 3.0045295
0.44156834 0.77491999 3.0128238
0.38867852 0.68463928 3.0387318
0.33593813 0.59394336 3.060775
0.2511864 0.43210527 3.0051703
0.20451427 0.36286971 3.0870333
0.15234487 0.26754957 3.0771258
0.10135703 0.17432724 3.0670967
0.051411573 0.083158128 3.0581052
0.0023417706 -0.0065771402 3.0483401
-0.047447495 -0.089472666 3.0845606
-0.12104044 -0.22071044 3.0888259
-0.17034262 -0.30793697 3.0956068
-0.21909529 -0.39567515 3.0939186
-0.27023783 -0.48392358 3.1135893
-0.32121012 -0.57338494 3.1246719
-0.37282741 -0.66412872 3.1350439
-0.4504492 -0.80210531 3.1420631
-0.50927544 -0.90110904 3.1788502
-0.57409978 -1.0075874 3.2342093
-0.58694631 -1.0642079 3.0442569
-0.68546969 -1.2078706 3.231173
-0.74303442 -1.3113875 3.2296326
-0.80443066 -1.4203238 3.2363102
-0.88244843 -1.5686501 3.1888034
-0.95861465 -1.6985993 3.2264695
-1.0286673 -1.8226316 3.2355807
-1.1081558 -1.9606737 3.2611763
-1.1077381 -1.9922237 3.0784597
-1.1481612 -2.0778668 3.0041142
-1.1130787 -2.0572355 2.7648716
-1.2189107 -2.2481441 2.7586863
-1.2914777 -2.3801281 2.7483268
-1.2809981 -2.3906522 2.5824621
-1.1313725 -2.191 2.1937554
-1.1782088 -2.2827561 2.1498978
-1.1172062 -2.2098944 1.9431212
-1.1783544 -2.3234515 1.9211457
-1.3011038 -2.5448449 1.9141628
-0.67455298 -1.660623 0.55890489
-0.66861266 -1.6592678 0.50628519
-0.57457793 -1.5046786 0.42666751
-0.53972083 -1.4916773 0.1464521
-0.52952725 -1.4806312 0.10549717
-0.53442246 -1.5051626 0.016368819
-0.49718288 -1.4987593 -0.3253355
-0.13610543 -0.79415715 -0.0031955347
-0.12161782 -0.7683093 -0.0039934274
-0.10785098 -0.74354142 -0.0035877235
-0.093758561 -0.71768755 -0.00034267484
-0.085194215 -0.70306623 -0.0045475806
-0.076747634 -0.68849885 -0.0078634089
-0.066999532 -0.66922629 0.0022394501
-0.056105386 -0.65046525 -0.0021968973
-0.048603684 -0.63720161 -0.0033009131
-0.04126966 -0.62410295 -0.0036370796
-0.027889866 -0.60023773 -0.0044308812
-0.0237698 -0.59228098 -0.0012354485
-0.015599079 -0.57815814 -0.0042770221
-0.012167173 -0.57159698 -0.0019933539
-0.0046647922 -0.55871344 -0.0052640461
-0.0016170446 -0.55288863 -0.0032483442
0.0056564454 -0.54018837 -0.0052338769
0.01064521 -0.53111655 -0.0045540184
0.015169287 -0.52329254 -0.006217259
0.019950973 -0.51444978 -0.0047320956
0.024355048 -0.50671512 -0.0056837383
0.026612025 -0.50255889 -0.0050827791
0.030985199 -0.49462047 -0.004568344
0.03728221 -0.48367485 -0.0065718833
0.039407536 -0.47966453 -0.0054607927
0.043552019 -0.47231248 -0.0059367591
0.051797863 -0.45787704 -0.0079799006
0.05377404 -0.45403764 -0.0063219517
0.057844695 -0.44681042 -0.0067596864
0.061973296 -0.43960437 -0.0079049999
0.066022538 -0.43231329 -0.0077645481
0.070262007 -0.4249813 -0.00932201
0.080402493 -0.40654123 -0.0079463916
0.082694367 -0.4026534 -0.0092167119
0.088962108 -0.39130217 -0.0086280359
0.091299959 -0.38727298 -0.0095654475
0.097772449 -0.37555405 -0.0089742178
0.10613105 -0.36164486 -0.015127468
0.11440567 -0.34591305 -0.010132379
0.11767132 -0.34051636 -0.012747017
0.12510447 -0.32700664 -0.011773032
0.13069254 -0.31707701 -0.012319922
0.13851942 -0.302715 -0.010519712
0.14522085 -0.29100156 -0.012271824
0.15202276 -0.27899221 -0.013369814
0.16293457 -0.25968495 -0.01489443
0.16955273 -0.24756472 -0.013501705
0.17854428 -0.23183009 -0.015742525
0.18941395 -0.21175663 -0.012507192
0.20152834 -0.1908228 -0.017021025
0.21511017 -0.16593872 -0.014090803
0.227109 -0.14453278 -0.014763151
0.24320957 -0.11640568 -0.01903066
0.24876828 -0.10313553 -0.00040051833
0.28530544 -0.04144977 -0.022179035
0.31127861 0.005854168 -0.018148692
0.33492732 0.048282281 -0.018104374
0.37012884 0.11039314 -0.023932938
1.1823469 1.4844704 -0.49178299
1.1260779 1.4034947 -0.37899727
1.1371115 1.4358406 -0.30802003
1.1409553 1.4560144 -0.23295024
1.0979081 1.401551 -0.10435781
1.0807022 1.3844529 -0.02655435
1.1468334 1.5138121 0.034182835
1.1358159 1.507964 0.11283565
1.13817 1.5258332 0.18998171
1.1342701 1.5326362 0.26798204
1.1198527 1.5204425 0.34523448
1.1128935 1.5287124 0.46254599
1.0963084 1.5123442 0.53817725
1.1000354 1.5335863 0.6204707
1.0864432 1.5228378 0.69752485
1.080228 1.5260161 0.77851075
1.0609844 1.512342 0.89632809
1.0537375 1.5141249 0.97988653
1.0453044 1.5139608 1.0644664
1.0331297 1.5068492 1.1477095
1.1189749 1.6936496 1.3333077
1.1024834 1.6804149 1.4257078
1.0939845 1.6836437 1.5301402
1.0683447 1.6636519 1.6771045
1.0637397 1.6768345 1.798328
1.0600171 1.6931552 1.9283459
1.0634718 1.7261894 2.08008
0.99061394 1.5979482 2.0938444
0.95273042 1.5579399 2.2518017
0.98605269 1.6625167 2.5051553
0.97122157 1.6638982 2.6633635
0.95766139 1.6707494 2.8396101
0.92476898 1.635483 2.9737711
0.84287786 1.4847368 2.9518981
0.76701099 1.3454624 2.9337947
0.67440259 1.1847494 2.9642498
0.61591542 1.0841632 2.9886434
0.55700493 0.98105013 3.0030427
0.49819818 0.87647384 3.0081165
0.44086948 0.77416307 3.0110099
0.38846549 0.68540388 3.040585
0.33607695 0.59600681 3.0663967
0.24961272 0.42740545 2.9899344
0.20445254 0.36477256 3.0937746
0.1515383 0.26520777 3.067425
0.10089961 0.17415434 3.0661247
0.050969675 0.082836896 3.0561433
0.0016990254 -0.0044635576 3.0621901
-0.072710454 -0.132562 3.0924952
-0.12193662 -0.22009106 3.0967987
-0.17092653 -0.30781448 3.0976071
-0.21998705 -0.39557806 3.0989053
-0.27034569 -0.48382857 3.110616
-0.32051617 -0.5729025 3.1157629
-0.37382594 -0.66440785 3.1390002
-0.45104563 -0.80219042 3.1430516
-0.51006985 -0.90137875 3.1808035
-0.57254773 -1.0056934 3.2245963
-0.58715749 -1.063954 3.0433171
-0.68429261 -1.206118 3.2245913
-0.74126196 -1.3088838 3.2212744
-0.8035599 -1.4187701 3.2317395
-0.8820278 -1.5675741 3.1861339
-0.96021301 -1.7000482 3.2300084
-1.0284696 -1.8217893 3.233875
-1.1140367 -1.96789 3.2755673
-1.1028035 -1.9849311 3.0652621
-1.1509978 -2.0811834 3.0097833
-1.1159943 -2.0607326 2.770395
-1.2170579 -2.2448647 2.7542002
-1.2895572 -2.3767073 2.7439823
-1.2798058 -2.388272 2.5796733
-1.1301348 -2.1885374 2.1910655
-1.1823459 -2.2884171 2.1558161
-1.11674 -2.2085717 1.9418975
-1.1804725 -2.3261223 1.923579
-1.3037107 -2.5483308 1.9169874
-0.6778627 -1.6656786 0.56028444
-0.66848123 -1.6584264 0.50612634
-0.57149023 -1.4986949 0.42560244
-0.53959584 -1.490818 0.14655288
-0.53178835 -1.4841393 0.10511488
-0.53664225 -1.5086508 0.015712148
-0.49917057 -1.5020238 -0.32698247
-0.13531247 -0.79183877 -0.0016810877
-0.12406343 -0.77080977 0.0031254541
-0.10857368 -0.74430311 -0.0041237702
-0.096570224 -0.72282141 -0.0044185631
-0.085217446 -0.70236558 -0.0039147385
-0.076458573 -0.68712002 -0.0065637864
-0.065055721 -0.66590738 -0.0022886924
-0.057063695 -0.65179384 -0.0035612697
-0.048965167 -0.63721484 -0.0032821747
-0.043888614 -0.62750989 9.5983378e-05
-0.03023353 -0.60309774 -0.00040001518
-0.0219188 -0.5888558 -0.0042297654
-0.018158825 -0.58161998 -0.0014599583
-0.010342596 -0.56814593 -0.0045755408
-0.0072055408 -0.56220949 -0.0028351811
0.00035116353 -0.54895806 -0.0045777978
0.003142019 -0.54370213 -0.0031741571
0.010283145 -0.531129 -0.0045374054
0.012791858 -0.52645773 -0.0035780377
0.019588819 -0.51446205 -0.0047158594
0.023992855 -0.5067274 -0.0056676818
0.030461153 -0.4954333 -0.0074392073
0.034872737 -0.48702678 -0.0046688067
0.039045174 -0.47967654 -0.0054453956
0.043186978 -0.47250283 -0.0069055096
0.047314629 -0.46512824 -0.0070879273
0.049375925 -0.46151331 -0.0075627654
0.053411745 -0.45404911 -0.00630735
0.057424881 -0.44674894 -0.0057496373
0.06161119 -0.43961549 -0.0078908782
0.065660514 -0.4323242 -0.0077506681
0.073924489 -0.41764173 -0.0085827773
0.078053884 -0.41022623 -0.0085529266
0.080340475 -0.40636161 -0.0099016475
0.086629264 -0.39501217 -0.0095389131
0.090938099 -0.38728249 -0.0095530506
0.097410545 -0.37556314 -0.0089622037
0.11018341 -0.35348207 -0.013703637
0.11212385 -0.34968942 -0.011949369
0.11922075 -0.33673763 -0.010724864
0.12474194 -0.32701403 -0.011762568
0.1303298 -0.31708404 -0.012309768
0.13815637 -0.30272144 -0.010510009
0.14485748 -0.29100758 -0.012262479
0.15347867 -0.27515954 -0.010124123
0.16294043 -0.25916085 -0.015649619
0.16918798 -0.24756913 -0.013493678
0.17778695 -0.23241025 -0.015017864
0.18904786 -0.21175961 -0.01250023
0.20245123 -0.18751252 -0.01137823
0.2143124 -0.16660221 -0.013471335
0.22761559 -0.14316978 -0.015930302
0.24328457 -0.11570477 -0.019584069
0.24645074 -0.10771121 -0.0065228534
0.28493109 -0.041446585 -0.022176927
0.3109017 0.0058592502 -0.018147904
0.33502328 0.049069658 -0.018510533
0.36878711 0.10881396 -0.023187488
1.1838278 1.4877855 -0.49305585
1.1251295 1.4027119 -0.378759
1.1356682 1.4342146 -0.30757463
1.1409829 1.4569112 -0.23319621
1.0979389 1.40246 -0.10455099
1.0792558 1.382784 -0.026346583
1.1463633 1.5138729 0.034143187
1.1412278 1.5184672 0.11216342
1.1372098 1.5250264 0.18995981
1.1318547 1.5292081 0.26787484
1.1242034 1.5292567 0.34571043
1.1138487 1.5314047 0.46281686
1.0963066 1.5132895 0.53827602
1.0944275 1.524121 0.61853427
1.0845855 1.5203271 0.69686568
1.0792978 1.5252396 0.77823079
1.0680077 1.5190201 0.85753745
1.0532616 1.5142102 0.97984761
1.0448284 1.5140481 1.0644275
1.0322348 1.5061176 1.1472821
1.1168473 1.6905115 1.3315823
1.1019956 1.6805161 1.425665
1.0985625 1.6939447 1.5363698
1.069725 1.6675731 1.6796994
1.0636144 1.6776907 1.7988424
1.0577787 1.6896091 1.9253778
1.0616307 1.7234474 2.0775852
0.99078327 1.5994512 2.0950844
0.97283083 1.5884451 2.2149088
0.98352861 1.6581035 2.5001855
0.97184908 1.6665266 2.6662359
0.95665359 1.6696643 2.8380663
0.924788 1.6367729 2.9752793
0.84311199 1.486533 2.9542484
0.76830089 1.3498591 2.940289
0.67512918 1.1878464 2.9692898
0.61583996 1.0852101 2.9903436
0.55641806 0.98069805 3.0021408
0.49749038 0.87572247 3.0063066
0.44020373 0.77346063 3.0091732
0.38795462 0.68511873 3.0396469
0.33578417 0.59642226 3.0673208
0.24895416 0.42628959 2.9861162
0.20446293 0.36670589 3.1005042
0.15176922 0.26907012 3.0829518
0.10057037 0.17441684 3.0671017
0.050622478 0.082350783 3.0531931
0.0014861771 -0.0056068022 3.0542831
-0.048333153 -0.088923424 3.0885432
-0.12276278 -0.21940464 3.1057692
-0.17137401 -0.3077035 3.0996115
-0.2195428 -0.39565128 3.0909534
-0.27040732 -0.48377547 3.1086442
-0.32065946 -0.57284325 3.1147907
-0.37294999 -0.66376609 3.1311278
-0.4529489 -0.80344647 3.1528578
-0.50993443 -0.90107918 3.1788888
-0.57177305 -1.0047851 3.2198136
-0.58822417 -1.0648366 3.0471604
-0.68333876 -1.2049273 3.2199156
-0.74266177 -1.3102899 3.2259643
-0.80346596 -1.4185138 3.2308631
-0.87993044 -1.564872 3.179013
-0.95651388 -1.6952688 3.218617
-1.0276589 -1.8206638 3.2313368
-1.1125243 -1.9658402 3.2713966
-1.1216103 -2.0104082 3.1115911
-1.1524662 -2.0831957 3.0130668
-1.115723 -2.0603247 2.7696662
-1.2171206 -2.2449751 2.7542617
-1.288829 -2.3756983 2.7425892
-1.2854095 -2.3966231 2.5896068
-1.1334652 -2.1935284 2.1965637
-1.1757439 -2.2784331 2.1454117
-1.1151118 -2.2060788 1.9394464
-1.1774931 -2.3215425 1.9194402
-1.3064092 -2.5526755 1.9204004
-0.67752218 -1.6649262 0.56010097
-0.66814053 -1.6576661 0.5059765
-0.54121083 -1.4935204 0.14638145
-0.53386831 -1.4877111 0.10473565
-0.53727955 -1.5096002 0.015574979
-0.49975231 -1.5029161 -0.32736915
-0.13805763 -0.79506296 0.0053902552
-0.12150238 -0.76682055 -0.0029017732
-0.10848562 -0.74357677 -0.0035520953
-0.098894052 -0.72541034 0.001845971
-0.087866716 -0.70570499 0.0013713606
-0.077389702 -0.68852931 -0.0078302845
-0.06796281 -0.66994172 0.0016185008
-0.057349361 -0.65180749 -0.0035488538
-0.049252667 -0.63722718 -0.0032701772
-0.041920364 -0.62412727 -0.0036069693
-0.028543683 -0.60025972 -0.0044019287
-0.022212345 -0.58886379 -0.0042191907
-0.018453257 -0.58162731 -0.0014495832
-0.012824721 -0.57161605 -0.0019658161
-0.0051452178 -0.55825788 -0.0043746666
-0.0021062547 -0.55244535 -0.002350643
0.005141174 -0.5397833 -0.0043127374
0.0098525826 -0.53152537 -0.0054385471
0.014618637 -0.52294016 -0.0052686804
0.017174659 -0.51798213 -0.0031765772
0.023689043 -0.5067274 -0.0056596166
0.025945475 -0.50257063 -0.0050588828
0.034456052 -0.4877378 -0.0075732837
0.036641307 -0.4834615 -0.0055746292
0.042878408 -0.47249919 -0.006898507
0.04494293 -0.46872836 -0.0065338612
0.051092029 -0.45776558 -0.006965979
0.055135902 -0.45043322 -0.0065558203
0.059197471 -0.44319358 -0.0068496387
0.061296005 -0.43960926 -0.007884521
0.067458175 -0.42866617 -0.0085606501
0.071597785 -0.42130801 -0.0089760143
0.073730148 -0.4175846 -0.0095677795
0.08201021 -0.40265441 -0.0091982055
0.088275872 -0.39130199 -0.0086101359
0.090803139 -0.38710213 -0.010514633
0.097297005 -0.3753373 -0.0099101476
0.10789209 -0.35728562 -0.015378999
0.11153305 -0.34997907 -0.011027567
0.11888669 -0.33672407 -0.010720692
0.12628777 -0.32321861 -0.0094794389
0.12999243 -0.31706911 -0.012306054
0.1378167 -0.30270556 -0.010506623
0.14451587 -0.29099092 -0.01225938
0.15131551 -0.27898031 -0.01335803
0.1640742 -0.25702572 -0.018701777
0.16883959 -0.24754953 -0.013491645
0.17704436 -0.23296596 -0.014299102
0.18869413 -0.21173763 -0.0124991
0.20080441 -0.19080165 -0.017014096
0.21352248 -0.16723949 -0.012857496
0.22725187 -0.14314312 -0.015930973
0.24408126 -0.11234038 -0.01254887
0.24653472 -0.10696395 -0.0070529156
0.28455305 -0.041412879 -0.022180364
0.31051737 0.005896152 -0.018152626
0.33320782 0.046767276 -0.017299071
0.36934748 0.11044616 -0.023942664
1.1822581 1.4862975 -0.49248648
1.120151 1.3953998 -0.37632701
1.1360664 1.4360304 -0.30810359
1.1404008 1.4570533 -0.23324254
1.0981034 1.3973596 -0.14164039
1.0796767 1.384642 -0.026634578
1.1472597 1.5166155 0.033833217
1.1416327 1.5203499 0.1120102
1.136637 1.5251687 0.18991204
1.1317701 1.5302241 0.26784378
1.1246012 1.5311468 0.34576571
1.11281 1.5306715 0.46266565
1.0966932 1.5151694 0.53850508
1.093406 1.5233916 0.6183145
1.0886412 1.5290967 0.69888401
1.0796577 1.5270921 0.77866441
1.0670156 1.5183052 0.85721654
1.0518502 1.5126662 0.97915328
1.0442921 1.5141832 1.0643809
1.0321215 1.5070724 1.1476245
1.117118 1.6922773 1.3323718
1.1006519 1.679067 1.4247104
1.0921763 1.6823238 1.5290812
1.0680714 1.6654284 1.6780666
1.0627214 1.6770883 1.7982349
1.0565503 1.6882925 1.9241564
1.0543493 1.7093093 2.0652752
0.99287051 1.6051626 2.1001558
0.97294688 1.5899404 2.2161934
0.98331231 1.6588975 2.5008402
0.97134495 1.6666745 2.6661861
0.95510137 1.6673936 2.835011
0.92280507 1.6334256 2.9705873
0.84193563 1.4849935 2.9518185
0.76827586 1.3510606 2.9418805
0.70080459 1.2299114 2.9414318
0.6154089 1.0853252 2.9903114
0.5555104 0.97946501 2.9994736
0.49752083 0.87708867 3.0089664
0.44019532 0.7747401 3.0118802
0.38745317 0.68484551 3.0387034
0.33550167 0.59684956 3.0682397
0.24759711 0.4222267 2.9727678
0.20410702 0.36678323 3.1004939
0.15109111 0.26700294 3.0742092
0.10007485 0.17281857 3.0592742
0.050314069 0.08401943 3.062047
0.0013996453 -0.0079232538 3.0384634
-0.048552111 -0.089222915 3.0855699
-0.097846225 -0.17642964 3.0926116
-0.17129698 -0.30786917 3.094641
-0.22010675 -0.39557391 3.0939543
-0.2707977 -0.48375559 3.1096551
-0.32080927 -0.57275891 3.1138194
-0.37463441 -0.66453099 3.1410174
-0.42879325 -0.75811821 3.1613398
-0.51018417 -0.90105569 3.1789191
-0.57300532 -1.0056908 3.2246599
-0.59017444 -1.0665402 3.0548191
-0.68425411 -1.2056473 3.2227826
-0.74361533 -1.3111008 3.2287991
-0.80342108 -1.4182051 3.2299931
-0.88013631 -1.5648713 3.179065
-0.9587723 -1.697881 3.2248335
-1.0259999 -1.81827 3.2262187
-1.1088488 -1.9607267 3.2613189
-1.0994059 -1.9800462 3.056294
-1.1509125 -2.0808172 3.009104
-1.1151917 -2.0593352 2.7681634
-1.212788 -2.2385066 2.7453084
-1.2897716 -2.3768568 2.7441263
-1.2835965 -2.3937159 2.5861619
-1.1295888 -2.187459 2.189837
-1.1834291 -2.2898328 2.1572614
-1.1161619 -2.2074165 1.9407744
-1.1776874 -2.3215792 1.9195172
-1.3039201 -2.5485158 1.9171396
-0.67582697 -1.6615936 0.55925673
-0.66841221 -1.6577003 0.50603104
-0.552459 -1.5020299 0.2096839
-0.54150343 -1.4935551 0.14643082
-0.53320998 -1.4860001 0.10499191
-0.53524351 -1.5052996 0.01648706
-0.49924055 -1.5013411 -0.32647756
-0.12258393 -0.76836598 -0.0039319815
-0.10918373 -0.74434322 -0.0040848469
-0.096834257 -0.7221278 -0.003795844
-0.088204861 -0.70572275 0.001393968
-0.076104306 -0.68506533 -0.0046085855
-0.06957674 -0.67270684 -0.00097271847
-0.057989016 -0.65248221 -0.0042196363
-0.049594779 -0.63724393 -0.0032497994
-0.042533498 -0.62475973 -0.0043269745
-0.030869244 -0.60312325 -0.00036972924
-0.022557193 -0.58888 -0.0042003677
-0.016390854 -0.57767051 -0.0034050427
-0.010984724 -0.56816804 -0.0045474241
-0.0054917661 -0.55827385 -0.0043568178
-0.00029440082 -0.54897821 -0.0045508705
0.0026500749 -0.54328746 -0.0022600996
0.0095045706 -0.53154135 -0.0054215402
0.014270177 -0.52295613 -0.0052519445
0.018937107 -0.51447874 -0.0046910811
0.027698634 -0.49902797 -0.0062652342
0.029913805 -0.49491423 -0.0054912469
0.038348038 -0.48010617 -0.0073785698
0.04252756 -0.47251537 -0.0068833507
0.044592068 -0.46874449 -0.0065188785
0.050741125 -0.45778155 -0.0069515035
0.052708063 -0.45395672 -0.0052925469
0.05681783 -0.44683182 -0.006724847
0.062971994 -0.43597996 -0.0078372657
0.069122523 -0.42501891 -0.0082953805
0.073253974 -0.41764924 -0.0085641937
0.077523604 -0.41015342 -0.0095215347
0.081659101 -0.40266961 -0.0091861896
0.087924719 -0.39131698 -0.008598607
0.09241809 -0.38339594 -0.0094218729
0.094986983 -0.37908855 -0.011141141
0.1077849 -0.35702685 -0.016299214
0.11118171 -0.34999356 -0.011017742
0.11662414 -0.34052533 -0.012722422
0.12405477 -0.32701397 -0.011749701
0.12964091 -0.31708318 -0.012297516
0.1374651 -0.30271938 -0.010498633
0.14382383 -0.291471 -0.011435328
0.15096375 -0.27899393 -0.013350914
0.16520266 -0.25492305 -0.02174997
0.16810639 -0.24811581 -0.012744847
0.17669226 -0.23297909 -0.014293626
0.18834189 -0.21175046 -0.012494358
0.20045197 -0.19081442 -0.017010063
0.21147995 -0.17123897 -0.01824048
0.22689901 -0.14315537 -0.015928524
0.2421184 -0.11638879 -0.019026259
0.24572919 -0.1076939 -0.006523137
0.28327522 -0.042911343 -0.021213988
0.30867273 0.0016459069 -0.026991151
0.33190286 0.045195106 -0.016490975
0.36803332 0.10884777 -0.02320054
1.1818848 1.4862835 -0.49253437
1.118802 1.3937325 -0.37582132
1.1371657 1.4385335 -0.30887437
1.1370784 1.451973 -0.23204201
1.0977324 1.3973551 -0.14168443
1.0788141 1.383779 -0.026555795
1.1463965 1.5157501 0.033873804
1.1417513 1.5212233 0.11191072
1.1367538 1.5260466 0.18984744
1.1304283 1.5284833 0.26776388
1.1198903 1.5232856 0.34525603
1.1167017 1.53144 0.42367345
1.0958521 1.5143131 0.53832209
1.0925703 1.5225406 0.61809725
1.0878114 1.5282516 0.69863272
1.0788349 1.5262549 0.77837968
1.0670949 1.5191787 0.85744667
1.0618966 1.5247914 0.94188201
1.043925 1.5142101 1.0643378
1.0330119 1.509563 1.1487482
1.1175692 1.6939306 1.3331656
1.1010841 1.6806982 1.4255673
1.0976534 1.6941301 1.5362718
1.0825623 1.6848359 1.6367946
1.0627176 1.6778804 1.7987465
1.0537351 1.6832185 1.9200155
1.0563481 1.7143598 2.0695202
0.99380696 1.6079978 2.1026733
0.9719606 1.5886375 2.2148194
0.98295009 1.6589556 2.5007973
0.97070593 1.6661092 2.6654153
0.95474046 1.6674582 2.8349686
0.92641914 1.642814 2.9829283
0.84437817 1.4917723 2.9613252
0.76966435 1.3554096 2.9483731
0.70024735 1.2294621 2.9405658
0.61738044 1.0915411 3.0014977
0.55564719 0.9808678 3.0020881
0.4964394 0.87504327 3.0044694
0.43971711 0.77440459 3.010952
0.38665339 0.68343753 3.0349932
0.33448127 0.59453726 3.0616736
0.2724264 0.46629205 2.9661994
0.20338705 0.36496976 3.0937502
0.15122801 0.27014711 3.0868211
0.09993092 0.17495303 3.0690494
0.049957938 0.082821466 3.0551577
0.00081101543 -0.0053497236 3.0552733
-0.048920684 -0.089055173 3.0865641
-0.097789265 -0.17708498 3.0846558
-0.17155609 -0.30786452 3.0936513
-0.22217931 -0.39530355 3.1128814
-0.27015334 -0.48354208 3.1007199
-0.32189009 -0.57301003 3.1197767
-0.37340501 -0.66361129 3.1301775
-0.42880476 -0.75785553 3.1593931
-0.50905198 -0.89977235 3.1711705
-0.57372558 -1.0060203 3.2266057
-0.58857512 -1.0645689 3.0462639
-0.68297225 -1.2038982 3.2162111
-0.74247074 -1.3094223 3.2232432
-0.80710584 -1.4220994 3.2419469
-0.87961209 -1.563803 3.1764083
-0.95702642 -1.6952387 3.2187061
-1.0275459 -1.8198384 3.2297063
-1.1107672 -1.9628308 3.2655828
-1.1023911 -1.9836457 3.0629418
-1.1560755 -2.0875006 3.0204327
-1.115146 -2.0588095 2.7674162
-1.2093416 -2.2330759 2.7378256
-1.2873745 -2.3728852 2.7390656
-1.2807301 -2.3889987 2.5805652
-1.1278677 -2.1843982 2.1864758
-1.1958163 -2.308136 2.176271
-1.1122233 -2.2008879 1.9345375
-1.1780005 -2.3215737 1.9195569
-1.3002226 -2.5422077 1.9121635
-0.67811769 -1.664969 0.56018031
-0.6692307 -1.6585592 0.50624603
-0.57522947 -1.5039496 0.42664856
-0.56460327 -1.5004916 0.33836931
-0.54183304 -1.4935672 0.14645062
-0.53353983 -1.4860126 0.10501137
-0.53650647 -1.5070481 0.01616152
-0.50121075 -1.5045946 -0.32814237
-0.12292141 -0.76837426 -0.0039237267
-0.10988326 -0.74509913 -0.0046335454
-0.099924892 -0.72617614 0.0013059287
-0.085835516 -0.70169473 -0.0032582839
-0.078067206 -0.68855458 -0.0078012664
-0.068322726 -0.66927922 0.0022998028
-0.057730675 -0.65117395 -0.0028300271
-0.052496973 -0.64127457 2.8142786e-05
-0.042601742 -0.62415075 -0.0035811085
-0.028985646 -0.59971154 -0.0035925317
-0.02312167 -0.58943421 -0.0050007068
-0.019137181 -0.58164984 -0.0014258056
-0.013509261 -0.57163841 -0.0019425312
-0.0060093845 -0.55875343 -0.0052145286
-0.00079593976 -0.54943174 -0.0054256679
0.004308376 -0.54022616 -0.005186222
0.0070242188 -0.53506082 -0.0035469451
0.013931212 -0.52296185 -0.0052477787
0.018598121 -0.51448435 -0.0046870569
0.023000738 -0.50674886 -0.0056395005
0.029466949 -0.49545351 -0.0074119335
0.033766747 -0.48775914 -0.0075540831
0.035923608 -0.48370576 -0.0065300367
0.04218835 -0.47252038 -0.006880031
0.044252623 -0.46874946 -0.0065155849
0.050369076 -0.45766819 -0.0059558419
0.054444384 -0.45045394 -0.0065385113
0.058439348 -0.44315663 -0.0058365529
0.060603764 -0.43962982 -0.0078677777
0.066765219 -0.42868656 -0.0085444711
0.070904359 -0.42132828 -0.0089602107
0.075042613 -0.41391894 -0.0090785017
0.081315629 -0.40267435 -0.009183337
0.083627313 -0.39873374 -0.0103691
0.088127293 -0.39085597 -0.011508592
0.094642214 -0.37909326 -0.01113844
0.11041258 -0.35204905 -0.018306615
0.11083549 -0.34999824 -0.011015221
0.11818845 -0.33674303 -0.010708953
0.12370752 -0.32701865 -0.011747322
0.12929325 -0.31708786 -0.012295197
0.13711686 -0.30272406 -0.010496398
0.14347519 -0.29147568 -0.011433162
0.15061469 -0.27899861 -0.013348824
0.16775638 -0.2481205 -0.012742939
0.17634185 -0.2329838 -0.014291808
0.18799092 -0.21175519 -0.012492663
0.19926783 -0.19208211 -0.015700242
0.21281797 -0.16725662 -0.012852818
0.22654673 -0.14316015 -0.015927231
0.24176574 -0.11639361 -0.019025126
0.24537629 -0.10769872 -0.0065220408
0.28384563 -0.0414293 -0.022180477
0.30644822 -0.001395374 -0.02517914
0.33154854 0.0451901 -0.016490776
0.36863735 0.11043076 -0.023948357
1.1810406 1.4854596 -0.49223459
1.1218646 1.3995223 -0.37775612
1.1382802 1.441039 -0.30960754
1.1367221 1.4519664 -0.23205024
1.0963919 1.395643 -0.14134496
1.0789514 1.3846341 -0.026685409
1.1455506 1.514877 0.033953
1.1413974 1.5212166 0.11190252
1.1364003 1.5260398 0.1898393
1.1310464 1.5302248 0.2677893
1.1195379 1.5232787 0.3452481
1.1116121 1.5298041 0.46250862
1.0898404 1.5038553 0.53665823
1.0926862 1.523401 0.61826205
1.0833154 1.520476 0.69676656
1.076668 1.5228165 0.77741069
1.0676405 1.5208741 0.85798728
1.0602282 1.5222527 0.94095296
1.0435771 1.5142031 1.0643308
1.0330834 1.5103766 1.14913
1.1147658 1.6890662 1.3306351
1.0999393 1.679096 1.4246563
1.0961403 1.6917692 1.534817
1.0829763 1.6863699 1.6378124
1.0616509 1.6763775 1.7976259
1.0547929 1.6861378 1.9223489
1.0539809 1.7100667 2.0658355
0.99379033 1.6086875 2.1033065
0.97255504 1.5906636 2.2168117
0.98086214 1.6550641 2.4965665
0.97147739 1.6686102 2.6683216
0.95466608 1.6680576 2.8357139
0.92335016 1.6364003 2.9744098
0.84310639 1.4895296 2.9581385
0.76561713 1.3462986 2.9345007
0.70112199 1.2325257 2.9455736
0.61542946 1.0872771 2.993732
0.55416554 0.97773278 2.9959297
0.49624154 0.87546176 3.0053623
0.43950158 0.77479649 3.0118601
0.38709924 0.68600124 3.0414567
0.33471212 0.59656745 3.0672889
0.27144125 0.46381 2.9586208
0.20309049 0.36523703 3.094713
0.15061854 0.26848382 3.0800281
0.099518619 0.17432968 3.066117
0.049625073 0.084429443 3.0640152
0.00055785978 -0.006386511 3.0483541
-0.049182601 -0.089406878 3.0835896
-0.12387607 -0.21915682 3.1077771
-0.17229076 -0.30764806 3.0986366
-0.22080253 -0.39552253 3.093967
-0.27214432 -0.48381642 3.1156335
-0.32225665 -0.57300293 3.1197817
-0.37391505 -0.66368312 3.1311696
-0.42933297 -0.75795662 3.1603804
-0.51142961 -0.90146983 3.1818569
-0.57211983 -1.0041569 3.2169871
-0.58788401 -1.063483 3.0415065
-0.68335187 -1.2038847 3.2162187
-0.74212027 -1.3085871 3.2204602
-0.80179417 -1.4154321 3.2217736
-0.87719542 -1.5603371 3.1674597
-0.95977324 -1.6982017 3.2257562
-1.02794 -1.8198181 3.2297165
-1.1105219 -1.9619547 3.2639031
-1.1181593 -2.0044782 3.1009643
-1.1543983 -2.0846024 3.0156054
-1.1169834 -2.0608051 2.7705691
-1.2052411 -2.2265587 2.7288091
-1.2885593 -2.3739891 2.7405357
-1.2847165 -2.3942626 2.5869217
-1.1254306 -2.1801064 2.1817269
-1.2153848 -2.3371596 2.206372
-1.1122123 -2.2002139 1.9339209
-1.1784183 -2.3215504 1.9195681
-1.3042092 -2.5477853 1.9166368
-0.67607898 -1.6607488 0.55906445
-0.66915637 -1.6576979 0.5060631
-0.57712203 -1.5065084 0.4271253
-0.54129189 -1.4918094 0.14659531
-0.5358656 -1.4894959 0.10460427
-0.54012138 -1.5050539 0.059799053
-0.53786182 -1.5087739 0.015823686
-0.50122905 -1.5037763 -0.32771531
-0.12332924 -0.76837564 -0.0039192918
-0.11065275 -0.74584872 -0.0051857838
-0.098279469 -0.72360086 -0.0049542263
-0.086580403 -0.70241153 -0.0038669475
-0.078474455 -0.68855721 -0.0077970834
-0.066425316 -0.6659497 -0.002243825
-0.057839263 -0.65051937 -0.0021342989
-0.053195324 -0.64192551 -0.00067184854
-0.045265246 -0.62754846 0.00013776214
-0.029633608 -0.60028672 -0.0043733227
-0.02352879 -0.58943844 -0.0049968152
-0.017347142 -0.57820493 -0.0042217015
-0.011925486 -0.56867766 -0.0053832494
-0.0064167357 -0.5587582 -0.0052107205
-0.0010407116 -0.54898918 -0.0045424732
0.0039008332 -0.54023129 -0.0051824618
0.0067547727 -0.53465849 -0.0026404792
0.013410267 -0.52333373 -0.0061676069
0.018093871 -0.51482844 -0.0056193755
0.020484552 -0.51029605 -0.0042592962
0.026951488 -0.49903926 -0.0062578134
0.03335844 -0.48776528 -0.0075504468
0.035543475 -0.48348895 -0.0055520027
0.041779961 -0.47252688 -0.006876451
0.043844607 -0.46875602 -0.0065120249
0.049962152 -0.45767489 -0.0059523382
0.05607117 -0.44684353 -0.0067182519
0.060198639 -0.43963677 -0.0078643607
0.064338356 -0.43235669 -0.0087204408
0.068485081 -0.42501214 -0.0092829671
0.074640006 -0.41392624 -0.0090751909
0.080914102 -0.4026818 -0.0091800671
0.083226152 -0.39874122 -0.010365843
0.089707561 -0.38712949 -0.010497308
0.096201845 -0.3753646 -0.0098934239
0.10875062 -0.35512501 -0.022806136
0.11069766 -0.34970403 -0.01192945
0.11779284 -0.33675131 -0.010705849
0.1233127 -0.32702705 -0.011744232
0.12889922 -0.31709641 -0.012292119
0.136724 -0.3027328 -0.010493335
0.14308314 -0.29148456 -0.011430107
0.15022352 -0.2790077 -0.013345775
0.16736735 -0.24813002 -0.012739892
0.17595378 -0.23299354 -0.014288758
0.18760422 -0.21176523 -0.012489603
0.19763306 -0.19398682 -0.013734787
0.2103184 -0.17190661 -0.017608451
0.22572611 -0.14385304 -0.015337978
0.2400481 -0.11850661 -0.017348967
0.24603026 -0.10458652 0.00063440349
0.2825436 -0.042928975 -0.021210009
0.3046689 -0.0036860139 -0.02381712
0.33022419 0.043614496 -0.01567569
0.36682767 0.10803342 -0.022823319
1.1826591 1.4886893 -0.49346253
1.117139 1.3920317 -0.37527293
1.1462908 1.4552336 -0.31370938
1.1314785 1.4434714 -0.22996607
1.0970488 1.3973107 -0.14168575
1.0786234 1.3845968 -0.026678734
1.1452271 1.5148375 0.033960126
1.1410742 1.5211773 0.11190983
1.1351014 1.5242555 0.18988287
1.1302383 1.5293115 0.26778021
1.1192154 1.5232401 0.34525591
1.1160277 1.5313945 0.42367354
1.0838567 1.4933668 0.5350101
1.0932971 1.5250982 0.61861509
1.086679 1.5273436 0.69842714
1.0763462 1.5227789 0.77741933
1.066424 1.5191342 0.8574481
1.0590266 1.5205276 0.94034743
1.0423999 1.5125047 1.0636272
1.0298288 1.5045955 1.1464183
1.114859 1.6898357 1.3310657
1.0992228 1.6782588 1.4242147
1.096993 1.694083 1.5362747
1.082281 1.6855595 1.6373103
1.0580771 1.6696076 1.7926273
1.0544764 1.686098 1.9223598
1.0540028 1.7107409 2.0664597
0.99704629 1.6163087 2.1103566
0.97036433 1.5865605 2.2128255
1.0036021 1.6896975 2.4587038
0.96921748 1.6641834 2.6632357
0.95171732 1.6619674 2.8282104
0.92178911 1.6334474 2.970552
0.84465045 1.4939679 2.9645121
0.76747119 1.35162 2.9426689
0.70018405 1.2309583 2.9430778
0.61455882 1.0858253 2.9911537
0.55415374 0.97859788 2.9976978
0.49897492 0.88427347 3.0241702
0.43928885 0.77516359 3.0127783
0.38596198 0.68341035 3.0349998
0.33426836 0.5962044 3.06636
0.27053437 0.46161631 2.9519956
0.20262933 0.36468178 3.0927944
0.15022601 0.26822609 3.0790625
0.099180222 0.17451927 3.0670998
0.049247675 0.083162867 3.0571318
0.00013647189 -0.0058088056 3.0523131
-0.049579021 -0.089303747 3.0845852
-0.097926542 -0.17815101 3.0727227
-0.172362 -0.30782974 3.0946531
-0.2224564 -0.39536828 3.1079082
-0.27175936 -0.48369563 3.1086762
-0.32238242 -0.57291359 3.1177998
-0.37386817 -0.66345209 3.1282084
-0.42876515 -0.7573036 3.1544907
-0.51053768 -0.9003883 3.1750576
-0.57072318 -1.0024942 3.2083206
-0.58848447 -1.0637007 3.042455
-0.68420064 -1.204375 3.2180977
-0.74519885 -1.311596 3.2306874
-0.80477881 -1.4184545 3.2309394
-0.85236943 -1.5118574 3.185642
-0.95899695 -1.6967065 3.2222261
-1.0283443 -1.8198124 3.2297051
-1.1054676 -1.9546888 3.2495208
-1.0968488 -1.9750019 3.0472393
-1.1548071 -2.0845931 3.0155914
-1.1234854 -2.0693705 2.7839084
-1.1877414 -2.1875134 2.7677968
-1.2866527 -2.3705869 2.7361441
-1.2835408 -2.3918972 2.5840843
-1.121766 -2.1739941 2.1749117
-1.2162098 -2.3377764 2.2070091
-1.1083624 -2.1936781 1.9276297
-1.1766553 -2.3181744 1.9165499
-1.291544 -2.5170498 1.9576453
-0.67491567 -1.6536421 0.58354342
-0.67002493 -1.658535 0.50624138
-0.57749403 -1.5064976 0.42711437
-0.54338521 -1.4911578 0.16772415
-0.53623146 -1.4894837 0.10459276
-0.54001504 -1.5041703 0.059925329
-0.53682697 -1.5061582 0.016328877
-0.50117773 -1.5029514 -0.32730737
-0.12689345 -0.77316922 0.0016371628
-0.11099474 -0.74584442 -0.0051893671
-0.098620519 -0.72359687 -0.0049575707
-0.089290388 -0.70572901 0.0014023605
-0.076538883 -0.68367922 -0.0033205536
-0.070979215 -0.67340058 -0.0016177804
-0.060458779 -0.653862 0.0021037967
-0.051246107 -0.63852561 -0.0046745637
-0.045879185 -0.62817198 -0.00059277209
-0.032198235 -0.60371363 -0.0011361568
-0.023862826 -0.58943558 -0.0049987328
-0.020096036 -0.58218706 -0.0022395132
-0.014249416 -0.57164019 -0.0019404102
-0.0087403292 -0.56175303 -0.0019466912
-0.0015347603 -0.54943407 -0.0054233712
0.0015727005 -0.54329592 -0.0022532202
0.0084278835 -0.53154993 -0.0054147812
0.010944372 -0.52686453 -0.0044626598
0.01353354 -0.52186543 -0.0024746761
0.022264514 -0.50675219 -0.0056368345
