# .PCD v0.7 - Point Cloud Data file format
VERSION 0.7
FIELDS x y z
SIZE 4 4 4
TYPE F F F
COUNT 1 1 1
WIDTH 1342
HEIGHT 1
VIEWPOINT 0 0 0 1 0 0 0
POINTS 1342
DATA ascii
0.13477848 -0.73488492 0.011349825
0.1375912 -0.73411131 0.011872253
0.12961382 -0.72348309 0.011571326
0.13066813 -0.72348505 0.011569921
-0.057545234 -0.71367937 0.011061518
-0.056816157 -0.71367294 0.011054418
0.12407254 -0.71367776 0.011068773
0.12125475 -0.71291554 0.011620162
0.1174569 -0.70321143 0.011512598
-0.029601786 -0.69420677 0.011001601
-0.028806262 -0.69421208 0.011002592
0.11068934 -0.69424587 0.011060515
0.11136213 -0.69423217 0.011041225
0.10851489 -0.69350445 0.011624824
0.11239243 -0.69349569 0.011629588
-0.01576627 -0.68458903 0.011461242
-0.013580186 -0.68462336 0.011488037
0.10240122 -0.68461871 0.011516897
0.10384759 -0.68462431 0.011522539
-0.0015125315 -0.67648584 0.011009273
-0.00016761159 -0.67576981 0.011631254
0.10047888 -0.67580026 0.011673152
0.010452642 -0.66770518 0.011416429
0.093572378 -0.66770124 0.011390463
0.022377508 -0.65971249 0.011464215
0.023100747 -0.65972906 0.011485367
0.086599797 -0.6597423 0.011499531
0.083247215 -0.65243548 0.011081809
0.034989938 -0.65175712 0.011758606
0.035712633 -0.65175825 0.011757788
0.045831181 -0.6445725 0.011635639
0.077590287 -0.64455789 0.011634758
0.055861648 -0.63807732 0.011032892
0.072674938 -0.63808602 0.011046022
0.056849249 -0.63741481 0.011715437
0.13615248 -0.73335326 0.012391513
0.12709069 -0.72274154 0.012120811
0.12890275 -0.72200626 0.012721356
0.1282479 -0.72199231 0.012707161
0.12229891 -0.71216512 0.012183171
-0.053248223 -0.71145177 0.012770898
0.11869001 -0.71145058 0.012789768
0.11306934 -0.70245528 0.012056912
0.11702494 -0.7024672 0.012084269
0.11416496 -0.70171297 0.012626091
0.11556821 -0.70169455 0.012621702
-0.026796738 -0.69205409 0.012819727
0.10593483 -0.692056 0.012847702
0.10957934 -0.69280756 0.012279239
-0.012516762 -0.68391353 0.012106764
-0.011517848 -0.68319535 0.012718643
0.097639367 -0.67508513 0.012270398
0.0012209817 -0.67437142 0.012891193
0.011512694 -0.66701019 0.012047055
0.024188992 -0.65904677 0.012152016
0.086282857 -0.65905344 0.012155043
0.083128452 -0.65109718 0.012428883
0.046867572 -0.64392847 0.012344151
0.076773047 -0.64322746 0.012996117
0.077166669 -0.6438961 0.012319092
0.06620916 -0.63032782 0.012020268
0.067129947 -0.62968695 0.012727105
0.070410073 -0.62969869 0.012756499
0.14195566 -0.74405426 0.013061532
0.14309315 -0.74327785 0.01358037
0.13338169 -0.73183304 0.013488682
0.13514051 -0.73186481 0.013517407
0.12574793 -0.72049177 0.013798451
0.12644675 -0.72050256 0.013807456
-0.054349989 -0.71069807 0.013335907
-0.053644758 -0.71070606 0.013338965
-0.050008647 -0.70997536 0.013926101
0.11653831 -0.70996314 0.013909968
0.12053539 -0.70998263 0.013942152
0.12231122 -0.70997393 0.013930533
-0.040340751 -0.70099133 0.013218898
-0.039305639 -0.70024401 0.013796115
-0.03749653 -0.7002582 0.013799631
0.11515981 -0.70096916 0.013206348
-0.025754824 -0.69132853 0.013417538
-0.024323387 -0.69130611 0.013403546
-0.023557248 -0.69130903 0.01340185
0.10778225 -0.69133604 0.0134345
0.10848586 -0.69132614 0.013413983
-0.010435142 -0.68247783 0.013333621
0.0022532404 -0.67367321 0.013524942
0.01285699 -0.66562432 0.013326129
0.013583241 -0.66562855 0.013330634
0.014290512 -0.66562539 0.013331912
0.09099222 -0.66566855 0.013399363
0.015325174 -0.66492766 0.013972609
0.025505248 -0.65766603 0.013457084
0.085448153 -0.65763879 0.013415596
0.037035778 -0.65040958 0.013096743
0.079951681 -0.65044272 0.01314666
0.080613054 -0.65043384 0.013122292
0.081337981 -0.65042269 0.013112986
0.082417846 -0.65042526 0.013109458
0.038045883 -0.6497367 0.013775517
0.049616586 -0.64326817 0.013038084
0.076118879 -0.64323807 0.013012323
0.048164401 -0.64259917 0.013711619
0.058243625 -0.63609058 0.013093289
0.060700502 -0.63608426 0.013083451
0.070681535 -0.6360659 0.013070432
0.059164096 -0.63543624 0.0137935
0.068202123 -0.62904406 0.01345298
0.070990711 -0.6226638 0.013255689
0.073180161 -0.62267059 0.013286654
0.074633166 -0.62267476 0.013284599
0.13961041 -0.74175102 0.014620778
0.14164756 -0.74175811 0.014635873
0.13628671 -0.73110676 0.014056657
0.13220906 -0.7303021 0.014518097
0.1274772 -0.7197445 0.014352854
-0.051458165 -0.70924306 0.014495653
-0.050453786 -0.70923966 0.014501672
0.12199602 -0.70924252 0.014515158
-0.038238782 -0.69951677 0.014380506
0.1128068 -0.69955981 0.014453119
-0.024660144 -0.69059813 0.01400632
0.099846207 -0.68107283 0.014610064
0.10302063 -0.68105882 0.014571196
0.0036824383 -0.67226565 0.01478099
0.051048685 -0.67221749 0.014725583
0.095446631 -0.67297941 0.01417292
0.096503779 -0.6729902 0.014177231
0.097931243 -0.67227107 0.014794943
0.016335543 -0.66422415 0.014607337
0.017099351 -0.66422826 0.01460816
0.09238416 -0.66495562 0.01401375
0.026504967 -0.65699106 0.014115419
0.087232232 -0.656286 0.014753415
0.039105814 -0.64905918 0.014437167
0.050911833 -0.64192128 0.014377078
0.070597284 -0.63475376 0.014453557
0.075964391 -0.62138849 0.014705424
0.14099298 -0.74022448 0.015667586
0.13058333 -0.72885227 0.015703756
0.13128762 -0.72884429 0.015687902
0.13200024 -0.72881889 0.01563957
0.13368593 -0.7287873 0.01561602
0.12426455 -0.71825761 0.015465247
0.11237734 -0.69880956 0.015007782
0.1142092 -0.69808722 0.015611927
-0.020706965 -0.68914443 0.015202955
-0.021161027 -0.68842202 0.015804222
-0.019715315 -0.68842363 0.015800918
-0.018971907 -0.6884262 0.015796965
0.10090519 -0.68035454 0.015218715
0.10161059 -0.68034321 0.01520376
0.10403807 -0.68034089 0.015194482
0.00474818 -0.6715495 0.015399243
0.018112423 -0.66353512 0.015255344
0.027881946 -0.6556195 0.015424533
0.028644489 -0.65562016 0.015425419
0.040114835 -0.64838398 0.015109732
0.041122369 -0.64770049 0.015773294
0.051929586 -0.64124262 0.015043138
0.05050407 -0.64059752 0.015751243
0.060511909 -0.63411796 0.015173505
0.061527532 -0.63346094 0.015865514
0.069761522 -0.63346988 0.01586777
0.074762993 -0.62076479 0.015434127
0.14483579 -0.75166631 0.016051706
0.13994464 -0.73869884 0.016728437
0.12539627 -0.71751189 0.016027808
0.12608662 -0.71750844 0.016031653
-0.06049281 -0.71676385 0.016569655
0.12247637 -0.71675193 0.016586712
0.1166501 -0.70630085 0.016810263
0.11731519 -0.70630264 0.016828638
-0.034688309 -0.69732523 0.016134776
-0.033596434 -0.69658458 0.0167119
-0.032557752 -0.6965735 0.016706165
0.10554643 -0.68773162 0.016441176
0.097623341 -0.67891651 0.016432144
0.0057303426 -0.67083675 0.016020119
0.093554616 -0.67084026 0.016029116
0.094634824 -0.67086893 0.016074201
0.095725104 -0.67015845 0.016705271
0.029615907 -0.6549328 0.016075969
0.030652082 -0.65424007 0.016725155
0.042170215 -0.64701194 0.016434543
0.05331124 -0.63990146 0.016399425
0.062554002 -0.63279951 0.016532857
0.069408588 -0.63282555 0.016578993
0.077184469 -0.6201005 0.01611851
0.14559929 -0.75013566 0.017091069
0.1455586 -0.74939871 0.017655306
0.093521319 -0.73714846 0.017746354
0.13563763 -0.73793596 0.017252134
0.13746858 -0.73792678 0.017261239
0.14102317 -0.73793691 0.017247295
0.129566 -0.72578275 0.017804751
0.13020395 -0.72579283 0.017814249
0.13103382 -0.72581995 0.017850725
0.12080096 -0.71523523 0.017654823
0.12437615 -0.71599275 0.017139876
-0.046859968 -0.70552069 0.017336408
0.11629277 -0.70555925 0.017387236
0.1190298 -0.70552087 0.017323941
-0.045768671 -0.70478803 0.017913653
-0.044989999 -0.70479178 0.01791211
0.0002338956 -0.70480162 0.01792665
0.11872596 -0.70478731 0.017917309
-0.029672245 -0.69512224 0.017884299
0.108105 -0.69589984 0.017387003
0.11122193 -0.6958515 0.017309906
0.10520718 -0.68700552 0.017029095
0.10299774 -0.68628645 0.017647872
0.10692641 -0.6862874 0.0176434
0.10735584 -0.68699968 0.017051099
0.10852567 -0.68663549 0.017342482
0.099390209 -0.67819643 0.017032409
0.0071725375 -0.66942221 0.017271515
0.0089117391 -0.66871274 0.017895918
0.020147389 -0.6607495 0.017818209
0.0892919 -0.66074002 0.017811032
0.031675771 -0.653543 0.017370632
0.03234813 -0.65352106 0.017351445
0.08375565 -0.65351707 0.017325113
0.084538341 -0.6535179 0.01733302
0.033357609 -0.65282953 0.017997706
0.083447054 -0.65282619 0.017979553
0.085483842 -0.65281469 0.0179771
0.081389211 -0.64638036 0.017145777
0.043511242 -0.64567262 0.017770963
0.078855798 -0.6456632 0.017749809
0.079652347 -0.64565325 0.017733896
0.081031725 -0.64569539 0.017792877
0.077531815 -0.63922971 0.017077452
0.054594044 -0.6385656 0.01775795
0.074613139 -0.63858151 0.017780174
0.076396599 -0.63858712 0.017784279
0.063540719 -0.63214839 0.017232727
0.066798061 -0.63216805 0.017276585
0.067489319 -0.63217384 0.017284572
0.064612292 -0.63150644 0.017945623
0.078445122 -0.61880916 0.017531356
0.14632131 -0.74861246 0.018153561
0.091466635 -0.74782932 0.018634723
0.095346898 -0.74780333 0.018586406
0.10042812 -0.74782181 0.018624473
0.14485632 -0.74789804 0.01872726
0.138928 -0.73639578 0.018323969
0.13501711 -0.73560733 0.018806618
0.13746631 -0.73563594 0.018816777
-0.059069891 -0.71452028 0.018239234
-0.057669189 -0.71450251 0.018227635
0.12186845 -0.71449 0.018230947
0.12429894 -0.7145046 0.018260131
-0.059389297 -0.71377575 0.018798413
-0.058007229 -0.71376449 0.018791417
0.1236106 -0.71375996 0.018806629
-0.043608062 -0.70405066 0.018480681
0.0027182277 -0.70405382 0.018491611
-0.030062694 -0.69438452 0.018463677
0.10949261 -0.69443065 0.018544199
0.11019677 -0.69441122 0.018497303
-0.017282855 -0.68552917 0.018189166
-0.016558833 -0.68551791 0.018182885
0.10410251 -0.68556601 0.018253993
-0.015539561 -0.68481648 0.018800784
0.10518385 -0.68483871 0.018848261
-0.0045327102 -0.67676306 0.01824202
-0.0034333821 -0.67675275 0.018228222
-0.0020229567 -0.67603534 0.018837398
-0.001357702 -0.67602277 0.018836144
0.049314409 -0.67601001 0.018809481
0.096826151 -0.67674327 0.018213326
0.097510457 -0.67674702 0.018216841
0.098655723 -0.67605239 0.018866891
0.10084099 -0.67677301 0.018256964
0.0099465428 -0.6680057 0.018507138
0.021180715 -0.66005206 0.018451376
0.034452144 -0.6521427 0.01864762
0.083004817 -0.6521436 0.018637067
0.044534512 -0.64500082 0.018433621
0.047016311 -0.64502949 0.018463492
0.078480266 -0.64499438 0.018443312
0.055611402 -0.63789266 0.018426824
0.073816799 -0.63790745 0.018448956
0.095063545 -0.74703848 0.019121498
0.1440459 -0.74707121 0.019169608
0.14711581 -0.74704659 0.019131981
0.087904587 -0.74627221 0.019626843
0.10010694 -0.74628717 0.019658269
0.14139917 -0.74627155 0.019648874
0.14304848 -0.74627316 0.019644784
0.093994386 -0.73487294 0.019354129
0.13601026 -0.73484993 0.019334873
0.12880431 -0.72353125 0.01945336
0.12596527 -0.72277838 0.019987779
-0.004093702 -0.71302748 0.019369736
0.12078846 -0.71298659 0.019325994
0.0023619572 -0.70332295 0.019066619
0.0048004631 -0.70253837 0.019605653
0.11585874 -0.70258248 0.019653935
0.11123481 -0.69366598 0.019078813
0.10767522 -0.6929338 0.019641042
-0.014436124 -0.6841076 0.019410988
-0.013706269 -0.68411148 0.019413345
0.10226579 -0.68410838 0.019446274
0.096448362 -0.67533398 0.019468902
0.099611677 -0.67534131 0.019491246
0.091643929 -0.66730529 0.019145446
0.092291899 -0.66730374 0.019127054
0.093396872 -0.66729903 0.019124776
0.049500316 -0.66663146 0.019803274
0.022177564 -0.65936208 0.01909939
0.087834455 -0.6593228 0.019071378
0.08844877 -0.65932292 0.019062024
0.023236834 -0.65868354 0.019761169
0.086413607 -0.65868473 0.019767461
0.087447897 -0.65865844 0.019743515
0.035461597 -0.65145993 0.019305743
0.082972109 -0.6507749 0.019949995
0.077380255 -0.64431149 0.019102057
0.078028657 -0.64431232 0.019106179
0.045903597 -0.64366406 0.019784018
0.076926149 -0.64363956 0.019761229
0.073444135 -0.63723665 0.019122044
0.072670057 -0.63656515 0.019796204
0.065887086 -0.63019252 0.019329237
0.080039628 -0.61688334 0.019669309
0.08397527 -0.75693589 0.020791514
0.095123522 -0.74553335 0.020199832
0.091495954 -0.74470872 0.020632217
0.0948378 -0.74476135 0.020694086
0.14436145 -0.74474311 0.020683995
0.14574897 -0.74478161 0.0207431
0.13296254 -0.73258859 0.020969095
0.13540776 -0.73258871 0.02094721
0.12886211 -0.7220242 0.020550683
0.13026799 -0.72201228 0.020522375
0.13318554 -0.72281009 0.020047635
-0.055128559 -0.71151054 0.020456888
-0.054395281 -0.71151501 0.020457655
0.12219608 -0.71148926 0.020432288
-0.038663834 -0.70108813 0.020747248
0.11267193 -0.70110363 0.020787627
0.11544783 -0.70181143 0.020174334
0.11693073 -0.70184821 0.020226311
0.11807191 -0.70111841 0.020811616
0.10874043 -0.69222724 0.02027734
0.10950171 -0.69224077 0.020308428
-0.026913889 -0.69146901 0.020817472
-0.024405394 -0.69145298 0.020809494
0.1105333 -0.69151413 0.020899633
-0.012674017 -0.68339294 0.020013612
-0.011639117 -0.68266237 0.020611679
0.10365266 -0.68266124 0.020647908
6.1082101e-05 -0.67460132 0.020068025
0.050705653 -0.67460358 0.020059839
0.0010976839 -0.67389607 0.020685522
0.097792678 -0.67389059 0.020670535
0.012350061 -0.66590357 0.020390598
0.024286449 -0.65798438 0.020412313
0.036831398 -0.65008682 0.020612443
0.081106447 -0.65010214 0.020622971
0.049335565 -0.64299864 0.020469703
0.057227302 -0.63588047 0.020454783
0.071529701 -0.6358692 0.020442439
0.081914552 -0.75619918 0.021331256
0.083985798 -0.75538737 0.021786179
0.088842027 -0.74320769 0.021710867
0.09077768 -0.74393159 0.021147724
0.14160366 -0.74322063 0.021739092
0.14352611 -0.74396265 0.021175668
0.13253708 -0.73103619 0.021976681
0.13403253 -0.73183435 0.021490445
0.13654692 -0.73180079 0.021456525
0.1274191 -0.72126245 0.021074021
0.12464359 -0.72050202 0.021617051
0.12853026 -0.72050875 0.021642881
-0.050471991 -0.7100172 0.021580145
-0.039397273 -0.70033967 0.021317052
-0.037589457 -0.70035481 0.021324238
0.11438955 -0.70034194 0.021323605
0.11165898 -0.69963264 0.021942135
-0.025487144 -0.69073033 0.021400975
-0.01053845 -0.68194318 0.021218084
-0.0095521174 -0.68121141 0.021816723
-0.0084357914 -0.68121755 0.021818751
0.10082097 -0.68192297 0.021205183
0.10153415 -0.68193817 0.021220868
0.047109246 -0.67317528 0.021280611
0.049214911 -0.67313617 0.021248404
0.094952725 -0.67320007 0.021324232
0.095660217 -0.67320448 0.021330195
0.096428439 -0.67320412 0.021326223
0.0025158946 -0.67247391 0.021916473
0.048878942 -0.67242861 0.021861568
0.05531143 -0.67248219 0.02193635
0.059617825 -0.67245698 0.021902706
0.062071335 -0.67244601 0.021905698
0.094578147 -0.67248273 0.021954341
0.013389163 -0.66519666 0.021018391
0.090145648 -0.66522801 0.02107635
0.014445578 -0.66448814 0.021642143
0.087605469 -0.66447788 0.021635886
0.088630259 -0.66448283 0.021624081
0.089702472 -0.66450334 0.021671625
0.091883138 -0.66451448 0.021690704
0.025298256 -0.65729141 0.02105462
0.083828881 -0.65653616 0.021627957
0.077872075 -0.64940763 0.021259131
0.080367148 -0.64942229 0.021288889
0.047558494 -0.64232463 0.021132514
0.076506495 -0.64228868 0.021101084
0.050706968 -0.64163035 0.021782674
0.073642001 -0.6416325 0.021796418
0.075025074 -0.64162964 0.021782905
0.070706829 -0.63519037 0.021111742
0.05922839 -0.63454038 0.021818664
0.086937591 -0.75464576 0.022332553
0.082414284 -0.75388175 0.022847097
0.08887513 -0.7416814 0.022754868
0.091241084 -0.74163681 0.022689648
0.14023407 -0.74167597 0.022751492
0.13512515 -0.73107564 0.022035254
0.13112898 -0.73027295 0.022469772
0.12572265 -0.71975058 0.022154924
0.12635447 -0.71975088 0.022144778
-0.051548153 -0.70928508 0.022145521
0.00053188991 -0.70925504 0.022126088
0.11789174 -0.7092638 0.022136658
-0.051871058 -0.70853788 0.02269662
-0.0062245335 -0.70850492 0.022656521
-0.0055574793 -0.70850813 0.022664988
0.00016847538 -0.70852149 0.022695614
0.0015123519 -0.70848447 0.022660792
0.11763914 -0.70850241 0.022661613
0.11935152 -0.70852751 0.022708196
0.12046709 -0.70853674 0.022709137
0.12118474 -0.70853859 0.022721015
0.10981461 -0.69885266 0.022457827
0.11272828 -0.69890285 0.022529818
0.11438578 -0.69886994 0.022474444
0.10725404 -0.69001883 0.022026584
0.1080369 -0.69001549 0.022005614
-0.021204557 -0.68926233 0.022564966
-0.020491323 -0.68926579 0.022566009
0.10904887 -0.68927151 0.022568364
0.10290526 -0.68050146 0.022429831
0.0035926187 -0.67175323 0.022522299
0.0059996792 -0.67172861 0.022509247
0.015461659 -0.66377503 0.022262832
0.016489157 -0.66306978 0.022889707
0.091556549 -0.66382283 0.022335866
0.027431969 -0.65590984 0.022342568
0.028454548 -0.65520722 0.02297307
0.029125853 -0.65520483 0.02297019
0.084791332 -0.65585536 0.022277717
0.085566312 -0.65586674 0.022288069
0.038463928 -0.64803284 0.022581162
0.039225586 -0.64802969 0.022578703
0.060284063 -0.63387662 0.022497404
0.061010189 -0.63386971 0.022478571
0.069907509 -0.63386196 0.022467414
0.070690706 -0.63385642 0.022470582
0.084498279 -0.75306934 0.023284106
0.090255655 -0.75310665 0.023349326
0.089957282 -0.7523278 0.023840075
0.08891812 -0.74012959 0.023762979
0.13696131 -0.74089199 0.023245504
0.14127158 -0.74090296 0.023267467
0.13447993 -0.72875863 0.023587223
0.12354457 -0.71824062 0.023228321
0.12783577 -0.71823931 0.023236711
-0.050109066 -0.70778728 0.023260303
-0.00338404 -0.70702201 0.023810375
-0.0023234056 -0.7077843 0.023258008
-0.00086619385 -0.70778507 0.023256462
0.0030250973 -0.70699292 0.023770336
0.0062745693 -0.69812655 0.02305185
-0.035120107 -0.69738334 0.02360245
-0.034336641 -0.69737643 0.023592044
0.11157019 -0.69738823 0.023617599
-0.021534562 -0.68852961 0.023148371
0.10372975 -0.68782848 0.023768105
0.099733755 -0.67906094 0.023648391
0.10396913 -0.67976809 0.023033943
0.0045994348 -0.67103213 0.023132591
0.053794384 -0.67104149 0.023133397
0.0056136902 -0.67031461 0.02374216
0.017597469 -0.66236848 0.023520241
0.018266927 -0.6623702 0.023529574
0.087108731 -0.66234028 0.023501128
0.040604256 -0.64734042 0.023236934
0.04202991 -0.64665294 0.02389048
0.050592359 -0.63961446 0.023804568
0.052330762 -0.63959354 0.023777964
0.064873785 -0.63256484 0.023869893
0.069796875 -0.63254452 0.023846446
0.094882049 -0.75151849 0.024313964
0.1430089 -0.75160605 0.024417076
0.14409113 -0.75151753 0.024298117
0.09390837 -0.75072539 0.024766775
0.094515473 -0.75073409 0.024798073
0.1384954 -0.73935479 0.024272099
0.14032143 -0.73934793 0.024261305
0.13056444 -0.72803319 0.024151474
0.091945395 -0.72797757 0.024074333
0.094094314 -0.72798103 0.024060689
0.13295092 -0.72796834 0.024050962
0.12074908 -0.71673155 0.024317119
0.12570047 -0.7159794 0.024865815
0.12647341 -0.71597385 0.024875648
-0.0023354222 -0.70627785 0.024369571
0.00052924594 -0.70628673 0.024366423
-0.0033739884 -0.70553488 0.024913406
-0.033349756 -0.69662637 0.024163937
-0.032622017 -0.69662511 0.024157681
0.10972751 -0.69663477 0.024169967
0.11090441 -0.69589931 0.024758315
0.11154956 -0.69589937 0.024737824
0.10546104 -0.6871025 0.024368759
0.10688981 -0.68708205 0.024361195
-0.0070907669 -0.67832232 0.024210272
0.10080101 -0.67834681 0.024255926
0.10146685 -0.67834055 0.024246594
-0.0059774537 -0.67760205 0.024817085
0.0067078811 -0.66958725 0.024347814
0.0092440275 -0.66959035 0.024325185
0.053797089 -0.6696133 0.024365684
0.055212926 -0.66961771 0.024372073
0.04981976 -0.66886783 0.024936697
0.062350344 -0.66888112 0.024959452
0.093445063 -0.66888249 0.024970172
0.094463468 -0.66890025 0.02499632
0.019673811 -0.66095829 0.024781873
0.030505912 -0.65380603 0.024249099
0.031558063 -0.65309602 0.024875481
0.080133341 -0.6537993 0.024231967
0.053431679 -0.63890779 0.024437962
0.062623248 -0.63186604 0.024499614
0.068748474 -0.63189918 0.024556136
0.069444008 -0.63189501 0.024544252
0.08362975 -0.75000137 0.025346065
0.1434097 -0.75005466 0.025413172
0.14457572 -0.75001466 0.025382141
0.088356249 -0.74956059 0.025528286
0.090779439 -0.74921817 0.025834601
0.14486404 -0.74998164 0.025321182
0.14517058 -0.74922067 0.025870979
0.13495025 -0.7370438 0.02580836
0.13668986 -0.737037 0.025804218
0.13815802 -0.73781562 0.025311923
0.13237809 -0.72572368 0.025702979
0.12285765 -0.71521044 0.025408765
-0.05944743 -0.71446627 0.025932048
-0.058371797 -0.71445394 0.025926756
0.12147157 -0.71445769 0.025941992
-0.046502389 -0.70478106 0.02547187
0.11266256 -0.69516832 0.025328906
-0.030383639 -0.69441563 0.025872152
-0.029768862 -0.69441921 0.025881521
0.10546143 -0.68563956 0.025531746
0.10689146 -0.68563545 0.025545159
-0.0031701098 -0.67614251 0.025996672
-0.0024212948 -0.6761384 0.025997793
0.098928913 -0.67688221 0.025432931
0.095242485 -0.66891491 0.025021097
0.080072887 -0.65240473 0.02551046
0.043329194 -0.64528602 0.025188543
0.080501951 -0.64530557 0.025213726
0.08162035 -0.64531058 0.025232188
0.044415221 -0.6446051 0.02584072
0.046910957 -0.64463961 0.025883306
0.079018459 -0.64458537 0.025814675
0.074072175 -0.63824946 0.025130052
0.056502987 -0.63754237 0.025756104
0.066534489 -0.63122785 0.025238086
0.067557357 -0.6312359 0.025241811
0.068347432 -0.63123536 0.025241505
0.14355497 -0.7484839 0.026397131
0.14564382 -0.74841976 0.026307218
0.14528373 -0.74770433 0.026890235
0.1460312 -0.74764001 0.026801767
0.090034999 -0.73625886 0.026303291
0.13785817 -0.73626357 0.026331384
0.13643013 -0.73550409 0.026823923
0.094924279 -0.72492087 0.026167346
0.12954359 -0.72493804 0.026201887
0.13060372 -0.72418934 0.026745195
-0.0013806714 -0.71366268 0.026446942
-0.047277912 -0.70402455 0.02602757
-0.045070142 -0.70403397 0.026029222
-0.044379283 -0.70403308 0.026022788
0.11796954 -0.70404983 0.026052188
-0.043260861 -0.70328915 0.026575267
-0.042603411 -0.7032842 0.026570743
0.11698753 -0.70331359 0.026625419
0.11767314 -0.70331633 0.026632007
0.0048266007 -0.69369781 0.026486998
-0.017358227 -0.68486607 0.026061853
-0.016250838 -0.68413687 0.026647642
-0.01552764 -0.6841594 0.026668666
0.10260344 -0.68490797 0.026133787
0.10328726 -0.68490583 0.02612442
0.10442251 -0.68417102 0.026711302
0.099978715 -0.67616564 0.026026784
0.068596393 -0.67540574 0.026577629
0.069266401 -0.67540079 0.026571089
0.0091438619 -0.66744536 0.026180111
0.049158767 -0.66747326 0.026203895
0.056963168 -0.66747528 0.026209909
0.010216899 -0.66673267 0.026783686
0.061245572 -0.66674727 0.026811028
0.021034634 -0.65954947 0.026032023
0.0242629 -0.65957707 0.026071701
0.090247989 -0.65954024 0.026012719
0.022088952 -0.65886015 0.026679648
0.032834068 -0.65168518 0.026135644
0.084987916 -0.65168071 0.02611991
0.033940271 -0.65098864 0.026771367
0.055017553 -0.63687396 0.026428267
0.073980741 -0.63688701 0.026445923
0.079840399 -0.61733598 0.026071457
0.077963948 -0.75909406 0.027704008
0.080329753 -0.75906754 0.027664566
0.14263093 -0.74608862 0.027810587
0.14307465 -0.74687529 0.027315015
0.14476234 -0.74694133 0.027399281
0.097567469 -0.73395246 0.027858457
0.13538402 -0.73392558 0.02782747
0.1295542 -0.72341335 0.027265066
0.13176285 -0.72345096 0.027311724
0.12739751 -0.72267163 0.027823219
0.12152125 -0.71292591 0.027002078
0.1246795 -0.71294057 0.027048299
0.11327246 -0.70251542 0.027123125
0.1144127 -0.70176363 0.027669402
0.0066913064 -0.69296503 0.02706179
0.10982303 -0.69296789 0.027071575
-0.014470883 -0.68343681 0.027258975
-0.013395226 -0.68270963 0.027849913
-0.012734031 -0.68270588 0.027848937
0.10257774 -0.68269384 0.027873741
-0.0010942771 -0.67468369 0.027190911
0.09740667 -0.67469317 0.027190207
0.098159246 -0.67469776 0.027200941
-2.4055902e-05 -0.6739729 0.027796939
0.096061364 -0.6739825 0.02781401
0.091865085 -0.6660257 0.027404513
0.089447342 -0.65811944 0.027273616
0.084863454 -0.65742552 0.027911546
0.08625228 -0.6574623 0.027946683
0.08766102 -0.657417 0.027908644
0.03498802 -0.65029359 0.027410502
0.082834616 -0.65029383 0.027400717
0.084248662 -0.65028954 0.02739324
0.045782726 -0.6432544 0.027176367
0.078950778 -0.64321649 0.027141893
0.046787333 -0.64257312 0.027838912
0.073575117 -0.64256501 0.027833575
0.077845596 -0.6425246 0.027802944
0.056417145 -0.63618761 0.027082715
0.072812676 -0.6362043 0.027100554
0.073556833 -0.63620943 0.027113134
0.071723253 -0.63551658 0.027758451
0.072453044 -0.63552755 0.027773663
0.065958463 -0.62922597 0.027252084
0.14080611 -0.74530864 0.028317438
0.14438695 -0.74534243 0.028350569
0.13441552 -0.73242772 0.028907301
0.095641971 -0.72186828 0.028284572
0.12634121 -0.72113162 0.028832654
0.12886322 -0.72112745 0.028852105
0.12958828 -0.72112292 0.028827189
-0.054748107 -0.71143562 0.028096972
0.11975388 -0.71144605 0.028130284
0.12046579 -0.71141917 0.02808786
0.12152142 -0.71065313 0.028622031
0.11167499 -0.70106208 0.028286636
0.11549641 -0.70104241 0.028259633
0.11660396 -0.701065 0.028287165
-0.040804952 -0.70028347 0.028793724
-0.038631275 -0.70029885 0.028796773
-0.037878953 -0.70029831 0.028793586
0.11261983 -0.70029944 0.028809713
-0.025086412 -0.69144541 0.02815876
-0.024389703 -0.69145167 0.028162917
0.010837427 -0.69143921 0.028162252
0.10474882 -0.69146764 0.028203586
0.10801739 -0.69147062 0.028179074
0.1112082 -0.69147468 0.028194198
-0.026926836 -0.69072455 0.028745459
-0.025496898 -0.69070244 0.028731378
0.10909292 -0.69075602 0.028805049
-0.011639152 -0.68197095 0.028436126
0.0010213979 -0.67325705 0.028403286
0.012312816 -0.66531461 0.028013283
0.013020131 -0.66531134 0.028014524
0.091528907 -0.6653102 0.028022856
0.014067254 -0.66459543 0.028628131
0.085947506 -0.65675503 0.028575599
0.087273844 -0.65673113 0.028545899
0.088653691 -0.65669119 0.02851256
0.036012586 -0.64960331 0.02805694
0.083833471 -0.64959943 0.028039029
0.037409455 -0.64891142 0.028707184
0.077447601 -0.64184242 0.028452311
0.058061425 -0.63483149 0.028420882
0.071322493 -0.63481843 0.028401453
0.068064079 -0.62789017 0.028632849
0.13983771 -0.74377006 0.029324966
0.14088878 -0.74300069 0.029825693
0.14222288 -0.74374634 0.029284379
0.14435691 -0.74376279 0.029304849
0.1432506 -0.74297053 0.029781487
0.11015302 -0.73083729 0.029858302
0.13581392 -0.73086691 0.029890234
0.12788181 -0.71960336 0.029917091
-0.054765053 -0.70991838 0.029178213
-0.052549094 -0.70918339 0.029741239
0.09191893 -0.70992857 0.029198773
0.12300661 -0.70914632 0.029701332
-0.0389967 -0.69954914 0.029354535
0.1137277 -0.69954109 0.029350501
0.10655171 -0.68925506 0.029923471
-0.010616097 -0.68123811 0.029023737
-0.0098852636 -0.681234 0.029023819
0.10042461 -0.68122905 0.029015688
0.10435446 -0.68051016 0.029633548
0.044166382 -0.67254061 0.029014211
0.0024756235 -0.6718142 0.029604468
0.0056092357 -0.6717869 0.029589701
0.046707902 -0.67181247 0.029592888
0.01509024 -0.66387391 0.029235842
0.088604704 -0.66316319 0.029838536
0.089507654 -0.6635372 0.029567014
0.090735994 -0.66320997 0.029920453
0.08369372 -0.65599537 0.029143983
0.084782884 -0.65530282 0.029782988
0.080601349 -0.64822912 0.029357569
0.081662774 -0.64822668 0.029349005
0.08242508 -0.64822614 0.029349962
0.039131019 -0.6475209 0.029991183
0.07774286 -0.64751238 0.029963672
0.049867678 -0.64118856 0.029131647
0.07349433 -0.64119399 0.029149491
0.075683832 -0.6411705 0.029124819
0.049167357 -0.64051324 0.029800996
0.073105954 -0.64050215 0.029800424
0.075230703 -0.64048707 0.029776299
0.061924949 -0.63348842 0.029745953
0.13737206 -0.74143833 0.030801507
0.13914841 -0.74143559 0.030782714
0.14242099 -0.74143219 0.030812195
0.13188505 -0.73007327 0.030399604
0.13379392 -0.73010761 0.030431859
0.12556826 -0.71845937 0.0306908
-0.05155094 -0.70841962 0.030283185
-0.050750833 -0.70841563 0.030278465
-0.0070383223 -0.67976975 0.030185871
-0.0062685916 -0.67976505 0.030178143
0.10218972 -0.67978549 0.030203033
0.0035527006 -0.67108065 0.03019529
0.094547868 -0.67109668 0.030232187
0.095581375 -0.67110366 0.030222459
0.098806478 -0.67107427 0.030177688
0.0045474237 -0.67035049 0.030788753
0.039879214 -0.67033899 0.030763142
0.048771925 -0.6703285 0.030749716
0.050562151 -0.67032111 0.030751098
0.051671449 -0.67034459 0.030774228
0.053458504 -0.67036641 0.03080124
0.054515712 -0.67036927 0.030808376
0.068083555 -0.67035586 0.030792817
0.07525339 -0.6703124 0.030748745
0.027709566 -0.65464008 0.030459628
0.028362803 -0.65463984 0.030457089
0.083639771 -0.65458059 0.030404063
0.051217359 -0.63980401 0.030425072
0.063014142 -0.63281375 0.030418707
0.070812292 -0.63277209 0.030388135
0.14027184 -0.74066269 0.031311478
0.13896079 -0.73987693 0.031792954
0.14133961 -0.73988205 0.031807177
0.13520177 -0.72857749 0.031469584
0.13129918 -0.72777855 0.031918995
0.13382228 -0.72777563 0.031953432
-0.062269915 -0.71732181 0.031465992
0.095454358 -0.71733242 0.031513378
0.096159942 -0.71731418 0.031466775
0.11653186 -0.70689172 0.031346362
0.11730886 -0.70688242 0.031321712
0.11852219 -0.70651102 0.031623267
0.11939503 -0.70689929 0.031367969
0.12052812 -0.70691073 0.031378519
0.11545838 -0.69728529 0.031015329
-0.033647932 -0.6965279 0.031559121
0.1127653 -0.69659019 0.031648323
-0.021488035 -0.68775111 0.031017324
-0.020468071 -0.68775475 0.03101423
0.10838863 -0.68703216 0.031616732
-0.0073825298 -0.67831695 0.031366922
0.069985814 -0.67826337 0.031318653
-0.0063387016 -0.67758203 0.031951994
-0.0055941716 -0.67757404 0.031939466
0.099369675 -0.67759091 0.031976212
0.10042475 -0.67760217 0.031994831
0.10149084 -0.6775893 0.031977721
0.032762822 -0.66966271 0.031426184
0.038072698 -0.66962403 0.031380776
0.040918346 -0.66961432 0.031346291
0.04347562 -0.66964614 0.031396504
0.065995596 -0.66964072 0.031393271
0.074188136 -0.66961664 0.031366106
0.097046748 -0.66966861 0.031427823
0.0060144844 -0.66890079 0.031985268
0.036640882 -0.66891074 0.031989656
0.041969571 -0.66891223 0.031972568
0.048739858 -0.66890091 0.031969413
0.053122211 -0.66891271 0.031991199
0.069504559 -0.6689105 0.031989157
0.017555593 -0.66173804 0.031082625
0.021145791 -0.66104615 0.031731036
0.088228963 -0.6610148 0.031697907
0.092149779 -0.66177398 0.031130772
0.086707778 -0.66098928 0.031665251
0.03044899 -0.65321296 0.031698436
0.031120799 -0.65319109 0.03167922
0.057520028 -0.65319699 0.031665459
0.082547449 -0.65389353 0.031020207
0.086156897 -0.65389538 0.031036036
0.041211866 -0.64611131 0.031263445
0.076168276 -0.64612222 0.031269718
0.042254072 -0.64543056 0.031907372
0.052307311 -0.6391114 0.031076493
0.0532979 -0.63842398 0.031730134
0.061505921 -0.63211668 0.031058492
0.062194213 -0.63212323 0.031066848
0.070443466 -0.63209796 0.031054197
0.070012093 -0.63143367 0.031731058
0.12568371 -0.75042433 0.032974906
0.12748665 -0.75046086 0.032996476
0.13780324 -0.73831266 0.032771986
0.13229488 -0.72698635 0.032411415
0.12293879 -0.71654403 0.032005507
0.12358373 -0.71655548 0.03200186
-0.047532417 -0.70538479 0.032437868
-0.046100497 -0.70538616 0.032437243
-0.046386212 -0.70463306 0.032978464
0.096570782 -0.70462316 0.03299024
0.11799111 -0.70462167 0.032961145
-0.032561928 -0.69578791 0.032116845
-0.031828277 -0.69504237 0.032676727
-0.030425813 -0.69505596 0.032694496
0.11092951 -0.69504321 0.032685656
0.11159246 -0.6950506 0.03268823
0.11234877 -0.69582421 0.032174628
0.11383015 -0.69583309 0.032193594
0.014109813 -0.68626374 0.032155827
-0.01765316 -0.68553114 0.032724045
0.084056526 -0.68554074 0.032752182
0.10722516 -0.68554872 0.032767367
-0.0038166563 -0.6768378 0.032519616
0.0077659641 -0.66817373 0.032582186
0.0084697325 -0.6681726 0.032566972
0.0095397551 -0.66817999 0.032563519
0.040541299 -0.66817516 0.032575812
0.045554556 -0.6689226 0.032013141
0.047379211 -0.66820329 0.032604773
0.055963375 -0.66892844 0.032011785
0.057407007 -0.66856492 0.032320507
0.058471814 -0.66893125 0.032016639
0.091585636 -0.66816622 0.032545187
0.095240459 -0.66820675 0.032644324
0.020346574 -0.6603142 0.032313023
0.022162095 -0.66032493 0.032342628
0.053978469 -0.65250856 0.032326683
0.032475341 -0.65177602 0.032925334
0.033251282 -0.65177637 0.032922164
0.080724366 -0.65179235 0.032923937
0.043291382 -0.64473999 0.032543808
0.080099694 -0.6447565 0.032569319
0.054328594 -0.63773197 0.032373175
0.068871312 -0.63701469 0.032990519
0.065359108 -0.63079184 0.032441825
0.14461815 -0.74888182 0.033965848
0.13751695 -0.73676378 0.033802941
0.13933921 -0.73676705 0.033781469
0.13031006 -0.72627574 0.033025291
-0.061371285 -0.72547597 0.033482227
0.12966941 -0.72549593 0.033516824
0.12858133 -0.72468889 0.033983432
0.12509951 -0.71503115 0.033062652
0.095957994 -0.70463032 0.033003692
-0.044619229 -0.70387739 0.033514861
-0.043947332 -0.70387805 0.033510923
-0.033967346 -0.7038604 0.033495963
0.095553912 -0.70388585 0.033539485
0.10957884 -0.70389235 0.03355255
0.11447868 -0.70389193 0.033551175
0.11769762 -0.70387191 0.033525627
-0.030726571 -0.69430065 0.0332391
-0.026472608 -0.69429296 0.033238146
-0.028253376 -0.69355106 0.033796065
0.10915421 -0.6935721 0.033823542
0.11052637 -0.69355178 0.033810809
-0.015478225 -0.68407834 0.033887707
-0.014424797 -0.68408471 0.03389015
0.0080966959 -0.68407696 0.033904742
0.10413601 -0.68445152 0.033629306
0.10551552 -0.68408245 0.033906266
-0.0024306434 -0.67609692 0.033106431
0.095013194 -0.67611295 0.033114403
0.097528182 -0.67612815 0.033150628
0.098182753 -0.67612141 0.033143524
-0.001009186 -0.67537814 0.033699386
0.00047328777 -0.67537892 0.033697572
0.080361113 -0.67535782 0.033668429
0.099307843 -0.67539114 0.033723164
0.058439959 -0.66748714 0.033224612
0.091221161 -0.66744608 0.033149559
0.092701308 -0.66745329 0.033167806
0.093406789 -0.66746008 0.033191066
0.094087169 -0.66746205 0.033196878
0.036645968 -0.66674483 0.033791788
0.060591504 -0.66674459 0.033797268
0.061631102 -0.66673249 0.033781506
0.06377092 -0.66672051 0.033781413
0.065197229 -0.66672659 0.033773519
0.083321802 -0.66669816 0.033741083
0.021756239 -0.65890294 0.033560541
0.022479558 -0.65889949 0.033571605
0.023527181 -0.658907 0.033574134
0.03819377 -0.65892315 0.033585757
0.034273762 -0.65107512 0.033553634
0.035006467 -0.65107614 0.033554148
0.042882554 -0.65111977 0.033599164
0.052521184 -0.65109521 0.033553779
0.053151373 -0.6511007 0.033557009
0.080011152 -0.65109253 0.033565335
0.082896039 -0.65106791 0.033533759
0.046298869 -0.64407617 0.033218727
0.074334584 -0.64403677 0.033183523
0.075032927 -0.64403749 0.033185396
0.079367921 -0.6440298 0.033161111
0.045368727 -0.64337945 0.033855021
0.057125989 -0.64335865 0.033821277
0.057129797 -0.63703442 0.033019241
0.05821529 -0.63702881 0.033004072
0.074294806 -0.63706648 0.033063941
0.055666316 -0.63634902 0.033670414
0.059938002 -0.63636249 0.033668354
0.060715206 -0.63636541 0.033674929
0.072492249 -0.63636941 0.033695642
0.073170438 -0.63637227 0.033701483
0.065998241 -0.63011181 0.033107545
0.067807987 -0.63012135 0.033115875
0.069620028 -0.63010311 0.033093255
0.067389004 -0.62943757 0.033783067
0.068844013 -0.62944275 0.033781018
0.14213125 -0.74892181 0.034031205
0.14345253 -0.74856359 0.034301147
0.14459595 -0.74813813 0.034516651
0.14502166 -0.74809796 0.034448694
0.13653812 -0.74732733 0.03495723
0.13838574 -0.74733204 0.034966137
0.14152226 -0.74731481 0.03493635
0.14532094 -0.74732316 0.034958161
0.12788807 -0.73516685 0.034716103
0.13430822 -0.73517966 0.034746468
0.13575265 -0.73597986 0.034258001
0.13608381 -0.73597962 0.034261785
-0.053486433 -0.7239176 0.034473792
0.12709516 -0.72393322 0.034518193
0.12174229 -0.71350074 0.034109436
0.12330093 -0.71348858 0.034123573
-0.057571631 -0.71271753 0.034618281
0.12293791 -0.71272933 0.034647107
-0.042178463 -0.70311058 0.034044459
0.094547905 -0.70312685 0.034066297
0.10166931 -0.70314217 0.034108724
0.11598744 -0.70314789 0.034108419
0.11670078 -0.70314968 0.034102418
-0.03818905 -0.70234925 0.034575287
-0.027542893 -0.70232821 0.034561969
0.099552445 -0.70236182 0.034607746
0.10633942 -0.7023508 0.034599844
0.1119608 -0.70235443 0.034590691
-0.026875505 -0.69278967 0.034350228
-0.025734285 -0.69204885 0.034910183
-0.024652548 -0.69204849 0.034907047
-0.021470383 -0.69204456 0.034895655
0.094871119 -0.69208229 0.03494126
0.09518785 -0.69282568 0.034394879
0.10237264 -0.69207937 0.034963712
0.10525628 -0.69281805 0.034377895
0.10864766 -0.69247174 0.034711465
-0.013377836 -0.68333727 0.034460034
-0.008673463 -0.68332702 0.034451004
0.0069651078 -0.68331903 0.034441017
0.08586438 -0.68334824 0.034507029
0.086621054 -0.68334258 0.034511395
0.089116506 -0.68335879 0.034493428
0.095143415 -0.68334758 0.034483511
0.10013307 -0.68334502 0.034480929
0.10297627 -0.68334484 0.034491226
0.10373717 -0.6833474 0.034498259
0.0014913217 -0.67464024 0.034279902
0.025030933 -0.67461693 0.034272004
0.079218544 -0.6746043 0.034239292
0.084650934 -0.67466843 0.034311704
0.096035771 -0.67464083 0.034269348
0.097910471 -0.67465895 0.034304302
0.0025186886 -0.67390567 0.034861717
0.0035949734 -0.67389327 0.03485699
0.0054333615 -0.67389631 0.034838423
0.0068530892 -0.67390639 0.034842607
0.011852547 -0.67390144 0.034844261
0.012523117 -0.67390656 0.034852557
0.013257864 -0.67392409 0.034874395
0.076766342 -0.67391616 0.034870371
0.077469833 -0.67389959 0.034857146
0.097454146 -0.67390805 0.034852225
0.011618787 -0.66601562 0.034369498
0.012343862 -0.66601276 0.034366772
0.013028033 -0.66600478 0.03436093
0.014163882 -0.66600698 0.034362953
0.02020623 -0.66604048 0.034412891
0.033058342 -0.66604656 0.034417767
0.064780809 -0.66600382 0.034386199
0.07908427 -0.66600209 0.034362957
0.015515226 -0.66528791 0.034973834
0.016259171 -0.66528702 0.034973111
0.01767979 -0.6653052 0.034991529
0.027629359 -0.66528797 0.034983933
0.02944863 -0.66528165 0.034986183
0.03055577 -0.66528159 0.034986306
0.031988733 -0.66529626 0.034978103
0.081870668 -0.66529226 0.034978691
0.082747594 -0.66562402 0.034656838
0.084363185 -0.66599298 0.034360286
0.091536149 -0.66528404 0.034965906
0.024598299 -0.65819669 0.03418944
0.076407269 -0.65817684 0.034163348
0.025326494 -0.65748578 0.034807947
0.026023971 -0.65747952 0.034798618
0.043415219 -0.65745473 0.034762759
0.044212937 -0.65744746 0.034757216
0.079543769 -0.65743703 0.034739293
0.08346124 -0.65744358 0.034753446
0.08664415 -0.65744966 0.034768667
0.03677674 -0.65037459 0.034187451
0.041789491 -0.65041339 0.034222588
0.049566366 -0.65036875 0.034181427
0.038318291 -0.64966244 0.034815527
0.039606005 -0.64966965 0.034815162
0.040705554 -0.64967972 0.034810364
0.041436139 -0.64970303 0.034839742
0.047433794 -0.64967638 0.034811657
0.06067954 -0.64964622 0.034779921
0.061304677 -0.64964384 0.034779023
0.07138478 -0.64967 0.034813255
0.074603178 -0.6496647 0.034804773
0.075309254 -0.64966017 0.034783915
0.079943776 -0.64968032 0.034817524
0.048131533 -0.64267981 0.034501009
0.051351704 -0.64265096 0.034459852
0.056773029 -0.64266038 0.034460664
0.068490237 -0.64266109 0.034470387
0.069970086 -0.64266628 0.034482043
0.075326458 -0.64264864 0.034464307
0.076798998 -0.64263886 0.034465782
0.058484979 -0.63566166 0.034325782
0.072054885 -0.63568294 0.034347437
0.067346029 -0.63497764 0.034973148
0.068458386 -0.63495719 0.034953773
0.070964076 -0.63497388 0.034975622
0.13896057 -0.75869471 0.035979878
0.14450185 -0.74737567 0.035010494
0.14038692 -0.74651933 0.035389397
0.14273286 -0.74654627 0.035442021
0.14371942 -0.74658906 0.035501048
0.13561083 -0.7457453 0.035890944
0.12658022 -0.73443443 0.035283409
0.13122027 -0.73443884 0.035289865
0.1354614 -0.73442852 0.03527315
0.13764288 -0.73442537 0.035279509
0.13445641 -0.73361856 0.035740446
0.12069408 -0.7231679 0.035023056
0.12318624 -0.72316098 0.035012182
0.12853992 -0.72315824 0.035016935
-0.051096711 -0.71196508 0.03515479
-0.049322508 -0.71119869 0.035676178
0.095550887 -0.71195692 0.035131857
0.09663824 -0.71121788 0.035710726
0.097751223 -0.71123183 0.03574549
0.099477462 -0.71120268 0.035688151
0.11199421 -0.71199226 0.03520209
0.11769462 -0.71121424 0.035702363
0.12018724 -0.71117795 0.035658568
-0.040367361 -0.70160609 0.035127465
-0.037191529 -0.70158261 0.035118166
-0.035291806 -0.70159245 0.035113752
-0.032187629 -0.70157665 0.035118051
0.11448222 -0.70160413 0.03515058
-0.039281059 -0.70085692 0.035675563
0.10457005 -0.70086753 0.035713807
-0.024700426 -0.69130051 0.035466384
-0.023610808 -0.69130182 0.03546533
-0.020384025 -0.69131917 0.035473753
0.099566042 -0.69133073 0.035516378
0.10200341 -0.69133514 0.035513964
0.10632134 -0.6913113 0.035472486
0.10773306 -0.6913389 0.035518084
-0.012265777 -0.68260115 0.035038237
-0.011623354 -0.68259221 0.035037801
-0.0076482813 -0.68258595 0.03502411
-0.0015879604 -0.68256927 0.03501955
0.0023246121 -0.68258125 0.035009839
0.0058785714 -0.68257731 0.035015352
0.0080426559 -0.6825946 0.035033222
0.016582767 -0.68256998 0.035015732
0.091214098 -0.68259263 0.035032928
0.0929932 -0.68258697 0.035030603
0.098018795 -0.68261349 0.035071302
0.10226756 -0.68259519 0.035066836
-0.010526107 -0.68185544 0.035609875
-0.0065448075 -0.68184155 0.035596069
-0.0044762287 -0.68185246 0.035605896
-0.0037091423 -0.68185622 0.035609063
-0.0026524372 -0.68184173 0.035597406
0.0034069403 -0.68183935 0.035578001
0.0044372748 -0.68183017 0.035572223
0.0055645052 -0.68183607 0.035576835
0.0069784508 -0.68183672 0.035585515
0.08116328 -0.68185198 0.035610113
0.085157633 -0.68184042 0.035600968
0.089050017 -0.68186766 0.03562757
0.10192442 -0.68185627 0.035634231
0.010758039 -0.67317057 0.035432812
0.011493313 -0.67317027 0.035436016
0.016503735 -0.67320484 0.035481207
0.017872049 -0.6731959 0.035468936
0.022855192 -0.67316931 0.035448797
0.024648137 -0.673168 0.035449252
0.034979627 -0.67316675 0.035433535
0.037116654 -0.67316437 0.035439145
0.064288132 -0.6731987 0.035484776
0.073861234 -0.67314965 0.035415672
0.074636653 -0.6731618 0.035425831
0.076453097 -0.67320329 0.035477083
0.094264641 -0.67320544 0.035486188
0.09606614 -0.67319173 0.035463456
0.021311933 -0.66531795 0.035012677
0.014412513 -0.66455901 0.035559479
0.015189377 -0.6645633 0.035563599
0.022309393 -0.66459471 0.035609215
0.023025947 -0.66458815 0.035605248
0.025871709 -0.66455281 0.035568111
0.031564176 -0.6645664 0.035577502
0.081525065 -0.66459507 0.035604998
0.089063302 -0.66460001 0.035625674
0.090790756 -0.664581 0.035596251
0.027406367 -0.65676218 0.035409465
0.028489871 -0.65674269 0.035394169
0.029506205 -0.65672445 0.035372317
0.033464342 -0.65673918 0.035390697
0.034893751 -0.65672165 0.035382647
0.035611112 -0.65673745 0.035386734
0.036324915 -0.65674376 0.035383515
0.037411161 -0.65676874 0.035408664
0.042415462 -0.65674788 0.035393327
0.043066144 -0.65674639 0.03538505
0.075619645 -0.6567446 0.035391912
0.076319739 -0.65674806 0.035388134
0.084943011 -0.65674853 0.035397358
0.085614353 -0.65676987 0.035416134
0.047053162 -0.64897585 0.035448264
0.079541482 -0.64897388 0.035445858
0.049711365 -0.64162016 0.035440065
0.063466571 -0.64125842 0.03573719
0.064527422 -0.64123356 0.035711516
0.06625618 -0.64122748 0.035705868
0.067414008 -0.64195478 0.035101842
0.073847093 -0.64127368 0.035761759
0.074238516 -0.64195603 0.035110764
0.061311565 -0.63430667 0.035637412
0.065604664 -0.63431638 0.035663631
0.066311233 -0.63431269 0.035657138
0.067006446 -0.6343087 0.035645153
0.069794744 -0.63426602 0.035607733
0.13307774 -0.74496859 0.03639866
0.13417359 -0.74496698 0.036384013
0.1404869 -0.74494845 0.036373407
0.14213584 -0.74495035 0.036369488
0.12665382 -0.73289812 0.03630906
0.13012128 -0.73284888 0.036243953
0.11823968 -0.72161263 0.036048863
0.12574394 -0.72161996 0.036050595
0.12680617 -0.72163296 0.036080062
0.12755348 -0.72162563 0.036069024
-0.05511732 -0.72084272 0.03654236
-0.05437059 -0.72084558 0.036535881
0.095028438 -0.72082359 0.036520127
0.11686641 -0.7208463 0.036552384
0.12115754 -0.72085166 0.036544863
0.12369092 -0.72084916 0.036559939
0.124676 -0.72084528 0.036554642
0.12540399 -0.72085398 0.036560785
-0.052869394 -0.71044987 0.036224265
-0.0496407 -0.71043617 0.036210049
-0.048192613 -0.71043962 0.036199581
-0.04573809 -0.71043825 0.036196243
0.095600747 -0.7104277 0.036192115
0.11019473 -0.71045148 0.036235537
0.11205579 -0.7104634 0.036250118
0.1172971 -0.71044564 0.036229864
0.11985254 -0.71044266 0.036223844
0.12236328 -0.71042228 0.036204122
-0.051774878 -0.70967323 0.036741074
-0.047162153 -0.70967096 0.036722515
0.10345826 -0.70967096 0.036732025
0.1098511 -0.70967197 0.03674211
0.11697988 -0.70967424 0.036754832
0.11955433 -0.70968759 0.036765244
-0.038206406 -0.7000916 0.036211878
-0.0357279 -0.70007062 0.036196206
-0.028865384 -0.70007455 0.036204614
0.094224289 -0.7001093 0.036260981
0.10662156 -0.70007932 0.036208786
0.10997678 -0.70011789 0.036264606
0.11414988 -0.7000702 0.036209077
-0.037096836 -0.69932717 0.036745843
-0.036409516 -0.6993202 0.03674221
-0.033574007 -0.69932866 0.036749639
-0.030316552 -0.69931388 0.036742847
0.11271617 -0.69933945 0.036767919
-0.01858921 -0.6905849 0.036041599
-0.017184 -0.69057721 0.036042683
0.093140267 -0.69059616 0.036088675
0.10555872 -0.69057727 0.036068477
0.10738081 -0.69056684 0.036023479
-0.022173693 -0.6898095 0.036579557
-0.017566228 -0.68983316 0.036597118
0.088421024 -0.68981379 0.036579464
0.092781253 -0.68985188 0.036649492
0.097743131 -0.68982005 0.036621656
0.10202833 -0.68984002 0.036620021
-0.0055498746 -0.68109274 0.036161911
0.018027466 -0.68109161 0.036158245
0.082285129 -0.68109369 0.036158595
0.095504388 -0.68112129 0.036201302
0.098064616 -0.68113983 0.036222517
0.10051768 -0.68111622 0.036182728
0.10153144 -0.68112332 0.036199015
0.068669409 -0.68032593 0.036709845
0.083291061 -0.68035299 0.036711052
0.10016019 -0.68036151 0.036737941
0.0089693144 -0.6724382 0.036014684
0.0096541326 -0.67243087 0.036009464
0.010419752 -0.67243582 0.036010474
0.018950047 -0.67245716 0.036053006
0.019676611 -0.67244321 0.036039688
0.020299835 -0.6724236 0.036019284
0.031372122 -0.67247009 0.036067773
0.032814134 -0.67245561 0.03604582
0.041009456 -0.67245764 0.036026567
0.065423258 -0.67246562 0.036071617
0.075705074 -0.67243427 0.03601877
0.084964313 -0.67248142 0.036082301
0.095729917 -0.67246246 0.036058463
0.0046290732 -0.67169625 0.036609817
0.021434195 -0.67169362 0.036600411
0.022159571 -0.67169666 0.036600031
0.032472886 -0.67172748 0.036633812
0.060391955 -0.67169952 0.036615007
0.062494438 -0.67169821 0.036595035
0.06715551 -0.67171317 0.03662166
0.068774566 -0.6717189 0.036619708
0.076482058 -0.6717189 0.036627788
0.08465223 -0.67173195 0.036644291
0.087793149 -0.67170817 0.036602132
0.091070585 -0.6717115 0.0366279
0.093544155 -0.67173457 0.036667466
0.094256729 -0.67173797 0.036650356
0.01661879 -0.66384047 0.036170665
0.017327596 -0.66383982 0.036163978
0.02441103 -0.66384381 0.036186997
0.02543843 -0.66382849 0.036170259
0.037590895 -0.66313326 0.036788642
0.078989714 -0.66309285 0.036746815
0.079404093 -0.66382897 0.036160279
0.088633969 -0.66385823 0.036193624
0.07523337 -0.65604144 0.036014214
0.042301405 -0.65532595 0.036625266
0.083699971 -0.65528911 0.036581866
0.046713017 -0.64827096 0.036074355
0.058487821 -0.64828157 0.036082614
0.059182409 -0.64827734 0.036070276
0.071044534 -0.64826912 0.036081534
0.079224899 -0.6482842 0.036094137
0.045558579 -0.64758033 0.036715239
0.046271794 -0.64757043 0.036702499
0.057319812 -0.64757854 0.036716111
0.058111761 -0.64757949 0.036715947
0.069903426 -0.64758331 0.036723182
0.070603862 -0.6475668 0.036706414
0.078789726 -0.64758325 0.036736559
0.061652407 -0.64058554 0.03641006
0.073447213 -0.64058727 0.036418308
0.064494506 -0.63361847 0.036314942
0.065132894 -0.63362956 0.036317039
0.062626354 -0.63293439 0.036944129
0.06337893 -0.63293689 0.036956299
0.1384992 -0.7563985 0.037479877
0.13201044 -0.74339145 0.037343331
0.13599813 -0.74340194 0.037341632
0.13782756 -0.74340707 0.03736572
0.13957538 -0.74341142 0.037378468
0.13354321 -0.74260223 0.037845772
0.092072949 -0.73131818 0.03725668
0.12910874 -0.73129404 0.037204713
0.13206075 -0.73131895 0.037285868
0.13387187 -0.73132962 0.037282422
0.11779743 -0.73052806 0.037744746
0.12022489 -0.73053348 0.037736863
0.12529393 -0.73052406 0.037742816
0.13055407 -0.73050046 0.037713554
0.094750643 -0.72006243 0.037054446
0.12373688 -0.71930361 0.03758904
-0.050334554 -0.70813972 0.037786603
-0.044263147 -0.70891434 0.037249971
0.094902076 -0.70814651 0.037814014
0.096378252 -0.7081483 0.037792668
0.1098764 -0.70811939 0.037763052
0.11246176 -0.7081753 0.037836727
0.11648075 -0.70851576 0.037516467
-0.032496281 -0.69857627 0.037298307
-0.027480735 -0.6985659 0.037287839
0.10062028 -0.69858611 0.037337415
0.10315564 -0.69858336 0.037305977
0.10494836 -0.69861954 0.037380204
0.10993655 -0.69858974 0.037326846
0.11243668 -0.69859773 0.037335705
