# .PCD v0.7 - Point Cloud Data file format
VERSION 0.7
FIELDS x y z
SIZE 4 4 4
TYPE F F F
COUNT 1 1 1
WIDTH 1405
HEIGHT 1
VIEWPOINT 0 0 0 1 0 0 0
POINTS 1405
DATA ascii
0.1937504 1.5644095 0.56236297
0.16912462 1.5613663 0.42283896
0.15679874 1.5691332 0.35300058
0.14446315 1.5674208 0.28310934
0.12641853 1.5393554 0.18088023
0.11414322 1.5354928 0.11133058
0.1020283 1.5242232 0.042692252
0.088812925 1.5397522 -0.032194946
0.087268837 1.2954159 -0.040818285
0.06154583 1.5629036 -0.18671246
0.04683543 1.4713591 -0.27001765
0.032908298 1.4780853 -0.34894186
0.085751541 0.66693622 -0.048972834
0.074476987 0.7048195 -0.11285888
0.10185855 0.23458876 0.042716686
0.094129473 0.20094408 -0.00096797996
0.091965109 0.1475849 -0.013121061
0.09691292 0.087854527 0.014995571
0.09579806 0.057527211 0.008752862
0.094673656 -0.049673472 0.0026583192
0.094788827 -0.078194082 0.0033919057
0.096087031 -0.11064433 0.010837013
0.093854308 -0.12483875 -0.0017512656
0.09268827 -0.14361332 -0.0082878768
0.092664897 -0.16635129 -0.0083419532
0.092527822 -0.18763682 -0.0090414146
0.09270449 -0.20910515 -0.0079612015
0.092739873 -0.22921672 -0.0076828562
0.092354469 -0.27522627 -0.0096764565
0.092230439 -0.29281366 -0.010303326
0.092337243 -0.32740638 -0.0095444806
0.092395447 -0.34410116 -0.0091381185
0.092392974 -0.36037704 -0.0090761762
0.09249416 -0.37650421 -0.0084263394
0.092354313 -0.39214808 -0.0091440473
0.09231104 -0.40773872 -0.0093140779
0.092363536 -0.42325646 -0.0089409538
0.092272811 -0.44628406 -0.0093429675
0.092039444 -0.46160486 -0.010592
0.092072636 -0.47696063 -0.010328898
0.092198871 -0.49229774 -0.009538155
0.091900028 -0.50791091 -0.011159075
0.092234209 -0.53106183 -0.0091517903
0.092176951 -0.54689652 -0.009402521
0.091881171 -0.56328267 -0.011006651
0.091692187 -0.57988501 -0.012005053
0.091778278 -0.5963881 -0.011443042
0.091479398 -0.61397052 -0.013065264
0.091822654 -0.63954288 -0.011008093
0.091665514 -0.65805846 -0.011826683
0.091329105 -0.67772156 -0.013662521
0.094971322 -0.68601316 0.0070738969
0.099218793 -0.69110721 0.0312443
0.100491 -0.70537049 0.0385346
0.10093047 -0.73290938 0.041136138
0.10135445 -0.7516827 0.043613445
0.09059386 -0.8234635 -0.017367383
0.091517515 -0.85906816 -0.012020997
0.091337197 -0.8888194 -0.012974017
0.090824366 -0.92270112 -0.015814247
0.090400055 -0.95876813 -0.018152762
-0.084227964 -2.3220406 -1.0088906
-0.084750816 -2.4662912 -1.0118093
-0.085856795 -2.6303091 -1.0180401
-0.078783847 -2.8281882 -0.97784323
-0.046804633 -2.6944637 -0.79633212
0.086744674 -2.6624351 -0.038100943
0.12799485 -2.6495643 0.19612788
0.14795446 -2.653614 0.30946577
0.16126114 -2.6472936 0.38502786
0.17449117 -2.6462977 0.46015432
0.18764624 -2.6366496 0.53485763
0.20081364 -2.6323469 0.60962999
0.20743485 -2.6316869 0.64722091
0.22061363 -2.62538 0.72208023
0.23388463 -2.620347 0.79746282
0.5612185 -8.9174623 2.6535463
0.47956389 -4.9075699 2.1914482
0.66634274 -6.0991774 3.2512071
0.65252709 -5.5004592 3.1730385
0.67562652 -4.9679585 3.3044047
0.68357474 -4.7066298 3.3496511
0.67667121 -4.3535323 3.3106456
0.67467958 -4.0692925 3.2994957
0.65645701 -3.7017436 3.196265
0.68856639 -3.5700517 3.3786211
0.67883772 -3.3064072 3.3235631
0.67367971 -3.0874479 3.2944295
0.67183793 -2.8998721 3.2841063
0.67232865 -2.734185 3.2870128
0.67326933 -2.5789812 3.29247
0.65454078 -2.354641 3.1863322
0.6783306 -2.2304206 3.3214777
0.66988993 -2.0664968 3.2737026
0.66598588 -1.925441 3.2516646
0.66320395 -1.7938675 3.2359915
0.65801156 -1.6617084 3.2066402
0.65880585 -1.548703 3.2112548
0.66121131 -1.3863523 3.2250636
0.66148818 -1.2782111 3.2267404
0.6610629 -1.171088 3.2244322
0.66283435 -1.0686675 3.2345879
0.6188454 -0.92053896 2.9850905
0.63250399 -0.8385058 3.0626934
0.65519869 -0.75727248 3.1915698
0.65026844 -0.65638947 3.1636956
0.64718449 -0.51004112 3.1463466
0.64421791 -0.41379005 3.1296127
0.21087857 -0.41718948 0.67102933
0.20904073 -0.40585509 0.66072214
0.20835309 -0.40237191 0.65686065
0.20778798 -0.39438716 0.65373486
0.2071766 -0.38655141 0.65034664
0.20742826 -0.38155288 0.65181524
0.20729056 -0.36317846 0.65119588
0.20854296 -0.35007188 0.65838403
0.20891018 -0.33861181 0.66054904
0.20816498 -0.32464311 0.65644157
0.20744319 -0.31591514 0.65242642
0.20695342 -0.30618721 0.64972794
0.20712869 -0.28711662 0.65084392
0.20738176 -0.27284694 0.65236098
0.20778288 -0.24952884 0.65475869
0.2074579 -0.23587924 0.65299523
0.20722438 -0.2122516 0.65179133
0.45904344 1.6934975 2.0811353
0.43508789 1.6660097 1.9452685
0.40885285 1.6861374 1.7965068
0.39014167 1.6803684 1.6904008
0.37314838 1.6837541 1.5940435
0.35780922 1.6990067 1.507073
0.34143943 1.6971456 1.4142526
0.32356596 1.6674529 1.3128973
0.29974064 1.5352601 1.1777608
0.28006083 1.5488703 1.0661932
0.26674944 1.5493 0.99072731
0.25554571 1.5924596 0.92722297
0.24137802 1.5640908 0.84689558
0.2285082 1.5601608 0.77393395
0.21502897 1.5228511 0.69751269
0.20351192 1.5612144 0.6322282
0.18502443 1.564581 0.52742159
0.17278039 1.5840534 0.45800969
0.16042879 1.5660594 0.38798642
0.14808489 1.5695835 0.31800669
0.13581192 1.562642 0.248429
0.12376969 1.5453058 0.18016045
0.10591338 1.5188302 0.078931883
0.093510576 1.5171775 0.0086160237
0.079501629 1.5488412 -0.070815898
0.052992437 1.5508305 -0.22111848
0.049228095 1.3942888 -0.24240741
0.086142801 0.68345833 -0.032816656
0.080231681 0.65382671 -0.066288598
0.10299709 0.2253149 0.06307666
0.098254748 0.21821274 0.03623873
0.09123157 0.18005942 -0.0034664129
0.094822481 0.10550427 0.016993204
0.093447469 0.075806908 0.0092674093
0.092854932 -0.053157553 0.0062187673
0.093153767 -0.095535934 0.0080330875
0.094043046 -0.11258351 0.013119933
0.090258636 -0.13182177 -0.0082416981
0.090061828 -0.17677034 -0.0092009315
0.089559115 -0.19637194 -0.011975295
0.089958385 -0.21824232 -0.0096300617
0.089908399 -0.23779953 -0.0098346788
0.08968626 -0.25622439 -0.011016433
0.09023191 -0.27601984 -0.0078401743
0.089607708 -0.30120969 -0.01126424
0.090274967 -0.31120485 -0.0074372403
0.089825839 -0.33565113 -0.0098674865
0.089937203 -0.35226882 -0.0091559803
0.089816481 -0.36826524 -0.0097617013
0.089796148 -0.38417062 -0.0097975917
0.089874975 -0.39996415 -0.0092705972
0.089879014 -0.41552088 -0.0091680074
0.089805216 -0.43092519 -0.0095071886
0.089783162 -0.45395657 -0.0095126564
0.089769021 -0.46927989 -0.0095130298
0.089847654 -0.4845939 -0.0089867357
0.089500405 -0.50014126 -0.010877665
0.089593813 -0.5156067 -0.010267318
0.089610264 -0.531232 -0.010093729
0.089382753 -0.54729193 -0.011304761
0.089570753 -0.57120955 -0.010116962
0.089599408 -0.58758533 -0.0098737162
0.089239202 -0.60500294 -0.011837497
0.0891615 -0.62236863 -0.012197666
0.088880233 -0.64068115 -0.013713109
0.089332066 -0.66701192 -0.011026799
0.089371152 -0.68589085 -0.010723524
0.094403632 -0.68948132 0.017921405
0.097894773 -0.69647908 0.037817981
0.098034114 -0.71487904 0.038690597
0.09774667 -0.73579144 0.037141141
0.088821746 -0.80762178 -0.013390185
0.088157691 -0.83636516 -0.017076051
0.088267297 -0.8630985 -0.01637057
0.08905223 -0.9028551 -0.011789796
0.088442273 -0.93846303 -0.015167033
0.088174254 -0.974823 -0.016603062
-0.084465221 -2.3735156 -0.99619025
-0.085493527 -2.5274837 -1.0019213
-0.086175337 -2.694962 -1.0056825
-0.065006748 -2.6722214 -0.88544214
-0.040486764 -2.6936843 -0.74612826
0.1320142 -2.6512678 0.23404282
0.14534059 -2.6496322 0.30977762
0.15858513 -2.6523039 0.38504905
0.17842001 -2.6443114 0.49777332
0.19157602 -2.637332 0.5725413
0.21131994 -2.6283765 0.68471932
0.2245328 -2.6227129 0.75980055
0.23770021 -2.6133797 0.8346228
0.49409387 -4.9307542 2.2908726
0.65448427 -6.5131512 3.2016227
0.65538943 -6.0100317 3.2067349
0.66135085 -5.6237402 3.2405713
0.68113083 -5.4135933 3.3528759
0.68051571 -4.5521269 3.3494201
0.68071789 -4.2670403 3.3505964
0.64500791 -3.7595499 3.1479037
0.67152262 -3.7048173 3.2984707
0.67541641 -3.508857 3.320622
0.66946131 -3.2702358 3.2868664
0.66332984 -3.048589 3.2521143
0.67021054 -2.8204236 3.2912624
0.67239648 -2.6661792 3.3037333
0.67007548 -2.5007942 3.2906232
0.66638821 -2.3390992 3.2697608
0.66881269 -2.2071927 3.2835934
0.66297752 -2.0533569 3.2505431
0.66284943 -1.8618836 3.2499292
0.66086704 -1.7348111 3.238754
0.65876883 -1.6121414 3.2269237
0.65661591 -1.4935983 3.2147846
0.656775 -1.3832117 3.2157705
0.65486896 -1.2718204 3.2050359
0.65744072 -1.1698277 3.2197199
0.64000994 -0.99426627 3.1209123
0.61773866 -0.87532663 2.9945877
0.65697658 -0.8101449 3.2173991
0.65202963 -0.70749825 3.1894128
0.65043247 -0.60846835 3.1804416
0.64268172 -0.50981528 3.1365435
0.22094554 -0.42746013 0.74303406
0.20756903 -0.41336343 0.66734219
0.20621946 -0.40607476 0.65977627
0.20533812 -0.39848545 0.65486819
0.20491409 -0.39029834 0.65255618
0.20460474 -0.38187259 0.6508953
0.20467478 -0.37715775 0.65134043
0.20463011 -0.35832518 0.65127772
0.20630218 -0.34371457 0.66086525
0.20600526 -0.33393988 0.65927577
0.20520934 -0.32000023 0.65490228
0.20476577 -0.31590775 0.6524325
0.20407212 -0.30103374 0.64864022
0.20417416 -0.28186169 0.64936566
0.20477179 -0.26558453 0.65285653
0.20560551 -0.24684376 0.65768838
0.2045539 -0.22899608 0.65186673
0.20558776 -0.20566039 0.65783656
0.44554687 1.6914494 2.0207098
0.42346129 1.6738614 1.8954586
0.40496543 1.6769451 1.7905895
0.38621923 1.6701134 1.6842964
0.36310405 1.6971493 1.5532734
0.34684777 1.6999451 1.4611175
0.33143887 1.707105 1.3737732
0.29837474 1.4566969 1.1861218
0.29033092 1.5408399 1.1406099
0.27682129 1.5422335 1.064043
0.26359382 1.5435514 0.98907834
0.24346305 1.5270523 0.87498051
0.23194583 1.5595354 0.80973727
0.21942768 1.564116 0.73880136
0.20678999 1.5591931 0.66718304
0.19447592 1.5646311 0.5974068
0.18214861 1.5675886 0.52755463
0.16983196 1.5710655 0.45776382
0.15134664 1.568141 0.35301545
0.13904279 1.5644327 0.28329468
0.12702416 1.5443326 0.21518445
0.11473422 1.5416963 0.14554375
0.10264352 1.5296671 0.077029161
0.089264892 1.552394 0.0012241903
0.08702296 1.3072375 -0.011523175
0.043316368 1.549513 -0.25915831
0.029075263 1.5558645 -0.33986446
0.077549964 0.70559049 -0.06514658
0.073821075 0.64680552 -0.086239405
0.088225201 0.1576685 -0.0042857695
0.091611937 0.087850496 0.014989002
0.089951485 0.061408818 0.0056476141
0.092886962 -0.025723705 0.022445999
0.089655787 -0.065368816 0.0042780749
0.091216728 -0.10012139 0.013210122
0.089865454 -0.11862998 0.0056262231
0.087678887 -0.1330182 -0.0066953083
0.086934246 -0.16467749 -0.01079797
0.087640613 -0.17839666 -0.0067508295
0.08697927 -0.22781171 -0.01029843
0.087154955 -0.24768333 -0.0092198877
0.087317899 -0.26678151 -0.0082133766
0.086973906 -0.28404465 -0.010082575
0.087071799 -0.30188468 -0.0094448663
0.087291494 -0.31946015 -0.008116046
0.087129332 -0.3359172 -0.0089535564
0.087241657 -0.35250095 -0.0082338098
0.087014072 -0.37631589 -0.0094014332
0.086871982 -0.39199403 -0.010125313
0.086998917 -0.40774101 -0.0093228752
0.086877272 -0.42317143 -0.0099310381
0.086849615 -0.43857917 -0.010006096
0.08691553 -0.45394528 -0.00955036
0.086928539 -0.47692758 -0.0093544479
0.086880118 -0.49229941 -0.0095481332
0.086752817 -0.50780803 -0.010189861
0.08672104 -0.52339917 -0.010289776
0.086443886 -0.53940052 -0.011782781
0.086438231 -0.55537421 -0.011735334
0.086701833 -0.57119656 -0.010160139
0.086397126 -0.58812332 -0.011811051
0.086317606 -0.61364591 -0.012145748
0.086299255 -0.63111347 -0.012172934
0.086081013 -0.64954698 -0.013335587
0.085994355 -0.66826552 -0.013752144
0.088515513 -0.67997473 0.00063553569
0.093207248 -0.68413329 0.027347023
0.094583429 -0.69800818 0.035235047
0.095365196 -0.72386712 0.0397842
0.09613888 -0.74080354 0.044249702
0.086346075 -0.81842899 -0.011258016
0.085661113 -0.84802288 -0.015083156
0.085625656 -0.87625903 -0.015221935
0.085105732 -0.90920246 -0.018114999
0.0862417 -0.95133621 -0.01157696
-0.08572387 -2.4339693 -0.98865867
-0.086809717 -2.5955284 -0.99491292
-0.086683489 -2.7640364 -0.99429989
-0.061242305 -2.699398 -0.84979355
-0.023517467 -2.664536 -0.63554245
0.13628967 -2.6472688 0.2720744
0.14958553 -2.6422777 0.34759575
0.16279131 -2.6506078 0.42258945
0.17597495 -2.6392815 0.49748108
0.18911946 -2.633307 0.57214373
0.208955 -2.6303253 0.68483049
0.22201571 -2.6187251 0.75905436
0.2417153 -2.6037595 0.87100178
0.6570881 -6.294847 3.2242115
0.65557986 -5.7973285 3.2163465
0.666866 -5.4889574 3.2808509
0.66536778 -5.0937204 3.272913
0.67694336 -4.8522687 3.3389733
0.66609764 -4.4525671 3.2779937
0.67929131 -4.1368151 3.3533595
0.64875478 -3.6835442 3.1807065
0.68133157 -3.6664884 3.3656554
0.67360777 -3.4060903 3.3222151
0.66746187 -3.1746879 3.2876923
0.66401696 -2.9737504 3.2684579
0.66431332 -2.8034036 3.2704139
0.67149633 -2.5930164 3.311527
0.64417458 -2.3344412 3.1568773
0.67404729 -2.3042412 3.3264799
0.66546082 -2.1357126 3.2780263
0.66008151 -1.9870268 3.2477455
0.65634304 -1.8504748 3.2267599
0.65768456 -1.6737666 3.2346745
0.656102 -1.5543844 3.2258976
0.65467304 -1.439078 3.2179863
0.65212697 -1.3250974 3.2037344
0.65451306 -1.222137 3.2174509
0.65557563 -1.1183611 3.2236578
0.61371815 -0.96774656 2.986414
0.64203101 -0.89990294 3.1471796
0.65394413 -0.75974679 3.2150097
0.64641607 -0.65698475 3.1724718
0.64328563 -0.55861872 3.1548767
0.63903838 -0.46173868 3.1309433
0.2177078 -0.42765802 0.74101096
0.20601544 -0.41647872 0.67486179
0.2041705 -0.40944123 0.66448712
0.20315215 -0.40628895 0.65875566
0.20244001 -0.3984752 0.65480787
0.20162085 -0.38653615 0.65029889
0.20170738 -0.38186327 0.65083623
0.20125034 -0.36433589 0.64842808
0.2020362 -0.352593 0.65298039
0.20319042 -0.33905175 0.65962327
0.20244634 -0.32512945 0.65554029
0.20246479 -0.31947911 0.65569162
0.20109308 -0.3072924 0.64804649
0.20081985 -0.29646221 0.64658916
0.20112929 -0.27598092 0.64848566
0.20205975 -0.25759673 0.65386081
0.20230576 -0.241346 0.65535164
0.2015503 -0.2213722 0.65120572
0.45754388 1.7242153 2.1047809
0.43166199 1.6837949 1.958003
0.41295233 1.68964 1.8519388
0.39303789 1.6770711 1.7390304
0.37584624 1.6817122 1.6415776
0.35937497 1.6873991 1.5482123
0.336036 1.7007626 1.4159276
0.32152545 1.7171525 1.3336915
0.2944161 1.5408573 1.1798874
0.28139731 1.5532321 1.1061133
0.26732787 1.5427517 1.0263681
0.25546369 1.5706494 0.95915192
0.24159755 1.5513952 0.88055652
0.22900748 1.556577 0.80921233
0.2100746 1.5545447 0.70192093
0.1978156 1.5632104 0.63245714
0.18547554 1.5664166 0.56253141
0.17307588 1.5561442 0.4922621
0.16082945 1.5673794 0.42287189
0.14855984 1.5601524 0.35334253
0.1302332 1.550706 0.24949145
0.1180255 1.5443341 0.18031514
0.10623892 1.5216819 0.11352144
0.093579367 1.5291499 0.041788884
0.080372766 1.5436698 -0.033043522
0.079955712 1.2751511 -0.035438318
0.053210381 1.5638829 -0.18696025
0.042126153 1.4150014 -0.24977535
0.030620471 1.3928089 -0.31497017
0.076401398 0.68260646 -0.055504907
0.070314035 0.65499324 -0.089962572
0.09378428 0.23373348 0.043185931
0.08176668 0.1637875 -0.024707405
0.088447146 0.090271093 0.013204527
0.090508975 -0.028625291 0.025120456
0.085774295 -0.045483604 -0.0016102826
0.086251944 -0.076164857 0.0011768624
0.087405622 -0.10805137 0.0077985311
0.086114086 -0.12666383 0.00055500015
0.084396012 -0.14300302 -0.0091069015
0.084368445 -0.16576941 -0.0091816932
0.084374405 -0.18761402 -0.0090657277
0.084550127 -0.20908225 -0.0079864915
0.08458437 -0.22919369 -0.0077090724
0.083970167 -0.25618905 -0.011066624
0.08419542 -0.27520275 -0.0097048404
0.084069796 -0.29279 -0.010332566
0.084227368 -0.31051761 -0.0093537997
0.084339269 -0.3276749 -0.0086337151
0.084397309 -0.344336 -0.0082187597
0.084394351 -0.36057785 -0.0081493584
0.084324352 -0.37647986 -0.0084598931
0.084182359 -0.39212355 -0.0091784401
0.084136873 -0.40771401 -0.0093493229
0.08390139 -0.43081728 -0.01055371
0.084092796 -0.44625899 -0.0093803788
0.083856881 -0.46157956 -0.010630281
0.08388754 -0.47693521 -0.010368078
0.083837949 -0.49234185 -0.010560685
0.083882228 -0.50778073 -0.01022067
0.0836768 -0.52351087 -0.011296528
0.083638504 -0.54725182 -0.011379421
0.083849758 -0.56303149 -0.010091489
0.083656162 -0.5795998 -0.011099194
0.083405294 -0.5966537 -0.012431357
0.083433308 -0.6136182 -0.012181646
0.083285391 -0.64026487 -0.012883617
0.083446704 -0.65803128 -0.011877132
0.083262607 -0.67725581 -0.01282903
0.087666832 -0.68317068 0.012238765
0.091895081 -0.68808287 0.036308419
0.091967128 -0.70640546 0.036809657
0.092179812 -0.72496265 0.038108777
0.082711935 -0.79678696 -0.01543712
0.082343884 -0.82343483 -0.017428733
0.083389975 -0.85837054 -0.011352929
0.082950369 -0.88948518 -0.013748387
0.082315363 -0.92411053 -0.017250763
0.08201012 -0.95948172 -0.018882284
-0.092354588 -2.3195763 -1.0072104
-0.092705838 -2.4621449 -1.0090631
-0.094245724 -2.6293769 -1.0176483
-0.08792112 -2.8340862 -0.98156732
-0.054288629 -2.6838801 -0.79076964
-0.034399178 -2.6542528 -0.67787826
-0.0027205304 -2.6633563 -0.49801481
0.119731 -2.6366215 0.19727656
0.13947017 -2.6516125 0.30937433
0.15276475 -2.6452961 0.38486588
0.16596746 -2.6393077 0.4598361
0.17915276 -2.6376641 0.53470862
0.19234142 -2.634362 0.60959893
0.1989353 -2.6317139 0.64701444
0.212293 -2.6323454 0.72283214
0.22552601 -2.6243265 0.79793954
0.55156302 -8.9041424 2.6493168
0.47110829 -4.9095826 2.1918073
0.65955591 -6.1199179 3.2610161
0.66745955 -4.9707203 3.3056195
0.67217618 -4.6823001 3.3323317
0.66829783 -4.353775 3.3102934
0.67786449 -4.0226026 3.364532
0.65766108 -3.6508455 3.2499106
0.67981589 -3.5674157 3.3755844
0.66822243 -3.293443 3.3098226
0.6652019 -3.0863414 3.2926981
0.66230977 -2.8936727 3.2763078
0.66346669 -2.7313342 3.2828887
0.67187476 -2.5297525 3.3306136
0.65234715 -2.3066857 3.2198834
0.66753763 -2.2213724 3.3060708
0.66148543 -2.0657465 3.2717779
0.65774399 -1.925203 3.2505939
0.65481526 -1.7932353 3.2340214
0.65234649 -1.6677803 3.2200606
0.6542992 -1.5000138 3.2311981
0.65351164 -1.3871771 3.2267759
0.65113318 -1.2745557 3.2133327
0.65255052 -1.1705651 3.221417
0.65483928 -1.0688698 3.2344446
0.61135012 -0.92124349 2.9878695
0.63775438 -0.84941822 3.1376565
0.64878476 -0.75840873 3.2002587
0.64594126 -0.60892075 3.1842108
0.6397559 -0.51028115 3.1491885
0.63905388 -0.41369727 3.1452603
0.21512428 -0.41616103 0.74158823
0.20265713 -0.4172084 0.67097104
0.20098856 -0.410099 0.66158652
0.19993877 -0.39824951 0.65574926
0.19895558 -0.38656819 0.65028983
0.19878899 -0.37786412 0.64942217
0.19920956 -0.3676329 0.65188378
0.2001684 -0.35051093 0.65743583
0.20030816 -0.33443257 0.65834343
0.19952129 -0.32053822 0.65399706
0.19922791 -0.31593058 0.65237206
0.1982545 -0.30220333 0.64696795
0.19877648 -0.28773317 0.65000397
0.1991694 -0.27286169 0.65230805
0.19983047 -0.24820529 0.65617031
0.19937287 -0.23519889 0.65365201
0.19901563 -0.21226548 0.65174037
0.45048061 1.6886815 2.0774953
0.42065144 1.6925883 1.9084681
0.40079826 1.6852273 1.795972
0.3819879 1.6785887 1.689389
0.3649919 1.6819451 1.5930924
0.34957308 1.6962792 1.5057369
0.33305958 1.6925648 1.4121778
0.31533378 1.6646476 1.3117492
0.28548858 1.5464216 1.1426545
0.27183029 1.5459865 1.0652851
0.25862113 1.5483118 0.99046165
0.24779424 1.6001981 0.92913753
0.23291533 1.5542901 0.84485507
0.22027515 1.5562057 0.77325803
0.20678255 1.5178876 0.69683486
0.18911304 1.5566416 0.59675133
0.17690232 1.5675726 0.52758747
0.16460562 1.5790527 0.45793575
0.15225483 1.5670608 0.3879818
0.13993032 1.5665923 0.31817442
0.12790579 1.5437216 0.25007215
0.11569218 1.5393605 0.18089405
0.097752377 1.5168748 0.079287857
0.084196374 1.5465391 0.0024905533
0.070502639 1.5663263 -0.075086057
0.051106215 1.4376767 -0.18489388
0.032463323 1.528694 -0.29054958
0.080079734 0.65195048 -0.020289518
0.071739852 0.65658587 -0.067504361
0.089886218 0.21909317 0.035715699
0.082845069 0.18090391 -0.004048476
0.086329207 0.10713699 0.015801311
0.085049048 0.076609671 0.0086259479
0.087855376 -0.012743918 0.024713222
0.087937146 -0.043667253 0.025260948
0.086370736 -0.090236016 0.016543271
0.084151424 -0.11736475 0.0040802173
0.082927614 -0.13602084 -0.0027782377
0.081554554 -0.15359195 -0.010483353
0.081467353 -0.17566726 -0.01089581
0.08155255 -0.19738851 -0.010330728
0.081653878 -0.21822894 -0.0096744122
0.081758037 -0.23824035 -0.0090021826
0.082010016 -0.25790203 -0.0074917828
0.082085989 -0.27639779 -0.0069797598
0.081967987 -0.29388836 -0.0075680292
0.081517026 -0.31883895 -0.010004331
0.081518531 -0.33563879 -0.0099151032
0.081461214 -0.35201472 -0.010159596
0.081678495 -0.36846125 -0.0088468716
0.081659093 -0.38433251 -0.0088765472
0.081566781 -0.3999525 -0.0093197962
0.081743374 -0.41561398 -0.0082381209
0.081496686 -0.43091384 -0.0095570665
0.081474476 -0.45394549 -0.009563012
0.08145576 -0.46160722 -0.0096291993
0.081365526 -0.48463541 -0.010021131
0.081191398 -0.50013065 -0.010928863
0.081284918 -0.51559627 -0.010318799
0.081129923 -0.53137809 -0.011118174
0.080903366 -0.5474726 -0.012323433
0.081430674 -0.57095784 -0.009213726
0.080957167 -0.58812678 -0.011819644
0.080930717 -0.6049934 -0.011890254
0.080853187 -0.62235922 -0.012250625
0.081119329 -0.64837974 -0.010622409
0.081024632 -0.66700298 -0.011080272
0.08075466 -0.68678999 -0.012532161
0.082000189 -0.70256168 -0.0053895991
0.08989317 -0.69544101 0.039451346
0.089589737 -0.71541572 0.037809528
0.089448221 -0.73578364 0.037085891
0.080243498 -0.8088451 -0.014996821
0.079853356 -0.83635741 -0.017130598
0.079963855 -0.86309087 -0.016425259
0.080750756 -0.90284777 -0.01184475
0.079904519 -0.93991852 -0.016565355
0.079874329 -0.97481596 -0.01665814
-0.093299389 -2.3767014 -0.9985981
-0.094502956 -2.5323904 -1.0053477
-0.094581872 -2.6949546 -1.0057195
-0.073125288 -2.6696436 -0.88395971
-0.030184913 -2.6744227 -0.64024758
0.12369046 -2.6602278 0.2332108
0.13710354 -2.6566162 0.30935603
0.15042289 -2.6532969 0.38496992
0.17025748 -2.640306 0.49757203
0.18345159 -2.6373234 0.57247609
0.20323449 -2.6293597 0.68476868
0.21659914 -2.6286292 0.76065183
0.22961338 -2.6133699 0.83454758
0.48405221 -4.9003634 2.2780571
0.64076924 -6.4379106 3.1669352
0.62977201 -5.8068643 3.1046574
0.66613078 -5.5418301 3.310991
0.68518239 -5.3312216 3.4191236
0.6812461 -4.9393616 3.3968818
0.66895819 -4.5213761 3.3272731
0.66704351 -4.2229047 3.3164933
0.63571513 -3.7488213 3.1388965
0.66567123 -3.716706 3.3088646
0.67439926 -3.4428973 3.3584764
0.66902488 -3.2129166 3.3280704
0.66257048 -2.9941232 3.2915385
0.66315758 -2.823576 3.2949405
0.66258907 -2.6571586 3.2917874
0.65437967 -2.4686809 3.2453008
0.65996504 -2.344012 3.2770469
0.66418302 -2.1492422 3.3010721
0.65799034 -1.9969139 3.2660203
0.65433502 -1.8597077 3.2453587
0.65218127 -1.7323883 3.2332118
0.64829826 -1.6057917 3.2112577
0.64806741 -1.491909 3.2100153
0.64838493 -1.3819982 3.2118819
0.65001959 -1.2231933 3.2212498
0.65178484 -1.120181 3.2313251
0.62938166 -0.99104917 3.1043413
0.61410964 -0.87910956 3.0177991
0.64909893 -0.81005466 3.2162833
0.64432544 -0.70753121 3.1892757
0.63891745 -0.60735041 3.1586697
0.63584936 -0.50993824 3.1413326
0.21269527 -0.42757013 0.74199045
0.19948624 -0.41336858 0.66728085
0.19830726 -0.41028881 0.66063422
0.19745126 -0.40261394 0.65585774
0.1970548 -0.39438736 0.65368712
0.19627675 -0.37784791 0.64942998
0.19605297 -0.36911505 0.6482383
0.19672367 -0.35792533 0.65211844
0.19787173 -0.33952022 0.65874344
0.19779518 -0.3344169 0.65834773
0.19671473 -0.31591576 0.65237486
0.19626009 -0.31186774 0.64983535
0.19602577 -0.30104214 0.64858317
0.19627057 -0.28125492 0.65008527
0.19700222 -0.26430827 0.65430921
0.19691098 -0.24272271 0.65390515
0.19665128 -0.22829898 0.65250796
0.19744986 -0.20640211 0.65711004
0.43710771 1.6850121 2.0158937
0.41534507 1.6697198 1.8925637
0.38924837 1.6863995 1.7446866
0.37181908 1.6895057 1.6459258
0.35504901 1.6926959 1.5509033
0.33827868 1.6891227 1.4558814
0.32349464 1.7034158 1.3721188
0.29157272 1.4696472 1.1912385
0.28268558 1.5417506 1.1409009
0.26911074 1.5422063 1.0639999
0.24982379 1.5542233 0.95474368
0.23577546 1.5280045 0.87516558
0.22418591 1.5585334 0.80951554
0.21161492 1.5611347 0.73830789
0.19926544 1.5691024 0.66835523
0.18668954 1.5616286 0.59712321
0.17434859 1.5615851 0.5272218
0.15591359 1.5693679 0.42280176
0.14358371 1.5691347 0.35296422
0.13131681 1.5614371 0.28348619
0.11954423 1.5284196 0.21681845
0.10720074 1.5317955 0.14690413
0.095103383 1.5217931 0.078389511
0.081589684 1.5494672 0.001834023
0.067968637 1.42582 -0.07524845
0.04880631 1.5533426 -0.18385932
0.044607986 1.3972996 -0.2075419
0.028666766 1.4447879 -0.29786509
0.069182038 0.71204489 -0.067851529
0.065699674 0.64953613 -0.087499432
0.089116022 0.22934362 0.045553248
0.080376141 0.15685773 -0.0037405868
0.08303114 0.092650078 0.011412358
0.084450841 -0.022790818 0.019737575
0.081943691 -0.066724658 0.0056968429
0.082986802 -0.098801352 0.0117016
0.081626199 -0.11736298 0.0040737079
0.078575246 -0.14008118 -0.013096187
0.079738319 -0.15645745 -0.0064563011
0.078665115 -0.18551147 -0.012410472
0.078827605 -0.20709933 -0.011401306
0.079002805 -0.22780238 -0.010320318
0.078865394 -0.24679714 -0.011012116
0.079498328 -0.26717898 -0.0073358472
0.079155684 -0.28440985 -0.0091916397
0.079254955 -0.30221727 -0.0085416846
0.079475924 -0.31975979 -0.0072017638
0.079314642 -0.33618334 -0.0080293091
0.079101592 -0.36037004 -0.0091068279
0.079308249 -0.36866149 -0.0078916634
0.079058848 -0.39214075 -0.0091752112
0.079013467 -0.40773121 -0.0093455054
0.07889083 -0.42316154 -0.0099537168
0.07903567 -0.43862164 -0.009045396
0.078927189 -0.4539353 -0.0095731951
0.07891158 -0.46925834 -0.0095743444
0.078815378 -0.48462436 -0.010032281
0.07893309 -0.50769341 -0.00923358
0.078727186 -0.52338892 -0.010312993
0.078619368 -0.53921658 -0.010836217
0.078441069 -0.55536377 -0.011758745
0.078197598 -0.57191169 -0.0130504
0.078783773 -0.59579396 -0.0095946966
0.078642339 -0.6129843 -0.01030734
0.077968769 -0.63181937 -0.014035836
0.078072198 -0.64953613 -0.013359842
0.078613088 -0.67595798 -0.010158874
0.078409046 -0.69586056 -0.011224616
0.08565823 -0.68267089 0.029905474
0.087297373 -0.70483124 0.039330572
0.087212667 -0.72441882 0.038941354
0.077873558 -0.79560053 -0.013844217
0.078038484 -0.81967646 -0.012815448
0.077485561 -0.8486675 -0.015853494
0.077575192 -0.87624753 -0.01524949
0.078166641 -0.91837335 -0.011752037
0.077942275 -0.95281106 -0.012924053
-0.10065777 -2.276135 -1.0245714
-0.09457168 -2.435503 -0.98985326
-0.095988251 -2.5995879 -0.99770755
-0.096163526 -2.7707345 -0.99852037
-0.068901643 -2.6889307 -0.84393156
-0.031798162 -2.6599824 -0.63343686
0.066174269 -2.6607366 -0.077484883
0.12762348 -2.6582532 0.2712377
0.14103486 -2.6472926 0.34734115
0.15427972 -2.6446321 0.42250505
0.16752999 -2.6483066 0.49770284
0.18725146 -2.6333556 0.60961407
0.2072714 -2.6343095 0.72321153
0.22033621 -2.6203668 0.79736185
0.46751642 -4.930819 2.2005188
0.64393872 -6.2483125 3.2016137
0.6490652 -5.8248987 3.23054
0.66374546 -5.5471807 3.3137116
0.6439569 -4.9777222 3.2013111
0.67417747 -4.7403064 3.3726599
0.66594929 -4.374383 3.3259127
0.66903281 -4.1245546 3.343359
0.64024037 -3.68295 3.1799862
0.67106664 -3.6549499 3.3548381
0.66199225 -3.3871529 3.3033493
0.65617508 -3.1584675 3.2703478
0.661771 -2.9153638 3.3020961
0.66100514 -2.7428651 3.2977643
0.66117287 -2.5837407 3.2987328
0.63701355 -2.3379152 3.1617336
0.66354632 -2.2953508 3.3122408
0.65539616 -2.1288235 3.2660475
0.65484428 -1.9313854 3.2629681
0.65132183 -1.7972872 3.2430291
0.64759767 -1.6683865 3.2219491
0.64763212 -1.5530357 3.2221863
0.64507169 -1.4355755 3.2077105
0.64585137 -1.327803 3.2121766
0.64609641 -1.2211698 3.2136123
0.64802289 -1.1186491 3.2245829
0.61088687 -0.92576313 3.0140874
0.63284767 -0.84937602 3.1386592
0.64508855 -0.75905824 3.2081153
0.63965261 -0.65737152 3.1773438
0.63254923 -0.55802178 3.1371195
0.63370126 -0.46176603 3.143702
0.20992775 -0.42191601 0.74135584
0.19785263 -0.41222215 0.67308235
0.19615874 -0.40966317 0.66352564
0.19512735 -0.40212777 0.65777099
0.19455813 -0.39410898 0.65463638
0.19377717 -0.38654852 0.65030158
0.19344455 -0.37818637 0.64850813
0.19415054 -0.37204731 0.65255612
0.19435094 -0.35218063 0.65387559
0.19534925 -0.3390612 0.65962559
0.19502045 -0.32928526 0.65785289
0.19417824 -0.31537998 0.65321535
0.1932507 -0.3073 0.64804864
0.19287914 -0.29072127 0.64607787
0.19355848 -0.27472842 0.65001744
0.19461447 -0.25563386 0.65609062
0.19391131 -0.23656657 0.65223795
0.19395493 -0.21993741 0.65257221
0.44826904 1.7100964 2.0936897
0.42347097 1.6773841 1.9531971
0.40303865 1.6681445 1.8374438
0.38508245 1.6720392 1.7357219
0.36738867 1.6713737 1.6354899
0.34500405 1.7026116 1.5086863
0.32844889 1.6989969 1.4149104
0.31326205 1.7061501 1.3288858
0.28673282 1.5380926 1.1786561
0.27298737 1.5381367 1.100808
0.25971079 1.5408685 1.0256162
0.24798971 1.5716412 0.95922595
0.22765461 1.5513964 0.84406853
0.21496944 1.5513163 0.77222961
0.20261897 1.5585165 0.70228314
0.19031106 1.5662003 0.632577
0.17792104 1.5674154 0.5624088
0.15324804 1.5713699 0.42267609
0.13479035 1.56359 0.31814873
0.12276572 1.5417162 0.25006491
0.11058334 1.5363635 0.18107469
0.098428659 1.5285591 0.11224247
0.085292853 1.5487384 0.037826564
0.071885854 1.5650542 -0.038125549
0.071650028 1.2886215 -0.039183795
0.04897251 1.3834109 -0.16771963
0.039139807 1.3406901 -0.22336309
0.025474997 1.356565 -0.30078003
0.064587183 0.68120623 -0.078409672
0.086259782 0.23018627 0.045045845
0.076773547 0.18749608 -0.0084908772
0.076538727 0.1426948 -0.0096980073
0.079313412 0.079722427 0.0061760396
0.080909476 -0.0023781559 0.015473111
0.079102345 -0.080238901 0.0055601439
0.078944646 -0.10553951 0.0047775274
0.073941484 -0.10764001 -0.023503624
0.076740041 -0.14424124 -0.0075111464
0.075824425 -0.17462143 -0.012541839
0.075898834 -0.1964021 -0.012010332
0.07598976 -0.21730313 -0.011385711
0.076083973 -0.23737635 -0.010743028
0.07632634 -0.25710082 -0.0092601785
0.076233409 -0.27526984 -0.0096801454
0.076428592 -0.29357445 -0.0084658228
0.076422922 -0.31091148 -0.0083913915
0.07636755 -0.3277438 -0.0085991975
0.076422557 -0.34440547 -0.0081809983
0.076247543 -0.36042306 -0.0090679266
0.076259397 -0.38437834 -0.0088420585
0.076163046 -0.39999861 -0.0092830136
0.075990215 -0.41545126 -0.010157866
0.07608483 -0.43096045 -0.0095156701
0.075926974 -0.44629806 -0.01030562
0.076035738 -0.46165431 -0.0095831463
0.075890355 -0.47701061 -0.010302292
0.075934097 -0.50009125 -0.0098958192
0.075850479 -0.51564419 -0.010264376
0.07586281 -0.53126991 -0.010088587
0.075801454 -0.54713953 -0.01033062
0.075670861 -0.56333548 -0.010965097
0.075476587 -0.57993847 -0.01196052
0.075225286 -0.59702688 -0.013279044
0.07555408 -0.62206686 -0.011253771
0.075427234 -0.63997269 -0.011865662
0.075266838 -0.658521 -0.012667364
0.074927203 -0.67821646 -0.014484985
0.076061629 -0.70406622 -0.0078886887
0.084017731 -0.68765819 0.037280049
0.084826134 -0.71273708 0.042026848
0.084805131 -0.73238701 0.04201711
0.074400328 -0.79807866 -0.016865058
0.075007565 -0.83319581 -0.013252206
0.074963547 -0.8604669 -0.013386991
0.074534342 -0.89165932 -0.015704019
0.073789485 -0.9270795 -0.019808589
0.075134151 -0.96958619 -0.012006397
-0.10115411 -2.3254023 -1.0109657
-0.096564628 -2.5030839 -0.98466057
-0.096749082 -2.6641076 -0.98549616
-0.09374813 -2.8129687 -0.96826899
-0.061345037 -2.673656 -0.78444988
0.070399635 -2.6556616 -0.03622232
0.11799243 -2.6542735 0.23413722
0.14463182 -2.6482992 0.38547152
0.15786235 -2.6472912 0.46063539
0.17104591 -2.6406248 0.53552943
0.1841421 -2.6303225 0.60992551
0.19083075 -2.6336384 0.64788961
0.20414476 -2.6322615 0.72349972
0.22390616 -2.6172352 0.83571494
0.4789823 -4.914825 2.2850077
0.64693862 -6.0719886 3.2388704
0.67374671 -5.4757352 3.3906412
0.66819793 -5.0513558 3.3589094
0.66077316 -4.6570144 3.3165576
0.66893214 -4.2815905 3.362663
0.64582264 -3.8595028 3.2313108
0.65589267 -3.6925187 3.2883816
0.66190374 -3.5098848 3.3224137
0.65647423 -3.273999 3.291503
0.65425235 -3.0722778 3.2788155
0.6508894 -2.8782148 3.2596607
0.66010475 -2.6717966 3.3118887
0.66195655 -2.5227642 3.3223512
0.64764655 -2.3196485 3.2410889
0.65919608 -2.2207046 3.3066044
0.65057194 -2.0568495 3.257628
0.64725316 -1.9181999 3.2387671
0.6446082 -1.7875233 3.2237356
0.6432656 -1.6072714 3.2160912
0.64436144 -1.4959615 3.222296
0.64289916 -1.3822234 3.2139874
0.64450622 -1.2766883 3.2230971
0.64392251 -1.1694602 3.2197778
0.64621258 -1.0678332 3.2327657
0.60188967 -0.91946453 2.9812911
0.62455374 -0.79638886 3.1098793
0.63978118 -0.70775223 3.1962693
0.63438624 -0.60733217 3.1656642
0.63167578 -0.50971311 3.1502895
0.62959021 -0.41323861 3.1384618
0.20607911 -0.42815238 0.73616946
0.19440058 -0.41732779 0.67006564
0.19273521 -0.40582132 0.66072565
0.19204801 -0.40233877 0.65686333
0.19126774 -0.39027157 0.65254396
0.19063388 -0.3824977 0.64901972
0.19087121 -0.37747374 0.65040106
0.19099163 -0.36314663 0.65118968
0.19205163 -0.34544224 0.65730613
0.19222979 -0.33438388 0.65838635
0.19144426 -0.32049087 0.65403646
0.19129862 -0.31535372 0.65324539
0.19032158 -0.30158433 0.64780945
0.1913956 -0.28467816 0.6539678
0.19104336 -0.26620477 0.65207332
0.19135275 -0.2426908 0.65392888
0.19084841 -0.22968166 0.65113676
0.19118279 -0.21075837 0.6530987
0.43385911 1.7028039 2.0286849
0.41149542 1.6838496 1.9019201
0.39217713 1.6804452 1.792421
0.37349313 1.6745323 1.6865221
0.3567819 1.6804063 1.5918067
0.33404964 1.7045451 1.4629679
0.31846914 1.7099415 1.3746682
0.29217368 1.5569108 1.2256869
0.27728826 1.5437285 1.1413419
0.26375869 1.5451471 1.0646795
0.25070307 1.5503324 0.9907037
0.23961706 1.5964038 0.92787623
0.22508976 1.5592527 0.84557885
0.20589638 1.5532751 0.73683816
0.19283281 1.5254626 0.66283882
0.18122444 1.5636438 0.59705567
0.16891968 1.5685884 0.52734238
0.1566108 1.5770584 0.45760435
0.14426264 1.5690544 0.38765335
0.13200061 1.5605835 0.31819165
0.113844 1.5403235 0.21534529
0.10143077 1.5436388 0.1450206
0.089413956 1.5286372 0.076955058
0.07615009 1.548429 0.0017976314
0.06378907 1.5371399 -0.068221226
0.062034097 1.3108968 -0.077966623
0.039643571 1.3887013 -0.20487656
0.016299985 1.5483109 -0.33727676
0.069538854 0.68804169 -0.034813855
0.06408678 0.65194356 -0.065634869
0.075923823 0.22186363 0.0020549074
0.07588686 0.17172171 0.0019521991
0.078198403 0.10788599 0.015176034
0.080169998 -0.015030834 0.026662018
0.078761354 -0.051539291 0.018811489
0.075770676 -0.090332635 0.002029524
0.075843625 -0.11616497 0.0025360701
0.076691106 -0.14390311 0.0074360967
0.073941655 -0.1553725 -0.0080715623
0.074009217 -0.17790519 -0.0075974991
0.07380867 -0.19847761 -0.0086450335
0.073915079 -0.21925706 -0.0079517215
0.074024007 -0.23920636 -0.0072446666
0.074123017 -0.25838214 -0.006594318
0.073483437 -0.28409803 -0.010089886
0.073417604 -0.30159602 -0.010375401
0.073634841 -0.31920439 -0.0090556163
0.073637277 -0.33597046 -0.0089544877
0.073580705 -0.35231227 -0.0091882907
0.073628664 -0.36851639 -0.0088293971
0.073608436 -0.38438725 -0.0088574225
0.073504865 -0.40779427 -0.0093150968
0.073518373 -0.41556337 -0.0091953054
0.073528036 -0.43868473 -0.0090111736
0.073420107 -0.45399851 -0.0095370989
0.0735787 -0.46930408 -0.0085516814
0.073309474 -0.48468769 -0.0099924421
0.073307484 -0.50009543 -0.009917777
0.073227137 -0.51564777 -0.010287435
0.073071241 -0.53142929 -0.011085484
0.073108181 -0.55521959 -0.010747068
0.073032714 -0.57149172 -0.011088946
0.072895229 -0.58817667 -0.01178241
0.072702609 -0.60535192 -0.012788328
0.07246282 -0.62309247 -0.01406159
0.072894007 -0.64881885 -0.011487191
0.07264325 -0.66789627 -0.012822203
0.07253217 -0.68729174 -0.013365079
0.073020086 -0.70551741 -0.010511905
0.08182577 -0.69548291 0.039495192
0.081084087 -0.71709144 0.035377048
0.071812324 -0.78611547 -0.017051376
0.072168484 -0.80889082 -0.014943724
0.072654672 -0.84545195 -0.012053934
0.072344467 -0.87494838 -0.013722282
0.072424501 -0.90430605 -0.013178004
0.071703173 -0.94069391 -0.017174859
0.073237643 -0.98333293 -0.0083391275
-0.10316244 -2.3896055 -1.0078808
-0.10509484 -2.5521755 -1.0186918
-0.097742155 -2.7361617 -0.97680646
-0.075133175 -2.6977684 -0.84854579
-0.037929021 -2.6691196 -0.63744724
0.13561264 -2.6533058 0.34744012
0.14889282 -2.6506388 0.42280987
0.16211277 -2.6433067 0.49783573
0.17541294 -2.6472967 0.57332021
0.19522084 -2.6362996 0.68575943
0.20838752 -2.6266415 0.76049352
0.22152688 -2.6153166 0.83507198
0.64286393 -6.2974248 3.2260256
0.63514751 -5.7309885 3.1821406
0.6581918 -5.5442567 3.3128085
0.65722191 -5.1487164 3.3072407
0.66803628 -4.8960752 3.3685422
0.65418285 -4.4686179 3.2899151
0.66160417 -4.109479 3.3319793
0.63407457 -3.6773789 3.1758094
0.66972309 -3.6795123 3.3780131
0.66091079 -3.4116077 3.3280296
0.65586871 -3.185461 3.2994385
0.65214366 -2.9821396 3.2783232
0.65091395 -2.8038921 3.2713659
0.65844029 -2.5946341 3.3140831
0.62944585 -2.3292708 3.1496727
0.6612305 -2.3062112 3.3299584
0.6537438 -2.1410639 3.2875304
0.64597493 -1.9845315 3.2435062
0.64428127 -1.8538333 3.2339365
0.64146328 -1.7252985 3.2179933
0.64237231 -1.5531572 3.2232058
0.64391768 -1.4438078 3.2320092
0.6399284 -1.3266978 3.2094293
0.64134163 -1.2219808 3.217485
0.64293456 -1.1188776 3.2265601
0.59921259 -0.96607637 2.9786932
0.61536759 -0.88739032 3.0703406
0.63862252 -0.75822526 3.2022653
0.63404912 -0.65710205 3.1763799
0.63197887 -0.55880553 3.1646876
0.62635928 -0.46157688 3.1328723
0.20479479 -0.42745167 0.74296767
0.1932334 -0.42064822 0.67754281
0.19123799 -0.41355047 0.6663115
0.19005959 -0.40607163 0.65971231
0.18897453 -0.39437923 0.6536833
0.18836232 -0.38654375 0.65029413
0.18819466 -0.37784001 0.64942509
0.18813106 -0.36873257 0.6491459
0.18846965 -0.35344478 0.65118688
0.18940328 -0.33534718 0.65660071
0.1890495 -0.32563511 0.65467602
0.18877502 -0.3153775 0.65320075
0.1881725 -0.31185955 0.64982581
0.1880796 -0.3004604 0.64937955
0.18831776 -0.28063095 0.65084952
0.18882468 -0.25760108 0.65384203
0.18907344 -0.24134998 0.65533102
0.18892728 -0.22616898 0.65458137
0.42067957 1.6984625 1.9681696
0.39934161 1.6831048 1.8472816
0.38074178 1.6822482 1.7419124
0.36333373 1.6852576 1.6432989
0.34634078 1.6857072 1.5470397
0.32991385 1.6855958 1.4539901
0.30863154 1.7172098 1.3334424
0.28185439 1.5465035 1.1817774
0.26777476 1.5419246 1.102038
0.25493267 1.5533036 1.0293089
0.24178402 1.5552213 0.95484555
0.22745185 1.5221844 0.8736856
0.21592799 1.5536463 0.80842304
0.20332894 1.5542365 0.7370764
0.1847782 1.5612205 0.63202637
0.17244202 1.5644146 0.56216943
0.16012423 1.5671245 0.49241692
0.14780346 1.5683601 0.42264819
0.13550051 1.5641245 0.35298264
0.12356209 1.5314913 0.28539491
0.11126192 1.5373465 0.21574144
0.093170509 1.5216343 0.11330529
0.080073595 1.5418564 0.039129358
0.066549115 1.562121 -0.037470598
0.066750303 1.2770212 -0.036135182
0.052743629 1.3256874 -0.11547972
0.040933389 1.3225467 -0.18235154
0.031223262 1.2841481 -0.23730312
0.060906712 0.71383935 -0.068708047
0.057338312 0.65220684 -0.088830136
0.080468796 0.23455344 0.042639207
0.072528876 0.15435827 -0.0020895747
0.074466415 0.09580376 0.009003018
0.0776539 0.00023874707 0.027281595
0.076419875 -0.023562623 0.02037972
0.077106498 -0.057178263 0.024370659
0.072856672 -0.075555071 0.00041134245
0.073072925 -0.10296784 0.0017331953
0.072843559 -0.12672339 0.00052716769
0.070983067 -0.14247586 -0.0099295089
0.071094245 -0.16583014 -0.0092049427
0.071098626 -0.18767479 -0.009086458
0.071122527 -0.20864299 -0.0088576125
0.071152531 -0.22878499 -0.0085945325
0.071332149 -0.24859442 -0.00748329
0.071498729 -0.2676293 -0.006446315
0.070625342 -0.29249293 -0.011260471
0.071421832 -0.30294517 -0.0066981707
0.070889324 -0.32744378 -0.0095799053
0.070945024 -0.34413847 -0.0091724414
0.071109228 -0.36063918 -0.0081499005
0.071038663 -0.37654132 -0.0084585473
0.070896156 -0.39218515 -0.0091752261
0.071022645 -0.40789756 -0.0083667934
0.070614174 -0.43087921 -0.010545854
0.070458181 -0.44625106 -0.011339083
0.07074286 -0.46164164 -0.0096339406
0.070773259 -0.47696242 -0.0093704714
0.070896499 -0.49226454 -0.0085806102
0.070594154 -0.50784296 -0.010203492
0.070560642 -0.52343416 -0.010302214
0.070452474 -0.53926194 -0.010824124
0.070561759 -0.56309396 -0.010067518
0.070368215 -0.57966244 -0.011073158
0.070449688 -0.59613186 -0.010519673
0.070145652 -0.61368114 -0.012151361
0.069638282 -0.63222384 -0.014935413
0.069583885 -0.65036374 -0.015151569
0.069819771 -0.67775744 -0.013675867
0.069780111 -0.6973151 -0.013807938
0.070336848 -0.71564031 -0.010559287
0.079127081 -0.70487314 0.03935669
0.078898318 -0.72501999 0.038152713
0.0697053 -0.79564732 -0.013810593
0.068925202 -0.82412839 -0.018137021
0.069186866 -0.84937072 -0.016558636
0.07004384 -0.88746524 -0.011557645
0.069517329 -0.92129773 -0.014444343
0.06931147 -0.95583081 -0.015512902
-0.1047264 -2.3126745 -1.0014961
-0.10470965 -2.4518189 -1.0012618
-0.10543639 -2.6113312 -1.0052348
-0.10792755 -2.8047931 -1.0191978
-0.068017565 -2.6884184 -0.79285234
0.065078564 -2.6605136 -0.037577242
0.13292813 -2.6483068 0.34750041
0.15277934 -2.6413085 0.46016657
0.16601041 -2.642648 0.53526217
0.17923577 -2.6393232 0.61032349
0.18586461 -2.6376553 0.64793015
0.19914255 -2.6332998 0.72326547
0.21241604 -2.6262496 0.79857492
0.46125576 -4.9547815 2.2104568
0.64660257 -6.1195436 3.26173
0.65500826 -5.7496023 3.3093128
0.67360795 -5.5180817 3.4147351
0.65296704 -4.9569249 3.2975962
0.66068459 -4.6942091 3.3413236
0.65478039 -4.3494072 3.3078058
0.65180725 -4.0582805 3.2909238
0.64929283 -3.6802084 3.2766523
0.66306359 -3.5447383 3.3547473
0.65657347 -3.3007162 3.3179502
0.65230137 -3.0866463 3.2937386
0.64980614 -2.8958831 3.279609
0.64987898 -2.7285116 3.2800467
0.65150416 -2.5764968 3.2892911
0.64045668 -2.310694 3.2266996
0.65731132 -2.2308002 3.3223066
0.64781642 -2.0634546 3.2685101
0.64359391 -1.9216766 3.2446125
0.64048386 -1.7895093 3.2270253
0.64054859 -1.6705643 3.2274415
0.63783693 -1.5489299 3.2121186
0.63943332 -1.3849837 3.221251
0.63754028 -1.2733924 3.2105744
0.64012867 -1.1711969 3.2253084
0.64224929 -1.0691574 3.2373917
0.59892005 -0.92163289 2.9917908
0.62773806 -0.85160148 3.1552429
0.63579637 -0.70846277 3.2010283
0.63091117 -0.6080209 3.173398
0.62697542 -0.50999737 3.1511524
0.62435794 -0.41353747 3.1363826
0.20174445 -0.41626757 0.74061084
0.18947011 -0.4126001 0.67113417
0.18794809 -0.40540019 0.66258067
0.18692181 -0.40236706 0.65679985
0.18635702 -0.39438233 0.65367359
0.18550548 -0.3825247 0.64895964
0.18531249 -0.37383753 0.64794165
0.18583883 -0.36798599 0.65096378
0.18664379 -0.35133415 0.65564209
0.18694481 -0.33488005 0.65746361
0.18658896 -0.32513732 0.6555227
0.18570854 -0.31131688 0.65064627
0.18504383 -0.30218294 0.64695454
0.18556543 -0.28771254 0.64998913
0.18595788 -0.27284089 0.65229183
0.18661809 -0.24818422 0.65615177
0.18615997 -0.23517819 0.65363228
0.18619649 -0.21849988 0.65391773
0.43813607 1.695944 2.0827463
0.41383702 1.666085 1.945066
0.38766986 1.6870438 1.796844
0.36973992 1.6890023 1.6952773
0.35217163 1.68731 1.5957602
0.33663714 1.7008419 1.5077761
0.31972596 1.6926621 1.4119836
0.30349097 1.6849855 1.3200246
0.27835667 1.5352958 1.1775876
0.25870919 1.5498514 1.0663271
0.24547355 1.5522099 0.99137348
0.23398654 1.5895715 0.92633998
0.21978638 1.5601969 0.84591216
0.20695673 1.5572213 0.77325904
0.19386859 1.5357356 0.69913673
0.18200536 1.5602275 0.63196778
0.16356073 1.5695761 0.52752507
0.13888635 1.5680535 0.38780221
0.12671728 1.549602 0.31888983
0.11458225 1.540713 0.25017217
0.10236308 1.537349 0.18097848
0.090202294 1.5295402 0.11211448
0.070780843 1.5474745 0.0021334549
0.057328716 1.5614254 -0.074047208
0.056317706 1.317654 -0.079756223
0.037729025 1.4376174 -0.18503357
0.02097634 1.4985554 -0.27991611
0.021071164 1.3027874 -0.27934694
0.058296185 0.65836525 -0.068384908
0.076020367 0.22511758 0.032222178
0.06959033 0.18086311 -0.0040916125
0.074586831 0.056082353 0.024354547
0.074829206 0.018669095 0.025794221
0.074621655 -0.012781329 0.024684409
0.070451058 -0.089655712 0.0012805313
0.068736434 -0.13184674 -0.0083032651
0.068336658 -0.15363087 -0.01050166
0.068543591 -0.17679521 -0.0092607671
0.06819123 -0.19691192 -0.011190193
0.068292208 -0.21778227 -0.010549719
0.068550959 -0.23827821 -0.0090148253
0.068963021 -0.25836214 -0.0066106683
0.068724178 -0.27604431 -0.0078964764
0.068606302 -0.29356706 -0.0084965741
0.06893567 -0.31155473 -0.0065611666
0.068558268 -0.32773545 -0.0086326534
0.068269946 -0.35205117 -0.010165275
0.068489671 -0.36849734 -0.0088516278
0.068472639 -0.38436839 -0.0088804262
0.068210669 -0.39984903 -0.010298065
0.068388939 -0.41554484 -0.0092197722
0.06849058 -0.43101883 -0.0085760914
0.068298705 -0.45398039 -0.0095632803
0.068281196 -0.461642 -0.009629094
0.068194613 -0.48466986 -0.010019928
0.068195947 -0.50007778 -0.0099459002
0.068118982 -0.51563025 -0.010316189
0.067966521 -0.53141195 -0.01111487
0.068178572 -0.55499458 -0.0098141134
0.06810534 -0.57123286 -0.010164354
0.067969978 -0.58788419 -0.010867345
0.067944534 -0.6047172 -0.010947364
0.06770473 -0.62239182 -0.012243667
0.067426473 -0.64070439 -0.013758591
0.0672784 -0.65931648 -0.01453577
0.067771599 -0.68636781 -0.011645467
0.067498788 -0.70695621 -0.013131804
0.067086726 -0.7289474 -0.015408914
0.076896183 -0.71380955 0.040296901
0.067466669 -0.78316122 -0.01310682
0.067262597 -0.80826014 -0.014207617
0.067006014 -0.83510238 -0.015607714
0.066854976 -0.86312121 -0.016410427
0.066453151 -0.89441508 -0.018637858
0.067281537 -0.93702275 -0.013861753
0.066669673 -0.97560018 -0.017286222
-0.10570426 -2.372797 -0.99556035
-0.10641193 -2.5242872 -0.99962014
-0.10680039 -2.6891716 -1.0018816
-0.086539187 -2.6748667 -0.88692254
-0.067354903 -2.6613271 -0.77807027
-0.04312608 -2.6753857 -0.64060348
0.069748387 -2.6703043 -9.944418e-05
0.11103434 -2.6492815 0.23421122
0.12433979 -2.6506321 0.30971968
0.13761777 -2.650301 0.38507399
0.1574976 -2.648299 0.49789649
0.17074381 -2.6452978 0.57307333
0.19059519 -2.6372886 0.68577689
0.20400891 -2.6365159 0.76193219
0.21706975 -2.6212049 0.83609825
0.46800092 -4.8514857 2.2577636
0.62738776 -6.4232736 3.1604125
0.63717854 -5.7972341 3.2165802
0.67115855 -5.3158078 3.4098387
0.66930842 -4.9433594 3.3997343
0.65616429 -4.518805 3.3256252
0.65322715 -4.213306 3.3092988
0.62065125 -3.7318347 3.1250401
0.64922529 -3.6920402 3.2871876
0.65978479 -3.4314389 3.3473961
0.65672332 -3.2148197 3.3302875
0.65169036 -3.0031667 3.3019946
0.64893019 -2.8165123 3.2865684
0.64926696 -2.6546106 3.2886837
0.64016026 -2.4628069 3.2372715
0.64860809 -2.3493185 3.2853408
0.65013611 -2.1451013 3.2942786
0.64497024 -1.9963055 3.2651765
0.64144737 -1.8595699 3.2453811
0.63736969 -1.7273704 3.2224352
0.63682151 -1.6090273 3.2194917
0.63496053 -1.4914314 3.2091029
0.63492924 -1.3809355 3.2090824
0.63670027 -1.2225398 3.2193537
0.63760102 -1.1184702 3.2246118
0.61022252 -0.98405087 3.0695405
0.60398716 -0.88164395 3.0343325
0.63484645 -0.80906653 3.2094367
0.62987965 -0.70670056 3.1814201
0.62653428 -0.60742795 3.1625941
0.62125534 -0.46162212 3.1328721
0.19971794 -0.42746049 0.74296361
0.18647918 -0.41770941 0.66806698
0.18530895 -0.41451275 0.66147423
0.18389642 -0.39438787 0.65368038
0.18344876 -0.38624352 0.65122813
0.18317173 -0.37312725 0.64978689
0.18339995 -0.35833347 0.65121108
0.18470359 -0.33952159 0.65873522
0.18422659 -0.33026192 0.65611684
0.18398534 -0.32001016 0.6548357
0.1832324 -0.31132558 0.65065235
0.18249062 -0.29647875 0.64657605
0.18377894 -0.28471291 0.65392774
0.18408707 -0.26302564 0.65580779
0.18385327 -0.24204397 0.65461457
0.18358698 -0.2275954 0.65319312
0.18414113 -0.20713699 0.65642655
0.42284441 1.6786908 2.0110824
0.40211654 1.6714191 1.8936242
0.37701157 1.6974769 1.7514015
0.35838467 1.6895533 1.6458563
0.34185705 1.695387 1.5522211
0.32484129 1.6891598 1.4558122
0.31019518 1.7052753 1.3728505
0.27946064 1.4882134 1.1985549
0.26908526 1.5389512 1.1398259
0.25579438 1.5441239 1.0645443
0.2364419 1.5551989 0.95493418
0.22192211 1.5172913 0.87266481
0.21069038 1.5565715 0.80907524
0.19818421 1.561132 0.73824346
0.18549529 1.553215 0.66636997
0.17328703 1.5636106 0.59723055
0.15480244 1.56811 0.49254033
0.14247756 1.5723475 0.42273733
0.13026372 1.5501219 0.35355237
